# .PCD v0.7 - Point Cloud Data file format
VERSION 0.7
FIELDS x y z normal_x normal_y normal_z curvature
SIZE 4 4 4 4 4 4 4
TYPE F F F F F F F
COUNT 1 1 1 1 1 1 1
WIDTH 567
HEIGHT 1
VIEWPOINT 0 0 0 1 0 0 0
POINTS 567
DATA ascii
0.067927405 0.070818819 0.0027888441 -0.34854406 0.038767599 0.93649036 0.0065408475
0.074757054 0.069646485 0.0026390934 0.7956112 -0.33048844 0.50772053 0.020579567
0.07582587 0.070643716 0.0013431576 0.91829181 -0.29149264 0.26790315 0.022532664
0.068294562 0.072529249 0.0027303721 -0.52354896 0.0030796849 0.85199004 0.0081014642
0.076784514 0.07303416 0.0014554439 0.96125096 -0.1737304 0.2140431 0.051001009
0.068048656 0.075996913 0.0026095572 -0.49156794 -0.043335747 0.86976033 0.0063720476
-0.018366091 0.0029209587 0.0035534566 -0.26070744 -0.95426208 0.14634065 0.0062816758
-0.0162252 0.0025943329 0.004133801 -0.19314876 -0.95968282 0.20421164 0.0070591806
-0.013581866 0.0022208265 0.0045822584 -0.16977733 -0.94809258 0.26887923 0.0040009622
-0.01045029 0.0016953909 0.0045392853 -0.13135263 -0.95216709 0.27590626 0.0042690262
-0.0074007283 0.0013208846 0.0044992282 -0.094343849 -0.95178384 0.29190195 0.0039449409
-0.0044627693 0.0010960292 0.0045077163 -0.064707182 -0.94862944 0.30970174 0.0037426711
-0.0014702085 0.00095538556 0.0044782613 -0.033281345 -0.9473182 0.31856012 0.0030879348
0.001412759 0.00095344643 0.0045590457 -0.00033959255 -0.94698644 0.32127345 0.0024824415
0.004626622 0.00094570499 0.0043849866 0.029670322 -0.94167119 0.33522382 0.0027968024
0.0075712465 0.0010733601 0.0044122329 0.054420453 -0.93715864 0.34463328 0.0025595103
0.010455462 0.0012984974 0.0045094648 0.078419127 -0.93001151 0.35906687 0.0024516652
0.01348189 0.0015467125 0.0044451864 0.097491927 -0.93067676 0.35261306 0.0032855181
0.016539657 0.0019376153 0.0044824034 0.12243665 -0.92637515 0.35614374 0.0034290012
0.019490065 0.0023515341 0.0043829731 0.15159629 -0.92975771 0.3355132 0.0047690715
0.022284515 0.0026857506 0.0038483709 0.19670735 -0.92723477 0.31865633 0.0045719482
0.024255242 0.0029265967 0.0032950132 0.23650789 -0.92730051 0.29013404 0.0043327347
-0.027666058 0.0057985913 0.0036040726 -0.3141728 -0.9430446 0.10937294 0.013635079
-0.025350934 0.005291312 0.00438098 -0.29190266 -0.9437272 0.15547296 0.01502605
-0.022574799 0.004466482 0.0045861439 -0.28538904 -0.93368667 0.21629186 0.0067301788
-0.019391473 0.0035838187 0.0046967408 -0.26567742 -0.92645252 0.26664814 0.006257812
-0.016891703 0.0032338207 0.0054715625 -0.21969287 -0.93359733 0.28307414 0.0052687419
0.020267501 0.0031055845 0.005829582 0.15161535 -0.85309798 0.49923614 0.0018086922
0.022839075 0.0033157254 0.0052201268 0.18603569 -0.89942443 0.39550772 0.0046604285
0.025555633 0.0036670445 0.0045106621 0.24682532 -0.91463524 0.32018676 0.0027418321
0.0285205 0.0044510984 0.0045014583 0.25411496 -0.90567017 0.33939233 0.0040193074
0.031459954 0.0052910759 0.0043811738 0.2861177 -0.90653402 0.31037509 0.0034258608
0.033576634 0.0057607 0.0036825377 0.31386569 -0.9025529 0.29476526 0.0027585311
-0.036077917 0.0089491177 0.0037516179 -0.34787408 -0.92052394 0.17781819 0.015913848
-0.034104679 0.0083900755 0.0041507222 -0.34782973 -0.93247801 0.097464286 0.012928205
-0.031441588 0.0074569136 0.0044731032 -0.33643836 -0.92491412 0.17704016 0.0087774191
-0.028760068 0.0065709557 0.0047337157 -0.35329509 -0.9092744 0.22000632 0.0086618643
-0.02660895 0.006190558 0.0058054808 -0.27873844 -0.9154318 0.29032665 0.0054854555
0.032640129 0.0061502289 0.0056574107 0.29672259 -0.86886889 0.39626062 0.0041790409
0.034749094 0.0065245139 0.0047012176 0.34812781 -0.88828737 0.29958737 0.0023622217
0.037511896 0.0074994657 0.0044663171 0.35163838 -0.88783151 0.29682606 0.0021912497
0.040131804 0.0085074641 0.0042201257 0.37573308 -0.88221079 0.28377587 0.0026116865
0.042003427 0.0089052077 0.0030370683 0.35945135 -0.92315519 0.13630567 0.0038357463
-0.04213639 0.011881071 0.0031423694 -0.46215802 -0.87714088 -0.13051365 0.012162315
-0.04019114 0.011195663 0.0043336181 -0.4319275 -0.89693916 0.094544902 0.015978783
-0.037639223 0.0099474899 0.0042540673 -0.42324251 -0.89551169 0.13756678 0.0072622467
-0.03535508 0.0092178127 0.0051969672 -0.39750394 -0.89643586 0.19594242 0.0099151749
0.04133014 0.0093290573 0.0050569321 0.41175094 -0.86455739 0.28809997 0.0024219262
0.043523181 0.010161168 0.0044492707 0.41547474 -0.86219978 0.28981426 0.0022817426
0.046135906 0.011410234 0.0042005721 0.44747987 -0.85063052 0.2760244 0.0024308793
-0.045604095 0.014259419 0.0042809434 -0.53841037 -0.82033521 0.19278067 0.015027115
-0.043382347 0.013001743 0.0045381035 -0.50059372 -0.83752793 0.21898153 0.0085698385
-0.041693211 0.012274669 0.0053041861 -0.44900256 -0.85913438 0.24552985 0.0083581815
0.047329981 0.012346145 0.0050055576 0.47369033 -0.83235407 0.28775731 0.00235301
0.04951537 0.013410922 0.0044451063 0.4922623 -0.82441336 0.27932131 0.002033873
0.051651213 0.014570943 0.0040525482 0.50525552 -0.81012183 0.29735416 0.0023212307
-0.051144078 0.017937953 0.0035136403 -0.5978024 -0.79765415 -0.079875417 0.019430753
-0.049189687 0.016706334 0.0041557457 -0.59345722 -0.79971564 0.090903081 0.010925504
-0.047425359 0.015744153 0.005076048 -0.58409852 -0.79509211 0.16327138 0.012205161
0.052968983 0.01567311 0.00465712 0.53561318 -0.79327434 0.28954148 0.002126673
0.055237323 0.017114893 0.0043055876 0.55781466 -0.77741092 0.2906459 0.0024669215
0.057032045 0.017815396 0.0031122337 0.57508421 -0.79364103 0.19852491 0.0041971765
-0.054527085 0.020604843 0.004122152 -0.61996788 -0.78245711 0.058316052 0.016715694
-0.052654378 0.019410387 0.0047479151 -0.58041966 -0.79729182 0.16564669 0.016006161
-0.05064854 0.01812472 0.0053889505 -0.59461671 -0.77507192 0.2137628 0.012697165
0.056498379 0.018381072 0.0051362705 0.58303261 -0.7555415 0.29871416 0.0024445478
0.05841963 0.019627621 0.0044099502 0.61663383 -0.73589367 0.27968395 0.0020336884
0.060217347 0.020751299 0.0034610508 0.64082474 -0.71092027 0.28971711 0.0021620204
-0.057696681 0.023331368 0.0043866322 -0.67027789 -0.74065989 0.046373934 0.021681098
-0.056005955 0.02197502 0.0045565483 -0.62563735 -0.76531488 0.1512318 0.010400419
0.059740622 0.021299778 0.0055694408 0.62706393 -0.68140686 0.37745938 0.002642323
0.061508674 0.022452258 0.0044711703 0.67078358 -0.68472272 0.28496367 0.0020825982
0.063228227 0.023743229 0.0034747438 0.70586348 -0.64429647 0.29434451 0.0023630997
-0.060785498 0.026531279 0.0046010055 -0.74378216 -0.65384638 0.13882774 0.023460647
-0.059077509 0.024779323 0.0047425209 -0.6825465 -0.716124 0.14593378 0.0075700944
0.062725008 0.024297105 0.0055254027 0.68749636 -0.61213458 0.39069167 0.001987522
0.064370766 0.025536096 0.0043925508 0.7388168 -0.60577655 0.29527017 0.0019953046
0.066030622 0.026893949 0.0030223057 0.76878899 -0.57122618 0.28751382 0.0022467761
-0.063402198 0.029770739 0.0045392304 -0.77401716 -0.61992973 0.12878086 0.013453936
-0.062051006 0.027983459 0.0044556949 -0.77953398 -0.61980331 0.090391532 0.010240046
0.065582164 0.027535042 0.0051073879 0.76290154 -0.56023341 0.322676 0.00257676
0.066813514 0.028743187 0.0042711054 0.78804773 -0.51966155 0.3300494 0.0030472728
-0.064568311 0.031343799 0.0044476511 -0.79608005 -0.57878119 0.17683057 0.010535999
-0.0073372633 0.032992531 0.0056498544 0.15102752 0.86023468 0.48701844 0.00095955661
0.068158418 0.031247303 0.0046140077 0.8234129 -0.45063359 0.34484854 0.0026071351
0.069228984 0.032478683 0.0036722391 0.84332401 -0.41573659 0.34054035 0.0029642424
-0.066725761 0.03469225 0.0042661447 -0.83895457 -0.52366936 0.14807314 0.0046558017
-0.065958723 0.033255972 0.004092061 -0.80609882 -0.58361298 0.097982809 0.0066381264
-0.018255977 0.035980854 0.0050863964 0.30885801 0.9031623 0.29816878 0.0017931138
-0.016187061 0.035498772 0.0044823242 0.26621807 0.91476279 0.30386999 0.0014005236
-0.0133958 0.034612183 0.0049187746 0.21498176 0.90470672 0.36781606 0.0010355567
-0.01057864 0.033945803 0.0048726518 0.18647721 0.90466183 0.38316214 0.00069771684
-0.0087056002 0.03322782 0.0057647428 0.19281128 0.8670283 0.45944068 0.0014224651
0.068833537 0.033531182 0.0055897813 0.82648355 -0.35632175 0.43584368 0.0032059625
0.069862135 0.034590971 0.0043291976 0.86377668 -0.34790802 0.36448583 0.0035123115
-0.069227748 0.038330223 0.003221584 -0.85325068 -0.46557686 0.23495002 0.0063212854
-0.068381503 0.037423395 0.0043554669 -0.84650797 -0.46845397 0.25293326 0.0057860743
-0.025032133 0.03863734 0.004594747 0.38876528 0.87968582 0.27388772 0.0013522194
-0.02249248 0.037632417 0.0045810388 0.34782243 0.88861412 0.29897264 0.0019246869
-0.019762617 0.036651965 0.0045041195 0.29219159 0.91000158 0.29414487 0.0023602874
0.070814572 0.037458684 0.0044675237 0.8928591 -0.25559965 0.3707712 0.0030538205
-0.031191273 0.041365396 0.0048093693 0.42027932 0.86378008 0.27793756 0.0019703617
-0.028581988 0.040224958 0.004551088 0.39651608 0.87385142 0.28135172 0.0020754833
-0.026696196 0.039354455 0.0045441343 0.38294241 0.87838072 0.28601143 0.0018648063
0.071393251 0.040363673 0.004627978 0.90314204 -0.17125843 0.39370674 0.0032344523
0.072108813 0.041237451 0.0032502192 0.93776768 -0.17158312 0.30191225 0.0031071589
-0.037238751 0.044588149 0.0044976352 0.45413837 0.85381287 0.2544837 0.0014504563
-0.034561865 0.043259643 0.0042941379 0.43448299 0.86875767 0.23766491 0.0011909796
-0.032097057 0.042193711 0.0037210772 0.42153919 0.89233088 0.16140117 0.0014343503
0.071588621 0.043316539 0.0050530094 0.89885962 -0.08433298 0.43004575 0.0032934134
0.072274953 0.043638486 0.0035775956 0.93620491 -0.086950675 0.34052888 0.0031874154
-0.042779475 0.047293067 0.0052141831 0.43790337 0.80997133 0.39011163 0.0015503027
-0.040484264 0.046303794 0.0046153683 0.45794839 0.83759493 0.29785565 0.001966072
-0.038496628 0.045437388 0.003925127 0.46470645 0.84270859 0.27182737 0.0020782349
0.071620248 0.046569597 0.0052598468 0.89354253 -0.015607137 0.44870722 0.0031787853
0.072375767 0.04652578 0.0037004512 0.92888445 -0.029666727 0.36917949 0.0042368765
-0.048744921 0.050711561 0.0048820181 0.4376885 0.83419228 0.33548775 0.002406582
-0.046421032 0.049684115 0.0043027634 0.45081419 0.83453625 0.31672671 0.0022070259
-0.044088919 0.048457727 0.0041533802 0.43689349 0.83979297 0.32229173 0.0026123044
0.071549997 0.049592581 0.0052475743 0.87373537 0.032213006 0.4853338 0.0042891223
0.07237678 0.049441367 0.0037139377 0.92643231 0.00076396373 0.37646064 0.003966751
-0.05492758 0.053620003 0.0049635656 0.36647722 0.88055313 0.30053389 0.0044079167
-0.052356657 0.052649438 0.0045881337 0.40489176 0.84859961 0.3405017 0.0024312804
-0.050126232 0.051634379 0.0042990688 0.42986166 0.8351711 0.34308615 0.0021961548
0.071475521 0.052628309 0.005075722 0.82006025 0.066846885 0.56835967 0.0041481177
0.072364219 0.052429471 0.0036029117 0.9031294 0.012652033 0.42918205 0.0044613038
-0.072424099 0.056391671 0.0057983426 -0.090729214 0.31023338 0.94632101 0.011471304
-0.066054747 0.056965366 0.0059156269 0.25115517 0.66061628 0.70746541 0.0049039181
-0.06397064 0.056286924 0.0057484843 0.20017728 0.63347268 0.74742323 0.0071115871
-0.061465818 0.056414492 0.0041436679 0.46088839 0.82333761 0.33120546 0.0078995125
-0.058769181 0.055009212 0.0046641566 0.33193183 0.82686049 0.45400777 0.0058614407
-0.055169754 0.054293126 0.00366884 0.38753703 0.89289111 0.22926074 0.0041543767
0.071259752 0.055520035 0.0049267239 0.81661451 0.051206823 0.57490736 0.0079198722
0.072343417 0.05546236 0.0034977861 0.87054926 0.019587113 0.49169126 0.0077935904
-0.069940113 0.058044773 0.0056820028 0.12776357 0.58176291 0.80326104 0.01272034
-0.067408994 0.058749277 0.0047095646 0.20217952 0.64888334 0.73353517 0.01251236
-0.063919239 0.05791235 0.0038837653 0.36771914 0.7822299 0.50289065 0.0053924895
-0.062495839 0.057348769 0.0035676593 0.3733173 0.78692353 0.49131 0.0073516942
0.065901265 0.057515707 0.0059924456 0.27826804 0.29981753 0.91251105 0.0091705322
0.068144664 0.058895119 0.0055983933 0.41831923 0.23320097 0.87785321 0.0097610895
0.071085341 0.058313839 0.0045805965 0.76910782 0.042423103 0.63770956 0.0081037413
0.072321936 0.058328699 0.0034026145 0.88018447 0.0056602028 0.47459802 0.016553704
-0.067598544 0.060313836 0.0032300549 0.28096703 0.79532701 0.53713357 0.024828028
0.068169892 0.061481409 0.0047621001 0.3285194 0.17423117 0.92828792 0.006357308
0.071093224 0.061422866 0.0040331432 0.70182288 0.025509983 0.71189451 0.011793964
0.072354615 0.061202966 0.0032777679 0.86012429 -0.034456506 0.50891924 0.026245028
0.06848406 0.064356424 0.0040572211 0.23306853 0.13413766 0.96316469 0.012280761
0.071022101 0.064054988 0.0037307588 0.57822055 -0.01765218 0.8156895 0.018417638
0.072547644 0.064516187 0.003247733 0.70249707 -0.09548986 0.70525146 0.028237538
0.068565071 0.06774202 0.0033991123 0.14956427 -0.042061299 0.98785692 0.016280467
0.071263097 0.067395307 0.0036234453 0.44002444 -0.13910142 0.88714671 0.020097034
0.073078558 0.067547105 0.0033496425 0.73676795 -0.22050552 0.63917935 0.020369682
0.068745717 0.07092075 0.0030849408 -0.10594136 -0.024768231 0.99406391 0.020081539
0.071049847 0.070223033 0.0038960986 0.1148766 -0.19768338 0.97351152 0.022507669
0.073807754 0.070593558 0.0036605911 0.64556605 -0.29939413 0.70257217 0.018310018
0.07516437 0.071585089 0.0031565793 0.8138091 -0.31949985 0.48542202 0.03569508
0.068804964 0.073270917 0.0030242919 -0.49155444 -0.043398105 0.8697648 0.0063694329
0.070969693 0.073324658 0.0044464269 0.10230996 -0.20129897 0.97417217 0.018359449
0.073900104 0.07332167 0.0045176167 0.68759882 -0.26846546 0.67463636 0.024351062
0.07559894 0.073364511 0.0035655068 0.87934947 -0.17673539 0.44216394 0.048669994
0.068846673 0.075566188 0.0034428723 -0.20543481 -0.074898474 0.97580051 0.020884931
0.071287796 0.075145207 0.0050841095 0.088758953 -0.21267672 0.97308296 0.041584518
0.073250875 0.075250842 0.0049845409 0.54162866 -0.23814085 0.80618078 0.046880841
-0.015063591 0.0029086955 0.0060703303 -0.23117988 -0.90602988 0.35449371 0.0092362948
-0.013213843 0.0028412333 0.0063596652 -0.16503942 -0.87965858 0.44605243 0.0010191345
-0.01034657 0.0025834127 0.0067119165 -0.12042403 -0.87830305 0.46268985 0.0014355308
-0.0073240194 0.0024107816 0.0070579569 -0.083486781 -0.8819375 0.46391404 0.0015614926
-0.0044070287 0.0022793731 0.0072280751 -0.046869967 -0.88024634 0.47219661 0.0017533846
-0.0014858906 0.0021781006 0.0072572944 -0.021076517 -0.88188934 0.47098508 0.0019667707
0.0015150285 0.0022047188 0.0073442389 0.0032455442 -0.8775385 0.47949511 0.0017037198
0.0045151343 0.0022299923 0.0072519896 0.03305012 -0.87576592 0.48160341 0.0016163778
0.0075000781 0.0023552692 0.0071431254 0.060057849 -0.87039208 0.48868257 0.0013573129
0.010415205 0.002511183 0.0069201305 0.082824513 -0.87004292 0.48596853 0.0011647076
0.013443046 0.002665383 0.0065958365 0.10759237 -0.86011958 0.49861637 0.00097595382
0.016077176 0.0028105341 0.0063238223 0.11968879 -0.85110271 0.51117378 0.00063823682
0.01875617 0.0029505035 0.0061223879 0.14993599 -0.84476513 0.51370341 0.0014779292
-0.024475444 0.0057881237 0.0064433315 -0.29281527 -0.86108774 0.41567668 0.001201054
-0.022283228 0.0054365275 0.0070725288 -0.25880772 -0.86948723 0.42072615 0.0013223966
-0.019246647 0.0047989511 0.0074803652 -0.22801784 -0.86303025 0.45076233 0.0013504209
-0.016396252 0.0040963953 0.0074655665 -0.18919888 -0.87280411 0.44990754 0.0015645113
-0.013605487 0.0036765595 0.0077334051 -0.15876654 -0.85733908 0.48965588 0.0012089711
-0.010605656 0.0034089631 0.0081258798 -0.11674341 -0.85686147 0.50215477 0.001375164
-0.0076235486 0.0032338977 0.0084334025 -0.082233533 -0.84073991 0.53515798 0.0012831318
-0.0046980907 0.0032002928 0.0087311268 -0.047421385 -0.8423093 0.53690439 0.0016456338
-0.0015322965 0.0031129709 0.0088413544 -0.019814836 -0.8315497 0.55509692 0.0018208274
0.0017247963 0.0030850405 0.0088488897 0.0069455504 -0.82575434 0.5639872 0.0016019089
0.0046904744 0.0031497469 0.0087779192 0.035153236 -0.83645815 0.54690218 0.0016875725
0.0076779993 0.0032571331 0.0086456873 0.066062175 -0.8229351 0.56428152 0.0012303705
0.010624767 0.0033680315 0.0083741834 0.092001051 -0.82277316 0.56087434 0.00091273023
0.013438646 0.0035527505 0.0080518331 0.11246428 -0.83866966 0.53290242 0.00070938835
0.016500061 0.0038780908 0.0078164823 0.12910113 -0.8285287 0.54486066 0.00054998888
0.019484228 0.00423209 0.0075899106 0.14997795 -0.81829953 0.55488068 0.00080793776
0.022481633 0.0046590534 0.0074395747 0.16352981 -0.80141175 0.57532352 0.0016611669
0.025437526 0.0050025373 0.0071128788 0.18928386 -0.81162333 0.55266559 0.003480091
0.028367512 0.0054875719 0.0067999284 0.2169715 -0.81954515 0.53034812 0.0032934274
0.030528707 0.0058100238 0.0063070538 0.27078077 -0.83485186 0.47927049 0.0031896168
-0.033458252 0.0088492194 0.0062294709 -0.35579526 -0.87724894 0.32224825 0.0051302984
-0.031189794 0.0084708203 0.0072125606 -0.313005 -0.84935272 0.42500341 0.0010764088
-0.028554937 0.007711539 0.0075128619 -0.29853499 -0.85592687 0.42221573 0.0018362287
-0.025678147 0.0068249619 0.0077032256 -0.27923578 -0.84770733 0.45102063 0.00092407141
-0.022927685 0.0063256831 0.008376753 -0.24854641 -0.83955121 0.48309264 0.00096106902
-0.020598598 0.0060040685 0.0087895636 -0.21803933 -0.79050225 0.57233292 0.0010236738
0.023484264 0.0061246534 0.0089012263 0.17037351 -0.75762373 0.63006282 0.00070966908
0.025938861 0.0063478476 0.008608711 0.17763653 -0.73851269 0.65041858 0.0007082182
0.028728945 0.0066447658 0.0082101738 0.19860841 -0.75764483 0.62171453 0.0021844364
0.031656418 0.006982591 0.0075594964 0.24845806 -0.79884011 0.54783487 0.0034813033
0.03449874 0.0078196442 0.0074321893 0.26824799 -0.79365438 0.54603636 0.003381653
0.037236828 0.0084559089 0.006862055 0.32175693 -0.81436205 0.48299795 0.0027731853
0.039259419 0.0088814981 0.0061863363 0.34490547 -0.81151319 0.47168481 0.0022342876
-0.039632864 0.011703872 0.0064668106 -0.41956896 -0.82986289 0.36781701 0.003169646
-0.037504002 0.011069248 0.0072068833 -0.37620217 -0.82317936 0.42526194 0.00098363357
-0.034624539 0.0099652875 0.0074972692 -0.35397595 -0.83671921 0.41785407 0.00084696885
-0.0320272 0.0094217565 0.0084035806 -0.30700871 -0.83199471 0.4620935 0.00096358045
0.035532668 0.0091876695 0.0088206427 0.26718721 -0.70840728 0.6532765 0.0028469975
0.037803307 0.0095512616 0.0081910994 0.29385683 -0.76749837 0.56973189 0.0034268505
0.040528115 0.010259775 0.0075293477 0.34617579 -0.79702777 0.49488285 0.0025647453
0.043257605 0.011244838 0.0070863012 0.38377473 -0.78740686 0.48239759 0.0025986643
0.045351073 0.011825299 0.0063159401 0.40356395 -0.78563303 0.46895301 0.0023481864
-0.045374408 0.014829719 0.0062382123 -0.50766748 -0.79254991 0.33784389 0.0060830223
-0.043309771 0.014186103 0.0073111737 -0.45853046 -0.78509146 0.41639063 0.0015284697
-0.040583499 0.01283624 0.0076581705 -0.41934589 -0.79967141 0.42973801 0.0010128831
-0.038439855 0.012256694 0.0085751871 -0.38099167 -0.78754884 0.48436782 0.00086903165
0.044093248 0.012462322 0.0083285011 0.36132908 -0.74858963 0.55592698 0.003337716
0.04659659 0.013266363 0.0075311712 0.41560361 -0.76988757 0.48430026 0.0024058542
0.049087893 0.014333173 0.0069598467 0.46010184 -0.75425655 0.46840501 0.0018585447
0.051032066 0.014989938 0.0060983971 0.46995893 -0.75236529 0.46161142 0.0025095651
-0.048696738 0.017554233 0.0070646987 -0.53836906 -0.75529754 0.37374374 0.0035736933
-0.046492197 0.016324367 0.0075666057 -0.50680017 -0.76247489 0.40222591 0.0014812511
-0.044344585 0.015346908 0.0083956383 -0.46909872 -0.76141155 0.44743589 0.0011181036
0.047897253 0.015040128 0.0088829445 0.39126319 -0.66795653 0.63304597 0.0016348555
0.050028801 0.015632404 0.0080505004 0.44616005 -0.74107295 0.5017491 0.0033216395
0.052406598 0.016702568 0.0073277918 0.48164546 -0.7345354 0.47799098 0.0024496287
0.054474503 0.017626781 0.0065530781 0.5166949 -0.71575719 0.4698064 0.0015005479
-0.052320141 0.020251732 0.0071216607 -0.54815906 -0.76470923 0.33873501 0.0038901735
-0.049912039 0.018877143 0.0078051663 -0.54084069 -0.75107521 0.37865216 0.0024747155
0.053519506 0.018394524 0.0085762581 0.49145949 -0.64490783 0.58528751 0.0023435955
0.055659372 0.019244796 0.0075707026 0.53545654 -0.69383365 0.4815405 0.0018433259
0.057750564 0.020387309 0.0068281256 0.56999081 -0.66142219 0.48747426 0.001901003
-0.057270117 0.023749238 0.0062044868 -0.64127469 -0.68989861 0.33586702 0.008724764
-0.055345468 0.022714965 0.0073467121 -0.58454269 -0.69435066 0.4197464 0.00099628069
-0.053290758 0.021520622 0.0081258621 -0.55449057 -0.70835924 0.4367694 0.0011529521
0.056692444 0.021156654 0.0088041993 0.52406323 -0.60364735 0.60080582 0.0015991988
0.058838587 0.022096166 0.0077614468 0.57653171 -0.63162613 0.5183239 0.0027555542
0.060768306 0.023225976 0.0068974481 0.61461568 -0.59744883 0.51507509 0.0015115648
-0.060156357 0.026630681 0.0063173762 -0.66444498 -0.61630988 0.42269966 0.0030641756
-0.057981633 0.025270902 0.0075877551 -0.62780064 -0.63697541 0.44735751 0.0012376719
-0.056276113 0.024367336 0.0085966662 -0.58032262 -0.64404196 0.49843308 0.0018616016
0.059732534 0.024131078 0.0088956403 0.56914079 -0.57197142 0.59070075 0.0023850482
0.061859276 0.025204899 0.0077681816 0.63566846 -0.54443055 0.54728508 0.0031884725
0.063582629 0.026213182 0.0067337682 0.66823649 -0.54733986 0.50386411 0.00183232
-0.061259251 0.028804014 0.0074264524 -0.69261843 -0.57801747 0.43148056 0.0026530512
-0.059600085 0.027284488 0.0079940893 -0.64922971 -0.57274699 0.50046152 0.0016455017
0.062729016 0.02730317 0.0087442845 0.60770351 -0.48990116 0.62505478 0.0028369788
0.064597204 0.028422745 0.0075059049 0.70000166 -0.45620826 0.54942852 0.0023109827
0.066261895 0.029576959 0.0063860514 0.72125876 -0.46000183 0.51786494 0.0021139395
-0.063546449 0.031358965 0.0071431776 -0.70762968 -0.48455858 0.51425987 0.0022278863
-0.062392075 0.030995309 0.0081730383 -0.69838494 -0.50162113 0.51052409 0.0047393856
-0.012694336 0.032767303 0.0084906984 0.2180367 0.84790194 0.48324147 0.0017093231
-0.0099349795 0.032490913 0.0078134062 0.20658194 0.85452139 0.47656816 0.0013349178
-0.0073846332 0.031870861 0.0079450198 0.15126559 0.83903635 0.52262491 0.0016331964
-0.0040732156 0.031151632 0.0082607977 0.10396826 0.82769614 0.55146146 0.001166185
-0.001517639 0.031099256 0.0078616012 0.086132936 0.77230597 0.62938428 0.00070046773
0.0015922622 0.030259397 0.008769121 0.046346709 0.75904942 0.64938122 0.0005449318
0.065494753 0.030931838 0.0083662309 0.67352545 -0.36632711 0.642003 0.0016011768
0.066928223 0.031696592 0.0070900284 0.73962319 -0.39294809 0.54639667 0.0024505332
-0.066600859 0.035300445 0.0061878823 -0.75225312 -0.4490149 0.48218346 0.0036475114
-0.064966142 0.034970991 0.0081919422 -0.71419609 -0.38721597 0.58308458 0.0034114444
-0.021546651 0.035610009 0.0083649624 0.3170853 0.83486289 0.44995669 0.0020951952
-0.019320451 0.035163868 0.0077591217 0.29272807 0.84697545 0.44378254 0.0018068328
-0.016455047 0.034329716 0.007515905 0.24925084 0.85568941 0.45350814 0.0020235712
-0.013473174 0.033623252 0.0072721546 0.22089608 0.86682957 0.4470028 0.0017828768
-0.011158836 0.033361878 0.0066019055 0.19281502 0.86702353 0.45944819 0.0014360913
0.065974742 0.033071782 0.0088659832 0.67403591 -0.32888058 0.66144776 0.0041957898
0.067824118 0.034340255 0.0075462111 0.75531077 -0.30558947 0.57975918 0.0020421802
0.069219477 0.035465818 0.0062726419 0.78896147 -0.31743038 0.52609676 0.0026269797
-0.066672757 0.036720425 0.00716135 -0.76589048 -0.37108582 0.52507824 0.0023912298
-0.065785266 0.037156977 0.0085811745 -0.70342094 -0.32783833 0.63065124 0.0016841715
-0.028238406 0.038489878 0.0081968131 0.36871642 0.82098764 0.43592158 0.001990401
-0.025583431 0.037676468 0.0075169243 0.36672109 0.82180929 0.43605646 0.0019973472
-0.022959596 0.036628582 0.0075065996 0.30249423 0.84168214 0.44729018 0.001965014
-0.02060448 0.036334772 0.0062608002 0.32316032 0.87304956 0.36517382 0.0040415479
0.068381883 0.037220176 0.0081460327 0.75832713 -0.21114781 0.61673057 0.0022848796
0.069561057 0.037569117 0.006778386 0.80379874 -0.23097703 0.54823089 0.0025006251
-0.068329699 0.039968133 0.0068373228 0.84135371 0.24242474 -0.48306745 0.0081533985
-0.034094945 0.041496601 0.0077283881 0.40255982 0.80775428 0.43067238 0.0022993803
-0.031652179 0.040392909 0.0075952741 0.39347842 0.80133933 0.45058852 0.0018448607
-0.028904025 0.039515812 0.0067957612 0.38176009 0.82794857 0.41080463 0.0012254113
0.068642214 0.040256042 0.008603639 0.7060616 -0.11369689 0.69896358 0.0026618438
0.069934838 0.040469129 0.0071184752 0.79778624 -0.13614541 0.58736831 0.0023543255
-0.040242217 0.044303916 0.0082751662 0.39301816 0.7705009 0.50186169 0.002065253
-0.037812226 0.04393816 0.0067724576 0.43488792 0.83362198 0.34050971 0.0018223454
-0.035439909 0.042448044 0.007246858 0.40350804 0.80650192 0.43212959 0.0022006349
0.068773501 0.043481302 0.0087980926 0.69107753 -0.021591069 0.72245806 0.0033259732
0.070128977 0.043455742 0.0072867232 0.79431486 -0.054007776 0.60510075 0.0026666457
-0.046071529 0.047531765 0.00795455 0.39398047 0.7660743 0.50784802 0.0013852067
-0.043522488 0.0467618 0.0070835291 0.40445679 0.78169417 0.47473031 0.0011908828
-0.041076988 0.045574002 0.0069599291 0.42716986 0.80862051 0.40454757 0.0011201131
0.068695739 0.046461657 0.0087730475 0.63343447 0.062684059 0.77125317 0.0036925029
0.07022135 0.046444703 0.0072124191 0.76828307 0.016746247 0.63989115 0.0032482357
-0.06951873 0.050134379 0.0076831058 -0.30189189 0.2214255 0.92727131 0.0034046231
-0.068024114 0.049654745 0.0085368585 -0.32804641 0.25830165 0.9086616 0.0036308314
-0.054318257 0.050569348 0.008816123 0.23322646 0.6839931 0.69120103 0.0012699417
-0.052377231 0.050319031 0.0081697963 0.28931522 0.71656895 0.63468546 0.0019859676
-0.049290806 0.0494879 0.0074416022 0.37896627 0.77386618 0.50746006 0.0012932265
-0.046856344 0.048553586 0.0069916449 0.4039562 0.77851975 0.48033983 0.0021456133
0.068281032 0.049400903 0.0085873483 0.59003001 0.12645845 0.79741639 0.0049255495
0.070237212 0.049259864 0.0069939559 0.74537158 0.058209468 0.66410309 0.0045649242
-0.070281424 0.052587729 0.0070820195 -0.24256733 0.22233276 0.94431418 0.0014900006
-0.067258283 0.052746136 0.0081101861 -0.2174419 0.30380821 0.92758805 0.0080796173
-0.064608768 0.05271443 0.008459744 0.025436347 0.56584549 0.82411891 0.0055212341
-0.061933085 0.053033486 0.0081384694 0.10731515 0.646106 0.7556656 0.0042237956
-0.058478661 0.052662797 0.0079242662 0.1862012 0.73203582 0.65532643 0.0030625376
-0.055155061 0.051992495 0.0075188838 0.25434956 0.73060727 0.63365549 0.0025842846
-0.052798305 0.051497899 0.0069023184 0.32117733 0.73602927 0.59590775 0.0011842727
0.065173849 0.052418675 0.0085404143 0.26495758 0.3224017 0.90876549 0.0041191475
0.06824138 0.052206874 0.0078820903 0.58813703 0.15812789 0.79315215 0.0046426235
0.070045948 0.052161112 0.0067280997 0.73933923 0.094813585 0.66662413 0.0043704156
-0.069865167 0.056054868 0.0064476584 0.056516346 0.4856599 0.87231898 0.0065685725
-0.067358188 0.055723347 0.0068478324 0.093290716 0.51092112 0.85455036 0.0063155703
-0.064731956 0.055057988 0.0069606854 0.16930354 0.63789225 0.75128543 0.0057398458
-0.061425783 0.054619856 0.0064728302 0.15537772 0.70406872 0.69292492 0.0064171515
0.065291017 0.054641079 0.0073987748 0.27278799 0.30325913 0.91302824 0.0040559499
0.068327039 0.055367291 0.0068199495 0.50841838 0.21221274 0.83455163 0.0052632447
0.069742545 0.054853752 0.0063693509 0.69165367 0.12729463 0.71092284 0.0038794684
-0.070522815 0.057326406 0.0060477396 0.02960535 0.44523212 0.89492565 0.017896855
-0.067966394 0.057346605 0.0060004382 0.20047027 0.63297105 0.74776959 0.0016518873
0.068253785 0.057417464 0.0061265654 0.45245257 0.20125875 0.86878169 0.0058446247
-0.018929582 0.0057909912 0.0093420949 -0.20704715 -0.79820246 0.56568915 0.00083558977
-0.016273526 0.0054809516 0.0097446358 -0.17175207 -0.79501587 0.58176535 0.0012608891
-0.013450387 0.0051826206 0.010074111 -0.14012314 -0.78687155 0.60099798 0.001150306
-0.010500262 0.0048521492 0.010209364 -0.10607643 -0.7886802 0.60558349 0.0012738231
-0.0074453149 0.0046087746 0.010307605 -0.075497054 -0.7836774 0.6165629 0.0015523917
-0.0045070802 0.0045592859 0.010520237 -0.032948405 -0.76270455 0.64590722 0.0014781504
-0.0014032595 0.0044248458 0.010475458 -0.011876869 -0.77031875 0.63754839 0.0018101759
0.0015043898 0.004450256 0.010523857 0.010559543 -0.7502473 0.66107297 0.001810808
0.0045449724 0.0044607269 0.010419109 0.036355782 -0.75874746 0.65036958 0.0019594601
0.0075823292 0.0046227607 0.010388236 0.063175671 -0.75783145 0.64938456 0.0018107179
0.010517109 0.0047326554 0.010199525 0.089720629 -0.76016665 0.64350361 0.0014319611
0.013428759 0.0049484801 0.010009211 0.11472847 -0.76876074 0.6291616 0.0013097253
0.016437041 0.0052800965 0.0098149115 0.13770674 -0.7608254 0.63417798 0.0010523789
0.019237308 0.0055847028 0.0094683487 0.15775931 -0.75677556 0.63435215 0.0007156689
0.021434451 0.0058395909 0.0091374088 0.15858559 -0.75289398 0.63874978 0.00076940533
-0.027935063 0.0087100063 0.0096304612 -0.2761074 -0.79186314 0.54471779 0.00084681378
-0.025310071 0.0081983665 0.010113775 -0.25036016 -0.78967041 0.56012541 0.0013707234
-0.022400495 0.0075533637 0.01042072 -0.21839741 -0.77370614 0.59471118 0.001340286
-0.019600049 0.0070954105 0.010809699 -0.20175855 -0.76704299 0.60904723 0.0014470317
-0.016698977 0.0066612 0.011135239 -0.1586391 -0.75197166 0.63982213 0.00095978111
-0.013556813 0.006357207 0.011498587 -0.12257594 -0.72003698 0.68302411 0.001072692
-0.010650493 0.0062351907 0.011812588 -0.085116334 -0.7059803 0.70309812 0.0012008828
-0.0079828575 0.0060821595 0.011918943 -0.046981432 -0.70774537 0.70490366 0.0018545275
0.008015072 0.0060903849 0.011859441 0.051268417 -0.66866124 0.74179763 0.0034088392
0.01089063 0.0061692013 0.011702934 0.078320548 -0.70466244 0.70520687 0.0017700497
0.013675734 0.0064645382 0.01163269 0.10180379 -0.69021857 0.71640372 0.0018865658
0.016669665 0.0066731321 0.011336084 0.13112316 -0.69331712 0.70860285 0.0017970924
0.019650422 0.0068912776 0.010894653 0.16142789 -0.70980179 0.68565482 0.0012916888
0.022522297 0.007247536 0.010489237 0.17596057 -0.71404207 0.67762947 0.00084924826
0.025400534 0.0078512095 0.010299481 0.18594866 -0.70142639 0.68805832 0.00053396256
0.028308757 0.0082167238 0.0098937126 0.19648767 -0.70062011 0.6859476 0.00046386101
0.031307176 0.0085303839 0.0094727594 0.20528525 -0.69528741 0.68879128 0.00089436182
0.03344214 0.0088303005 0.009170563 0.23740399 -0.73109478 0.63964033 0.0022731281
-0.03656733 0.011808828 0.0092826271 -0.35929143 -0.77795208 0.51546115 0.0010312453
-0.034298752 0.011298502 0.0099568209 -0.32306671 -0.77398974 0.5445804 0.0010644246
-0.031466316 0.010583223 0.010484965 -0.28825492 -0.77280557 0.56540304 0.0011934214
-0.028657343 0.0098887738 0.010915647 -0.26761469 -0.7635166 0.58772844 0.0014056971
-0.025763895 0.0094394879 0.011545887 -0.21845405 -0.73170006 0.64567238 0.0013074714
-0.023516892 0.0091259303 0.011928957 -0.20543076 -0.70379239 0.68005472 0.00097289879
0.023910264 0.0090470118 0.011903092 0.18228246 -0.6801427 0.71005565 0.00093136693
0.026038961 0.0093237134 0.011657378 0.18453577 -0.66721207 0.7216472 0.00088088005
0.028765492 0.0098233512 0.011288936 0.19619907 -0.66409874 0.72144204 0.00038005403
0.031679988 0.010208854 0.010822322 0.20147102 -0.64394325 0.73806942 0.00066807627
0.034401998 0.010341703 0.01023732 0.21372536 -0.6614179 0.7189213 0.0014395084
0.037348881 0.010945341 0.0099147111 0.25101843 -0.68271047 0.68621886 0.0023800356
0.040032871 0.011547145 0.009503589 0.30152395 -0.68831313 0.65977913 0.0020563756
-0.042479932 0.014789669 0.0092496732 -0.44386533 -0.74920011 0.49161234 0.00083904836
-0.040316302 0.014120795 0.0099395132 -0.4028914 -0.74409842 0.53291273 0.00087543938
-0.037508883 0.013214523 0.010625646 -0.35574093 -0.74064469 0.56999451 0.00073727319
-0.034869995 0.01257545 0.011355213 -0.31202155 -0.72841382 0.60996377 0.0012101161
-0.032949906 0.012134071 0.011907727 -0.28714019 -0.73274642 0.61695486 0.0022110248
0.034884699 0.012320226 0.01168008 0.20920955 -0.60834986 0.76559907 0.00027925608
0.03767249 0.012758316 0.011307792 0.22432446 -0.59813458 0.76935923 0.00071399921
0.040592808 0.01321537 0.010740899 0.26849389 -0.61763394 0.73921537 0.00085555861
0.043531459 0.013692315 0.0100012 0.34199309 -0.66789711 0.66102505 0.0024047408
0.045988053 0.01446654 0.0095377201 0.37711826 -0.67260665 0.63669634 0.0028148631
-0.04593347 0.01733093 0.0097655887 -0.47777671 -0.70061308 0.52997243 0.00098705222
-0.043503724 0.016217919 0.010264842 -0.4497644 -0.71913463 0.52967662 0.0018693906
-0.0408144 0.015489256 0.011385376 -0.39314702 -0.70254093 0.59318775 0.0011706541
0.041643869 0.015142341 0.011900707 0.24679437 -0.56149942 0.78981704 0.00053180271
0.043722015 0.01567327 0.011550728 0.28107718 -0.56831414 0.77331412 0.0014769132
0.046650052 0.016211884 0.010765617 0.33639574 -0.59126472 0.73296922 0.0012563483
0.049279932 0.016847296 0.0099562155 0.40800405 -0.64452124 0.64662594 0.0021812266
0.05156599 0.017635511 0.0092860647 0.4445574 -0.64465427 0.62192416 0.0024728952
-0.051196426 0.020680919 0.0093448646 -0.5007847 -0.68023044 0.53525805 0.0009905654
-0.049283583 0.019941933 0.010097448 -0.49856526 -0.67771935 0.54048973 0.0013096696
-0.046785116 0.018816583 0.010896738 -0.46601427 -0.68450338 0.56061196 0.0014932794
-0.044589173 0.018267039 0.01190199 -0.41691276 -0.64277852 0.64266598 0.0014785603
0.047593951 0.018165408 0.011852808 0.32499623 -0.55441815 0.76615787 0.00097547146
0.049816553 0.018883105 0.011361549 0.35927755 -0.52796012 0.76953083 0.0015197947
0.052435745 0.019436544 0.010339507 0.42441443 -0.58729047 0.68917501 0.002507346
0.054818779 0.020341158 0.0095775668 0.49281338 -0.60560578 0.62480128 0.0018421829
-0.054618068 0.023689507 0.009578581 -0.55504996 -0.62582099 0.54796684 0.00094822969
-0.05237636 0.022584772 0.010426419 -0.51071244 -0.6452474 0.56818014 0.0012782563
-0.050134052 0.021553857 0.011249302 -0.48247141 -0.64644313 0.59104365 0.0011167579
0.053213987 0.021600785 0.011538667 0.38760301 -0.50203937 0.7731238 0.001859589
0.055654496 0.022336124 0.010593596 0.46005595 -0.51094615 0.72614223 0.001524611
0.057932671 0.023145139 0.0096507212 0.53454089 -0.54554379 0.64548272 0.0022177889
-0.057638299 0.026448894 0.0094618127 -0.61291033 -0.5680114 0.54927576 0.0011091111
-0.055409372 0.025395297 0.010596206 -0.55837971 -0.56947666 0.60324818 0.0011040756
-0.053442463 0.024509519 0.011512994 -0.52145177 -0.57796478 0.62772977 0.0010088471
0.056373879 0.024624042 0.01167953 0.43047193 -0.43258205 0.79219103 0.0020839674
0.058647007 0.025288925 0.0106291 0.49473876 -0.45242196 0.7419892 0.0013298151
0.06075849 0.026057735 0.0095981201 0.57518107 -0.49897373 0.64822221 0.0016522203
-0.060293932 0.029383497 0.0094615789 -0.63312232 -0.50685304 0.58502662 0.0023521543
-0.058408968 0.028350025 0.010382094 -0.60179263 -0.51673204 0.60896116 0.0014189137
-0.056447826 0.027518621 0.01156308 -0.55765569 -0.53007454 0.63878101 0.0010270969
-0.010303523 0.029659858 0.011723857 0.17360088 0.67953664 0.71280628 0.0012910088
-0.0071018534 0.029462742 0.011147175 0.1380225 0.69212437 0.70845866 0.0014047028
-0.0037507745 0.029098053 0.010925243 0.11666331 0.69711089 0.70740801 0.00087939715
-0.0013338753 0.028776053 0.010941599 0.089794368 0.75789142 0.64617151 0.00087075698
0.0017079045 0.028398776 0.011056605 0.047589615 0.70514512 0.70746422 0.0022563539
0.0051798299 0.02829239 0.011058402 -0.003345191 0.68485129 0.72867525 0.0013166406
0.0076202517 0.027772186 0.011607067 -0.028672105 0.54934591 0.83510298 0.0015496231
0.059335541 0.027815282 0.011604294 0.46998796 -0.35478622 0.80823147 0.0014800687
0.061574619 0.028393477 0.010374079 0.55086809 -0.39297327 0.73628551 0.0018954399
0.063415833 0.029229112 0.0093720211 0.63054806 -0.42790231 0.64754069 0.0018815951
-0.063055404 0.032919239 0.009117594 -0.67125624 -0.39835167 0.62508476 0.0013249237
-0.060751777 0.031150622 0.010304689 -0.64360929 -0.44710159 0.62118208 0.0021359215
-0.05918308 0.030522794 0.011393864 -0.5917961 -0.42485473 0.68503702 0.0021414335
-0.0189589 0.032262318 0.0116705 0.23793399 0.68285823 0.69071847 0.00082977011
-0.016301511 0.031856865 0.011123735 0.23145999 0.70724666 0.66800332 0.001639383
-0.013412271 0.031243961 0.010808066 0.20609362 0.71089143 0.67242759 0.0014157086
-0.010241548 0.030639883 0.010567872 0.17114131 0.71774679 0.67494464 0.0017616148
-0.0077661625 0.030482242 0.010135401 0.14244677 0.77583605 0.61464417 0.0013734417
-0.0050067184 0.030366752 0.009645164 0.11791041 0.7693823 0.62781215 0.0011543388
-6.6474029e-05 0.030027132 0.009293125 0.09102381 0.76637077 0.63591707 0.00093571143
0.062032256 0.031251069 0.011368812 0.51009482 -0.29822567 0.80676192 0.0010888044
0.064166591 0.031470522 0.0098926602 0.61886013 -0.35007095 0.70318025 0.0018133167
-0.063614987 0.034871385 0.0097185299 -0.65922612 -0.34240073 0.66946447 0.0023340352
-0.061656028 0.0338507 0.011076819 -0.61542481 -0.35135773 0.70554954 0.0013414703
-0.027802827 0.035750657 0.011681329 0.30791584 0.68275028 0.66260087 0.0010002919
-0.025329154 0.035155788 0.011130357 0.2966401 0.71446609 0.63367414 0.0010046662
-0.022714244 0.034431763 0.010672781 0.28098983 0.7295385 0.62355304 0.00058166165
-0.020006746 0.03347471 0.010668132 0.25259739 0.72022206 0.64612287 0.00084624079
-0.017147828 0.033498988 0.0093193473 0.24412283 0.78518832 0.56910747 0.0011055662
0.06263379 0.033802293 0.01182761 0.49046898 -0.20223287 0.84766859 0.0021601273
0.064613774 0.034468766 0.010658289 0.58445388 -0.25106844 0.77160758 0.00188068
0.066386871 0.034722887 0.0093267933 0.67956322 -0.28011569 0.67803323 0.0016002095
-0.064331487 0.037112571 0.010097355 -0.65247691 -0.2765305 0.70555282 0.0012805804
-0.062476605 0.036952425 0.011642646 -0.60938048 -0.26204798 0.74832231 0.0016983248
-0.033833105 0.038499638 0.011674803 0.31836587 0.68246514 0.65793955 0.0017977667
-0.03141351 0.037971441 0.010956963 0.31824404 0.70854646 0.62982744 0.0007594708
-0.028444821 0.036972113 0.010555454 0.31792498 0.70298284 0.63619089 0.00088289264
-0.025919203 0.036576658 0.00959667 0.32357579 0.76487517 0.55701405 0.00094088545
0.064825647 0.03729726 0.011187291 0.53890848 -0.13639484 0.83124846 0.0016028688
0.066891678 0.037567023 0.0097109145 0.65688002 -0.18128306 0.73187786 0.0023646438
-0.066282593 0.040354647 0.0093330387 -0.6533286 -0.21816626 0.72495884 0.0033499124
-0.06474556 0.040376388 0.010665431 -0.617401 -0.18344106 0.76496106 0.0014983437
-0.039927755 0.041530073 0.011564568 0.31040841 0.67017329 0.67417687 0.0011498624
-0.037280612 0.040926933 0.010770252 0.34144181 0.70193344 0.62506551 0.0010987686
-0.034645241 0.039935321 0.010422079 0.33118486 0.71174604 0.61946279 0.00082755752
-0.031850539 0.039324813 0.0094968472 0.3608157 0.76053733 0.53981024 0.00092505896
0.064953342 0.040396262 0.011437586 0.49725065 -0.030778643 0.8670609 0.0023029137
0.067311592 0.040508248 0.009842054 0.64782053 -0.090086736 0.75644755 0.0025592877
-0.065166615 0.043378193 0.010727719 -0.47088253 0.068605006 0.87952429 0.0056140097
-0.062992536 0.044316255 0.01193 -0.38289577 0.12757529 0.91494012 0.006413037
-0.045956586 0.044495516 0.011411011 0.28211126 0.65053046 0.70514071 0.0012582927
-0.043370605 0.043832473 0.010830576 0.31970701 0.67948806 0.66036606 0.00095326069
-0.040748335 0.043048341 0.010285785 0.32885301 0.69553661 0.63881499 0.0011166506
-0.038492773 0.042360764 0.009776338 0.34813878 0.7128185 0.60884249 0.00057794736
0.05376311 0.043901123 0.011793233 -0.080652907 0.35841793 0.93007082 0.0011199769
0.05575775 0.044386599 0.011951821 -0.039034706 0.3561666 0.9336068 0.0014566657
0.062679343 0.044569615 0.011894288 0.19999368 0.20335506 0.95846194 0.0037653043
0.06479793 0.043228269 0.011407747 0.46910918 0.052504595 0.88157803 0.0028347012
0.06737265 0.043392111 0.0099190781 0.5963034 0.0029012084 0.80275381 0.0031643913
-0.066678315 0.046184972 0.0097090602 -0.50327879 0.047871664 0.86279708 0.0027405818
-0.064132817 0.046824638 0.010961826 -0.36728665 0.20806126 0.90653795 0.0040190089
-0.06139262 0.046976656 0.011772903 -0.17015137 0.34709051 0.9222672 0.0048018405
-0.058413044 0.047697559 0.011812901 0.059184205 0.51554656 0.85481513 0.0024300478
-0.054906055 0.047437645 0.011697389 0.11812232 0.59527612 0.79479146 0.0026810719
-0.052511886 0.047214277 0.011330627 0.20497721 0.61068916 0.76488107 0.0017965951
-0.049433887 0.046656433 0.010756238 0.28629026 0.67486477 0.68014371 0.0021412759
-0.046682157 0.045981906 0.01020446 0.30581844 0.6987257 0.64672828 0.0020769748
-0.044277929 0.045270883 0.0097320955 0.35323837 0.72504872 0.5912081 0.002119414
0.058887132 0.045814991 0.011647775 0.053172324 0.30529475 0.95077223 0.0024118116
0.062094267 0.046373602 0.011405437 0.24132131 0.24624616 0.93868357 0.0026443682
0.06528911 0.046032377 0.010760164 0.45606548 0.12251964 0.88147217 0.0023769136
0.067436397 0.046219762 0.0096730758 0.58634943 0.071531102 0.80689383 0.0042739045
-0.066351101 0.049016189 0.0095285615 -0.3256329 0.26826569 0.90664041 0.0037818714
-0.064513251 0.049484268 0.010061929 -0.28785607 0.31923714 0.90289897 0.0059786574
-0.061269823 0.050037835 0.010342797 -0.022644304 0.53275204 0.84596843 0.002655711
-0.058299534 0.049541079 0.010615805 0.082606576 0.57578558 0.81341696 0.0028355205
-0.055295829 0.049271643 0.010332603 0.16584586 0.62897062 0.75953346 0.0021493377
-0.052496795 0.048894756 0.0097975675 0.26131949 0.68949997 0.67550129 0.001840269
-0.050645821 0.048415959 0.0095636193 0.31588957 0.67058831 0.67121166 0.0020514152
0.062219579 0.048835494 0.010341613 0.19227253 0.29761946 0.93512243 0.003409496
0.064831473 0.049272537 0.0099322004 0.30062476 0.256533 0.9185943 0.0016935095
0.066950493 0.048996899 0.0093953842 0.52378744 0.15923116 0.83683455 0.0031482975
-0.064742953 0.051729582 0.0090135839 -0.17996888 0.43097672 0.88423431 0.0083854897
-0.061354544 0.051024336 0.0097169457 -0.017749941 0.53312117 0.84585273 0.0028135248
-0.057799678 0.051289421 0.0091510955 0.15822661 0.65477651 0.73907512 0.001945673
0.064793684 0.051176965 0.0091516208 0.24964644 0.31795472 0.91464829 0.0032272032
-0.0070126709 0.0059815436 0.012053866 -0.055702556 -0.6955955 0.71627098 0.00078026683
-0.0038500363 0.0058944137 0.012094078 -0.028917091 -0.71163666 0.70195234 0.00082180073
-0.00164911 0.0058733826 0.012086319 -0.010625613 -0.70394045 0.71017951 0.0015404631
0.0016366093 0.005932319 0.012119561 0.020961065 -0.67505944 0.7374655 0.0019070036
0.004198621 0.0058837757 0.012082899 0.041846097 -0.6846599 0.72766048 0.0019295849
0.007618574 0.0059942985 0.012016197 0.057138979 -0.70299846 0.70889235 0.001181771
-0.021770792 0.0087974668 0.012205902 -0.20061578 -0.71371847 0.67108804 0.0010603013
-0.019426033 0.0085065616 0.01248295 -0.17525621 -0.70032579 0.69197476 0.0012734593
-0.016509145 0.0081753889 0.012793595 -0.14094482 -0.67888778 0.72058725 0.0010600417
-0.013408436 0.007810045 0.012956418 -0.10473943 -0.67213094 0.73298681 0.0013244001
-0.010411329 0.0076080943 0.013122782 -0.067229383 -0.65820158 0.749834 0.0011845186
-0.0075398162 0.0075463266 0.013280581 -0.031997435 -0.63268036 0.77375174 0.0018009007
-0.0045906403 0.0073986938 0.01327342 -0.020460101 -0.62520015 0.78019619 0.0016302422
-0.0014693562 0.0073601753 0.013272151 0.0047325366 -0.60899723 0.79315817 0.0015409101
0.0015356808 0.0073938901 0.013251962 0.018596834 -0.59886736 0.8006323 0.0017449327
0.0044915909 0.0074114641 0.013156751 0.036169294 -0.59119248 0.80571902 0.0020067054
0.0074859806 0.0074717342 0.013031567 0.056105811 -0.58182997 0.81137294 0.002349091
0.010502564 0.0075444626 0.012865913 0.07592988 -0.59859717 0.79744351 0.0019716166
0.013533382 0.0079295682 0.012847131 0.092794098 -0.60014015 0.79449415 0.0016531512
0.016528685 0.0081525063 0.012638402 0.11244536 -0.6141721 0.78112018 0.0019525919
0.019336589 0.0084819542 0.012454882 0.13918495 -0.62137282 0.77105331 0.0021961411
0.021759139 0.0087488918 0.012210296 0.16112824 -0.66178679 0.73217207 0.0019935481
-0.0306141 0.011739412 0.012371412 -0.26664773 -0.70152187 0.66088277 0.0010185549
-0.028317746 0.011393345 0.012802486 -0.23788615 -0.69670928 0.67676175 0.0010523968
-0.025352836 0.010813772 0.013147848 -0.19807674 -0.68452358 0.70156473 0.0014497605
-0.022437882 0.010472812 0.013592988 -0.16919579 -0.65365267 0.73763883 0.0016632839
-0.019638168 0.010201198 0.013981421 -0.15732092 -0.63439071 0.75683457 0.0019281093
-0.016645305 0.0098634167 0.014230037 -0.11609275 -0.59524488 0.79511386 0.0014401574
-0.013555249 0.0096393107 0.014461538 -0.081478171 -0.59998339 0.7958526 0.0013352893
-0.010487955 0.0095637515 0.014641995 -0.04972408 -0.58013016 0.81300467 0.0011869518
-0.0075151203 0.009522195 0.014725531 -0.023587769 -0.55393517 0.83222562 0.001254509
-0.004392562 0.0094844159 0.014735371 -0.0034282221 -0.51139653 0.85933799 0.0017452624
-0.0014992804 0.0095136892 0.014722606 0.014128414 -0.49545938 0.86851621 0.0015781068
0.0014275988 0.0096061118 0.014696924 0.028855426 -0.47940439 0.8771196 0.001628631
0.0045684823 0.0096418122 0.014594875 0.045400091 -0.46937424 0.88183141 0.0017132371
0.0076091466 0.0099279638 0.014570755 0.05855497 -0.46469289 0.88353366 0.0016126452
0.010527184 0.0099292714 0.014375245 0.066929899 -0.46961832 0.88032895 0.0015907722
0.013486293 0.010293268 0.014317878 0.081749506 -0.47191241 0.87784719 0.0015666785
0.016490767 0.010369274 0.014051378 0.097756147 -0.4873845 0.86769819 0.0015374767
0.019570921 0.010394497 0.01369088 0.12178902 -0.50368232 0.85526115 0.0015960904
0.022504462 0.010369951 0.013220593 0.14938785 -0.55272102 0.81986743 0.0025340887
0.025425807 0.010667177 0.012882417 0.16490892 -0.5718528 0.80361027 0.0022528253
0.028476415 0.011175385 0.01256538 0.18535829 -0.60572588 0.77378196 0.0014492377
0.031062702 0.011679282 0.01225825 0.19844382 -0.60588509 0.77040458 0.0005067754
-0.036681157 0.01423938 0.012363181 -0.33598864 -0.69659752 0.63392711 0.0010393893
-0.034494732 0.013881938 0.012967601 -0.2900503 -0.68035269 0.67304611 0.0013361037
-0.031550892 0.013409469 0.013630188 -0.24381718 -0.64750057 0.72200841 0.0010636044
-0.028460076 0.012921587 0.014194406 -0.21417631 -0.63703287 0.74048477 0.0015489211
-0.025455976 0.012510737 0.014658893 -0.18126991 -0.62726629 0.75741553 0.0015271751
-0.023521546 0.012204271 0.014827019 -0.16337945 -0.62630272 0.76226771 0.0013449322
0.014798009 0.012026129 0.014990838 0.064583063 -0.42444047 0.90314972 0.0015716893
0.016994335 0.01216602 0.014892123 0.085291691 -0.37013325 0.92505497 0.0011664667
0.019569842 0.012495298 0.014766451 0.09890528 -0.38171971 0.918971 0.0017739529
0.022694992 0.01288977 0.014571294 0.12281612 -0.41768852 0.90025133 0.0015839497
0.025601789 0.0131402 0.014301447 0.13671167 -0.43986514 0.88759714 0.0017059234
0.028527254 0.013321862 0.013920409 0.15130973 -0.46237361 0.87367952 0.0014900134
0.031638023 0.013249159 0.013223469 0.19094114 -0.53802758 0.82101631 0.0016636156
0.034377925 0.013683508 0.012845797 0.19725236 -0.54795682 0.81291747 0.00077796826
0.037271749 0.014275122 0.012476087 0.21127066 -0.553689 0.80547696 0.00047197653
0.039565902 0.014628907 0.012130034 0.23669252 -0.56724101 0.78880554 0.00062609365
-0.042650376 0.017469756 0.012409411 -0.40683803 -0.66268563 0.62875324 0.0010754946
-0.039884843 0.016188914 0.012646378 -0.35997277 -0.67264271 0.64650708 0.0014341599
-0.037738398 0.016157664 0.013694708 -0.32221416 -0.6355024 0.70165151 0.0013352735
-0.034362171 0.015464602 0.014478032 -0.25685057 -0.6262334 0.73611116 0.00093286805
-0.032398544 0.015154091 0.014915098 -0.22751044 -0.60752976 0.76101679 0.00090599008
0.025990784 0.015071832 0.014988711 0.11821156 -0.37605491 0.91902602 0.00092181325
0.028892729 0.015566253 0.01488471 0.13058516 -0.36361217 0.92235219 0.0013770447
