# .PCD v0.7 - Point Cloud Data file format
VERSION 0.7
FIELDS x y z normal_x normal_y normal_z curvature
SIZE 4 4 4 4 4 4 4
TYPE F F F F F F F
COUNT 1 1 1 1 1 1 1
WIDTH 558
HEIGHT 1
VIEWPOINT 0 0 0 1 0 0 0
POINTS 558
DATA ascii
0.056205064 0.031336956 -0.014680104 0.35828301 -0.13351268 -0.92401707 0.0030379356
0.058541276 0.031494498 -0.013675841 0.41768384 -0.17418228 -0.89174032 0.001667352
0.060829431 0.031678118 -0.012474034 0.51295418 -0.244489 -0.8228628 0.0030911225
-0.054802306 0.035338536 -0.013896519 -0.2522212 -0.0065478603 -0.96764743 0.0027814908
-0.052286763 0.034597475 -0.014625753 -0.24704683 -0.078260534 -0.96583807 0.0012670489
-0.039218999 0.035981745 -0.014853669 0.1566613 0.4787879 -0.86383992 0.0031410672
-0.037132293 0.035461199 -0.014616687 0.20666328 0.46456572 -0.86108595 0.0024265507
-0.034259979 0.034826171 -0.014224522 0.23691653 0.50184214 -0.83188033 0.0017569583
-0.031450581 0.034633096 -0.013464462 0.26507217 0.55134952 -0.79104394 0.0018425112
-0.028618811 0.034097522 -0.012895395 0.26151589 0.61127597 -0.74696124 0.0018208007
-0.025764549 0.0334737 -0.012406196 0.25663096 0.65041846 -0.71491003 0.0015386202
0.032579362 0.033183567 -0.012238372 -0.25363183 0.70439214 -0.66295004 0.0015485985
0.034789108 0.033630352 -0.012611583 -0.26493964 0.66607934 -0.69724119 0.0014813526
0.037624385 0.034270708 -0.013110402 -0.29174173 0.60073626 -0.74431366 0.0020393117
0.040432129 0.034531049 -0.01389824 -0.23728062 0.52546495 -0.8170585 0.00085241004
0.04333495 0.035068501 -0.01443937 -0.22726034 0.48074719 -0.84689724 0.0020475846
0.046109844 0.035637945 -0.014778773 -0.169489 0.48364127 -0.85869938 0.0020830694
0.056276765 0.034520641 -0.014826134 0.24103153 0.029030105 -0.970083 0.0045125876
0.05857484 0.034452952 -0.014072277 0.34398746 -0.031797241 -0.93843567 0.0039676498
0.061404768 0.034574691 -0.01277748 0.46040639 -0.11499715 -0.88022816 0.0028917501
-0.058304459 0.037964705 -0.012849475 -0.27385044 0.068822764 -0.95930672 0.0023613933
-0.055292536 0.037400845 -0.013961363 -0.24462269 0.03134422 -0.96911162 0.0013759666
-0.052462038 0.037883949 -0.01467438 -0.16361904 0.094877131 -0.9819507 0.0051531983
-0.049530771 0.038357776 -0.01493194 0.062283814 0.33929688 -0.93861514 0.00273096
-0.046408445 0.038390275 -0.014824544 0.1049853 0.38480204 -0.91700894 0.0031891707
-0.043303516 0.038106311 -0.014528516 0.16071996 0.43308368 -0.88690901 0.0022829508
-0.040336836 0.037664611 -0.014121679 0.19007693 0.48434052 -0.85398185 0.0016989351
-0.037451323 0.037526593 -0.013385672 0.26709262 0.54551524 -0.79440212 0.0020461865
-0.034661729 0.036984805 -0.01283997 0.28289405 0.59678447 -0.75087893 0.0017305687
-0.03215247 0.036418993 -0.012339833 0.29478192 0.64780211 -0.70246422 0.0013507013
0.040668517 0.036612634 -0.012405234 -0.30670878 0.62913543 -0.71422565 0.0015820973
0.043525957 0.037236076 -0.013054805 -0.27577519 0.58348119 -0.76387024 0.0014872701
0.04645779 0.037541062 -0.013760274 -0.19725063 0.48907304 -0.84964687 0.0010041996
0.049687356 0.037739977 -0.014350599 -0.061399657 0.36489376 -0.92902243 0.0016131183
0.052615032 0.037699401 -0.014617555 -0.0014914244 0.31084105 -0.95046067 0.0033457309
0.055500656 0.037502807 -0.014555275 0.12714054 0.21267146 -0.96881688 0.0022029916
0.058523718 0.03751877 -0.013998403 0.26893371 0.11429875 -0.95635271 0.0045879614
0.061571784 0.037402146 -0.012907915 0.38716838 0.0051459968 -0.92199469 0.0044096098
0.063273609 0.038225971 -0.012118341 0.51866621 -0.065081045 -0.85249621 0.0025205663
-0.058243476 0.04059764 -0.013048124 -0.27822977 0.08885242 -0.9563961 0.0024280569
-0.055117272 0.040786732 -0.013859271 -0.18458828 0.17985316 -0.96621943 0.0067615947
-0.052095477 0.040708985 -0.014169972 0.047810666 0.37590718 -0.92542315 0.003054525
-0.049428176 0.040641528 -0.014146439 0.092582576 0.4093971 -0.90764666 0.002720176
-0.046439927 0.040571865 -0.013780436 0.13128954 0.4560158 -0.88023436 0.0025748196
-0.043525275 0.040579662 -0.013107598 0.22321501 0.54459143 -0.80845231 0.0023550487
-0.040686786 0.03999136 -0.012648128 0.26685098 0.60075009 -0.75358468 0.0021590164
-0.038239878 0.039246619 -0.012368529 0.28122249 0.61684817 -0.73512739 0.0016337885
0.044942625 0.039011896 -0.012262094 -0.31070346 0.58759248 -0.74712682 0.0030494449
0.046889007 0.039702166 -0.012457449 -0.26851484 0.57986748 -0.76919013 0.0024309398
0.04965229 0.040254295 -0.012923058 -0.20517747 0.52551651 -0.82567221 0.0025507298
0.052920572 0.040395312 -0.013472227 -0.04125208 0.38671967 -0.92127419 0.0027864662
0.055706587 0.040457502 -0.013624735 0.035391401 0.34062847 -0.93953168 0.002626043
0.058576122 0.040413998 -0.013431989 0.17040451 0.24504963 -0.95441765 0.0057878941
0.061618503 0.040469617 -0.012675472 0.29391143 0.16150473 -0.94208938 0.0028887091
0.06317611 0.039478943 -0.012153983 0.43644309 0.078651488 -0.89628756 0.0059608063
-0.060160551 0.044499464 -0.012093613 -0.22494793 0.18020931 -0.95756102 0.0060667973
-0.05793906 0.044121809 -0.012605241 -0.062119521 0.36970204 -0.92707151 0.001791054
-0.055218227 0.043548435 -0.013093357 -0.015524001 0.38105059 -0.92442387 0.0027860752
-0.052315876 0.043637644 -0.012987192 0.11501764 0.47361556 -0.87318915 0.0025405379
-0.049461544 0.043318409 -0.012790534 0.14850745 0.50665641 -0.84926134 0.0028442221
-0.046638709 0.042744298 -0.01251712 0.21375901 0.56665438 -0.79574484 0.0030333698
-0.044330176 0.042296875 -0.012132001 0.26243791 0.61321735 -0.74504423 0.0015755916
0.052794218 0.042426087 -0.012307727 -0.19059911 0.53619838 -0.82229149 0.0025170052
0.055593286 0.042985726 -0.012478047 -0.012429489 0.39643133 -0.91798019 0.0023952902
0.058569379 0.043074939 -0.012543585 0.071726583 0.34880367 -0.93444705 0.0030852067
0.061240382 0.042898227 -0.012277642 0.22559159 0.25962698 -0.93899006 0.0051841456
-0.058219872 0.045468859 -0.01216817 -0.14585063 0.36126304 -0.92098677 0.0055541862
-0.05545776 0.045598645 -0.012215003 0.067093663 0.50517684 -0.86040384 0.0019825513
-0.053067785 0.045264509 -0.012235355 0.13535036 0.53743201 -0.83237433 0.0027956811
-0.013669966 0.0057668681 -0.0093602398 -0.16175266 -0.73684645 -0.6564247 0.001042326
-0.010844845 0.0054237242 -0.0096429167 -0.13229875 -0.75124061 -0.64663327 0.00094479549
-0.0076477742 0.0054528322 -0.010259319 -0.099371009 -0.68284982 -0.72376895 0.0011644124
-0.0041180891 0.0050887242 -0.010339689 -0.072369479 -0.70776629 -0.70273 0.0010032647
-0.0013796927 0.0050044968 -0.010500552 -0.051406827 -0.68982345 -0.72215015 0.0015807929
0.001714422 0.004968503 -0.010661853 -0.028676642 -0.69496822 -0.71846837 0.0013647764
0.0046758112 0.0048540384 -0.01062349 -0.0049364157 -0.71502298 -0.69908351 0.0019378434
0.0075003617 0.0048108837 -0.010547343 0.012241324 -0.7421419 -0.67013103 0.0014983616
0.010685492 0.0048862593 -0.010517389 0.032700893 -0.74591947 -0.66523284 0.0012029796
0.013580108 0.0050785732 -0.010510875 0.065149188 -0.76356435 -0.64243686 0.0015339104
0.016499281 0.0051047252 -0.010181129 0.096548252 -0.7714777 -0.62888837 0.0010725644
0.01956141 0.0052978271 -0.0098517276 0.13181275 -0.78405535 -0.60653329 0.0010788026
0.022496708 0.005567946 -0.0094749751 0.16003609 -0.79922128 -0.57933915 0.00044451488
0.024605017 0.0058479072 -0.0092515387 0.19843899 -0.79788059 -0.56921744 0.0010194191
-0.018511185 0.0068507269 -0.009041274 -0.19821732 -0.69356209 -0.69259053 0.00079913123
-0.017797397 0.0079637785 -0.01053978 -0.17009678 -0.68356174 -0.70979601 0.0012607278
-0.014183834 0.0077877981 -0.011360682 -0.15175456 -0.62664407 -0.76438719 0.00083832315
-0.010654115 0.0069523649 -0.011308402 -0.11982828 -0.65576452 -0.74539524 0.00078988058
-0.0074993065 0.0066577955 -0.011548567 -0.09253712 -0.66675156 -0.73951286 0.0011289587
-0.004570792 0.0063396376 -0.01160002 -0.073688425 -0.66420311 -0.7439115 0.0012150398
-0.0017561731 0.0062909573 -0.011804941 -0.051298618 -0.6629169 -0.74693352 0.0011560868
0.0025673243 0.0061593275 -0.011949211 -0.031363197 -0.66442263 -0.74669868 0.0033105421
0.0074936259 0.0060316017 -0.011884951 0.0037255883 -0.68232328 -0.73104113 0.0028091043
0.01049759 0.0060600797 -0.011801792 0.030036783 -0.70652473 -0.70705062 0.0019654105
0.013226844 0.0062298388 -0.01178964 0.054472212 -0.72675812 -0.68473017 0.0010930935
0.016499903 0.0063987039 -0.011683584 0.080820933 -0.7127623 -0.69673365 0.0013025147
0.019457176 0.0065560006 -0.011437969 0.11595891 -0.72972417 -0.67383695 0.0011965531
0.022619691 0.006788441 -0.011044281 0.14856106 -0.77165627 -0.61844665 0.0011895535
0.025593171 0.0071633458 -0.010685137 0.18458696 -0.76288974 -0.61961842 0.00094631745
0.028407346 0.00776642 -0.010516476 0.20517425 -0.76311189 -0.61283255 0.0013630673
0.031415507 0.0081909476 -0.0099396603 0.24975358 -0.77108151 -0.58571023 0.0013445099
0.033683583 0.008786195 -0.0097307069 0.27264431 -0.76769537 -0.57992154 0.0011758809
-0.018801916 0.0095447376 -0.01182557 -0.18984012 -0.63085073 -0.75232184 0.0014295751
0.02969341 0.0091691371 -0.011786507 0.20336238 -0.70050627 -0.68405753 0.0021682598
0.031752497 0.0095052272 -0.011450784 0.22989662 -0.73211437 -0.64121455 0.0010902153
0.034624629 0.0099572679 -0.010790516 0.27113059 -0.75080156 -0.6023165 0.0011493622
0.03740811 0.010749206 -0.010423956 0.2955884 -0.75694001 -0.58281165 0.0018837047
0.040118396 0.011426824 -0.0098056812 0.35727367 -0.75566471 -0.54893202 0.0013292498
0.042296555 0.011985199 -0.0091953138 0.38820446 -0.75507593 -0.52835369 0.0014745251
-0.028772105 0.013114421 -0.01180569 -0.19473501 -0.51814729 -0.83282757 0.0012466378
0.038264498 0.012172118 -0.011727429 0.27932662 -0.6799733 -0.67794758 0.00086987729
0.04082153 0.012730518 -0.011037813 0.33120668 -0.73220456 -0.59512907 0.0017748252
0.043473329 0.013635086 -0.010533977 0.36312437 -0.72577137 -0.58429152 0.0013914842
0.04612463 0.014403146 -0.0097078616 0.41884753 -0.71099985 -0.56484157 0.00097754295
0.044754431 0.015374305 -0.01173991 0.36379471 -0.64769256 -0.66943836 0.0020372991
0.046781659 0.015878033 -0.01100064 0.4053553 -0.68822062 -0.60169709 0.0015106377
0.049323656 0.016849972 -0.010289197 0.44675714 -0.67498672 -0.58719754 0.0017061678
0.051473506 0.01771524 -0.0096206833 0.46635798 -0.67223078 -0.57499218 0.0012173522
0.050149839 0.01852881 -0.011482649 0.41960424 -0.6086604 -0.67339796 0.00071047648
0.052551981 0.019422174 -0.010594774 0.46561086 -0.6134209 -0.63790393 0.0017691256
0.054780155 0.020336736 -0.0097529851 0.51418042 -0.60898542 -0.60394967 0.001034981
0.053561967 0.021364044 -0.011658617 0.48862544 -0.57578325 -0.65552944 0.00077715912
0.055763602 0.022321682 -0.010801308 0.50159138 -0.53294063 -0.6814546 0.0011290102
0.057868645 0.0230981 -0.009755956 0.5695715 -0.56903446 -0.59311724 0.001533412
0.056632482 0.02430502 -0.011729058 0.52327812 -0.51627439 -0.67796808 0.0010306779
0.058707304 0.025294757 -0.01080177 0.52950686 -0.46541664 -0.70923191 0.0010209256
0.060719348 0.02607879 -0.0096677803 0.59175789 -0.51317734 -0.6216684 0.0014355693
-0.013059388 0.029720837 -0.011715598 0.18988016 0.67545146 -0.7125383 0.0016613845
-0.010461879 0.02935499 -0.011441611 0.16439235 0.69821835 -0.69675416 0.0016022519
-0.0076171453 0.029036039 -0.011115025 0.13586992 0.71114808 -0.68978822 0.001755823
-0.0045173499 0.028866509 -0.010763829 0.11700445 0.71963161 -0.68442708 0.0020487406
-0.0015234848 0.028549276 -0.01069738 0.079954997 0.71004444 -0.69960284 0.0018648378
0.0017290505 0.028373325 -0.010639581 0.002621023 0.69957131 -0.71455801 0.0017338288
0.0042738887 0.028284563 -0.010698356 -0.012272998 0.70113069 -0.71292716 0.0028327433
0.0075546596 0.027883703 -0.011192502 -0.06112434 0.65188289 -0.75585216 0.0017815713
0.01046488 0.028777512 -0.010503397 -0.094574444 0.73905528 -0.66697299 0.0023669333
0.013402165 0.02886223 -0.010815951 -0.12670696 0.73137712 -0.67009914 0.003609254
0.016314726 0.029206218 -0.011050541 -0.15845926 0.74945515 -0.64281231 0.0016772995
0.019107414 0.0295176 -0.011458983 -0.18628223 0.73181576 -0.65554911 0.0014730222
0.021256456 0.029810864 -0.011792107 -0.21322252 0.68678272 -0.69488543 0.0027732777
0.05957466 0.027574841 -0.011620819 0.56285191 -0.3805255 -0.73375612 0.0017471267
0.061527535 0.028514247 -0.010561677 0.578924 -0.38119489 -0.72078949 0.00083821506
0.063363016 0.0292174 -0.0093465615 0.6392433 -0.42498177 -0.64090437 0.0015610424
-0.021802252 0.03268062 -0.011671121 0.25745335 0.66945881 -0.69680887 0.0022036375
-0.019341132 0.032263882 -0.011178512 0.24502693 0.67573065 -0.6952337 0.0012552991
-0.016460946 0.03174391 -0.010670383 0.23090506 0.73298448 -0.63985664 0.0017389623
-0.013621069 0.031221444 -0.010297592 0.20457323 0.74082845 -0.63978362 0.0024426875
-0.010561183 0.030732615 -0.0099842623 0.17619687 0.74768174 -0.64025521 0.0019041225
-0.007552471 0.030454842 -0.0095382342 0.13919552 0.75430048 -0.64160377 0.0016251997
-0.004544701 0.030184412 -0.009270913 0.1004869 0.75748974 -0.64506721 0.0011329034
-0.0021713707 0.030040205 -0.0090275677 0.079430431 0.76904488 -0.63424039 0.0011658757
0.013434 0.03020568 -0.0091945315 -0.12959333 0.77439135 -0.61929286 0.001258895
0.016544523 0.030388489 -0.0097217308 -0.16873321 0.76950008 -0.61595351 0.0014950614
0.019552678 0.030767513 -0.010173846 -0.20365952 0.75397623 -0.62453401 0.0015361946
0.022584999 0.031313788 -0.010537096 -0.22184056 0.75035524 -0.62269884 0.0020556359
0.025390338 0.031964075 -0.010826477 -0.24944083 0.7226038 -0.64468831 0.0026053144
0.028403023 0.032388501 -0.011482798 -0.24951907 0.68190193 -0.68756825 0.0011334836
0.062209837 0.031332131 -0.011403804 0.55839735 -0.28968155 -0.77735257 0.0017657178
0.064089328 0.031606216 -0.0099593215 0.64901 -0.34206581 -0.67954183 0.0016338745
-0.028016603 0.035441656 -0.011460073 0.30004004 0.67862982 -0.67040098 0.0016422867
-0.025286658 0.034915391 -0.010752219 0.29559571 0.73061246 -0.61549056 0.0013861526
-0.022551097 0.034218963 -0.010279468 0.27813387 0.73870116 -0.61397249 0.0022715146
-0.019615779 0.033630501 -0.0097160349 0.26650622 0.74630731 -0.60991782 0.0015020821
-0.017358718 0.033145983 -0.0093278745 0.2495154 0.76625693 -0.59210849 0.0016359445
0.02561824 0.033199973 -0.0093604308 -0.24728665 0.77397847 -0.58292937 0.00098485406
0.028553683 0.03370633 -0.0099721886 -0.25981927 0.77049267 -0.58209544 0.0018682408
0.031500377 0.034235999 -0.010607844 -0.27698746 0.74378413 -0.6083281 0.0023031943
0.03425362 0.035071678 -0.010878755 -0.30262065 0.73177123 -0.61068124 0.0016626788
0.036952835 0.035565082 -0.011667645 -0.31367159 0.63969415 -0.70171326 0.0013359978
0.062765874 0.033814315 -0.011834795 0.57582086 -0.18106094 -0.79727495 0.0021825689
0.064508125 0.034439564 -0.010649124 0.60328287 -0.21855643 -0.76699597 0.0013006843
0.066348515 0.035222374 -0.0093294438 0.69218427 -0.25035915 -0.67690557 0.0019444816
-0.036140367 0.038786564 -0.011902048 0.29801071 0.64454663 -0.70409459 0.0034988218
-0.03409845 0.038298368 -0.011435308 0.31372344 0.65681857 -0.68568718 0.00099547219
-0.031406004 0.037725519 -0.01066197 0.33400375 0.70919245 -0.62087637 0.001617811
-0.028663492 0.036916848 -0.010149345 0.32137254 0.73640406 -0.59533918 0.0021543382
-0.026183544 0.036308315 -0.0095360298 0.32440183 0.74406236 -0.58406734 0.0016549444
0.034769665 0.036264073 -0.0096883681 -0.32750675 0.74516201 -0.58092421 0.0013518207
0.037691303 0.037211712 -0.010226132 -0.36170006 0.70057827 -0.6151123 0.001691959
0.040420819 0.037923731 -0.011035649 -0.34647784 0.66424525 -0.662368 0.0023153571
0.042800937 0.038609572 -0.011639667 -0.32366523 0.61977983 -0.71492225 0.0015299869
0.064777508 0.037378825 -0.011073922 0.563833 -0.10353301 -0.81937367 0.00094081427
0.066667572 0.037635304 -0.0096347611 0.66719842 -0.14182365 -0.73125398 0.0026447792
-0.06285096 0.041950718 -0.011121131 -0.27019987 0.11869601 -0.95545977 0.0040501291
-0.042417753 0.04180846 -0.01185137 0.29287353 0.64930499 -0.70187479 0.00098292704
-0.040255573 0.041429371 -0.011240068 0.30987191 0.66876769 -0.67581743 0.0013827378
-0.037412513 0.040629789 -0.010628812 0.32639128 0.69223744 -0.64364272 0.0013790228
-0.034689512 0.039847009 -0.010044555 0.34580275 0.72116429 -0.60028523 0.0012606517
-0.032383714 0.039300684 -0.0093477126 0.36411059 0.73374581 -0.57362062 0.0015623667
0.040995382 0.039638232 -0.0095069818 -0.39706734 0.70359296 -0.58931702 0.0013607813
0.043571725 0.04021886 -0.010448206 -0.34987584 0.68465751 -0.63939893 0.00089364051
0.046310775 0.041072972 -0.011077246 -0.31786719 0.63222206 -0.70658034 0.00095536147
0.048844691 0.041670274 -0.011673825 -0.26371181 0.6104911 -0.74683118 0.0020350516
0.064720586 0.040539749 -0.01125406 0.48267102 0.048097149 -0.87448007 0.0049838433
0.066976577 0.04049857 -0.0097012417 0.62616557 -0.031203434 -0.77906555 0.0028947867
-0.06224823 0.043737002 -0.011436282 -0.27725205 0.19833529 -0.94010341 0.0048830658
-0.048890393 0.044652861 -0.011761017 0.21071196 0.59223121 -0.77772921 0.0019541446
-0.046331536 0.044171106 -0.011301995 0.2675148 0.61884403 -0.73855793 0.0017133715
-0.043533977 0.043657154 -0.010560657 0.3122254 0.66249359 -0.68089467 0.0014655176
-0.040713821 0.042824935 -0.010010622 0.35082296 0.70844358 -0.61239767 0.0014358499
-0.03860997 0.04242241 -0.0092693595 0.37370721 0.71812087 -0.58706504 0.0013761722
0.044483423 0.042000704 -0.009076179 -0.40270579 0.68903971 -0.60253835 0.0018887493
0.04697185 0.042757906 -0.009789655 -0.37570319 0.66844308 -0.64189643 0.001258987
0.049666855 0.043373741 -0.010502463 -0.30844656 0.63018918 -0.71254641 0.0017081233
0.052355435 0.043904513 -0.011120724 -0.24148409 0.56913441 -0.7859844 0.0012356222
0.055207849 0.044370223 -0.011602558 -0.15758364 0.50826067 -0.84666318 0.002494745
0.058304489 0.044738602 -0.01179371 0.032387488 0.38049605 -0.9242152 0.0026946843
0.062044423 0.044132784 -0.011727165 0.18935928 0.27183837 -0.94352895 0.0066683921
0.064555809 0.043424189 -0.011031367 0.39600426 0.16462329 -0.90337139 0.0049816286
0.06696941 0.04342223 -0.0096542649 0.57616496 0.078574553 -0.81354785 0.0035163197
-0.063520364 0.046883978 -0.010541342 -0.28122425 0.20729674 -0.93698508 0.003449965
-0.061347071 0.046575535 -0.011235741 -0.17103569 0.33239326 -0.92750287 0.0039242813
-0.058506101 0.047047351 -0.011487633 0.059873853 0.5128901 -0.85636377 0.0024391303
-0.055422857 0.047064748 -0.011378944 0.10667761 0.535366 -0.83785629 0.0022726804
-0.0523853 0.046810597 -0.011045096 0.17716891 0.57694435 -0.79733706 0.0012076772
-0.049472738 0.046518445 -0.010371618 0.26896173 0.65365392 -0.70738685 0.0016049367
-0.046563372 0.045822863 -0.0098333033 0.31987774 0.68648034 -0.65301067 0.0014637882
-0.044550996 0.045307618 -0.0093625179 0.36550596 0.68457365 -0.63068551 0.0016829241
0.050708119 0.045299154 -0.0092181358 -0.37151584 0.66197842 -0.65096897 0.0010176889
0.052765343 0.045763787 -0.0097502479 -0.31010357 0.64444435 -0.69894725 0.0019172848
0.055581205 0.046352681 -0.01030095 -0.23405705 0.57776952 -0.78192055 0.0031512068
0.058980376 0.046420075 -0.010941844 0.0066505261 0.43231064 -0.9017002 0.0019540556
0.061590545 0.046363074 -0.010959652 0.12532462 0.36304983 -0.92330307 0.0040603494
0.064631447 0.046472311 -0.010270765 0.3258245 0.27046514 -0.9059177 0.0063866265
0.066715926 0.046295777 -0.0093945991 0.50776511 0.17944859 -0.84259886 0.0040018754
-0.064155579 0.049453482 -0.00955592 -0.12187083 0.4363232 -0.89149851 0.0024168706
-0.060970664 0.050070371 -0.0097860657 0.0020408875 0.55006927 -0.83511657 0.0020646211
-0.058367658 0.049708392 -0.0099567194 0.11402498 0.59665275 -0.79435754 0.0028029643
-0.055393044 0.049206764 -0.0098646441 0.16838066 0.63381982 -0.75493068 0.0029870067
-0.052428994 0.048692245 -0.0094726942 0.24051736 0.66286349 -0.70905817 0.0024212592
-0.050425813 0.048208315 -0.0091856318 0.30624872 0.69058055 -0.65521765 0.0016185105
0.056827001 0.048083626 -0.0094040809 -0.21661295 0.59805775 -0.7716254 0.0036314791
0.058845583 0.048739556 -0.0094336048 -0.17152692 0.57424998 -0.80050951 0.0038092774
0.061993659 0.048925094 -0.0096902205 0.086247161 0.41548637 -0.90550125 0.0039363299
0.064560995 0.048963882 -0.0094240028 0.24054627 0.34437454 -0.90749305 0.0066431556
0.06619668 0.048218518 -0.0091925841 0.37305522 0.31529871 -0.87259179 0.0071743815
-0.061101671 0.051080965 -0.0091464408 0.070467182 0.61163336 -0.78799683 0.0028082584
-0.058786836 0.051031988 -0.009053709 0.1084147 0.63972867 -0.76091623 0.0026785925
-0.0076064337 0.0027031358 -0.0064858794 -0.1336509 -0.85672784 -0.49815148 0.0017759188
-0.0044771582 0.0025801165 -0.0068929959 -0.082822718 -0.86322641 -0.49797648 0.0020178559
-0.0013274282 0.0023079203 -0.006810592 -0.059832063 -0.86465067 -0.49879798 0.0016583941
0.0016393777 0.0023599439 -0.0071878824 -0.027710963 -0.86309099 -0.50428766 0.0015770814
0.0044276975 0.0023401603 -0.0072072046 0.00091855886 -0.86590153 -0.50021362 0.0017501534
0.0075624646 0.0023959079 -0.0072171292 0.030612774 -0.87153226 -0.48938173 0.0017464913
0.010691321 0.0024602329 -0.0070399311 0.062042411 -0.87582952 -0.47861624 0.0017469642
0.012960138 0.0025641157 -0.0068498538 0.084831186 -0.84709984 -0.5246194 0.001307366
0.016861157 0.0028082815 -0.0064649195 0.11535169 -0.85806781 -0.50041342 0.00092899834
0.019090697 0.0029599301 -0.006102928 0.16461346 -0.88616031 -0.43315402 0.0014058782
-0.013245311 0.0047697863 -0.0081074974 -0.1698785 -0.79159856 -0.58695239 0.0028380204
-0.010275897 0.0037116173 -0.0073720114 -0.14107536 -0.83119726 -0.53778148 0.00231886
-0.0074808123 0.0035007799 -0.0077958754 -0.1255559 -0.84006238 -0.52776039 0.0020000807
-0.0047795251 0.0035387895 -0.0083239246 -0.081312418 -0.79321623 -0.60348678 0.00073803018
-0.0018566538 0.0032827538 -0.008332287 -0.054438449 -0.83139831 -0.55300391 0.0015285317
0.0013959781 0.0032988612 -0.0086152051 -0.029034816 -0.83344364 -0.5518412 0.0015991938
0.0048662624 0.0032531014 -0.008641555 -0.0037286654 -0.83524007 -0.54987282 0.0016739238
0.0080388281 0.0031804452 -0.0084658898 0.028984373 -0.78332978 -0.62093025 0.001402168
0.010904243 0.0033177247 -0.0084595233 0.05501768 -0.79939324 -0.59828383 0.00073131651
0.013546122 0.0035877521 -0.0085270619 0.084073082 -0.83049589 -0.5506435 0.0014027269
0.016649615 0.003704665 -0.0081578214 0.1036004 -0.83656293 -0.53798646 0.0010649906
0.019444242 0.0039949557 -0.0079281302 0.13832347 -0.83714908 -0.52919567 0.0009418691
0.022477321 0.0043116156 -0.007486661 0.17570397 -0.85538477 -0.48728326 0.0012131014
0.025471322 0.0052059949 -0.0078786723 0.19800593 -0.84879655 -0.49024293 0.0010420368
0.02854766 0.0055332948 -0.0069730994 0.24200805 -0.85499078 -0.45871872 0.0013223207
0.03027498 0.0056949677 -0.0062822783 0.27812204 -0.86335784 -0.42102417 0.0015205488
0.026700424 0.0061547495 -0.0089481268 0.2026044 -0.80632508 -0.55569005 0.0014316225
0.029234134 0.0063473601 -0.0081537263 0.24041852 -0.84005177 -0.48632497 0.0012023083
0.031651586 0.0068442607 -0.0077008493 0.2826041 -0.84395599 -0.45593104 0.0010903832
0.034573931 0.007917366 -0.0078095607 0.30889228 -0.83461124 -0.45608082 0.0013742859
0.037015915 0.0084005296 -0.00695475 0.32702357 -0.8431136 -0.4268665 0.0019802817
0.039231986 0.0089924596 -0.0063555948 0.35311344 -0.8299275 -0.43189269 0.0015675178
0.037885197 0.0093154646 -0.00804816 0.34407547 -0.82078725 -0.45598283 0.0018728205
0.040516146 0.010201713 -0.0075635584 0.37470624 -0.80883068 -0.45319772 0.0016603942
0.043196 0.011364384 -0.0073549477 0.39399865 -0.80223447 -0.44853646 0.0015697752
0.045240551 0.011697037 -0.0060147662 0.43134704 -0.83544618 -0.34054291 0.0025678892
0.044448785 0.012414996 -0.0081378408 0.42315301 -0.78720534 -0.4486081 0.0019313106
0.046523437 0.01323661 -0.0075772535 0.43601122 -0.78235644 -0.44476122 0.0016603842
0.048872899 0.014442175 -0.0072994926 0.46658105 -0.76458079 -0.44465533 0.0013412777
0.050129727 0.015589971 -0.0079195444 0.484667 -0.74758422 -0.45410976 0.001666112
0.052321762 0.016757332 -0.0074365665 0.50389069 -0.73772955 -0.44927642 0.0021760757
0.054328714 0.017589718 -0.0064953016 0.53116465 -0.72202319 -0.44333583 0.0011269215
0.053598721 0.018330172 -0.0084688189 0.52299988 -0.68756127 -0.50371689 0.0015446306
0.055628497 0.019305089 -0.0076064589 0.54843175 -0.70563561 -0.44866589 0.001359269
0.057692386 0.020387217 -0.0067203967 0.58324212 -0.66944069 -0.46008456 0.0014473834
0.056820489 0.021152187 -0.0087620467 0.53645843 -0.61693799 -0.57584715 0.00078950601
0.058825113 0.022171378 -0.0077569261 0.60083401 -0.64167249 -0.47671264 0.0016839313
0.060704663 0.023346214 -0.0069196671 0.6245752 -0.60468441 -0.49422932 0.00094865606
0.059606638 0.02400147 -0.0089649698 0.58100426 -0.58563894 -0.56520891 0.0019690099
0.061855689 0.025341664 -0.0077538169 0.65555894 -0.54160196 -0.52622217 0.002630596
0.063535139 0.026393522 -0.0067446451 0.68028349 -0.53093374 -0.50529569 0.0011381062
0.0011790098 0.029952271 -0.0088195642 0.054948322 0.76079798 -0.64665836 0.0018858812
0.0044809077 0.029837418 -0.0088500287 0.0087779202 0.78225046 -0.62290227 0.00080809899
0.0072125331 0.029904181 -0.0088025406 -0.038809281 0.82227248 -0.56776923 0.004107513
0.062797159 0.027512565 -0.0087217186 0.63675183 -0.4512344 -0.62524772 0.0010165724
0.064489126 0.028516192 -0.0075024441 0.71540236 -0.45047259 -0.53411037 0.0019527606
0.066117212 0.029615134 -0.0063357642 0.7325691 -0.44261935 -0.51713699 0.0015336529
-0.015729694 0.032986321 -0.0088978959 0.24374916 0.78318292 -0.57202357 0.00048479048
-0.013073516 0.032568019 -0.0083629815 0.2198144 0.82522815 -0.52026927 0.0014592619
-0.010290435 0.032240007 -0.0078101386 0.18943089 0.83431953 -0.51771313 0.0010545473
-0.0075168055 0.03181769 -0.0075426209 0.14719988 0.83646792 -0.52787656 0.0012610634
-0.0045625181 0.031229019 -0.0077586118 0.10181136 0.8142345 -0.57153893 0.0012443108
-0.0020120551 0.030724756 -0.0080401637 0.088885143 0.79919881 -0.5944584 0.0011711683
0.00090003147 0.030659335 -0.0077781463 0.054016143 0.80437905 -0.59165585 0.0020194873
0.0044604274 0.030806504 -0.007341038 0.0077659027 0.86542112 -0.50098497 0.0022775263
0.0074414513 0.030812996 -0.0073863855 -0.020128399 0.8593322 -0.51102161 0.0022102972
0.010593233 0.030913947 -0.0076008113 -0.067678757 0.85942268 -0.50676644 0.0019646788
0.013494664 0.031297743 -0.0074905008 -0.13073237 0.86631602 -0.48208466 0.0032765123
0.016362147 0.031728726 -0.0076245191 -0.18300466 0.8615492 -0.47354239 0.0014808216
0.019246586 0.032205842 -0.0080238292 -0.2184003 0.83990139 -0.49685717 0.0013687713
0.021882685 0.032653525 -0.0084855007 -0.2371874 0.8277868 -0.50844002 0.0015391053
0.065420046 0.031042583 -0.0083058197 0.68985969 -0.35102978 -0.63314432 0.0013304232
0.066780299 0.031744935 -0.0070311162 0.74074161 -0.40350819 -0.53710616 0.0017445324
-0.022138119 0.035564717 -0.0082660895 0.30714849 0.81360716 -0.49366304 0.0015626103
-0.019397201 0.035043716 -0.0074669276 0.29902926 0.83241916 -0.46654016 0.0010572871
-0.016539091 0.034058645 -0.0075275074 0.2467103 0.83113199 -0.49835092 0.0017474262
-0.01378874 0.033569075 -0.0070301951 0.21879925 0.84204656 -0.49303603 0.0014987526
-0.011105303 0.033117633 -0.0066008475 0.1910283 0.84442091 -0.50046116 0.0012769687
0.019707711 0.03318014 -0.0064994916 -0.22805479 0.85666668 -0.46272376 0.0014682761
0.022630068 0.03360825 -0.0072149057 -0.24031335 0.8503378 -0.4681614 0.0016679355
0.025609165 0.034374818 -0.0074509177 -0.26289514 0.84619105 -0.46351582 0.0020172477
0.028334165 0.035041962 -0.0078338478 -0.28061098 0.83657342 -0.47053421 0.0016782146
0.031324804 0.035694528 -0.0085419575 -0.29842553 0.81965721 -0.48898301 0.00183546
0.06590841 0.033152997 -0.0089186765 0.68489474 -0.31743661 -0.65586066 0.0028394139
0.067628019 0.03447517 -0.007540701 0.76032376 -0.27717826 -0.58743507 0.0018127688
0.069137976 0.035869889 -0.0062272213 0.77388704 -0.30183905 -0.55676937 0.0037172504
-0.030573282 0.038861126 -0.0087352684 0.35535061 0.74326307 -0.56682092 0.0010714547
-0.028187491 0.038308714 -0.0079113608 0.36508545 0.79036373 -0.49197334 0.0017686601
-0.025514694 0.03737266 -0.00748348 0.3454715 0.79931903 -0.49166906 0.0015944202
-0.022818482 0.036576107 -0.006981025 0.31521738 0.8221578 -0.47401956 0.0014725408
-0.020819921 0.036175951 -0.006193547 0.30930379 0.82942617 -0.46517032 0.0010524574
0.029493827 0.036140412 -0.0066135465 -0.30202949 0.85149866 -0.42863542 0.0015309071
0.031508557 0.036556963 -0.0071321139 -0.31043977 0.83569664 -0.45303228 0.0018309553
0.034311421 0.037406914 -0.0076342551 -0.36794907 0.81056589 -0.45562762 0.00299142
0.036888335 0.038398717 -0.0080546057 -0.42393994 0.79000384 -0.4429096 0.0014883553
0.068172343 0.037342593 -0.008040078 0.75673401 -0.17345028 -0.63029253 0.002179337
0.069433436 0.037710939 -0.0065951971 0.79235083 -0.20721905 -0.57379478 0.002377511
-0.036298588 0.041734662 -0.0086307833 0.38621098 0.74914479 -0.5381664 0.002555226
-0.034187142 0.041167412 -0.007866296 0.38225606 0.7836203 -0.48971385 0.0017484472
-0.031561084 0.040103342 -0.0075188968 0.37274367 0.79145378 -0.48442024 0.0014657113
-0.029113121 0.039402574 -0.0067150169 0.36949801 0.81393522 -0.44830862 0.0010352756
0.037591636 0.039657213 -0.0065805889 -0.43014199 0.78319114 -0.44898722 0.0016132883
0.040281218 0.040486392 -0.0077729244 -0.43641499 0.74740142 -0.50093222 0.001869741
0.042690828 0.041647486 -0.0081572859 -0.44741625 0.74693769 -0.49183616 0.0017295982
0.068432167 0.040399671 -0.0083781909 0.74381292 -0.075583719 -0.66410053 0.0025604067
0.069722801 0.040573191 -0.0069354479 0.78424627 -0.10788434 -0.61099827 0.0021421106
-0.042566847 0.044845432 -0.0087214932 0.37923241 0.73418707 -0.56316262 0.0010103275
-0.040271923 0.044221293 -0.0079084225 0.38707042 0.77079195 -0.50602007 0.0022088282
-0.037657399 0.043166608 -0.0074585374 0.38841516 0.77923036 -0.4918676 0.0015270901
-0.035330798 0.04236621 -0.006810138 0.40921399 0.78923321 -0.45788068 0.0015328644
0.041961767 0.04232353 -0.006410243 -0.4474183 0.74692857 -0.4918482 0.0017435303
0.043715242 0.042564828 -0.0077095306 -0.43982556 0.74250823 -0.50520802 0.0018013613
0.046302944 0.044095457 -0.0077198111 -0.43646953 0.74462736 -0.50499946 0.00071700197
0.04870259 0.044736803 -0.0086529087 -0.3794913 0.69951564 -0.60552818 0.001967764
0.068475731 0.043592133 -0.0084578553 0.70711869 0.028587662 -0.70651674 0.0027118772
0.069938548 0.043549214 -0.0069259503 0.75657678 -0.014629938 -0.65374112 0.0028039874
-0.048437197 0.047763482 -0.0086793974 0.32056355 0.70608604 -0.63141227 0.0014857672
-0.046167422 0.047239799 -0.0079168128 0.3615281 0.75419283 -0.54817033 0.0022898496
-0.043555632 0.046233326 -0.0074494109 0.38706857 0.76249969 -0.51843244 0.0020380286
-0.041059699 0.045387462 -0.0067355707 0.41515955 0.7873221 -0.455814 0.0014566894
0.047333252 0.045261919 -0.0069359648 -0.43043563 0.7389878 -0.51828784 0.00095790898
0.049678132 0.046110544 -0.0076022372 -0.39819184 0.69979215 -0.59307194 0.0014249306
0.052285448 0.047152404 -0.0081160497 -0.35306722 0.69236857 -0.62926096 0.0018880324
0.054522246 0.047682051 -0.0088278204 -0.30840778 0.65224063 -0.69243538 0.002263929
0.068172082 0.046637453 -0.0083713774 0.57413572 0.11840194 -0.81015372 0.003417447
0.069843866 0.046489336 -0.0068902196 0.70232737 0.069860563 -0.70841783 0.0036370549
-0.066587016 0.050377324 -0.0085199233 -0.14748928 0.41465032 -0.8979488 0.0017035787
-0.065545283 0.050337166 -0.0088588465 -0.12062081 0.44768465 -0.88601869 0.002742778
-0.057016857 0.050800823 -0.0089490172 0.098885559 0.67811126 -0.72827667 0.0033932854
-0.054833461 0.050538953 -0.008554454 0.21203811 0.67944235 -0.70242292 0.0023228335
-0.052233681 0.050190866 -0.0077814437 0.31499845 0.74296051 -0.59058076 0.0028551773
-0.049555305 0.049298596 -0.0073843375 0.34433308 0.76093376 -0.54992229 0.0020395729
-0.04711698 0.048519913 -0.0067912769 0.39152649 0.774095 -0.49747753 0.0017423151
0.05273544 0.048513751 -0.006867195 -0.41910109 0.7102623 -0.5655809 0.0016523958
0.055500355 0.04927659 -0.0076962318 -0.32188737 0.66620964 -0.67272085 0.0013073534
0.058350451 0.050119873 -0.0081687877 -0.245019 0.64370412 -0.72499019 0.0025916216
0.062021382 0.05043928 -0.0088065704 0.034901325 0.47689983 -0.87826443 0.0036958074
0.064858846 0.050362512 -0.0087659229 0.16723855 0.38548109 -0.90743351 0.0049433457
0.067649171 0.049535472 -0.0080577303 0.43100426 0.24071264 -0.8696509 0.0045910734
0.06970983 0.049527477 -0.006627691 0.68581063 0.12955426 -0.71615601 0.0048528649
-0.069370292 0.053445131 -0.0066886968 -0.092924565 0.39178622 -0.91535163 0.0015559717
-0.067305036 0.052558206 -0.0075498312 -0.11592367 0.42213219 -0.8990919 0.0017109165
-0.064251781 0.052889541 -0.0078446437 0.094014734 0.61410445 -0.78360516 0.0036239559
-0.061649133 0.052948549 -0.0076451129 0.1607102 0.6926567 -0.70313507 0.0030247092
-0.058397453 0.05248028 -0.0075601414 0.16827677 0.72669166 -0.6660347 0.0024795225
-0.055552676 0.051998902 -0.0072071292 0.23635632 0.73902619 -0.63085335 0.0031923752
-0.05306245 0.051549967 -0.0065458436 0.34129891 0.75727385 -0.55682254 0.0022269737
0.056472387 0.05104842 -0.0063358215 -0.41945601 0.7020641 -0.57546729 0.0039005433
0.058795676 0.051724877 -0.0068693012 -0.32098365 0.6621576 -0.67713869 0.0028476629
0.061597671 0.052365527 -0.007354721 -0.20353715 0.58493525 -0.78512639 0.0064129117
0.064799383 0.052261315 -0.0078860605 0.11974122 0.39326984 -0.91159254 0.0056336694
0.067617804 0.052457049 -0.0072282739 0.38197824 0.2613613 -0.88644397 0.010542719
0.069411859 0.052356683 -0.006324511 0.61448443 0.17984223 -0.76815724 0.0050926255
-0.069841824 0.054928772 -0.006190585 -0.045444593 0.42240718 -0.90526628 0.0026888819
-0.067490183 0.055443794 -0.006388945 0.11285137 0.57786608 -0.80829161 0.0027903246
-0.064606503 0.054738063 -0.0066367374 0.16630647 0.63306999 -0.75601888 0.0051557692
-0.061683554 0.054321539 -0.0063712732 0.19549397 0.71040577 -0.67609602 0.0049133655
0.06247009 0.054259401 -0.0062186331 -0.30984452 0.60032833 -0.73729396 0.0064543555
0.065114863 0.054729674 -0.006635068 0.07170026 0.38494921 -0.92014843 0.0058639725
0.067642376 0.055000976 -0.006392709 0.27189842 0.29223061 -0.91688198 0.012416258
-0.010601556 0.0023651822 -0.0045859045 -0.17975774 -0.90782553 -0.37886673 0.0046465034
-0.0073661818 0.0017693195 -0.0043472387 -0.097155981 -0.93617553 -0.33784038 0.0036198653
-0.0047390577 0.0014786349 -0.0043662139 -0.10808802 -0.93905717 -0.32632595 0.003481562
-0.0016932633 0.0013253235 -0.0046875975 -0.067694463 -0.93638271 -0.34439057 0.0031277623
0.0013798557 0.0012118717 -0.0047320966 -0.010591598 -0.9280737 -0.37224594 0.0020614029
0.0044310968 0.0011709085 -0.0047318018 0.010239 -0.9327938 -0.36026505 0.0021409381
0.0075287214 0.0012078908 -0.0046340646 0.038612641 -0.93539715 -0.3514843 0.0020257568
0.010605036 0.0013412194 -0.0045216419 0.069972008 -0.93829983 -0.33867005 0.0022207582
0.013596123 0.0016156698 -0.0045048059 0.095911764 -0.9411611 -0.32406294 0.0020312218
0.016561499 0.0019560566 -0.004447225 0.12352947 -0.94571996 -0.30058983 0.0016448572
0.019615792 0.0024897058 -0.004575911 0.16164233 -0.94441432 -0.28627512 0.0015000082
0.022529826 0.0027906187 -0.0037316608 0.20070189 -0.94100523 -0.27244812 0.0013326178
0.022740819 0.0032724505 -0.005102633 0.20614925 -0.92620498 -0.31566897 0.0018383373
0.02581387 0.0039919647 -0.0050767404 0.2308366 -0.88730973 -0.3992441 0.0010809234
0.028195295 0.0046890061 -0.005214069 0.25042188 -0.88498694 -0.39253926 0.0013643517
0.031184398 0.005587202 -0.0052205874 0.28154698 -0.88583827 -0.36881152 0.0011873022
0.03343422 0.0058408561 -0.0037626533 0.32092458 -0.90346795 -0.28417102 0.0020575731
0.032569814 0.0062157996 -0.0057856143 0.32341433 -0.8733601 -0.364205 0.0026660173
0.034589738 0.0065961173 -0.0048322184 0.33834332 -0.87835222 -0.33767012 0.0013396613
0.037461862 0.0076457476 -0.0046358295 0.34727263 -0.88173157 -0.31929791 0.0010154095
0.039947912 0.0085813496 -0.0043536611 0.3850244 -0.87891805 -0.28153035 0.0014038188
0.041652113 0.0097012045 -0.0053959447 0.40366876 -0.8621769 -0.30610874 0.0022136762
0.043423235 0.010288196 -0.0046298909 0.42207912 -0.8634426 -0.27625367 0.0011329204
0.045809288 0.011327049 -0.0041281031 0.4475145 -0.84843355 -0.28265023 0.001599364
0.047122702 0.012315697 -0.0048822444 0.46679601 -0.82972819 -0.30602723 0.0015871291
0.049543262 0.013612919 -0.004597377 0.49472472 -0.81790084 -0.29374427 0.0015034835
0.051828269 0.014761331 -0.0038640008 0.52072704 -0.80824071 -0.27493685 0.0021215181
0.052765477 0.015747935 -0.0048424304 0.528422 -0.7887069 -0.31418416 0.0017810836
0.05508728 0.017171215 -0.004348319 0.55813879 -0.77358389 -0.300082 0.0017974705
0.056433212 0.018408388 -0.0049326196 0.5861969 -0.75458485 -0.29491523 0.0016388835
0.05828901 0.01971163 -0.004470096 0.61610961 -0.729761 -0.29640815 0.0017799251
0.060177699 0.020848989 -0.0033280309 0.64349735 -0.72143596 -0.25581494 0.0023015188
0.059667982 0.021223085 -0.0052380846 0.63546109 -0.69707948 -0.33206826 0.0019353635
0.061427251 0.022568773 -0.0044712946 0.67000484 -0.67970425 -0.29848894 0.0017947407
0.063094765 0.023689637 -0.0032449812 0.70334959 -0.64223576 -0.30468443 0.0017596731
0.062681653 0.024346095 -0.0053800493 0.70082033 -0.62500072 -0.34383851 0.0017634067
0.064170867 0.025551794 -0.0044341134 0.72579223 -0.59911191 -0.33806902 0.0023438141
0.065520495 0.027575361 -0.0048742425 0.76049888 -0.55937546 -0.32975844 0.0019733803
0.066731602 0.02891222 -0.0042846589 0.78554761 -0.51377898 -0.34488553 0.0026018354
-0.0091964789 0.032999821 -0.0059445277 0.20006514 0.8446641 -0.49650443 0.00037129808
-0.0074546277 0.032771863 -0.0057237875 0.15702565 0.87878025 -0.45065311 0.0014234533
-0.0043796143 0.032596536 -0.0050754412 0.13250658 0.9193905 -0.37035546 0.0021485691
-0.0015977779 0.032418597 -0.0046335584 0.10184559 0.9254232 -0.36499223 0.0020842759
0.0014927374 0.0322093 -0.0045519145 0.055325314 0.93824089 -0.34153071 0.002454988
0.0044914233 0.032107875 -0.0045890156 0.014600451 0.94734305 -0.3198874 0.0030241145
0.0074189827 0.032138355 -0.0045476984 -0.031871878 0.94523859 -0.32482043 0.0025976915
0.010452715 0.032295499 -0.0046649873 -0.092668884 0.93457574 -0.34348327 0.0020138796
0.013408095 0.032548722 -0.0048089805 -0.13745795 0.92214048 -0.36161068 0.0018510849
0.01591425 0.032793533 -0.0053272564 -0.20737894 0.91963512 -0.33356455 0.0021730359
0.067991801 0.031348791 -0.0046601668 0.8217665 -0.41389939 -0.39164659 0.0029015455
0.069164917 0.03253223 -0.0034606711 0.83982438 -0.4073821 -0.35879636 0.0022655101
-0.018438326 0.035833251 -0.0051915222 0.30207077 0.8732785 -0.38227978 0.0013872142
-0.016375182 0.035249278 -0.0049459198 0.26280603 0.87856412 -0.39882097 0.0019211662
-0.013242987 0.034318462 -0.0050823097 0.21917067 0.87868309 -0.42412299 0.0014382489
-0.010654467 0.033631228 -0.0052531115 0.18667799 0.88062012 -0.43549922 0.0016707191
-0.0080955364 0.033312432 -0.0047943834 0.17271584 0.90104902 -0.39784414 0.0014756448
-0.0049048946 0.033190403 -0.0036227962 0.13068779 0.93719268 -0.32340476 0.0025783358
0.013860445 0.03307198 -0.0034391973 -0.12222789 0.97419775 -0.18973471 0.0022185042
0.016644869 0.03332584 -0.0042616441 -0.19404066 0.92817897 -0.31754074 0.0020997862
0.019476697 0.033883739 -0.0046460438 -0.2291512 0.91750729 -0.32506949 0.0018543465
0.022472627 0.034629472 -0.0048374492 -0.25429994 0.90683699 -0.33612236 0.0018868491
0.025069257 0.035454687 -0.0046587577 -0.29862574 0.90680981 -0.29752079 0.0019037433
0.027273435 0.035874192 -0.0054204417 -0.32252437 0.89478147 -0.30877867 0.002364466
0.068744451 0.033669837 -0.005448726 0.8369686 -0.35463363 -0.41679573 0.0029178006
0.069681138 0.034665547 -0.0043505481 0.85552025 -0.34073427 -0.38985279 0.0030225301
-0.02514305 0.038402811 -0.0050018444 0.36594337 0.85519558 -0.36705038 0.0012938337
-0.022531502 0.037403356 -0.0048899995 0.34460303 0.85789853 -0.38112831 0.0013450029
-0.01998953 0.036467373 -0.0048408392 0.29701602 0.87731189 -0.37696871 0.0013905456
-0.017812245 0.036233492 -0.0034408274 0.26703271 0.92162317 -0.28161025 0.0020600271
0.026532816 0.036153354 -0.0039460324 -0.30627578 0.90085411 -0.30766389 0.0023022322
0.028613716 0.03666041 -0.0044777179 -0.28649095 0.90555298 -0.31288466 0.0016982238
0.031354211 0.03756433 -0.0046730088 -0.35512808 0.87211466 -0.33660084 0.0022636761
0.033862565 0.038595371 -0.0046173809 -0.40527579 0.85489678 -0.32388741 0.0021201465
0.070581853 0.037474096 -0.0045071882 0.86889225 -0.25217471 -0.42595094 0.0036056181
-0.03306362 0.041728415 -0.0058799265 0.4274272 0.82497078 -0.36976922 0.0034969719
-0.031288244 0.041340813 -0.0047233896 0.42727682 0.8539471 -0.29699978 0.0018712434
-0.028545164 0.040086005 -0.0045905616 0.39071414 0.86756009 -0.30770442 0.0021697883
-0.02654154 0.039411664 -0.0039540748 0.37789077 0.87449157 -0.30407736 0.0018170134
0.035316821 0.039444938 -0.0041633341 -0.43546942 0.83413589 -0.33850229 0.0024874709
0.037770469 0.040694419 -0.0044545806 -0.47315282 0.80450195 -0.35903063 0.0015607139
0.039942123 0.041659418 -0.0052996948 -0.46503621 0.76241285 -0.44996446 0.00077482761
0.07117112 0.0404342 -0.0045997594 0.88434291 -0.14169894 -0.44481349 0.0026935819
0.072114363 0.041962486 -0.0030098492 0.90985548 -0.12984186 -0.39408648 0.0050384402
-0.039202299 0.044846021 -0.0057312772 0.41837177 0.79626048 -0.43696037 0.00093242375
-0.037246723 0.044340748 -0.0046577263 0.4532764 0.8375302 -0.30509615 0.0019278565
-0.034893136 0.043114644 -0.004675325 0.43636075 0.84149802 -0.31854415 0.0020908546
-0.032490231 0.042269591 -0.0037388359 0.40988556 0.86137271 -0.30005136 0.001720919
0.04107213 0.042531367 -0.0048028883 -0.4568654 0.77102602 -0.44361353 0.00067189703
0.043896407 0.044168763 -0.0051717157 -0.46669585 0.75442165 -0.46156591 0.00029085466
0.07139872 0.043493006 -0.0048442576 0.87049896 -0.0560457 -0.48896876 0.0032456992
0.072161764 0.043761212 -0.0033559473 0.90667099 -0.080234163 -0.41413787 0.0032176375
-0.045030892 0.047969211 -0.0057826117 0.43287495 0.79408455 -0.4266721 0.0045089968
-0.043025959 0.047382716 -0.0048513245 0.45597768 0.81923068 -0.34777221 0.0024665084
-0.040495306 0.046155944 -0.0044907494 0.4522146 0.827591 -0.33255854 0.0023999112
-0.038536791 0.045315128 -0.0038900499 0.43418321 0.84718281 -0.30621284 0.0018712037
0.046691511 0.046054516 -0.0048745465 -0.43966681 0.74279791 -0.50492024 0.00059848162
0.048702955 0.047107343 -0.0052653197 -0.44168693 0.74330497 -0.50240463 0.00048003788
0.071347848 0.046568368 -0.0049984721 0.84819108 0.019929744 -0.52931535 0.0034969437
0.0722197 0.046621315 -0.0034865043 0.8893078 -0.013265464 -0.45711675 0.0038197506
-0.048984278 0.050510202 -0.0049837404 0.41479367 0.82137758 -0.39151654 0.0033551352
-0.046487261 0.049416482 -0.0045027374 0.44015497 0.82730103 -0.34905094 0.0021919631
-0.044178795 0.048414588 -0.0038826801 0.43856108 0.82887715 -0.34731397 0.0020339759
0.050705995 0.048955146 -0.0041476432 -0.45025676 0.7443862 -0.4931106 0.00050075888
0.052130353 0.049355935 -0.0050993357 -0.43306306 0.72419566 -0.53665364 0.0012317604
0.054645985 0.050654154 -0.0054971217 -0.43435344 0.73174888 -0.52524352 0.0017668288
0.071187943 0.049502045 -0.0050085038 0.81495035 0.06544593 -0.57582361 0.0044304989
0.072214812 0.049621664 -0.0034375694 0.86321372 0.022825509 -0.50432241 0.0042894706
-0.057938989 0.053854644 -0.0057210303 0.22442096 0.78917938 -0.57169145 0.0031337305
-0.055134263 0.053421974 -0.0049131732 0.32900089 0.84589857 -0.41977844 0.0039809993
-0.052389156 0.052417468 -0.0045764693 0.37913713 0.8315981 -0.40583202 0.002679379
-0.050098658 0.051560689 -0.0039548171 0.42460385 0.82729298 -0.3678287 0.0026941269
0.053621188 0.051257849 -0.0032827945 -0.44513479 0.74557561 -0.49595571 0.00088252011
0.056040425 0.051900096 -0.0047846194 -0.42242721 0.7184568 -0.5526076 0.002927846
0.058587525 0.053099748 -0.0051853699 -0.40171996 0.7196632 -0.56630903 0.004321048
0.060293585 0.053568143 -0.0057801087 -0.34037116 0.68322122 -0.6460312 0.0066909883
0.0709894 0.052506335 -0.004856769 0.7297762 0.087627195 -0.67804736 0.010706984
0.072251081 0.052625656 -0.0032155507 0.82178295 0.037077248 -0.56859303 0.0055152448
-0.070585869 0.056361467 -0.0056285891 -0.0060579884 0.50252259 -0.86454284 0.0083179669
-0.066768728 0.056621403 -0.0056642443 0.17476772 0.60117972 -0.77976865 0.0059249941
-0.064220384 0.056194469 -0.0053841132 0.23292474 0.65412021 -0.71963388 0.0057560918
-0.061513737 0.055795539 -0.0045341277 0.31081095 0.76005864 -0.5707078 0.0076076225
-0.058633983 0.054870248 -0.004364735 0.27171335 0.83131164 -0.48486364 0.0046565994
-0.056044776 0.054396491 -0.0036904402 0.34834927 0.86057311 -0.37157339 0.0031019039
0.059436031 0.054426793 -0.0040507312 -0.41072708 0.70758384 -0.57500297 0.0040545603
0.061663732 0.055239674 -0.0048629637 -0.42460915 0.63244069 -0.64786249 0.0072484235
0.064346187 0.05624694 -0.0055052526 -0.18913546 0.44914708 -0.87320936 0.006069513
0.068342872 0.056362595 -0.0058216788 0.27772519 0.28122342 -0.91857612 0.013430128
0.070687339 0.055481009 -0.0047204541 0.64576113 0.098753929 -0.75712633 0.012979528
0.072134331 0.055412129 -0.0032678032 0.82736242 0.032146193 -0.5607478 0.016014703
-0.072222397 0.057885852 -0.0047691222 -0.0058853221 0.50258243 -0.86450928 0.0082884636
-0.069907457 0.05832155 -0.004871951 0.17706311 0.65659976 -0.73316127 0.0071995459
-0.067530997 0.058655683 -0.0042569288 0.20256993 0.67056948 -0.71365398 0.0070101749
-0.064672761 0.057875764 -0.0039122398 0.35977229 0.71814102 -0.59568232 0.0062475652
-0.06264025 0.05726045 -0.0032908344 0.41415632 0.7557897 -0.50720453 0.011191885
0.064878099 0.058220234 -0.0044712438 -0.19265491 0.37939587 -0.90495467 0.0061570834
0.067910448 0.058416225 -0.0052716294 0.21442278 0.21381471 -0.95305097 0.011884045
0.070652559 0.058463745 -0.0043721232 0.52181894 0.10188799 -0.84694976 0.017454464
0.072131351 0.058313288 -0.003207528 0.7654959 0.0084487507 -0.64338541 0.018842818
-0.068225771 0.060070977 -0.003196883 0.31170872 0.73540854 -0.60167438 0.013619959
0.065744475 0.060531169 -0.0037953025 -0.051841483 0.27723473 -0.95940262 0.012273272
0.06816563 0.061025176 -0.0045394497 0.25224715 0.14534809 -0.95668453 0.015442519
0.070668794 0.061505862 -0.0040884083 0.41553301 0.053178377 -0.90802217 0.01677867
0.072153926 0.061421782 -0.0032331147 0.67483848 -0.022485718 -0.7376228 0.021631319
0.068383142 0.063688003 -0.0040805563 0.20227037 0.050342184 -0.97803497 0.013502548
0.070759371 0.064522564 -0.0039487965 0.39386967 -0.045298446 -0.9180494 0.017584179
0.072439313 0.064483866 -0.0032200182 0.47932336 -0.07418941 -0.87449706 0.019294921
0.068430632 0.067456692 -0.0036371578 -0.092022747 -0.043659013 -0.99479932 0.016392412
0.070861049 0.067379244 -0.0040085586 0.29973197 -0.12394959 -0.94593728 0.023202244
0.072759114 0.067547783 -0.0034285276 0.58834743 -0.14333393 -0.79580319 0.014274876
0.068333857 0.069586523 -0.0033765547 -0.08812888 -0.021138938 -0.99588478 0.012895308
0.071072318 0.070403382 -0.0042291461 0.27567688 -0.14789313 -0.9498052 0.018438306
0.073354423 0.070599176 -0.0037186514 0.45991042 -0.20637609 -0.86364996 0.017040057
0.068797819 0.073927186 -0.003402642 -0.5178076 0.3461473 -0.782341 0.042640489
0.071028605 0.073504336 -0.0045452463 0.1830519 0.037509121 -0.98238748 0.047246348
0.073708825 0.073483318 -0.0043362505 0.45098421 0.023217082 -0.89222986 0.046255022
0.07546103 0.073755257 -0.0034420989 0.61907035 -0.09375295 -0.77971941 0.049733795
0.071389966 0.075935394 -0.0045133056 0.26406065 0.30082157 -0.91639423 0.034217581
0.073498182 0.075499512 -0.0042840219 0.43629235 0.31817046 -0.84167486 0.045078769
0.075177535 0.075197078 -0.0033511645 0.68899739 0.16770582 -0.70509392 0.060797129
-0.0072993501 0.00091334566 -0.00045070387 -0.11853743 -0.97412163 -0.19244745 0.0024251642
-0.0039354903 0.00054851896 -0.00046205474 -0.09529113 -0.97337949 -0.20845133 0.0034295055
