# .PCD v0.7 - Point Cloud Data file format
VERSION 0.7
FIELDS x y z normal_x normal_y normal_z curvature
SIZE 4 4 4 4 4 4 4
TYPE F F F F F F F
COUNT 1 1 1 1 1 1 1
WIDTH 572
HEIGHT 1
VIEWPOINT 0 0 0 1 0 0 0
POINTS 572
DATA ascii
0.072272263 0.055226523 0.0035161085 0.87720209 0.016939729 0.47982249 0.0056799315
-0.073064297 0.058821492 0.0031549409 -0.35846829 0.82702607 0.43304557 0.054690532
-0.070264019 0.059061527 0.004703186 0.034784168 0.8279506 0.55972135 0.021546302
-0.067027144 0.059054244 0.0042468156 0.34537736 0.80799222 0.47735006 0.014531853
-0.064326443 0.058097031 0.0039290655 0.4336074 0.77486473 0.45996663 0.0048427396
-0.062418923 0.057381161 0.0034063952 0.42858407 0.79238886 0.43409184 0.0063208984
0.065362178 0.057429165 0.0057938918 -0.10485495 0.30396682 0.94689471 0.0080229845
0.067941308 0.058799125 0.0055752541 0.35434234 0.23515846 0.90506464 0.014142167
0.071034811 0.058418252 0.0045132446 0.73426378 0.069239713 0.67532402 0.0068538222
0.072298549 0.058410905 0.0033104604 0.89566833 -0.021830371 0.44418642 0.02070518
-0.069694407 0.0600687 0.0036981022 -0.016629469 0.87629354 0.48149043 0.026404129
-0.067922853 0.060342345 0.0032588383 0.38816971 0.8603195 0.33041573 0.025166074
0.068293437 0.061462693 0.0047455691 0.38896048 0.13653977 0.91107988 0.0062968768
0.071048677 0.061107155 0.0040348493 0.78083396 0.0066208201 0.62470347 0.01330098
0.072163746 0.061260462 0.0033102687 0.78375572 -0.014940517 0.62088948 0.027927684
0.068531051 0.064247236 0.0040443419 0.35246083 0.03364376 0.93522161 0.01311793
0.070382714 0.063933663 0.0038280757 0.48709399 0.022131829 0.87306905 0.019012282
0.072257698 0.064535089 0.0032822753 0.61461955 -0.10593623 0.7816779 0.027511453
0.068589382 0.066981599 0.0034754621 0.071472563 0.089564361 0.99341327 0.011558402
0.070294611 0.067390837 0.0034986665 0.16441025 -0.038209625 0.98565173 0.030165238
0.072880872 0.066886805 0.0032707446 0.8819344 -0.24131609 0.40491754 0.020379905
0.068684362 0.069650032 0.0030964219 0.13988242 -0.11355905 0.98363471 0.022245526
0.071820498 0.070188686 0.0040206136 0.18328737 -0.30417511 0.93481725 0.019134112
0.074102663 0.070690162 0.0034616129 0.81037021 -0.29173106 0.50812715 0.0083914679
0.071952462 0.074083678 0.0049612522 -0.018737454 0.25779292 0.9660185 0.11423409
0.074360304 0.07361792 0.0043481071 0.68727624 -0.0010982697 0.72639531 0.071535282
0.075680718 0.074013583 0.0034963186 0.8325662 0.071963362 0.54923105 0.076415196
0.071244828 0.0764134 0.0036406119 0.32348901 0.93991727 0.10913502 0.01364761
0.073526159 0.075623766 0.0039977753 0.56365371 0.74846005 0.34943089 0.07395976
0.07540071 0.07511811 0.0032716515 0.58020133 0.73555768 0.34974462 0.061853658
-0.010891878 0.0026279851 0.0065938458 -0.12705532 -0.8721171 0.4725132 0.0013355564
-0.0074472125 0.0024073923 0.0069504478 -0.084171288 -0.88117528 0.46523693 0.0014010022
-0.0042950232 0.0023501252 0.0073060268 -0.052897312 -0.8824175 0.46748403 0.0018339696
-0.0015082719 0.0021448443 0.0071293106 0.0031385585 -0.8710565 0.49117282 0.0021088829
0.0015381508 0.0022649798 0.0073756226 -0.0011883237 -0.87019759 0.4927015 0.0018123868
0.0044758064 0.0022557487 0.0072222454 0.012559043 -0.86687851 0.49836132 0.0017093603
0.0074878703 0.0023451052 0.007047914 0.059858523 -0.86770672 0.49345925 0.0016350421
0.010032156 0.0024424901 0.0067706304 0.076571353 -0.89145231 0.44659781 0.0022030091
0.013897993 0.0027196084 0.0065017999 0.12282254 -0.85690099 0.50063497 0.0016291043
0.015385383 0.002710263 0.0062374696 0.1223744 -0.84717852 0.51702327 0.00071145431
-0.016985584 0.0042536627 0.0074292198 -0.18113767 -0.8673324 0.46359867 0.0043742429
-0.013654587 0.003867395 0.0079906993 -0.1704022 -0.84966439 0.49903259 0.0018681438
-0.010449902 0.0033837114 0.0080566294 -0.12513167 -0.85849941 0.49731362 0.0013291131
-0.0072091385 0.0032630221 0.0084878653 -0.082353443 -0.85561806 0.51101434 0.0016989239
-0.0045611006 0.003189723 0.0086814165 -0.04864648 -0.85057992 0.52359092 0.0017884522
-0.0016055829 0.0030117838 0.0086265877 -0.013256776 -0.8336314 0.55216217 0.0033480709
0.0052548689 0.0031471562 0.0086607663 0.038484324 -0.85267311 0.52102554 0.0020304311
0.0078136129 0.0033739314 0.0087404829 0.069132537 -0.80391216 0.59071642 0.0010566387
0.011254275 0.0036645094 0.0086083151 0.10377714 -0.80712587 0.58118683 0.00079163373
0.012860492 0.0034260785 0.0078698937 0.11238334 -0.83960766 0.53144062 0.00074739318
0.016483629 0.0040804129 0.0080187796 0.13124387 -0.83075309 0.54094768 0.00035347603
0.019397296 0.0044609737 0.0078167254 0.1602408 -0.82029706 0.54903162 0.0010222113
0.022351928 0.004724043 0.0074575259 0.16687651 -0.81195408 0.55935937 0.0021510224
0.025375789 0.0049156095 0.0069113635 0.19455965 -0.82709509 0.52731407 0.0054228213
0.028453257 0.0054490608 0.0065914909 0.23112236 -0.84633768 0.47989064 0.0027844345
0.030406272 0.0057520638 0.0061694253 0.28393829 -0.85473531 0.43451881 0.0038253835
0.023032175 0.0060351654 0.0088138236 0.17358896 -0.77191776 0.6115635 0.00098411064
0.025553374 0.0063332994 0.0086146137 0.18230163 -0.74857593 0.63749528 0.0012093846
0.029005283 0.0065431558 0.0078874426 0.22586454 -0.81137937 0.53911841 0.0019988106
0.031711332 0.0069216499 0.0073491801 0.27417535 -0.82270014 0.49798822 0.0027763115
0.034640126 0.0078304503 0.0072557083 0.28211445 -0.81262809 0.50994802 0.0025658861
0.037161443 0.0084847864 0.0068278695 0.33228612 -0.81795323 0.46961522 0.0019939542
0.039299272 0.0089623751 0.0061651841 0.36502779 -0.81683791 0.44668844 0.00171244
0.035485625 0.0093311276 0.0088946503 0.24905321 -0.69251132 0.67705292 0.0019752837
0.03797178 0.0094716055 0.0078575751 0.31580883 -0.79452634 0.51864517 0.003342967
0.0405837 0.010321619 0.007456983 0.35315043 -0.80308497 0.47993675 0.0019153979
0.042856645 0.011095199 0.0070399665 0.40499642 -0.82949573 0.38459685 0.0021013019
0.045473296 0.011932262 0.0061866567 0.42149976 -0.79726195 0.43210104 0.0028962756
0.043762293 0.012468392 0.0084323511 0.36692357 -0.76962215 0.52254075 0.0035335633
0.04663559 0.013131449 0.0071431804 0.43912742 -0.79942125 0.40999117 0.001532121
0.049093042 0.014290623 0.0067226524 0.4819383 -0.78003556 0.39909902 0.0016011435
0.050199281 0.015492368 0.0075549311 0.46929523 -0.74762213 0.46991819 0.0019639914
0.052369449 0.016805297 0.0073681213 0.49737176 -0.72671217 0.47382569 0.0017707014
0.054458868 0.01771079 0.0065378137 0.51676542 -0.7146821 0.47136292 0.0014024756
0.053361934 0.018342476 0.0085321879 0.49599373 -0.67297047 0.54872662 0.0022228593
0.055642154 0.019285619 0.0075106793 0.53587645 -0.68348336 0.49566814 0.0026468318
0.057583533 0.020358821 0.0068287407 0.56660366 -0.66043848 0.49272841 0.0014985336
0.056815419 0.021294484 0.0087669892 0.53648508 -0.59827274 0.59519196 0.0026534603
0.058922175 0.022235783 0.0076965685 0.58364958 -0.62268084 0.52117348 0.0022437589
0.060779311 0.023249662 0.0067740218 0.62812233 -0.60925651 0.48401323 0.0020225316
0.059764147 0.024110233 0.0088090328 0.57530344 -0.57517582 0.58154857 0.0017527194
0.06176788 0.025220912 0.0077481512 0.62720758 -0.55673689 0.54466021 0.0035810128
0.063633703 0.026384609 0.0066895559 0.69061255 -0.52891803 0.49325445 0.0019362724
0.062713325 0.027249023 0.0086120162 0.63456666 -0.49839473 0.59070122 0.0030047477
0.06456697 0.028478542 0.0074386476 0.6963765 -0.46636474 0.54549396 0.0022932629
0.066297859 0.029697478 0.0062818364 0.73182613 -0.45818305 0.50447881 0.0016975616
-0.012989239 0.032765612 0.0085876938 0.21953292 0.85901988 0.46248254 0.0015427058
-0.010406485 0.032496527 0.0079589384 0.19005011 0.86945325 0.45599556 0.0013658031
-0.0077516087 0.032334473 0.0072168759 0.15053624 0.89794844 0.41355464 0.0014245396
-0.0043921927 0.031613894 0.0075174375 0.11931372 0.86336625 0.49026817 0.0020666716
-0.0016253931 0.031154567 0.0076919151 0.098805547 0.84429449 0.52669185 0.0018476597
0.0011831097 0.030848477 0.0078109512 0.053690445 0.8411653 0.5381062 0.0016794237
0.0042602364 0.031148313 0.0071012015 0.014027278 0.89378965 0.44826707 0.002652626
0.0074776639 0.03092365 0.0074922428 -0.04321475 0.87400007 0.48400053 0.0023661896
0.010382429 0.031195691 0.007325375 -0.090325616 0.88000083 0.46630442 0.0026806928
0.013353363 0.031525392 0.00734177 -0.11868811 0.88180333 0.4564383 0.0022319814
0.016589416 0.032021169 0.0074644252 -0.18790323 0.86477798 0.46567309 0.0015156741
0.019543214 0.032261282 0.0083198361 -0.21037148 0.81832403 0.53487355 0.0018556225
0.022000935 0.032760985 0.0085661709 -0.23345846 0.78990936 0.56704533 0.00093510118
0.065439738 0.030931221 0.0082941428 0.67603344 -0.37198478 0.63608652 0.0016393042
0.066922814 0.031738918 0.0069816913 0.74947995 -0.40567592 0.52316999 0.0023763599
-0.021593351 0.035716709 0.0082010916 0.30414069 0.84313196 0.44342637 0.0015752036
-0.0192497 0.035199095 0.0076167327 0.30263114 0.84919953 0.43275237 0.0015083319
-0.016509321 0.034413904 0.0073819743 0.25576341 0.86097056 0.43967584 0.0021037702
-0.013623571 0.0336794 0.0072303745 0.22220154 0.8707484 0.43866128 0.0013871996
-0.010665292 0.0332845 0.0065853023 0.18886651 0.88059992 0.4345955 0.0012594538
0.019636499 0.033255208 0.0066270377 -0.22480017 0.85895658 0.46006355 0.0015501078
0.022417432 0.033717867 0.0071684527 -0.2572991 0.8539108 0.4523645 0.0018274555
0.025271105 0.034473762 0.0073268502 -0.26188487 0.84351104 0.46894068 0.0008044758
0.028243342 0.035235733 0.00769602 -0.29332376 0.82630903 0.4808062 0.0010433068
0.030743726 0.035731431 0.0083468072 -0.31655884 0.78934354 0.52604884 0.0006461654
0.065908767 0.033157844 0.0088840853 0.67400014 -0.32988602 0.66098338 0.0043361345
0.067879692 0.034369372 0.0073589971 0.77464372 -0.32200938 0.54427677 0.0022493792
0.069181524 0.035590731 0.0062840176 0.79845822 -0.31928566 0.51041269 0.0031461315
-0.030503454 0.03899464 0.0089673307 0.36188689 0.75708407 0.54393172 0.0011638319
-0.028092487 0.038462643 0.0081021301 0.37092036 0.80870616 0.45652211 0.0021418903
-0.02555833 0.03773424 0.0073701786 0.35793224 0.82950658 0.42872295 0.0017939447
-0.022730457 0.036683433 0.0072014052 0.32083064 0.84739923 0.42306286 0.0015826783
-0.020331452 0.036153149 0.00644264 0.31035045 0.86963701 0.38394552 0.00093051395
0.02923619 0.036270335 0.0063885581 -0.30338225 0.86286455 0.40425733 0.0012444379
0.031633876 0.036704618 0.0072192089 -0.31143138 0.79470682 0.52101016 0.00070914224
0.033966288 0.037775144 0.0069574392 -0.36864859 0.83416569 0.41020209 0.0018445001
0.03698381 0.038612943 0.0081045208 -0.4088527 0.73424369 0.54196465 0.0020906813
0.068331011 0.03736354 0.0081337187 0.75469971 -0.20972638 0.62164551 0.0020551449
0.069547445 0.037672058 0.00669742 0.81387973 -0.22927627 0.53388405 0.0023142868
-0.036252819 0.041909479 0.0088000819 0.3857632 0.76647633 0.51351798 0.001587452
-0.034186509 0.041482203 0.0078312457 0.40175611 0.80565715 0.43532589 0.001883673
-0.031553052 0.040374324 0.0075161485 0.37990996 0.81314582 0.4409788 0.0018203917
-0.028810637 0.039444104 0.006848027 0.38205516 0.83541292 0.39511889 0.0012077307
0.037702877 0.03958701 0.0071831197 -0.41646704 0.74979341 0.51416445 0.00088102079
0.04010126 0.040634494 0.0077209263 -0.42583141 0.73702264 0.52484781 0.0017169217
0.042499982 0.041413657 0.0086533204 -0.43238446 0.71674001 0.54710829 0.0024229821
0.068548843 0.040233489 0.0085824076 0.70342165 -0.11252179 0.7018097 0.002431913
0.069905825 0.040548518 0.0070510218 0.81040108 -0.14005253 0.56888968 0.0021985893
-0.042277131 0.04487196 0.0088620894 0.36376563 0.73125738 0.57700717 0.0012130013
-0.040144641 0.044473715 0.0078924466 0.40343028 0.78626221 0.46801257 0.002447872
-0.037552144 0.04352231 0.0072322083 0.40895393 0.81444889 0.41161856 0.0015856399
-0.035047896 0.042475522 0.0067910361 0.40639928 0.81501031 0.41303486 0.0014324004
0.040875711 0.042023059 0.0062253997 -0.44803986 0.74898314 0.48814407 0.00045485544
0.043564104 0.043014362 0.0072896243 -0.44212529 0.72943395 0.52196878 0.0011386551
0.046231475 0.044177294 0.0079603866 -0.42216679 0.71895611 0.55215693 0.0021354416
0.04833563 0.044783413 0.0087327585 -0.40358916 0.71964091 0.56500685 0.0018458004
0.068759106 0.04331531 0.0086837569 0.66537964 -0.015700171 0.7463401 0.0027777832
0.070173003 0.043438479 0.0071057826 0.80172747 -0.050150741 0.59558201 0.0027376062
-0.048549034 0.047980465 0.0088630542 0.33173206 0.71391106 0.6166724 0.0011272451
-0.046233203 0.047479708 0.0081325006 0.38346389 0.77400482 0.50385708 0.001879236
-0.043485384 0.046513949 0.0074289357 0.41267839 0.79507524 0.44446805 0.0013497608
-0.041146558 0.045619164 0.0068661585 0.42672813 0.79709542 0.42724934 0.0013213556
0.047180749 0.045615092 0.0067295358 -0.43726441 0.73074406 0.52422613 0.00090434845
0.049635176 0.046605233 0.0073834518 -0.42162848 0.7261771 0.54304349 0.0015372189
0.052176211 0.047516558 0.0081280665 -0.38696781 0.70005488 0.60014921 0.0037537836
0.068690173 0.046941154 0.0086402176 0.63753635 0.062683173 0.76786602 0.0032783314
0.070123397 0.046354905 0.0072533828 0.7782467 0.018573146 0.62768394 0.0026868503
-0.05454113 0.050745334 0.0087250937 0.27074385 0.72957599 0.62802595 0.0019834018
-0.052180007 0.050387777 0.0080057932 0.31514004 0.74737382 0.58490938 0.0015523592
-0.049402058 0.04955316 0.0073963692 0.37408721 0.77345896 0.51168352 0.0014134997
-0.04678918 0.04862931 0.0068116542 0.41185153 0.78538686 0.46211013 0.0018451454
-0.044940621 0.048087783 0.0060562519 0.42452532 0.79300463 0.43694615 0.0012537928
0.050789278 0.048283916 0.00605046 -0.44714636 0.70207006 0.55421811 0.001401034
0.052872814 0.049180187 0.0066195889 -0.43111196 0.70790595 0.55947453 0.0012276268
0.055444304 0.049635604 0.007792925 -0.34170371 0.66952002 0.6595313 0.0017150273
0.058421694 0.050275929 0.0086059533 -0.20423312 0.5850327 0.78487295 0.0029635783
0.060069926 0.050621487 0.0088820383 -0.2276869 0.65465665 0.72082132 0.0036276716
0.068244345 0.049540184 0.0085247466 0.58957028 0.12471921 0.79803008 0.005466742
0.070065975 0.049276765 0.0070979963 0.72799534 0.080208041 0.68087405 0.0040328889
-0.066793978 0.053442627 0.0079507334 0.11203177 0.57201678 0.81255507 0.0015114513
-0.064270817 0.052981585 0.0082798554 0.12763524 0.61976159 0.77434152 0.002759224
-0.061214767 0.053233288 0.007795196 0.16175292 0.70784575 0.68759751 0.0036650111
-0.058068879 0.053362932 0.0069272472 0.24289815 0.79112613 0.56135553 0.0017982505
-0.055435743 0.052269008 0.0072989915 0.28660417 0.77511305 0.56307894 0.0018685999
-0.052799731 0.051595155 0.0067606289 0.35677651 0.78338814 0.50893372 0.0021574383
-0.050937392 0.051157597 0.0061287703 0.36820146 0.77533633 0.51310951 0.0018368129
0.056924727 0.051716082 0.0063712969 -0.35549912 0.68144023 0.63973403 0.0012975008
0.058990713 0.051927522 0.0073051974 -0.37119132 0.65205997 0.66108608 0.0017485777
0.061683536 0.052041762 0.0082424311 -0.11456931 0.51815695 0.84757727 0.0044915844
0.064672187 0.05260691 0.0083559975 0.039663836 0.41935262 0.90695655 0.0068098744
0.068040244 0.0526326 0.0077912756 0.57074827 0.17225038 0.80285501 0.0063142404
0.070106506 0.052314006 0.0065700472 0.7523703 0.091230407 0.65239239 0.0044510867
-0.069360271 0.056215905 0.0065602809 0.068170048 0.57702202 0.8138786 0.0067180623
-0.0671321 0.05577096 0.0067929043 0.17688397 0.60210508 0.77857655 0.0019135512
-0.064502977 0.055088844 0.0068399832 0.18927471 0.66820967 0.71949351 0.0061099064
-0.062382329 0.054923128 0.0064554824 0.2913118 0.78199983 0.55101156 0.0058306092
-0.058943633 0.054140046 0.0062129623 0.27046043 0.80939007 0.52128583 0.0039204289
0.061759301 0.054277044 0.0064945444 -0.31891647 0.61301643 0.72284383 0.005009376
0.0649115 0.055152133 0.0069776801 0.023569554 0.38739359 0.92161304 0.0080506969
0.068169944 0.055640716 0.0067127044 0.42634255 0.24620897 0.87040973 0.0082967989
0.069709145 0.054854672 0.0063207312 0.68446237 0.13683473 0.71609187 0.0047890805
-0.069924273 0.057264987 0.0060987226 0.17261551 0.57136512 0.80233771 0.0026667239
-0.068407245 0.05738496 0.0060020164 0.25884941 0.69389099 0.67194664 0.0055326517
0.067489013 0.057326294 0.0061531751 0.23180445 0.25858465 0.93776363 0.01446862
-0.016055066 0.0057742521 0.010144226 -0.17768818 -0.79942489 0.57388741 0.0024526417
-0.013605498 0.0052670063 0.010091104 -0.13399683 -0.79533201 0.59117848 0.001604819
-0.010613638 0.0049428409 0.010270338 -0.10656416 -0.79133534 0.60202366 0.0014815161
-0.0074981195 0.0046600509 0.01034126 -0.076882355 -0.76923633 0.63432217 0.0018261605
-0.0045052832 0.0045478167 0.010460061 -0.030321825 -0.7524938 0.65790093 0.0018587798
-0.0014912029 0.0043911682 0.010378849 -0.0071008117 -0.77380049 0.63338959 0.0022658273
0.001154572 0.0049249753 0.010982538 0.031604782 -0.65932566 0.75119299 0.0013009363
0.0048991162 0.0048129759 0.01073348 0.03790205 -0.68939304 0.72339523 0.0015667921
0.0077441717 0.0046060262 0.010297962 0.068534277 -0.74092841 0.66807795 0.0018322659
0.01051099 0.0049676849 0.010392862 0.090846814 -0.73219937 0.67500436 0.0016920213
0.013514049 0.0047692521 0.0096986322 0.11294149 -0.80096561 0.5879612 0.0015320593
0.016585227 0.0054040775 0.0098464713 0.14648636 -0.74795544 0.64738268 0.0011282931
0.019360062 0.0056943791 0.0094728889 0.16002908 -0.75004822 0.64173084 0.00073698536
0.0212113 0.0058427802 0.0091475025 0.15972334 -0.7559157 0.63488573 0.00087606069
-0.018900277 0.0070979376 0.01096075 -0.21347025 -0.76746821 0.60450226 0.0035337
-0.013064972 0.0063837403 0.011564031 -0.12392092 -0.73198026 0.66996157 0.0020385762
-0.0097052194 0.0060888706 0.011726163 -0.078513227 -0.7281757 0.6808787 0.0022143684
0.0089165494 0.0060750851 0.011745982 0.062425572 -0.67235088 0.73759568 0.0048469938
0.010775691 0.0061962279 0.011700369 0.077567175 -0.71367514 0.6961689 0.0015037678
0.013507619 0.0063592698 0.011478059 0.09831956 -0.7240324 0.68272275 0.0018054923
0.016531538 0.0066054114 0.011213233 0.13276926 -0.72412217 0.67677134 0.0014617033
0.01942898 0.0069890711 0.010962546 0.16093038 -0.7120145 0.68347412 0.0019639619
0.022435553 0.0074074036 0.010595512 0.17777607 -0.70474893 0.68682212 0.0010883422
0.025416175 0.0079259584 0.010293994 0.18470253 -0.70653129 0.68315333 0.00059574732
0.028422443 0.0081804767 0.0097587993 0.19726017 -0.69408339 0.69234145 0.00040989119
0.03139117 0.0086442623 0.0094685927 0.20691149 -0.68214041 0.70133597 0.00087140396
0.033492088 0.0089602079 0.0091761723 0.23929645 -0.71635038 0.65542299 0.0017548203
0.026244951 0.0093637547 0.011557378 0.18464392 -0.65986264 0.72834605 0.0017848564
0.029075146 0.010055234 0.01132733 0.19829841 -0.67273754 0.7128126 0.00042044115
0.031962622 0.010129969 0.010620177 0.19663699 -0.66146982 0.72373438 0.00083955616
0.034358468 0.010058674 0.0099298926 0.21868216 -0.6817857 0.698102 0.0018097932
0.037297487 0.010952346 0.0098644858 0.25941622 -0.69149297 0.67419636 0.0021934826
0.039781898 0.011395411 0.0093610398 0.32538047 -0.7332173 0.59709293 0.0014753859
0.035143819 0.012477029 0.011657035 0.21049687 -0.60993594 0.76398247 0.00024221448
0.037918959 0.012831431 0.011224055 0.23167108 -0.59485608 0.76972383 0.0010732077
0.040804934 0.013355523 0.01069991 0.27818012 -0.63071185 0.7244435 0.0011550873
0.043630242 0.013627307 0.0098145567 0.35201398 -0.69438058 0.62763196 0.0018580724
0.046028018 0.014534668 0.0094835861 0.37725106 -0.66796696 0.64148396 0.0030789368
0.041666165 0.015157247 0.01183073 0.24330048 -0.55829269 0.79316717 0.00060079631
0.043586433 0.015684115 0.011531747 0.28669745 -0.58640033 0.75758773 0.0017629451
0.046602372 0.016252792 0.010739471 0.34112588 -0.60144508 0.72242439 0.0020284767
0.049072772 0.01663205 0.0097846407 0.41593501 -0.65892947 0.62674552 0.0018481016
0.051370349 0.017611679 0.0092878453 0.44597411 -0.64643872 0.61905092 0.0026084699
0.04734835 0.018101588 0.011824012 0.3098112 -0.54202139 0.78117204 0.00099098531
0.050032128 0.018740738 0.011058426 0.39604145 -0.57983434 0.71199954 0.0010241417
0.052368525 0.018945569 0.0098820999 0.47131217 -0.64412946 0.6024633 0.0022558782
0.054919768 0.020398939 0.0094671147 0.51159078 -0.62806588 0.58635157 0.0015577684
0.053213399 0.021645507 0.011482801 0.4016324 -0.50943846 0.76102823 0.001072028
0.055902191 0.022373136 0.010379235 0.49257231 -0.53922558 0.68308741 0.0022975062
0.057851914 0.023127344 0.0096187824 0.54443532 -0.54709208 0.63583052 0.0026609579
0.056672286 0.024515711 0.011375814 0.47679463 -0.47877085 0.73718745 0.0023903421
0.05892894 0.02530003 0.010360518 0.52805132 -0.46282923 0.71200484 0.0024426288
0.060810946 0.026212892 0.0095708491 0.58135855 -0.50605667 0.63712543 0.001469
-0.012198733 0.029852256 0.011953659 0.17880116 0.7057479 0.68552899 0.0031359545
-0.010308268 0.029625304 0.01170637 0.17770201 0.72051901 0.67027932 0.00079356431
-0.0073876018 0.029275328 0.011387129 0.14336312 0.74205977 0.6548239 0.0011788394
-0.0044461526 0.029167324 0.010947126 0.11253414 0.77163464 0.62603205 0.0010298409
-0.0015555109 0.028967723 0.010715878 0.08555793 0.76354861 0.64005733 0.0019613274
0.0014097107 0.028851412 0.010543004 0.056817725 0.76488888 0.64165157 0.0018306711
0.0043750876 0.028858745 0.010383897 0.012018736 0.77021915 0.63766617 0.0022681803
0.0070007085 0.028839186 0.01042005 -0.037593469 0.79486382 0.60562223 0.0023572841
0.010523275 0.028782973 0.010662807 -0.069887258 0.73223037 0.6774618 0.0032926165
0.013733265 0.028985441 0.010857671 -0.10835429 0.72351164 0.68175524 0.0017471017
0.016468931 0.029157352 0.011200968 -0.1478072 0.66258311 0.73425925 0.0020984337
0.019296348 0.029500831 0.011527916 -0.16446744 0.68647289 0.70831168 0.0025147854
0.021674924 0.029943747 0.011720844 -0.18375082 0.6886484 0.70142645 0.0018960969
0.059412837 0.027903145 0.0115081 0.4903436 -0.37286782 0.78773904 0.0014618526
0.061892182 0.028642705 0.010173566 0.58938348 -0.41951415 0.69038761 0.0021486124
0.063436218 0.029346881 0.0093013933 0.63393778 -0.42133227 0.64853841 0.0018886387
-0.019353976 0.032635313 0.011424487 0.25975305 0.76214862 0.59300739 0.0011723718
-0.0166493 0.0323871 0.010620042 0.24026492 0.79276735 0.56017214 0.00093918794
-0.013806428 0.031878971 0.010160452 0.22131243 0.80667073 0.54799926 0.0011237315
-0.010610856 0.030943915 0.010269221 0.1849817 0.77216762 0.60789716 0.0014734098
-0.0077654002 0.030656045 0.0098549258 0.15262783 0.80300885 0.57609153 0.0013781405
-0.0047706743 0.030386895 0.0095208595 0.11547945 0.79610592 0.59403682 0.0013788809
-0.0016910807 0.030141577 0.0092872838 0.090384029 0.79647934 0.59787226 0.0013479054
0.011244605 0.030123733 0.0091507379 -0.081919022 0.79874277 0.59606981 0.0029149177
0.013572593 0.0303018 0.0093090842 -0.11768188 0.82154608 0.55786473 0.0017127186
0.016464338 0.030472809 0.0097419675 -0.16790478 0.7557711 0.63294393 0.001799711
0.019275282 0.031105878 0.0097776186 -0.20322937 0.79425961 0.57258141 0.0020828005
0.022588249 0.031373385 0.010515254 -0.20878538 0.72850919 0.65244389 0.0024334956
0.025929846 0.032092903 0.010857576 -0.23774312 0.71183747 0.66088247 0.0025682121
0.028980259 0.032543965 0.011424381 -0.23314624 0.64875019 0.72440732 0.0033389139
0.030745275 0.032613643 0.011948399 -0.23546118 0.60310751 0.76211512 0.0022000081
0.062054854 0.03126644 0.011263476 0.53087109 -0.30496043 0.79068011 0.0010310578
0.064341083 0.031751294 0.0097786421 0.63683259 -0.353522 0.68517625 0.001697121
-0.027790891 0.035759687 0.011652087 0.31610087 0.7146737 0.62395656 0.0011182327
-0.025266191 0.035218492 0.011027159 0.31081602 0.75398302 0.57870805 0.0015163224
-0.022512412 0.034639318 0.010334663 0.29184902 0.7739988 0.56191641 0.0012919913
-0.019569524 0.03380223 0.010050411 0.27013186 0.78857356 0.55243146 0.0012973245
-0.016989352 0.033399638 0.0093721589 0.24068539 0.81356686 0.52931988 0.00093951391
-0.014988426 0.033033244 0.0090219751 0.24660499 0.79777294 0.5502221 0.0026829201
0.026087962 0.033337485 0.0094901416 -0.23713817 0.74384028 0.6248737 0.0013958553
0.029132148 0.034146868 0.0097377924 -0.26166213 0.7160418 0.64716065 0.0017403117
0.031335752 0.03398899 0.010779087 -0.2548635 0.6941877 0.6731627 0.0025589713
0.03448429 0.034772042 0.011256373 -0.26686612 0.63350743 0.7262581 0.0028758855
0.036950119 0.035796836 0.011367591 -0.27703542 0.58804011 0.75990802 0.0021101779
0.062781021 0.033677232 0.011628984 0.54184151 -0.24549706 0.8038277 0.0014446483
0.06466341 0.034469914 0.010533815 0.59545106 -0.25440934 0.76204592 0.0017426352
0.066376224 0.035039812 0.0093506603 0.67384523 -0.27586177 0.68544352 0.0016544623
-0.033703972 0.038547009 0.011562788 0.3263458 0.69191456 0.64401299 0.00091698545
-0.031212773 0.038101841 0.01070758 0.34640634 0.74811304 0.56597662 0.001021398
-0.028539453 0.037203364 0.010295808 0.32955456 0.762591 0.55664062 0.0015762292
-0.025841651 0.036523983 0.0096126972 0.32217896 0.77030385 0.55030245 0.0015256283
-0.023802437 0.036001753 0.0090301856 0.32794341 0.78011048 0.53280467 0.00093803933
0.034649178 0.036550146 0.0093742711 -0.32269049 0.76296854 0.56013376 0.0019787545
0.037551191 0.037146814 0.010287111 -0.34395605 0.68385434 0.64345741 0.0029075907
0.040723428 0.037629969 0.011481366 -0.29108626 0.54810804 0.78412145 0.0026048718
0.042084876 0.038276404 0.011604212 -0.31640306 0.59854847 0.7359544 0.0020886459
0.064888284 0.037369557 0.011079133 0.55572146 -0.13270654 0.82070857 0.0017097259
0.066850431 0.037609678 0.0096522179 0.67114198 -0.19013789 0.71653062 0.0019857993
-0.039995283 0.041581359 0.011551889 0.32707044 0.68495142 0.65105027 0.0011007299
-0.03736211 0.040971722 0.010784538 0.35810301 0.71698427 0.5980767 0.0014439578
-0.034624584 0.040121149 0.01018602 0.35608 0.74060625 0.56983274 0.0013728051
-0.032234654 0.039418329 0.0096108392 0.36122775 0.75635874 0.54537696 0.00095133478
0.040831439 0.039546635 0.0097103268 -0.39979145 0.71025497 0.57940036 0.0012637023
0.043526653 0.040476877 0.010314174 -0.38237596 0.65716916 0.64955163 0.0022784956
0.046423241 0.040639151 0.011563994 -0.26844519 0.5213033 0.81004941 0.0011275775
0.048950717 0.041492529 0.011886649 -0.23791938 0.51579469 0.82301289 0.0013106548
0.064537682 0.040713023 0.011603096 0.52787203 -0.037387475 0.84850055 0.0017811492
0.067068994 0.040518392 0.0099476036 0.62093568 -0.081517555 0.77961129 0.0027690453
-0.048309982 0.044940092 0.011853673 0.21871802 0.63303947 0.74257892 0.0026085023
-0.046193074 0.044483978 0.011519504 0.30165273 0.67246163 0.6758706 0.00099603727
-0.043272194 0.043851115 0.010777622 0.335522 0.71425754 0.61421585 0.0013641311
-0.040470369 0.043124795 0.010036586 0.36474687 0.72744817 0.58118749 0.0015252893
-0.038152821 0.042445321 0.0094342129 0.37863535 0.74154538 0.5538463 0.0012260878
0.046590444 0.042836398 0.0097409263 -0.37135926 0.65073752 0.66229373 0.0026783545
0.049643643 0.042964507 0.011016533 -0.26530907 0.55396694 0.78913355 0.0014306774
0.052428797 0.043937445 0.011332725 -0.21193923 0.49850091 0.84058231 0.0014642682
0.055033743 0.044633806 0.011612682 -0.18130435 0.48366261 0.85627049 0.002533033
0.062357433 0.044468179 0.011904586 0.19418889 0.22872934 0.95392531 0.0083827339
0.064730287 0.043132719 0.01137278 0.46185577 0.049654882 0.88556403 0.0028523547
0.067306094 0.043514874 0.0098845279 0.60204142 0.0053044069 0.79844719 0.002698588
-0.060367528 0.046963815 0.011999027 -0.065071695 0.45694959 0.88710922 0.00094944262
-0.057699546 0.047539338 0.011853055 0.056541827 0.52903098 0.84671676 0.0014783436
-0.055126671 0.047460359 0.011668012 0.12876868 0.56694788 0.81362695 0.0023261353
-0.052245267 0.047443759 0.011058344 0.25974584 0.65993232 0.70499748 0.0011670373
-0.049430668 0.046972781 0.010445588 0.28863096 0.67353332 0.68047422 0.0011521752
-0.046671543 0.046105925 0.010077923 0.34312043 0.70676762 0.61866629 0.0016603094
-0.04413373 0.045347188 0.0095732613 0.3698186 0.72348326 0.5829289 0.0014693515
0.05071874 0.045540288 0.0093343854 -0.34745952 0.66586947 0.66021943 0.0032503714
0.0531414 0.046158835 0.0099250935 -0.26607162 0.58008432 0.76987535 0.0014613288
0.055680297 0.046412956 0.0106334 -0.21741515 0.53761244 0.81468004 0.0019505299
0.05861742 0.046417262 0.011257 -0.074554451 0.42542374 0.90191811 0.0042102798
0.061512604 0.046433136 0.011369189 0.09002208 0.35695755 0.92977273 0.0057858531
0.065364711 0.045744561 0.010730101 0.48995277 0.11366279 0.86430722 0.003329206
0.067433037 0.046401065 0.0095871398 0.59537172 0.074472561 0.79999149 0.0037003213
-0.063461289 0.049506426 0.01027899 0.0060210587 0.5609917 0.82779956 0.0018755796
-0.061413921 0.049765654 0.010435556 -0.014540446 0.54336226 0.8393724 0.00097253441
-0.058430057 0.049676504 0.010483329 0.11044371 0.61371523 0.78176457 0.002062422
-0.055119634 0.049511336 0.010082933 0.24557874 0.69297975 0.6778422 0.0013315917
-0.052431729 0.048778109 0.0098869801 0.28141075 0.69169074 0.66511041 0.0015397154
-0.0499557 0.048397459 0.0092433766 0.32577237 0.71786427 0.61525863 0.0014775598
0.056519113 0.048603609 0.0093103312 -0.22079876 0.56114727 0.79772282 0.0017099925
0.058887564 0.048833344 0.0098679559 -0.1623484 0.52873605 0.83311528 0.0033388913
0.061662622 0.049398117 0.0099542039 -0.044223744 0.45358452 0.89011532 0.0052645137
0.064606048 0.049477652 0.009814376 0.16021435 0.36483762 0.91718316 0.0093285507
0.066926733 0.049206343 0.0092997001 0.54435682 0.17261161 0.82090241 0.0043324903
-0.064270779 0.051174045 0.009335719 0.027488558 0.5816943 0.81294286 0.0028759767
-0.061426658 0.051444635 0.0093663754 0.058901127 0.63449067 0.77068299 0.0026909078
-0.058849905 0.051357012 0.0092527224 0.12676646 0.68322825 0.71911705 0.0026636154
-0.056710467 0.051093243 0.0090757012 0.19240043 0.68658519 0.70112967 0.0025816259
0.064150713 0.051113904 0.0091713462 0.10327439 0.39691004 0.91202897 0.0070596505
-0.0028836026 0.0059385179 0.012041621 -0.022775078 -0.68897223 0.72442979 0.0028606609
-0.017143238 0.0081931707 0.012670495 -0.14286065 -0.68261874 0.71667463 0.0011112198
-0.012887524 0.0078751175 0.013051342 -0.10143749 -0.66012365 0.74427634 0.0013995304
-0.009904338 0.0081691733 0.013596818 -0.035534035 -0.56018436 0.82760543 0.001210853
-0.0071689542 0.0082067484 0.013786094 -0.01144519 -0.55703425 0.83041066 0.001451325
-0.0045443391 0.0077931341 0.013540074 -0.016968811 -0.55585903 0.83110332 0.0017087613
-0.0017018814 0.0074980748 0.013346432 0.033153322 -0.58424217 0.81090194 0.001592699
0.001298975 0.0075714556 0.013334215 0.026114592 -0.58248079 0.8124249 0.0015710392
0.0046500075 0.0074193943 0.013106074 0.046741128 -0.59640759 0.80131966 0.0019515845
0.0076759038 0.0076129674 0.01307072 0.062530361 -0.57602489 0.81503695 0.0020963259
0.010547392 0.0077175088 0.012930818 0.061033685 -0.58907801 0.80576801 0.0026559301
0.01341917 0.0078970715 0.012769877 0.095814794 -0.59285873 0.79958624 0.0024363545
0.016355991 0.0081970934 0.012629293 0.11218134 -0.61130881 0.78340083 0.0019926163
0.019045066 0.0085014114 0.012453945 0.13700925 -0.63700336 0.75858766 0.0023425603
0.02118228 0.0087939128 0.012291968 0.16489014 -0.64862317 0.74303383 0.0035006152
-0.019468941 0.010503072 0.014253594 -0.14175324 -0.62927687 0.76414448 0.0027083706
-0.01678798 0.0099022537 0.014169142 -0.11078803 -0.59444463 0.7964682 0.0037782728
-0.013118822 0.0097579267 0.014555968 -0.092172429 -0.58252805 0.80756754 0.0020621412
-0.010146353 0.0093101617 0.014462739 -0.055013966 -0.60271561 0.7960574 0.00072138023
-0.0071072574 0.0093462719 0.014616795 -0.022479428 -0.52945852 0.84803802 0.0018885656
-0.0044860956 0.0095020384 0.014712465 0.0042582662 -0.51072323 0.85973465 0.0009592796
-0.0016612299 0.009463856 0.014664998 0.019829525 -0.48101956 0.87648559 0.0018653304
0.0011838973 0.0099029038 0.014826262 0.013009363 -0.45172399 0.8920629 0.0018680588
0.0045392071 0.0096478174 0.014555836 0.043581367 -0.46318424 0.88518983 0.0020314362
0.007606226 0.0099651199 0.014545975 0.053412326 -0.46600625 0.8831678 0.0017824124
0.010561235 0.00986866 0.014308266 0.072914325 -0.47210154 0.87852359 0.0024636884
0.01353819 0.010471368 0.014354469 0.084196769 -0.46317554 0.88225812 0.0013425878
0.016324123 0.010564939 0.014124138 0.084023774 -0.46868262 0.87936151 0.0012246335
0.019488171 0.010433244 0.013672628 0.11354458 -0.48209846 0.86872828 0.00094122707
0.022458874 0.01040357 0.01318888 0.15028282 -0.55342889 0.81922621 0.0019607234
0.025361381 0.010687681 0.01283903 0.15994309 -0.56098741 0.81222618 0.0028689546
0.028599843 0.011241236 0.012522154 0.18816175 -0.63048774 0.75304735 0.0013207149
0.03086675 0.011760492 0.012296557 0.19926696 -0.60599041 0.7701093 0.00050311739
0.017199675 0.012248427 0.014862098 0.078776725 -0.34465879 0.93541676 0.0014174175
0.019524753 0.012502991 0.014727257 0.10607783 -0.3788906 0.91934186 0.001843505
0.022634493 0.012929516 0.014551563 0.1235699 -0.40551695 0.90569669 0.0017791623
0.025649292 0.013267683 0.014299777 0.1344703 -0.43466687 0.89049566 0.0011971882
0.028720394 0.013464876 0.013902931 0.13888098 -0.4382526 0.88805789 0.00196141
0.031922076 0.012957887 0.012882632 0.19333427 -0.57676148 0.79370528 0.0013004811
0.034348212 0.013759379 0.012829125 0.19707792 -0.54458308 0.81522357 0.00082035619
0.037180014 0.014337114 0.012460941 0.21172732 -0.55583811 0.80387539 0.00042983267
0.039663088 0.01472376 0.012055919 0.23651607 -0.57363951 0.78421807 0.00076792436
0.028617453 0.015647925 0.014902389 0.13076957 -0.35359854 0.92621136 0.0016201334
0.031519361 0.015942067 0.014643987 0.14611156 -0.39342865 0.90767032 0.0021398009
0.034531958 0.016267113 0.014298974 0.15681551 -0.43572542 0.88631392 0.001936452
0.037445195 0.016448544 0.013756256 0.19051859 -0.46584797 0.8641113 0.001250886
0.040267233 0.016895913 0.013284485 0.23957162 -0.52743888 0.81511575 0.00051010004
0.043253526 0.017151155 0.012599147 0.25913972 -0.51802856 0.81516445 0.0010949264
0.045403335 0.017659148 0.012263178 0.29600504 -0.54916275 0.78153771 0.0014014562
0.035347983 0.018113455 0.014942793 0.12254928 -0.32615283 0.9373399 0.0017822026
0.037895918 0.01852753 0.014718624 0.17034608 -0.37047231 0.91308957 0.0034334771
0.040748522 0.019100968 0.014348972 0.21298876 -0.39648694 0.89299154 0.0010960784
0.043545544 0.019527122 0.013797256 0.22748719 -0.40881959 0.88380778 0.00074300607
0.046762597 0.019376436 0.012777299 0.30173832 -0.49550697 0.81451017 0.0009401993
0.049712542 0.020359041 0.012290777 0.34762645 -0.50344235 0.79101312 0.0014369409
-0.0032776566 0.023892431 0.014971084 0.08623407 0.51370645 0.8536213 0.001334446
-0.0010038563 0.023897149 0.014763999 0.070093527 0.49030989 0.868725 0.0018559754
0.001382857 0.023730947 0.014699689 0.049022082 0.45078579 0.891285 0.0019160011
0.0044278158 0.023649225 0.014624615 0.023325378 0.44959107 0.89292991 0.0020293796
0.0074217715 0.023525611 0.014655019 -0.010381211 0.47490197 0.87997746 0.002171051
0.010165809 0.02333685 0.01477229 -0.031227827 0.42488551 0.90470833 0.0024982956
0.013360005 0.023465298 0.014839103 -0.047752723 0.40185073 0.91445923 0.0023330399
0.016031712 0.023834638 0.014855798 -0.07540758 0.36722761 0.92706931 0.0019230528
0.044087552 0.0219642 0.014767175 0.21839349 -0.33269787 0.91739655 0.0015610165
0.046564147 0.022376213 0.014246644 0.25281936 -0.35700002 0.89924043 0.00094550598
0.050003711 0.022339536 0.013169803 0.32828176 -0.43700573 0.83741099 0.00062528055
0.052435968 0.022832563 0.012523829 0.36570385 -0.45169094 0.81377882 0.0014664674
0.054279089 0.023616029 0.012113642 0.41395241 -0.4631041 0.78369504 0.0019649363
-0.012792707 0.026660874 0.014733531 0.17194358 0.5260644 0.83288151 0.0017632038
-0.010282143 0.026174793 0.014563649 0.15170737 0.53059983 0.83393562 0.0013396364
-0.0074626547 0.025773495 0.014348384 0.13300511 0.53158772 0.83649516 0.0012597727
-0.0045337505 0.025626011 0.014034809 0.10332295 0.54122293 0.83450711 0.0011410143
-0.0015837249 0.025641689 0.013686768 0.075911246 0.57338274 0.81576324 0.0020985303
0.0014763102 0.025662789 0.013438822 0.050623544 0.56486142 0.82363158 0.00093501672
0.0045487424 0.025594855 0.013347681 0.021981152 0.55624926 0.83072478 0.0014226368
0.007421982 0.02557075 0.013361684 0.0047378787 0.56628358 0.82419688 0.0016470483
0.010526177 0.025566962 0.013460927 -0.040165413 0.56017089 0.82740277 0.0016970055
0.013424309 0.025576159 0.013667306 -0.074871816 0.53406841 0.84211946 0.002046196
0.016640456 0.025570791 0.013988167 -0.093897723 0.48540413 0.86923301 0.001585886
0.019634854 0.025735116 0.014307801 -0.11502385 0.46334368 0.87868202 0.0018695262
0.022519648 0.026253594 0.014456807 -0.12584412 0.43005461 0.89398903 0.002136688
0.025225874 0.026279658 0.014803994 -0.12902881 0.39613384 0.9090817 0.0024475392
0.027746312 0.026820028 0.014908401 -0.096057869 0.33113712 0.93868047 0.0045627896
0.047332194 0.024526294 0.014860824 0.21611835 -0.26568091 0.93952465 0.0019980341
0.049692653 0.025350388 0.014461538 0.2695449 -0.30329293 0.91397971 0.001106902
0.053014737 0.025184408 0.013308328 0.34792656 -0.37936088 0.85734034 0.00071899389
0.05607323 0.025888912 0.012379739 0.44779095 -0.43072867 0.78355348 0.0014901127
0.057377547 0.026725747 0.012103515 0.45100918 -0.40106156 0.79733324 0.0020697594
-0.021604529 0.029832991 0.014730734 0.21759099 0.57767731 0.78672934 0.00098907773
-0.019250089 0.029274151 0.014466728 0.21263331 0.55422294 0.80475086 0.0016455548
-0.016443806 0.02889687 0.013978783 0.20247778 0.59099704 0.78084904 0.0016513597
-0.013518744 0.028534392 0.013496302 0.1932022 0.60621095 0.77147985 0.0013450879
-0.010346623 0.02838302 0.012923169 0.1641138 0.68155086 0.71313047 0.0014331756
-0.0078908829 0.028100872 0.012648403 0.14383361 0.69684225 0.70265406 0.0013316717
-0.0046301526 0.027594216 0.01255231 0.10751635 0.67385161 0.73100221 0.0014704025
-0.0015606201 0.027423279 0.012305419 0.078595988 0.68594426 0.7233969 0.0014607711
0.0016390689 0.027259996 0.012169552 0.046405796 0.63938105 0.76748836 0.0015584305
0.0044161188 0.027171804 0.012130133 0.0055947173 0.64527398 0.7639308 0.0020363482
0.0077058678 0.027212597 0.012069447 -0.018373122 0.63521552 0.77211636 0.0015891434
0.010179363 0.027310152 0.012108522 -0.052071553 0.67861807 0.73264319 0.0014458513
0.01363308 0.027382765 0.012379585 -0.083816551 0.63133818 0.77096492 0.0018701755
0.01667176 0.027767725 0.012503601 -0.12327914 0.63289201 0.76436245 0.001948325
0.019643545 0.027963853 0.012885982 -0.14871244 0.59825194 0.78738755 0.0022404662
0.02257709 0.028466363 0.013096289 -0.161461 0.56607908 0.80838406 0.0024259496
0.025526257 0.028523959 0.013636265 -0.13570625 0.48063779 0.86635506 0.0016708807
0.028573755 0.028601579 0.014167212 -0.14063692 0.44263223 0.88560605 0.0028858569
0.031505741 0.028876698 0.014529909 -0.14925565 0.39880297 0.90480882 0.003587679
0.034176238 0.029407494 0.01471559 -0.14077282 0.3553758 0.92406225 0.0032780955
0.036883283 0.029835291 0.014917857 -0.12165889 0.31814185 0.94020468 0.0014994758
0.050593518 0.02741033 0.014830146 0.23090114 -0.20216404 0.95174277 0.0023122367
0.052885357 0.028347118 0.014397885 0.27653027 -0.1901806 0.94199914 0.0033997062
0.055548776 0.028222522 0.01342482 0.36488435 -0.28219444 0.8872574 0.0025145332
0.057825409 0.028669158 0.012682648 0.4587878 -0.35258979 0.81559438 0.0013706919
-0.027766429 0.032322336 0.014772148 0.2599104 0.61567253 0.74390459 0.00081837218
-0.02521375 0.032216918 0.013990459 0.25619659 0.62757844 0.73519295 0.0011771929
-0.022100504 0.031993259 0.013115285 0.25897107 0.69750434 0.66814798 0.0010428318
-0.019657899 0.031294808 0.012900986 0.24685642 0.68810636 0.68232799 0.0013085073
-0.016681893 0.0306405 0.012566298 0.22863197 0.7048164 0.67153651 0.00098066137
-0.014314976 0.030191407 0.012271178 0.19696264 0.7042349 0.68209898 0.00078868773
0.023993604 0.030162364 0.012136497 -0.20662853 0.63510239 0.74427795 0.0021001825
0.025902312 0.030540902 0.012317693 -0.19081125 0.61974931 0.76125026 0.0026302352
0.028488465 0.030937856 0.012647573 -0.2003943 0.6042726 0.77116585 0.0026106024
0.031662151 0.031481169 0.013064562 -0.20253259 0.55658406 0.80572617 0.0017654764
0.034400214 0.031556562 0.013649275 -0.17750186 0.48984534 0.85354823 0.0031936034
0.037259445 0.031587079 0.014255706 -0.15418006 0.41149551 0.89827609 0.0020986469
0.04017318 0.031926949 0.014629349 -0.16300556 0.35985288 0.91865945 0.0024453339
0.042835414 0.032375745 0.014871031 -0.13593861 0.31288755 0.94001174 0.001940052
0.053405665 0.031067885 0.014785741 0.21665268 -0.11211256 0.96978986 0.0026396646
0.055469301 0.031586692 0.014292738 0.26826373 -0.14482668 0.95239687 0.0022521385
0.058825262 0.031395264 0.0130246 0.40023708 -0.23926479 0.88462573 0.0015497353
0.060649049 0.032135211 0.012396378 0.49415845 -0.2825036 0.82219166 0.0012820864
-0.03635475 0.035862885 0.014884211 0.23750111 0.5564481 0.79621524 0.00074972148
-0.034088816 0.035659682 0.014400724 0.26601329 0.59105664 0.76150447 0.00086618931
-0.031255431 0.034878157 0.013978804 0.28666183 0.61420608 0.73523867 0.00090088736
-0.028554728 0.034591958 0.013159754 0.28883445 0.65729731 0.69608539 0.0014941257
-0.025636325 0.033858791 0.012696271 0.27867627 0.69424158 0.66360247 0.0012537388
-0.023199324 0.033179391 0.012385456 0.27356058 0.71858048 0.63937992 0.0010313755
0.035474833 0.03359526 0.012620494 -0.23165658 0.56705064 0.79043585 0.0025269499
0.037967756 0.034386747 0.012855534 -0.24066268 0.51994866 0.81959432 0.0029155384
0.04048036 0.034448996 0.013566446 -0.24078976 0.46137336 0.85390574 0.0027723282
0.043253474 0.034387074 0.014210249 -0.16132689 0.38813549 0.90737236 0.0021775856
0.046277009 0.034774005 0.014546184 -0.14061242 0.32776108 0.93423808 0.0018516545
0.049133904 0.035332188 0.014680138 -0.070388615 0.26407135 0.96193129 0.0026222118
0.053046361 0.034418605 0.014874629 0.11163311 0.059251737 0.99198151 0.00329902
0.055837635 0.034431305 0.014458843 0.23718828 -0.03037552 0.97098869 0.004462332
0.05898457 0.034555465 0.01356771 0.37311929 -0.12765624 0.91895914 0.002099843
0.06174371 0.034783483 0.012440213 0.48515138 -0.1745408 0.85683352 0.0015751132
-0.042763818 0.038681343 0.014864053 0.19213153 0.49728748 0.84604412 0.0020761667
-0.040114202 0.038398694 0.014321295 0.26804236 0.58922726 0.76221025 0.0013601184
-0.037571575 0.037962466 0.013804211 0.28054738 0.61781448 0.73457366 0.00087066693
-0.034599651 0.037548862 0.013000147 0.30334741 0.66150552 0.68585044 0.0014214729
-0.031757958 0.036545187 0.012721688 0.31235811 0.67610705 0.66731679 0.0010915598
-0.029722355 0.036077112 0.012306279 0.30114892 0.66023755 0.68803751 0.0014169194
0.040864959 0.036301862 0.01256342 -0.28143033 0.5661006 0.77480775 0.0032452759
0.043539695 0.037255481 0.012829326 -0.21085303 0.46170017 0.86161125 0.0021524455
0.046435297 0.037705079 0.013360837 -0.1925998 0.41168752 0.89074051 0.0015699798
0.049521536 0.037383761 0.014069484 -0.1118484 0.3286379 0.93780971 0.0019770041
0.052507535 0.037569229 0.01428413 -0.024451438 0.25526994 0.9665606 0.0035831546
0.055691734 0.036963921 0.014328455 0.16225764 0.088899493 0.98273557 0.0046838764
0.058558684 0.037475836 0.013794598 0.2801387 0.0088730948 0.9599185 0.0032971164
0.062205516 0.037752148 0.012588308 0.47145995 -0.10488673 0.87562799 0.0017446046
0.063350275 0.037933193 0.012022858 0.50247419 -0.10344984 0.85838091 0.0028044197
-0.057188015 0.040384874 0.014527679 -0.077929206 0.34051466 0.93700421 0.0010089059
-0.054878358 0.041291647 0.014715986 -0.017556349 0.37554938 0.9266361 0.0011806805
-0.052145306 0.041355401 0.014796384 0.072065584 0.43826064 0.89595431 0.0020614157
-0.049196701 0.041380297 0.014535819 0.12911259 0.48194954 0.86663413 0.0020338362
-0.04628383 0.040891655 0.014269651 0.17907438 0.5209769 0.834575 0.0012075159
-0.043240819 0.04108071 0.013290448 0.28234723 0.62787157 0.72529811 0.00090487156
-0.040653247 0.040297687 0.013024962 0.30322972 0.6487841 0.69794762 0.00082799274
-0.037754301 0.039572213 0.012494483 0.31348392 0.67668283 0.66620427 0.0011256363
-0.035497468 0.039007872 0.012071401 0.36828634 0.75309044 0.54517889 0.001222313
0.047282778 0.039621338 0.012567598 -0.21436927 0.47409132 0.85398084 0.0022731726
0.049649067 0.04004702 0.012918051 -0.1846727 0.44348016 0.87705266 0.0022703009
0.052443035 0.040600643 0.013166072 -0.16971661 0.42972693 0.88686585 0.0020117532
0.055672966 0.040286038 0.013581541 -0.015917862 0.30688971 0.95161194 0.0035301629
0.059053943 0.040396709 0.013378896 0.19895892 0.13094273 0.97122061 0.003266301
0.061788637 0.040387716 0.012717649 0.30462527 0.062875688 0.95039469 0.0031312897
0.063491665 0.040306829 0.012108691 0.49907339 -0.045256175 0.86537713 0.0019868826
-0.057853926 0.044410154 0.013323207 -0.00076801545 0.42934552 0.90314001 0.0015896161
-0.055104394 0.043754265 0.013765603 0.045625642 0.45486367 0.88939154 0.0012542929
-0.052301127 0.043596581 0.013690361 0.097746529 0.4870241 0.8679015 0.0013970664
-0.049308788 0.043891374 0.013019527 0.22498545 0.60314524 0.76524329 0.0011775581
-0.046756189 0.043096434 0.012898325 0.26677668 0.62962425 0.7296598 0.001082502
-0.043978844 0.042521138 0.012398193 0.30316922 0.66125643 0.68616921 0.0011568019
0.052902818 0.042522777 0.012330133 -0.17920025 0.47620946 0.86087847 0.0025675711
0.055644497 0.043117631 0.012510128 -0.094299994 0.41939139 0.90289444 0.003570229
0.058523647 0.043396547 0.012586878 0.01615897 0.33358094 0.94258296 0.004769071
0.061614126 0.043069299 0.012401841 0.26477602 0.16422734 0.95022261 0.0055521079
0.063376583 0.042641863 0.012016578 0.36926156 0.085275717 0.92540473 0.0033461733
-0.06046233 0.04533786 0.012550615 -0.0648522 0.44298092 0.89418238 0.00081901811
-0.058190759 0.046490625 0.012391241 0.022376094 0.50765073 0.86127234 0.0020090262
-0.055441421 0.0459737 0.012638141 0.097668946 0.52335024 0.84650189 0.0016761351
-0.05194008 0.045574117 0.012439892 0.20917799 0.61245275 0.76232952 0.0012820229
-0.050323348 0.045218363 0.01226595 0.21483365 0.60488957 0.76678222 0.0020484696
-0.017122805 0.01166213 0.015410016 -0.023503622 -0.35102525 0.93607098 0.00082858437
-0.013126025 0.011276754 0.015515163 -0.044157051 -0.43067703 0.90142518 0.0030858684
-0.010401959 0.011143869 0.015567551 -0.012081012 -0.44110104 0.89737612 0.0021848187
-0.0074994024 0.010678198 0.015366649 -0.003161523 -0.4543539 0.89081568 0.0013190261
-0.0044525475 0.010964375 0.015519169 0.011702241 -0.4415417 0.8971644 0.0017105537
-0.0016544992 0.010930528 0.015453711 0.025154093 -0.4323405 0.9013595 0.0020092777
0.0014493666 0.011057312 0.015400725 0.038282499 -0.41711974 0.90804493 0.0019810859
0.0048250463 0.011148466 0.015274771 0.047259986 -0.41589949 0.90818179 0.0021253859
0.0075754295 0.011325269 0.015195262 0.052431066 -0.40694994 0.91194445 0.0020475276
0.010591559 0.011511138 0.015083879 0.074673407 -0.42001304 0.9044407 0.002012508
0.012739592 0.011876115 0.015048173 0.07390216 -0.41958016 0.90470493 0.0015315341
-0.022412281 0.014905446 0.016657416 0.72976679 0.64732343 0.22002929 0.0064920899
-0.018886209 0.013085523 0.016014591 -0.057401083 -0.39170027 0.91830057 0.0029824614
-0.016373388 0.013728056 0.016557438 -0.051496629 -0.35899585 0.93191743 0.0032619315
-0.013461792 0.013728259 0.016665189 -0.028741254 -0.36325037 0.93124813 0.0029181135
-0.010416683 0.013555731 0.016611466 0.014650613 -0.33717304 0.9413287 0.0035714689
-0.0072830888 0.013227245 0.016454861 0.023037022 -0.30676669 0.9515059 0.0024671848
-0.0042637195 0.013256084 0.016378488 0.023062292 -0.34046817 0.93997318 0.0015376462
-0.0015148977 0.0132194 0.016256742 0.030365089 -0.33063892 0.94326866 0.0017889026
0.0014514315 0.01317821 0.016115861 0.040470928 -0.30658594 0.95098221 0.0012475969
0.0044051278 0.013497991 0.016051237 0.050168026 -0.29936534 0.95281869 0.0012450011
0.0074748877 0.013305117 0.015843946 0.05117052 -0.29654154 0.95364809 0.0010047418
0.01049736 0.013662422 0.015783308 0.051306102 -0.30649433 0.95048881 0.0012882912
0.013398783 0.013651265 0.015605998 0.068729922 -0.30660909 0.94935083 0.0012763785
0.016478017 0.013546528 0.015369367 0.064576283 -0.30204779 0.95110309 0.0010139359
