# .PCD v0.7 - Point Cloud Data file format
VERSION 0.7
FIELDS x y z normal_x normal_y normal_z curvature
SIZE 4 4 4 4 4 4 4
TYPE F F F F F F F
COUNT 1 1 1 1 1 1 1
WIDTH 670
HEIGHT 1
VIEWPOINT 0 0 0 1 0 0 0
POINTS 670
DATA ascii
-18.913359 11.836101 -1.3663874 0.029674621 0.0025832159 0.9995563 0
-18.880035 11.836587 -1.3663399 -0.025107715 0.087557077 0.99584305 0.037397664
-18.913099 11.839476 -1.3664958 -0.21580616 -0.39054021 0.89493358 0.064333573
-18.879852 11.839094 -1.3659198 -0.14699042 0.0084111206 0.98910218 0
-18.878513 11.840931 -1.3678229 -0.036421452 0.048567239 0.99815565 0
-18.91283 11.842483 -1.3665082 -0.21107551 -0.95867097 0.19077989 0
-18.911947 11.843578 -1.3651435 -0.0026167405 -0.087303229 -0.99617839 0
-18.879395 11.842001 -1.3658125 -0.027969142 0.018836206 0.99943131 0
-18.878508 11.84278 -1.3670433 -0.095495425 0.15466763 0.9833405 0
-18.912571 11.845542 -1.3666942 -0.31739566 -0.93163347 -0.17697205 0
-18.911777 11.845605 -1.3652756 0.08186397 -0.90823281 -0.41037968 0
-18.879076 11.845101 -1.3653256 0.093900412 0.084729947 0.99196953 0
-18.878361 11.844858 -1.3667357 -0.61616474 -0.41570243 0.66897869 0.015305909
-18.912405 11.848547 -1.3672094 -0.42073008 0.90714282 -0.008839108 0
-18.911686 11.848611 -1.3656409 0.26286331 0.96483248 0.0010727192 0
-18.87797 11.848341 -1.3661659 -0.21020351 -0.6977458 0.68481052 0
-18.912189 11.851137 -1.3674697 -0.13295825 0.63781917 0.75862294 0.020201726
-18.911444 11.851608 -1.3659929 0.35437235 0.93483561 -0.022418588 0
-18.877045 11.851651 -1.3664685 -0.20538774 -0.0092381183 0.9786371 0
-18.912027 11.853106 -1.3674959 0.065270387 0.0085772332 0.99783075 0
-18.911156 11.854525 -1.3663778 -0.0099171801 -0.12221117 0.99245459 0
-18.876606 11.854414 -1.3659222 -0.59671313 0.037256595 0.80158931 0
-18.875603 11.8554 -1.3672653 0.068523034 0.032763842 0.99711138 0
-18.910633 11.857529 -1.3665171 -0.18855 -0.084629044 0.97841036 0.045096315
-18.876442 11.856335 -1.3652904 -0.090485387 -0.083510168 0.99239022 0
-18.875423 11.85774 -1.3664558 -0.41424501 -0.75385374 0.51000541 0.08375372
-18.90999 11.860467 -1.3665478 -0.43034327 0.8872757 0.16597141 0
-18.87484 11.860228 -1.3661659 -0.16145019 -0.023426224 0.98660272 0
-18.909489 11.863241 -1.3668355 -0.35102347 -0.32399923 0.87852544 0
-18.90872 11.864137 -1.3656886 -0.085521117 -0.99542284 -0.042654783 0
-18.874016 11.863131 -1.3658597 -0.49818531 -0.035075471 0.86636084 0
-18.872593 11.864734 -1.3676101 -0.017586928 0.015129491 0.99973089 0
-18.909172 11.865596 -1.3674862 -0.060535125 0.60213321 0.7960974 0.012823792
-18.908352 11.866745 -1.3663551 0.016235119 -0.0562956 0.99828219 0
-18.873255 11.865612 -1.3656255 0.084512785 0.12941983 0.9879818 0.040420245
-18.872467 11.86692 -1.3663622 -0.064572848 0.066081427 0.99572265 0
-18.907639 11.869459 -1.366441 -0.12715697 0.99001443 -0.060848769 0
-18.871447 11.869575 -1.3666015 0.20138408 -0.7071799 0.67774707 0.0086773364
-18.906849 11.872399 -1.3665637 0.058249239 -0.90756762 0.41584602 0
-18.905739 11.873717 -1.3653138 0.47537291 -0.8769871 0.07010226 0
-18.870731 11.872337 -1.3658679 0.0038126397 -0.068677679 0.99763161 0.011534731
-18.869484 11.873631 -1.3673617 -0.088858306 -0.1239534 0.98830152 0
-18.906326 11.875076 -1.3671551 -0.22787286 -0.34105167 0.91200751 0.016605027
-18.90547 11.8758 -1.3659985 -0.63657326 0.7685402 0.064190716 0
-18.870251 11.874201 -1.3653157 0.20124777 -0.96302211 0.17913057 0
-18.869013 11.875586 -1.3667278 -0.017952394 0.13248447 0.99102247 0.016025467
-18.906017 11.877324 -1.3678371 0.014253645 0.089756027 0.99586183 0
-18.904739 11.878464 -1.3663228 -0.20431665 -0.66334146 0.71988398 0
-18.868277 11.878004 -1.3659778 -0.20941964 -0.78413284 0.58419096 0
-18.866955 11.879406 -1.3671788 -0.018230285 -0.029566351 0.99939656 0
-18.90379 11.881365 -1.366506 -0.56038475 -0.82821077 -0.0059921714 0
-18.90274 11.882549 -1.3653936 -0.98710477 0.14690393 0.063587524 0
-18.867352 11.881151 -1.3651072 -0.039803088 -0.080966912 0.99592179 0.015674997
-18.866417 11.881947 -1.3658836 -0.036260627 0.082441628 0.9959361 0.0070544421
-18.903252 11.884006 -1.3674215 0.49515277 0.86821139 -0.03213571 0
-18.902306 11.8848 -1.3661199 0.86215967 -0.49537009 -0.10624978 0
-18.865078 11.884483 -1.3658769 -0.063519776 0.05029013 0.99671268 0
-18.863749 11.885433 -1.3673528 -0.0076117031 0.00082734384 0.99997073 0
-18.9014 11.887487 -1.3664544 -0.98281163 0.1839302 0.015845977 0
-18.86421 11.886667 -1.3652546 -0.12035837 -0.028546533 0.99232 0
-18.863163 11.887918 -1.3659472 -0.055721998 0.012095556 0.99837303 0
-18.900522 11.89015 -1.3669193 0.1751091 0.76818728 -0.61581266 0
-18.899572 11.89101 -1.3657922 -0.31053612 0.92535484 -0.21745272 0
-18.861853 11.890184 -1.3659894 -0.032966744 0.036194373 0.99880087 0
-18.860657 11.891325 -1.3669708 -0.02077008 0.11033001 0.99367791 0
-18.900106 11.892133 -1.3676885 -0.049769793 0.032027695 0.99824709 0
-18.898796 11.893496 -1.3665395 -0.069801316 0.013626127 0.99746788 0
-18.859568 11.893669 -1.3663561 0.053217124 -0.13127843 0.98991609 0
-18.897654 11.896185 -1.3668272 -0.21205261 -0.63183969 0.74552822 0.033667374
-18.896641 11.897356 -1.3659201 -0.47415695 0.8791697 -0.047284499 0.029611135
-18.858364 11.895857 -1.3660123 0.20736523 -0.29100695 0.93397784 0
-18.857502 11.897182 -1.3660929 -0.081898779 0.059578408 0.99485826 0
-18.897079 11.898462 -1.3677626 0.21891117 0.29806757 0.92910373 0
-18.895813 11.899494 -1.366487 -0.15185241 0.08739163 0.98453218 0
-18.855997 11.899359 -1.36622 -0.023305191 0.03578743 0.99908769 0.02282414
-18.854485 11.900481 -1.3672457 -0.31710404 -0.92398125 -0.21378425 0
-18.894623 11.902018 -1.3668244 -0.38456663 -0.92049927 0.069206551 0
-18.893574 11.90312 -1.3659358 -0.22624426 -0.78901833 -0.57119489 0.0064624012
-18.855167 11.901627 -1.3652499 -0.17300983 -0.60505205 0.77716124 0
-18.853596 11.902621 -1.3665318 -0.5669893 -0.6671654 0.48312882 0
-18.851774 11.903991 -1.3677517 0.046157487 0.26842412 0.96219438 0
-18.892515 11.905405 -1.3664539 0.0050099189 -0.98733532 0.15856798 0.02525585
-18.852566 11.90497 -1.365624 -0.18764147 0.35671419 0.9151752 0
-18.85125 11.905892 -1.3666154 -0.12836888 0.048566062 0.99053657 0
-18.891428 11.907543 -1.3669065 0.15891747 -0.98465109 0.072163083 0
-18.890207 11.908846 -1.3661811 -0.53616929 0.51487517 0.66889924 0
-18.849953 11.9081 -1.3662124 0.14974478 0.23762231 0.95974588 0
-18.848452 11.909271 -1.3671179 0.17611231 0.095551781 0.97972155 0
-18.888861 11.91119 -1.3666453 -0.35252348 -0.67224324 0.65101165 0
-18.887529 11.912477 -1.3658268 0.0050649848 -0.10176247 0.99479586 0.048702665
-18.849466 11.910198 -1.3651819 0.017384447 0.23468259 0.97191662 0
-18.847471 11.911455 -1.3663414 -0.076002605 0.040210087 0.99629653 0
-18.84572 11.912729 -1.3673944 -0.015697626 0.042265531 0.99898314 0
-18.888107 11.913003 -1.3674318 -0.18430385 -0.69652212 0.69346166 0.079977326
-18.88628 11.914539 -1.3663771 -0.39438617 0.26912078 0.87865442 0
-18.884422 11.915888 -1.365079 -0.025608838 -0.056847673 0.99805439 0
-18.846508 11.913807 -1.365561 -0.046103656 0.089663118 0.99490452 0
-18.844793 11.914814 -1.3666906 -0.064846352 0.059857368 0.9960984 0
-18.885275 11.916361 -1.3671923 0.22211863 -0.96983695 0.10039674 0
-18.883625 11.91774 -1.3662784 -0.32347593 -0.68066096 0.65731567 0
-18.843784 11.917318 -1.3658874 0.056428399 0.095931187 0.99378723 0
-18.842192 11.917976 -1.3671136 -0.036663026 0.030243009 0.99886996 0
-18.882437 11.919642 -1.3671377 -0.73001462 -0.44343507 -0.52004242 0
-18.880888 11.920878 -1.3663721 -0.066900745 -0.96772873 0.24295144 0
-18.841324 11.920509 -1.366251 0.050865822 0.073382638 0.99600583 0
-18.839622 11.921036 -1.3675897 0.060132697 0.13389182 0.9891699 0
-18.879452 11.922729 -1.3670536 -0.035309304 -0.057307962 0.99773192 0
-18.877739 11.924082 -1.3664091 -0.40751344 -0.65578866 0.63551074 0.084368274
-18.840685 11.923353 -1.365466 -0.87752593 -0.47299197 0.078910597 0
-18.838799 11.923497 -1.3669653 -0.056897298 -0.048612278 0.99719584 0
-18.876461 11.925611 -1.3670607 -0.39325842 -0.45995221 0.79611039 0
-18.874817 11.926807 -1.3664986 -0.027186994 0.53841662 0.8422401 0
-18.872957 11.927791 -1.365169 0.046271544 0.14262187 0.98869509 0
-18.840549 11.926756 -1.3655701 -0.02091646 0.066828884 0.99754524 0
-18.838554 11.926107 -1.3667253 0.31747502 -0.81780308 0.48000795 0.015413641
-18.836849 11.926481 -1.3679658 -0.074973948 -0.053285521 0.9957608 0
-18.873436 11.928452 -1.3676612 -0.12071422 -0.98896378 -0.085899651 0
-18.871597 11.92926 -1.3663828 -0.074877292 0.036090054 0.99653947 0
-18.868906 11.930841 -1.3656983 -0.99068153 0.12805465 -0.046391793 0
-18.843033 11.929906 -1.3650402 0.11522887 0.10873758 0.98736948 0.0072997427
-18.841585 11.93004 -1.3655856 0.15830612 0.34575361 0.9248749 0
-18.83868 11.928919 -1.3670319 0.14237989 0.022814073 0.9895491 0
-18.868973 11.931475 -1.3672791 -0.049080893 0.024521656 0.99849373 0
-18.866241 11.932914 -1.3666983 -0.93446565 -0.23181985 0.27024728 0
-18.844038 11.932993 -1.3653246 0.038807087 0.14438808 0.98875993 0
-18.842274 11.932392 -1.3658218 0.053810168 0.02404541 0.99826163 0
-18.839283 11.93224 -1.36763 -0.3328366 -0.27980772 0.90051514 0
-18.864243 11.934349 -1.3672197 0.071658663 0.075471818 0.99456978 0
-18.862398 11.934906 -1.3663434 -0.036156781 -0.15027744 0.98798251 0
-18.859674 11.936025 -1.366268 -0.056448895 -0.079927005 0.99520111 0
-18.856613 11.936717 -1.3656299 0.12400023 0.20665421 0.97052461 0
-18.854673 11.93691 -1.3650631 0.0036579962 0.18549207 0.98263896 0
-18.847244 11.936209 -1.3653576 0.12950176 0.44333482 0.88695186 0.001406821
-18.844397 11.935401 -1.3660258 0.046183094 0.04596347 0.99787498 0.0056124316
-18.841864 11.93539 -1.3672189 -0.25869584 -0.22079338 0.94038653 0
-18.839638 11.934057 -1.3679836 -0.82604122 -0.4285706 -0.3660371 0
-18.858337 11.937084 -1.3676128 0.049577042 -0.0031741604 0.99876529 0
-18.856157 11.937574 -1.3671054 -0.089574754 -0.035105988 0.99536121 0
-18.853441 11.938075 -1.3666711 0.058710925 0.14908293 0.98708022 0
-18.850454 11.938059 -1.3660394 -0.012172273 -0.061370444 0.99804085 0
-18.847477 11.938125 -1.3664285 0.09331464 0.19386114 0.97658092 0
-18.844719 11.937799 -1.3671135 -0.035290956 -0.11343042 0.99291903 0
-18.897675 11.783609 -1.364818 0.030364588 -0.0064703091 0.99951798 0.0015779941
-18.894922 11.783383 -1.3647138 -0.67133176 0.41806602 0.61199218 0
-18.892925 11.783089 -1.3646113 0.044983383 -0.49756822 0.86625767 0.00052298611
-18.890404 11.783301 -1.3647269 0.021891139 -0.077431753 0.99675733 0.0032723309
-18.900383 11.78655 -1.3648099 0.073845878 0.30412719 0.94976485 0
-18.898367 11.785771 -1.3645487 -0.047874067 -0.021296674 0.99862629 0.0031375375
-18.895527 11.785397 -1.3641673 -0.098455496 -0.028715389 0.99472708 0
-18.892786 11.785487 -1.3638319 -0.13654704 -0.15894662 0.977799 0
-18.889713 11.785566 -1.3642707 -0.07465557 -0.047971215 0.99605489 0
-18.887962 11.786287 -1.3647772 0.012656966 0.18794748 0.98209751 0.019918583
-18.903437 11.789599 -1.3648502 -0.093733683 -0.1114527 0.98933929 0
-18.901384 11.788632 -1.3644611 -0.058617506 -0.1402719 0.98837638 0.0049050432
-18.898581 11.788448 -1.3637938 -0.12368333 0.15536997 0.98008287 0
-18.895567 11.788495 -1.3633018 -0.10430336 -0.027795153 0.99415702 0.0037373707
-18.892849 11.788537 -1.3630441 0.026428334 0.071924902 0.99705982 0.00042735061
-18.889616 11.788578 -1.3635859 -0.19927493 0.16464289 0.96601355 0.013049011
-18.887579 11.788549 -1.3647147 -0.26659387 -0.23883204 0.9337489 0.0074090259
-18.904163 11.791686 -1.3645029 -0.17110896 -0.23228568 0.95747846 0
-18.901537 11.791387 -1.3637167 -0.006224799 0.15313464 0.98818576 0
-18.898666 11.791577 -1.3630215 0.23215868 -0.38169131 0.89465863 0
-18.895517 11.791442 -1.3626083 -0.076646335 -0.00758634 0.99702948 0.0026814367
-18.892815 11.791618 -1.3623832 -0.15838762 -0.36978823 0.91551626 0.00044678175
-18.889416 11.791414 -1.3631642 0.32052097 -0.13438991 0.93765962 0.0023109955
-18.88707 11.791599 -1.3645097 -0.19676098 -0.90380031 0.38003945 0
-18.906546 11.795091 -1.3647283 -0.12144507 -0.18279381 0.97562152 0
-18.904625 11.794472 -1.3640155 -0.093911164 0.027084984 0.99521208 0
-18.90155 11.794429 -1.3630447 -0.07596121 -0.49209857 0.86721903 0.00019412873
-18.898684 11.794454 -1.3624334 -0.24484257 -0.034694899 0.96894187 0
-18.896214 11.7935 -1.3622841 -0.053542782 -0.14403686 0.98812276 0
-18.891603 11.793404 -1.3621044 -0.061644297 -0.1588818 0.98537129 0.0041452274
-18.889353 11.794433 -1.3627294 -0.17445405 -0.042437661 0.9837504 0
-18.886814 11.794538 -1.3642837 0.55021405 0.11027016 0.82771063 0.01200073
-18.907084 11.797641 -1.3644242 -0.79872841 -0.37230846 -0.47267249 0
-18.904514 11.79758 -1.3633318 0.21836583 -0.12693211 0.96757674 0.0042265891
-18.901606 11.797416 -1.3625275 -0.1748099 -0.97809154 0.1130415 0
-18.898775 11.797287 -1.3621128 -0.37497294 -0.12441656 0.9186489 0
-18.896641 11.796274 -1.3620009 0.015603272 -0.30983776 -0.95066142 0
-18.889034 11.797393 -1.3625238 -0.66728234 0.002575964 0.74480045 0
-18.886719 11.797503 -1.3640366 -0.080952957 -0.012578323 0.99663854 0
-18.909323 11.801589 -1.3648276 -0.13115922 -0.032608617 0.99082482 0
-18.907591 11.800537 -1.3639745 -0.059767649 0.041329499 0.9973563 0.0022643269
-18.90457 11.800536 -1.3627406 -0.36025009 -0.52418244 0.77165586 0
-18.902033 11.800075 -1.3621707 -0.3022373 -0.54184198 0.78425747 0
-18.899755 11.799342 -1.36206 -0.96481574 -0.25774702 -0.051934134 0
-18.888767 11.800236 -1.3623707 -0.13363831 0.14723933 0.98003125 0
-18.886627 11.800531 -1.3638048 0.030884791 0.03880142 0.99876952 0
-18.909546 11.803696 -1.3644227 0.5361917 -0.51515979 -0.66866201 0
-18.907578 11.803441 -1.3632051 0.022344027 0.056261562 0.99816602 0
-18.904902 11.803073 -1.3622881 -0.16077039 -0.1133189 0.98046505 0
-18.902716 11.802414 -1.3621143 -0.067146398 -0.018546632 -0.99757075 0
-18.888325 11.803162 -1.3622875 0.031819999 0.11491099 0.99286598 0.0065241652
-18.886459 11.803503 -1.3636098 -0.20763919 -0.67879283 0.70436233 0
-18.884743 11.803391 -1.3647898 -0.13730083 -0.24388023 0.96003699 0
-18.90991 11.806594 -1.364128 -0.03946064 0.052710839 0.99782991 0.0067848079
-18.907736 11.806411 -1.3626903 -0.029859249 -0.0094132358 0.99950981 0
-18.905479 11.805496 -1.3621234 -0.37226796 0.066487469 0.92574084 0
-18.888237 11.806322 -1.3621871 0.41035557 0.84766376 0.33626553 0
-18.886589 11.806465 -1.3631859 0.08859387 0.15942571 0.98322654 0
-18.884708 11.806689 -1.3646792 -0.03263564 0.16958211 0.98497558 0
-18.910202 11.809583 -1.3637557 -0.1328361 -0.1772545 0.97515917 0.015867202
-18.90818 11.809322 -1.3623899 -0.37013575 -0.31242213 0.87486684 0
-18.88628 11.809479 -1.3630686 0.13778798 0.19362248 0.9713521 0.036808837
-18.884434 11.8097 -1.3645749 0.080992185 -0.21166377 0.97398084 0
-18.910551 11.812497 -1.3635254 -0.053782865 -0.091074146 0.99439067 0.011384274
-18.908535 11.812158 -1.3622332 -0.070038497 -0.025857626 0.99720913 0.0048548216
-18.886095 11.812442 -1.3628616 0.037005112 0.10695796 0.99357468 0.010407513
-18.884296 11.812567 -1.3644227 0.074084118 0.23181777 0.96993405 0.012617815
-18.912148 11.816235 -1.3646188 -0.13127626 -0.39026695 0.91129482 0
-18.910814 11.815384 -1.3632541 -0.094245501 -0.016298624 0.99541563 0
-18.908857 11.814387 -1.362162 -0.74215364 -0.33114928 0.58270764 0
-18.885904 11.815332 -1.3626716 -0.17262228 0.0069725146 0.98496336 0
-18.884079 11.815731 -1.3642616 -0.16755633 0.62273407 0.76428211 0
-18.912233 11.818517 -1.3645741 -0.78987026 -0.36448866 0.49320677 0
-18.91102 11.818389 -1.36297 0.066574693 0.067998804 0.9954617 0
-18.885738 11.818193 -1.362464 -0.02963916 -0.043730669 0.99860358 0
-18.884228 11.818512 -1.3638109 0.0035221153 -0.065267295 0.99786162 0
-18.912359 11.821742 -1.3643479 -0.20755956 -0.58374727 0.78495741 0.019809656
-18.91123 11.821358 -1.3628999 0.12811856 0.059613142 0.98996562 0
-18.885624 11.821163 -1.3622029 -0.025469285 -0.031382293 0.99918288 0.016050654
-18.884029 11.821527 -1.3636651 -0.067657292 -0.101505 0.99253172 0
-18.912416 11.824504 -1.3642036 -0.033916757 -0.10947241 0.993411 0.00066391053
-18.911293 11.824794 -1.3626398 -0.42231488 -0.2150481 0.88057053 0.01129032
-18.885105 11.824595 -1.362457 -0.31576934 -0.054518554 0.94726843 0
-18.883682 11.824532 -1.363651 0.086122237 0.050082471 0.99502498 0.016358918
-18.912491 11.827577 -1.3641666 0.033900499 -0.42785338 0.90321219 0.014605614
-18.911442 11.827725 -1.362619 -0.054501176 -0.20310195 0.97763962 0
-18.885235 11.826613 -1.3621206 -0.017058086 0.19361947 0.98092842 0.021200251
-18.88339 11.827614 -1.3635483 -0.23685662 0.092663184 0.96711552 0
-18.912519 11.830773 -1.3642892 -0.60987502 -0.61407548 0.50096279 0
-18.911516 11.830491 -1.3627282 0.19156575 -0.020309569 0.98126966 0
-18.883369 11.830515 -1.3631737 0.088676155 0.29295307 0.9520058 0
-18.881796 11.830116 -1.3648161 -0.35230786 -0.92959744 -0.10829511 0.029900068
-18.912249 11.833114 -1.3640174 -0.19275364 -0.27742717 0.94121206 0
-18.911476 11.833733 -1.3628588 -0.45766684 -0.65398335 0.60236764 0
-18.88312 11.833433 -1.3629527 -0.061025035 -0.028238196 0.99773675 0
-18.881699 11.83316 -1.3645679 0.015928891 0.15707619 0.98745805 0
-18.912395 11.836162 -1.3645226 -0.021154094 0.048575617 0.99859548 0.011893913
-18.911459 11.836553 -1.3630468 -0.15700702 -0.43180484 0.88819671 0.0021952349
-18.88274 11.836142 -1.362829 0.011320232 -0.084916577 0.99632376 0.0092839301
-18.881279 11.836649 -1.3643947 0.07077384 -0.010767479 0.99743426 0.015421052
-18.912201 11.839386 -1.3646545 -0.11214926 0.99369001 -0.0016908968 0
-18.911299 11.839654 -1.3630508 -0.0041143727 -0.23094626 0.97295779 0
-18.882603 11.839073 -1.3623478 -0.020856295 -0.20648864 0.97822666 0
-18.881187 11.839596 -1.3638701 -0.16714127 -0.71773493 0.67595887 0
-18.912249 11.842004 -1.3649141 0.041052368 -0.88387591 0.46591645 0.011380468
-18.91099 11.842896 -1.3630123 -0.16488357 -0.25279674 0.95336634 0
-18.882154 11.842441 -1.3622119 -0.81681889 -0.10358709 0.567518 0
-18.880871 11.842571 -1.3635318 0.015495819 -0.039421648 0.99910247 0
-18.910854 11.845453 -1.3634439 -0.30471927 -0.95209074 -0.025872713 0
-18.880386 11.845495 -1.3634145 -0.025330318 -1.7400038e-05 0.99967909 0
-18.910442 11.848267 -1.3631543 -0.32917792 -0.33698893 0.8820886 0
-18.879971 11.848324 -1.3631513 0.35911557 0.41655251 0.83517671 0
-18.878609 11.84934 -1.3646835 -0.013709344 0.12676047 0.99183863 0
-18.910048 11.851468 -1.363464 -0.010069899 0.056446642 0.99835485 0
-18.908886 11.852807 -1.3622625 -0.20457798 -0.38163513 0.90138918 0
-18.879469 11.851505 -1.3627857 -0.066755101 -0.4075197 0.91075325 0
-18.878284 11.851638 -1.3643756 -0.094658054 -0.20390557 0.97440356 0
-18.909729 11.854449 -1.3637512 -0.60934025 -0.71360868 0.34564021 0
-18.908714 11.855032 -1.3624289 -0.050933264 0.020325333 0.99849522 0.01435515
-18.879066 11.854692 -1.3622411 0.036779437 0.052649349 0.99793547 0
-18.878 11.854538 -1.3637115 -0.093012139 0.3109715 0.94585699 0
-18.909504 11.857433 -1.3643167 0.02387007 -0.99121827 0.13006401 0
-18.908386 11.857676 -1.3627765 -0.91900712 -0.3911213 -0.049497157 0
-18.877365 11.857494 -1.3633969 -0.0061492724 0.10519853 0.99443221 0
-18.909229 11.859657 -1.3646884 -0.99607658 -0.046705991 0.075166367 0
-18.908075 11.860584 -1.3632884 -0.92045277 -0.19980742 -0.33592191 0
-18.876766 11.860413 -1.3629806 -0.40000218 -0.5794332 0.71010947 0
-18.875595 11.860986 -1.3643923 0.071714506 0.18337393 0.98042393 0.029107146
-18.907511 11.863467 -1.3635037 -0.27926439 0.95781362 -0.067856617 0
-18.876255 11.863172 -1.362433 -0.04147784 0.21352531 0.97605664 0.052882064
-18.875095 11.863766 -1.3637266 -0.055501394 0.20906352 0.97632581 0
-18.906937 11.866348 -1.3637736 -0.072714463 -0.0084898742 0.99731672 0
-18.905762 11.867093 -1.3624316 -0.91736686 0.21412316 -0.33554325 0.0062047192
-18.874336 11.866598 -1.3634009 0.21925978 -0.1185574 0.96843654 0.043366924
-18.906471 11.869211 -1.364259 -0.99626899 -0.082468145 -0.025439911 0
-18.905413 11.869604 -1.3629167 -0.23923509 -0.29275909 0.92577457 0.014784656
-18.873688 11.869219 -1.3629714 0.02206254 0.071949504 0.99716419 0
-18.872532 11.869888 -1.3643234 -0.00029339315 -0.57178921 0.82040042 0
-18.906181 11.871219 -1.3647052 0.050126668 -0.55701923 0.82898545 0
-18.904896 11.87253 -1.3634363 -0.47566438 0.70178831 -0.53031749 0
-18.873268 11.871433 -1.3623866 -0.28268585 -0.1101125 0.95287144 0
-18.871986 11.8726 -1.3635751 -0.038463768 0.01153903 0.99919337 0
-18.904041 11.87545 -1.3635664 -0.060773958 0.039203405 0.99738133 0
-18.902668 11.87663 -1.3623798 -0.52337301 -0.26813239 0.80881757 0.041633755
-18.87105 11.875406 -1.363266 -0.23447694 -0.60101092 0.7640723 0
-18.869709 11.876305 -1.3647361 -0.087988712 -0.042130236 0.99523008 0
-18.903526 11.878206 -1.3641398 -0.24832222 0.44589964 0.85994744 0
-18.902443 11.878649 -1.3627832 -0.0045767883 0.0023751694 0.99998677 0
-18.87035 11.87808 -1.3626091 -0.38834131 -0.82882607 0.40278849 0.033077877
-18.869011 11.879002 -1.3639061 0.21086791 0.49394819 0.84353417 0.0061979545
-18.903252 11.880069 -1.3645551 0.36222491 0.85070521 0.38091186 0
-18.901833 11.881559 -1.3634222 -0.080614761 0.11561008 0.99001795 0
-18.868275 11.881532 -1.3631816 0.086552069 0.27579689 0.95731121 0.0076563857
-18.866905 11.882327 -1.3643665 -0.083016865 0.085729666 0.99285382 0
-18.900898 11.884446 -1.3635827 -0.84843051 0.39236116 0.35527229 0
-18.899593 11.885475 -1.3622577 0.76323372 0.64332408 -0.060069557 0
-18.867641 11.883791 -1.3624957 -0.15534104 -0.027578581 0.98747587 0
-18.866276 11.884747 -1.363694 -0.043247998 -0.1547953 0.98699945 0.010626053
-18.900393 11.886935 -1.3642346 -0.50441223 -0.85752171 0.10111719 0
-18.899279 11.887609 -1.3629923 -0.24306488 -0.029490948 0.96956164 0
-18.865215 11.887381 -1.3631791 0.047630955 -0.20719786 0.97713882 0.022867093
-18.863693 11.888248 -1.3644511 0.084582604 0.18511885 0.97906935 0
-18.898392 11.890495 -1.3635056 -0.10455561 -0.9938696 -0.035933655 0
-18.896872 11.891445 -1.3620595 -0.040112279 -0.17557804 -0.983648 0
-18.864403 11.889695 -1.362514 0.20567195 0.08994396 0.9744789 0.022853753
-18.862976 11.890772 -1.3636384 -0.49431279 -0.38032684 0.78166902 0
-18.897556 11.893202 -1.3640742 -0.82368147 -0.54383194 -0.16061033 0.016246701
-18.896461 11.893843 -1.3628278 -0.1404137 -0.03277991 0.98955011 0
-18.861929 11.893188 -1.3631203 -0.22026029 -0.11901134 0.96815372 0.014794467
-18.860519 11.894133 -1.3642817 0.00046255952 0.11432081 0.99344373 0
-18.897026 11.895297 -1.3647356 -0.84597129 0.5327251 0.023165619 0
-18.895618 11.896555 -1.3635045 -0.13892552 0.98703891 -0.080336399 0
-18.861286 11.895226 -1.3623844 -0.206799 -0.89844513 0.3873378 0
-18.859631 11.896594 -1.3634934 -0.091506474 -0.53306717 0.84110999 0
-18.857784 11.897533 -1.3649524 -0.07729087 -0.043044899 0.99607897 0
-18.894672 11.899084 -1.3640156 -0.75067455 0.65700662 0.069497705 0
-18.893457 11.899951 -1.3628657 0.048762519 -0.77287173 0.63268596 0
-18.858688 11.899065 -1.3627813 -0.010082271 -0.83400834 0.55165988 0.019369302
-18.857189 11.899943 -1.3639256 -0.21268581 0.15944043 0.9640246 0
-18.894024 11.901137 -1.3644933 -0.028092721 0.10482099 0.99409425 0.041598942
-18.892509 11.902482 -1.3634889 -0.98558444 -0.16913837 -0.0039339331 0.010632478
-18.856285 11.902363 -1.363167 -0.43072239 -0.4644832 0.77377874 0
-18.854515 11.903147 -1.3646759 -0.11843082 0.0086409803 0.99292469 0
-18.891552 11.904919 -1.3641882 -0.081724897 -0.033393323 0.99609536 0
-18.89024 11.905848 -1.363088 -0.06901399 0.85163468 -0.51957232 0.0062877829
-18.855433 11.90465 -1.3624952 -0.0076931221 0.027751081 0.99958527 0
-18.853828 11.905636 -1.3635314 0.17640707 0.17357275 0.96889263 0
-18.851673 11.906984 -1.3647454 -0.18298379 0.19493495 0.96359605 0
-18.888966 11.908342 -1.3635625 -0.0088934219 0.049518563 0.99873364 0
-18.887535 11.909428 -1.3625467 -0.072651118 0.78790444 -0.61149675 0
-18.85276 11.908302 -1.3628296 -0.039749525 -0.12601116 0.99123216 0.0088110724
-18.851101 11.908962 -1.3641191 -0.030115224 0.14646317 0.98875761 0
-18.888176 11.910222 -1.3641961 -0.095012501 -0.046903826 0.99437046 0
-18.88665 11.911558 -1.363338 -0.3493337 -0.700095 0.62276232 0
-18.852116 11.910692 -1.3622475 -0.023720281 0.0018063672 0.999717 0
-18.850361 11.911406 -1.3632363 0.027245568 0.077949241 0.99658495 0.012559508
-18.848654 11.911888 -1.3645843 -0.80679792 -0.41174361 0.42372674 0
-18.885536 11.913647 -1.3638828 -0.99537879 0.076154321 0.058494009 0
-18.884056 11.914832 -1.363081 -0.053006615 -0.20593293 0.97712946 0
-18.849632 11.91382 -1.3624773 -0.059301883 0.057840388 0.99656296 0
-18.847769 11.914642 -1.3637204 -0.7231155 -0.67180884 -0.16055144 0
-18.845379 11.915961 -1.3649436 -0.037005685 -0.36128324 -0.93172151 0
-18.882893 11.916796 -1.3637013 -0.0044975518 0.13434821 0.990924 0
-18.881388 11.918108 -1.3631165 -0.34665114 -0.56868416 -0.74594325 0
-18.849005 11.916337 -1.3620359 0.080268651 0.21579747 0.97313327 0.016043633
-18.847076 11.917316 -1.3629373 -0.0084941965 0.048803139 0.99877232 0
-18.845213 11.917823 -1.3642111 -0.047541048 0.092394769 0.99458688 0
-18.880169 11.920097 -1.3639648 -0.23192413 0.4552989 0.85960108 0
-18.878361 11.921204 -1.3629718 -0.33322188 -0.88723087 -0.31903696 0
-18.846716 11.920462 -1.3623381 0.010163137 -0.070724644 0.99744409 0
-18.844452 11.920403 -1.3637171 -0.027384704 -0.0055927117 0.99960929 0
-18.842466 11.921227 -1.3648186 -0.0044453521 0.10608459 0.99434716 0
-18.877172 11.923115 -1.3639297 -0.88892215 0.42742842 -0.16468877 0.019902516
-18.875305 11.924129 -1.3628508 0.028919568 -0.13363859 0.99060804 0
-18.847136 11.923288 -1.3623222 -0.35828546 -0.32692501 0.87450075 0
-18.844662 11.923395 -1.3633161 0.025352648 -0.084934026 0.99606395 0.00083163515
-18.842133 11.923439 -1.3645279 0.19683293 0.042102586 0.9795326 0
-18.874222 11.925794 -1.3638594 -0.093862057 -0.12990233 0.98707414 0
-18.872002 11.927115 -1.3631766 -0.21776289 -0.00022243444 0.97600168 0.02453376
-18.849625 11.926825 -1.3620869 0.053214442 -0.10495315 0.99305248 0
-18.847321 11.9264 -1.3625817 -0.055627257 0.061986141 0.99652565 0.0024142163
-18.84436 11.92605 -1.3636773 0.013578854 0.1097935 0.99386162 0
-18.842228 11.926592 -1.3646975 0.018353295 0.1347174 0.99071407 0
-18.871063 11.928429 -1.3640316 -0.13266802 -0.22709444 0.96479398 0
-18.86875 11.929776 -1.3636667 -0.3318035 -0.87449437 0.35378814 0.015315211
-18.86635 11.930532 -1.362445 0.30994838 0.2990298 0.90250385 0
-18.852392 11.930573 -1.3621111 -0.17320547 0.27380466 0.94606072 0
-18.849735 11.929632 -1.3623862 -0.20576121 -0.079791896 0.97534382 0
-18.847343 11.929201 -1.3630455 0.13331331 0.13108413 0.9823668 0.017917881
-18.844521 11.929127 -1.3640954 0.0041929274 -0.022022817 0.99974865 0
-18.8424 11.928162 -1.3649981 0.16829373 -0.12385789 0.97792459 0
-18.867218 11.931492 -1.3646762 -0.82068092 -0.41619942 0.39148545 0
-18.86525 11.931888 -1.3635067 -0.65514815 0.74092138 0.14770433 0
-18.862654 11.932736 -1.3630309 -0.41057506 -0.90855575 -0.077166036 0
-18.859566 11.933063 -1.3623712 -0.32391572 -0.39498511 0.85968912 0
-18.856428 11.93312 -1.3623381 -0.12491424 0.032314893 0.99164116 0
-18.853432 11.932579 -1.3625352 0.14473289 0.22454154 0.96365631 0
-18.850529 11.932528 -1.3631117 -0.44773078 0.065555751 0.89176208 0
-18.84754 11.932487 -1.3639199 0.22008535 -0.42540401 0.8778348 0
-18.84515 11.932283 -1.3647028 0.42098889 -0.25727692 0.8698144 0
-18.861654 11.934176 -1.3642694 0.065961689 0.26360652 0.96237242 0.036981642
-18.859324 11.934612 -1.3637807 -0.61754125 -0.76401162 -0.18689328 0
-18.856461 11.935131 -1.3636158 0.17940046 -0.11857691 0.97660381 0
-18.853514 11.935488 -1.363851 -0.087443627 0.017901519 0.99600869 0
-18.850378 11.935431 -1.3642397 -0.019591048 0.12882739 0.9914735 0
-18.847731 11.934759 -1.3645903 -0.075291067 0.056197613 0.9955768 0
-18.852194 11.937023 -1.3648638 -0.036620013 0.002304445 0.99932659 0
-18.851498 11.937081 -1.364977 0.014538341 -0.024121741 0.99960333 0
-18.894726 11.792762 -1.3619637 -0.14761387 0.22380747 0.96339005 0
-18.892748 11.792621 -1.3619041 -0.2167923 -0.48008928 -0.85000902 0
-18.897608 11.795144 -1.3618145 -0.058758613 0.13334391 0.98932648 0
-18.895332 11.795213 -1.3618406 -0.045400891 -0.075486399 0.9961127 0.0019291629
-18.892952 11.794937 -1.3617773 -0.15603511 -0.14725952 0.97671276 0
-18.890579 11.79454 -1.3619068 -0.013985858 -0.0044783507 0.99989218 0
-18.900576 11.798376 -1.3618342 0.081298731 0.15997581 0.98376745 0
-18.898266 11.797713 -1.3616767 -0.0074355174 0.031065229 0.99948972 0
-18.895201 11.797939 -1.361344 -0.3270869 0.18271148 0.92716271 0
-18.892862 11.797811 -1.3612798 -0.20120101 -0.10847468 0.97352529 0
-18.890451 11.797765 -1.3616955 0.17953385 0.20022774 0.96315962 0
-18.903614 11.801702 -1.3619034 -0.062599808 0.017044503 0.99789321 0
-18.901176 11.800751 -1.3617214 -0.26117313 -0.60173595 0.75478637 0
-18.898413 11.800794 -1.3613391 0.044995472 0.11395169 0.99246693 0
-18.895712 11.800224 -1.3610491 -0.15917194 -0.14073625 0.9771682 0
-18.892464 11.800619 -1.3607717 0.13127412 0.16159683 0.97808671 0
-18.8901 11.800632 -1.3614959 -0.026235949 -0.13790181 0.99009836 0.0046834657
-18.906063 11.804571 -1.3619846 0.50570369 -0.15260804 0.84910226 0
-18.903957 11.803825 -1.3617594 0.11653596 -0.13007073 0.98463243 0
-18.901508 11.803596 -1.3613747 -0.049202643 -0.072671004 0.99614161 0
-18.898514 11.803435 -1.3608851 -0.2045299 -0.74476761 0.63520771 0
-18.895529 11.80336 -1.3605351 -0.056162924 0.067539364 0.99613458 0.00055655831
-18.892502 11.8036 -1.3603966 -7.6361677e-05 0.16538523 0.98622906 0.0049711601
-18.88974 11.803667 -1.3613756 -0.055857785 -0.26750943 0.9619348 0
-18.906368 11.806981 -1.3618648 0.14159223 -0.08496391 0.98627222 0
-18.904299 11.806581 -1.3614672 0.24957661 0.31685302 0.91504955 0.0021076356
-18.901472 11.80648 -1.3608689 -0.14771509 0.51740831 0.84289318 0
-18.8986 11.806344 -1.360425 0.27802569 -0.60122949 -0.74914926 0
-18.895536 11.806735 -1.3600637 -0.13735557 -0.40392357 0.9044221 0
-18.892536 11.80644 -1.3600907 -0.058455497 0.011776142 0.99822056 0
-18.889645 11.806595 -1.361124 0.23047161 0.16653499 0.95872259 0
-18.906664 11.809918 -1.3616037 -0.1879434 -0.11924958 0.97491384 0.0012011178
-18.904531 11.809484 -1.3610263 0.40179467 -0.70074654 -0.58950424 0.0023835716
-18.901529 11.809422 -1.360412 -0.38436699 -0.51487744 0.76626575 0
-18.898554 11.809375 -1.3599739 0.068846241 -0.021155724 0.99740291 0.00081468333
-18.89558 11.809364 -1.3595977 -0.072120227 -0.12721044 0.9892503 0
-18.892651 11.80937 -1.3597145 -0.037243936 0.0037038559 0.99929935 0.0006884234
-18.889641 11.8095 -1.3607928 0.13060942 -0.28092334 0.95080137 0.00048736605
-18.887751 11.809525 -1.3617849 -0.15385529 -0.15427868 0.97597474 0
-18.909189 11.813267 -1.3618923 0.00040230065 0.050757185 0.99871093 0
-18.907288 11.81255 -1.3614316 -0.41184106 -0.71571684 0.56403577 0
-18.904652 11.81252 -1.3605428 0.049899641 -0.1705848 0.98407865 0
-18.901711 11.812203 -1.3599983 -0.27795726 -0.34532082 0.8963778 0
-18.898613 11.812673 -1.3595108 -0.15050085 -0.38638565 0.90997571 0
-18.8957 11.812046 -1.3593765 0.34098658 -0.39429647 -0.85338056 0
-18.892433 11.812363 -1.359372 0.014233461 0.16051081 0.98693144 0.0058853775
-18.889656 11.812489 -1.3604256 -0.066417113 -0.00066683459 0.99779177 0
-18.88763 11.812424 -1.3616974 -0.23868176 -0.31845453 0.91739726 0
-18.909378 11.815728 -1.3618095 -0.012566756 0.20521204 0.97863686 0
-18.907372 11.815425 -1.3610474 -0.23058349 -0.060049266 0.97119796 0
-18.90449 11.815533 -1.3600382 -0.087920181 -0.080210239 0.99289292 0
-18.901537 11.815293 -1.3595058 -0.012797341 -0.057637151 0.99825561 0.0013772938
-18.898804 11.815267 -1.3591439 -0.074472122 -0.037988663 0.9964993 3.7064277e-05
-18.895691 11.814602 -1.3590839 -0.27593723 -0.61532938 0.73839581 0
-18.891689 11.814991 -1.3591914 0.0088419979 -0.067059748 0.99770975 0.0065553994
-18.88942 11.815567 -1.360131 -0.029044835 -0.010497732 0.99952298 0.006012762
-18.887417 11.815411 -1.3614877 -0.12271242 -0.018371556 0.9922722 0.014674067
-18.909384 11.818924 -1.3615621 -0.22046544 -0.42347279 0.87867272 0.0072969687
-18.907543 11.818469 -1.360726 -0.50419205 -0.75342953 -0.42205966 0.0013867724
-18.904543 11.818439 -1.3596541 -0.45310891 0.5444454 0.70588356 0.0025295124
-18.901585 11.818548 -1.3591878 -0.24927503 -0.27040175 0.92991662 0
-18.899446 11.817618 -1.3591338 -0.32628322 -0.28031459 0.90275306 0
-18.891188 11.81778 -1.3591142 0.055885088 0.19294687 0.97961646 0.0030419235
-18.889183 11.818453 -1.35988 -0.001658853 -0.0365256 0.99933136 0
-18.886965 11.818666 -1.3614256 -0.061276045 0.30123356 0.95157951 0
-18.909662 11.821552 -1.3614568 -0.031921439 0.039261486 0.99871904 0.0039411439
-18.90756 11.821522 -1.3603939 0.30114487 -0.15958357 0.94013023 0
-18.904778 11.821529 -1.3594059 0.070215307 0.14723767 0.9866057 0
-18.902655 11.820607 -1.3592092 -0.15973157 -0.34545392 -0.9247418 0
-18.889061 11.821422 -1.3596131 -0.030805904 -0.034272566 0.99893767 0
-18.886871 11.821577 -1.3611567 0.07198298 0.20825848 0.97542143 0
-18.909887 11.824543 -1.361322 0.45057565 -0.063863337 0.89045101 0
-18.907602 11.824494 -1.3601414 0.0087564755 -0.74928683 0.66218758 0
-18.90509 11.824418 -1.3592472 0.21789187 0.0064526252 0.97595155 0
-18.888767 11.824381 -1.3594834 -0.54904979 -0.7872656 0.2806372 0.0082820104
-18.886707 11.824465 -1.3609638 -0.67074531 -0.63494265 0.38333869 0
-18.909969 11.827577 -1.3611478 -0.19649284 -0.43356672 0.87943757 0.0059780697
-18.907499 11.827519 -1.3598667 0.10392167 -0.20199445 0.97385752 0.0023460023
-18.905121 11.827419 -1.3591951 -0.39700547 -0.18950768 0.89803869 0
-18.888565 11.827403 -1.359255 0.0070881369 0.16252223 0.98667943 0
-18.886642 11.827553 -1.3606467 -0.022309929 0.022598082 0.99949563 0
-18.884991 11.827032 -1.3618996 -0.059503157 0.035235766 0.99760604 0
-18.90988 11.830533 -1.3609701 0.15266633 0.19347322 0.96915483 0
-18.907619 11.830498 -1.3597498 -0.13079955 -0.17750621 0.97538859 0
-18.905476 11.830416 -1.3591361 -0.20349038 -0.96591026 -0.16002814 0
-18.888227 11.8304 -1.3592778 -0.17677145 -0.026148394 0.98390454 0
-18.886375 11.830465 -1.3604722 -0.096053973 -0.11185056 0.98907185 0
-18.884602 11.831045 -1.3618737 -0.33917725 -0.92521185 0.17012295 0.014539207
-18.910036 11.833637 -1.361112 -0.077012405 0.058502071 0.99531227 0
-18.90782 11.833538 -1.3597499 -0.13015957 0.062933095 0.98949379 0.0050918581
-18.905766 11.833555 -1.3590906 0.022296894 -0.058761455 0.99802303 0
-18.888229 11.832294 -1.3590058 -0.079481751 0.10569052 0.99121749 0
-18.886269 11.833467 -1.3601277 0.38279828 -0.032868363 0.9232471 0
-18.884518 11.833487 -1.3615896 0.060059845 0.50287336 0.86227089 0.024897479
-18.909822 11.836637 -1.3609709 0.35313439 0.37296805 0.85801566 0
-18.907759 11.836516 -1.359672 -0.038135588 -0.00067215343 0.99927241 0
-18.905811 11.836081 -1.3590498 0.72959203 -0.68277472 0.038912211 0
-18.886013 11.836483 -1.3598318 -0.12606667 -0.0508647 0.99071693 0
-18.884098 11.836624 -1.3614331 -0.068592064 0.06508483 0.99551958 0
-18.909767 11.839386 -1.3610168 -0.18731293 -0.14403287 0.97168332 0.013553299
-18.907747 11.839429 -1.3596598 -0.068170615 -0.0804004 0.99442875 0.0024539905
-18.905584 11.83952 -1.3590527 -0.086138189 -0.044345889 0.99529582 0
-18.885662 11.839445 -1.359588 0.17103291 0.27984855 0.94468653 0
-18.883976 11.839418 -1.3609827 -0.03378778 -0.56592947 0.82376105 0.0097553087
-18.909662 11.842284 -1.361168 -0.50576991 0.12434386 0.85365999 0.010573391
-18.907806 11.842471 -1.3597292 -0.087428913 -0.063423604 0.99414974 0
-18.905512 11.84185 -1.3590175 -0.066291295 0.054202974 0.99632704 0
-18.885435 11.842094 -1.3592443 -0.061969154 0.011022566 0.99801725 0.017938493
-18.883614 11.8424 -1.3606935 0.028397709 0.13659656 0.99021959 0
-18.881842 11.843953 -1.3618453 -0.05044971 0.087741688 0.99486494 0
-18.909454 11.845329 -1.3612429 -0.012961492 0.20777935 0.97808981 0
-18.907816 11.845577 -1.3598589 0.78780943 0.61201084 0.069275752 0
-18.905987 11.846325 -1.3590159 0.0083842818 0.12089024 0.99263048 0
-18.88516 11.844604 -1.3591509 0.016908031 0.034281932 0.99926919 0
-18.883385 11.845492 -1.3602519 -0.058706 0.033311464 0.99771941 0
-18.881653 11.846297 -1.3617244 0.40985748 0.18835163 0.89249122 0.020809377
-18.909325 11.84879 -1.3616635 -0.10270821 0.19078527 0.97624379 0
-18.907759 11.848693 -1.3601393 -0.24084416 -0.32387161 0.91493237 0
-18.90597 11.848538 -1.359066 -0.11735199 -0.11995894 0.98581862 0
-18.883184 11.848402 -1.3598046 0.040338095 0.15611327 0.98691511 0
-18.881439 11.848702 -1.3613358 -0.030261829 -0.022389302 0.99929124 0
-18.90913 11.851265 -1.3618798 0.13621114 0.38919142 0.91103053 0
-18.907299 11.851546 -1.3601316 0.0062558916 -0.076754771 0.99703038 0
-18.905781 11.852023 -1.3592927 -0.63268751 -0.7549473 0.17251438 0
-18.88271 11.851214 -1.3595428 0.14252643 0.52736223 0.83760095 0
-18.881058 11.851681 -1.360944 -0.067668937 0.045818869 0.99665517 0.012295155
-18.907282 11.854558 -1.3605496 -0.40071961 -0.68291229 -0.61078191 0
-18.905481 11.854401 -1.3593261 -0.03477975 -0.10344341 0.99402708 0
-18.882402 11.854449 -1.359238 0.59965497 -0.58248228 0.54875159 0
-18.880642 11.85454 -1.3606086 -0.035930663 -0.1150769 0.99270654 0
-18.906919 11.857397 -1.3609816 0.79480618 0.60149777 -0.080520965 0
-18.905464 11.857217 -1.3594319 -0.01329672 0.021532971 0.99967968 0.0080722757
-18.880203 11.85743 -1.3601758 0.29825443 0.12043927 0.94685727 0
-18.878529 11.85834 -1.3615892 -0.018080959 0.15106398 0.98835862 0
-18.906555 11.860214 -1.3612731 0.59577197 0.70718873 -0.38070974 0
-18.905006 11.860584 -1.3598545 -0.67529559 -0.72951329 -0.10856514 0
-18.879753 11.860382 -1.3596754 0.24203131 -0.00049587322 0.97026831 0
-18.878159 11.860601 -1.3612032 0.15269879 -0.9618575 0.22696514 0
-18.906254 11.862841 -1.3616209 -0.3161774 -0.94851089 0.018946741 0
-18.904615 11.863889 -1.3599396 -0.047363184 0.031249823 0.99838877 0.0077854358
-18.879225 11.86323 -1.3592646 -0.011350892 0.043020129 0.99900973 0
-18.877666 11.863528 -1.3607001 0.22646488 0.49065104 0.8414126 0
-18.904314 11.866292 -1.3602046 -0.00052851869 0.093833238 0.99558777 0.014431662
-18.9028 11.866973 -1.3592002 -0.058097679 -0.023462245 0.99803513 0
-18.877213 11.866363 -1.3601046 -0.20187359 -0.45446867 0.8675859 0
-18.875555 11.867238 -1.3614837 -0.010214122 -0.065605193 0.99779338 0
-18.904011 11.869272 -1.3610069 -0.22262543 -0.96203756 0.15786621 0
-18.902559 11.869222 -1.3592907 0.11208734 0.21387044 0.97041011 0
-18.876583 11.869289 -1.3596395 -0.0023464044 -0.14659527 0.98919374 0.030640142
-18.875042 11.869761 -1.3610127 -0.23310506 -0.44293937 0.86571753 0
-18.903519 11.872049 -1.3613908 -0.76714021 -0.64104825 0.023514504 0.012780433
-18.902102 11.872613 -1.3600035 -0.077784739 -0.029960325 0.99651992 0.012942336
-18.876217 11.871518 -1.359181 -0.10446175 -0.076860659 0.99155438 0.02469448
-18.874477 11.872444 -1.3605255 -0.20718104 -0.71656144 0.66604483 0.029852128
-18.90328 11.874387 -1.3618392 -0.40727106 -0.85698575 0.31576204 0
-18.901651 11.875529 -1.3605006 -0.16786687 -0.037027571 0.98511404 0.020103425
-18.873909 11.8753 -1.3599293 0.0074134911 -0.11812026 0.9929716 0.032556899
-18.872269 11.876003 -1.3613234 0.030543383 0.18577574 0.98211735 0
-18.901016 11.878413 -1.3608263 -0.077219456 -0.46256372 0.8832168 0
-18.899557 11.879002 -1.3594654 -0.054051932 -0.17571984 0.98295516 0
-18.873417 11.877911 -1.3593769 -0.052276313 -0.024358353 0.99833554 0
-18.871691 11.878796 -1.3606756 -0.1090726 0.18812078 0.97607058 0
-18.869991 11.879972 -1.3616675 -0.32220623 0.08700224 0.94266319 0
-18.900482 11.881266 -1.3613892 -0.060709734 -0.058002315 0.99646884 0
-18.899109 11.881718 -1.3599646 -0.082692295 0.010730652 0.9965173 0
-18.871353 11.881279 -1.3598866 0.059316039 0.13804309 0.98864847 0
-18.869579 11.881763 -1.3613888 -0.041226819 0.22851162 0.97266787 0
-18.900288 11.883377 -1.3619533 0.068858936 0.072267376 0.99500549 0
-18.8985 11.884462 -1.3604393 -0.075495586 -0.070963874 0.99461776 0.01530691
-18.896715 11.885814 -1.3592358 -0.045615457 -0.014884168 0.9988482 0.012394514
-18.870533 11.883783 -1.3595116 -0.087190814 0.034592476 0.99559087 0
-18.868847 11.884558 -1.3607314 -0.0083576385 -0.07273981 0.99731594 0
-18.897825 11.887276 -1.3608639 0.52546775 0.847821 -0.071296982 0
-18.896404 11.887888 -1.3595914 -0.13384379 0.99097311 -0.0076260036 0
-18.868202 11.887209 -1.3600092 -0.059650119 0.02579442 0.997886 0
-18.866493 11.887804 -1.3612971 0.090386748 0.053338155 0.99447733 0.0081521468
-18.897373 11.889744 -1.3615053 -0.17994717 -0.98116654 0.070222937 0
-18.89579 11.890674 -1.3601737 0.0061644912 0.15877447 0.98729563 0
-18.86742 11.889769 -1.3594184 -0.012537304 0.047381159 0.99879819 0.013505298
-18.865658 11.890685 -1.36059 -0.48124042 -0.050219759 0.87514889 0.0020189153
-18.863609 11.891836 -1.3617775 -0.52649748 -0.25588861 -0.81075364 0
-18.895069 11.893394 -1.3607016 -0.70471072 -0.6883685 0.17184763 0
-18.893581 11.893913 -1.3594395 -0.06094151 -0.0045716628 0.99813086 0
-18.865005 11.893362 -1.3598214 -0.00045870102 0.019678604 0.99980628 0
-18.863129 11.89399 -1.3612615 -0.11560239 -0.55643743 0.82280833 0
-18.894505 11.895752 -1.3613718 -0.59968793 -0.794177 0.098271973 0
-18.892895 11.896721 -1.3601594 -0.28134006 -0.95164847 0.12334085 0
-18.864243 11.895993 -1.3592486 -0.10349006 -0.057489157 0.99296767 0
-18.862503 11.896599 -1.3604614 0.014754338 0.064093128 0.9978348 0
-18.860722 11.897482 -1.361617 -0.022103934 -0.065439716 0.9976117 0
-18.892166 11.899326 -1.3607632 -0.74202347 0.66924644 -0.03886367 0.037608534
-18.890425 11.900301 -1.3594947 -0.95909393 0.27051958 0.083414704 0
-18.86203 11.899144 -1.3596283 -0.090093926 -0.0064885709 0.99591213 0.01343793
-18.859983 11.899832 -1.3610289 -0.05710825 -0.096203573 0.99372208 0
-18.89139 11.901903 -1.3613993 -0.58414608 -0.72561502 0.36367047 0
-18.889736 11.902752 -1.3601928 -0.65394258 -0.75174439 0.085085645 0
-18.861427 11.901712 -1.3592044 -0.027973464 -0.039807796 0.99881572 0
-18.85936 11.902348 -1.360276 0.010870235 0.1996164 0.97981387 0
-18.857277 11.903307 -1.3615214 -0.047603659 0.0061596497 0.99884731 0
-18.888908 11.905216 -1.360898 -0.12541889 -0.22495122 0.96626449 0.022392789
-18.887268 11.905926 -1.3597091 -0.88420945 -0.4589569 0.086788341 0
-18.858742 11.905184 -1.3594851 -0.081941508 0.029951002 0.99618697 0
-18.856766 11.905567 -1.3607819 0.091736503 -0.202261 0.97502559 0.01504094
-18.854919 11.906542 -1.3616198 -0.038227219 0.042003896 0.99838591 0
-18.888212 11.907288 -1.3614495 0.062617682 0.18191895 0.98131776 0
-18.886494 11.908349 -1.3605003 -0.6559341 0.7383104 0.15699735 0
-18.884487 11.909264 -1.3592982 -0.020402366 -0.014527416 0.9996863 0
-18.856344 11.908273 -1.3598847 0.28616121 -0.25071746 0.92479861 0
-18.854197 11.908773 -1.361269 -0.27868307 -0.12881695 0.95170474 0
-18.885565 11.910849 -1.3612652 0.41533089 0.89750242 -0.14828926 0.02656363
-18.883728 11.91156 -1.360044 -0.034092385 0.97873712 -0.20226587 0
-18.881538 11.912962 -1.3591181 -0.065606996 -0.018168412 0.99768013 0
-18.855709 11.911255 -1.3592889 -0.039667707 0.02991173 0.99876511 0
-18.853558 11.91149 -1.3605678 0.39757121 0.19183899 0.89729309 0.010019558
-18.851465 11.912476 -1.361686 -0.039352279 0.17336515 0.98407108 0
-18.882992 11.913923 -1.3609691 -0.036356963 0.99531293 -0.089611553 0
-18.88096 11.914711 -1.3598526 -0.67891598 -0.73170018 -0.060728587 0
-18.878962 11.915948 -1.3594624 0.16327289 -0.65671563 -0.73625171 0
-18.85568 11.914808 -1.3591793 -0.376017 -0.92605984 -0.032005198 0
-18.853287 11.914417 -1.3599129 0.040248457 0.08269763 0.99576157 0.0048734727
-18.850735 11.914762 -1.3612258 -0.13984358 -0.95724648 0.25322509 0.0035202831
-18.882261 11.916073 -1.3619347 0.0021072505 0.14279346 0.98975027 0
-18.880289 11.91725 -1.3610477 0.1593361 0.98354262 -0.085181475 0
-18.877804 11.917973 -1.3597325 -0.063107789 -0.38443118 0.9209941 0
-18.875458 11.918882 -1.3590537 -0.059977468 0.070286259 0.99572212 0
-18.855675 11.917539 -1.3591352 0.024579095 0.10396547 0.99427712 0
-18.853477 11.917643 -1.3597553 -0.011407856 -0.22861044 0.97345108 0
-18.85046 11.917467 -1.3608572 -0.14107223 -0.88435656 0.44498554 0
-18.84833 11.918016 -1.3618481 -0.3240653 -0.45162791 0.83127248 0.0017059681
-18.879354 11.919283 -1.3619142 -0.36433554 0.92610425 -0.097930782 0
-18.877218 11.920414 -1.3609632 0.97083271 0.23910546 -0.017675867 0
-18.874756 11.920492 -1.3596193 -0.086645804 -0.25111708 0.96407092 0
-18.872217 11.921704 -1.3592006 -0.2149808 0.18639794 0.95866525 0
-18.85853 11.921259 -1.3590693 -0.066789202 0.022465928 0.99751413 0
-18.856272 11.920921 -1.3593161 0.063988522 0.21004386 0.97559571 0
-18.853586 11.920435 -1.3599672 0.0077523328 0.11792417 0.99299228 0.00019365527
-18.850546 11.920599 -1.360909 0.09936621 0.04021002 0.99423814 0
-18.84827 11.920452 -1.3617251 -0.068641566 -0.044015877 0.99666989 0
-18.87639 11.922207 -1.3617905 0.6893217 0.48121482 -0.54154211 0
-18.874165 11.923306 -1.3610206 -0.60757256 -0.79383558 0.026090367 0
-18.871971 11.924307 -1.3604587 -0.12239475 -0.22507998 0.96662223 0.0071462188
-18.868837 11.923989 -1.3593477 -0.16575843 -0.97208554 -0.16605392 0
-18.86553 11.92433 -1.3591202 -0.011284253 0.074405409 0.99716425 0
-18.862143 11.924133 -1.3591624 0.01478412 0.0063499515 0.9998706 0
-18.858738 11.923565 -1.3592398 -0.019370103 0.060916342 0.99795491 0
-18.85651 11.923316 -1.3596125 -0.0019972995 0.044151999 0.99902278 0
-18.85342 11.923468 -1.3603402 -0.17889619 -0.12269419 0.97618759 0
-18.850323 11.923642 -1.3612443 -0.046722975 0.009260606 0.99886495 0
-18.848331 11.922632 -1.3618088 -0.049677573 0.0022333628 0.99876279 0
-18.873636 11.925036 -1.3619936 0.2437882 0.52423429 0.81593245 0.021254048
-18.871506 11.925993 -1.3613807 -0.15135182 0.12221471 0.98089558 0
-18.868423 11.926367 -1.3602697 -0.039071787 -0.38778678 0.92092067 0
-18.865499 11.926299 -1.3597684 -0.44949555 0.28052154 0.84809285 0
-18.862556 11.926189 -1.359464 -0.11194787 0.02969831 0.99327022 0
-18.85951 11.92663 -1.3599719 0.01683666 0.056129143 0.99828154 0.006028404
-18.856228 11.926424 -1.3601787 -0.47145867 -0.87019074 0.14315961 0
-18.853342 11.926371 -1.360795 -0.090469673 -0.82284862 0.5610128 0.0014184464
-18.850634 11.926546 -1.3615566 -0.06881839 0.17083529 0.98289335 0.003333935
-18.848759 11.925499 -1.3618031 0.082145527 0.091787308 0.99238461 0.0084209219
-18.868013 11.928528 -1.3613921 0.042921528 0.098564819 0.99420458 0
-18.865353 11.929161 -1.3610456 0.042107411 0.25995716 0.96470165 0
-18.862547 11.929465 -1.3607942 -0.038397018 -0.14578024 0.98857164 0
-18.859591 11.929706 -1.3608161 0.049764521 0.15676957 0.9863807 0
-18.856537 11.929361 -1.361016 0.16078059 0.21929426 0.96231997 0
-18.853624 11.929361 -1.3615234 -0.013740268 0.086637676 0.99614519 0
-18.851646 11.928718 -1.3616614 -0.15599228 0.068426788 0.98538536 0
-18.862219 11.931519 -1.3617828 -0.10778016 -0.34654582 0.93182051 0
-18.859402 11.931772 -1.3616277 0.059509546 0.091995977 0.99397957 0
-18.856504 11.931654 -1.3617247 -0.0995574 -0.10428346 0.98955214 0
-18.854532 11.9312 -1.3618623 -0.3740612 -0.011962192 0.92732692 0
-18.897758 11.813591 -1.3589612 0.16282158 -0.33958077 0.92637688 0
-18.895283 11.813083 -1.358901 0.087448336 0.03864643 0.99541914 0
-18.892845 11.813546 -1.3589436 -0.093737133 -0.042605441 0.99468493 0
-18.900734 11.816354 -1.3589196 -0.011693599 0.050946791 0.99863291 0
-18.898182 11.816141 -1.3588271 -0.035925627 0.017718006 0.99919742 0
-18.895372 11.816074 -1.3588256 0.044956449 -0.092440508 0.99470282 0
-18.892933 11.816048 -1.3588004 -0.033807751 -0.26368141 0.96401721 0.0010515136
-18.903233 11.819253 -1.3589168 -0.011062389 -0.034028634 0.99935967 0
-18.901058 11.818968 -1.3587956 -0.0053706523 0.059000306 0.99824351 0
-18.898571 11.818497 -1.3585825 -0.22482996 -0.97380239 0.03406338 0
