# .PCD v0.7 - Point Cloud Data file format
VERSION 0.7
FIELDS x y z normal_x normal_y normal_z curvature
SIZE 4 4 4 4 4 4 4
TYPE F F F F F F F
COUNT 1 1 1 1 1 1 1
WIDTH 550
HEIGHT 1
VIEWPOINT 0 0 0 1 0 0 0
POINTS 550
DATA ascii
-0.0025117425 0.0074985642 -0.00010462317 0.25380632 0.018528007 -0.96707761 0.00011916409
-0.039301421 0.01055034 -0.00092813227 -0.9680354 -0.013354995 -0.25045803 0.0090899831
-0.038767379 0.010510929 -0.0023198125 -0.99598062 -0.027142474 -0.085357852 0.0074433074
-0.01564127 0.010952718 -0.0028805111 0.23011865 0.086837493 -0.96928048 7.3382631e-05
-0.013398464 0.010511168 -0.0025289294 0.22543128 0.076276504 -0.97126853 7.0642258e-05
-0.010548702 0.010504115 -0.0018554599 0.22987254 0.062067203 -0.97123957 7.9013415e-05
-0.007517667 0.010522537 -0.0011224757 0.23196974 0.045525264 -0.9716571 8.2602965e-05
-0.0047716987 0.010385257 -0.0004755049 0.22938146 0.029553253 -0.97288781 7.8813391e-05
-0.0025371085 0.01011753 -8.2094819e-05 0.23875225 0.019040963 -0.9708938 0.00013987167
-0.039319497 0.013515901 -0.00088163646 -0.97179335 -0.020603478 -0.23493242 0.0088047637
-0.038797107 0.013065617 -0.0022434937 -0.99185282 -0.030228833 -0.12375055 0.0097608706
-0.018277906 0.01472757 -0.0028960491 0.21263848 0.11525247 -0.97031015 5.9244489e-05
-0.016041202 0.01378931 -0.0027664436 0.2102908 0.10147246 -0.97235852 7.8822573e-05
-0.013540912 0.01349514 -0.0022920386 0.20813112 0.087420389 -0.9741863 9.9453689e-05
-0.010466007 0.01352335 -0.0016269105 0.21467978 0.06859871 -0.97427249 9.4892872e-05
-0.0074194293 0.013505979 -0.00094973069 0.21436635 0.04856655 -0.97554523 0.00012415258
-0.0047309729 0.01338538 -0.00038243181 0.20958757 0.030040344 -0.97732836 0.00012339049
-0.002428141 0.013589114 -0.00012513026 0.22310272 0.013846439 -0.97469658 0.00016108173
-0.039323952 0.016380854 -0.00087055378 -0.97825718 -0.063199595 -0.19753151 0.0069984435
-0.038872331 0.016103707 -0.0021348055 -0.98399621 -0.057947218 -0.1685041 0.01343758
-0.018598154 0.016999174 -0.0028374598 0.1982757 0.12628219 -0.97197717 7.1980714e-05
-0.016439011 0.016480001 -0.0025751416 0.19760583 0.11572055 -0.97342724 8.2097999e-05
-0.013450501 0.016408132 -0.00201524 0.19424412 0.10018341 -0.97582406 0.00010012789
-0.01044288 0.016494073 -0.0014125357 0.19413736 0.077298358 -0.97792423 0.00016600518
-0.0074373041 0.016471295 -0.00079672161 0.18975759 0.054102417 -0.98033929 0.00022834599
-0.00469267 0.01652541 -0.00030826151 0.18889298 0.033675369 -0.9814201 0.00013055485
-0.0023593721 0.016350565 -0.00010244954 0.20771627 0.017000318 -0.97804135 0.00020696917
-0.039554432 0.019499 -0.0014839256 -0.90635067 -0.0081766257 -0.42244723 0.011393189
-0.02151743 0.020379575 -0.0029318549 0.16823655 0.15294617 -0.973809 9.8144803e-05
-0.019234283 0.019594891 -0.002720495 0.17853287 0.13443564 -0.97470665 7.2939038e-05
-0.016494965 0.019517161 -0.0022183093 0.18072549 0.12041503 -0.97613448 7.0610593e-05
-0.013463777 0.019455096 -0.0016664797 0.17665669 0.10234769 -0.97893691 0.00010353974
-0.01046488 0.019535318 -0.0011232139 0.17023896 0.079628237 -0.9821803 0.00016342336
-0.0075819348 0.019400323 -0.00065920939 0.16644575 0.057461862 -0.98437494 0.0001499489
-0.0048930091 0.019467933 -0.00023190679 0.16814581 0.041405533 -0.98489213 7.5382275e-05
-0.0026013518 0.019307742 -0.00015656892 0.18932083 0.023633409 -0.98163086 0.00022066846
-0.039731316 0.022807328 -0.0021747674 -0.81302041 0.066462733 -0.57842934 0.016742727
-0.02452682 0.023200668 -0.0029132513 0.14878814 0.16254361 -0.97541875 9.0937276e-05
-0.022153676 0.022754615 -0.0027495893 0.14867339 0.14755096 -0.9778164 8.7481232e-05
-0.019558411 0.022460863 -0.0023890836 0.16143559 0.13190828 -0.978028 9.3011673e-05
-0.016407112 0.022552537 -0.0018437775 0.16601466 0.11082153 -0.97987634 0.00010621725
-0.013459676 0.022470504 -0.0013721082 0.15625884 0.091178581 -0.98349869 0.00012758172
-0.010495433 0.022456573 -0.00094494747 0.14935333 0.073256195 -0.98606652 0.00010752452
-0.0075130197 0.022529332 -0.00047050684 0.149498 0.054676831 -0.98724902 4.8109603e-05
-0.005147526 0.022130234 -0.00016330942 0.153668 0.045022715 -0.98709625 5.6995628e-05
-0.0025203149 0.022255201 -8.8814137e-05 0.17094652 0.026900262 -0.98491305 0.00021126514
-0.03952866 0.025848044 -0.0023402399 -0.5862335 0.13324587 -0.7991094 0.019144114
-0.038843326 0.026400596 -0.002962685 -0.3448866 0.10967802 -0.93221456 0.018885335
-0.030365551 0.026981227 -0.002965471 0.13030802 0.18616353 -0.97383928 4.2879539e-05
-0.027837731 0.026459415 -0.0029208662 0.13241562 0.16933222 -0.97662312 0.0001080105
-0.025412062 0.025802879 -0.0027501297 0.1324148 0.1594705 -0.97828192 8.7467772e-05
-0.022447584 0.02543821 -0.002428181 0.13513447 0.1390221 -0.98102582 8.3820029e-05
-0.019418038 0.025391035 -0.0019954201 0.14532059 0.12303036 -0.98170537 0.00015358915
-0.016416809 0.025526876 -0.0015223682 0.1418044 0.095993049 -0.98522937 0.00016488945
-0.013626891 0.025510287 -0.0011166992 0.13740396 0.078136683 -0.98742837 0.00012206252
-0.010431664 0.025493352 -0.0007174926 0.13435051 0.058548998 -0.98920268 8.6524531e-05
-0.0075365975 0.025447087 -0.00034047908 0.13468762 0.044646859 -0.98988181 0.00011232574
-0.005184745 0.025159232 -0.00011020012 0.13786823 0.032204725 -0.98992687 9.6869982e-05
-0.0027616527 0.024322145 -1.1495444e-05 0.16626383 0.017903971 -0.98591876 0.00031787882
-0.039643779 0.028338229 -0.0020719597 -0.54262441 0.16416581 -0.82377684 0.01845729
-0.038592629 0.028903786 -0.0028298297 -0.33369836 0.14912356 -0.93081015 0.0083774496
-0.033512231 0.029491387 -0.0028988975 0.084515505 0.19147727 -0.97785151 0.00072072109
-0.031147692 0.029171456 -0.0028593943 0.11433432 0.1707419 -0.97865975 0.00010327005
-0.028247049 0.028706303 -0.0026788749 0.11613856 0.1558059 -0.98093647 8.964978e-05
-0.025522875 0.028328823 -0.0023790039 0.11781231 0.1423119 -0.98278564 8.4840947e-05
-0.022272781 0.028479705 -0.0019785818 0.11963974 0.12602423 -0.98478639 0.00011510048
-0.019624719 0.028269274 -0.0016716366 0.12452602 0.11075222 -0.9860158 0.00013686127
-0.016460335 0.028609117 -0.0012579974 0.1207672 0.084031455 -0.9891178 0.00015755335
-0.013629033 0.028454177 -0.00096355937 0.1183182 0.065428153 -0.99081784 0.00010432096
-0.010398906 0.02856688 -0.00054006133 0.11601521 0.047377922 -0.99211687 5.1857587e-05
-0.0077594314 0.028312225 -0.00026193776 0.11694418 0.034620956 -0.99253482 6.5825996e-05
-0.0047440068 0.028548675 -0.00014783937 0.11752003 0.018782262 -0.99289292 8.2629704e-05
-0.039834324 0.031540658 -0.0015654594 -0.56597781 0.12022255 -0.81560761 0.019500438
-0.037821416 0.03181003 -0.002740517 -0.23436911 0.15247393 -0.96011603 0.010249557
-0.034161292 0.031861637 -0.002792388 0.062804766 0.15167207 -0.98643357 0.0018778443
-0.031234918 0.03135312 -0.002586243 0.10400511 0.13944235 -0.98475313 0.00014336883
-0.028359758 0.031624984 -0.0022552214 0.10250109 0.13060071 -0.98612213 0.0001456816
-0.025464859 0.03155145 -0.0020005428 0.10308114 0.12187701 -0.98717791 0.00011456035
-0.02252027 0.031357363 -0.0017011947 0.10501847 0.10447192 -0.98896748 0.00010655946
-0.019547427 0.031636205 -0.0013563096 0.10448822 0.085215077 -0.99086863 0.00011796522
-0.016680956 0.031464044 -0.0010650664 0.10194767 0.07207343 -0.99217546 0.00010801018
-0.013345054 0.0314993 -0.00073105044 0.10529611 0.056096639 -0.99285746 6.1665422e-05
-0.010606545 0.031347644 -0.00043234593 0.10711571 0.044120736 -0.99326718 4.8849422e-05
-0.0078855855 0.031244267 -0.00018967112 0.10469782 0.033369735 -0.99394411 3.818822e-05
-0.0050465371 0.031382743 -0.00011118446 0.10203515 0.020591814 -0.99456769 4.1702486e-05
-0.039887574 0.034651946 -0.0012455914 -0.58436859 0.045826893 -0.8101933 0.020001501
-0.037567936 0.034468319 -0.002491737 -0.18001616 0.11140471 -0.9773348 0.0087232664
-0.034396484 0.034611065 -0.0025550786 0.027596269 0.098327212 -0.99477142 0.0015618731
-0.031467188 0.034529384 -0.0022843475 0.09888649 0.087433249 -0.99125016 0.00045684326
-0.028574267 0.034474444 -0.0019834745 0.10397492 0.065138713 -0.99244457 0.0005498667
-0.025520949 0.034513399 -0.0017255959 0.090220079 0.063438289 -0.99389941 0.00077293179
-0.022511091 0.034414079 -0.0014045745 0.09193895 0.058608908 -0.99403828 0.00044301839
-0.019552432 0.034390863 -0.0011350969 0.09341903 0.054378692 -0.99414074 0.00040048265
-0.016516376 0.034375228 -0.00090326945 0.090036176 0.05131311 -0.99461573 0.00010460165
-0.013410445 0.034471646 -0.00059761916 0.091272689 0.029276105 -0.99539548 0.00029280942
-0.010658151 0.03436799 -0.00036417955 0.094747759 0.025022605 -0.99518675 6.6851004e-05
-0.0078676986 0.034470461 -0.0001648164 0.093725234 0.012406192 -0.99552083 8.1734768e-05
-0.0052377949 0.034309462 -8.3175299e-05 0.094159894 0.0017692345 -0.99555552 0.00011171634
-0.039977759 0.037816439 -0.0011014809 -0.49649015 -0.23919292 -0.83443648 0.036955763
-0.03740355 0.037484869 -0.0022786548 -0.18182628 -0.03302205 -0.98277611 0.011468994
-0.034431022 0.037491515 -0.0024279491 -0.01191658 0.0075445208 -0.99990052 0.0037573886
-0.031476233 0.037466131 -0.0022113987 0.079585455 -0.038220406 -0.99609512 0.0025725269
-0.028524216 0.037510335 -0.0018227906 0.087097645 -0.064140722 -0.99413282 0.0030463217
-0.025639378 0.037540741 -0.001597988 0.079246834 -0.085663691 -0.99316752 0.0038470742
-0.022676902 0.037506841 -0.0013163447 0.084387682 -0.10459553 -0.99092811 0.0046881242
-0.019565407 0.037551112 -0.0010877532 0.084668025 -0.1136265 -0.98990923 0.0047837407
-0.016444698 0.037506245 -0.00082391925 0.083747081 -0.11098117 -0.99028772 0.0042403769
-0.01350417 0.037603036 -0.00055846706 0.077649035 -0.11931122 -0.98981589 0.0037125025
-0.010597267 0.037458021 -0.00036125429 0.08282695 -0.092644371 -0.99224824 0.0023662269
-0.0078518968 0.037629802 -0.00017855858 0.091402665 -0.10241372 -0.99053371 0.0026227375
-0.0052294498 0.038517628 -8.0522215e-05 0.072984591 -0.15504417 -0.98520786 0.0041645989
-0.0015026953 0.038776889 -0.00013772433 0.095325008 -0.23207831 -0.9680149 0.010493262
-0.045391511 0.041342799 -0.00047212333 -0.37987408 -0.72239488 -0.57779008 0.012895812
-0.043302391 0.041192863 -0.001185474 -0.38401744 -0.68867034 -0.61503148 0.011868218
-0.040312596 0.04045691 -0.0018025115 -0.28833014 -0.46735036 -0.83573288 0.032179307
-0.037517481 0.040311012 -0.0023728714 -0.15294403 -0.29408044 -0.94346428 0.020721065
-0.034487627 0.040412866 -0.0024559542 0.013337081 -0.25196028 -0.9676457 0.016304702
-0.031463303 0.040410548 -0.0023694518 0.079133846 -0.26562041 -0.96082443 0.011845853
-0.028528403 0.040438253 -0.0021716594 0.083327107 -0.27992636 -0.95639837 0.010091847
-0.025508542 0.040506117 -0.0019963156 0.062722191 -0.2830942 -0.957039 0.0064479993
-0.022501459 0.040510919 -0.001766179 0.077655755 -0.28839684 -0.95435673 0.0053932942
-0.019535104 0.040527184 -0.0015188953 0.08153408 -0.30686143 -0.94825536 0.004025721
-0.01649633 0.040541179 -0.0012733343 0.072435543 -0.30965191 -0.94808692 0.0037234812
-0.013555532 0.040574051 -0.0010735361 0.052617088 -0.32204908 -0.94525969 0.0043313382
-0.010489333 0.040525038 -0.00094387785 0.038263958 -0.34639409 -0.93730849 0.0040225666
-0.0074627772 0.040473502 -0.00078683975 0.029291568 -0.37701052 -0.92574567 0.0046507861
-0.0044652894 0.040564369 -0.00071486324 0.025144687 -0.43024081 -0.90236396 0.0062524648
-0.0014725011 0.04072357 -0.00074894977 0.013256403 -0.51289886 -0.8583467 0.0070556221
0.001486385 0.040904053 -0.00088890415 -0.025337683 -0.61888474 -0.78507298 0.01151726
0.0043471167 0.0408522 -0.0012733215 -0.10432018 -0.77583802 -0.62224817 0.0054030619
0.0074667502 0.040618859 -0.0016214539 -0.080389708 -0.85969603 -0.50444049 0.0019718171
0.010472681 0.040363349 -0.0015852251 0.0057230094 -0.91061485 -0.41321641 0.0035117131
0.013504522 0.040461384 -0.0015650286 0.087950632 -0.93829632 -0.33446184 0.00428322
0.016541071 0.040853113 -0.001531081 0.16523126 -0.95777673 -0.2352922 0.0036045834
0.019342711 0.041469719 -0.0015959588 0.20733829 -0.96693116 -0.14850862 0.002374582
0.021199988 0.041899201 -0.0010029069 0.26986921 -0.95946407 -0.081236221 0.0029681674
-0.051324926 0.044131756 -0.0015512409 -0.47490287 -0.84273183 -0.25351605 0.021229679
-0.049460758 0.043838643 -0.0018301514 -0.11141776 -0.93075955 -0.34824231 0.012476508
-0.046516523 0.043756094 -0.0017130158 -0.24711844 -0.83731091 -0.48769137 0.021702334
-0.04356999 0.042971373 -0.0024050428 -0.26921549 -0.75807053 -0.59401351 0.0097113587
-0.04069709 0.04218502 -0.0027412951 -0.1773662 -0.68317693 -0.70838577 0.0088073602
-0.038096033 0.042112801 -0.0027717631 -0.074235313 -0.54744941 -0.83353961 0.018675057
-0.035381906 0.04207262 -0.0029660673 0.0025100783 -0.71422106 -0.69991577 0.011815189
-0.031002993 0.042262152 -0.0028367324 0.085197955 -0.50747693 -0.85744292 0.019151958
-0.028145185 0.042268157 -0.0027631158 0.062789023 -0.56228024 -0.82455957 0.0095101083
-0.025359415 0.042434704 -0.0027464116 0.07777369 -0.54783124 -0.83296585 0.0068163062
-0.022484697 0.0426053 -0.0026330003 0.088175036 -0.51709157 -0.85137624 0.0058181435
-0.019458946 0.042883947 -0.0024900709 0.087711751 -0.51585257 -0.85217535 0.0041892878
-0.016487153 0.043140199 -0.0023627509 0.064174257 -0.50377733 -0.8614465 0.0033577208
-0.013491583 0.043243177 -0.0022222574 0.0258634 -0.49801156 -0.86678463 0.0038820021
-0.010533646 0.043251887 -0.0022260826 0.00072555902 -0.53152847 -0.84704012 0.0029117106
-0.0075554899 0.043111756 -0.0021970132 -0.02135624 -0.56998247 -0.82137918 0.0032581268
-0.0045672753 0.042858608 -0.0021639001 -0.042793363 -0.62092346 -0.78270221 0.0034707317
-0.0015668173 0.042730853 -0.0022769766 -0.073090985 -0.6886968 -0.72135597 0.0039621531
0.0013615842 0.042491663 -0.0024529325 -0.13396186 -0.72008085 -0.68083608 0.0044737482
0.004022941 0.042228453 -0.0028850357 -0.17279354 -0.79580969 -0.58037001 0.00080024439
0.020939853 0.042123437 -0.002992895 0.18936016 -0.97364825 -0.12709013 0.0016255114
0.022779783 0.042461477 -0.0014955216 0.28082237 -0.95883298 -0.042167913 0.0024957252
0.025484126 0.043368749 -0.001701645 0.33140081 -0.94289595 0.033477321 0.0022220383
0.028358877 0.044486113 -0.0019163126 0.34682256 -0.93531442 0.070007667 0.001986871
-0.05181827 0.046540786 -0.0015078924 -0.96155488 -0.22437562 -0.15832794 0.027280098
0.029635642 0.045232393 -0.0011494567 0.42947546 -0.87750548 0.21338907 0.0025792322
0.031360008 0.045937367 -0.0017595881 0.42875627 -0.86796254 0.2506175 0.0016608374
0.034089088 0.047334265 -0.0017375383 0.46163118 -0.80728167 0.36768597 0.0035207605
0.036235631 0.047937058 -0.0029659625 0.49554193 -0.7643916 0.41248477 0.0033015129
-0.052013204 0.049524713 -0.0013309937 -0.99486792 -0.018228238 -0.099527247 0.0017199387
0.035209063 0.048528016 -0.00078849331 0.50733083 -0.73935342 0.44268718 0.0048554875
0.037346493 0.049540699 -0.0015744963 0.5179615 -0.70451015 0.48516116 0.0041597639
0.03952885 0.050535344 -0.0024589295 0.58772361 -0.63107401 0.50628692 0.002635709
-0.05185248 0.05252026 -0.0016516779 -0.98045689 0.1590832 -0.11574474 0.012269509
0.03869082 0.05134847 -0.00072317838 0.57178122 -0.58023053 0.57999903 0.0025762576
0.040460858 0.052463524 -0.0015130152 0.63810319 -0.5156036 0.57181925 0.00387106
0.042238224 0.053406063 -0.002654861 0.68416113 -0.49665684 0.5340932 0.003202904
-0.051438887 0.055421457 -0.0014028708 -0.93863934 0.30778426 -0.15564406 0.016593598
-0.049430091 0.056839198 -0.0022999926 -0.11723047 0.95310211 -0.27902219 0.0072009098
-0.046269625 0.05684175 -0.0024395476 -0.1553883 0.90161788 -0.4036577 0.017094858
-0.044536561 0.056844186 -0.002431687 -0.28510258 0.84020203 -0.46127766 0.01538567
0.04143839 0.054838918 -0.00086911098 0.68001956 -0.38994372 0.62090039 0.0037837669
0.042854637 0.055320974 -0.0021826937 0.743595 -0.38575986 0.54612809 0.0030948389
-0.049634673 0.057201467 -0.00079330441 -0.23214936 0.93026298 -0.28410804 0.019870909
-0.046282854 0.057709958 -0.00069819723 -0.24717365 0.87622052 -0.41369408 0.010307031
-0.043717176 0.058344487 -0.0015723751 -0.31799811 0.84629685 -0.42738596 0.0068058055
-0.040612251 0.059344292 -0.001758621 -0.20696831 0.89341891 -0.39870626 0.0034387677
-0.03805076 0.059532523 -0.0024406009 -0.14193423 0.89617223 -0.42039263 0.0023958634
-0.03461308 0.05988387 -0.0026696566 -0.10264888 0.87977076 -0.46418387 0.00040107424
-0.031980377 0.059878502 -0.0029387176 -0.079443604 0.84848136 -0.52322859 0.00068966049
0.041571081 0.058580697 -3.7773741e-05 0.65574682 -0.070370793 0.75169414 0.0025542837
0.043245845 0.058466814 -0.0015849558 0.72618777 -0.090920366 0.68145782 0.0035432852
-0.039688572 0.060168821 -0.00040137756 -0.20207651 0.89997864 -0.38626876 0.00093440589
-0.037340362 0.060303967 -0.0010270171 -0.15584947 0.89292991 -0.42235899 0.00062989542
-0.034561027 0.060625494 -0.0012714849 -0.12734517 0.878847 -0.45979464 0.00049711153
-0.031453066 0.06091075 -0.0015267573 -0.1153876 0.86133486 -0.49476051 0.00053514942
-0.028467195 0.061274935 -0.0015404732 -0.10245839 0.83554935 -0.53977734 0.00047545545
-0.025506541 0.061608192 -0.0015729666 -0.10112698 0.80580693 -0.58347952 0.00058359496
-0.022485927 0.061894838 -0.0017019886 -0.11424165 0.77294415 -0.62410426 0.00049586478
-0.019593989 0.062078204 -0.0020303207 -0.13744548 0.74423963 -0.65361774 0.00054486218
-0.016541792 0.062360194 -0.0024253679 -0.17576288 0.69495881 -0.69723719 0.00091141608
-0.014251038 0.062655516 -0.0027416779 -0.24105376 0.6729967 -0.69926274 0.00078757363
0.041726515 0.0623147 -0.00036307774 0.64227277 0.087547436 0.76145995 0.00091801689
0.043351047 0.061430871 -0.0017001559 0.70821351 0.049257912 0.70427775 0.0017339522
-0.022649037 0.063113019 -0.00014861899 -0.14284769 0.77967948 -0.6096676 0.00041391433
-0.01925407 0.063520566 -0.00048644736 -0.16769502 0.74653375 -0.64386785 0.00042561558
-0.016426058 0.063857697 -0.00092217332 -0.20473558 0.70935082 -0.67446613 0.00053536711
-0.013295634 0.064378947 -0.0015088913 -0.27979627 0.67448646 -0.68321455 0.00055365113
-0.010785217 0.064990036 -0.0020359943 -0.34362736 0.6330657 -0.6936484 0.0005854317
-0.0085058017 0.065640159 -0.0025838483 -0.42386672 0.62410331 -0.65637791 0.00055438763
0.041258592 0.064644113 -0.00037971509 0.61255789 0.13587698 0.77865928 0.00054241437
0.043108322 0.064434305 -0.0019149792 0.69770747 0.14072201 0.70242554 0.00070844684
-0.012197074 0.066482022 -0.00012714333 -0.34449798 0.65752465 -0.67006147 0.00038930145
-0.010099741 0.066702135 -0.00077834557 -0.3503041 0.65206909 -0.6723786 0.00046600675
-0.0074410476 0.067579694 -0.0015085196 -0.423437 0.63234729 -0.64872032 0.00057992898
-0.0052580489 0.068385698 -0.0023040015 -0.4919157 0.61677289 -0.61449993 0.00062034157
0.04102955 0.067586347 -0.00079356716 0.62831378 0.17633744 0.75771159 0.00044932455
0.042638119 0.067755789 -0.0022159258 0.70282829 0.212954 0.67873627 0.00090743811
-0.0063237119 0.069319956 -0.00046765257 -0.46032038 0.636531 -0.61881626 0.00068600086
-0.0043502068 0.070081949 -0.0013122746 -0.48996556 0.63640857 -0.59574986 0.00065223727
-0.0021002733 0.071232922 -0.0020165185 -0.51980788 0.64987129 -0.55449706 0.0005317349
0.038979508 0.071510673 -0.00011363307 0.58602291 0.21746933 0.78056669 0.00061193743
0.040657844 0.07055518 -0.0012853255 0.63350153 0.24217968 0.73486382 0.00097502128
0.042358536 0.070364475 -0.0027375168 0.70296764 0.27058509 0.65773869 0.00089593191
-0.0030357086 0.07200706 -0.00019662573 -0.50315905 0.66427422 -0.55278468 0.0012322862
-0.0010644339 0.072815843 -0.0011933476 -0.4996109 0.68428427 -0.53117228 0.0011740966
0.001100486 0.073846884 -0.0018570364 -0.48766145 0.73167294 -0.47627836 0.0015910423
0.00337972 0.074759461 -0.0026557364 -0.4497925 0.80660033 -0.38351348 0.0023915407
0.038360294 0.074079029 -0.00064601266 0.56302238 0.42377472 0.70952153 0.0022737964
0.040450882 0.073330574 -0.0020869568 0.64461809 0.39535743 0.65433937 0.0027395219
0.0024320909 0.075250261 -0.00048229887 -0.42014471 0.839719 -0.34402099 0.0032678389
0.0042125992 0.075849235 -0.0010705856 -0.4276616 0.81275022 -0.39565456 0.0020699101
0.0075836238 0.076982543 -0.0016902407 -0.33033442 0.91621888 -0.22676474 0.0021115697
0.0099426843 0.077750891 -0.0014658247 -0.29847503 0.94407487 -0.14012598 0.0032032654
0.032754604 0.077780485 -7.0762428e-05 0.29993787 0.65988582 0.68890351 0.0021228164
0.03497009 0.077295557 -0.00067430193 0.41140366 0.64476764 0.64422184 0.0054120002
0.037450988 0.076444238 -0.0015905747 0.52785158 0.57082707 0.62891108 0.0049399356
0.039436225 0.075575814 -0.0024951401 0.58574867 0.54471618 0.60015237 0.0043774908
0.011420366 0.078180552 -0.0014676945 -0.28172606 0.94967479 -0.13692392 0.0019488996
0.013771792 0.078685701 -0.0011959024 -0.1661166 0.98512369 0.044006053 0.0020495818
0.016413724 0.079184376 -0.0014825911 -0.1184382 0.98203629 0.14689136 0.0027544138
0.019420357 0.079571784 -0.0015938516 -0.087911099 0.97033983 0.22519402 0.0032089602
0.022624755 0.079858422 -0.0016838528 -0.043632086 0.95423555 0.29585618 0.003508281
0.025467658 0.079834461 -0.0014183945 -0.017514735 0.93847078 0.34491411 0.0034519255
0.028190762 0.079786777 -0.0015779878 0.027741874 0.91278046 0.4075073 0.0024310076
0.03166274 0.079372704 -0.0016222838 0.21816686 0.81978989 0.52947873 0.0031248326
0.034365378 0.078854278 -0.0021301147 0.34640643 0.78684354 0.510764 0.0043198615
0.036361657 0.078137666 -0.0024890976 0.45956108 0.70245373 0.54347241 0.0041925712
0.014159615 -0.078156255 0.00081945723 -0.094509855 -0.97534138 0.19944176 0.0023066269
0.016322039 -0.078287333 0.0011046381 -0.058360837 -0.96612006 0.25140831 0.0018910401
0.019382522 -0.078429952 0.0010706245 -0.016863102 -0.94976562 0.31250745 0.0019487321
0.022214206 -0.078437537 0.00095138355 0.0093233408 -0.93190801 0.36257496 0.0031192948
0.024837205 -0.078378879 0.00066846126 0.043926649 -0.90373403 0.42583477 0.0020284669
0.028315376 -0.07820598 0.00034316772 0.13309649 -0.83399606 0.53547734 0.0019227475
0.0019494385 -0.075344361 0.0017254242 -0.41547263 -0.8773303 -0.24015439 0.0077625643
0.0044372487 -0.076094769 0.0012850362 -0.32515955 -0.9223724 -0.20856731 0.0033351809
0.0076140817 -0.076981723 0.0014236153 -0.22735909 -0.97313714 -0.036220938 0.0039631836
0.010860492 -0.077567883 0.0018474591 -0.13078663 -0.98032844 0.14782114 0.0029017942
0.013080306 -0.077862546 0.0018048683 -0.076301657 -0.97741628 0.19706723 0.0022614608
0.016097987 -0.077872664 0.0026395347 -0.03518514 -0.96604365 0.25597206 0.0017489493
0.019525176 -0.077827521 0.0026178292 0.020221436 -0.92899436 0.36954093 0.0024588408
0.022541523 -0.077688083 0.0025382629 0.090845592 -0.88702232 0.4527013 0.0024158657
0.025532013 -0.07734742 0.0022903099 0.11681625 -0.85309243 0.5085147 0.0020215805
0.028382231 -0.077290662 0.0014977434 0.15056831 -0.81116027 0.56510907 0.0020598082
0.031406779 -0.076306134 0.00146466 0.27370968 -0.65006655 0.70886981 0.0033043646
0.034064509 -0.075796828 0.00071646745 0.38417807 -0.60256815 0.69951326 0.004935191
-0.0033218758 -0.072248049 0.0029820153 -0.43329796 -0.8153224 -0.38406035 0.0086353291
-0.00068820728 -0.073823899 0.0015183757 -0.52567011 -0.77799892 -0.34407654 0.0040372727
0.00096998113 -0.074522227 0.00064746343 -0.50966638 -0.77864969 -0.36598471 0.0036012668
0.032331437 -0.074318208 0.0025338724 0.42122328 -0.40045288 0.81376189 0.0033795873
0.034585789 -0.073541492 0.0017609112 0.47404191 -0.37712616 0.79565078 0.002578066
0.037003245 -0.073050551 0.00055717502 0.53788054 -0.35190189 0.76606107 0.0022453552
-0.012053564 -0.069230765 0.0029310819 -0.33644727 -0.87480474 -0.3485972 0.011544532
-0.0099744843 -0.069370806 0.0023402197 -0.35665247 -0.75065732 -0.55615878 0.0073964479
-0.0075328094 -0.069705456 0.0013149555 -0.39619181 -0.72304642 -0.56589395 0.0041622948
-0.0050878222 -0.070587248 0.00097084395 -0.46036959 -0.72205132 -0.51643175 0.0032270178
-0.0025833738 -0.071660861 0.0014669738 -0.55006504 -0.78320134 -0.2898691 0.006246849
0.035237797 -0.070656814 0.0023852545 0.50759041 -0.22103813 0.83276296 0.00040552244
0.037475776 -0.070469111 0.0010123069 0.54551715 -0.23038159 0.80581349 0.0007200141
0.039203953 -0.069830589 1.0821433e-05 0.59207731 -0.23154509 0.77190119 0.00050642824
-0.018490873 -0.066260889 0.0028156238 -0.22670633 -0.78818369 -0.57216311 0.0018214243
-0.016070332 -0.066584565 0.0024194859 -0.25221595 -0.74189943 -0.62126672 0.0016492492
-0.013353144 -0.067190461 0.001874608 -0.3150999 -0.71677279 -0.62205219 0.0042929179
-0.010669005 -0.067866273 0.0011876809 -0.36977342 -0.68453151 -0.62823898 0.0037672201
-0.008161691 -0.068527251 0.00041447705 -0.42377031 -0.6565811 -0.62395507 0.0029543645
0.0357095 -0.068029366 0.0026846346 0.5154891 -0.16272201 0.84130412 9.038538e-05
0.037515715 -0.06751091 0.0016414262 0.54485548 -0.17133421 0.82083923 0.0002464054
0.039527394 -0.067088105 0.00036824902 0.5866124 -0.17741172 0.7901969 0.00044799189
-0.030475877 -0.063115187 0.0026675658 -0.20465945 -0.86448276 -0.45911232 0.0015608046
-0.028368199 -0.063369907 0.0024659401 -0.18474397 -0.83084404 -0.52494544 0.00043929406
-0.025396595 -0.063658349 0.0019622575 -0.17612426 -0.80660594 -0.56424022 0.00034868217
-0.022416664 -0.064074166 0.0016022638 -0.17963935 -0.78884208 -0.58775669 0.00033143858
-0.019417055 -0.064683698 0.0014726889 -0.2131888 -0.75918627 -0.6149689 0.00086622447
-0.01664927 -0.065109275 0.00099972181 -0.24117304 -0.71815556 -0.65275431 0.00062731467
-0.013708587 -0.065623142 0.00038429891 -0.3031826 -0.68057638 -0.66700536 0.00050975103
0.037680484 -0.06458208 0.0020614062 0.53901881 -0.13608567 0.83122766 0.00015139778
0.039792486 -0.064386651 0.00069322577 0.57530749 -0.13812698 0.80618989 0.00031572412
-0.042675141 -0.060243454 0.0025742466 -0.26049986 -0.92156553 -0.28784865 0.0047216043
-0.04034568 -0.060413998 0.0017591305 -0.21118847 -0.9066655 -0.36518091 0.00056101597
-0.037404198 -0.060975831 0.0015727581 -0.19073094 -0.89808869 -0.39630589 0.00045165219
-0.034472119 -0.061525494 0.0015101327 -0.18278958 -0.88577551 -0.4266026 0.00069505518
-0.031446222 -0.061992977 0.0012670255 -0.17061581 -0.86434889 -0.47306573 0.0010717831
-0.02858302 -0.0624029 0.0010818356 -0.15288319 -0.83870798 -0.52268112 0.0006189103
-0.025818244 -0.062535487 0.00050351472 -0.15213002 -0.81370765 -0.56101364 0.00059065566
-0.022491295 -0.062936984 0.00027019542 -0.15387611 -0.77687651 -0.61056125 0.00034826144
0.038007386 -0.061658073 0.0022732425 0.54309517 -0.097678445 0.83397037 0.0002014036
0.04020302 -0.061314479 0.0008551171 0.58614105 -0.098067529 0.80425215 0.00049802335
-0.051344115 -0.057175774 0.0017103622 -0.83678079 -0.48955098 -0.24522991 0.039432425
-0.04904722 -0.057723735 0.0019023499 -0.3469933 -0.86693221 -0.35780469 0.0093841394
-0.046672303 -0.058174562 0.0010959147 -0.30506003 -0.86172968 -0.40541363 0.0059039141
-0.043651789 -0.059291098 0.001083746 -0.27984977 -0.87471533 -0.39567307 0.0028853433
-0.040905882 -0.059709292 0.00031780967 -0.19755088 -0.90643549 -0.37329394 0.00049094862
0.038200919 -0.058531038 0.0024642907 0.55981052 0.0019989477 0.82861829 0.0013023781
0.040326729 -0.05840683 0.00099055679 0.6096406 0.028772293 0.79215562 0.0022354061
-0.051752347 -0.055527989 0.0015492798 -0.91045082 -0.35486427 -0.21248685 0.030744812
-0.047620449 -0.056993142 8.4148414e-05 -0.31099784 -0.87910771 -0.36117867 0.0029476548
0.038013354 -0.055339843 0.0022561839 0.57283235 0.19093925 0.79712313 0.0026170227
0.040034637 -0.055518359 0.0007972208 0.6132533 0.23151611 0.75519586 0.003771231
-0.052219991 -0.052483439 0.0015403976 -0.97821558 -0.1256011 -0.16528372 0.0013469147
0.035446331 -0.051675972 0.0026589336 0.56709468 0.45108521 0.6891486 0.0037795852
0.037506104 -0.052344479 0.0014262495 0.57307112 0.47190547 0.66999608 0.0022068811
0.039548114 -0.05311802 0.00027211601 0.6014902 0.49535096 0.6267671 0.0022405796
-0.052373916 -0.049512371 0.001517462 -0.98955804 0.0037819827 -0.14408523 0.0017956378
0.032511245 -0.048501819 0.002575259 0.54608023 0.61590987 0.56784803 0.001109381
0.034599416 -0.049382381 0.0015203727 0.5369935 0.60690165 0.58592522 0.0052830512
0.036796503 -0.050334923 0.00052638201 0.53980863 0.58724034 0.6031214 0.00263558
-0.052259222 -0.046476841 0.0015011929 -0.97422272 0.14989424 -0.16858774 0.01070353
0.029061735 -0.045494124 0.0017744168 0.47892064 0.7962963 0.36952296 0.0021474764
0.031185949 -0.046563894 0.0011798757 0.49082726 0.77184743 0.40415367 0.0032751746
0.033515781 -0.047740575 0.00060072792 0.50465989 0.70849669 0.4933061 0.003134401
-0.051488802 -0.042755827 0.0014981878 -0.59382707 0.71751761 -0.36405757 0.022063216
-0.049448941 -0.042377036 0.0010405208 -0.23996148 0.86951238 -0.43170199 0.016449286
-0.047089525 -0.042428862 0.0008922944 -0.2955116 0.80943108 -0.5074389 0.022875292
-0.04456459 -0.042632718 3.7803547e-05 -0.36580461 0.72277951 -0.58632481 0.032674007
0.02317155 -0.042410128 0.0018544721 0.39978069 0.90260732 0.15961036 0.0027554205
0.025472779 -0.043393798 0.0013972409 0.41159165 0.88839203 0.20335163 0.0025238958
0.02796131 -0.044503301 0.00092101953 0.44670698 0.84901553 0.28217974 0.0027044744
-0.051371668 -0.041787874 0.0027862366 -0.45146093 0.8093968 -0.37557954 0.021881167
-0.049458403 -0.041535918 0.0027956797 -0.33046743 0.83953321 -0.43124861 0.020404432
-0.046456873 -0.040517241 0.0015357512 -0.37508506 0.80056316 -0.46734336 0.015327552
-0.043730315 -0.039721791 0.0013486174 -0.45425943 0.78484821 -0.42149934 0.021119144
-0.041473124 -0.039354101 0.0027734269 -0.60334706 0.76087576 -0.23883155 0.0355657
-0.0041740658 -0.039101236 9.1684786e-05 0.047491454 0.42210838 -0.9053005 0.0038523059
-0.0014779423 -0.039280355 0.00015598055 0.057108477 0.50173312 -0.86313528 0.0056544119
0.0017932859 -0.039251141 0.00026639694 0.085903682 0.58900523 -0.80355048 0.017443942
0.0043895436 -0.039247282 0.00038197479 0.012040981 0.79769725 -0.602938 0.013053196
0.0072435075 -0.039100505 0.00029328256 -0.016091509 0.86932546 -0.49397808 0.004743007
0.010731416 -0.039134156 0.00033234392 0.057404414 0.93775797 -0.34251249 0.0038416751
0.013775979 -0.039301641 0.0011678925 0.17311329 0.96509898 -0.19650888 0.0037218952
0.016278742 -0.039869465 0.0013184779 0.25841299 0.9595111 -0.11207628 0.0035973222
0.019252716 -0.040779982 0.0014236398 0.30577683 0.95209193 -0.004612627 0.002089612
0.02170822 -0.041644085 0.00098896469 0.33669007 0.94085908 0.037736408 0.0022321353
-0.042338248 -0.038464159 0.0021172136 -0.71374702 0.64791286 -0.26603416 0.026750127
-0.041586883 -0.037993319 0.00074434653 -0.73597449 0.49205816 -0.46499497 0.037439149
-0.0096977316 -0.036950871 7.3847019e-05 0.073669061 0.088530488 -0.9933455 0.0037305998
-0.0069598611 -0.036969021 0.00016925669 0.070894606 0.11913645 -0.99034369 0.0041263034
-0.0044083437 -0.037162896 0.00023729488 0.091253363 0.14862929 -0.98467356 0.0060289451
-0.0014769059 -0.037492752 0.00040540475 0.11013355 0.23016469 -0.96689969 0.0069227219
0.001592049 -0.037508301 0.00097340252 0.21449572 0.38970503 -0.89561242 0.030063272
0.0043762014 -0.037949201 0.0019162751 0.24217726 0.7101441 -0.66109425 0.048664726
0.0075441953 -0.038400955 0.0017030298 0.084919274 0.90438777 -0.41817638 0.0061310679
0.010457757 -0.038639758 0.0016859194 0.12075204 0.94751084 -0.29604414 0.0036502008
0.012708888 -0.038890216 0.0020725692 0.195213 0.95593524 -0.21927068 0.0037068357
-0.040670063 -0.034417544 0.0016745165 -0.94816399 0.1422839 -0.28414863 0.015766293
-0.0095217768 -0.035145521 3.678435e-05 0.079775028 -0.015708985 -0.99668914 0.00063744944
-0.0071105482 -0.034645408 0.00011007711 0.092080645 -0.018813591 -0.99557376 0.00027371506
-0.0044552069 -0.03458868 0.00026193459 0.098015353 0.0079920795 -0.99515283 0.0007557965
-0.0015574247 -0.034448672 0.00051196688 0.13718215 0.030230975 -0.99008441 0.0013820709
0.0015555036 -0.034490179 0.0012640805 0.49808824 0.081424832 -0.8632949 0.034278058
0.0033427707 -0.034416795 0.0024805909 0.83783537 0.13303235 -0.52946603 0.030587589
-0.040491451 -0.031432781 0.0019879311 -0.97175467 0.016680583 -0.23540288 0.0022517557
-0.0066515855 -0.032127507 5.0496026e-05 0.10727858 -0.035145961 -0.99360758 3.3310567e-05
-0.0043735038 -0.031444289 0.00024400695 0.12779848 -0.02747621 -0.99141949 0.00092543254
-0.0015890083 -0.031451687 0.00048017068 0.16053006 -0.012643486 -0.98694998 0.00090890122
0.0014061634 -0.031405121 0.0011883533 0.49277073 -0.0026924226 -0.87015498 0.026531927
0.0033282004 -0.031571466 0.0024629359 0.87565535 0.003958534 -0.48292035 0.020045891
-0.040352765 -0.028425068 0.001827641 -0.96827918 0.0062117041 -0.24979363 0.0040941299
-0.00661537 -0.028710671 6.7350076e-05 0.12176973 -0.031162841 -0.99206907 4.0466301e-05
-0.0040659257 -0.028525811 0.00021898416 0.14055668 -0.019161625 -0.98988724 0.00020669855
-0.0014838518 -0.028580483 0.00047009639 0.17322256 -0.0088608004 -0.98484284 0.00075753633
0.001574148 -0.028518062 0.0012551841 0.48380759 -0.012035968 -0.87509161 0.029650575
0.0033119523 -0.028509695 0.0024147567 0.83222651 0.0027469615 -0.55442894 0.029837117
-0.040276445 -0.025453815 0.0016273456 -0.96777588 0.01301558 -0.25147626 0.0034942373
-0.0063414248 -0.025634654 4.8280748e-05 0.13601431 -0.026389964 -0.99035531 2.1501814e-05
-0.0039083953 -0.025561415 0.00016555333 0.14225727 -0.016830279 -0.98968667 5.9886046e-05
-0.0016095819 -0.025522172 0.00046193055 0.19632487 -0.011786183 -0.98046803 0.0016511343
0.0015270059 -0.025500476 0.0012379071 0.48662031 -0.011416799 -0.87353891 0.029405475
0.003300946 -0.025566528 0.0024022739 0.87500262 0.00053936371 -0.48411775 0.021265835
-0.040218949 -0.022396289 0.0014762006 -0.96539354 0.026959945 -0.25940019 0.0027751757
-0.0062850728 -0.023752376 1.0115503e-05 0.14454541 -0.025864385 -0.98916012 3.5122892e-05
-0.003850362 -0.022745686 0.00012804946 0.15538974 -0.016008113 -0.98772347 9.2996961e-05
-0.0014972297 -0.022355849 0.00044447955 0.2062383 -0.011948462 -0.9784289 0.0030220144
0.0015505119 -0.02250501 0.0012460004 0.45989662 -0.0040142843 -0.88796341 0.028705679
0.0032878018 -0.022437571 0.0023863388 0.86880261 -0.0031038746 -0.49514881 0.020710176
-0.040219564 -0.019473696 0.0014771363 -0.95298684 0.035587281 -0.30091465 0.0024527742
-0.0038920429 -0.019564431 0.00013711632 0.16276474 -0.015102147 -0.98654932 2.5040392e-05
-0.0013846433 -0.019458203 0.00044241527 0.21813904 -0.015877986 -0.97578853 0.0031575626
0.0015762093 -0.019502005 0.0012499065 0.46333218 -0.0013960127 -0.88618362 0.028729109
0.0032771279 -0.01949509 0.0023741131 0.86182886 0.0017626402 -0.50719619 0.024928186
-0.040240709 -0.016520863 0.0015317285 -0.93234754 0.014299801 -0.36128044 0.0023196361
-0.0036713895 -0.016581042 0.00012638053 0.17506257 -0.016928151 -0.98441178 3.8098562e-05
-0.0013895753 -0.016485682 0.00042412212 0.23271158 -0.016219776 -0.97241044 0.003943956
0.0015095794 -0.016463814 0.0011997953 0.46687934 -0.0095576057 -0.88426942 0.027094243
0.0033499678 -0.016516924 0.0024511719 0.88371551 -0.0055784076 -0.46799135 0.020119069
-0.040256634 -0.013486701 0.0015725276 -0.9327094 -0.0029055662 -0.36061704 1.9420706e-05
-0.003746199 -0.013472475 9.3371826e-05 0.18928565 -0.019683303 -0.98172474 4.5479832e-05
-0.0013484821 -0.013476721 0.00040892596 0.24014097 -0.011571894 -0.97066903 0.0030531206
0.0015470966 -0.013479576 0.0012000501 0.45873266 -0.0053149052 -0.88855839 0.025705045
0.00333838 -0.013435054 0.0024374661 0.88172889 -0.0016370044 -0.47175363 0.019819971
-0.040231179 -0.010499637 0.0015054833 -0.92125487 -0.0076586585 -0.38888407 0.0021627934
-0.0035799204 -0.011138053 7.7465476e-05 0.20186839 -0.022718756 -0.9791491 4.8777962e-05
-0.0012405686 -0.01043597 0.00040073655 0.25725061 -0.010052633 -0.96629238 0.0031378062
0.0015976425 -0.010489217 0.0012142794 0.46855342 -0.001206408 -0.88343441 0.025751943
0.0033270142 -0.01044441 0.0024239537 0.88141084 -0.0016742717 -0.4723475 0.019424303
-0.040226076 -0.0075289947 0.001490592 -0.897102 -0.046620194 -0.43935692 0.0091555351
-0.0034606652 -0.0078509226 0.00011997609 0.21684302 -0.024246966 -0.9759053 5.6285331e-05
-0.0011757629 -0.0074575562 0.00037682665 0.26777238 -0.017993199 -0.96331418 0.0028373636
0.0016674359 -0.0074720159 0.0012409342 0.48263109 -0.0050537065 -0.87580907 0.02642295
0.0033128317 -0.0073758909 0.002407212 0.88160515 0.0023119331 -0.47198203 0.01953572
-0.042098258 -0.003812144 0.0028325757 -0.84783393 -0.058406301 -0.52703542 0.0058639259
-0.04076061 -0.0044392548 0.001783389 -0.90748745 -0.066533759 -0.4147768 0.007993659
-0.0033490956 -0.0047020577 0.00010513923 0.23307447 -0.024107737 -0.97216004 4.6961759e-05
-0.0010925424 -0.0046366295 0.0003664665 0.28690106 -0.01366144 -0.95786279 0.0027988835
0.0016268361 -0.0045179822 0.001221663 0.49217907 -0.005831291 -0.87047452 0.025347888
0.0032928481 -0.0045701279 0.0023254971 0.82562852 -0.003820047 -0.56420118 0.021398887
-0.042152554 -0.0013418524 0.0026785326 -0.78469288 -0.033978045 -0.61895287 0.010696576
-0.041017435 -0.0014562131 0.0020986074 -0.8993172 -0.037190501 -0.43571252 0.0080725765
-0.0030507992 -0.0023783869 0.00012217608 0.25582999 -0.018717384 -0.96654063 9.4125804e-05
-0.0011142044 -0.0015526502 0.000316249 0.28832307 -0.007892143 -0.9575007 0.001539872
0.0016148398 -0.0014994527 0.0012193545 0.50158685 -0.0024111778 -0.86510402 0.0247311
0.0032628679 -0.0014712843 0.0022930475 0.83645225 0.011311187 -0.54792297 0.023088176
-0.042125564 0.0015613934 0.0026087684 -0.8581425 0.018409073 -0.51308155 0.01433817
-0.041067742 0.0015660612 0.0022884246 -0.89758956 0.011343587 -0.44068614 0.006860049
-0.0010730987 0.0014847753 0.00030881623 0.29267833 0.00031352922 -0.95621091 0.0011909412
0.0015981683 0.001485119 0.0012125518 0.52993828 -0.0096010054 -0.84798181 0.020186678
0.0032250786 0.0016818967 0.0022400874 0.78835511 0.0097894231 -0.61514246 0.020149745
-0.042194653 0.0035774184 0.0027877486 -0.77850127 0.084880486 -0.62187713 0.0092373099
-0.040829871 0.0044771121 0.0022233678 -0.89691609 0.088253893 -0.43330452 0.0096283713
-0.0030361686 0.0057116603 7.6523254e-05 0.25468245 0.017813491 -0.96686059 3.8749888e-05
-0.0010744515 0.0044912063 0.00032677283 0.29283905 0.0091442307 -0.95611799 0.0014223581
0.0016826211 0.0044648061 0.0012608377 0.5185957 0.0025105169 -0.85501587 0.020293487
0.0032341292 0.0044318768 0.0022799349 0.82319951 0.0018605393 -0.56774914 0.019137794
-0.040221781 0.0075329556 0.0014738027 -0.89887136 0.054586615 -0.43479934 0.0070063076
-0.0031907205 0.007631781 8.6061918e-05 0.24273127 0.020961313 -0.96986711 3.3485361e-05
-0.0010816412 0.0075304988 0.00036434256 0.29139382 0.0094794724 -0.9565562 0.0026731545
0.0016112594 0.0074679181 0.0012341542 0.47212473 -0.0068414882 -0.88150525 0.022097176
0.0032740713 0.00737077 0.0023196228 0.82160777 0.00044467859 -0.5700531 0.018809253
-0.040241655 0.010500348 0.0015241095 -0.9186368 0.0047817081 -0.39507413 0.0021038123
-0.0033245529 0.010757148 0.00012830712 0.22636132 0.021470228 -0.97380674 5.9051403e-05
-0.0011190398 0.010456338 0.00038407088 0.2699227 0.01195578 -0.96280777 0.0019936645
0.001597938 0.01046971 0.001228755 0.46726102 -0.0094665186 -0.88406873 0.023325929
0.0032430319 0.010685238 0.0023339675 0.85615981 -0.005719359 -0.51667941 0.024658531
-0.040228073 0.013522985 0.0014869944 -0.93196321 0.0041128392 -0.36252937 4.3864009e-05
-0.0035343433 0.013560604 0.00014138053 0.21117568 0.019489089 -0.97725379 7.7035897e-05
-0.0011890874 0.013425115 0.00039798161 0.25628263 0.0067519192 -0.9665783 0.0021192781
0.001505936 0.013506107 0.0011848693 0.43092123 -0.0034885623 -0.90238285 0.021480912
0.0032517677 0.013487962 0.0023401815 0.87496459 -0.00059803942 -0.48418641 0.022463189
-0.040225271 0.016527725 0.0014784021 -0.93750876 -0.014654212 -0.34765279 0.00041146518
-0.0035122791 0.017069053 9.1900023e-05 0.18990225 0.023400934 -0.98152405 0.00011277484
-0.0012082404 0.016559588 0.00040152235 0.24389333 0.0078012133 -0.96977067 0.0022047746
0.0014773426 0.016470432 0.0011758293 0.43923014 0.011208905 -0.8983047 0.022952206
0.0032611724 0.016476022 0.0023475501 0.87219441 0.0038591786 -0.48914418 0.022294678
-0.040247772 0.01951584 0.0015363592 -0.95115703 -0.035023794 -0.3067143 0.0024683976
-0.0035726018 0.019626448 0.00013983091 0.17287813 0.029215641 -0.98450989 0.00018905337
-0.0013874803 0.019570189 0.00041944557 0.22126186 0.018795742 -0.97503328 0.0023450349
0.0015381046 0.019537434 0.0011879504 0.49794605 0.0040598321 -0.86719847 0.025825577
0.0032325387 0.019467875 0.002317033 0.8712123 0.0038213995 -0.49089155 0.022614535
-0.040254202 0.022472024 0.0015523313 -0.96444714 -0.036312234 -0.26176944 0.0028301629
-0.0038667652 0.022710206 0.00013487038 0.15397032 0.035050046 -0.98745364 0.00012080573
-0.0014286224 0.022457657 0.00044614993 0.20437795 0.018881395 -0.97871 0.0025093984
0.001526489 0.022517594 0.0011843907 0.48896295 0.0039958679 -0.87229544 0.02616141
0.003204741 0.022486808 0.0022896721 0.87368125 -0.0018445669 -0.48649526 0.022248877
-0.040325861 0.02546352 0.0017385469 -0.97092396 -0.015606993 -0.2388791 0.003061916
-0.0065681767 0.026027048 7.1800081e-05 0.12919873 0.037621297 -0.99090481 7.5649339e-05
-0.0042276029 0.025559803 0.00022710674 0.14108858 0.028608631 -0.98958355 0.00029257711
-0.0013698896 0.025471311 0.00047935842 0.22024995 0.0055817082 -0.97542757 0.0039900718
0.0015938914 0.025498064 0.0012141528 0.46805856 0.010613047 -0.88363379 0.024369337
0.0032114955 0.025457494 0.0022985539 0.85458589 0.0026722781 -0.5193032 0.025720198
-0.040389612 0.028395221 0.0019039516 -0.97011161 -0.0078499345 -0.24253242 0.0029587168
-0.0068705706 0.028778903 9.2969451e-05 0.11812092 0.031370193 -0.99250358 7.0865412e-05
-0.0043771425 0.028457567 0.00022541304 0.12908046 0.018815191 -0.99145561 0.00025234048
-0.0015151105 0.028462343 0.00042697333 0.18632714 0.0062793666 -0.98246765 0.0022745756
0.0015003893 0.02848099 0.0011707996 0.46847731 0.02002725 -0.88324851 0.023441851
0.0032510872 0.028513735 0.0023057617 0.8525393 0.0088716093 -0.52258784 0.023757456
-0.0404814 0.031427283 0.0018948839 -0.96612191 -0.0087557277 -0.25793746 0.0057677045
-0.0095711006 0.03293705 5.5699584e-06 0.10173752 0.036604248 -0.99413764 1.1812563e-05
-0.0068148598 0.031812873 9.7815944e-05 0.10555882 0.030456554 -0.99394655 6.3609601e-05
-0.0043634088 0.031581558 0.00023536012 0.11326954 0.018511044 -0.99339187 0.00019025692
-0.0015011891 0.031392828 0.00043999025 0.15169591 0.0095724883 -0.98838085 0.00094308268
0.001478767 0.031435236 0.0011589491 0.47115287 0.0014909115 -0.88205028 0.022229755
0.0032935385 0.031550121 0.0022983046 0.8514213 -0.0052462411 -0.5244562 0.023101389
-0.040617455 0.034461956 0.0015765292 -0.94972855 -0.11475483 -0.29128495 0.01388188
-0.0097638993 0.034570657 3.0066296e-05 0.099226989 0.033285309 -0.99450797 7.0818173e-06
-0.007174124 0.034496646 8.1855978e-05 0.090013258 0.013659702 -0.99584687 5.5101806e-05
-0.0044127912 0.034448281 0.00020908957 0.098442689 -0.0080584092 -0.99511009 0.00051025272
-0.001516766 0.03452893 0.00041465292 0.14084461 -0.028463818 -0.98962241 0.0012563751
0.0015761226 0.034511875 0.0011817527 0.48523349 -0.059212107 -0.87237746 0.025590796
0.0032691974 0.034677751 0.0022411202 0.7817378 -0.13670169 -0.60843945 0.024467796
-0.042403474 0.038482089 0.0024173141 -0.70943594 -0.63673919 -0.30209893 0.02153757
-0.041318316 0.037410121 0.0011098147 -0.86305457 -0.34003311 -0.37351614 0.028701203
-0.0070909457 0.037086856 7.5057738e-05 0.087936938 -0.073455252 -0.99341404 0.0024811423
-0.0043811672 0.037447628 0.00020057324 0.070340544 -0.13312453 -0.98860002 0.00487852
-0.0014876194 0.037621796 0.00035680798 0.11542299 -0.19219851 -0.9745447 0.0070801941
0.0016308002 0.037485015 0.00099135144 0.27405128 -0.31924993 -0.90717989 0.033862863
0.0041465163 0.03792822 0.002102012 0.42066294 -0.56478053 -0.70997572 0.055780489
0.0073251892 0.038599137 0.0022170846 0.12590872 -0.89651608 -0.42474225 0.0059731724
0.0098756533 0.038755454 0.0025170061 0.17796175 -0.94303298 -0.2811023 0.0042396588
-0.051358823 0.041982744 0.0027889346 -0.27934799 -0.90412223 -0.32330754 0.026677998
-0.048338678 0.040904511 0.0026284093 -0.32237679 -0.83358681 -0.4485603 0.014678988
-0.046466462 0.04081269 0.0016815778 -0.370262 -0.82483357 -0.42726523 0.015184158
-0.043757319 0.040143494 0.001398938 -0.41223803 -0.81167412 -0.41381764 0.017021224
-0.041713584 0.039428931 0.00035592765 -0.54197723 -0.69887638 -0.46672532 0.035539098
-0.0031759941 0.03901165 8.6495573e-05 0.062931567 -0.18489064 -0.9807421 0.0057342695
-0.0010213034 0.039311599 0.00014263252 0.074223198 -0.44714391 -0.89137721 0.0059187845
0.001742749 0.039480019 0.000282341 0.10484479 -0.60299671 -0.790824 0.015132199
0.0045626326 0.039465591 0.00060345844 0.054686565 -0.78826147 -0.61290562 0.018064789
0.0075275637 0.039351862 0.00059206435 0.016728129 -0.8859883 -0.46340573 0.0052820356
0.010601403 0.039329194 0.00098548864 0.085693322 -0.94914359 -0.30295721 0.006075887
0.013372522 0.039639503 0.0014461349 0.18192536 -0.95897335 -0.21742408 0.0038662511
0.01640529 0.040362772 0.0014441586 0.23992014 -0.96286297 -0.12382782 0.0027273872
0.019364607 0.041346271 0.0015932639 0.32053146 -0.94701463 0.020563647 0.0025956265
0.021286514 0.041944932 0.00064724393 0.3289507 -0.94404352 0.023942804 0.0026467901
-0.051486678 0.043185662 0.0014914282 -0.61061746 -0.71612537 -0.33809879 0.033383224
-0.049488787 0.042696025 0.0013803511 -0.27414429 -0.86175346 -0.42687929 0.018023422
-0.047034033 0.042776506 0.0008255344 -0.33947664 -0.79804754 -0.4978711 0.018385384
0.020737611 0.042000797 0.0024277451 0.44811809 -0.86699092 0.21798371 5.9918355e-05
0.022567078 0.04258056 0.0016425678 0.3670809 -0.92555857 0.092697851 0.0013533616
0.025506195 0.043926887 0.0014704847 0.41026607 -0.88435888 0.22269036 0.0029020575
0.027483013 0.044744447 0.00087407668 0.43485537 -0.85673559 0.2773172 0.0029329106
-0.052255612 0.046632484 0.0016842732 -0.93833989 -0.27767304 -0.20595136 0.026087705
0.028744539 0.045664601 0.0014153764 0.46004361 -0.82571328 0.32643136 0.0014985322
0.031184075 0.047117747 0.0013288772 0.50120145 -0.74165332 0.44581097 0.0034243558
0.03315334 0.047822416 0.00034864128 0.48842901 -0.72942203 0.47893694 0.0042217919
-0.052400272 0.049434096 0.0016552965 -0.98937857 -0.027282039 -0.14277823 0.0032021643
0.032376815 0.048691064 0.0022725735 0.54759187 -0.62179321 0.55992532 0.0019086028
0.034353618 0.049568787 0.001365365 0.53273004 -0.62193114 0.57393408 0.0043132855
0.036617011 0.050630026 0.00043731113 0.53637433 -0.60255474 0.59095711 0.0015615714
-0.052265808 0.052452803 0.001487908 -0.9803558 0.1102431 -0.16355102 0.0013701922
0.035464153 0.051770743 0.002311673 0.56244564 -0.48454314 0.66997975 0.0033142222
0.037504345 0.052522995 0.0011437132 0.56601769 -0.49220014 0.66133428 0.0034048916
0.039434485 0.053597309 0.00030165337 0.59553218 -0.44603515 0.66812736 0.0022449596
-0.051871601 0.055508543 0.0015773809 -0.93649364 0.30116788 -0.17965958 0.022341684
0.037962474 0.055397242 0.0021852404 0.57458723 -0.22160599 0.78787071 0.0023951151
0.039833359 0.055356491 0.00078806328 0.61650932 -0.32893863 0.715343 0.0029300682
-0.051379383 0.057559606 0.0018971019 -0.70775604 0.65910137 -0.2542966 0.022745419
-0.049410988 0.057708636 0.0008209502 -0.31920514 0.87819201 -0.35621178 0.0094309039
-0.046724394 0.058740292 0.0012550384 -0.32472342 0.86329484 -0.38636354 0.0042306054
-0.044605438 0.059716959 0.0011572731 -0.28644294 0.85793602 -0.42649296 0.0036893785
-0.041757122 0.059890501 0.00011284402 -0.18271296 0.91756094 -0.35312593 0.00029970481
0.038266048 0.058503635 0.0024373669 0.56551057 -0.024685949 0.82437152 0.0015562819
0.040394418 0.058488809 0.00094267039 0.6158635 -0.055154618 0.7859199 0.002372541
-0.043305665 0.060322102 0.0020072309 -0.26911953 0.88446128 -0.38118616 0.0016694939
-0.04051527 0.060734391 0.0013899305 -0.20212537 0.90406829 -0.37657121 0.00054849917
-0.037334062 0.061496641 0.0015970761 -0.19386014 0.89496821 -0.40180847 0.00036958442
