# .PCD v0.7 - Point Cloud Data file format
VERSION 0.7
FIELDS x y z normal_x normal_y normal_z curvature
SIZE 4 4 4 4 4 4 4
TYPE F F F F F F F
COUNT 1 1 1 1 1 1 1
WIDTH 566
HEIGHT 1
VIEWPOINT 0 0 0 1 0 0 0
POINTS 566
DATA ascii
0.021777214 0.032830734 -0.0085848542 -0.24407363 0.84205955 -0.48100278 0.001966099
-0.022248192 0.035561599 -0.0082899798 0.31252155 0.82802677 -0.46551251 0.0017188288
-0.019567532 0.035035979 -0.007499313 0.31282496 0.85177422 -0.42026317 0.00149341
-0.016443023 0.034118269 -0.0073503731 0.24248618 0.84519786 -0.47627833 0.0017074668
-0.013572014 0.033510685 -0.0070013786 0.22772019 0.86201662 -0.45284739 0.0018895306
-0.011192857 0.033191457 -0.0063538724 0.1987928 0.87294006 -0.44548529 0.0017609925
0.0196357 0.03329036 -0.0065744449 -0.23664001 0.86937398 -0.43380904 0.0019935379
0.022659915 0.033822935 -0.0072651398 -0.24725416 0.86599946 -0.43463826 0.0017738328
0.025566161 0.034547552 -0.0074841939 -0.27365282 0.85539132 -0.43979523 0.0027850892
0.02826282 0.035319842 -0.0076277493 -0.30259559 0.85461974 -0.42197275 0.0013785921
0.030722633 0.035739962 -0.0084423199 -0.3249332 0.80418193 -0.49770468 0.00067420799
-0.030262997 0.038779397 -0.0085775414 0.37863997 0.80647653 -0.45412248 0.0014967377
-0.028313054 0.038314193 -0.0078986362 0.35865936 0.81553131 -0.45417178 0.0018748506
-0.025535706 0.037386905 -0.0073807673 0.32946178 0.83179122 -0.44674179 0.0018679323
-0.022757515 0.036493424 -0.0069864374 0.3284958 0.83666134 -0.43827879 0.0016999206
-0.020782499 0.036118068 -0.0060418192 0.31207046 0.85193324 -0.42050189 0.0011300363
0.029034812 0.03619688 -0.0064240643 -0.30000973 0.88181174 -0.3638711 0.00041961085
0.031680275 0.03676603 -0.0072133522 -0.33047366 0.84197187 -0.42646283 0.0018306498
0.034497272 0.037856095 -0.0074802181 -0.39399105 0.80339301 -0.44646472 0.0024410435
0.036694665 0.038485996 -0.0081817415 -0.41056511 0.77530581 -0.47993454 0.0025346277
-0.036473412 0.041757144 -0.0086356141 0.39043853 0.76238787 -0.51606429 0.0014582287
-0.034286927 0.041204825 -0.0077663157 0.38571599 0.80062205 -0.45850575 0.0017047201
-0.031565364 0.040121563 -0.0073388861 0.3722676 0.80693161 -0.458561 0.0014385956
-0.029168017 0.039326493 -0.0066909809 0.38048598 0.82861751 -0.41063783 0.0014875355
0.03787823 0.039730169 -0.0071792812 -0.44684213 0.77979368 -0.43846771 0.0020649279
0.040401664 0.040925797 -0.0076350649 -0.45956069 0.7609241 -0.4580375 0.0024539372
0.042528402 0.041714672 -0.0083961468 -0.47238222 0.74638891 -0.4687843 0.0018840386
-0.042363457 0.044762589 -0.0086658094 0.38570055 0.75038272 -0.53680617 0.0019134913
-0.040196098 0.044206172 -0.0077645932 0.39622617 0.78291118 -0.47964048 0.0021338589
-0.037535205 0.043105479 -0.0073259091 0.41122204 0.79419047 -0.4473902 0.0019141119
-0.035180114 0.042292442 -0.0066184164 0.42157182 0.8054173 -0.41662949 0.0012294045
0.041351896 0.042253166 -0.0063783387 -0.45715711 0.77497834 -0.43636686 0.0010718908
0.043638468 0.043062478 -0.0073449826 -0.44971871 0.75901282 -0.47080004 0.0025251263
0.046143495 0.044238135 -0.0078621916 -0.44216129 0.74347889 -0.50172949 0.002887429
0.048063714 0.044772189 -0.0086617954 -0.37527323 0.68968958 -0.61927247 0.0011969218
-0.048879612 0.047843706 -0.0089023076 0.32529417 0.71238601 -0.62184393 0.001487613
-0.046195097 0.047305707 -0.0078317467 0.3699922 0.76920056 -0.5209955 0.0021111509
-0.043549743 0.046177585 -0.0074521564 0.38884771 0.77060646 -0.50493878 0.0017136886
-0.041388012 0.045557395 -0.0066128615 0.43893516 0.79185724 -0.42461514 0.001214803
0.047178641 0.045528267 -0.0068584457 -0.45046604 0.75267434 -0.48016855 0.0024318367
0.049548931 0.046520017 -0.0074618342 -0.4194822 0.73547542 -0.53208148 0.0023875688
0.052071467 0.047322713 -0.0082890401 -0.36203095 0.67239976 -0.64560986 0.0013220483
-0.054724384 0.050564241 -0.0086649721 0.22215897 0.67875552 -0.69995451 0.0021443807
-0.052104287 0.050138667 -0.0078222835 0.30584145 0.7548629 -0.58020949 0.0019063151
-0.049514018 0.049329437 -0.0072990963 0.34226519 0.77900666 -0.52536011 0.001922107
-0.047040109 0.048435386 -0.0067753745 0.41001391 0.77989453 -0.47291985 0.0019308983
0.05090997 0.048258834 -0.0061902259 -0.4960224 0.72380751 -0.47965047 0.0019762637
0.052702285 0.048753176 -0.0069974959 -0.4376474 0.73015416 -0.52472812 0.0022727223
0.055361714 0.049770519 -0.0075434092 -0.34440261 0.6974659 -0.62843305 0.0025407712
0.05810219 0.0503757 -0.0082677519 -0.25953817 0.62090993 -0.73966938 0.0026319914
0.06031451 0.050701857 -0.0087077394 -0.27244398 0.61194116 -0.74249732 0.0017695526
-0.064368151 0.052482832 -0.0084558083 0.16139004 0.67163521 -0.72309017 0.0028814517
-0.061368544 0.052910827 -0.0078891497 0.17717186 0.71408141 -0.67727244 0.0052868985
-0.058507789 0.052655727 -0.0074564237 0.20683338 0.72720391 -0.65451843 0.0055467193
-0.05563486 0.052023608 -0.0072488044 0.27427655 0.76699257 -0.5800817 0.0024561442
-0.05316291 0.05151863 -0.0066461712 0.33147374 0.76869559 -0.54702133 0.0035769274
0.056413356 0.051305681 -0.0064330921 -0.41879055 0.72040862 -0.55283451 0.0031447082
0.058604512 0.052013963 -0.006905992 -0.360517 0.69482958 -0.6222856 0.0031706458
0.061355352 0.05276724 -0.0074360487 -0.27091214 0.60761768 -0.74659711 0.0021517295
0.063601837 0.053580955 -0.0074854977 -0.29845408 0.59145355 -0.74907136 0.0022253448
-0.067425258 0.056002218 -0.006457617 0.17700292 0.64168394 -0.74626517 0.0012984641
-0.064363785 0.054884981 -0.0067500579 0.23751391 0.66853994 -0.70472795 0.0041424651
-0.061438743 0.054388296 -0.0064267563 0.20949434 0.71225309 -0.66993111 0.0051766983
0.062051982 0.054407857 -0.006382809 -0.36010435 0.642766 -0.67614841 0.0036649681
0.064518958 0.055062003 -0.0067138146 -0.40412942 0.57123452 -0.7144022 0.0050918036
-0.007368383 0.03275729 -0.0055503086 0.16188021 0.92957067 -0.33119971 0.002360211
-0.0042596851 0.032640096 -0.0046752039 0.1474572 0.93712622 -0.3163082 0.0020943158
-0.0013728914 0.03240402 -0.0044157533 0.105111 0.94658583 -0.30483925 0.0029712415
0.0015244619 0.03216381 -0.0045108018 0.044489022 0.95657414 -0.28807423 0.0026622096
0.0044244179 0.032083217 -0.0045426874 0.032459013 0.95301938 -0.30116537 0.0021643161
0.0073242346 0.032117799 -0.0045289914 -0.036583547 0.95902926 -0.28093508 0.0026009567
0.010461135 0.032373115 -0.004427956 -0.10555535 0.95161432 -0.28859702 0.0032180508
0.013379292 0.032634083 -0.0046953885 -0.15194449 0.94111747 -0.30201134 0.0024888485
0.015989624 0.032791674 -0.0055313585 -0.19768921 0.92722011 -0.31809103 0.0026921397
-0.018866647 0.035777453 -0.0053662276 0.30467173 0.90196794 -0.30598858 0.0026738148
-0.016398311 0.035380173 -0.0044833054 0.29767832 0.91405135 -0.2754955 0.0020706234
-0.013355761 0.034480378 -0.0044952561 0.24892767 0.91869289 -0.30665705 0.00266794
-0.0105106 0.033809148 -0.0043776995 0.19817379 0.93718356 -0.28707874 0.0022474679
-0.0077931019 0.033388615 -0.0041074869 0.15824437 0.94647497 -0.28132516 0.0024528194
-0.0051965779 0.033159938 -0.0034564065 0.12654111 0.94883233 -0.28931752 0.0024532541
0.014153754 0.033149887 -0.0034980464 -0.14558829 0.94959009 -0.2776376 0.0026783319
0.016685622 0.033401728 -0.0042180559 -0.19730444 0.94311035 -0.26760763 0.0022964976
0.019442774 0.034060676 -0.00434257 -0.23662633 0.93079543 -0.27861801 0.0022626542
0.022522619 0.034869023 -0.0045211203 -0.26927152 0.9251042 -0.26772198 0.0016042129
0.025288463 0.035594609 -0.0047016265 -0.2981073 0.91606563 -0.26824585 0.0018532436
0.027213486 0.035844661 -0.005634564 -0.27127889 0.91909426 -0.28578582 0.0024815223
-0.027331052 0.03878374 -0.0059961495 0.3718091 0.82735491 -0.42100111 0.001489473
-0.025188686 0.038413208 -0.0048042424 0.38643548 0.88289708 -0.26675913 0.0019097073
-0.022471674 0.037419859 -0.0043966412 0.33418307 0.90457749 -0.26469088 0.0015749226
-0.019748483 0.036507379 -0.0041127107 0.29541665 0.91647929 -0.26980478 0.002984798
-0.017865589 0.036100592 -0.0037251671 0.29377782 0.91233969 -0.28518575 0.0028999595
0.026359396 0.036219787 -0.0037637705 -0.28407797 0.92495388 -0.25250742 0.0020789793
0.028546808 0.036766905 -0.004327124 -0.3088609 0.91209835 -0.26959494 0.0022388489
0.031548824 0.037789483 -0.0045108711 -0.36803326 0.88968182 -0.27021793 0.0020853053
0.033804603 0.038660962 -0.0048987395 -0.41148189 0.86353457 -0.29153168 0.0027814289
-0.033446271 0.041855145 -0.0056027225 0.39383203 0.86748254 -0.30392486 0.0030947824
-0.031349473 0.041181158 -0.0046715192 0.4159103 0.86408269 -0.28351313 0.0025139009
-0.028510502 0.039935514 -0.0043758252 0.38531065 0.88201046 -0.27128059 0.0026777033
-0.026402218 0.039254133 -0.0038089673 0.36282301 0.89407676 -0.26265216 0.0020278085
0.034989201 0.039484732 -0.0040955576 -0.42409733 0.87085038 -0.24851781 0.0025365297
0.037472364 0.040654562 -0.0045301123 -0.45768717 0.84017891 -0.29089856 0.0035746354
0.039569173 0.041658752 -0.0051956424 -0.47934946 0.83077848 -0.28289774 0.0030517378
-0.039184425 0.044811238 -0.0055839471 0.44957104 0.81953788 -0.35530761 0.0043066642
-0.037396073 0.044255387 -0.0045840088 0.43506169 0.8522929 -0.2903758 0.0028057264
-0.034658562 0.042969219 -0.0043320153 0.42983821 0.86156625 -0.2700792 0.0024460205
-0.032540601 0.042172652 -0.0034994544 0.42219025 0.86927241 -0.2571398 0.0019569595
0.040831476 0.042751465 -0.0043522948 -0.50132293 0.82163078 -0.2712898 0.0024610742
0.043325219 0.044245191 -0.0046028122 -0.51208228 0.80401063 -0.30222285 0.0029663718
-0.045001183 0.047889218 -0.0058372794 0.44828042 0.8142336 -0.36887434 0.0043261242
-0.043122698 0.047325991 -0.0046937261 0.47770905 0.83193266 -0.28228012 0.0018639836
-0.040472209 0.045988191 -0.0043913433 0.4568167 0.84386426 -0.28144562 0.0025914265
-0.038455073 0.045189735 -0.0035668865 0.44568765 0.85590428 -0.26227921 0.0019160713
0.044603061 0.045455709 -0.0036279939 -0.53041542 0.78567624 -0.3183904 0.0024765739
0.046443138 0.046280533 -0.0045512617 -0.51708078 0.7957921 -0.31518617 0.0030170747
0.048722599 0.047591668 -0.004912368 -0.51486772 0.79424673 -0.32261956 0.0032642498
-0.048978634 0.050464995 -0.0047970004 0.43036109 0.83094996 -0.35257849 0.0035937396
-0.046578672 0.049330551 -0.0044252397 0.42266604 0.83770168 -0.34584564 0.0021632144
-0.044412024 0.048343953 -0.0039045424 0.45852491 0.83124703 -0.31429806 0.0028706114
0.049918097 0.048690666 -0.0041595506 -0.51268476 0.78726733 -0.34258515 0.003256761
0.052379724 0.050043561 -0.0046326579 -0.47348911 0.79143411 -0.38657486 0.0041962117
0.054361228 0.050670993 -0.0056910738 -0.41257629 0.73544729 -0.53749239 0.0020245288
-0.057790831 0.053779315 -0.0057294075 0.26082191 0.77951843 -0.56949359 0.0025062268
-0.055186052 0.053357091 -0.0047836001 0.3523165 0.8608681 -0.3671228 0.0025098203
-0.052441727 0.05236797 -0.0044831578 0.39160997 0.83774137 -0.38056678 0.0032880746
-0.050186299 0.051450912 -0.0039271214 0.40640157 0.83897448 -0.36188328 0.0027986798
0.053473283 0.051202107 -0.0036616642 -0.483688 0.79863918 -0.35808018 0.002336012
0.055585731 0.05214088 -0.004379943 -0.44550431 0.77643096 -0.44573638 0.0035069974
0.057931218 0.053280175 -0.0048898784 -0.50617307 0.7500332 -0.42572179 0.0036504827
0.060020287 0.053845067 -0.0058686705 -0.40762866 0.66262245 -0.62830752 0.0064785969
-0.064162821 0.05639112 -0.0053509879 0.31645703 0.75544286 -0.57372546 0.010112119
-0.061496645 0.055846278 -0.0045123631 0.37650567 0.78613579 -0.49013653 0.0090498235
-0.058640286 0.054805808 -0.0043541016 0.31648284 0.85269541 -0.41563091 0.0045267763
-0.056186769 0.054255471 -0.0035870208 0.34190047 0.86961484 -0.35619405 0.0025759439
0.058968488 0.054589096 -0.0039406205 -0.50955653 0.73893869 -0.44081935 0.0061853919
0.06131234 0.055778168 -0.0044981684 -0.46387038 0.67549694 -0.57317382 0.010695236
0.063823357 0.056403905 -0.0056223329 -0.41649711 0.57270074 -0.70607656 0.0047294009
-0.073059745 0.058450956 -0.0038249786 -0.44294849 0.89207894 -0.089396574 0.0041076415
-0.070636518 0.059404358 -0.0040551177 -0.20726377 0.9157927 -0.3440426 0.029859712
-0.067273095 0.058730569 -0.0042865891 0.26751116 0.72842938 -0.63073647 0.0092047509
-0.064595781 0.057875384 -0.003938606 0.403842 0.74996346 -0.52389538 0.0065154419
-0.062724099 0.05716534 -0.0034791224 0.35446307 0.78114581 -0.51397198 0.0080967406
0.062432393 0.057476521 -0.003597002 -0.61961585 0.56157333 -0.54837185 0.0077590374
0.064144142 0.058264654 -0.0043911119 -0.58504224 0.51390487 -0.6273973 0.0097032553
0.066127017 0.059404843 -0.0050131273 -0.58490503 0.51403153 -0.62742162 0.0096789347
-0.069559142 0.060124669 -0.0032267235 -0.067394137 0.93232238 -0.35529286 0.02695469
-0.068408564 0.060200255 -0.0031949235 0.10037653 0.94619322 -0.30764112 0.031217629
0.064919382 0.060976204 -0.0035245435 -0.71764159 0.36975825 -0.5901435 0.0094333906
0.075282186 0.074983083 -0.0031733671 0.29801303 0.95454484 -0.0056841546 0.0001019801
0.068507425 0.076261155 -0.0034112397 -0.16639461 0.98388654 0.065422192 0.11082802
0.070642389 0.07637208 -0.0038332939 0.049798034 0.99875605 0.0025712561 0.074638493
0.07329078 0.07562001 -0.0038528738 0.2375785 0.97117507 -0.019375503 0.0036833608
-0.0030481494 0.032997452 -0.0026259855 0.088616155 0.98833346 -0.12387188 0.0019924033
-0.0010567107 0.032879788 -0.002189494 0.1006047 0.98482645 -0.14140598 0.0015066055
0.0016235759 0.032777268 -0.0015220398 0.071527898 0.99157995 -0.10794885 0.0025366801
0.004418002 0.032721609 -0.0014420014 0.022820953 0.99429232 -0.10422087 0.002333465
0.0075125126 0.032753758 -0.0014609681 -0.060229171 0.99220508 -0.10909429 0.0023919814
0.010465811 0.03287141 -0.0021008786 -0.0995811 0.98504525 -0.14060436 0.0018031484
0.012367653 0.032973003 -0.0026355654 -0.097698525 0.98810995 -0.11871722 0.0021701581
-0.015868479 0.03579016 -0.0017720202 0.30621463 0.94799954 -0.086772539 0.0016824466
-0.013580201 0.035165593 -0.0014209024 0.26984653 0.95831931 -0.0938453 0.001828627
-0.010405062 0.034354165 -0.0014829278 0.20474869 0.96877283 -0.13984704 0.0036652086
-0.0075977743 0.033805393 -0.0015361905 0.15781465 0.97983581 -0.12254068 0.002625348
-0.0045229159 0.033370353 -0.001417111 0.12266953 0.98603225 -0.11266067 0.0016883617
-0.0015113824 0.03309422 -0.00088676909 0.081484303 0.99410206 -0.0715639 0.0046202918
0.00048891932 0.033017963 -0.00020834251 0.047497891 0.99886525 -0.003469923 0.0012535843
0.0089820195 0.033004019 -4.1905299e-05 -0.040564161 0.99827635 -0.04241069 0.0036934854
0.010779964 0.033073336 -0.00070262694 -0.080177218 0.99675149 0.0076263901 0.0023874021
0.013594208 0.03335103 -0.001419381 -0.12896077 0.98682278 -0.097724184 0.0023017784
0.016425414 0.033833977 -0.0015250198 -0.19642653 0.97372389 -0.11523195 0.0034283341
0.019546637 0.034596875 -0.0015253318 -0.26245728 0.9613198 -0.083549552 0.0012760098
0.022547886 0.035429463 -0.001492138 -0.26575199 0.96101433 -0.076337539 0.0018191516
0.024361786 0.035904933 -0.0018981226 -0.31388679 0.94604224 -0.080493063 0.0020096723
-0.024635548 0.038826894 -0.0019210321 0.4018909 0.91171902 -0.085159406 0.0017620986
-0.022483692 0.037995297 -0.0014681603 0.36368206 0.92734504 -0.088127881 0.001825774
-0.019401241 0.036858372 -0.001486587 0.30810332 0.94427663 -0.11581871 0.0032774133
-0.017288892 0.036258593 -0.0013772558 0.26902449 0.96000117 -0.077611826 0.0017638908
0.025688041 0.036353037 -0.0014533562 -0.28823006 0.95435661 -0.078274921 0.0020157835
0.028488437 0.037278093 -0.0014614076 -0.30709714 0.94827193 -0.080447137 0.0012682099
0.031459566 0.038348142 -0.0014900856 -0.36945713 0.92580414 -0.079925649 0.0036166203
0.033185873 0.038941637 -0.0028518513 -0.41979274 0.90200657 -0.10078781 0.001855316
-0.030920884 0.04162585 -0.0016314366 0.4587816 0.88470036 -0.082611486 0.0017199003
-0.028509907 0.040495694 -0.0015017178 0.41131765 0.90903872 -0.066830903 0.0017948459
-0.02589047 0.039428104 -0.0012963206 0.37293133 0.92402118 -0.084303766 0.001916812
0.032642309 0.039022177 -0.00026506535 -0.37468088 0.92529154 -0.058734894 0.0031797788
0.034545437 0.03975955 -0.0014400348 -0.43605122 0.89627922 -0.080888495 0.0037314079
0.037371896 0.041255604 -0.0015578513 -0.49082068 0.86547601 -0.10023115 0.0028606125
-0.036788031 0.04462589 -0.0015205996 0.48086295 0.87278885 -0.083727911 0.0018973945
-0.034448192 0.043436237 -0.0015318313 0.42828932 0.90002674 -0.080747388 0.0013536901
-0.032215621 0.042333283 -0.0012845361 0.4341718 0.89691544 -0.083889924 0.0019553017
0.038596481 0.042087823 -0.00083790813 -0.48284039 0.86986709 -0.10097732 0.0029924845
0.040430434 0.043142676 -0.0015095063 -0.5149408 0.85097957 -0.10329416 0.0028203013
0.042622954 0.044573005 -0.0014431766 -0.56336492 0.82208753 -0.082414478 0.0022582633
-0.04241576 0.047713116 -0.0016780687 0.47245449 0.87617773 -0.095390745 0.002329577
-0.040489491 0.046648029 -0.0015310413 0.48066878 0.8723498 -0.089238055 0.0023842584
-0.038347177 0.04547058 -0.0013378662 0.47697559 0.87163419 -0.11290821 0.0032745237
0.044176199 0.045584373 -0.0015238315 -0.53083825 0.84297371 -0.087212943 0.0027358232
0.04638876 0.047069777 -0.0014983587 -0.57702792 0.81287247 -0.079228207 0.0023900261
0.0480032 0.047980115 -0.0027696346 -0.50344449 0.83772957 -0.2115487 0.0038315316
-0.048249736 0.050925896 -0.0020715697 0.49771044 0.8619746 -0.096354358 0.003327314
-0.046478134 0.050025366 -0.001474641 0.47612613 0.87446713 -0.092796549 0.0034100257
-0.043879393 0.048574384 -0.0014073226 0.47276276 0.87569916 -0.09821596 0.0024963084
0.047928192 0.048146766 -0.0011936687 -0.55382907 0.82453889 -0.11579675 0.0045893635
0.04957654 0.049224965 -0.0014092255 -0.52775711 0.84216559 -0.11058697 0.0043187593
0.051614866 0.050541807 -0.0017282021 -0.53404742 0.83895594 -0.10462499 0.0039200704
-0.054392233 0.053901665 -0.0025980938 0.37238544 0.91077375 -0.17838255 0.0074931127
-0.052537888 0.053283524 -0.0014955178 0.40170941 0.90888542 -0.11205776 0.0046844152
-0.04965473 0.051783778 -0.0014167239 0.45743671 0.88372618 -0.098892398 0.0038829232
0.053160865 0.051630165 -0.0012852651 -0.52109045 0.84571695 -0.11501162 0.0045366832
0.055377968 0.053037401 -0.0015145501 -0.58149475 0.80584651 -0.11169276 0.0043281601
0.057112459 0.053844191 -0.0028708791 -0.52232081 0.79224724 -0.31547633 0.0076783537
-0.076289743 0.056566324 -0.001128574 -0.51781124 0.85215241 0.075549923 0.0092464639
-0.060641143 0.05665439 -0.0017108329 0.50308567 0.85377675 -0.13405263 0.0095619429
-0.058498371 0.055728387 -0.0014610726 0.3928563 0.91019547 -0.13117969 0.0081378687
-0.055589121 0.054567315 -0.0013439369 0.3545208 0.92937028 -0.10288753 0.0059446828
0.056964573 0.054264214 -0.00070916256 -0.5786224 0.81424803 -0.046864063 0.0083217928
0.058555748 0.055292092 -0.0014205953 -0.54440075 0.813492 -0.20459364 0.0085490244
0.060441963 0.056642644 -0.0017705765 -0.69453764 0.70594323 -0.13878617 0.014125593
-0.075520292 0.057413734 -0.0012113937 -0.52741575 0.84693384 0.067347527 0.0093613314
-0.073590644 0.058462229 -0.0014563311 -0.47086567 0.88029522 -0.058016162 0.0020960548
-0.07132037 0.059577785 -0.0016413514 -0.34953818 0.93332911 -0.081974298 0.0033827086
-0.066605479 0.059872158 -0.0025935415 0.29594874 0.88345963 -0.36319906 0.01619806
-0.06443695 0.05906041 -0.0015321731 0.46712181 0.84230983 -0.26890785 0.014282124
-0.062135007 0.057621814 -0.0013108813 0.46852753 0.87090766 -0.14833027 0.011340038
0.061832432 0.058261309 -0.0013862281 -0.79170513 0.588404 -0.16426727 0.026024301
0.063373201 0.059680462 -0.0024275675 -0.7010147 0.62870532 -0.33661255 0.029588008
-0.069801942 0.060287423 -0.001436647 -0.1658075 0.98340034 -0.073700927 0.010593275
-0.067576453 0.06059945 -0.0012857537 0.15180142 0.98517239 -0.079948522 0.01321931
-0.065784834 0.060091715 -0.00078073557 0.45968792 0.88161713 -0.10695003 0.020289334
0.063756093 0.061415952 -0.0012112525 -0.89880455 0.40185866 -0.17510003 0.024868587
0.064857572 0.064440258 -0.0013227689 -0.96588296 0.25894949 -0.0038945556 0.02654556
0.066020668 0.065742791 -0.0028098247 -0.95593244 0.22858991 -0.18422762 0.0099159777
0.065354712 0.067388982 -0.00072322693 -0.97942382 0.19258484 0.060333703 0.039071653
0.066360645 0.067978799 -0.0025847731 -0.97175759 0.19056259 0.13918744 0.041616227
0.065847524 0.069328949 -0.00080044375 -0.98208851 0.12010349 0.14518017 0.033997547
0.066328607 0.070750974 -0.0011591689 -0.95562536 0.18370324 0.23028956 0.026401574
0.066756621 0.073644727 -0.00098495965 -0.94084156 0.30648056 0.14452243 0.013314267
0.076049909 0.074745461 -0.001266652 0.30870309 0.95066321 0.030690765 0.0012287928
0.068001904 0.076891355 -0.0013467107 -0.65620124 0.75415969 0.025358329 0.066299096
0.070504658 0.076505974 -0.0014631854 -0.024911344 0.99953181 -0.017766569 0.07530041
0.073503584 0.075584091 -0.0015139389 0.29837599 0.95443058 -0.0058414955 6.8474576e-05
0.075158149 0.075075313 -0.0014587851 0.30870309 0.95066321 0.030690765 0.0012287928
-0.0011333894 0.032855853 0.0024156114 0.093200773 0.97665095 0.19356278 0.0025853307
0.001566264 0.03276895 0.0017055565 0.049530581 0.98699456 0.15293257 0.0048542516
0.0044138986 0.032707177 0.0016452674 0.020853294 0.98735678 0.15713574 0.0038780705
0.0075358786 0.032738183 0.0016570942 -0.059223507 0.9872936 0.14745826 0.0036991055
0.010412619 0.032850597 0.0022138578 -0.11898866 0.97688556 0.17758481 0.0023401314
0.012327382 0.032917202 0.0027525837 -0.15615582 0.9662717 0.20477892 0.0020816657
-0.015796345 0.035783667 0.001691545 0.31122684 0.94443977 0.10569471 0.0032489656
-0.013517466 0.035145264 0.0015519442 0.26933935 0.95574725 0.11833618 0.0030483564
-0.010432719 0.034379847 0.0015145495 0.2152698 0.96529973 0.14783543 0.0045632645
-0.0075701717 0.033892147 0.0015842865 0.15334873 0.97914302 0.13327877 0.0047909683
-0.0044633932 0.033419777 0.0014035599 0.12436085 0.98874396 0.083185896 0.0053475024
-0.0016114477 0.033113644 0.00088921806 0.078613147 0.99205416 0.098226808 0.0060952646
0.00032992891 0.033003118 0.00047277412 0.05478381 0.99372697 0.097495422 0.0064196233
0.011095504 0.033091579 0.00080925296 -0.07972423 0.99679518 0.0065911328 0.0024169704
0.013562863 0.033360947 0.0013443176 -0.13838652 0.9813807 0.13319544 0.0037203205
0.016391831 0.033828028 0.0015597424 -0.18632792 0.97246438 0.13998245 0.0049203974
0.019449014 0.034576301 0.0014850341 -0.25263199 0.95647925 0.14602913 0.0036648172
0.022605116 0.035441559 0.0015713694 -0.2587111 0.96006054 0.10654781 0.0040408578
0.024294365 0.035898756 0.0019946047 -0.3240366 0.94003028 0.10650495 0.0039250599
-0.024532355 0.038815215 0.0017922608 0.4097352 0.90635568 0.10313318 0.0030528728
-0.022469204 0.037998617 0.001516985 0.36162242 0.92631173 0.10571587 0.0030707412
-0.019436609 0.036877226 0.0015321104 0.30075994 0.94376785 0.13728008 0.0047932463
-0.017140375 0.036238533 0.0013025108 0.26538211 0.95986587 0.090718329 0.0031770328
0.025558479 0.036330383 0.0013888746 -0.28126532 0.95430988 0.1009081 0.0038107168
0.028417135 0.037247386 0.0015232067 -0.31033391 0.93934709 0.1460135 0.0043953718
0.031460527 0.038342487 0.0015491653 -0.38519573 0.91270155 0.13638255 0.0034055929
0.033056755 0.038907059 0.0024886313 -0.44709739 0.88434345 0.13431537 0.0034276999
-0.030834142 0.041599058 0.0016050388 0.46323884 0.88039696 0.1015432 0.0026963521
-0.028510666 0.040509105 0.0015054176 0.40821126 0.90935344 0.080249101 0.0027597246
-0.025847631 0.039400838 0.0014656971 0.36677891 0.924891 0.10024842 0.0032688505
0.034516402 0.039741617 0.0014797725 -0.4143725 0.89980888 0.13652603 0.0029782781
0.037366591 0.041212257 0.0016199443 -0.4943386 0.85799479 0.13955028 0.0031750759
-0.036761869 0.044593915 0.0016892259 0.48350438 0.86881995 0.1066552 0.0027597498
-0.034412827 0.043435674 0.0014642065 0.45305687 0.88807327 0.077879407 0.0020449336
-0.03220978 0.042318672 0.0014476427 0.42738003 0.89840704 0.10105035 0.0030719731
0.038811911 0.042093057 0.0014437424 -0.54083437 0.82946956 0.13956492 0.0029986503
0.040460471 0.043113343 0.0014135516 -0.50591069 0.85039502 0.1445083 0.002682935
0.042701546 0.044531096 0.0016645641 -0.56135869 0.81913972 0.11784171 0.0023106725
-0.042618543 0.047800615 0.0017757157 0.51252055 0.8503564 0.11923369 0.003235725
-0.040634423 0.046730123 0.0015031836 0.4810186 0.86895752 0.11633552 0.003511199
-0.038253102 0.04541954 0.0013967064 0.45010701 0.88581347 0.11286321 0.003152543
0.044201728 0.045559328 0.0013793078 -0.52942234 0.83875412 0.12729293 0.0027146989
0.046435516 0.047017913 0.0015929707 -0.54992819 0.82192916 0.14836255 0.0036324472
-0.048229326 0.050832614 0.0022960091 0.43248236 0.88700753 0.16179213 0.0061696353
-0.046354257 0.049933612 0.0015238321 0.47177416 0.87292975 0.12418833 0.004274616
-0.043853331 0.048557587 0.0013686689 0.46715319 0.87537163 0.12446835 0.0037137598
0.047858682 0.048099864 0.00079392589 -0.54958725 0.82484466 0.13260928 0.0049924073
0.049603645 0.0491479 0.0015259323 -0.52060306 0.83776915 0.1646671 0.0036579389
0.051815413 0.050591454 0.0017069295 -0.56559503 0.81165081 0.14603177 0.0033250521
-0.054261737 0.053786796 0.0023664781 0.36695242 0.90466559 0.2166243 0.0069669294
-0.052453592 0.053187478 0.0015452137 0.4141728 0.89689034 0.15507609 0.0039492962
-0.049550217 0.051703118 0.0013963949 0.44838366 0.88327074 0.137058 0.0044739395
0.053196669 0.051562671 0.0013697702 -0.52203 0.8383292 0.15712699 0.004369298
0.055534411 0.053022537 0.0015985315 -0.57470483 0.80301672 0.15772966 0.0039555659
0.057312164 0.053927843 0.0026204875 -0.5304569 0.77493155 0.34365186 0.0077615851
-0.076076657 0.056582753 0.0014690398 -0.5709371 0.7752946 0.27009076 0.021484859
-0.060817949 0.056608882 0.0018194678 0.49099952 0.84894514 0.19547801 0.0090567749
-0.058559585 0.055645145 0.0015461212 0.38621253 0.90352267 0.18570571 0.0079367338
-0.055686653 0.054536283 0.0014183073 0.35261127 0.92572236 0.13676028 0.0059670662
0.056910768 0.054164719 0.00073765655 -0.58059895 0.80499566 0.12201168 0.0095659597
0.058630656 0.055227906 0.0014789489 -0.53632629 0.8173058 0.21063054 0.0080905771
0.060588289 0.056518253 0.0020172244 -0.67652071 0.70434612 0.21497951 0.013035627
0.072124645 0.055923443 0.0029258931 0.49445257 0.19099155 0.84796154 0.0076524983
-0.075369947 0.057415724 0.0013556954 -0.57099712 0.77522683 0.27015871 0.021608995
-0.07338199 0.058558185 0.0015336737 -0.50758243 0.85173005 0.13006166 0.0067890859
-0.071160346 0.059649926 0.0014883177 -0.35889369 0.92047101 0.15468855 0.0074793748
-0.066566788 0.059663706 0.0024727448 0.31868458 0.85921395 0.40023938 0.012203998
-0.064420901 0.0588925 0.0015578872 0.52680773 0.82027119 0.22277509 0.0066378741
-0.06217825 0.057518616 0.0013755896 0.46249285 0.86008823 0.21528718 0.010209649
0.061848834 0.058104489 0.001349721 -0.71994621 0.62903512 0.29324448 0.024836889
0.063312948 0.059360612 0.0022610826 -0.72695148 0.5435459 0.41964203 0.022967128
0.072010055 0.059625961 0.0029459645 0.3811675 0.11056262 0.91787106 0.012757033
-0.069694482 0.060299795 0.0015093192 -0.1912154 0.97047156 0.14704293 0.019989895
-0.067603528 0.060523909 0.0013317753 0.17244323 0.97670215 0.12773527 0.01447481
-0.06572184 0.060045186 0.00042646658 0.28521341 0.95353431 0.097085506 0.015040517
0.064187914 0.061484747 0.0016667013 -0.75498867 0.43692994 0.4889625 0.027450956
0.072513223 0.061011475 0.0022881655 0.33605465 0.040726196 0.94096148 0.0076835682
0.065116256 0.064435504 0.0014242651 -0.7705583 0.31843248 0.55212384 0.026382538
0.066468142 0.064962745 0.0027605921 -0.4197295 0.24622269 0.87361413 0.022179728
0.071905226 0.063224219 0.0029476713 0.22100718 0.0052746623 0.97525793 0.0083086165
0.072604068 0.064641446 0.0025591638 0.19379218 0.04127821 0.98017383 0.011780184
0.065561451 0.067300156 0.00094566296 -0.88002163 0.25131384 0.40299281 0.059907697
0.067187838 0.067691147 0.0024248098 -0.46211269 0.23123993 0.85614246 0.016549256
0.069339767 0.068344086 0.0028797248 -0.22298887 0.035288926 0.97418201 0.011490719
0.073179886 0.066701606 0.0024410372 0.064338163 -0.072597332 0.99528396 0.010564038
0.065800093 0.069218174 0.00035832066 -0.7998178 0.31205541 0.51275039 0.079670258
0.067297928 0.070558183 0.0018026255 -0.69288397 0.10223898 0.71376389 0.037834957
0.069328047 0.070385136 0.0028476457 -0.36722571 0.0068130372 0.93010694 0.014049199
0.067494921 0.073538907 0.0015836461 -0.80665708 0.0037931949 0.59100765 0.016927548
0.069195688 0.072236843 0.0028236064 -0.41609859 -0.07855083 0.90592039 0.010267523
0.07594049 0.074732214 0.0012926065 0.32853365 0.94135547 0.076912269 0.0051852218
0.068035111 0.076566547 0.0013791217 -0.69317102 0.63507587 0.34087017 0.099730097
0.070449837 0.076516859 0.0014098273 0.049102057 0.94745553 0.3160964 0.056199417
0.073452011 0.075599805 0.0015901735 0.31386378 0.94361407 0.10527134 0.0043301778
0.075147234 0.075078271 0.0010061105 0.32832438 0.94143081 0.076882921 0.0052186945
-0.0093932478 0.032866124 0.0057190866 0.19102961 0.91255122 0.36160466 0.0020173714
-0.0073986249 0.032640073 0.0053369314 0.16013372 0.91445965 0.37164608 0.0013793038
-0.004330283 0.032483127 0.0046452382 0.13006292 0.92039382 0.36872596 0.0013959167
-0.0013455122 0.032192092 0.0045302194 0.10253497 0.93260854 0.34601712 0.0020377759
0.0015880197 0.031948578 0.0045771562 0.046232123 0.94269866 0.33042678 0.0020883151
0.0044128932 0.031841636 0.0046554659 0.0058562704 0.92888409 0.37032428 0.0020455073
0.0074819084 0.031897925 0.0046110637 -0.043716215 0.92466253 0.37826988 0.0021570062
0.010649521 0.032162126 0.0045189965 -0.10027432 0.93384308 0.34333965 0.0030445287
0.013445293 0.032451518 0.0046491208 -0.15563625 0.92120105 0.35660321 0.0022146665
0.016216692 0.032647647 0.0053397371 -0.18817015 0.90643519 0.37810996 0.0024876324
0.018048676 0.032943293 0.0055775507 -0.19628467 0.91464663 0.35340336 0.0029129421
-0.0189679 0.035655789 0.0052724006 0.3022393 0.89328104 0.33271664 0.0022283515
-0.016591491 0.035267897 0.0045256107 0.27684945 0.90165502 0.33222392 0.0018462895
-0.01347629 0.034338381 0.0045361426 0.24507724 0.90864652 0.33808085 0.0016988423
-0.010528219 0.033665348 0.0044001956 0.19768046 0.92238986 0.33184209 0.0016522446
-0.007715757 0.033326749 0.0038853833 0.15447746 0.9300639 0.33334345 0.0018979602
-0.0051163207 0.033123888 0.0032793838 0.13813281 0.93489105 0.32695249 0.0020758263
0.014156785 0.033119965 0.0032565531 -0.14394976 0.95541263 0.25780839 0.0010400112
0.016533406 0.033318464 0.0038822724 -0.19216524 0.92292637 0.33358562 0.002836033
0.019563016 0.033847421 0.0044516353 -0.23636006 0.91079921 0.33849499 0.0022439838
0.022493843 0.034605779 0.0045920731 -0.25310215 0.89235723 0.37368152 0.0026553962
0.025258482 0.035379026 0.0046287538 -0.29966357 0.89660561 0.32603723 0.001868126
0.027418466 0.035741705 0.0054130047 -0.32237428 0.88614345 0.33290347 0.0022945204
-0.027427251 0.038821977 0.0055458844 0.35229164 0.87723935 0.32610098 0.001835727
-0.025261937 0.038302846 0.0046990388 0.36606103 0.87169755 0.32579562 0.0017310758
-0.022408806 0.037197847 0.0045227208 0.33082268 0.88771242 0.32019222 0.0016424165
-0.019668287 0.03640762 0.0040196734 0.29617217 0.904477 0.30692574 0.0018544802
-0.017751498 0.036095444 0.003192662 0.27319077 0.94618171 0.17351356 0.003488759
0.026163716 0.036139671 0.0034133191 -0.27802977 0.92220217 0.26877984 0.00050970638
0.028648157 0.036623809 0.0043068249 -0.30878162 0.89388609 0.3249948 0.0021169148
0.031433843 0.037545037 0.0045061707 -0.36170262 0.87432933 0.32360366 0.001945306
0.033837441 0.038497221 0.0047943587 -0.40166506 0.84959614 0.34183559 0.0026025977
-0.033745971 0.041845948 0.0055495445 0.42639729 0.83386195 0.35051328 0.0019610394
-0.031494327 0.041111089 0.0046214703 0.41929317 0.85072869 0.31694487 0.0019172316
-0.02851904 0.039789263 0.0044109547 0.37965053 0.87388945 0.30361623 0.0019571022
-0.026284268 0.039158985 0.0036839966 0.36124462 0.8819443 0.30278155 0.0016269655
0.035252109 0.039425675 0.0041063838 -0.39817795 0.85014558 0.34453842 0.0024866364
0.037624061 0.040529426 0.0045553395 -0.45009249 0.82268167 0.34729189 0.0034297802
0.039866135 0.041661702 0.0050796401 -0.51263386 0.80093914 0.3093591 0.0021376959
-0.039463475 0.04472772 0.0055802143 0.43442559 0.81579846 0.38176867 0.0035814326
-0.037356727 0.0440594 0.0046300539 0.42784047 0.84392887 0.32363027 0.0019999091
-0.034703813 0.042859506 0.0043193782 0.42748582 0.852323 0.30133262 0.0017701238
-0.032806784 0.04224541 0.0034214202 0.42466697 0.8736493 0.23747623 0.0067270659
0.040836524 0.042613454 0.0042018252 -0.49175003 0.80927819 0.32132643 0.0025219375
0.043284114 0.043977071 0.0046799458 -0.50697243 0.80099446 0.31841311 0.0019315516
0.045204554 0.044717595 0.0057263114 -0.45368358 0.79774588 0.39720628 0.0042138919
-0.045175623 0.047872018 0.0055266214 0.48922145 0.78045225 0.38930264 0.003301685
-0.043349855 0.047265634 0.004656102 0.43723822 0.82679361 0.3538858 0.0024037738
-0.040741231 0.045945499 0.004427189 0.45072553 0.83386177 0.31862381 0.0018404998
-0.038651872 0.045181308 0.0035531328 0.44773495 0.83514655 0.31947383 0.0018017946
0.04445773 0.0452202 0.0035013885 -0.50269014 0.80031163 0.3268086 0.0019956783
0.046570156 0.046181604 0.0044670566 -0.48830393 0.79333866 0.36355609 0.0034280731
0.048917137 0.047460359 0.0049276208 -0.49185723 0.78128362 0.38428152 0.0052949544
0.070555329 0.046861541 0.0058004553 0.65639377 0.11042428 0.74629325 0.0028744086
-0.051369939 0.050900981 0.0058734664 0.36051193 0.76295763 0.53658813 0.0021057862
-0.049079608 0.050294533 0.0047992263 0.44356027 0.82153487 0.35823852 0.0017556485
-0.046412285 0.04903971 0.0044171922 0.45336136 0.81978202 0.34988701 0.0023232584
-0.04432692 0.048279203 0.0035760533 0.44812441 0.83210111 0.32679096 0.0014229125
0.050135817 0.048611395 0.0041930531 -0.51386702 0.77774078 0.36202201 0.0029381905
0.052466754 0.049869716 0.0046194694 -0.49336833 0.76520234 0.41358572 0.0044978741
0.054794483 0.050753016 0.005533576 -0.41227368 0.71624994 0.56304216 0.0022022906
0.070998929 0.049644418 0.0050148927 0.65093219 0.11474703 0.75041342 0.0025884083
-0.072301254 0.053921744 0.0055736545 -0.36580616 0.19606639 0.90980434 0.0058974945
-0.071805641 0.052660748 0.0058186799 -0.36721027 0.18016529 0.91252238 0.0055833282
-0.057989378 0.05369385 0.0054843612 0.24520558 0.76926464 0.5900051 0.0023615325
-0.055330202 0.053251263 0.0046434826 0.3439185 0.84990191 0.39923275 0.0018403659
-0.052470285 0.052159924 0.0044926261 0.35773069 0.82931828 0.42925504 0.0020008201
-0.050196342 0.05132499 0.0037782134 0.41322854 0.83061987 0.3732464 0.0016705361
0.053719331 0.051276218 0.0034476579 -0.47632307 0.78942007 0.38721091 0.0019607055
0.05577483 0.052028671 0.004394318 -0.45887053 0.78165692 0.42243382 0.0038068339
0.058299813 0.053224187 0.0049065487 -0.42314783 0.73635554 0.52794552 0.00571083
0.060384739 0.053811036 0.0057760398 -0.38979787 0.71559036 0.5796448 0.0039213127
0.070770055 0.052452568 0.0050795632 0.59007192 0.20080863 0.78197891 0.0050919
-0.075270496 0.056159746 0.0032665343 -0.67351282 0.47097221 0.56970668 0.044683773
-0.073432907 0.055847052 0.0047618048 -0.50784236 0.38130656 0.77246457 0.025802843
-0.070690423 0.056262653 0.0057582096 -0.23883747 0.30425671 0.92216295 0.0072400686
-0.067106895 0.056515262 0.0057463441 0.090041175 0.52666229 0.84529251 0.0057699112
-0.064360879 0.056229267 0.0051797647 0.24993955 0.70319748 0.66561508 0.0067575076
-0.061600666 0.055555277 0.0045628482 0.30259886 0.7863847 0.53854722 0.0072535649
-0.058768943 0.054704215 0.004200324 0.30278447 0.83548546 0.45856905 0.0041235094
-0.05650292 0.054211676 0.0035556529 0.33548394 0.8576293 0.38977233 0.0018855451
0.0591942 0.054564767 0.0038108744 -0.50016993 0.72535628 0.4729569 0.005324875
0.061592121 0.055522334 0.0046138512 -0.4350149 0.64895141 0.62419868 0.0075168349
0.064290404 0.056358337 0.0054996368 -0.25850582 0.54722106 0.79606771 0.0088727027
0.06797827 0.056671128 0.0057966686 0.087421648 0.39959332 0.91251445 0.016859006
0.07035771 0.05560451 0.0049546123 0.49918181 0.23036578 0.8353138 0.0078517469
-0.0730327 0.058153622 0.0039511602 -0.46220946 0.68692183 0.56080371 0.014091121
-0.070415445 0.058693044 0.0044705081 -0.22414523 0.66028148 0.7167896 0.024100933
-0.067577749 0.058469139 0.0042956644 0.21357952 0.74022049 0.63754016 0.010527366
-0.064793162 0.057735246 0.0038375766 0.35790035 0.71527022 0.60024655 0.0068064402
-0.062825114 0.057014119 0.0033628088 0.40602538 0.72877014 0.55139595 0.0056965915
0.062588356 0.057417147 0.0034263232 -0.48558417 0.61377203 0.62248856 0.0083313053
0.064516 0.058359291 0.0042600217 -0.41427508 0.49525949 0.76360607 0.023540741
0.067354307 0.058520637 0.005165224 0.013415218 0.33927476 0.94059169 0.017589081
0.070278011 0.058548894 0.0043851673 0.44474739 0.21568936 0.86929733 0.010978298
-0.069410995 0.060042106 0.0031142319 -0.19285473 0.87876987 0.43654388 0.026220912
-0.068728305 0.060065042 0.003123506 0.035468567 0.94354546 0.32933861 0.026632976
0.065454617 0.060963351 0.0034872666 -0.50705397 0.34225073 0.79105043 0.0082730288
0.067460276 0.061526164 0.004103933 -0.19433016 0.26623771 0.9441151 0.02804495
0.07025937 0.06148475 0.003767869 0.29510608 0.15772423 0.94235641 0.011577267
0.067743771 0.064273454 0.0034206102 -0.23269483 0.19542775 0.95271254 0.019968979
0.07038381 0.064411268 0.0033118927 0.057299174 0.097861469 0.99354923 0.012533766
0.068358466 0.066481486 0.0031218263 -0.24781364 0.1503568 0.9570691 0.025125559
0.070364513 0.067164212 0.003170969 0.0033554675 -0.027342785 0.9996205 0.015878273
0.072188914 0.067088835 0.0030825746 0.06437996 -0.072578713 0.99528259 0.010565503
0.070684098 0.070443049 0.0034299304 -0.26705843 -0.086518534 0.95978874 0.011431289
0.072547339 0.070240691 0.0035850245 -0.12204874 -0.14734481 0.98152614 0.0094816694
0.06877628 0.074929357 0.0030018857 -0.44976363 0.13445015 0.88296992 0.056924943
0.070424564 0.073680937 0.0039457106 -0.32585183 -0.037302952 0.94468462 0.01514936
0.073747344 0.074608438 0.0042889351 0.28349453 0.37640038 0.88201672 0.11911809
0.07537894 0.074556395 0.0033194926 0.09297739 0.99219346 0.083110824 0.045329481
0.068994552 0.076319195 0.0031139362 -0.57073098 0.4327639 0.69784057 0.085580871
0.070580423 0.076033987 0.0037994629 -0.17448603 0.45196933 0.87480187 0.10260157
0.073205791 0.075542897 0.0038771238 0.23544824 0.8819558 0.40831137 0.046051625
-0.00015066334 0.029738605 0.0089994166 0.067050651 0.7746852 0.62878215 0.0018708284
0.0015311796 0.029776027 0.0087575233 0.040461306 0.84113544 0.53930891 0.0029539838
0.0044148914 0.02971472 0.0087353466 0.0062778606 0.77701855 0.62944639 0.0013831138
0.0075389193 0.029733244 0.0087420456 -0.025994528 0.77262944 0.63432491 0.0014354402
0.010215479 0.029773852 0.0088662161 -0.071951337 0.83379972 0.54735833 0.0027701927
-0.015412105 0.032910537 0.0086221341 0.24725808 0.80477941 0.53962356 0.00061710068
-0.013262482 0.032530848 0.0082292613 0.22198795 0.84327978 0.48949003 0.0016987
-0.010381258 0.032214172 0.0075150952 0.205901 0.8612203 0.46465507 0.001044934
-0.0075705214 0.031569328 0.007623117 0.1520739 0.85474372 0.49627268 0.0029328463
-0.0044624731 0.031166064 0.007475513 0.12434024 0.86751223 0.48162434 0.0025259294
-0.0013476746 0.030857367 0.0073625217 0.084905908 0.86706471 0.49090692 0.0019177864
0.0014666598 0.030754589 0.0071853329 0.037630863 0.86552078 0.49945742 0.002571201
0.0044136182 0.030632947 0.0072802315 0.0048465626 0.8661164 0.49981889 0.0024435357
0.0075998739 0.030701393 0.0072224019 -0.028873956 0.86319441 0.50404537 0.0024827812
0.010701614 0.030861154 0.0072872723 -0.076344505 0.85842371 0.50722796 0.0023439997
0.01352729 0.031088769 0.0074473768 -0.12524271 0.8463822 0.51764023 0.0023921132
0.016392225 0.031508736 0.0076011391 -0.17416689 0.83688819 0.51892579 0.0032857147
0.01925591 0.032135151 0.00767976 -0.22938542 0.83308589 0.50333917 0.001404489
0.022405447 0.032500703 0.0083923861 -0.23110564 0.78039145 0.58101583 0.00042951357
0.024220409 0.032896228 0.008616914 -0.25866526 0.79920006 0.5425601 0.0021009261
-0.024307882 0.035951365 0.0087215574 0.32494095 0.76740611 0.55272156 0.0014410092
-0.022023443 0.035476107 0.0079396153 0.31186548 0.82861543 0.46490464 0.0013628316
-0.019403903 0.03475045 0.0075202147 0.28842285 0.84706032 0.44643152 0.0010575233
-0.016612714 0.033903737 0.0074245669 0.24478343 0.84709299 0.47171435 0.0014514672
-0.01384664 0.033387311 0.0068682614 0.23312885 0.85649824 0.46050152 0.0015426981
-0.011376431 0.033082999 0.0061398353 0.19932771 0.88864148 0.41301912 0.00012555928
0.020360451 0.033171475 0.006491276 -0.23374081 0.83758789 0.49377295 0.0012278156
0.022747416 0.033570439 0.0069725495 -0.23619178 0.83673543 0.49405193 0.0021312055
0.025408847 0.034044545 0.0074766884 -0.24795145 0.81970698 0.5163337 0.00230528
0.028319785 0.034924719 0.0075741564 -0.27960515 0.81995922 0.49948752 0.0020424642
0.031135468 0.035465695 0.0082769748 -0.2924273 0.79880989 0.52572721 0.0029297522
0.033095364 0.035929654 0.0087135853 -0.33457196 0.77450675 0.53684354 0.0026677619
-0.030633504 0.038759328 0.0086224023 0.3639282 0.7741273 0.51796067 0.00081442745
-0.028263232 0.038196329 0.00766443 0.3768197 0.81905377 0.43261746 0.0008436956
-0.025510056 0.037067831 0.0075338348 0.32837117 0.82285118 0.46377614 0.0012587793
-0.023097066 0.036420088 0.0068712924 0.32837108 0.83744198 0.43687907 0.0011074943
0.029654898 0.036126379 0.0064241029 -0.32049903 0.82855427 0.45910588 0.0012757523
0.031694163 0.036557794 0.0069227191 -0.32257503 0.81489313 0.48155442 0.0025816232
0.034486689 0.037418511 0.0074960808 -0.33654255 0.79790819 0.50008166 0.0030251155
0.037132312 0.038321037 0.0080424491 -0.38879064 0.75645214 0.52594858 0.003113779
0.039031241 0.038887665 0.0087955501 -0.38019136 0.68682826 0.61945254 0.0017907626
-0.03669193 0.04173658 0.0085372338 0.39159599 0.75781268 0.5218932 0.0013326394
-0.034285124 0.041044988 0.0076815099 0.41190118 0.80035394 0.43562719 0.00078920613
-0.031565487 0.039852131 0.0074075209 0.37404507 0.80453819 0.46131182 0.0012857484
-0.029555842 0.039268751 0.0066368277 0.38850936 0.81649071 0.42708713 0.00061967678
0.03796057 0.03962164 0.006828228 -0.42609039 0.76713061 0.47953892 0.0022080825
0.040410846 0.040531613 0.0075840238 -0.44637927 0.75885332 0.47422275 0.0012733029
0.042846557 0.04144863 0.0083306059 -0.42241904 0.69700587 0.57943505 0.0026065789
0.06815666 0.0414121 0.0084792459 0.58392417 -0.0019125147 0.81180596 0.0016869695
-0.067350328 0.044637308 0.0086872112 -0.49972671 0.054542284 0.86446416 0.00058183196
-0.042651195 0.044600558 0.00859043 0.40296948 0.72924268 0.55301052 0.0012431502
-0.040340129 0.044061489 0.0076982793 0.3861008 0.77667391 0.4976984 0.0020527765
-0.037678897 0.042952597 0.0073288637 0.37950647 0.78985745 0.48176762 0.0014634253
-0.035405159 0.04229489 0.0063891918 0.40380672 0.81740409 0.41084126 0.00074667844
0.041665491 0.042180806 0.006262464 -0.46246418 0.74846643 0.47531563 0.0013314775
0.043781374 0.042831786 0.0072059762 -0.44724971 0.72820771 0.51930851 0.0025892395
0.046365947 0.043996084 0.0077467454 -0.43419474 0.70909995 0.55556476 0.0030666885
0.048766989 0.044673536 0.0085941497 -0.37733245 0.64155954 0.66784847 0.0014029203
0.0684551 0.044329915 0.0083228322 0.58750635 0.086228259 0.80461234 0.0060321274
0.069756977 0.043922268 0.0069217584 0.67305624 0.02524014 0.73916054 0.0014266254
-0.069014296 0.047801677 0.0076496042 -0.4361968 0.12418476 0.89124101 0.0020804952
-0.067923382 0.046797059 0.0083587011 -0.45492521 0.10982841 0.88373119 0.0023451152
-0.048628964 0.047614321 0.0085685886 0.32894957 0.70206678 0.63158089 0.0010632182
-0.046189789 0.047040652 0.0077098208 0.40484124 0.76751751 0.4970116 0.001138724
-0.04360161 0.04600738 0.0073201666 0.39363655 0.78304297 0.48155364 0.0014805514
-0.041513309 0.045315467 0.0067029609 0.42836297 0.77787435 0.45980081 0.0015665914
0.047356401 0.045447648 0.006628809 -0.46278363 0.72123587 0.51541263 0.0024365876
0.049705647 0.046360835 0.0072785192 -0.4043164 0.7199465 0.56409681 0.0018517671
0.052204601 0.047065809 0.0081138117 -0.33656499 0.62889493 0.70086753 0.0010332237
0.054453619 0.047631618 0.0087729888 -0.28443274 0.65245879 0.70242125 0.0028796915
0.068137228 0.046955876 0.0083819618 0.64228922 0.09666872 0.76034182 0.002636526
0.069682583 0.046684004 0.0069263317 0.65639198 0.11042565 0.74629474 0.0028721872
-0.069950692 0.049667291 0.0069503882 -0.39974961 0.12751073 0.90771204 0.0013514541
-0.067464992 0.049647026 0.0083528599 -0.37066773 0.23802347 0.89774728 0.0082303053
-0.065407157 0.050587118 0.008833224 -0.16039355 0.34551075 0.92460597 0.011135916
-0.057903152 0.050856363 0.0088126222 0.11131406 0.65718907 0.74546075 0.004221702
-0.055214263 0.050459068 0.0084589263 0.21991087 0.67510223 0.70418471 0.0017873218
-0.052382793 0.049967393 0.0077517428 0.29472059 0.74374777 0.5999825 0.0019743128
-0.049617968 0.049028147 0.0073221852 0.34164819 0.74492067 0.57303548 0.0014244802
-0.047235686 0.048431609 0.006552835 0.40855965 0.7748394 0.48239288 0.0016544877
0.052977055 0.04878353 0.0067118788 -0.425125 0.70944822 0.562096 0.0022766725
0.05546397 0.049421091 0.0075370348 -0.32603189 0.65356129 0.68305254 0.0013922373
0.058220118 0.050107051 0.0081737535 -0.26044396 0.59599352 0.7595793 0.0021874539
0.061154917 0.05057019 0.0087037906 -0.13331246 0.52232987 0.84225851 0.004314404
0.064784348 0.050575066 0.0088286344 0.075385988 0.41966137 0.90454471 0.0072469679
0.067432582 0.049651466 0.0082673328 0.46269172 0.18594922 0.86679828 0.0072004618
0.069608867 0.049824905 0.0066928663 0.63577271 0.11875357 0.76268643 0.0036086033
-0.070144251 0.052682612 0.0066791326 -0.32481834 0.1893616 0.92662579 0.0034686299
-0.067425147 0.052453306 0.0076490785 -0.20033559 0.31905404 0.92632079 0.013411211
-0.06439469 0.052616112 0.0079063382 -0.015223893 0.48060268 0.87680626 0.0096473973
-0.061420985 0.052479174 0.0078104758 0.092420436 0.62706625 0.7734639 0.0085991696
-0.058653068 0.05237928 0.0073715434 0.21275693 0.74360973 0.63386047 0.0028190853
-0.055732518 0.051858876 0.0070620016 0.27010188 0.75535494 0.59706271 0.0019916161
-0.053222083 0.051350065 0.0064423555 0.34047192 0.76899463 0.54104173 0.0022125752
0.056769498 0.051302008 0.0062758215 -0.43081185 0.6790548 0.59437841 0.0021198278
0.058760993 0.051872309 0.0067981649 -0.36123207 0.65336895 0.66529727 0.0034197262
0.061430737 0.052479293 0.0073867529 -0.28222284 0.60072041 0.74798757 0.0037946873
0.064400747 0.052641906 0.0078601856 0.012230082 0.43525225 0.90022546 0.0090627242
0.067411326 0.052385297 0.0075124227 0.35999373 0.35222709 0.86391008 0.012642568
0.069417007 0.052830372 0.0063772486 0.46448454 0.19337185 0.86421144 0.014027425
-0.069948956 0.055153087 0.0062828069 -0.24528433 0.30971155 0.91864812 0.0074731926
-0.06748011 0.055125572 0.0065707616 -0.028246354 0.46495268 0.88488477 0.0098561179
-0.064571396 0.054706205 0.006511542 0.12170926 0.59763515 0.79247653 0.0091990214
-0.061890792 0.054221462 0.0063220747 0.20527507 0.70346439 0.68044096 0.0043882397
0.062249817 0.054216273 0.0063025327 -0.3375245 0.6196875 0.70856512 0.0061112982
0.064550832 0.054892097 0.0065814978 -0.13633792 0.50482184 0.85238886 0.0098338639
0.067314394 0.055249594 0.0064969766 0.25577429 0.3131277 0.91462046 0.022980522
0.0044212067 0.02667848 0.011997311 0.0024028975 0.64564478 0.76363403 0.00379258
0.0070749423 0.026659593 0.011990674 -0.0055124769 0.64056063 0.76788789 0.0040643001
-0.012751889 0.029618617 0.011723868 0.19568692 0.66216326 0.72335774 0.001401357
-0.01037077 0.02940022 0.011326531 0.17123103 0.67049688 0.72188216 0.0014905939
-0.007477547 0.029012157 0.011036116 0.14445071 0.74522632 0.65097743 0.0016982239
-0.0044208854 0.028796043 0.010694052 0.12377544 0.72567534 0.67681229 0.0030870344
-0.0013822586 0.028630977 0.010428605 0.089246511 0.72855347 0.6791501 0.0026789915
0.0015291644 0.02829711 0.010526729 0.044795919 0.74149841 0.66945761 0.0025048207
0.0044177617 0.028226608 0.010501621 0.0064351493 0.73106164 0.68228108 0.0025368836
