# .PCD v0.7 - Point Cloud Data file format
VERSION 0.7
FIELDS x y z normal_x normal_y normal_z curvature
SIZE 4 4 4 4 4 4 4
TYPE F F F F F F F
COUNT 1 1 1 1 1 1 1
WIDTH 559
HEIGHT 1
VIEWPOINT 0 0 0 1 0 0 0
POINTS 559
DATA ascii
-0.031486213 0.022561958 -0.01639976 -0.08926975 -0.22711803 -0.96976709 0.0037333278
-0.028509459 0.02266266 -0.016640356 -0.040427607 -0.16726305 -0.98508304 0.0049615586
-0.025474885 0.022619264 -0.016703045 0.00039997671 -0.096139044 -0.99536783 0.006190245
-0.022348074 0.022634914 -0.016643049 0.034196373 0.087778956 -0.99555284 0.0067041344
-0.019369591 0.022703974 -0.016457882 0.053351901 0.1444401 -0.98807424 0.0048210998
-0.016437635 0.022576768 -0.016247017 0.073640697 0.1953256 -0.97796983 0.0035843279
-0.013550485 0.022434838 -0.01601078 0.075290807 0.23933561 -0.96801329 0.002636431
-0.010532449 0.022447394 -0.015738776 0.070887566 0.27284989 -0.95944148 0.0021102242
-0.0075926506 0.022237437 -0.015565013 0.062486719 0.31011331 -0.9486438 0.0023408986
-0.0045399964 0.021972358 -0.015473501 0.044196852 0.34252414 -0.93846887 0.0024806731
-0.0015278342 0.02177437 -0.015403659 0.027115999 0.36921012 -0.92895025 0.0027515732
0.0013593646 0.021770332 -0.015347889 0.0057590241 0.3858884 -0.92252749 0.0026791946
0.0044953926 0.021788994 -0.015345841 -0.016439207 0.39529768 -0.91840595 0.0026768269
0.0074350084 0.021808146 -0.015440699 -0.041469663 0.39564767 -0.91746563 0.0026830444
0.010485189 0.022024844 -0.015536658 -0.059264787 0.38674897 -0.92027873 0.0023909956
0.013512092 0.022355797 -0.015627543 -0.079703487 0.36873972 -0.92610925 0.0022082306
0.016506823 0.022560805 -0.015850322 -0.090395175 0.34066352 -0.93582964 0.0020501919
0.019515328 0.022581739 -0.016182495 -0.10055279 0.31373629 -0.94417089 0.0026862135
0.022590553 0.022440316 -0.016602999 -0.10357983 0.28035691 -0.95429093 0.0031009198
0.02561133 0.022398196 -0.016941832 -0.099006914 0.24116592 -0.96542048 0.0043474943
0.028641693 0.022449655 -0.0171958 -0.070641525 0.1961039 -0.97803527 0.0055155042
0.031577583 0.022468222 -0.017355051 -0.04032575 0.078449197 -0.99610215 0.0032158704
0.034466621 0.022485197 -0.017418463 0.0037816023 0.00084911991 -0.99999249 0.0034626592
0.037530761 0.022500774 -0.017330524 0.057314906 -0.14346752 -0.98799396 0.0070260833
0.040525001 0.02251347 -0.017060297 0.1192525 -0.20903717 -0.97060925 0.0051981551
0.043439291 0.022522235 -0.016561551 0.18291956 -0.26457408 -0.94685847 0.0039595235
0.046475645 0.022555856 -0.015821554 0.28286955 -0.34838969 -0.89364952 0.0015443764
0.0488327 0.023252647 -0.015313693 0.31954247 -0.37188745 -0.87154597 0.0030517471
-0.043087926 0.026268499 -0.015276741 -0.26666325 -0.36175016 -0.8933239 0.0031169858
-0.040503334 0.025509447 -0.015674576 -0.23414832 -0.31065533 -0.92123175 0.001374442
-0.037587244 0.025452815 -0.016242057 -0.13214515 -0.21046378 -0.9686293 0.0038724458
-0.034501959 0.025499197 -0.016620779 -0.065505296 -0.13707083 -0.98839295 0.005037277
-0.031493891 0.025513154 -0.016744688 -0.03934022 -0.071191512 -0.99668652 0.0092062997
-0.028609129 0.025448313 -0.016699197 0.060958777 0.13471663 -0.98900729 0.0071464675
-0.025573142 0.025489889 -0.016492607 0.08130946 0.19936441 -0.97654623 0.0042915135
-0.022511069 0.025528798 -0.016180258 0.094105855 0.25761506 -0.96165407 0.0030722409
-0.019506391 0.025502374 -0.015792331 0.11415945 0.30491313 -0.94551343 0.0022112916
-0.01670214 0.025253337 -0.015478812 0.12603492 0.35527462 -0.92622626 0.002289087
-0.01381281 0.024771189 -0.015252549 0.12003481 0.40714562 -0.90544134 0.0029268579
-0.011229401 0.024428213 -0.015077829 0.10864817 0.43996465 -0.89141834 0.0019895826
0.017443104 0.024443723 -0.015113243 -0.11856724 0.49924445 -0.8583104 0.0015969564
0.019932386 0.024740007 -0.015306273 -0.12986469 0.47098401 -0.87253028 0.002452519
0.022603089 0.024978263 -0.015644599 -0.13032243 0.43201572 -0.89240044 0.0025096317
0.025508299 0.025357481 -0.015935797 -0.15239942 0.40499336 -0.90152907 0.0016099125
0.028471811 0.025393762 -0.016387541 -0.11792656 0.34324902 -0.93181187 0.0025257978
0.031454735 0.025428275 -0.016769717 -0.10003293 0.30277124 -0.94779897 0.0033520232
0.034423027 0.025439642 -0.017069181 -0.065845586 0.24975403 -0.96606797 0.0042910851
0.03753591 0.025422128 -0.017252458 -0.034126464 0.081039622 -0.99612647 0.0081585776
0.040581755 0.025459727 -0.017247207 0.028152036 -0.014981273 -0.99949139 0.0085202577
0.043580942 0.025467012 -0.01703947 0.13166511 -0.1053976 -0.98567522 0.0087047517
0.046562124 0.025420893 -0.016554903 0.1867432 -0.16681904 -0.96814173 0.0049499837
0.049414694 0.025503052 -0.01582825 0.26231834 -0.2160147 -0.94049281 0.0036286281
0.051706165 0.026103526 -0.015300024 0.34743202 -0.29014841 -0.89168662 0.0038809155
-0.0459744 0.02887263 -0.015295117 -0.26655877 -0.27953172 -0.92239279 0.0031247928
-0.043450143 0.028326385 -0.015771067 -0.18606658 -0.19538303 -0.96291471 0.0035126435
-0.040418897 0.028414993 -0.016349824 -0.12145122 -0.12951589 -0.98411143 0.0062033334
-0.037494007 0.02835647 -0.016609443 -0.071305722 -0.05480862 -0.99594754 0.0096922927
-0.034531519 0.028358502 -0.01663802 0.018162891 0.13999243 -0.989986 0.0063872095
-0.031421714 0.028360108 -0.016449379 0.076606646 0.22378282 -0.97162372 0.0048638037
-0.028437741 0.028395791 -0.01610318 0.097957402 0.29970929 -0.9489882 0.0033411083
-0.025518047 0.028296014 -0.015668806 0.16589916 0.37622619 -0.9115544 0.0020790163
-0.02256722 0.027874259 -0.015345655 0.1459422 0.41409999 -0.89845538 0.0032603887
-0.020056507 0.027328461 -0.015154198 0.1598177 0.46339417 -0.87162155 0.0020702162
0.026256042 0.027240112 -0.01513344 -0.16829269 0.52578503 -0.83380312 0.0018691204
0.028729115 0.027675448 -0.015375841 -0.16638453 0.48545095 -0.85828519 0.0023231814
0.03163559 0.028197112 -0.015668523 -0.15489428 0.44110587 -0.88398719 0.0024461378
0.034518089 0.028592851 -0.015992718 -0.13505787 0.38331211 -0.91369092 0.0027364052
0.037491135 0.028627668 -0.016442232 -0.10254168 0.32218084 -0.94110829 0.0034868785
0.040435083 0.028628923 -0.016765995 -0.068383172 0.26012677 -0.96314991 0.0053870562
0.043537781 0.028629994 -0.016894806 0.0085381446 0.16735883 -0.9858591 0.0058393376
0.046546862 0.028630782 -0.016760249 0.094375059 0.077015005 -0.99255329 0.0069061113
0.049466103 0.028631305 -0.016356612 0.1898433 -0.054685894 -0.98029023 0.0036763339
0.052452702 0.02867935 -0.015602554 0.24886966 -0.1512208 -0.9566589 0.0036054002
0.054421414 0.029621094 -0.015121205 0.37167451 -0.21894649 -0.90217543 0.0033448101
-0.048815116 0.032057051 -0.015254591 -0.25712603 -0.19202238 -0.94710803 0.0041068532
-0.046590269 0.031563476 -0.01570107 -0.16608134 -0.10594171 -0.98040468 0.0042432267
-0.04360963 0.03155297 -0.016176103 -0.13038313 -0.037773144 -0.99074382 0.0088407267
-0.040547483 0.031470481 -0.016364047 -0.030129567 0.11432099 -0.99298692 0.0057702549
-0.03746336 0.031561203 -0.01626543 0.048569649 0.20915264 -0.97667611 0.0044716238
-0.034484759 0.031496815 -0.015952144 0.1130496 0.28845543 -0.95079613 0.0037768595
-0.031614609 0.031279042 -0.015557092 0.15068501 0.36747336 -0.91774577 0.0035075473
-0.028732538 0.030576564 -0.015313291 0.17714611 0.43901685 -0.88084251 0.0032121632
-0.026474632 0.030042963 -0.015129837 0.19181633 0.46513706 -0.86420721 0.0014833619
0.035541922 0.030566212 -0.015164326 -0.20812254 0.51524848 -0.83138674 0.0021228748
0.037764303 0.031005571 -0.015449873 -0.17153424 0.46911335 -0.866319 0.0028667955
0.040613096 0.031483091 -0.015772846 -0.15277185 0.37619415 -0.91385925 0.0033606568
0.043555029 0.031572081 -0.016159741 -0.078143291 0.3074429 -0.94835252 0.0035050046
0.046432447 0.031564634 -0.016365293 -0.0036374452 0.22909367 -0.97339761 0.0041604755
0.04944329 0.031558651 -0.016276337 0.095857538 0.13083303 -0.98675936 0.0045043058
0.05256743 0.031554442 -0.015806045 0.17638648 0.037314497 -0.98361355 0.0032415309
0.05495752 0.031679217 -0.015259826 0.28292486 -0.057106357 -0.9574405 0.003473138
-0.051337868 0.035455119 -0.015072037 -0.2343208 -0.055311579 -0.97058451 0.0092727952
-0.049501937 0.03469158 -0.015392841 -0.13810501 -0.037570905 -0.98970467 0.0047261734
-0.046529293 0.034729723 -0.015778404 -0.074397758 0.10368882 -0.99182338 0.0039169891
-0.043496933 0.034641344 -0.015878072 -0.014314072 0.18052191 -0.9834668 0.0047629802
-0.04047225 0.03472247 -0.015663421 0.073279694 0.27053109 -0.9599182 0.0039922534
-0.037638642 0.034199625 -0.015451708 0.13770759 0.36561528 -0.92052269 0.0036709129
-0.034794401 0.033597112 -0.015188389 0.18599318 0.44466868 -0.87617141 0.0026894745
0.041343585 0.033173464 -0.015076224 -0.20762588 0.48999456 -0.84663862 0.0018470117
0.043781433 0.03366898 -0.015378932 -0.16404435 0.44064349 -0.88256598 0.0030328305
0.046659198 0.034214299 -0.015549991 -0.092647299 0.35251176 -0.93120992 0.0029035737
0.049497429 0.034493584 -0.015640531 -0.0046834592 0.25115114 -0.96793658 0.003869294
0.052499585 0.03448049 -0.015559024 0.0942543 0.14853553 -0.98440504 0.0029241715
0.055009399 0.034349035 -0.015207589 0.20902398 0.083504058 -0.97433883 0.0024045517
-0.051363878 0.036681727 -0.015022915 -0.19178909 0.05223408 -0.9800452 0.0026399428
-0.049457319 0.037420787 -0.015190964 -0.072455652 0.18389489 -0.98027188 0.0018883299
-0.046535693 0.037205104 -0.015320098 0.003520271 0.25880733 -0.96592253 0.004060484
-0.043648589 0.036875736 -0.015267154 0.086780258 0.36601537 -0.92655379 0.0041844822
-0.041458275 0.036377382 -0.015160267 0.15887919 0.44913372 -0.87922484 0.0026532989
0.050040036 0.036302481 -0.015078209 -0.068357378 0.35982725 -0.93051153 0.0024987601
0.052380417 0.036475044 -0.015123456 0.022693358 0.30537778 -0.95196086 0.0030344008
0.054442808 0.036276206 -0.015028529 0.1333898 0.16475415 -0.9772734 0.0045790463
-0.015459446 0.0089463741 -0.012157558 -0.17212164 -0.62021405 -0.76531601 0.0011408998
-0.013437858 0.0086265169 -0.012306904 -0.14982653 -0.64616728 -0.74834466 0.0014328951
-0.010358362 0.0081919981 -0.012521583 -0.11845442 -0.62502408 -0.77156562 0.0011394683
-0.0073884106 0.0079812165 -0.012700667 -0.091229953 -0.61604655 -0.78240889 0.0015095392
-0.0044188602 0.0077858004 -0.012878968 -0.073836029 -0.5996204 -0.79687113 0.0013125829
-0.0014192719 0.0077136075 -0.013037471 -0.044649396 -0.58281398 -0.811378 0.0021045262
0.0015077442 0.0075928718 -0.013090399 -0.014350847 -0.59373331 -0.8045339 0.0019174743
0.0044807768 0.0076455302 -0.01324174 -0.032110762 -0.59576273 -0.80251831 0.0018170582
0.0074851313 0.00772167 -0.01331633 -0.010787779 -0.59304702 -0.80509555 0.0023403894
0.010474275 0.0077410834 -0.013328073 0.019079518 -0.58113492 -0.81358355 0.0010445789
0.013525215 0.0076133991 -0.013085096 0.041936468 -0.63992977 -0.76728821 0.0012372386
0.016465593 0.0077140322 -0.01298819 0.063864276 -0.65488362 -0.75302643 0.0011355687
0.019434953 0.0079618981 -0.012883767 0.096928142 -0.6718871 -0.7342838 0.0012147436
0.022349235 0.0082407612 -0.012697466 0.12977523 -0.6927979 -0.70935851 0.0013924044
0.025196198 0.0085480558 -0.012433541 0.1591811 -0.67157859 -0.72363216 0.0011314926
0.027174229 0.0087045729 -0.012069829 0.20299304 -0.70044976 -0.68422508 0.0033257399
-0.024143722 0.0117028 -0.012160397 -0.22192945 -0.62825739 -0.74568087 0.0024873039
-0.022189746 0.011453099 -0.012501108 -0.21623826 -0.63335472 -0.74303621 0.0016227027
-0.019350233 0.010965762 -0.0128934 -0.18432051 -0.59305686 -0.78377897 0.0016987179
-0.016495593 0.010658788 -0.01327215 -0.15686598 -0.56655121 -0.80895787 0.0017222684
-0.013474128 0.010601025 -0.01372203 -0.1288106 -0.55170441 -0.82403272 0.0020867509
-0.010590125 0.010478692 -0.014066206 -0.088318773 -0.49594289 -0.86385208 0.0013652929
-0.0075739152 0.010266922 -0.014221434 -0.088950805 -0.48857385 -0.86797655 0.0011770879
-0.0045199692 0.010145322 -0.01439245 -0.062697127 -0.48261902 -0.87358338 0.00193744
-0.0015247944 0.010007722 -0.014486909 -0.042685624 -0.4711149 -0.88103843 0.0021020838
0.0013868733 0.0098834364 -0.014540908 -0.032926846 -0.46837077 -0.88291836 0.0018825985
0.0045536379 0.0098428456 -0.014628377 -0.021893958 -0.46565366 -0.88469613 0.0019654108
0.0075973868 0.0098938262 -0.014701537 -0.010561137 -0.46652472 -0.88444507 0.0019622967
0.010573708 0.0097047761 -0.014637695 0.0087761646 -0.47851661 -0.87803459 0.0021982966
0.013596347 0.0097202985 -0.014590902 0.028901609 -0.49460945 -0.8686347 0.0022637767
0.016495431 0.0097947288 -0.014539238 0.046736557 -0.51359522 -0.85675883 0.0020335156
0.019499291 0.009796788 -0.014295976 0.07219243 -0.53558367 -0.84139073 0.0018467227
0.022519611 0.010107332 -0.014189162 0.10123599 -0.56585521 -0.81826591 0.0016415472
0.025517022 0.010336583 -0.013895708 0.13574745 -0.59226871 -0.79422307 0.0014136311
0.028454961 0.010438657 -0.013370648 0.17695509 -0.6585089 -0.73147303 0.0010666933
0.031362735 0.010822317 -0.01299458 0.21656328 -0.67222553 -0.70796412 0.0012180258
0.034235474 0.011306644 -0.012493819 0.24543467 -0.67081964 -0.69983059 0.0007324391
0.036367256 0.011617146 -0.012060137 0.28466046 -0.71729296 -0.63597113 0.0020896073
-0.031392749 0.014599142 -0.012239574 -0.26936561 -0.64568126 -0.71451926 0.0011828848
-0.028294308 0.013994236 -0.012738616 -0.23969573 -0.61864173 -0.74821687 0.0013608093
-0.025428262 0.013489968 -0.013207217 -0.21926679 -0.59177792 -0.77570677 0.0013406422
-0.022513043 0.013476378 -0.013897314 -0.17888981 -0.52843022 -0.82991564 0.00074034958
-0.019653941 0.013260401 -0.014353971 -0.15738846 -0.49533573 -0.85432506 0.0013764318
-0.016637284 0.012753616 -0.014581374 -0.12510304 -0.46043405 -0.87883431 0.0018982928
-0.013688928 0.012499157 -0.014818839 -0.094523899 -0.44938681 -0.88832253 0.0036982275
0.026675789 0.012046061 -0.014937879 0.11683726 -0.57025844 -0.81311399 0.0023731648
0.028798632 0.01223444 -0.014698663 0.15089825 -0.5836643 -0.79785067 0.0014217495
0.031742152 0.012745709 -0.01443725 0.18102509 -0.54805136 -0.81662083 0.0020528524
0.034562331 0.013197025 -0.014039443 0.2164062 -0.57701802 -0.78753954 0.0010185809
0.037442841 0.013603572 -0.013456671 0.25596687 -0.61714476 -0.74405193 0.0018045311
0.040345021 0.014211051 -0.012842293 0.30671161 -0.62246531 -0.72004509 0.00125791
0.042737003 0.01476612 -0.012327016 0.34654522 -0.65552467 -0.67096472 0.00096992648
-0.0370306 0.017522031 -0.012404189 -0.32114965 -0.61275685 -0.72207481 0.0011529379
-0.034381036 0.016891699 -0.01295246 -0.28707072 -0.59433329 -0.75123787 0.0010263281
-0.031412948 0.016619394 -0.01376072 -0.24155962 -0.55826753 -0.79371673 0.0016109404
-0.028545253 0.0161309 -0.014199732 -0.2053535 -0.50985694 -0.83538961 0.0011623011
-0.025641395 0.01564863 -0.014573111 -0.1806083 -0.46555305 -0.86639541 0.0023969326
-0.023160975 0.015292136 -0.014874672 -0.15213899 -0.40875727 -0.89987284 0.0028377546
0.038022492 0.015506675 -0.014700559 0.23437841 -0.57173073 -0.78625107 0.0011690683
0.040694293 0.016165201 -0.014305671 0.2729136 -0.53712279 -0.79813367 0.0010940135
0.043513607 0.016594423 -0.013506917 0.33445409 -0.56070358 -0.75746423 0.001136726
0.046221059 0.017158784 -0.012639926 0.37609875 -0.61580324 -0.69234109 0.0015435789
0.04825541 0.017706018 -0.012058402 0.41056588 -0.62868541 -0.660447 0.0013258395
-0.042659096 0.02075544 -0.012243979 -0.39071494 -0.59640306 -0.7011742 0.0019635658
-0.040280484 0.019918563 -0.012804109 -0.35364744 -0.56524402 -0.74527359 0.00093050563
-0.037466921 0.019634087 -0.013791775 -0.29174936 -0.53046364 -0.79592127 0.0014793872
-0.034613799 0.019222364 -0.014441597 -0.24870892 -0.48152056 -0.84040576 0.0012548415
-0.032094266 0.018572733 -0.014776571 -0.20667051 -0.43327993 -0.87724334 0.0023041912
0.044095159 0.018601438 -0.014661019 0.3031702 -0.52955288 -0.79225087 0.0014086518
0.046644121 0.0193063 -0.014074109 0.34142071 -0.50549573 -0.79240525 0.0010798028
0.04932379 0.019804368 -0.013113411 0.4086192 -0.51655006 -0.7524668 0.001185641
0.05168353 0.020636896 -0.012361885 0.43998429 -0.57246518 -0.69187963 0.001746101
-0.045824528 0.023191418 -0.012396581 -0.41500932 -0.54808462 -0.72620279 0.0014754264
-0.043373715 0.022574002 -0.013199761 -0.36291987 -0.52417082 -0.77041161 0.0010384386
-0.040604685 0.022369416 -0.014235459 -0.31192195 -0.46680787 -0.82752353 0.0012054895
-0.038162548 0.021636499 -0.014721974 -0.26214376 -0.41424653 -0.87159646 0.0021329045
-0.0071162595 0.023794943 -0.014902386 0.094065323 0.46865726 -0.87835765 0.0015613098
-0.0044195619 0.023593243 -0.014787074 0.067148857 0.39754593 -0.91512197 0.0026804381
-0.0014945269 0.023423938 -0.014697494 0.04422624 0.42105973 -0.90595406 0.0026566768
0.0015916376 0.023387974 -0.014633405 0.015227565 0.43794787 -0.89887136 0.0025498555
0.0044869306 0.023401275 -0.01462725 -0.012382385 0.44612274 -0.89488614 0.0025586332
0.0075910604 0.023465699 -0.014685094 -0.04472547 0.44648671 -0.89367187 0.0025572649
0.010531575 0.023659825 -0.014781023 -0.073316462 0.51888162 -0.85169631 0.0011075874
0.013393286 0.023959998 -0.014859033 -0.10125697 0.51615751 -0.85048723 0.0013913286
0.047656123 0.021391172 -0.0149153 0.30588517 -0.39037481 -0.86835575 0.0030400055
0.049727302 0.022243483 -0.014429243 0.3712557 -0.42932945 -0.82331371 0.0017646758
0.052396502 0.022573959 -0.013308414 0.4179455 -0.47433984 -0.77480537 0.0025226176
0.054536249 0.023161579 -0.012459309 0.48470545 -0.49962789 -0.71793628 0.0018415781
-0.049181107 0.02608539 -0.012601712 -0.42134783 -0.51770908 -0.74460953 0.0011913957
-0.04642202 0.025435979 -0.013550287 -0.36955211 -0.45264658 -0.81150621 0.0010943407
-0.0436843 0.025006155 -0.014490982 -0.32351947 -0.41595343 -0.84989285 0.0016107321
-0.04161099 0.024214208 -0.014857901 -0.28084138 -0.43710372 -0.85444039 0.0036250355
-0.015911853 0.026518449 -0.014835723 0.16362053 0.41411752 -0.89539653 0.0025772117
-0.013325916 0.026088975 -0.014574106 0.1511746 0.45189664 -0.87916756 0.0024970449
-0.010426672 0.025681064 -0.014330652 0.12828755 0.48573321 -0.86464185 0.0014850278
-0.0075384546 0.02555557 -0.013974384 0.10654817 0.50162357 -0.85849947 0.0012271841
-0.0045114085 0.025510814 -0.01368035 0.079503104 0.51471615 -0.85366654 0.0010782115
-0.0015097783 0.025536608 -0.013403224 0.05622673 0.58524704 -0.80890328 0.0016669659
0.0014879388 0.025544222 -0.013265721 0.024739947 0.571226 -0.82041991 0.0030584163
0.004513232 0.025552699 -0.013232687 -0.0075037088 0.57359838 -0.81910229 0.002481482
0.0074816565 0.025548117 -0.013320399 -0.05360673 0.58357519 -0.81028783 0.0031839018
0.010450598 0.025578836 -0.013532283 -0.077125691 0.60491675 -0.7925449 0.001311001
0.013470073 0.025576472 -0.013836498 -0.10417039 0.54598576 -0.83129305 0.0010843476
0.016440913 0.025681498 -0.014217696 -0.13022372 0.53719962 -0.83334172 0.0011930792
0.019341718 0.026046794 -0.014477917 -0.15551673 0.51352602 -0.84386349 0.0018859647
0.022184862 0.026517861 -0.014763922 -0.17456535 0.5276286 -0.83134532 0.00072474766
0.024264459 0.026775222 -0.014999092 -0.18728681 0.55508077 -0.8104375 0.001257321
0.050908107 0.024118433 -0.014845309 0.39247128 -0.40615627 -0.82522929 0.0016459484
0.052922942 0.025142562 -0.014404433 0.3900457 -0.34978753 -0.85177052 0.0019250939
0.055442128 0.02559465 -0.013270371 0.45182627 -0.41161209 -0.79147243 0.0016635354
0.057673298 0.026374787 -0.012351239 0.49895784 -0.43340877 -0.75046515 0.0024419192
-0.054058898 0.029576028 -0.012030913 -0.47171789 -0.49742344 -0.72804683 0.0015737468
-0.052063558 0.028621322 -0.012587243 -0.42864183 -0.46406722 -0.77518249 0.002057032
-0.049405076 0.028393982 -0.01381026 -0.37383217 -0.40762529 -0.8331213 0.0024633775
-0.046891235 0.027840305 -0.014614029 -0.32705542 -0.34815624 -0.87853396 0.0018447828
-0.024442285 0.029561706 -0.014953887 0.1907078 0.40410691 -0.89461064 0.0038993724
-0.022282433 0.02924169 -0.014609099 0.19318801 0.46660471 -0.86310977 0.002486238
-0.019345703 0.028572772 -0.014300754 0.18820003 0.50956279 -0.83959907 0.0014471431
-0.016485531 0.02839048 -0.013762288 0.18353625 0.53672189 -0.82355571 0.0011286871
-0.013549654 0.028299728 -0.013148366 0.17635679 0.60691565 -0.77495271 0.0017272795
-0.010569698 0.027908515 -0.012866659 0.14667252 0.62109995 -0.76988435 0.0014170671
-0.0076141688 0.027594572 -0.012592348 0.11940067 0.6389997 -0.75988346 0.0017516096
-0.0046874736 0.027371664 -0.012389656 0.089678816 0.65788907 -0.74775648 0.0015635176
-0.0014922386 0.027185589 -0.012184535 0.062762372 0.67886072 -0.7315799 0.0017593746
0.00074349373 0.027188415 -0.012033063 0.022927981 0.64971107 -0.75983542 0.0022459754
0.0083420444 0.027200148 -0.01204602 -0.036063999 0.66043359 -0.75001794 0.0024958292
0.010440457 0.027204338 -0.012285446 -0.074115701 0.69208527 -0.71800065 0.0015009491
0.013350815 0.027422188 -0.012413024 -0.10452294 0.6802001 -0.72553617 0.0016875617
0.016537353 0.027755797 -0.012670473 -0.14108567 0.66385657 -0.73443121 0.0012920779
0.019640373 0.028118892 -0.012980576 -0.16318707 0.63198698 -0.75760317 0.0023487122
0.02251344 0.028387444 -0.013465062 -0.19388956 0.60716242 -0.77055866 0.0025724256
0.025417905 0.028505249 -0.014096751 -0.19168216 0.5587793 -0.80686039 0.0013402207
0.028338946 0.028979553 -0.014515092 -0.19709864 0.5299418 -0.82481146 0.0017400957
0.031360883 0.029642157 -0.014807736 -0.20362714 0.57063776 -0.79555541 0.0013170121
0.053718396 0.027506467 -0.014920074 0.35077423 -0.22553186 -0.90889645 0.0032433695
0.055599462 0.028491275 -0.014369748 0.40916389 -0.27160725 -0.87109953 0.0014918293
0.05839505 0.028731992 -0.013024976 0.47434777 -0.32991055 -0.81618214 0.0024711201
0.060272019 0.029831922 -0.012273402 0.53437251 -0.325019 -0.78026193 0.0011869121
-0.054888878 0.031593047 -0.012645952 -0.45143089 -0.37282309 -0.81068683 0.0028895023
-0.052465394 0.031324767 -0.01373764 -0.39335167 -0.3233285 -0.86065853 0.0012709425
-0.049938805 0.031042142 -0.014657329 -0.32894906 -0.27863261 -0.9023062 0.0026143556
-0.030858651 0.03280605 -0.01468878 0.21582957 0.49951696 -0.83898771 0.0016503168
-0.028337076 0.032187395 -0.014328007 0.22989255 0.48694196 -0.84263694 0.0020784638
-0.025401762 0.031602439 -0.013865406 0.21253727 0.52307904 -0.82535827 0.0010817958
-0.022598313 0.031298231 -0.013255569 0.2445462 0.58954662 -0.76982594 0.002435762
-0.019719597 0.0307924 -0.012835954 0.22111063 0.59776753 -0.77057379 0.0015611683
-0.01682372 0.030281032 -0.012426753 0.20447263 0.64033967 -0.74037564 0.0008377005
-0.014732549 0.030040182 -0.012027184 0.17912319 0.69319153 -0.69814074 0.0014442753
0.023350621 0.03001029 -0.012335478 -0.2081963 0.64735496 -0.7332024 0.0015063832
0.0257362 0.030404791 -0.012669398 -0.21295065 0.64385498 -0.73491687 0.0013606151
0.028629588 0.030928692 -0.013034462 -0.23027213 0.64119786 -0.73201096 0.0022477417
0.031485219 0.031450659 -0.013461322 -0.24447593 0.61499083 -0.74967843 0.0023426572
0.034394979 0.031713806 -0.014116807 -0.22569256 0.55988216 -0.79724205 0.0011914544
0.037276227 0.032249954 -0.014602376 -0.22981595 0.50923991 -0.82937282 0.0020493614
0.039374065 0.03272678 -0.01483946 -0.19816892 0.50544393 -0.83979493 0.001442939
0.056371402 0.031398509 -0.014728803 0.35514122 -0.13021967 -0.9256984 0.0029615816
0.058506671 0.031552795 -0.013787735 0.41381714 -0.16807267 -0.8947106 0.0015811149
0.060878851 0.031713028 -0.012514556 0.50543106 -0.24312913 -0.82790565 0.0031821248
-0.057710767 0.034717306 -0.012363857 -0.47163522 -0.30102313 -0.8288216 0.0032998812
-0.055473994 0.034527153 -0.01339939 -0.39251804 -0.23131907 -0.89018041 0.0036522707
-0.05264926 0.034467902 -0.01452663 -0.33978131 -0.17823021 -0.92346233 0.002753908
-0.050863404 0.033248574 -0.014928272 -0.26147678 -0.11007737 -0.95891231 0.0047468124
-0.037242971 0.035550654 -0.014764275 0.20122232 0.43343282 -0.87843359 0.0024703727
-0.03439318 0.035047106 -0.014291298 0.22838847 0.49151936 -0.84038526 0.0017131465
-0.031484596 0.034655984 -0.013625572 0.26002803 0.53917044 -0.80104971 0.001458284
-0.028669359 0.034264572 -0.012961863 0.28019175 0.62054235 -0.73240691 0.0011822402
-0.025841849 0.033649381 -0.012453381 0.26493686 0.65548539 -0.7072109 0.0013539868
0.032312118 0.033230837 -0.012189997 -0.25316176 0.68160778 -0.68652737 0.00077912875
0.034768626 0.033706967 -0.012618043 -0.26602945 0.66484421 -0.69800466 0.0013193547
0.037649743 0.034384858 -0.013107404 -0.29026163 0.60546863 -0.7410506 0.0019725419
0.040449146 0.034593504 -0.013919374 -0.23685266 0.530424 -0.81397247 0.00074753142
0.043306336 0.03511788 -0.014458721 -0.22842339 0.48385713 -0.84481061 0.0020789818
0.046010394 0.035749257 -0.014790041 -0.17027782 0.49024341 -0.85479045 0.0025147174
0.056470137 0.034650404 -0.014826906 0.26126689 0.02469012 -0.9649508 0.0034437187
0.058595799 0.03446909 -0.014134288 0.33981115 -0.029555092 -0.9400292 0.0047440813
0.061465193 0.034499139 -0.012860878 0.4790979 -0.15797837 -0.86342812 0.0013518288
0.063139431 0.035596147 -0.012087326 0.54505748 -0.1660562 -0.82178938 0.0019314187
-0.060198106 0.038519461 -0.012036354 -0.50137955 -0.22362581 -0.83582902 0.003466174
-0.058278505 0.037618831 -0.012806159 -0.44468901 -0.19728588 -0.87368762 0.0016519245
-0.055522248 0.037708778 -0.013967962 -0.30780295 -0.052608561 -0.94999456 0.0044766162
-0.052717578 0.037747305 -0.014700251 -0.14634356 0.11101498 -0.98298484 0.0046185451
-0.049708098 0.038808193 -0.014885978 -0.03160819 0.22135735 -0.97468042 0.0047453111
-0.046163067 0.03868936 -0.014829001 0.084393367 0.34251535 -0.93571419 0.0039389888
-0.043292768 0.038225487 -0.01459565 0.16374752 0.42705092 -0.8892774 0.0029692233
-0.040384103 0.037731703 -0.01425406 0.20423588 0.49156111 -0.84655505 0.0012153488
-0.037499521 0.037570763 -0.013534742 0.26349291 0.56489211 -0.78196448 0.0022910866
-0.034645107 0.037139349 -0.012893572 0.2855252 0.61432779 -0.73557919 0.0015361424
-0.032090615 0.036503326 -0.012434748 0.29332694 0.65113121 -0.69999105 0.0012359204
0.040873811 0.036705952 -0.012462067 -0.30812836 0.63059682 -0.71232331 0.0015964878
0.043633919 0.037368063 -0.013054645 -0.29675469 0.57492173 -0.76249701 0.0015545926
0.046497177 0.037479043 -0.013877275 -0.20113735 0.49319956 -0.84634387 0.0012640572
0.049488589 0.037525926 -0.014484433 -0.14247991 0.44089898 -0.88617575 0.001699036
0.052565839 0.037872311 -0.01462486 -0.054409236 0.36767107 -0.92836285 0.0029381849
0.0555254 0.037684016 -0.014566236 0.073888302 0.25900328 -0.96304613 0.0037387931
0.058578491 0.037613552 -0.014068136 0.24947613 0.11701964 -0.96128458 0.0053453469
0.061543256 0.037610997 -0.013058957 0.36776185 0.035330202 -0.92924857 0.0035177595
0.063358836 0.03780118 -0.012202351 0.47873729 -0.033207122 -0.87732995 0.003092414
-0.060516894 0.040505853 -0.012186171 -0.41573343 -0.07662382 -0.90625304 0.0049246042
-0.058506634 0.040759079 -0.013014956 -0.31231394 0.039284945 -0.9491663 0.0041458607
-0.055382706 0.040738758 -0.013858796 -0.19865736 0.16582774 -0.96593815 0.0073988372
-0.052452039 0.040608291 -0.014280627 -0.096369766 0.27525967 -0.95652753 0.0063587758
-0.049461983 0.040634323 -0.014271678 0.030640069 0.35579833 -0.93406034 0.0052269697
-0.046488464 0.040579792 -0.013935961 0.13512981 0.44872996 -0.88339192 0.0020788594
-0.043503083 0.040575746 -0.013270688 0.23099677 0.5430752 -0.80728549 0.0020708633
-0.040623154 0.040103186 -0.012718857 0.25796542 0.59813994 -0.75873744 0.0022586542
-0.038076926 0.03946789 -0.012320058 0.28904954 0.63816679 -0.71357793 0.0015257207
0.044996284 0.039116271 -0.01221646 -0.3312169 0.57521534 -0.74794567 0.0021238485
0.046832863 0.039633907 -0.012547834 -0.26898959 0.58197516 -0.76743048 0.0025528281
0.049603969 0.040227182 -0.012991772 -0.20752132 0.52818513 -0.82338047 0.0024648418
0.052470699 0.040382091 -0.013472661 -0.092993967 0.43843603 -0.89393842 0.0025102552
0.055506695 0.040604103 -0.013643554 0.0027084732 0.36853549 -0.92960972 0.0042063477
0.058463566 0.040520944 -0.013491879 0.14434768 0.26719895 -0.9527688 0.0045759035
0.061480563 0.040536184 -0.012808963 0.26836583 0.15474734 -0.95080656 0.0045588524
0.063339204 0.04035496 -0.012153405 0.4452253 0.076052152 -0.89218301 0.0035985583
-0.060412254 0.043733858 -0.012157754 -0.33495983 0.13220429 -0.93291152 0.0063202926
-0.05849633 0.04366925 -0.012685661 -0.20174292 0.17973566 -0.96280575 0.0046794578
-0.05549993 0.043680478 -0.013137656 -0.089718491 0.30953509 -0.94664598 0.005056371
-0.052494742 0.043623097 -0.013141315 0.055673312 0.4162595 -0.90753984 0.0046675466
-0.049595255 0.043479383 -0.012863311 0.13767447 0.49632117 -0.85715288 0.0034351558
-0.046729412 0.042883847 -0.01260993 0.20912485 0.56311738 -0.79947835 0.0030901541
-0.044371542 0.042422563 -0.01220754 0.26542112 0.61229205 -0.74474829 0.0022391984
0.052793559 0.04253339 -0.012298543 -0.19591276 0.53655279 -0.82081014 0.0021264094
0.055705611 0.042932197 -0.012579362 -0.090633288 0.46634755 -0.87994629 0.00327559
0.058595322 0.043269053 -0.012534325 0.043702945 0.37320521 -0.92671889 0.0040897173
0.06130502 0.042950824 -0.012344613 0.19153786 0.28051543 -0.94054466 0.0036294854
0.063132323 0.042111594 -0.012058378 0.34554371 0.15677686 -0.92521381 0.010843012
-0.058318835 0.045665637 -0.012173716 -0.16188453 0.34447923 -0.92473108 0.0057395543
-0.055427168 0.045673881 -0.012310198 0.0090523809 0.45873386 -0.88852757 0.0038561581
-0.05269869 0.045443542 -0.012204109 0.12800609 0.5346173 -0.83534354 0.0024524829
-0.013551622 0.0057274983 -0.0093215266 -0.1884425 -0.75423098 -0.62898725 0.00092223793
-0.01037826 0.0053542876 -0.009754641 -0.14417495 -0.75626063 -0.63818765 0.0012742053
-0.00745726 0.0050959964 -0.0099279024 -0.1110611 -0.74769652 -0.65468723 0.0013123638
-0.004445327 0.0050124493 -0.010313458 -0.090031423 -0.74539202 -0.66051871 0.0012405615
-0.001455431 0.00481328 -0.010368491 -0.051247757 -0.74995291 -0.65950316 0.0017180817
0.0014608036 0.0048837247 -0.010628316 -0.041342355 -0.73668945 -0.67496628 0.0020408533
0.0045447308 0.0047768988 -0.010630229 -0.018684061 -0.73625457 -0.67644668 0.0017056016
0.0073810965 0.0047174282 -0.010523302 0.012031877 -0.75687146 -0.65345305 0.0021198506
0.010557052 0.0048245285 -0.010581515 0.045118246 -0.75062037 -0.65919143 0.001396617
0.013481251 0.0048703621 -0.010350474 0.076138102 -0.76558518 -0.6388132 0.0012649249
0.016392307 0.0050717196 -0.010242705 0.10022578 -0.78102088 -0.6164099 0.0012655457
0.019417506 0.0052564428 -0.0099463798 0.13266584 -0.79060525 -0.59778178 0.0012664064
0.022308471 0.0055358843 -0.0095588434 0.15770727 -0.79629678 -0.5839861 0.0011730155
0.024735233 0.0057336111 -0.0091794534 0.19826934 -0.80241495 -0.56286728 0.0010359527
-0.022204468 0.0085689249 -0.0096257748 -0.27184567 -0.73261082 -0.62400424 0.00098686083
-0.019305693 0.0080912346 -0.010240856 -0.23920983 -0.73588735 -0.63344175 0.0017627005
-0.01643122 0.0076929028 -0.010681147 -0.19206983 -0.71641177 -0.67071849 0.0017092455
-0.01353212 0.0071570035 -0.010909725 -0.17557451 -0.70145851 -0.69074565 0.0030009544
-0.010559951 0.0066904449 -0.011148739 -0.13355961 -0.71951139 -0.68151683 0.0011888697
-0.0076194019 0.0065379986 -0.011448923 -0.10150464 -0.65063679 -0.75257462 0.0015242009
-0.0048783966 0.0063786902 -0.011694266 -0.07891465 -0.70731914 -0.70247573 0.0012786405
-0.0021110547 0.0063045998 -0.011918679 -0.036657277 -0.67102724 -0.74052596 0.0033172136
0.0080462648 0.0060219103 -0.01193007 -0.0010448118 -0.67485976 -0.7379452 0.0032747977
0.010555604 0.0060688346 -0.011923398 0.028221793 -0.71599615 -0.69753355 0.001358973
0.0134884 0.0061148717 -0.011737 0.054932389 -0.73269057 -0.67834133 0.0013983338
0.016693508 0.006326681 -0.011651311 0.079614498 -0.68988532 -0.71952754 0.0012493613
0.019592304 0.0065260525 -0.011441201 0.11621703 -0.70817959 -0.69640166 0.0013379171
0.022593953 0.0068296301 -0.011173115 0.14478967 -0.77084577 -0.62034887 0.0013277637
0.025579493 0.007097201 -0.010714147 0.18445545 -0.77629977 -0.60277271 0.00096382992
0.02841237 0.0077435849 -0.010560244 0.20104076 -0.77776301 -0.59553945 0.0020116724
0.031314272 0.0081770308 -0.010054414 0.25611258 -0.7761876 -0.57614154 0.0012677656
0.033875741 0.0085665807 -0.0093853353 0.29077229 -0.78368753 -0.5488947 0.00096946815
-0.031042546 0.011663262 -0.0092049623 -0.31833905 -0.73879498 -0.59400517 0.00064377784
-0.028048282 0.011084002 -0.010002415 -0.2994507 -0.72285509 -0.62274373 0.0012431988
-0.025355816 0.010569728 -0.010574467 -0.25606278 -0.69431096 -0.67258012 0.00096703379
-0.022573644 0.0099783903 -0.011019088 -0.2415254 -0.71275318 -0.6585198 0.0012244398
-0.01970236 0.0095437421 -0.011634409 -0.21197093 -0.69305223 -0.68901885 0.0011402334
0.029563278 0.0092012659 -0.011933414 0.19958861 -0.71647865 -0.66844803 0.0028459602
0.031790867 0.0095055653 -0.011553473 0.23193161 -0.70219755 -0.67314661 0.0013755416
0.034647636 0.0099358801 -0.010808153 0.27357316 -0.763762 -0.58465827 0.0012757276
0.037445787 0.01072434 -0.010482379 0.29502451 -0.75763482 -0.58219421 0.0021877408
0.040157802 0.011284203 -0.009654887 0.35746866 -0.74993986 -0.55660254 0.0010676683
-0.037035689 0.014740588 -0.0095852697 -0.37866086 -0.71152008 -0.59190798 0.0010287857
-0.034376904 0.013988761 -0.010256436 -0.33467576 -0.71278793 -0.61638099 0.001549205
-0.031593408 0.013229378 -0.010784503 -0.30262122 -0.71853775 -0.62619799 0.001063346
-0.028705481 0.012580172 -0.011333068 -0.26920134 -0.70099384 -0.66040766 0.0013720155
-0.026405234 0.012144687 -0.011863896 -0.25931016 -0.6901046 -0.67565811 0.0010810676
0.038205769 0.012093186 -0.011799748 0.28623095 -0.68945307 -0.66537684 0.001051282
0.040679812 0.012618321 -0.011039469 0.32998052 -0.73149174 -0.59668475 0.0018111307
0.043444622 0.013544252 -0.010544329 0.36605018 -0.73470604 -0.57115167 0.00097619562
0.046088021 0.014446914 -0.0098548271 0.41806501 -0.71526551 -0.56001514 0.0010696019
-0.042849112 0.017743407 -0.0091459705 -0.45943305 -0.70327961 -0.5425117 0.001103778
-0.040195398 0.017040607 -0.010299734 -0.40291548 -0.66615546 -0.62761128 0.0010985839
-0.037609208 0.016303014 -0.01097912 -0.35654286 -0.68849927 -0.63154244 0.0012598662
-0.035340466 0.015544744 -0.01139847 -0.34304652 -0.69362867 -0.63340217 0.0012363733
0.044879403 0.015384569 -0.011813226 0.35601556 -0.63184631 -0.68849331 0.0014380985
0.046792392 0.015945816 -0.011133055 0.38740885 -0.65924203 -0.64444882 0.00045776495
0.049353577 0.016784824 -0.010304907 0.43460831 -0.67999762 -0.59052426 0.0021001254
0.051638983 0.017557548 -0.0094017023 0.49549547 -0.65819752 -0.56679827 0.0014319114
-0.045559376 0.020118138 -0.0097644227 -0.46113199 -0.66287339 -0.58987814 0.0010546147
-0.043357309 0.019556737 -0.010724809 -0.42632005 -0.620561 -0.65814543 0.00112636
-0.041025277 0.018651394 -0.011386434 -0.37724939 -0.63919562 -0.67015809 0.0013296568
0.050262563 0.018484227 -0.011498848 0.45659548 -0.64516157 -0.61260676 0.0011479596
0.052531336 0.019441905 -0.010696591 0.46407077 -0.60379267 -0.6481303 0.0011598348
0.054929912 0.020364812 -0.0097681936 0.5179835 -0.61374265 -0.59582967 0.0011094683
-0.049001787 0.0229284 -0.010046092 -0.47933617 -0.62383538 -0.61730564 0.0009611831
-0.046822488 0.022116499 -0.010848893 -0.44482794 -0.6160779 -0.65005863 0.0026249301
-0.044497564 0.021473054 -0.011852086 -0.41788554 -0.57978028 -0.69944727 0.0034893567
0.053666506 0.021528969 -0.011848203 0.45361927 -0.52394629 -0.72090912 0.0016752669
0.05578541 0.022319051 -0.010898644 0.49379021 -0.52953446 -0.68975675 0.0010970803
0.057851076 0.02301614 -0.0097232331 0.56750137 -0.56404585 -0.59982878 0.0014359192
-0.054300942 0.026596479 -0.0094769048 -0.50494719 -0.58381832 -0.63575506 0.0018972026
-0.052270327 0.025612112 -0.010158792 -0.48500451 -0.59412915 -0.6417017 0.0012649189
-0.049738411 0.024804948 -0.011291236 -0.45157656 -0.56925756 -0.68704039 0.0024480619
0.056587182 0.02422107 -0.011741269 0.48885152 -0.47373825 -0.73252726 0.001039624
0.058682237 0.025231617 -0.010867105 0.54726166 -0.47580472 -0.68855965 0.0018032199
0.060749102 0.026071817 -0.0097869746 0.58564389 -0.52391452 -0.61849403 0.0015302212
-0.05746606 0.029330982 -0.0093142614 -0.55829793 -0.55979669 -0.61231613 0.0012046201
-0.055292606 0.028551579 -0.01041293 -0.51546162 -0.54733533 -0.65933561 0.0027678823
-0.053133357 0.02759701 -0.01123246 -0.49258152 -0.57216132 -0.6557399 0.0010597215
-0.01247587 0.02956026 -0.011820054 0.19265588 0.62618935 -0.75549364 0.001743676
-0.010279722 0.029281048 -0.011588254 0.15813348 0.64949077 -0.74374431 0.0015359813
-0.007409411 0.029013971 -0.011214773 0.13422911 0.66678607 -0.73306131 0.0017308834
-0.0044446103 0.028729605 -0.011019533 0.10629661 0.68941593 -0.71652412 0.0016010966
-0.0015545371 0.028607152 -0.010759267 0.081526995 0.72724605 -0.68151784 0.0029294118
0.001537877 0.028496932 -0.01063357 0.055876087 0.73913652 -0.67123395 0.0022224269
0.004493224 0.028353048 -0.010705948 -0.0082364362 0.73850584 -0.67419672 0.0025463828
0.0073947157 0.028492708 -0.010630247 -0.067231804 0.74809974 -0.66017169 0.0025769391
0.01049026 0.028579397 -0.010844478 -0.088387288 0.73906612 -0.66780901 0.0025967697
0.013512487 0.028857768 -0.010943384 -0.12147631 0.76373088 -0.63400215 0.0013344091
0.016344761 0.029115345 -0.011272688 -0.15350793 0.75479513 -0.6377458 0.0014764176
0.018929217 0.029415091 -0.011565231 -0.18769532 0.67136788 -0.71696281 0.0013623295
0.059644997 0.027638454 -0.011741517 0.55664152 -0.3594676 -0.74895483 0.0026798912
0.061577603 0.028557338 -0.01067986 0.5736354 -0.37717301 -0.7271058 0.00097509258
0.063521117 0.029492075 -0.0095380666 0.62985212 -0.42602408 -0.6494534 0.0023376192
-0.060142003 0.032079943 -0.0090452908 -0.61102629 -0.50324905 -0.61105418 0.0017366456
-0.058217894 0.031570066 -0.010300015 -0.55750155 -0.45390356 -0.69509965 0.0012550356
-0.056172635 0.031064199 -0.011549423 -0.49143529 -0.41825983 -0.76390451 0.0016779032
-0.021799505 0.03277953 -0.011691365 0.25952336 0.6962229 -0.66926926 0.0020049999
-0.019290939 0.032363303 -0.011207061 0.24554472 0.72571731 -0.64268357 0.0018265499
-0.016447226 0.031868432 -0.010682373 0.23618233 0.73958957 -0.6302579 0.001420958
-0.013542329 0.031159826 -0.010483633 0.19818912 0.72324771 -0.66153908 0.0016277966
-0.010569356 0.030680688 -0.010190078 0.17601438 0.74765247 -0.64033961 0.0016006343
-0.0075746253 0.03039063 -0.0097772051 0.1422601 0.75988638 -0.63429868 0.0015287094
-0.0047717909 0.030157292 -0.0094864061 0.11191997 0.76755494 -0.63113648 0.0011348157
-0.0022037372 0.030036349 -0.0091464799 0.080407597 0.76580518 -0.63802594 0.0010369188
0.011028156 0.03002619 -0.0091418074 -0.095809937 0.81795835 -0.56724304 0.0032845112
0.013762633 0.030157996 -0.0094563616 -0.1223675 0.7810185 -0.61240202 0.0013277928
0.016664881 0.030389363 -0.0098836357 -0.16305053 0.77421856 -0.61155546 0.0013138708
0.019616989 0.03073073 -0.010302495 -0.20300126 0.75827003 -0.61952972 0.0013917107
0.022491973 0.031247947 -0.010652254 -0.22237295 0.75248992 -0.61992675 0.0017923611
0.025340779 0.031969562 -0.010856588 -0.23655409 0.74783272 -0.62031311 0.00092396181
0.028238462 0.032480121 -0.011360779 -0.24772264 0.70804501 -0.661291 0.00048954546
0.03054256 0.032777119 -0.01195878 -0.26178765 0.6954248 -0.66921711 0.0034220691
0.062337428 0.03135404 -0.011407511 0.58852899 -0.2959196 -0.75237304 0.0016903386
0.064214826 0.031680573 -0.010062138 0.64985436 -0.34479752 -0.67735076 0.0011765014
-0.060896873 0.03457059 -0.010011303 -0.59355932 -0.40499797 -0.69545954 0.0011984248
-0.058883917 0.034009989 -0.011275962 -0.51668417 -0.35672003 -0.77832401 0.0018889646
-0.028069379 0.035547018 -0.011534661 0.3011671 0.64490902 -0.70241773 0.0014628477
-0.025392892 0.035047624 -0.01083786 0.30177644 0.73082143 -0.61223453 0.0012344107
-0.022670567 0.034312528 -0.010403316 0.27897868 0.74178261 -0.60986024 0.0024827099
-0.019748041 0.033778563 -0.0097592864 0.26804692 0.74490738 -0.61095321 0.0015077768
-0.01777567 0.033430476 -0.0092744613 0.24543589 0.78564131 -0.56791633 0.003123018
0.026220482 0.033369459 -0.0095049348 -0.24534692 0.77020264 -0.58872133 0.00091527071
0.028750187 0.03375838 -0.010048556 -0.25655147 0.78864408 -0.55876815 0.00069141318
0.03156662 0.034335211 -0.010565842 -0.28169179 0.76258904 -0.58232957 0.0012036529
0.034370515 0.035052985 -0.011022938 -0.30606538 0.73209411 -0.60857379 0.00140068
0.036858179 0.035797518 -0.01147531 -0.31253704 0.69602448 -0.64642906 0.0024390661
0.062634997 0.033128548 -0.011903825 0.57786769 -0.2403792 -0.77992743 0.0022851825
0.064502329 0.03443969 -0.01083706 0.60607636 -0.22303358 -0.76349688 0.0023611167
0.066412061 0.034981966 -0.009385746 0.69038093 -0.25508678 -0.67698222 0.001672575
-0.063542679 0.037840731 -0.0095408922 -0.59621805 -0.34512472 -0.72485369 0.0023217232
-0.061614305 0.037346706 -0.010750008 -0.55678171 -0.30089831 -0.77424431 0.0030615539
-0.05981655 0.036535088 -0.011708066 -0.52561915 -0.26330438 -0.80894709 0.0010652187
-0.034312245 0.038515151 -0.011490877 0.31373465 0.64010268 -0.70131236 0.0013286642
-0.03148073 0.037818275 -0.010789403 0.32837933 0.71960461 -0.61183023 0.0012751658
-0.028764265 0.037060257 -0.010240154 0.31718561 0.73536104 -0.59886348 0.0018216097
-0.026343703 0.036537871 -0.0095011462 0.32294706 0.74580109 -0.58265418 0.0010498414
0.034887295 0.036306795 -0.0098271966 -0.32817256 0.74663347 -0.57865465 0.0011111143
0.037689112 0.037216842 -0.01027113 -0.33763784 0.73373568 -0.58960378 0.001836965
0.040342469 0.038003154 -0.010957341 -0.36088401 0.69934547 -0.6169917 0.0017957385
0.04284602 0.038572855 -0.011757711 -0.32393959 0.61926287 -0.71524584 0.0015392805
0.064909808 0.037571181 -0.011175489 0.56144387 -0.094080679 -0.82214928 0.001776746
0.066863313 0.037723307 -0.0096669756 0.6669566 -0.14328127 -0.73119038 0.0026756087
-0.064094685 0.040556163 -0.010015704 -0.57911211 -0.19406591 -0.79181278 0.0031089257
-0.061805569 0.040142808 -0.011448831 -0.49492219 -0.12352245 -0.86011297 0.0033493009
-0.042015146 0.041818503 -0.011897263 0.30073437 0.66367364 -0.68490595 0.0011754506
-0.040189642 0.04147562 -0.011356358 0.30332196 0.65135777 -0.69550616 0.0010389783
-0.03747531 0.040797751 -0.010678954 0.33340788 0.7079103 -0.62265742 0.0014257487
-0.034740653 0.039979994 -0.010124442 0.34751648 0.71441168 -0.60732877 0.0013692611
-0.032348808 0.039342176 -0.0094799008 0.35634598 0.73731577 -0.57391906 0.0012945924
0.041029565 0.039551798 -0.0096530188 -0.40339851 0.71303815 -0.5734511 0.0016630269
0.043659877 0.040241465 -0.010493372 -0.36526555 0.67457467 -0.6415062 0.0017763188
0.046315126 0.041109886 -0.01108523 -0.34253398 0.65267283 -0.67578745 0.0019477144
0.048689157 0.041677501 -0.011648688 -0.26955187 0.61154515 -0.74387783 0.0023755899
0.064801306 0.040540181 -0.011374898 0.51021117 0.015988437 -0.85990059 0.0024218336
0.066999823 0.04064573 -0.0098745367 0.62271351 -0.028515855 -0.78193009 0.003179682
-0.066293389 0.044139657 -0.0091864681 -0.59304583 -0.11691952 -0.7966345 0.0038023517
-0.064499639 0.043270398 -0.010262899 -0.50206023 -0.059863653 -0.86275828 0.0057310197
-0.061999761 0.043494448 -0.011557764 -0.37715918 0.035607181 -0.92546368 0.0058670244
-0.048528232 0.044719238 -0.011760185 0.20873675 0.60928231 -0.76498628 0.0022841997
-0.046188813 0.044286437 -0.011333329 0.26874644 0.65493542 -0.70628244 0.0018553769
-0.043428767 0.043698519 -0.010668375 0.30189988 0.66461986 -0.68347406 0.00077290315
-0.040822536 0.043022331 -0.010052432 0.35800579 0.69763404 -0.62059534 0.0016165955
-0.038493723 0.042462964 -0.0093843807 0.37531698 0.73489046 -0.56486565 0.0019266563
0.046987046 0.042777192 -0.0098007815 -0.36648795 0.67570972 -0.63961154 0.0010778724
0.049597971 0.043340344 -0.010574246 -0.30279487 0.61717808 -0.72622752 0.00099214283
0.052432422 0.043946095 -0.011204395 -0.24208695 0.56521219 -0.78862476 0.0012458231
0.055174161 0.044507336 -0.011566731 -0.16887845 0.55523211 -0.81436938 0.002461487
0.058211226 0.04478072 -0.011846755 -0.033186525 0.46377039 -0.8853336 0.003266779
0.061834488 0.044475216 -0.011768391 0.13927534 0.33331114 -0.93247306 0.0040524132
0.064576551 0.0434714 -0.01114738 0.42004228 0.14715415 -0.89549434 0.0033177468
0.067152381 0.043486271 -0.0096968245 0.56520379 0.080587946 -0.82100564 0.0039327592
-0.066228867 0.046393663 -0.0093019912 -0.50243241 0.042453866 -0.86357361 0.0055769361
-0.064342596 0.046425585 -0.010282287 -0.38507563 0.14224117 -0.91185749 0.0059133051
-0.061476521 0.046394601 -0.011322358 -0.20180872 0.30876681 -0.92948174 0.0039460529
-0.058503494 0.047138873 -0.011547008 -0.062974997 0.40127847 -0.91378868 0.005763093
-0.055475555 0.047167417 -0.01146279 0.079263024 0.51295805 -0.85474634 0.0026140776
-0.052427568 0.046976354 -0.011097023 0.18736249 0.58682382 -0.78773916 0.0022639302
-0.049559094 0.046541467 -0.010570724 0.23927306 0.61866212 -0.74833524 0.00088876922
-0.046670374 0.045911521 -0.0099775298 0.32152933 0.67386121 -0.66522926 0.0017597409
-0.044363756 0.045360014 -0.0094101811 0.35238031 0.701415 -0.61955237 0.0017434935
0.05063327 0.045224637 -0.0093126902 -0.34551027 0.64871955 -0.6780749 0.0032984577
0.052700803 0.045761175 -0.0098064989 -0.31643513 0.62447035 -0.71407676 0.0022390699
0.055552047 0.046496484 -0.010250473 -0.24984106 0.58412379 -0.77225572 0.0027793145
0.058499735 0.046525154 -0.010893354 -0.082928874 0.4891519 -0.86824721 0.002864342
0.061527856 0.046417195 -0.011017287 0.087052554 0.3909606 -0.9162814 0.0057062227
0.064569727 0.046422839 -0.010414731 0.3043054 0.2840257 -0.90924567 0.0076569673
0.066812895 0.04634323 -0.0094938604 0.48902097 0.18572901 -0.85226941 0.0045109685
-0.06632261 0.048408698 -0.009134111 -0.47852695 0.13973656 -0.86688274 0.010085458
-0.064378999 0.049321603 -0.0096089533 -0.25492191 0.2786521 -0.92594165 0.0061994274
-0.061524305 0.049338941 -0.010182478 -0.12925087 0.423783 -0.89649445 0.0067361761
-0.058487225 0.049514763 -0.010215635 0.06270729 0.55846381 -0.82715535 0.0028301203
-0.055591885 0.049350474 -0.0099676363 0.14659439 0.61469179 -0.77502525 0.0031518163
-0.052853812 0.048902657 -0.0096134562 0.2395003 0.66631109 -0.70616508 0.0029934361
-0.05076851 0.048419569 -0.0093117878 0.31302518 0.69307762 -0.64935249 0.001439422
0.056401715 0.048180182 -0.0092435675 -0.2950891 0.63001877 -0.71833056 0.0028212904
0.05878995 0.048631731 -0.0095740706 -0.17541796 0.57571536 -0.79861152 0.0040768366
0.061608739 0.049078956 -0.0096743852 -0.024569297 0.48641899 -0.87338018 0.0051384717
0.064398795 0.049016729 -0.0095464904 0.17768164 0.37397271 -0.91026026 0.0063145845
0.06637565 0.048472952 -0.0091810012 0.45020366 0.3145543 -0.83568668 0.0067502558
-0.063815504 0.051131137 -0.0090468302 -0.18464316 0.38507676 -0.90422499 0.0097787548
-0.061468557 0.051084638 -0.009200681 -0.028689288 0.54791611 -0.83604121 0.0056834519
-0.058701199 0.051041987 -0.0091070645 0.10284225 0.66575336 -0.73905075 0.0037361782
-0.0099061532 0.0029842295 -0.006185723 -0.16310158 -0.89377213 -0.41781482 0.00081630744
-0.0067370296 0.0025727481 -0.0062728338 -0.12587212 -0.90029031 -0.41669354 0.0011467583
-0.0040359478 0.0024812708 -0.0068458193 -0.093077831 -0.89824563 -0.42952448 0.0010040342
-0.0014414266 0.0024958351 -0.0071927225 -0.05262433 -0.86525846 -0.49855644 0.0017921344
0.0016326207 0.0024234031 -0.0072922809 -0.025205025 -0.8671636 -0.49738517 0.0021870395
0.0045330036 0.0023950669 -0.0073814206 0.0080591505 -0.87434828 -0.48523188 0.0019173516
0.0073362077 0.0023867786 -0.0072164657 0.021272847 -0.87776721 -0.47861496 0.0018052674
0.010391808 0.0022479335 -0.0067390869 0.053935219 -0.91023523 -0.41056418 0.00089844747
0.013282631 0.0024864401 -0.0067024166 0.093936816 -0.88032222 -0.46498245 0.0015944329
0.015999787 0.0025766613 -0.006212079 0.11857186 -0.92883092 -0.35101804 0.0017319814
-0.019003401 0.0055881087 -0.0068902983 -0.27612671 -0.83572412 -0.47467798 0.0015043231
-0.016309869 0.0052732932 -0.0075714169 -0.2275815 -0.82786942 -0.51267815 0.0016839503
-0.013567936 0.0045272275 -0.0075301593 -0.20778115 -0.83018631 -0.51731777 0.0018262373
-0.01052104 0.0040242542 -0.0078370571 -0.14485613 -0.82252991 -0.54996473 0.0012312725
