# .PCD v0.7 - Point Cloud Data file format
VERSION 0.7
FIELDS x y z normal_x normal_y normal_z curvature
SIZE 4 4 4 4 4 4 4
TYPE F F F F F F F
COUNT 1 1 1 1 1 1 1
WIDTH 558
HEIGHT 1
VIEWPOINT 0 0 0 1 0 0 0
POINTS 558
DATA ascii
0.028354928 0.019603785 -0.017462535 -0.0067312741 -0.050966907 -0.99867767 0.0025143102
0.031492874 0.019583797 -0.017433792 0.028813461 -0.17210333 -0.98465741 0.005586525
0.034521561 0.019698925 -0.017302303 0.078671433 -0.18975712 -0.97867411 0.002486408
0.037705783 0.019857179 -0.016982282 0.11353268 -0.17647164 -0.97773623 0.0035944241
0.040147889 0.019151434 -0.016317632 0.12080958 -0.23684648 -0.96400666 0.0012252396
0.043589965 0.02036 -0.015978415 0.1463502 -0.19382483 -0.97005856 0.00098962849
-0.039638635 0.023378724 -0.015286565 -0.28333852 -0.40866274 -0.86759102 0.0024653908
-0.037401866 0.02279705 -0.015638705 -0.23990528 -0.37581849 -0.89510107 0.0013202579
-0.034418158 0.022608753 -0.016178923 -0.13276263 -0.28085503 -0.95052326 0.0031911696
-0.031460412 0.02257056 -0.016558297 -0.094881266 -0.22711335 -0.96923524 0.0042223637
-0.028373994 0.022608656 -0.016796751 -0.059054703 -0.16520472 -0.98448962 0.006037496
-0.025552023 0.022448253 -0.016846921 0.00062938512 -0.089588232 -0.99597865 0.0069514136
-0.022524191 0.022605585 -0.016799321 0.033437386 0.099855043 -0.99443996 0.0065045035
-0.019476697 0.022556476 -0.016636407 0.062426653 0.15939033 -0.98523992 0.0046144691
-0.016536472 0.022468243 -0.016424248 0.077996209 0.21476831 -0.97354567 0.0039305585
-0.013509495 0.022525543 -0.01614501 0.077499241 0.2514376 -0.96476579 0.0026239397
-0.010492072 0.022617798 -0.015836719 0.075216286 0.28972924 -0.95414853 0.0022527403
-0.0075119589 0.02253798 -0.015589513 0.062761903 0.31774566 -0.94609654 0.0022317364
-0.004528509 0.022174554 -0.015530762 0.047078028 0.34758937 -0.93646425 0.0022717782
-0.0015047893 0.022083439 -0.015408587 0.027447296 0.37129089 -0.9281109 0.0026344731
0.0015113105 0.02187415 -0.015437609 0.0055329166 0.38572833 -0.9225958 0.0024950113
0.0046214908 0.021957126 -0.015411935 -0.015419 0.3954201 -0.91837096 0.0026383852
0.0075921887 0.02203987 -0.015475498 -0.039731465 0.39321411 -0.91858804 0.0025955334
0.010544495 0.022234267 -0.0155797 -0.057426207 0.38229445 -0.92225444 0.0023230496
0.013550851 0.022552647 -0.015679069 -0.076346599 0.37323171 -0.92459148 0.0025370268
0.01646255 0.022609917 -0.015964728 -0.10710188 0.3665303 -0.92422116 0.0018554112
0.019476462 0.022568353 -0.016330041 -0.098172233 0.32754028 -0.93972313 0.0027352509
0.022477614 0.022514446 -0.01670297 -0.10357462 0.29433417 -0.95007354 0.0032022838
0.02554035 0.022575689 -0.01702808 -0.09326832 0.25461769 -0.96253353 0.0039210105
0.028359849 0.022632563 -0.017289989 -0.076131493 0.20981605 -0.97477239 0.0054399525
0.031458315 0.022586266 -0.017485775 -0.049587265 0.037702799 -0.9980579 0.0064836801
0.034693006 0.022600599 -0.01757309 0.026942706 -0.040747475 -0.99880612 0.0080618495
0.03743726 0.022643004 -0.017503193 0.057978075 -0.11004955 -0.99223369 0.0057155024
0.040458713 0.022521654 -0.017233113 0.10246798 -0.16495329 -0.98096418 0.0032060381
0.043436885 0.022488695 -0.016720695 0.13673893 -0.14399953 -0.98008502 0.0031202654
0.046339665 0.023139765 -0.016245227 0.14760037 -0.12590197 -0.98100096 0.0025524022
-0.042937893 0.026056748 -0.015408951 -0.27214548 -0.35086775 -0.89600706 0.0027900762
-0.040435906 0.025607735 -0.015881475 -0.19947334 -0.26969308 -0.94205946 0.0034216589
-0.037484173 0.025574405 -0.01644459 -0.13682041 -0.21402349 -0.96719909 0.0049987952
-0.034560509 0.025592042 -0.016780952 -0.081281662 -0.13926704 -0.98691332 0.0071426225
-0.031516962 0.025637325 -0.01689849 -0.0066082794 0.063045219 -0.99798882 0.00799987
-0.028532868 0.025486808 -0.016838271 0.046830595 0.1375351 -0.98938924 0.0062074144
-0.025564928 0.025513735 -0.016635846 0.087730244 0.21104062 -0.97353238 0.0051428718
-0.022554049 0.025620133 -0.016297454 0.092749394 0.26280266 -0.96038133 0.0036857899
-0.019553335 0.025457175 -0.015952174 0.11821145 0.31421152 -0.94196451 0.0027435361
-0.016589206 0.025358211 -0.015559544 0.12169994 0.36101231 -0.924586 0.0026076848
-0.013617338 0.02484969 -0.015336351 0.11413113 0.41285419 -0.90361804 0.0028273871
-0.010672935 0.024445258 -0.015147108 0.1061282 0.45470455 -0.8842966 0.0020699394
0.014515973 0.024149314 -0.015002419 -0.10038964 0.5278374 -0.84339172 0.0016421081
0.017118501 0.024392283 -0.01522875 -0.11989576 0.50633848 -0.8539592 0.0017051981
0.019685935 0.024778446 -0.015378664 -0.12934329 0.47789562 -0.86884183 0.00242694
0.022565346 0.025262451 -0.015623362 -0.14083098 0.4389689 -0.88739675 0.0023633898
0.025396323 0.025569269 -0.015954111 -0.13798286 0.40004021 -0.9060511 0.0022284642
0.028400788 0.025549911 -0.016452592 -0.1228616 0.36063233 -0.92458063 0.0027270967
0.031467177 0.025588395 -0.016861197 -0.10689249 0.3160927 -0.94268733 0.0037066194
0.034568164 0.025526091 -0.01720746 -0.078797042 0.25967717 -0.9624753 0.0045259362
0.037682615 0.025676213 -0.017367704 -0.038518067 0.19067807 -0.98089665 0.0065346505
0.040629227 0.025676707 -0.01740841 0.032563951 0.047261611 -0.99835163 0.0047247238
0.043432154 0.025450451 -0.017219 0.095485821 -0.086698167 -0.99164808 0.0059961765
0.046223227 0.025813332 -0.016858153 0.13457407 -0.043355357 -0.98995465 0.002975615
0.049239948 0.025534667 -0.016076693 0.19287565 -0.10689156 -0.97538358 0.0011294448
0.052114934 0.026405185 -0.01543812 0.21224515 -0.081459194 -0.97381538 0.00086284609
-0.048050571 0.029394725 -0.015025802 -0.30989408 -0.35509437 -0.88197148 0.0030517566
-0.046180192 0.028831568 -0.015383882 -0.25873521 -0.273002 -0.92656678 0.0035940949
-0.043429755 0.028525587 -0.01597617 -0.18708919 -0.19748113 -0.96228832 0.0039510136
-0.040458884 0.028601928 -0.016516073 -0.15158033 -0.13671169 -0.97894502 0.0078127636
-0.037502058 0.028591719 -0.016759401 -0.040918231 0.060376603 -0.99733669 0.0083502522
-0.034469217 0.028480934 -0.016768204 0.029165287 0.14866173 -0.98845792 0.0063513215
-0.03144275 0.028597971 -0.016538911 0.085624315 0.23207545 -0.96892184 0.0051658703
-0.02849004 0.028489452 -0.016216548 0.11306425 0.29134727 -0.94991225 0.003271796
-0.025448654 0.028498154 -0.015712861 0.17155319 0.38277152 -0.90777504 0.0019110815
-0.022567982 0.027984632 -0.015437179 0.14762405 0.42396188 -0.8935678 0.0031310054
-0.019739335 0.027415417 -0.015205625 0.1607693 0.4732376 -0.86614054 0.0022012172
0.026069907 0.027311146 -0.015183629 -0.17307656 0.53836662 -0.82474601 0.0015646986
0.028690562 0.027810853 -0.015420238 -0.16758586 0.50240982 -0.84823304 0.0024258529
0.031669728 0.028361248 -0.015710847 -0.15679619 0.4528684 -0.87768167 0.0025729325
0.034501053 0.028545516 -0.016152041 -0.14187486 0.39737913 -0.90662086 0.0027707918
0.037469484 0.02862121 -0.016586367 -0.10943735 0.337551 -0.93492395 0.0033321681
0.040412787 0.028456368 -0.01696091 -0.075230733 0.27671257 -0.9580034 0.0060463306
0.043266218 0.028591439 -0.017058389 -0.030201213 0.20799664 -0.97766316 0.0072159232
0.046383217 0.028656181 -0.016933426 0.087017052 0.0084142303 -0.99617136 0.0066586197
0.049379792 0.028455876 -0.016536934 0.18103527 -0.033768535 -0.98289675 0.0031459348
0.05222217 0.028755212 -0.015880438 0.21428636 -0.046791129 -0.97564942 0.0020939412
0.054610588 0.029380869 -0.015195199 0.24793251 -0.066461414 -0.96649492 0.0013918695
-0.049028754 0.031730872 -0.015287008 -0.26440835 -0.18665048 -0.94617641 0.0034544005
-0.046576828 0.031563468 -0.015875138 -0.16261029 -0.12684309 -0.97850329 0.0044869776
-0.043464843 0.031522021 -0.016353089 -0.12390757 -0.015159322 -0.99217796 0.0063743885
-0.040438697 0.03159596 -0.016515663 -0.02186197 0.13256101 -0.99093372 0.0065248483
-0.037575409 0.031524885 -0.016427847 0.056644741 0.2223589 -0.97331798 0.0047005024
-0.034506239 0.031547427 -0.016087543 0.10535513 0.29529011 -0.94958097 0.0033958773
-0.031600207 0.031420298 -0.015633272 0.16466214 0.35853595 -0.91887885 0.0038111138
-0.028767252 0.030745151 -0.015386756 0.17646207 0.44952571 -0.87566417 0.0031671911
-0.026365377 0.030319422 -0.01510993 0.19792163 0.5027653 -0.84145951 0.0024793285
0.034946252 0.030434601 -0.015237397 -0.19224663 0.53131706 -0.82507181 0.0019151694
0.037625797 0.030973773 -0.015557288 -0.16807918 0.47047237 -0.86625928 0.0027860166
0.040449131 0.031501822 -0.015856618 -0.17841643 0.42490464 -0.88748163 0.0013957461
0.043452855 0.031555112 -0.01628853 -0.083543979 0.315887 -0.94511151 0.0030273052
0.046518888 0.031627499 -0.016490165 -0.014214315 0.24452795 -0.96953803 0.0050699343
0.049441323 0.031628769 -0.016420932 0.078366376 0.15045826 -0.98550546 0.0047272015
0.052281309 0.03145751 -0.016025333 0.17832209 0.042275786 -0.98306358 0.0037793997
0.054941647 0.032071274 -0.015453633 0.24439698 -0.0016492532 -0.96967381 0.0021496704
-0.051594634 0.035125576 -0.015119099 -0.27356997 -0.10265054 -0.95635891 0.0035398516
-0.049709447 0.034557208 -0.01549928 -0.15948811 -0.018687284 -0.98702294 0.0046322169
-0.0465835 0.034494881 -0.015941195 -0.082994871 0.10557882 -0.99094146 0.0047542336
-0.043504253 0.034510996 -0.016045997 -0.0097612925 0.1953977 -0.98067546 0.0048705749
-0.04044845 0.034546155 -0.015849233 0.078678519 0.28474069 -0.95537031 0.0038064318
-0.037542932 0.034248095 -0.015543799 0.13932955 0.37220997 -0.91763115 0.0031716628
-0.034795064 0.03364154 -0.015302357 0.18203148 0.44681653 -0.8759107 0.0033879234
-0.032399327 0.033185128 -0.015041708 0.22103792 0.50994986 -0.83132023 0.0024222203
0.041438911 0.033319209 -0.015140745 -0.21261872 0.51380616 -0.83114171 0.0022949525
0.043717474 0.033759262 -0.015444103 -0.16429785 0.44504389 -0.88030797 0.003156347
0.046538513 0.034508813 -0.015555594 -0.11027102 0.34327671 -0.9327386 0.0033710827
0.049424961 0.034638759 -0.015748348 0.0022207214 0.25782663 -0.96618867 0.0033692771
0.052296419 0.034653619 -0.015704058 0.06505429 0.16868974 -0.98352003 0.0028606621
0.055085499 0.034532871 -0.015343049 0.20654821 0.045869272 -0.97736067 0.0047985562
-0.051619571 0.037129778 -0.015090744 -0.14452387 0.11594442 -0.98268497 0.0048789489
-0.049479354 0.037453514 -0.015319989 -0.076202065 0.17679651 -0.9812932 0.0020885144
-0.046506878 0.037332874 -0.015415656 -0.0060567125 0.25161386 -0.96780878 0.004614478
-0.043585166 0.036874376 -0.015381617 0.085584365 0.36082268 -0.92869925 0.0045387764
-0.041029576 0.036444366 -0.015181434 0.15533492 0.44753903 -0.88067013 0.0028566364
0.047660746 0.036131915 -0.015034918 -0.1602391 0.4708181 -0.86755615 0.0016489316
0.049566727 0.036391746 -0.01513043 -0.096926749 0.37317279 -0.92268485 0.0022045637
0.052402873 0.036716484 -0.015200418 0.022932488 0.27898645 -0.96002114 0.0029275613
0.054689448 0.036348358 -0.015146807 0.13763252 0.15500593 -0.97827935 0.0039956369
-0.016249401 0.0089937067 -0.012222022 -0.1659926 -0.63036865 -0.75834149 0.0010282681
-0.013173143 0.0082932496 -0.012282367 -0.1480663 -0.62228167 -0.76866245 0.0016121074
-0.010638025 0.0082084062 -0.012686344 -0.11349613 -0.60552186 -0.78769404 0.0021626491
-0.0075986725 0.0082406672 -0.01306159 -0.098549262 -0.58121508 -0.80776048 0.0022039528
-0.0045988825 0.0073241545 -0.01268585 -0.067964576 -0.52443457 -0.8487339 0.00032818102
-0.0016330446 0.0078694047 -0.013311775 -0.054149762 -0.51450169 -0.85577786 0.00029355707
0.0017793642 0.0077506313 -0.013396906 -0.028561348 -0.50777477 -0.86101627 0.00040477066
0.0047595794 0.0083115958 -0.013913575 -0.014845844 -0.50749546 -0.86152649 0.00039733874
0.0072571486 0.007225662 -0.013129012 -0.012596417 -0.51175785 -0.85903734 0.00035082089
0.010279685 0.0079301065 -0.013642722 -0.0043337592 -0.51096517 -0.85959041 0.00026664534
0.013653698 0.0089345174 -0.014281173 0.020563997 -0.46389166 -0.88565326 0.0021251149
0.016659969 0.0081515117 -0.013531065 0.031794805 -0.46047977 -0.8871007 0.0013954256
-0.022356644 0.011576346 -0.012736891 -0.18887544 -0.60069871 -0.77684438 0.0012388548
-0.019480985 0.010680406 -0.012819715 -0.19679467 -0.58712286 -0.7852124 0.0012773662
-0.016469231 0.010740734 -0.013528113 -0.1629627 -0.55891103 -0.81305701 0.001008827
-0.013302322 0.010718037 -0.014005983 -0.12477109 -0.53035933 -0.83854109 0.00094635546
-0.01057061 0.010428883 -0.014231342 -0.10624326 -0.51498938 -0.85058707 0.001183072
-0.0075358003 0.010162256 -0.014348111 -0.069212288 -0.50266445 -0.8617065 0.0015869831
-0.0044483156 0.010004667 -0.014497085 -0.057162333 -0.48115808 -0.87476826 0.0018886812
-0.0012144188 0.0098276827 -0.01457765 -0.050458435 -0.46908936 -0.88170809 0.0022216637
0.0017990727 0.0098279137 -0.014702009 -0.040911775 -0.44675165 -0.89372212 0.0019558819
0.0042817979 0.0096209804 -0.014684667 -0.014381864 -0.45659575 -0.88955802 0.0025346007
0.0072260369 0.0095560029 -0.014693384 -0.0048009236 -0.45561019 -0.89016646 0.0024055548
0.010811508 0.0094527863 -0.014682338 -0.01425046 -0.45898566 -0.88832939 0.0019532095
0.013786598 0.0097708441 -0.014808399 0.020562725 -0.46389383 -0.88565212 0.0021237663
0.015951395 0.0098498249 -0.014814016 0.017176101 -0.4394379 -0.89810872 0.0020785015
0.018720491 0.010295862 -0.014933813 0.03378664 -0.44685987 -0.89396566 0.001203943
-0.03111534 0.014407777 -0.012361732 -0.26848242 -0.63155639 -0.72736079 0.00061149313
-0.028374158 0.014066111 -0.012957315 -0.23388633 -0.60100108 -0.76426101 0.0015303525
-0.02564406 0.013510572 -0.013335334 -0.23078482 -0.58650088 -0.77637303 0.0016897528
-0.022625225 0.013662234 -0.014184394 -0.1547363 -0.49513137 -0.85492784 0.0011060972
-0.019517023 0.013092978 -0.01446313 -0.16895501 -0.48855847 -0.85601687 0.0011503292
-0.016595598 0.012522439 -0.014634605 -0.13056383 -0.52163273 -0.84312063 0.0010106444
-0.014133125 0.012336972 -0.014845304 -0.10199123 -0.39967471 -0.91096538 0.0021677965
-0.039112225 0.01787197 -0.012038759 -0.3225891 -0.60252213 -0.73000228 0.0015611512
-0.036880448 0.017522745 -0.012650851 -0.29569915 -0.59444755 -0.74779278 0.0017707581
-0.034276456 0.016637871 -0.012986244 -0.29115534 -0.59809017 -0.74667042 0.00091783423
-0.031483103 0.016627515 -0.013937798 -0.22765237 -0.52995104 -0.81690049 0.00065116317
-0.028366135 0.016048677 -0.014382346 -0.20630395 -0.50890803 -0.83573395 0.0015353402
-0.025542922 0.015621455 -0.014754839 -0.16347118 -0.4685998 -0.86815399 0.0021193989
-0.042736106 0.020784408 -0.012412434 -0.39342791 -0.57466006 -0.71762133 0.00085541973
-0.040188488 0.01989766 -0.013011961 -0.35023192 -0.53824961 -0.76656699 0.0016082978
-0.037416883 0.019506345 -0.013906783 -0.30605075 -0.507842 -0.80525112 0.0010550315
-0.034536675 0.018924177 -0.014476526 -0.24751855 -0.47966635 -0.84181637 0.0017982371
-0.032317299 0.018538909 -0.014872856 -0.21443199 -0.42567682 -0.87910074 0.0030974734
-0.045825962 0.023180561 -0.012574309 -0.40925562 -0.544707 -0.7319864 0.0008251057
-0.043546136 0.022595664 -0.01331777 -0.38326275 -0.50925952 -0.7705611 0.0014670583
-0.040806714 0.022338891 -0.014315048 -0.31383911 -0.47995225 -0.81923801 0.0018116558
-0.038594563 0.021434881 -0.014642913 -0.30255577 -0.50824225 -0.80631864 0.0010937058
-0.0068672644 0.023991816 -0.014942541 0.093401894 0.48180982 -0.87128377 0.001588345
-0.0043235384 0.023687655 -0.014879952 0.067806795 0.39986917 -0.91406065 0.0027423268
-0.0014980311 0.023552783 -0.014780026 0.043774087 0.42265826 -0.90523136 0.0027046113
0.0014862255 0.023395607 -0.014770146 0.015629608 0.43899247 -0.89835483 0.002604977
0.0044335318 0.02353224 -0.014701786 -0.01261285 0.44759133 -0.89414924 0.0025981369
0.0074052885 0.023472954 -0.014813237 -0.045040991 0.44323856 -0.89527136 0.002814013
0.010347628 0.023810074 -0.014830195 -0.07584428 0.49707744 -0.86438513 0.00054477475
0.01247964 0.023955073 -0.014922244 -0.085627519 0.52416956 -0.84729815 0.0014709798
-0.049108092 0.025884343 -0.012686976 -0.4176226 -0.50121957 -0.75787216 0.0017777594
-0.046454806 0.025643239 -0.013829954 -0.35117602 -0.43994641 -0.82651234 0.00046348144
-0.043803602 0.024869276 -0.014552538 -0.31800705 -0.4082405 -0.8556934 0.0015507113
-0.015864916 0.026852256 -0.014777814 0.16388616 0.5096814 -0.8446101 0.0016821177
-0.01327761 0.026213307 -0.014638363 0.15073976 0.46295595 -0.87346971 0.0024224566
-0.010401054 0.025949806 -0.014305998 0.12811084 0.49874258 -0.85723013 0.001508448
-0.0074764551 0.025566837 -0.014091603 0.10641368 0.51623416 -0.84981084 0.0011677409
-0.0044823755 0.025519991 -0.013801382 0.081367649 0.52757543 -0.84560245 0.0011733526
-0.0014814731 0.025518535 -0.013541476 0.054129653 0.53893715 -0.84060496 0.0011611286
0.0015098175 0.025479831 -0.013435804 0.021429216 0.54782027 -0.83632153 0.0012108311
0.0045421999 0.025525719 -0.013372774 -0.007330365 0.55525899 -0.83164519 0.0011550586
0.0075505851 0.025505139 -0.01347734 -0.044422809 0.55858177 -0.82825899 0.0012316485
0.010469133 0.025500145 -0.01371285 -0.071807958 0.55858958 -0.82633001 0.0010421019
0.013476862 0.025585653 -0.013955165 -0.09511216 0.55518341 -0.82627183 0.0011951246
0.016378235 0.025837792 -0.014226669 -0.13347012 0.54164612 -0.82994288 0.0012666753
0.019276217 0.026248405 -0.014456732 -0.15550478 0.52022403 -0.83975309 0.0019678487
0.021854589 0.026642604 -0.01475291 -0.18034419 0.57151741 -0.80052722 0.0014018959
-0.05429671 0.029585103 -0.01208437 -0.47704715 -0.48084551 -0.73567218 0.0021799207
-0.052278258 0.028818367 -0.012771888 -0.43036854 -0.46118098 -0.77594775 0.001650434
-0.049591709 0.028460203 -0.013927284 -0.36579758 -0.38548669 -0.84710807 0.0010806308
-0.047205579 0.02785269 -0.014673561 -0.30991933 -0.35510963 -0.88195646 0.0030443722
-0.024432942 0.029899409 -0.014854906 0.23224254 0.53632045 -0.8114332 0.0014946964
-0.022309275 0.029472964 -0.014589514 0.20879768 0.52038735 -0.82800996 0.00080837816
-0.019388052 0.028903995 -0.01422461 0.19007218 0.51644635 -0.83495855 0.0017521768
-0.016548406 0.02858077 -0.013773073 0.18603987 0.54768783 -0.81573731 0.0011958376
-0.013577699 0.028371215 -0.013227744 0.17966513 0.61875904 -0.7647599 0.001586742
-0.010620509 0.028100014 -0.012846541 0.14981215 0.63123751 -0.76098329 0.0013708564
-0.0075490219 0.027704185 -0.012611781 0.12325352 0.64798534 -0.75161397 0.0017118482
-0.0044456739 0.027430428 -0.012420942 0.091235049 0.666444 -0.73995167 0.0017678131
-0.0014010529 0.027276501 -0.012202419 0.060537487 0.6814518 -0.72935498 0.0016223621
0.0015046902 0.027124723 -0.012165703 0.031299256 0.69782054 -0.71558857 0.0017209775
0.0046436656 0.027131565 -0.012101407 -0.0016239271 0.70289463 -0.71129215 0.0015574235
0.0072851395 0.027124178 -0.012182595 -0.041225899 0.70477778 -0.70822924 0.0017592267
0.010491516 0.027282247 -0.012317814 -0.072644159 0.69687742 -0.71350175 0.0015783373
0.013481273 0.027468208 -0.012502304 -0.1095147 0.68744761 -0.71792924 0.0017192677
0.016458087 0.027842291 -0.012691793 -0.14583081 0.67389959 -0.72428763 0.0013012252
0.019604636 0.028189205 -0.013025766 -0.17565216 0.63618106 -0.75127882 0.0027422146
0.022545282 0.028523246 -0.013473841 -0.20231861 0.59533089 -0.77759141 0.00097871188
0.025420671 0.028795321 -0.013997661 -0.19413517 0.5773536 -0.79307902 0.001183282
0.028364148 0.029307965 -0.014402027 -0.20131342 0.54333657 -0.81502038 0.0018280867
0.030744046 0.029692411 -0.014751975 -0.19886187 0.50263512 -0.84131557 0.0022919502
-0.057033617 0.032863759 -0.01210938 -0.51564777 -0.4049311 -0.75507504 0.0016868713
-0.055135656 0.03178072 -0.012755154 -0.45562696 -0.37015805 -0.80955982 0.0029923138
-0.052459065 0.031533916 -0.013994323 -0.38010004 -0.30547246 -0.8730467 0.0016028864
-0.050198782 0.031025039 -0.014739516 -0.33882406 -0.26414278 -0.90300983 0.0027808882
-0.030368702 0.032679375 -0.014746393 0.21715972 0.4309341 -0.87586385 0.0035950078
-0.028268421 0.03211971 -0.014480305 0.22873236 0.49209467 -0.83995497 0.0022974822
-0.025446724 0.031673905 -0.01396356 0.22824225 0.54622942 -0.80593973 0.0015866259
-0.022604631 0.03146128 -0.013256528 0.24288285 0.62038404 -0.74574232 0.0015746157
-0.019692753 0.031002043 -0.01277347 0.22427969 0.64808196 -0.72779691 0.0013585846
-0.016824059 0.030419566 -0.012409331 0.21219955 0.673361 -0.70820636 0.0017022393
-0.014599003 0.030088281 -0.012058522 0.16568515 0.67100078 -0.72270769 0.0027788419
0.023283321 0.030265994 -0.012131777 -0.20850758 0.69130927 -0.6918208 0.00056898198
0.025738876 0.030669501 -0.012527479 -0.22202422 0.6913833 -0.68752778 0.00099672645
0.028602734 0.031181863 -0.01291377 -0.22083344 0.65678638 -0.72101605 0.0020729797
0.031457871 0.031527825 -0.01349475 -0.23048218 0.60430735 -0.76268649 0.0011668567
0.034367949 0.031869538 -0.014114839 -0.22475564 0.564183 -0.79446995 0.0013385129
0.037090298 0.03231366 -0.014632595 -0.2293932 0.51366431 -0.82675737 0.0020850278
0.039095908 0.032876126 -0.014807619 -0.23643088 0.55923873 -0.79457688 0.0010671164
0.056459852 0.031079669 -0.014824262 0.24804567 -0.015677966 -0.96862149 0.0015866015
0.057775099 0.031465914 -0.014346382 0.28513739 -0.010565734 -0.95842844 0.0013395341
-0.057890933 0.035037793 -0.012541986 -0.47160566 -0.30447403 -0.82757694 0.0037428078
-0.055459477 0.034495302 -0.01356658 -0.39722931 -0.19599374 -0.8965463 0.0026508155
-0.052819256 0.034366265 -0.014613993 -0.33628222 -0.17112386 -0.92608368 0.0024536084
-0.036994118 0.035575241 -0.014834294 0.19975618 0.43154448 -0.87969697 0.0027113236
-0.034307808 0.035051048 -0.014392321 0.23761192 0.49696106 -0.8346079 0.0021386496
-0.031462565 0.034578864 -0.013802712 0.2425186 0.53370893 -0.81014788 0.00088112347
-0.028714787 0.034335908 -0.013029083 0.28694546 0.59510767 -0.75067246 0.0021557764
-0.025788795 0.033588879 -0.01260202 0.26829901 0.65943205 -0.70225722 0.0016438755
-0.02365067 0.033187345 -0.012125113 0.23767722 0.63403231 -0.73587531 0.001368348
0.032425556 0.033287488 -0.012264763 -0.25788185 0.67246318 -0.69375092 0.00093338656
0.034816332 0.033785332 -0.012667772 -0.26982275 0.67494869 -0.68676049 0.0012923626
0.037714828 0.034371361 -0.013252695 -0.29089934 0.60864115 -0.73819613 0.0023447603
0.040467735 0.034701813 -0.013972865 -0.24537775 0.55763543 -0.79298955 0.0013166477
0.043356348 0.035155971 -0.014574823 -0.23571679 0.48804161 -0.84038854 0.0020097813
0.045393862 0.035840176 -0.014714114 -0.17064112 0.51369613 -0.84083164 0.0026123524
0.05621567 0.035786357 -0.014995121 0.13768286 0.15509038 -0.97825885 0.0039762394
0.058205288 0.034642022 -0.014462112 0.27819782 0.029719133 -0.96006393 0.0024866853
0.061082885 0.03505953 -0.013375954 0.31333053 0.035108842 -0.94899493 0.0015070932
-0.060313191 0.03844161 -0.012119402 -0.50810903 -0.22179893 -0.83224428 0.0034980508
-0.058510389 0.037549939 -0.012847065 -0.39423668 -0.16263796 -0.90450341 0.0044167382
-0.055569358 0.037540089 -0.014085474 -0.30596754 -0.050356373 -0.95070922 0.0039969762
-0.052841116 0.037744358 -0.014819405 -0.19872615 0.048138045 -0.97887212 0.0092635956
-0.048131388 0.038954899 -0.014968166 0.01750288 0.30680898 -0.95161015 0.010831695
-0.046031564 0.038746111 -0.014922198 0.091284558 0.3341234 -0.93809837 0.0048883078
-0.043282483 0.038322192 -0.014670421 0.16633707 0.42820078 -0.88824326 0.0031877379
-0.040398248 0.037852433 -0.014319348 0.20389049 0.49346223 -0.84553158 0.0014781491
-0.037465777 0.037469566 -0.013709965 0.24900305 0.54175746 -0.80280536 0.001552918
-0.034642622 0.037129357 -0.013011854 0.27278858 0.61107332 -0.74308527 0.0022169163
-0.031752266 0.036438417 -0.012453885 0.29367477 0.65583986 -0.69543451 0.0012132049
0.038319923 0.03608584 -0.01200761 -0.31405467 0.667862 -0.67478156 0.0011442666
0.040779483 0.036644094 -0.012580308 -0.3095839 0.63686073 -0.70609218 0.001844943
0.043591928 0.037396386 -0.013120902 -0.30473211 0.58524305 -0.75141793 0.0013512417
0.046456002 0.037556484 -0.013939465 -0.2088725 0.51754582 -0.82977027 0.0012606559
0.04940651 0.037898783 -0.014422725 -0.15661475 0.45198581 -0.87816894 0.0019528089
0.052384444 0.038115654 -0.014661532 -0.061655033 0.37721977 -0.92406923 0.0027731266
0.055513829 0.037829693 -0.014696508 0.13004871 0.2039209 -0.97031105 0.0034417647
0.058453165 0.037451897 -0.014294807 0.24051742 0.16269878 -0.95691186 0.0042668092
0.061501451 0.037874602 -0.013265594 0.30133823 0.10899922 -0.94726676 0.00097602332
-0.060711525 0.04073374 -0.012280748 -0.4362798 -0.067663088 -0.89726341 0.0043584001
-0.058545761 0.040577594 -0.013144605 -0.31472307 0.035171945 -0.94853169 0.004359568
-0.055499107 0.040500868 -0.014004232 -0.21348751 0.13507223 -0.96756321 0.0064671668
-0.052534956 0.040534593 -0.014431424 -0.072500639 0.2568545 -0.96372682 0.0066354056
-0.049571324 0.04053387 -0.014443256 0.040806804 0.35982299 -0.93212777 0.0053266315
-0.04652404 0.04049319 -0.014104774 0.15325595 0.46370938 -0.87263173 0.0013001544
-0.043425791 0.04052709 -0.0133873 0.23052308 0.55796611 -0.79720312 0.0017686714
-0.040659372 0.040192995 -0.012773297 0.26857817 0.60420871 -0.75019836 0.0018193919
-0.038061168 0.039491028 -0.012401941 0.29284957 0.64471734 -0.706101 0.0015182411
0.044675771 0.039146181 -0.012164106 -0.33508191 0.60607618 -0.7213819 0.0026791401
0.046796918 0.039732952 -0.01256484 -0.28159976 0.59195811 -0.75517362 0.0021413865
0.049614135 0.04037093 -0.013021762 -0.23154585 0.52592003 -0.8184098 0.002853832
0.052477773 0.040496349 -0.013546436 -0.10458309 0.43552011 -0.89408308 0.0021414245
0.055451822 0.040565133 -0.013796878 -0.00011815564 0.3546755 -0.93498945 0.0036101437
0.05853137 0.040411398 -0.013666416 0.12652044 0.28217584 -0.95098341 0.0043172394
0.061480772 0.040864032 -0.012925803 0.25011173 0.19732459 -0.94789612 0.0023892515
0.064094871 0.03990965 -0.012001466 0.34891212 0.15659262 -0.92398 0.0025804839
-0.060663454 0.043306764 -0.012255581 -0.35212594 0.090576053 -0.93155956 0.0039314856
-0.058495287 0.043571889 -0.012850149 -0.20166525 0.18616609 -0.96159935 0.005147072
-0.055496436 0.043582816 -0.013298343 -0.093339026 0.30949518 -0.94630885 0.0055289026
-0.052484848 0.043468617 -0.013333919 0.02202609 0.40439582 -0.9143188 0.0041093626
-0.049553711 0.04346288 -0.012977662 0.175989 0.52346402 -0.83367455 0.0014378499
-0.046604134 0.042881384 -0.012680577 0.20671467 0.56267488 -0.80041617 0.0033146143
-0.04435882 0.042319637 -0.012390078 0.267784 0.61378825 -0.74266791 0.0019021679
0.050653599 0.042291336 -0.012029969 -0.28865609 0.60520303 -0.74189419 0.0029193512
0.05267537 0.042568114 -0.012374636 -0.19997261 0.5256381 -0.82687086 0.0026606189
0.055540577 0.043166462 -0.012568824 -0.096222818 0.46635714 -0.87934762 0.0037975046
0.058419805 0.043418411 -0.012619531 0.03197616 0.38329622 -0.92307174 0.0034833364
0.061213493 0.043372266 -0.012394324 0.16013992 0.32064676 -0.93356353 0.0070512812
-0.060178749 0.045351163 -0.012074575 -0.20809072 0.21933636 -0.95319974 0.0063449466
-0.058308162 0.04570723 -0.012277978 -0.11417489 0.36755344 -0.92296726 0.0045605311
-0.055566251 0.045784093 -0.012377403 0.010115774 0.45802552 -0.88888156 0.0038512517
-0.052752379 0.045468178 -0.012309902 0.12139893 0.53755105 -0.83444673 0.0033882007
-0.050719522 0.045357652 -0.012037264 0.21042992 0.59079218 -0.77889913 0.0025278106
-0.011589634 0.0057932893 -0.010212679 -0.12978128 -0.63464683 -0.76182693 0.0010969576
-0.018944487 0.0080322344 -0.010525962 -0.19486098 -0.66351008 -0.72234589 0.00025177674
-0.015888721 0.0071653198 -0.010468471 -0.16443105 -0.65074015 -0.74128246 0.00051569479
-0.01374739 0.0064819367 -0.010341086 -0.15615177 -0.64152741 -0.75103867 0.00090833555
-0.027926402 0.011507057 -0.010722158 -0.24665141 -0.63315552 -0.73367375 0.0003297517
-0.025326986 0.010794036 -0.011043938 -0.23164164 -0.61468178 -0.75399506 0.00051808497
-0.022896662 0.010103562 -0.011226498 -0.22174698 -0.6227439 -0.75034547 0.00064428354
-0.02046261 0.0094258655 -0.011426667 -0.20343302 -0.63265193 -0.74723935 0.00069665065
-0.036671408 0.014631072 -0.0099378554 -0.33098921 -0.673334 -0.66111076 0.00039896613
-0.034690697 0.014208923 -0.01050925 -0.30426073 -0.65896505 -0.68788832 0.00089933298
-0.032001663 0.0131989 -0.010774139 -0.29479858 -0.66115761 -0.68990171 0.00075709313
-0.029086336 0.012510311 -0.011291971 -0.23432967 -0.61886775 -0.74972814 0.00078157574
-0.040768858 0.017310327 -0.010434512 -0.40164879 -0.66104019 -0.63380128 0.0011919851
-0.037620496 0.016160581 -0.011028334 -0.32921427 -0.63400638 -0.69975275 0.00067601632
-0.035351336 0.015229228 -0.011258243 -0.31979799 -0.6725986 -0.66733831 0.00031084087
-0.045527674 0.020869937 -0.010775149 -0.44740769 -0.59651148 -0.66633356 0.0019925407
-0.043623302 0.019212404 -0.01037649 -0.43821955 -0.62151158 -0.64937425 0.0012459558
-0.04098342 0.018794106 -0.011752204 -0.37100744 -0.58107936 -0.7243619 0.0013454512
-0.048962284 0.02284383 -0.010178749 -0.47795197 -0.631782 -0.61025685 0.00091850391
-0.046979614 0.022167228 -0.010997042 -0.43132207 -0.60259128 -0.67145002 0.0019839976
-0.054236859 0.026312731 -0.0094432998 -0.51569998 -0.61134535 -0.60025853 0.0017786886
-0.052131761 0.025589345 -0.010433984 -0.49582374 -0.58248734 -0.64410192 0.0011777062
-0.050090011 0.0249385 -0.011384572 -0.45633766 -0.55321389 -0.69692916 0.0019202724
-0.057398826 0.029371778 -0.0095975334 -0.54688829 -0.53392839 -0.64485168 0.0024292781
-0.055428106 0.02860458 -0.010547955 -0.50358683 -0.54376239 -0.67135882 0.0024866492
-0.053365868 0.027747938 -0.011381882 -0.50913262 -0.56119847 -0.65256435 0.0010695492
-0.012631562 0.029709488 -0.011835672 0.20505725 0.71554667 -0.66779077 0.0014866784
-0.010234146 0.029444149 -0.011534856 0.16889307 0.69339728 -0.70048213 0.00039051453
-0.0073777516 0.02916209 -0.011179968 0.13742016 0.74684376 -0.65064597 0.0016672984
-0.0045041093 0.028989004 -0.010874638 0.10866682 0.7540493 -0.64776629 0.0012905773
-0.0014813778 0.028814491 -0.010636093 0.074884988 0.75974751 -0.64589167 0.0010173712
0.0015373615 0.02863857 -0.010582742 0.038903411 0.76771843 -0.63960534 0.00098253705
0.0045037675 0.028611036 -0.010528911 -0.0022587923 0.7727704 -0.63468164 0.0008608682
0.0075078057 0.028665354 -0.010545476 -0.044000834 0.77487397 -0.63058251 0.0010972288
0.010473839 0.028809568 -0.010680836 -0.080576606 0.77188826 -0.63063133 0.00097795448
0.013461515 0.028992863 -0.010885921 -0.12035226 0.77004224 -0.62653828 0.0014974523
0.01649938 0.029328346 -0.011179518 -0.15512037 0.76101547 -0.62991518 0.0015581858
0.019188868 0.029575815 -0.011570632 -0.18788615 0.71096343 -0.67766494 0.00046498445
0.021262258 0.029929806 -0.011850039 -0.21825156 0.69816488 -0.68185925 0.0029115127
-0.060491636 0.032747552 -0.0094293775 -0.59308881 -0.50449485 -0.62747955 0.0024254695
-0.058294412 0.031596944 -0.010439727 -0.55301309 -0.46975443 -0.6881187 0.0025745807
-0.056259733 0.030722953 -0.011484805 -0.51309627 -0.43895572 -0.73759753 0.0032652183
-0.021651313 0.032722231 -0.011806437 0.26317543 0.68189579 -0.68246382 0.0037999614
-0.019261604 0.03235364 -0.011322361 0.24584262 0.67336029 -0.69724268 0.0016657797
-0.016416678 0.031845909 -0.010809558 0.23823008 0.74680626 -0.62090808 0.0013826692
-0.013569152 0.031300332 -0.010451545 0.19856437 0.72535771 -0.65911174 0.0015719797
-0.010601972 0.030815689 -0.010143123 0.18001838 0.7523632 -0.63367426 0.001541219
-0.0076855221 0.030510694 -0.0097489096 0.14748299 0.76597029 -0.62573016 0.0015788908
-0.0046793306 0.03031015 -0.0093436847 0.11394148 0.77612805 -0.62019557 0.0012813198
-0.0021435099 0.030030478 -0.0092416331 0.078680031 0.78052413 -0.62015444 0.0011205274
0.010689993 0.030063087 -0.0091270292 -0.079900622 0.79267186 -0.60439003 0.0010998299
0.013708194 0.030250549 -0.0093890605 -0.12183496 0.78888404 -0.60234386 0.0015128944
0.01654315 0.030532131 -0.0097588785 -0.16619815 0.78112328 -0.60185099 0.0013841727
0.019611167 0.030920686 -0.010162711 -0.20360015 0.76251775 -0.61409581 0.0017181773
0.022513755 0.031516276 -0.010436441 -0.22851628 0.76884043 -0.59721416 0.00074338663
0.02530952 0.0320426 -0.010862093 -0.23744883 0.76006353 -0.60491455 0.0010359134
0.028169885 0.032563124 -0.011337602 -0.24631 0.74713987 -0.61734378 0.0016035804
-0.061214924 0.034785964 -0.010048117 -0.59288287 -0.41559467 -0.68976164 0.0018464236
-0.059075285 0.034237877 -0.011436688 -0.51658529 -0.35157758 -0.7807259 0.0017577473
-0.027785936 0.035508245 -0.011554154 0.30118045 0.64673263 -0.7007333 0.0014785826
-0.025374155 0.035046522 -0.010943689 0.30398548 0.73252058 -0.60910308 0.0014821977
-0.022585837 0.034295723 -0.010476518 0.2757552 0.71412575 -0.64341545 0.0012588107
-0.019693041 0.033734284 -0.0098873833 0.26793572 0.75318527 -0.60076821 0.0013548398
-0.0172248 0.033273406 -0.0093274955 0.24981448 0.76474065 -0.59393972 0.0011993117
0.025753306 0.033315927 -0.0094600832 -0.24255081 0.78073996 -0.57585955 0.00089826487
0.028668668 0.033775605 -0.01007852 -0.25522324 0.78257269 -0.56783897 0.0020910394
0.031483669 0.034411348 -0.010528612 -0.27396303 0.76142108 -0.58752203 0.0021242602
0.034242298 0.035179615 -0.010895219 -0.30697197 0.73992646 -0.59856242 0.0016490602
0.036730152 0.035686914 -0.011626171 -0.33735067 0.71245319 -0.61530888 0.0014711552
-0.063738316 0.037997473 -0.0095991446 -0.60810184 -0.34010616 -0.71731436 0.0025417549
-0.06156949 0.037401054 -0.010988738 -0.56291831 -0.29547283 -0.77189296 0.0034663333
-0.059979919 0.036602527 -0.011808413 -0.49316671 -0.22665837 -0.83988839 0.0035268182
-0.034120027 0.038453937 -0.01156417 0.31446588 0.64509892 -0.69638962 0.0013662777
-0.031348605 0.037853658 -0.010783001 0.33816904 0.72539252 -0.59953934 0.0016346514
-0.028639898 0.03698124 -0.010358062 0.3168233 0.74086308 -0.59223717 0.0019697705
-0.025898255 0.036375869 -0.0095522981 0.32115594 0.74904144 -0.5794788 0.0011095994
0.035117306 0.036545608 -0.0097131394 -0.33801797 0.75302404 -0.56453401 0.0012306956
0.037675362 0.037250359 -0.01030175 -0.35325712 0.7392047 -0.57339841 0.0016857615
0.040311404 0.0380583 -0.010966373 -0.34890571 0.70123464 -0.62171918 0.0016771959
0.042595722 0.03867675 -0.011644137 -0.35381499 0.66806364 -0.65460372 0.00091498753
-0.064297125 0.040752146 -0.010085002 -0.57067192 -0.2116306 -0.79343939 0.0034659391
-0.062131058 0.040323213 -0.011452636 -0.49227741 -0.13626583 -0.8597061 0.0027522317
-0.039981741 0.041462738 -0.011363442 0.3065193 0.68759114 -0.65822822 0.0019416915
-0.037316952 0.040769063 -0.010719993 0.33607382 0.71667695 -0.61108798 0.0014973365
-0.03469504 0.040006042 -0.010141825 0.35009605 0.71997672 -0.59922141 0.0014969067
-0.032256927 0.039342683 -0.0094958246 0.36019516 0.74320751 -0.56382805 0.0013030405
0.040946703 0.039588276 -0.0096357074 -0.40762153 0.71534407 -0.56756282 0.0015249387
0.043564048 0.040324774 -0.010444272 -0.35475311 0.66546279 -0.65674168 0.0009801687
0.046190348 0.041131899 -0.011102371 -0.35124001 0.64356977 -0.68003565 0.0017793688
0.048831385 0.041717768 -0.011781751 -0.26677167 0.62281847 -0.73547935 0.0023418867
0.064051047 0.04066221 -0.011976123 0.34891158 0.15661141 -0.92397702 0.002578194
0.066804357 0.041558273 -0.01026467 0.39734748 0.17242402 -0.90132397 0.0012693086
-0.066436686 0.043898903 -0.0091968961 -0.60647905 -0.13147648 -0.78415376 0.0030872461
-0.064570121 0.043516356 -0.010393626 -0.52873713 -0.097281143 -0.84319228 0.0025597645
-0.062137257 0.043639835 -0.011651879 -0.41256386 0.021137321 -0.91068345 0.0035929547
-0.048536681 0.044761196 -0.011833983 0.2007235 0.6209389 -0.75772345 0.0028836473
-0.046302304 0.04432492 -0.011457484 0.27098635 0.65500855 -0.70535821 0.001851717
-0.043412119 0.043682467 -0.010773897 0.30686256 0.64651281 -0.69846731 0.00094445294
-0.040711284 0.043002281 -0.010096771 0.36034042 0.71620584 -0.59766543 0.0019199743
-0.038295761 0.04237676 -0.009417776 0.37283081 0.73100686 -0.57151216 0.0013922168
0.04461946 0.042186454 -0.0090587223 -0.42387298 0.70296222 -0.571118 0.0019227696
0.046871927 0.042783324 -0.0098156016 -0.39367095 0.67688268 -0.62197506 0.0017768509
0.049504504 0.043513652 -0.010476191 -0.31602475 0.61975718 -0.71835184 0.0009462185
0.052352555 0.044067543 -0.011198696 -0.25397521 0.59788859 -0.76028013 0.0012463668
0.055271514 0.044614345 -0.011646825 -0.17463662 0.54558533 -0.81965762 0.0018234297
0.058197998 0.04482976 -0.011962865 -0.041939776 0.47690013 -0.87795639 0.0029978016
0.06185599 0.044411115 -0.011931032 0.14208521 0.30073529 -0.94306421 0.0067774099
0.063986629 0.043726068 -0.011559012 0.35481867 0.21463493 -0.90996456 0.0044480809
0.066510655 0.043791115 -0.010324131 0.40097371 0.17156656 -0.89988059 0.00125884
-0.066537574 0.046664204 -0.0092581175 -0.53663325 0.025590533 -0.84342742 0.0053543239
-0.064552292 0.046487752 -0.01031024 -0.39385566 0.14774494 -0.9072206 0.007139096
-0.061562572 0.046548694 -0.011401201 -0.28225309 0.29602402 -0.91252565 0.0098881396
-0.058557041 0.047184579 -0.011649033 -0.039061047 0.43327183 -0.90041643 0.0036396163
-0.055380419 0.047275972 -0.011501338 0.083341263 0.51598251 -0.85253525 0.0028396447
-0.052484453 0.046991941 -0.011205096 0.18025063 0.57682025 -0.79673594 0.00211002
-0.04952801 0.046576157 -0.010629254 0.25098634 0.62291765 -0.74093151 0.001105585
-0.046664875 0.045945786 -0.010029091 0.32446074 0.67637432 -0.66124356 0.0017835919
-0.044413969 0.045330118 -0.0095573515 0.35652256 0.70153296 -0.61704391 0.0018576175
0.0505937 0.04534312 -0.009245269 -0.37207758 0.67076224 -0.64158893 0.002023363
0.052777249 0.045893472 -0.0098254364 -0.32319501 0.65392274 -0.68405414 0.0022210837
0.055525191 0.04651757 -0.010344488 -0.21677293 0.56675577 -0.79485679 0.00097893365
0.058399301 0.046563387 -0.010986066 -0.090063132 0.49655467 -0.86332047 0.003430906
0.06145788 0.046595257 -0.011090254 0.053143684 0.41368815 -0.90886623 0.0041687042
0.064493902 0.046530608 -0.010577029 0.26736486 0.32497427 -0.90714264 0.0057135061
0.067293644 0.046059679 -0.0094827963 0.42309806 0.2416214 -0.87327379 0.0030332468
-0.066417441 0.048771311 -0.0091479113 -0.36577633 0.20863542 -0.90701652 0.0097290073
-0.064431109 0.049479116 -0.0096708955 -0.24222317 0.27727339 -0.92975664 0.0063076643
-0.061500262 0.04951812 -0.010209986 -0.13508844 0.4281477 -0.89355505 0.00703164
-0.058530077 0.049563657 -0.010273909 0.069733813 0.56499296 -0.82214361 0.0027836852
-0.055640414 0.049337868 -0.010075583 0.14951107 0.6264919 -0.76495385 0.0030187427
-0.052684743 0.048849717 -0.0096871806 0.24361891 0.67458546 -0.69683874 0.0023635598
-0.050240707 0.04829862 -0.0092696249 0.31732231 0.67435503 -0.66674709 0.0018113658
0.056214515 0.048219204 -0.0092440089 -0.29839733 0.63123208 -0.71589458 0.0027144684
0.058582321 0.048681639 -0.0096099284 -0.19120719 0.58537531 -0.78789306 0.0041166977
0.061430793 0.049240932 -0.0097091515 -0.039638199 0.49685702 -0.86692667 0.0047439318
0.064215109 0.049366068 -0.0095854132 0.1714194 0.37815931 -0.90973127 0.0089313462
0.066395342 0.048452884 -0.0093764812 0.41675499 0.24905421 -0.87423521 0.0041846153
-0.063905299 0.051206548 -0.0090970593 -0.17126903 0.4022795 -0.89935428 0.009264729
-0.061581884 0.051259812 -0.0091966819 -0.0034866487 0.58006442 -0.8145631 0.0049949675
-0.059137512 0.051197551 -0.009118462 0.10505689 0.65649098 -0.7469824 0.0025822108
-0.034518145 0.012771891 -0.0089031896 -0.31549469 -0.67322153 -0.6687569 0.00031480863
-0.041589856 0.01547717 -0.0074917981 -0.42055023 -0.66432393 -0.61790872 0.0013223051
-0.04644138 0.019176858 -0.0079625305 -0.48773885 -0.6689415 -0.56091726 0.0018195953
-0.05398358 0.02394487 -0.0066079125 -0.54953766 -0.68413883 -0.47954395 0.00088225747
-0.050340213 0.021912783 -0.0077546807 -0.51703537 -0.67800426 -0.52247936 0.00087565306
-0.055366106 0.025965972 -0.0078401249 -0.57118845 -0.65226299 -0.49829394 0.0010987842
-0.053262964 0.024449915 -0.0081983218 -0.5355503 -0.64942926 -0.53984028 0.0017315471
-0.060736608 0.029846411 -0.0060984483 -0.67323333 -0.6135447 -0.41269806 0.001040041
-0.05845622 0.028603667 -0.0076322993 -0.62919474 -0.59008324 -0.50588113 0.0019588317
-0.056850158 0.028062239 -0.0088642044 -0.58592081 -0.58193123 -0.5639618 0.0025404717
0.0022932424 0.029941253 -0.0088914074 0.042886674 0.78449225 -0.61865389 0.0010129458
0.0046906564 0.029908232 -0.0088960268 0.0011929822 0.78971016 -0.61347902 0.00092030829
0.0074715712 0.029974282 -0.0088783121 -0.041504048 0.79049844 -0.61105621 0.0011643373
-0.061383642 0.031751364 -0.0075246943 -0.67151052 -0.54225105 -0.50501227 0.0020799364
-0.059497133 0.030467996 -0.0084178224 -0.61987448 -0.55829108 -0.55142242 0.0032331317
-0.01546077 0.032979842 -0.0089765023 0.25164485 0.75686425 -0.6031844 0.0013750175
-0.013082777 0.032644499 -0.0084762825 0.22493678 0.80499762 -0.54898292 0.0004879903
-0.010370084 0.032294031 -0.0079811476 0.19675355 0.84506202 -0.49715024 0.0016535469
-0.0075076828 0.031921189 -0.0075684376 0.16213244 0.86156505 -0.48106012 0.0013870113
-0.0045612031 0.031492796 -0.0075142388 0.1249157 0.86226702 -0.49080718 0.0029448331
-0.0015777462 0.031051116 -0.0076137921 0.088232264 0.86487359 -0.49417469 0.0020701694
0.0013895711 0.030904388 -0.0074823191 0.045191191 0.87195754 -0.4874914 0.0020791132
0.0045017512 0.030817647 -0.0074772038 0.0050730202 0.87448364 -0.48502848 0.0022185151
0.0075327707 0.030870799 -0.0074432115 -0.036088318 0.87683582 -0.47943375 0.0022437556
0.010513012 0.03102424 -0.0075471038 -0.081502184 0.87503177 -0.47715482 0.0020174442
0.013530158 0.031382769 -0.0075117061 -0.1283451 0.87430012 -0.46810985 0.0032695259
0.016548559 0.03189503 -0.0075759902 -0.18743257 0.86818445 -0.45948318 0.0015661088
0.019324109 0.032342952 -0.0079542371 -0.22362313 0.84829122 -0.47999451 0.0017462427
0.021874418 0.03275368 -0.0085156299 -0.24563812 0.79297739 -0.55753803 0.00073998421
-0.063871801 0.034723021 -0.0072600264 -0.686975 -0.48744977 -0.53894168 0.0024833831
-0.062430613 0.033963904 -0.0083572799 -0.64950234 -0.4394871 -0.62048185 0.0030033973
-0.022068182 0.035605256 -0.0084181791 0.30824339 0.81731421 -0.4868094 0.0016900601
-0.019382341 0.035108827 -0.0075889621 0.30487496 0.84129161 -0.4464075 0.0012332661
-0.016483186 0.034152593 -0.0076071825 0.24627334 0.83551925 -0.49117908 0.0017766336
-0.0137873 0.033674445 -0.0071187411 0.22406985 0.8496415 -0.47739083 0.0017843316
-0.011094535 0.033254035 -0.006521964 0.20375751 0.86285561 -0.46256137 0.001657501
0.02004992 0.033323094 -0.0065502906 -0.23367856 0.86550403 -0.44305426 0.0018604419
0.022710539 0.033701748 -0.0073350342 -0.24506491 0.8603673 -0.44689077 0.0018798554
0.025542499 0.034406818 -0.0075234328 -0.25371605 0.85149509 -0.45889464 0.0019741799
0.028365387 0.03511462 -0.0077998606 -0.27740538 0.84694624 -0.45357287 0.001731066
0.030926576 0.035683524 -0.0083954846 -0.30848426 0.82696027 -0.47007889 0.0020904846
-0.066570431 0.038188774 -0.0067183324 -0.71030045 -0.43030861 -0.55705273 0.0019104765
-0.065051131 0.037365507 -0.0079580182 -0.68687534 -0.38418356 -0.61693215 0.0025497349
-0.03034348 0.038913548 -0.0087533826 0.35971841 0.74441051 -0.56254393 0.0012627813
-0.028138474 0.03837768 -0.0080411173 0.36160752 0.80576342 -0.46902591 0.0016262905
-0.025440563 0.037476115 -0.0075414614 0.35118008 0.81738305 -0.45668083 0.0022399991
-0.022696845 0.036604691 -0.0071542426 0.32617289 0.82912707 -0.45404807 0.0016280733
-0.020721368 0.03613231 -0.0064752735 0.31838545 0.83236253 -0.45365563 0.0016830004
0.029324189 0.036139693 -0.0065055923 -0.29927915 0.86029875 -0.4126963 0.0017191592
0.031753134 0.036667045 -0.0071537411 -0.32243189 0.84024101 -0.43592742 0.0017368818
0.034472581 0.037598126 -0.0075636944 -0.37329671 0.81662709 -0.44019294 0.0027552857
0.03694668 0.038413402 -0.0081399977 -0.40002093 0.77345687 -0.49167833 0.0027466023
-0.067279898 0.040835872 -0.0074777761 -0.70255136 -0.29343215 -0.6483202 0.0018768213
-0.065597437 0.039825745 -0.0087230755 -0.66701531 -0.26309764 -0.69704396 0.0024388314
-0.036211114 0.041896906 -0.0085878829 0.40819165 0.78284794 -0.46960494 0.0018679084
-0.034124766 0.041365374 -0.007787521 0.41407183 0.7981196 -0.43766379 0.0011362103
-0.031519849 0.040294915 -0.0074387453 0.3811186 0.80907774 -0.44737211 0.00202377
-0.029187769 0.039461926 -0.0069329082 0.37734655 0.81717414 -0.43570185 0.0013529579
0.03791143 0.03956205 -0.0070610312 -0.43985924 0.78383577 -0.43832108 0.0019721766
0.040440187 0.040704638 -0.0075872429 -0.43173844 0.7751497 -0.46124271 0.0021293177
0.042751487 0.041534916 -0.0084313052 -0.41731027 0.71086597 -0.56614637 0.001018871
-0.069314852 0.043844249 -0.0064460314 -0.73109835 -0.24566884 -0.63650775 0.002136796
-0.067807384 0.043496802 -0.007911969 -0.67487746 -0.21346645 -0.70637983 0.004123494
-0.042247593 0.044876225 -0.0087701473 0.36945716 0.73754799 -0.56526476 0.0004276816
-0.040056963 0.044344939 -0.0078366352 0.42728183 0.78621203 -0.44643131 0.0014008812
-0.037491236 0.043338723 -0.0073190695 0.41633156 0.80651957 -0.41975495 0.00077416655
-0.035073183 0.042451229 -0.0067119282 0.40193972 0.80363858 -0.43887278 0.001207322
0.041580912 0.042087745 -0.0064561106 -0.45579457 0.77736199 -0.43354321 0.0010462006
0.043664876 0.042857111 -0.0072423317 -0.47076422 0.74899912 -0.46624175 0.0023081487
0.046220992 0.044041581 -0.0077952347 -0.41745529 0.74275047 -0.52350062 0.0021848627
0.048676707 0.044677582 -0.0088147521 -0.39292181 0.68195409 -0.61688823 0.00098580867
-0.069730155 0.046462685 -0.0067477114 -0.67830127 -0.12665688 -0.72378546 0.0047712703
-0.068096749 0.046488274 -0.0081660999 -0.5934335 -0.057719689 -0.80281073 0.0028487528
-0.048320539 0.047820304 -0.0088357711 0.31839219 0.70070124 -0.63847017 0.0012097247
-0.046203226 0.047314771 -0.0081566656 0.35745993 0.75735325 -0.54647821 0.0024037529
-0.043572538 0.046376731 -0.0075440425 0.38735592 0.7858637 -0.48205149 0.0016336757
-0.041097894 0.045505267 -0.0068709585 0.41219115 0.78878868 -0.45597249 0.0015926404
0.047311787 0.045451988 -0.0066588926 -0.46307695 0.7431559 -0.48298967 0.0022051306
0.049555484 0.046301808 -0.0073728873 -0.39780191 0.74134386 -0.54052091 0.0016590912
0.052124504 0.047199458 -0.0081120944 -0.35478413 0.66776061 -0.65438831 0.00081036036
0.05444096 0.047969263 -0.0087033082 -0.33147553 0.68518001 -0.64857721 0.001551577
0.068103634 0.047450483 -0.0086918371 0.41829696 0.25635368 -0.8713842 0.0038371286
0.069007501 0.04791956 -0.0078991558 0.41438174 0.24437349 -0.87668085 0.0035610651
-0.07003627 0.049491663 -0.0067846216 -0.62606114 -0.021602023 -0.77947468 0.0086043673
-0.067728266 0.049665317 -0.0083216717 -0.49523246 0.067229435 -0.86615527 0.0047542974
-0.06595511 0.050769098 -0.0088711502 -0.22114018 0.26757225 -0.93781775 0.0059867892
-0.054994412 0.050766375 -0.0086533381 0.19901398 0.67008173 -0.71511114 0.0018758262
-0.05232881 0.050211191 -0.0080830324 0.28573871 0.72569293 -0.62587792 0.0031963994
-0.049574148 0.049429737 -0.0074983682 0.34601671 0.76989216 -0.53622609 0.0014446287
-0.046904203 0.048594128 -0.0067946669 0.39603218 0.77264827 -0.49615836 0.0018744492
0.05295169 0.048692588 -0.0068922644 -0.42102867 0.71801353 -0.55424857 0.0024389832
0.055485938 0.049576547 -0.0075279702 -0.34958851 0.70304704 -0.61928397 0.0029329006
0.058304962 0.050149798 -0.0083195409 -0.26207402 0.63630438 -0.72555768 0.0019914585
0.06124327 0.050650634 -0.0087751457 -0.1374857 0.58850962 -0.79671454 0.0044714673
0.065173708 0.050667129 -0.0089056669 0.10405095 0.37693459 -0.92037696 0.014562532
0.067083605 0.050164968 -0.0085513126 0.38534057 0.3015556 -0.87211055 0.0089719342
0.069600247 0.048051622 -0.0073938956 0.40366513 0.23034523 -0.88543522 0.0039056812
-0.070070706 0.052510012 -0.0066997339 -0.48440775 0.10951731 -0.86796033 0.0099061606
-0.067529932 0.052538976 -0.0077713649 -0.27883726 0.28099874 -0.91830796 0.015550675
-0.064542927 0.052579403 -0.0082373237 -0.11636528 0.49589187 -0.86055231 0.012942972
-0.061499175 0.052769016 -0.0080259796 0.092838943 0.61353201 -0.7841934 0.0035553623
-0.05854246 0.052577648 -0.0076429001 0.17459492 0.70826238 -0.68401831 0.0034042136
-0.0556993 0.05209399 -0.0073376806 0.22345449 0.76403075 -0.60524797 0.0027608874
-0.052837532 0.051534045 -0.0066950107 0.34262356 0.77028614 -0.53783685 0.001415297
