# .PCD v0.7 - Point Cloud Data file format
VERSION 0.7
FIELDS x y z normal_x normal_y normal_z curvature
SIZE 4 4 4 4 4 4 4
TYPE F F F F F F F
COUNT 1 1 1 1 1 1 1
WIDTH 545
HEIGHT 1
VIEWPOINT 0 0 0 1 0 0 0
POINTS 545
DATA ascii
-0.038534649 0.0104349 -0.0041165901 -0.97440201 -0.0033203505 -0.22478817 0.023899339
-0.025594303 0.011922424 -0.0054857936 0.21865819 0.15122353 -0.9640125 0.00014224672
-0.022299074 0.009290671 -0.0050802161 0.23230357 0.08791355 -0.96866208 0.00022749881
-0.019870998 0.010375387 -0.0043785344 0.23101799 0.10347549 -0.96743137 0.00014396918
-0.017435472 0.011468593 -0.0036747351 0.22614801 0.10076439 -0.96886724 0.00014907804
-0.039447352 0.01343988 -0.0045991135 -0.94792765 -0.015146267 -0.31812516 0.031545177
-0.038594108 0.013388517 -0.0042277318 -0.93022865 -0.0030483389 -0.36696771 0.032573018
-0.028597265 0.014029516 -0.0058110007 0.1981034 0.17948917 -0.96360713 0.00010861194
-0.023110161 0.013037125 -0.0047643417 0.21414416 0.14038834 -0.96666098 6.8029098e-05
-0.020236196 0.014528312 -0.0039304337 0.20850885 0.12432373 -0.97008646 6.6980108e-05
-0.015618409 0.012432178 -0.0031502182 0.21874805 0.090172879 -0.97160602 0.00019133816
-0.039675821 0.016584896 -0.0039850748 -0.94418812 0.018966302 -0.32886049 0.032318339
-0.038476694 0.016478365 -0.0044253268 -0.88426203 0.016930925 -0.46668398 0.030463411
-0.03102106 0.015693864 -0.0059707025 0.18080884 0.19139262 -0.96471608 4.4793836e-05
-0.02887729 0.01675361 -0.0053422395 0.18448554 0.18385893 -0.96548486 0.00017103745
-0.026092622 0.016566338 -0.0048031025 0.19391486 0.16271907 -0.9674294 0.00011898453
-0.023105223 0.016697485 -0.0042087641 0.19283924 0.15778704 -0.9684608 7.484675e-05
-0.018041499 0.015874309 -0.0032943781 0.20204009 0.11883917 -0.97214049 3.8957922e-05
-0.039678235 0.019399814 -0.0037232714 -0.92584217 0.030874809 -0.37664691 0.029567832
-0.037993606 0.019310514 -0.0048268219 -0.9065637 0.038644332 -0.4202961 0.025294222
-0.035633136 0.019616026 -0.0058195046 0.88630527 -0.027034413 0.46231171 0.011870109
-0.031380691 0.019503301 -0.0052521378 0.16346838 0.20555012 -0.96489751 5.3379212e-05
-0.027923007 0.020063166 -0.0045088083 0.1680572 0.18837997 -0.96761036 6.4361644e-05
-0.024484523 0.019196041 -0.0040553203 0.17578487 0.17259277 -0.96918082 0.00012939425
-0.022939229 0.020409836 -0.003603769 0.1704299 0.14617854 -0.9744668 8.7909211e-05
-0.020150091 0.018517198 -0.0033480022 0.18601467 0.13456427 -0.97328877 3.9621329e-05
-0.039496396 0.022442095 -0.0035965322 -0.9192453 0.012218694 -0.39349547 0.020490957
-0.037976593 0.022236034 -0.0046851919 -0.89266765 0.014984062 -0.45046628 0.022308739
-0.035476353 0.022448516 -0.0051891557 -0.44123843 0.14507295 -0.88558602 0.012041505
-0.031198159 0.022532411 -0.0045534954 0.15175827 0.20348953 -0.96724427 6.9682967e-05
-0.027930461 0.02287484 -0.0039555389 0.15958472 0.1883159 -0.96905619 0.00011924977
-0.025051672 0.021886643 -0.0036640903 0.14432007 0.16602856 -0.97550309 0.00013513694
-0.02272068 0.022733359 -0.0031668481 0.1499912 0.14870906 -0.97743964 0.00015970587
-0.039315157 0.025266197 -0.0033861257 -0.86489344 0.045366827 -0.49990106 0.023299783
-0.038067743 0.025347628 -0.0040802099 -0.80127704 0.066162452 -0.5946238 0.012594868
-0.03539715 0.025945954 -0.004399661 -0.31667897 0.16619521 -0.93385953 0.009945089
-0.031875718 0.025539376 -0.0040166616 0.13891198 0.19282109 -0.97135139 8.5777283e-05
-0.028634183 0.025236042 -0.0036074715 0.13117343 0.17930579 -0.9750092 0.0001244686
-0.025842659 0.02536872 -0.0031998341 0.13248023 0.16148135 -0.97794312 8.4535059e-05
-0.039180048 0.027489299 -0.0031813064 -0.89534068 0.051139113 -0.44243631 0.0090004792
-0.038153101 0.028394679 -0.0035204226 -0.86674118 0.048893798 -0.49635583 0.01229952
-0.034703743 0.028726673 -0.0037574719 0.031725146 0.16218969 -0.98624951 0.0014924232
-0.031456843 0.028031301 -0.0034758942 0.12864761 0.17712936 -0.97574329 7.5386335e-05
-0.029067451 0.027944729 -0.0031794044 0.12083328 0.16836004 -0.97829151 0.00012384244
-0.037754279 0.030889258 -0.0032650046 -0.71625364 0.08174587 -0.69303554 0.012244911
-0.034899171 0.031471107 -0.0032630593 0.0094446372 0.12316953 -0.99234074 0.0052172216
-0.032548338 0.030697297 -0.0031084192 0.11312165 0.14513807 -0.98292345 0.00022076264
-0.036824476 0.033452619 -0.0030661356 -0.5476684 0.064352855 -0.83421695 0.019707566
-0.035971083 0.033969805 -0.0030349083 -0.045590587 0.098531984 -0.99408907 0.0021525274
-0.036018744 0.04170106 -0.0030602105 -0.024114281 -0.2596378 -0.96540499 0.018522426
-0.034642063 0.041624889 -0.0030529783 0.10061771 -0.52521533 -0.84499997 0.023804927
-0.032554358 0.041715212 -0.0030526258 0.041835792 -0.59102058 -0.80557084 0.0097390916
0.0055864872 0.041810855 -0.0031880133 -0.1622643 -0.80360281 -0.57261938 0.00090892549
0.0078710746 0.041656267 -0.0035688113 -0.12579574 -0.83553326 -0.53484553 0.00062439585
0.010572602 0.041500721 -0.0039458205 -0.072763965 -0.86613989 -0.4944765 0.0012610215
0.013403009 0.041437346 -0.0040954333 0.0027765615 -0.89921969 -0.43748865 0.0017671203
0.01637933 0.041645601 -0.0042794985 0.088712513 -0.92670995 -0.36515576 0.0019393417
0.018846411 0.04199763 -0.0044880179 0.089382574 -0.93702096 -0.33764264 0.0017507505
-0.051667493 0.044717073 -0.0039227749 -0.81762743 -0.54621851 -0.18201876 0.041325469
-0.049533729 0.04456516 -0.0041375319 -0.22295102 -0.91949111 -0.32377303 0.033390686
-0.046438746 0.044613156 -0.0042707953 -0.053714592 -0.90837485 -0.41469243 0.0033513969
-0.043297976 0.043931641 -0.0041734804 -0.24716996 -0.82185411 -0.51328635 0.014578274
-0.040883537 0.043420471 -0.0049610883 -0.24747965 -0.76218194 -0.59819108 0.01480705
-0.03743466 0.0434351 -0.0052059377 -0.13195933 -0.7699976 -0.62425184 0.00951559
-0.034572423 0.043195937 -0.0045651798 0.076290615 -0.78161865 -0.61907351 0.0064921253
-0.031528447 0.043495525 -0.0046093655 0.1246338 -0.74987686 -0.64973158 0.0042499122
-0.028526904 0.043684829 -0.0043496513 0.13340382 -0.72924334 -0.67112416 0.0024822496
-0.025592482 0.044007089 -0.0042915982 0.12808777 -0.68745965 -0.71483755 0.0020827807
-0.022556119 0.044342816 -0.0041014287 0.13383625 -0.62941492 -0.76545721 0.0024853155
-0.019543778 0.044368342 -0.0036984649 0.11278702 -0.64471275 -0.75605857 0.00083316868
-0.016727092 0.044361439 -0.0034039833 0.072703265 -0.55933875 -0.82574481 0.0039679627
-0.013642226 0.044438608 -0.0032875028 0.021753149 -0.56814843 -0.82263857 0.0034530561
-0.010291989 0.044521291 -0.0033796006 -0.025074326 -0.63405877 -0.77287823 0.00056790636
-0.0076589226 0.044383291 -0.0034327155 -0.067773268 -0.62811595 -0.7751627 0.0021675564
-0.0044692317 0.044338923 -0.0037942305 -0.09845563 -0.70581639 -0.70151961 0.00082584168
-0.0013571557 0.044169791 -0.0041633444 -0.14898397 -0.75372833 -0.64007616 0.0017323444
0.0015139068 0.044180907 -0.0050929086 -0.21901396 -0.7767337 -0.59052312 0.0006366325
0.0044272328 0.042985238 -0.0045378776 -0.18921137 -0.80524039 -0.56194925 0.00020178163
0.0074122241 0.042676039 -0.0049986285 -0.15587026 -0.82367325 -0.54522187 0.00016667532
0.010373707 0.042344086 -0.00527154 -0.11142026 -0.84808815 -0.51800781 0.00044140883
0.01367094 0.042247344 -0.0056668534 -0.049203821 -0.87910545 -0.47408092 0.0011546967
0.016567647 0.042256434 -0.0057152202 0.018840246 -0.91178548 -0.41023439 0.0018040671
0.019199397 0.042328585 -0.0053265975 0.089367747 -0.93700933 -0.33767876 0.0017834323
0.021888733 0.042696033 -0.0052418853 0.12692477 -0.94358993 -0.30582389 0.0006641536
0.024399109 0.043298814 -0.0055245268 0.12815332 -0.9459039 -0.29806477 0.00051310007
-0.052052166 0.0464838 -0.0044924077 -0.93194199 -0.33311787 -0.14323629 0.038502295
-0.049796015 0.045081586 -0.0055924593 -0.16047528 -0.91898429 -0.36016053 0.019139349
-0.047018111 0.045109682 -0.0056914287 -0.072995447 -0.90799224 -0.41257933 0.0099827163
-0.043036949 0.045075435 -0.0056057428 -0.17766428 -0.85487181 -0.48747265 0.010145177
-0.041370824 0.045075666 -0.0056243287 -0.21701524 -0.81049663 -0.54405856 0.013572728
-0.025185697 0.0452873 -0.0056317919 0.14559069 -0.68882388 -0.71015841 0.0016580044
-0.022563005 0.04552931 -0.0053470866 0.13955438 -0.64742309 -0.74924493 0.0015379777
-0.019486232 0.045961011 -0.0052242745 0.10888524 -0.58698511 -0.80224216 0.0029166806
-0.016587792 0.046441048 -0.0052345595 0.091181129 -0.55242139 -0.82856297 0.0019455408
-0.013977908 0.046645153 -0.0052287397 0.028083004 -0.51878703 -0.85444212 0.0019810221
-0.010443645 0.046189513 -0.0049024448 -0.066658713 -0.57852709 -0.81293482 0.0018573999
-0.0074438872 0.04608053 -0.005114547 -0.11846274 -0.63589257 -0.76263177 0.0016717751
-0.0045445692 0.045750447 -0.0052949162 -0.16267723 -0.67779738 -0.71702641 0.0025169451
-0.0017493087 0.045340054 -0.0055069011 -0.2146623 -0.7416876 -0.63546807 0.0016180136
0.00048752123 0.045071833 -0.0058226716 -0.22436632 -0.77807415 -0.5867371 0.00028184152
-0.052239776 0.049459208 -0.004463261 -0.99858177 -0.04338184 0.030862123 0.0022228877
-0.052111968 0.052495912 -0.0045080534 -0.99379182 0.09978389 0.049204249 0.0043857717
-0.051720187 0.055196691 -0.0044130594 -0.98668927 0.1617143 0.017111614 0.013232815
-0.049407288 0.056439929 -0.0043816534 -0.21655633 0.95121825 -0.21974358 0.020809567
-0.046616495 0.056383938 -0.0046428707 -0.15976071 0.94024044 -0.30070642 0.011558026
-0.042914085 0.056609668 -0.0048828796 -0.26050207 0.85143179 -0.45519507 0.017310971
-0.04144524 0.056617253 -0.0054605738 -0.23993203 0.84638864 -0.47545648 0.022607394
-0.042983416 0.05782358 -0.0040763528 -0.44042856 0.78010458 -0.44436419 0.01351326
-0.041209459 0.057782449 -0.0053076409 -0.20716003 0.86663079 -0.45391172 0.017130982
-0.037327215 0.058897771 -0.0043784576 -0.10494657 0.89959621 -0.42392561 0.00053937564
-0.03442657 0.05913483 -0.0044670356 -0.077016644 0.87931412 -0.46997347 0.00076700014
-0.03140774 0.05923567 -0.0046996367 -0.035531756 0.84871942 -0.52764845 0.00093278527
-0.028712858 0.059335206 -0.0047838101 -0.011750907 0.809434 -0.58709335 0.0015904499
-0.025446074 0.059300587 -0.0049730777 -0.022559494 0.76983351 -0.63784587 0.0015196842
-0.022866756 0.059449185 -0.004966415 -0.030412335 0.72585905 -0.68717086 0.0017616872
-0.019595293 0.058855124 -0.0056152334 -0.047530718 0.51223916 -0.8575266 0.0036252281
-0.016172761 0.059574921 -0.0054384274 -0.067347355 0.48756844 -0.87048334 0.0042548487
-0.013891291 0.05964797 -0.0057783243 -0.22246824 0.51022512 -0.83076966 0.0029443915
-0.033380415 0.060001075 -0.0031044451 -0.093686841 0.87203151 -0.48039964 0.00080298074
-0.031007506 0.060180344 -0.0031692055 -0.085441694 0.85479385 -0.51188594 0.00042984015
-0.027993072 0.060205676 -0.0035109487 -0.072802469 0.82027692 -0.56731445 0.00079445867
-0.025486398 0.060369425 -0.0035810512 -0.066550143 0.77784789 -0.624919 0.0016866843
-0.022659646 0.060639191 -0.0035723019 -0.072927736 0.74932545 -0.65817398 0.0012794918
-0.019886756 0.060578223 -0.0040006205 -0.099676959 0.69629556 -0.71080029 0.0022410247
-0.016383288 0.060860395 -0.0043266658 -0.13227355 0.55999678 -0.81786758 0.0038613561
-0.013264989 0.061459318 -0.004575144 -0.22323389 0.60520899 -0.76412612 0.0036663194
-0.010555536 0.061891288 -0.0052590622 -0.34638253 0.56277943 -0.75053209 0.003991398
-0.0082752705 0.062793076 -0.0057181004 -0.43698606 0.58419132 -0.68393248 0.00077379507
-0.012537245 0.063097998 -0.0033359667 -0.2919006 0.64819413 -0.7033053 0.00063423731
-0.010273338 0.063746803 -0.0037686105 -0.35563087 0.62604743 -0.69396776 0.00062273262
-0.007618099 0.06454815 -0.0046128035 -0.43912798 0.59712034 -0.67127782 0.00089943671
-0.0054060598 0.065357864 -0.0055296128 -0.53312474 0.58385366 -0.61228502 0.00056582107
-0.0067142542 0.066418894 -0.0035605151 -0.46435809 0.60795099 -0.64402419 0.00083925575
-0.0042760712 0.067582905 -0.0044628484 -0.54203802 0.59989887 -0.58848631 0.00035183871
-0.0025187864 0.068472579 -0.0052375887 -0.5639357 0.60182261 -0.56549633 0.00032796618
-0.0034282357 0.069315553 -0.0033997402 -0.53386712 0.61788839 -0.57723457 0.00023558822
-0.0014404821 0.070287503 -0.0042817676 -0.54532009 0.62853074 -0.55459452 0.00011832628
0.00062495883 0.071377918 -0.0051030917 -0.54066664 0.64691848 -0.53775102 0.00028634409
-0.00021101422 0.07216762 -0.003270528 -0.52118677 0.66491771 -0.53502226 0.00064873334
0.0017767556 0.073021814 -0.0042501311 -0.5087859 0.69754815 -0.50454283 0.001012709
0.0040737544 0.074240372 -0.0048191142 -0.47228575 0.75133175 -0.46091947 0.0012358646
0.0052190665 0.075376324 -0.0040566321 -0.44237083 0.79283601 -0.41918853 0.0023324864
0.00740097 0.076215759 -0.0045587784 -0.40393543 0.83665341 -0.36992875 0.0023326671
0.010277333 0.077419952 -0.00468456 -0.36136928 0.88533038 -0.29257879 0.0024613899
0.012206219 0.077899292 -0.0056163329 -0.35253826 0.91001934 -0.21813211 0.0047051767
0.011464083 0.07804171 -0.003834612 -0.31960267 0.92341375 -0.21251182 0.0029719037
0.013595778 0.078511521 -0.0047960472 -0.30653152 0.92791229 -0.21217266 0.0021112673
0.016345272 0.079294585 -0.004433067 -0.22788611 0.97268325 -0.044219114 0.0026511832
0.019083738 0.079889774 -0.0042573544 -0.15639527 0.98395002 0.085923761 0.003502114
0.022522664 0.0804208 -0.004358069 -0.14220701 0.97765625 0.15480749 0.0040839794
0.025315896 0.080720425 -0.0042673275 -0.067032523 0.96298194 0.26109865 0.003143603
0.028196825 0.080699183 -0.0038074288 0.011472263 0.93215489 0.3618778 0.0064793406
0.030680284 0.080688551 -0.004069312 0.042745546 0.93128186 0.36178306 0.0067212787
0.033863284 0.079897061 -0.0040781279 0.23643798 0.83149654 0.50270337 0.004418002
0.026124418 0.081127286 -0.0057182102 -0.096651971 0.97452629 0.20237802 0.0027205138
0.028454499 0.081129164 -0.0049845907 0.0078167552 0.94441283 0.32866895 0.004449205
0.030196907 0.081024058 -0.00468854 0.07932473 0.9281131 0.36374941 0.0057410607
0.014225902 -0.07836926 -0.0019833711 -0.17589802 -0.98373461 0.036415588 0.0031013775
0.016056024 -0.07861013 -0.0011843721 -0.11942455 -0.98355186 0.13551186 0.0025033976
0.019292066 -0.079047471 -0.0016319947 -0.09160123 -0.97580284 0.19853957 0.0030727128
0.02261042 -0.07932926 -0.0018811811 -0.027552653 -0.95048374 0.30955046 0.0028186627
0.025454851 -0.079350799 -0.0017995756 0.023221897 -0.92211473 0.38621914 0.0029077628
0.028179767 -0.079079702 -0.0015681352 0.051928449 -0.89964199 0.43352935 0.0029934039
0.03085039 -0.079148009 -0.0022897213 0.10835072 -0.88195789 0.45870525 0.0043853684
0.03392078 -0.078429587 -0.002422031 0.26313746 -0.78806335 0.55652028 0.0049465094
0.0025622356 -0.075171053 -0.00030806364 -0.4846687 -0.82157832 -0.30017558 0.017055871
0.0045014229 -0.075616188 -0.0013958913 -0.40597582 -0.87368798 -0.26805389 0.0085579231
0.0073852534 -0.076615542 -0.0016576633 -0.31448945 -0.92945331 -0.19290626 0.0027942611
0.01018479 -0.077457435 -0.0015471716 -0.26028049 -0.96061409 -0.097338013 0.0038598508
0.01219787 -0.077919707 -0.0017829553 -0.23496439 -0.97087097 -0.046918362 0.0018805556
0.029327665 -0.077908963 -3.7277867e-05 0.1645115 -0.78478843 0.5975309 0.0035471683
0.031618077 -0.077612683 -0.00042834296 0.22610179 -0.74437982 0.62831253 0.0028833034
0.034551214 -0.076884411 -0.0010790633 0.38467485 -0.63320971 0.67161793 0.0066810329
0.036748517 -0.076211087 -0.0018445244 0.43895549 -0.56734234 0.69673574 0.0050313114
-0.00089558307 -0.072872706 -0.0010509638 -0.56003648 -0.74267125 -0.36714923 0.012548414
0.0012496521 -0.073716603 -0.0015452395 -0.53062361 -0.76494026 -0.36510965 0.012195165
0.0034421289 -0.074424319 -0.0027153869 -0.47776246 -0.81079698 -0.33815867 0.0085165659
0.037512273 -0.073527433 -0.00063827669 0.53761166 -0.37136161 0.7570101 0.0040777815
0.039552197 -0.073100157 -0.002009674 0.61291283 -0.38996416 0.68721604 0.0048217182
-0.0062189517 -0.069655001 -0.00025863189 -0.38697854 -0.78677756 -0.4808625 0.012269947
-0.0043142191 -0.070014492 -0.0013789617 -0.46240592 -0.74801898 -0.47607613 0.012218408
-0.0016425847 -0.071158208 -0.0016596077 -0.54726893 -0.73114604 -0.40733528 0.012958748
0.00064930052 -0.071699023 -0.0020047664 -0.58076441 -0.71264589 -0.39350802 0.0166674
0.038702253 -0.069303915 -0.00012900255 0.57030571 -0.21292543 0.79335618 0.00039157219
0.039980911 -0.070230082 -0.0013793302 0.60422748 -0.25242931 0.75577027 0.0019798065
-0.012273638 -0.066262826 -5.9032394e-05 -0.3064172 -0.7172544 -0.62582314 0.0042585218
-0.01030309 -0.066553675 -0.00072809512 -0.36729586 -0.66921282 -0.64594734 0.010882271
-0.0076629482 -0.067571953 -0.0012934861 -0.47264114 -0.65900165 -0.58508736 0.01048338
-0.005188779 -0.068268344 -0.0021176692 -0.5232172 -0.63471198 -0.56866896 0.0076835752
-0.0026091444 -0.068695262 -0.0023194621 -0.50364339 -0.70145285 -0.50428891 0.017882444
0.040784206 -0.067276075 -0.0012662322 0.57738459 -0.17354412 0.79781538 0.00053065387
-0.021155532 -0.063125253 -0.00034954079 -0.15630452 -0.75673831 -0.63475668 0.00043493754
-0.019346185 -0.063420117 -0.00041891029 -0.17273763 -0.73078775 -0.6603871 0.00053896691
-0.016855219 -0.063868351 -0.00064964406 -0.21996194 -0.71657264 -0.66192168 0.005435464
-0.013368161 -0.06452994 -0.0010882478 -0.37195206 -0.59123451 -0.71560693 0.0092210872
-0.010306016 -0.064854614 -0.001754781 -0.41744182 -0.58446318 -0.69580537 0.011512856
-0.0083143702 -0.065183938 -0.0026033819 -0.48453397 -0.54508066 -0.68418849 0.010153465
-0.0057784081 -0.065441914 -0.002879258 -0.62656534 -0.57524407 -0.52584237 0.021438371
0.040406037 -0.065034732 -0.00048988918 0.5887301 -0.13321646 0.79727679 0.00033040921
-0.039471626 -0.060066283 -0.00013057569 -0.18933508 -0.90719295 -0.3757036 0.00021621292
-0.037140954 -0.060285013 -0.00045479467 -0.18474829 -0.92376155 -0.33545902 0.00592766
-0.034396585 -0.060546186 -0.0008746761 -0.1383439 -0.88690996 -0.44073987 0.00051893236
-0.031362958 -0.060758173 -0.0012819287 -0.1281697 -0.87924498 -0.45880359 0.0006433432
-0.028503727 -0.061003119 -0.0014971112 -0.094305813 -0.8469581 -0.52322888 0.0014521475
-0.025496904 -0.061445754 -0.0014527483 -0.10046779 -0.8325929 -0.54469734 0.0032884888
-0.02259006 -0.061789554 -0.00139233 -0.10937249 -0.76166016 -0.6386795 0.0037462458
-0.019617055 -0.062036108 -0.0015259869 -0.09577544 -0.67976958 -0.72714537 0.005334219
-0.01666957 -0.062358756 -0.0022457028 -0.19077937 -0.69802707 -0.69018948 0.000646648
-0.014178646 -0.062768869 -0.0026069153 -0.26777175 -0.66140735 -0.70059878 0.00073448691
-0.010501203 -0.062589616 -0.00253226 -0.49180928 -0.4658016 -0.73563063 0.022313695
0.041292194 -0.061085019 -0.00051413366 0.57343781 -0.11561428 0.81105024 0.00034542181
0.042482026 -0.06130451 -0.0015546526 0.58071512 -0.077352136 0.81042373 0.0015123842
-0.049594544 -0.057052009 -4.8838898e-05 -0.34559309 -0.89168823 -0.29233128 0.022616271
-0.045773372 -0.058008276 -0.00080879999 -0.27802959 -0.8593632 -0.42917889 0.010316692
-0.043780863 -0.058400776 -0.0016413295 -0.29055265 -0.83753783 -0.46271974 0.015191246
-0.040726751 -0.059268773 -0.0011536045 -0.20084065 -0.91281676 -0.35556799 0.011392021
-0.038152803 -0.05938834 -0.0021308938 -0.31203431 -0.92936403 -0.19727439 0.0076839435
-0.034841094 -0.05972109 -0.0023403475 -0.10685198 -0.88412094 -0.45487669 0.00040639617
-0.03204976 -0.059804831 -0.0027901151 -0.092276007 -0.86409265 -0.494802 0.00040003558
0.04171871 -0.058917001 -0.00067299977 0.58585393 0.028827155 0.8099038 0.0042454917
0.042138241 -0.058989532 -0.0011007236 0.58585417 0.02882578 0.80990374 0.0042453264
-0.051656876 -0.055354029 -0.00146749 -0.93524796 -0.33417132 -0.11679383 0.028729042
-0.049203228 -0.056637645 -0.0016666634 -0.27848819 -0.91027391 -0.30634272 0.015125227
-0.046430562 -0.05666833 -0.0015377908 -0.17922316 -0.89615917 -0.40592846 0.015536569
-0.044121992 -0.056726504 -0.0024507956 -0.2965011 -0.82905811 -0.47407776 0.017402332
-0.040937033 -0.056534491 -0.0020336597 -0.30780911 -0.819004 -0.48423758 0.067663595
0.040885322 -0.054866634 -0.00069742097 0.63088465 0.1865876 0.75310665 0.0046876948
-0.052136406 -0.052470803 -0.0014567255 -0.98623514 -0.1457231 -0.078134768 0.0080606528
0.038843501 -0.051665127 -0.00079349568 0.5571264 0.42751291 0.71192908 0.0040861233
0.039556082 -0.053503677 -0.00021196392 0.58843291 0.27478901 0.76041949 0.0080496082
-0.052315671 -0.049470615 -0.0014318096 -0.99642748 0.023704691 -0.081058197 0.0019158041
0.035172679 -0.048648801 -0.00050267315 0.57148129 0.615255 0.54301971 0.003460506
0.037119329 -0.050018046 -0.00076731906 0.60207605 0.5919286 0.53584057 0.0043421644
-0.052179892 -0.046482593 -0.0014590877 -0.99180609 0.1051049 -0.072619855 0.0092656054
0.034697238 -0.047766767 -0.0013239548 0.57147604 0.61525881 0.54302102 0.0034631013
-0.051839441 -0.044051021 -0.0014337288 -0.92202318 0.35603175 -0.15203519 0.034538213
-0.049293172 -0.043048322 -0.0012902006 -0.31166071 0.89274836 -0.32537353 0.024981394
-0.04623989 -0.042901471 -0.0013130971 -0.30881754 0.78325886 -0.53957134 0.022771053
-0.044183582 -0.042984307 -0.0022339197 -0.37116566 0.76406497 -0.52767491 0.02028545
-0.035505943 -0.043102033 -0.0014311401 -0.13899101 0.98628026 -0.089066207 0.13624695
-0.019901752 -0.04237517 -0.0027855365 0.066312678 0.40666333 -0.91116828 0.009857066
-0.015545624 -0.042276718 -0.0023508149 0.037596144 0.34361377 -0.93835819 0.0031390169
-0.013092536 -0.042621542 -0.0023889847 0.025457658 0.55856109 -0.82907265 0.0032140075
-0.010251637 -0.042807259 -0.0025139223 -0.0057302397 0.55341411 -0.83288652 0.0026159387
-0.0073770252 -0.042717215 -0.0025458098 -0.02577397 0.59372807 -0.80425292 0.0027728556
-0.005110126 -0.042819653 -0.0027600499 -0.050054934 0.64505887 -0.76249176 0.0027456107
-0.0014391817 -0.042249337 -0.0025906656 -0.087159179 0.69239199 -0.71623778 0.0027804587
0.0010759028 -0.042054601 -0.0027555474 -0.15070648 0.75539911 -0.63769877 0.0029410699
-0.045741748 -0.041216191 -0.00083222718 -0.39474982 0.76415342 -0.51013935 0.013865684
-0.043261878 -0.04039482 -0.0012195775 -0.51677519 0.66966784 -0.53337443 0.029087616
-0.041114606 -0.039555412 -0.0015220491 -0.56300086 0.61059362 -0.55696094 0.032544978
-0.037927955 -0.040356286 -0.0027099426 -0.067999907 0.3523367 -0.93339962 0.044425394
-0.034441166 -0.039966129 -0.0026981186 -0.050027806 0.041967709 -0.99786568 0.037773773
-0.031484436 -0.040184528 -0.0026555702 0.063983448 0.18914172 -0.97986305 0.0026576077
-0.028232483 -0.040420126 -0.0025877042 0.073337987 0.15104677 -0.98580241 0.004244803
-0.025525337 -0.040442564 -0.0024016134 0.060385063 0.25046673 -0.96624017 0.00073790347
-0.022371579 -0.040311277 -0.002127406 0.08770851 0.25148115 -0.96387994 0.00085176091
-0.018979419 -0.040256344 -0.0018197114 0.079882532 0.25513962 -0.96359879 0.00091384124
-0.016685219 -0.040733289 -0.001788198 0.058913961 0.32580328 -0.94360024 0.0041289241
-0.013457772 -0.040450543 -0.0014642481 0.050783467 0.33893782 -0.93943721 0.0040298211
-0.010483657 -0.04046873 -0.0013548358 0.028639367 0.37123352 -0.92809778 0.004856573
-0.0077355043 -0.040603701 -0.0013205479 0.031640176 0.42749032 -0.90346605 0.0060982304
-0.0046462575 -0.040649392 -0.0013210276 0.028319543 0.48350623 -0.87488276 0.0066521941
-0.00156091 -0.04074036 -0.0013754717 -0.042694401 0.52182966 -0.85198063 0.0066580474
0.0017722875 -0.040683616 -0.0014844163 -0.083676592 0.72719508 -0.68131173 0.0067905881
0.0045830999 -0.040335681 -0.0016359165 -0.15467416 0.81134814 -0.56372881 0.0011366318
0.0073603783 -0.039968971 -0.0017458571 -0.12666549 0.82481498 -0.55103189 0.00051108986
0.010075091 -0.039895814 -0.0020293603 -0.11811887 0.83946669 -0.53041834 0.00022830715
-0.040547136 -0.037345693 -0.00093781971 -0.84349012 0.3332507 -0.42127001 0.037882246
-0.038154386 -0.037160024 -0.0024419944 -0.61271316 0.12733512 -0.77997971 0.02492658
-0.034229264 -0.03742253 -0.0026514428 0.0035196773 0.048442606 -0.99881977 0.0025545093
-0.031072721 -0.037521165 -0.0025353287 0.071861893 0.058857456 -0.99567652 0.0023613407
-0.027429834 -0.037422486 -0.0019848 0.065137997 0.095743634 -0.99327248 0.004324791
-0.024980946 -0.037451301 -0.0018017627 0.091014385 0.10639357 -0.99014986 0.004902171
-0.022363294 -0.037466645 -0.0015744611 0.069534168 0.061052527 -0.99570966 0.0022829978
-0.019842634 -0.037494529 -0.0013825856 0.085427471 0.11689128 -0.98946381 0.0053044721
-0.016872426 -0.03775565 -0.0011575614 0.071756624 0.11741602 -0.99048704 0.0043126289
-0.013858863 -0.037589662 -0.00090265658 0.088186994 0.1328408 -0.9872064 0.0035786629
-0.010817349 -0.037461933 -0.00064515474 0.05901397 0.18786208 -0.98042095 0.0060060457
-0.007499665 -0.037289876 -0.00037964465 0.073620036 0.17297816 -0.9821704 0.0033344466
-0.0041735158 -0.037957486 -0.00020481546 0.10001928 0.2342865 -0.96700883 0.0068787439
-0.0023264976 -0.038633831 -0.00024890789 0.031934369 0.31485125 -0.94860369 0.016532982
0.00028190139 -0.038684145 -8.1737926e-05 0.070048198 0.39707008 -0.91511124 0.020832025
-0.040370047 -0.034267545 -0.00096900703 -0.8943432 0.12277433 -0.43020543 0.021194246
-0.037973203 -0.034516726 -0.0026565827 -0.74989271 0.0072518024 -0.66151971 0.019788038
-0.034290709 -0.034583207 -0.0027241537 0.037140485 -0.064606689 -0.99721944 0.0015723703
-0.030790912 -0.034334473 -0.0024558885 0.093555711 -0.05361196 -0.99416959 0.00053121365
-0.028065773 -0.034577284 -0.0021824394 0.094724871 -0.05007045 -0.9942435 0.0003284853
-0.025650444 -0.034327433 -0.0020099143 0.077354789 -0.067968182 -0.99468416 4.6055709e-05
-0.02273545 -0.034369063 -0.0017736219 0.078323007 -0.067952499 -0.99460948 6.5764194e-05
-0.019737689 -0.034291241 -0.0015214075 0.081221305 -0.062443703 -0.9947381 0.00011039422
-0.016518524 -0.034425143 -0.001211614 0.091885045 -0.060607184 -0.99392354 0.00015659958
-0.013294126 -0.034488719 -0.00090967928 0.092129774 0.00054178463 -0.99574691 0.0023423508
-0.010096806 -0.034729984 -0.00059690286 0.093036577 0.020598803 -0.9954496 0.0029133814
-0.0066704093 -0.034693778 -0.00028194286 0.09753155 -0.0090920283 -0.99519098 0.00034141893
-0.003438391 -0.03341585 -1.0897159e-05 0.10369819 0.003559137 -0.99460244 0.00028108823
-0.040367961 -0.031463943 -0.0011446663 -0.89895642 0.0030599199 -0.43802726 0.020966083
-0.038556263 -0.031851947 -0.0027641496 -0.85266227 -0.019797493 -0.52208728 0.016824869
-0.033886939 -0.032308158 -0.0028518438 0.082932927 -0.1077775 -0.99070996 0.00067822676
-0.031334441 -0.031236976 -0.002717945 0.096677184 -0.093900621 -0.9908765 0.00011906625
-0.028656045 -0.031553153 -0.0024590415 0.088129006 -0.08629737 -0.99236387 9.5249037e-05
-0.025369028 -0.031487431 -0.0022415062 0.076950759 -0.087909617 -0.99315178 1.5827311e-05
-0.02206493 -0.031720728 -0.0019667286 0.082939066 -0.079067804 -0.99341303 4.7016441e-05
-0.018989386 -0.031476717 -0.0017088754 0.096535958 -0.080456167 -0.9920724 3.7554895e-05
-0.016154904 -0.031439792 -0.0014365028 0.10023845 -0.073135905 -0.99227184 3.8861905e-05
-0.013152636 -0.031387497 -0.0011221179 0.10391021 -0.066162452 -0.9923836 4.222097e-05
-0.0099728117 -0.031595271 -0.00076254626 0.10815999 -0.04627585 -0.99305588 9.898904e-05
-0.0068389745 -0.031537749 -0.00042535644 0.10740247 -0.036591996 -0.99354202 8.952913e-05
-0.0035987941 -0.031472467 -6.5382963e-05 0.11324248 -0.019134551 -0.99338311 9.6392971e-05
-0.040109079 -0.028479191 -0.0014537098 -0.907534 -0.015952729 -0.41967547 0.01689993
-0.038941469 -0.029581066 -0.0028272686 -0.905514 -0.044564433 -0.42196971 0.014112017
-0.030941885 -0.029086575 -0.002924094 0.11362635 -0.11852017 -0.98642892 0.00021557756
-0.028059231 -0.02878611 -0.0026670175 0.084068306 -0.10047247 -0.99138176 5.3701588e-05
-0.025374979 -0.02843483 -0.0024972558 0.084672093 -0.098787658 -0.99149972 5.7648191e-05
-0.02276356 -0.028666846 -0.0022758411 0.086007066 -0.081670597 -0.9929415 5.0702594e-05
-0.020128882 -0.028360575 -0.0020556406 0.09474536 -0.073254086 -0.99280268 3.45179e-05
-0.017173391 -0.028560495 -0.0017460053 0.10256739 -0.068208486 -0.99238479 1.7745569e-05
-0.014062084 -0.028474197 -0.0013990428 0.10965257 -0.060753547 -0.99211156 4.150944e-05
-0.010832389 -0.028377773 -0.0010254824 0.11955728 -0.047812499 -0.99167538 3.3822624e-05
-0.0073575042 -0.028534712 -0.00058787933 0.12379587 -0.034153376 -0.99171978 4.8390433e-05
-0.0038687363 -0.02841795 -0.00015618184 0.12786251 -0.017500734 -0.99163753 5.7920097e-05
-0.04004569 -0.025382712 -0.0014173095 -0.92434651 -0.025101462 -0.3807275 0.014662116
-0.038909454 -0.024734281 -0.0020800964 -0.94359952 0.0029246332 -0.33107617 0.013367382
-0.028614173 -0.026957601 -0.0029164357 0.09934444 -0.11426976 -0.98847008 0.00013060967
-0.025625983 -0.0254487 -0.0028190385 0.090140417 -0.10754875 -0.99010503 0.00010486582
-0.022354653 -0.025734125 -0.002483306 0.10035084 -0.094197556 -0.99048299 8.7897279e-05
-0.018932376 -0.025234282 -0.0021628751 0.10972477 -0.078765176 -0.99083632 5.139237e-05
-0.016340297 -0.025458742 -0.00185189 0.12102719 -0.066682465 -0.99040699 6.5458757e-05
-0.014741872 -0.026361281 -0.0016058238 0.11979075 -0.060581248 -0.99094909 3.0605726e-05
-0.011577885 -0.025427019 -0.0012541141 0.12745796 -0.040907841 -0.991 2.9748411e-05
-0.0079081077 -0.025535628 -0.00075971225 0.13597046 -0.032683104 -0.99017364 4.8267226e-05
-0.0040848339 -0.025634203 -0.00023026967 0.14178278 -0.014679224 -0.98978901 6.6021879e-05
-0.03980827 -0.022487702 -0.0015402775 -0.93576521 0.0046632029 -0.35259292 0.015263294
-0.038807396 -0.022205621 -0.0024530105 -0.90825796 -0.015012215 -0.41814134 0.02390188
-0.024959635 -0.023836542 -0.0029424175 0.10097715 -0.12189408 -0.98739326 0.00018273389
-0.022487367 -0.02298042 -0.0027701159 0.11021525 -0.10603705 -0.98823524 6.5250817e-05
-0.01962647 -0.022336381 -0.0024891726 0.12735307 -0.094932251 -0.98730397 6.8010995e-05
-0.016179519 -0.022431545 -0.0020412437 0.13162158 -0.067690082 -0.98898631 6.7939167e-05
-0.012439809 -0.022495752 -0.0015166709 0.13701738 -0.048318382 -0.98938954 6.1128179e-05
-0.0085158944 -0.02254484 -0.00094814179 0.14803109 -0.032901872 -0.98843527 6.4852546e-05
-0.004335531 -0.022569954 -0.00031553014 0.1510995 -0.011969429 -0.98844612 4.8725648e-05
-0.039632477 -0.019511843 -0.0014004079 -0.95292294 0.013779514 -0.3028993 0.014296997
-0.038864639 -0.019416919 -0.0027052367 -0.9467054 0.011266506 -0.32190362 0.021782001
-0.021229485 -0.019567017 -0.0029706091 0.1429413 -0.11155267 -0.9834246 0.00011376059
-0.019464782 -0.019319355 -0.0027345815 0.13586555 -0.10528944 -0.9851166 0.00016404211
-0.017368348 -0.019852508 -0.002398991 0.15212992 -0.0841759 -0.98476952 0.00012516641
-0.013557136 -0.019329213 -0.0018546906 0.15677895 -0.062005926 -0.98568535 5.6076093e-05
-0.0092242621 -0.019290149 -0.0011668605 0.15935852 -0.035370212 -0.98658699 6.2566316e-05
-0.008901027 -0.020641999 -0.0010675761 0.15141286 -0.03889662 -0.98770505 4.1623072e-05
-0.004613623 -0.019505737 -0.00040872404 0.16172543 -0.020051476 -0.98663211 4.7937927e-05
-0.039523024 -0.016507884 -0.0012599017 -0.95911241 0.030051151 -0.2814256 0.013040247
-0.038910173 -0.0163194 -0.0027547395 -0.9678821 0.044419855 -0.24744919 0.023556171
-0.01894981 -0.017342221 -0.0028716926 0.16242926 -0.099852741 -0.98165482 0.00010450664
-0.015407415 -0.015729245 -0.0024084011 0.1751838 -0.077136971 -0.98150939 9.3697636e-05
-0.014583829 -0.016987959 -0.00216321 0.17368637 -0.076327316 -0.9818387 9.5192649e-05
-0.010065717 -0.016617324 -0.0014219746 0.17315702 -0.049097855 -0.9836697 7.1227158e-05
-0.0050449087 -0.016460579 -0.00054617284 0.16767241 -0.025508959 -0.98551273 3.5252404e-05
-0.039501008 -0.013481581 -0.0013180366 -0.96497202 0.025125274 -0.26114693 0.013017699
-0.038908128 -0.013518323 -0.0027679605 -0.99078667 0.029792117 -0.1321145 0.015316156
-0.016605912 -0.014257411 -0.0027638981 0.19186044 -0.094829917 -0.97683001 0.00014751068
-0.012301714 -0.012212978 -0.0020893118 0.1947457 -0.076247886 -0.97788572 0.0001436281
-0.011418366 -0.013749309 -0.0018264807 0.18725815 -0.062827863 -0.98029953 6.7156609e-05
-0.0060718046 -0.012374885 -0.00086030806 0.19239882 -0.038376927 -0.98056614 6.0975126e-05
-0.0056445883 -0.013723026 -0.00073107576 0.18357378 -0.037416726 -0.98229361 5.5220105e-05
-0.039503153 -0.010539644 -0.0013131667 -0.96230257 0.0081205461 -0.27185985 0.0098435562
-0.03890546 -0.010621555 -0.0028239051 -0.98288232 0.029857405 -0.18179928 0.01536225
-0.013687587 -0.010487136 -0.0024990048 0.2039405 -0.074260853 -0.97616273 0.00010053012
-0.0067198533 -0.010498305 -0.001055629 0.18967973 -0.052258953 -0.98045433 8.9116613e-05
-0.039508309 -0.0075028799 -0.0013001583 -0.95785785 -0.061327677 -0.28061938 0.0084129488
-0.03888116 -0.0075459694 -0.0027993252 -0.97916478 -0.064955518 -0.19239841 0.015799893
-0.009478651 -0.0061568879 -0.0018720442 0.21040915 -0.068930306 -0.97518033 0.00012807589
-0.0082134055 -0.0076352255 -0.0014997525 0.1994305 -0.062340431 -0.97792697 0.0001078119
-0.039957266 -0.0044881501 -0.0014521909 -0.96448505 -0.1197992 -0.2354074 0.011206128
-0.038870752 -0.0056315381 -0.0028983816 -0.96913469 -0.13295573 -0.20760705 0.023972988
-0.012859141 -0.0036604826 -0.0028607096 0.23232602 -0.08969634 -0.96849334 7.1433205e-05
-0.010967078 -0.005009097 -0.0023075526 0.21969691 -0.077726573 -0.97246695 0.00011574431
-0.040092394 -0.0015475863 -0.0013820672 -0.97528142 -0.039449144 -0.21741642 0.012675498
-0.040071454 0.001526757 -0.0013965972 -0.96794409 0.011812338 -0.25088769 0.015091819
-0.040029451 0.0044780406 -0.0014950875 -0.95913517 0.092346475 -0.26745424 0.013055094
-0.038861949 0.0059136199 -0.0024800864 -0.97500759 0.13509817 -0.17637675 0.016292404
-0.039509166 0.0075317645 -0.001302795 -0.96208256 0.078272343 -0.26128629 0.009430794
-0.038892731 0.0077752182 -0.0027418768 -0.9740802 0.082914799 -0.21045882 0.017871708
-0.012093519 0.0080564925 -0.0026877627 0.22615965 0.075970195 -0.97112328 1.505089e-05
-0.010774624 0.0089006647 -0.0023095803 0.22357972 0.075729139 -0.97173929 1.9950727e-05
-0.039496567 0.010516252 -0.0013367268 -0.96465701 -0.01427411 -0.2631219 0.010829723
-0.038912699 0.010329912 -0.0027145992 -0.98722583 -0.012631468 -0.15882564 0.013739567
-0.0096140215 0.0097152544 -0.0019770598 0.21794721 0.071044676 -0.97337133 3.3099906e-05
-0.007881701 0.011229568 -0.0014820197 0.20924532 0.061471086 -0.97592914 0.00010030858
-0.039491419 0.013486885 -0.0013510329 -0.96327412 -0.027845087 -0.26707229 0.01257927
-0.038893696 0.013550304 -0.0027365515 -0.99127573 -0.030591175 -0.12820521 0.015848193
-0.013589109 0.014017209 -0.0025664428 0.21250524 0.083984323 -0.97354418 0.00021214498
-0.0063063973 0.012718634 -0.0010322982 0.20595317 0.060498748 -0.97668993 7.8378151e-05
-0.0058236844 0.013978693 -0.00089783309 0.1940181 0.051906202 -0.97962379 0.00015600362
-0.039474044 0.016514005 -0.0013967142 -0.96488219 -0.042982183 -0.25914249 0.014372479
-0.038892671 0.016504744 -0.0027358776 -0.98893565 -0.036202107 -0.1438598 0.016440863
-0.016157508 0.017158512 -0.0027488635 0.19422077 0.11478041 -0.97421956 8.3897779e-05
-0.012262745 0.015453658 -0.0021864548 0.19952509 0.075883575 -0.97695011 0.00020700168
-0.011013243 0.016882358 -0.0018287501 0.19251774 0.080614775 -0.97797662 0.00013802624
-0.004970151 0.016485574 -0.00066120818 0.17757507 0.04447132 -0.98310196 0.00013872827
-0.039611433 0.019541873 -0.0013973817 -0.95897639 -0.022769267 -0.28257027 0.015521109
-0.038928032 0.019907774 -0.0025940572 -0.95291787 -0.021178916 -0.30248785 0.021974791
-0.018600853 0.019732745 -0.0028976349 0.17389768 0.12731449 -0.97649914 7.073045e-05
-0.017686566 0.020518668 -0.0026320878 0.17591375 0.12149396 -0.97687954 4.4203032e-05
-0.013567371 0.019473989 -0.0020008853 0.17340145 0.098596409 -0.97990346 3.7984817e-05
-0.0093935942 0.018403176 -0.0013638246 0.17927215 0.065170437 -0.98163861 0.00025444661
-0.0084221801 0.019783041 -0.0010868058 0.16483259 0.058625467 -0.98457778 0.00016591535
-0.0037882247 0.019662391 -0.00033234782 0.15732862 0.040797055 -0.98670328 5.8338926e-05
-0.03977358 0.022529194 -0.001490194 -0.93869424 -0.014535888 -0.34444425 0.016113739
-0.038840607 0.022390943 -0.0025610405 -0.92945355 -0.0023865132 -0.36893132 0.025507793
-0.019803509 0.02287109 -0.0026874428 0.16355743 0.12854841 -0.97812283 7.5950942e-05
-0.015781891 0.022403415 -0.0020797544 0.15868565 0.11033449 -0.98114485 7.4382799e-05
-0.011313048 0.022593189 -0.0013539817 0.14917661 0.06731502 -0.98651665 0.0001017722
-0.0073129102 0.022361893 -0.00077441527 0.14973815 0.055281736 -0.98717904 6.2158972e-05
-0.0033469046 0.021808887 -0.00021352895 0.14294226 0.036406837 -0.98906124 0.00011963559
-0.0028221565 0.023104049 -6.7033776e-05 0.14418559 0.034106962 -0.98896271 0.00013642824
-0.040028937 0.025477422 -0.0015018294 -0.92470646 0.035280563 -0.37904269 0.016302247
-0.024008671 0.026393987 -0.0027988132 0.12976536 0.15146579 -0.97990769 7.398842e-05
-0.021697966 0.025258353 -0.0026811801 0.13944359 0.1351932 -0.98095787 9.4202835e-05
-0.019358056 0.025548222 -0.0022775435 0.1387248 0.11583065 -0.9835338 0.00017534937
-0.017214037 0.025791025 -0.0019336194 0.13561274 0.1025003 -0.98544556 0.00017323963
-0.013537392 0.025533918 -0.0014320253 0.13445158 0.079882771 -0.9876951 7.9060294e-05
-0.009902427 0.025535239 -0.0009528214 0.12954125 0.049770746 -0.9903242 9.1136462e-05
-0.0062724617 0.024938866 -0.00048201159 0.13509007 0.039490622 -0.99004608 5.9785554e-05
-0.0057573155 0.026523933 -0.00033845485 0.12882014 0.033735886 -0.99109399 0.00011281997
-0.040091742 0.02849091 -0.0015030118 -0.90988791 0.031259693 -0.41367471 0.017486494
-0.030292274 0.029883845 -0.002987836 0.1160279 0.14935134 -0.98195302 0.00014405799
-0.028014578 0.029063217 -0.0028659976 0.11058347 0.15277079 -0.98205519 8.7985012e-05
-0.025476974 0.028579202 -0.0026726618 0.11250522 0.14396462 -0.98316675 0.00012097025
-0.022344658 0.028521139 -0.0023097775 0.12087829 0.1251719 -0.98474389 0.00010769268
-0.018984539 0.028509345 -0.001887517 0.1240206 0.10846324 -0.98633397 0.00012722448
-0.015794784 0.028440643 -0.0015238689 0.11433455 0.082292631 -0.99002808 0.00016412701
-0.01237568 0.028706688 -0.0011021522 0.12174711 0.057476442 -0.99089563 8.3841995e-05
-0.009198864 0.027739683 -0.00075546774 0.12556507 0.042845394 -0.9911598 6.2825973e-05
-0.0087717315 0.029301025 -0.00063647376 0.11587941 0.033739891 -0.99269009 8.2797931e-05
-0.0057005594 0.028583979 -0.00033002347 0.11436108 0.018603908 -0.99326503 8.4821666e-05
-0.040247831 0.03145152 -0.001245173 -0.9008286 0.0049871276 -0.43414626 0.017179357
-0.038547449 0.032017354 -0.0028349517 -0.80780506 0.056304995 -0.58675438 0.014650672
-0.03390947 0.032853439 -0.0029642773 0.076447226 0.1387444 -0.98737323 0.0011645743
-0.031618424 0.03206487 -0.0028293729 0.099467061 0.13310559 -0.98609799 0.00017230275
-0.028745785 0.03130132 -0.0026381176 0.099337585 0.12770601 -0.98682481 5.6594065e-05
-0.025775557 0.031510226 -0.0023139492 0.099588446 0.11300983 -0.98859036 4.0324685e-05
-0.022813255 0.031394888 -0.0020277353 0.10690983 0.10784221 -0.98840296 0.00014207474
-0.019751988 0.031467304 -0.0016914805 0.10466065 0.08479102 -0.99088681 9.9177792e-05
-0.017342832 0.031798121 -0.0014112961 0.095533378 0.074679136 -0.992621 6.4488609e-05
-0.014447188 0.031666748 -0.001137086 0.095752314 0.060980927 -0.99353552 4.942407e-05
-0.011460561 0.031547423 -0.00084346242 0.10873555 0.044919163 -0.99305534 7.8428544e-05
-0.0082857534 0.031466037 -0.00050251849 0.10371023 0.033313494 -0.99404949 7.1365408e-05
-0.005176723 0.031648558 -0.00018974072 0.10219697 0.017513376 -0.99461007 4.3199245e-05
-0.040336389 0.034495391 -0.0010297544 -0.90093035 -0.086318478 -0.42529246 0.022792371
-0.038070112 0.034503546 -0.0027139338 -0.78309101 -0.017046113 -0.62167341 0.019637749
-0.034064416 0.034709763 -0.0027906776 0.03456502 0.062464513 -0.9974485 0.0024743902
-0.031402081 0.034312408 -0.0025429232 0.10313681 0.064767621 -0.99255627 0.0015866327
-0.028350832 0.034625832 -0.0022237345 0.1146756 0.069053248 -0.99100012 0.0011966884
-0.025223812 0.034723986 -0.0019275795 0.089514442 0.030312682 -0.99552417 0.002237872
-0.022124846 0.034290213 -0.0016856343 0.094373092 0.063274302 -0.99352407 0.00013768434
-0.019259749 0.034467947 -0.0014087056 0.093802102 0.053690765 -0.99414212 0.00010978385
-0.016506359 0.034607273 -0.0011720601 0.086520731 0.045340229 -0.99521774 7.7155892e-05
-0.013753813 0.034449562 -0.00094169792 0.086507209 0.033731032 -0.99568003 7.1242896e-05
-0.010801257 0.03433571 -0.00065966649 0.092199683 0.022659441 -0.99548274 8.184227e-05
-0.0078237168 0.034509402 -0.0003788005 0.093798421 0.015752232 -0.99546659 8.2103674e-05
-0.0049080593 0.03465841 -0.00012342904 0.087379031 -0.0051020547 -0.99616206 0.00016362147
-0.040493812 0.037382241 -0.00090578623 -0.81380558 -0.34031445 -0.47106948 0.037193004
-0.038295418 0.037239909 -0.0023898175 -0.72333461 -0.068955347 -0.68704599 0.02457861
-0.033980533 0.037444834 -0.0026875085 0.013027489 0.0059225666 -0.99989766 0.002914432
-0.031197216 0.037757926 -0.0027123597 0.086067095 -0.035351831 -0.99566197 0.0017168625
-0.029237198 0.036928628 -0.00211731 0.10157403 -0.023691649 -0.99454588 0.00095263647
-0.0253215 0.037523527 -0.0018181179 0.083694793 -0.08878918 -0.99252796 0.002770277
-0.021492818 0.037598062 -0.0015052045 0.091317877 -0.099287741 -0.99085975 0.0037191794
-0.018743746 0.037474472 -0.0012635589 0.097645387 -0.1045092 -0.98971879 0.0043459749
-0.016044483 0.037614413 -0.0010443132 0.092984162 -0.064173765 -0.99359733 0.0013382408
-0.013354902 0.037454411 -0.00083382358 0.063723139 -0.078047089 -0.99491107 0.0015838675
-0.010662279 0.037576046 -0.00063010369 0.057039402 -0.10029835 -0.99332112 0.0021000919
-0.00788322 0.037714332 -0.00040801088 0.088467225 -0.12256638 -0.98850954 0.0027825825
-0.004947728 0.037593462 -0.00014646446 0.073025085 -0.14819971 -0.98625767 0.0041067842
-0.00265262 0.038472414 -8.1718637e-05 0.062871277 -0.26187 -0.96305317 0.01463716
-0.045670338 0.041527413 -0.00084152946 -0.3525663 -0.7657547 -0.53788161 0.016613852
-0.043108381 0.040635485 -0.00091556425 -0.47995698 -0.68224627 -0.55152631 0.014800766
-0.041016366 0.039749451 -0.0013861546 -0.62744164 -0.53485894 -0.56590003 0.037652299
-0.037872098 0.040837117 -0.0027135024 -0.16731559 -0.53184122 -0.83015078 0.022772972
-0.034350604 0.040833488 -0.0028353874 -0.0091950493 -0.558936 -0.82915986 0.012982273
-0.031819209 0.041071281 -0.0027968001 0.040589657 -0.53722537 -0.84246147 0.00973396
-0.028499138 0.040469334 -0.0024698519 0.051734723 -0.27258876 -0.96073872 0.010787476
-0.025318306 0.04063965 -0.0022984904 0.068371959 -0.338783 -0.93837702 0.006582363
-0.022476882 0.040711351 -0.0020953265 0.099467412 -0.3129634 -0.94454229 0.0054788957
-0.019565191 0.040414434 -0.0017645251 0.067630306 -0.28866708 -0.95503795 0.0041122166
-0.016815305 0.040543634 -0.0015729379 0.064562626 -0.28819859 -0.95539171 0.0036695341
-0.013607035 0.040652629 -0.0013880405 0.049529281 -0.30502436 -0.95105577 0.0036764203
-0.010456119 0.040662155 -0.0012362384 0.039853152 -0.33756441 -0.94045842 0.0047103181
-0.0073037138 0.040913425 -0.0012009963 0.035801347 -0.38139111 -0.9237203 0.0050604283
-0.0042936779 0.040490329 -0.0009455437 0.03077545 -0.39187583 -0.91950327 0.0037780246
-0.00140187 0.040604241 -0.00092997152 0.038489994 -0.48796183 -0.87201595 0.0086357929
0.0016141353 0.040957008 -0.0011817237 -0.057273906 -0.70775205 -0.70413548 0.010790776
0.0046114223 0.040793948 -0.0014838397 -0.10168333 -0.80880398 -0.57922065 0.0026809117
0.0074519035 0.040414874 -0.0015374107 -0.056910899 -0.8752473 -0.4803158 0.0022173289
0.010426419 0.040305194 -0.0016521949 0.0062551042 -0.90979809 -0.4150039 0.0026692036
0.013121086 0.040422626 -0.0017054571 0.066637821 -0.9328022 -0.35417429 0.0019965782
0.016260827 0.040926326 -0.0020813076 0.11706819 -0.94868416 -0.29375753 0.00076013937
0.019878671 0.041777611 -0.0026558773 0.13866489 -0.94901985 -0.28307852 0.00054194359
-0.051758498 0.044232935 -0.0014092689 -0.78552109 -0.59626824 -0.16559204 0.035413589
-0.049434397 0.04360516 -0.0013902268 -0.30162716 -0.89966053 -0.3156454 0.037044212
-0.046361733 0.043412246 -0.0015935031 -0.25082606 -0.83149773 -0.4956792 0.0234008
-0.044248711 0.043159399 -0.0023156973 -0.35839969 -0.72496533 -0.5881964 0.015887463
-0.0413436 0.042048074 -0.0028747965 -0.2499225 -0.67362845 -0.69553107 0.0057747532
-0.026263343 0.042170078 -0.0029421579 0.099970303 -0.44774672 -0.88855433 0.01509449
-0.022569517 0.042433929 -0.0027995666 0.077049747 -0.51695085 -0.85254043 0.0040523061
-0.019350534 0.042656213 -0.0026184369 0.083614111 -0.49746528 -0.86344486 0.0037630829
-0.016230304 0.042990506 -0.0025159139 0.07307329 -0.4854317 -0.8712154 0.0034424139
-0.013572704 0.043079183 -0.0023828477 0.034800187 -0.49921277 -0.86578035 0.0032104638
-0.010596689 0.043145329 -0.0024007091 0.0058285263 -0.52850151 -0.84891236 0.0028958649
-0.0073938835 0.042972989 -0.0023630864 -0.026889745 -0.57277477 -0.81927168 0.002946144
-0.0044654268 0.042855393 -0.0024152577 -0.054430943 -0.63058561 -0.77420872 0.0029357085
-0.0016373219 0.042515721 -0.0023058925 -0.069590241 -0.68639868 -0.72388822 0.0041321311
0.001214577 0.042416163 -0.0026006773 -0.12351888 -0.74301678 -0.65777594 0.0028849756
-0.052133918 0.046489507 -0.0014960173 -0.96239328 -0.24174368 -0.12393194 0.034953322
0.034492545 0.047859594 -0.0019896105 0.53424543 -0.63115096 0.56234354 0.0017989463
-0.052323695 0.04949956 -0.0013988796 -0.99606442 -0.040366814 -0.078905955 0.0019490472
0.034602135 0.048960894 -0.00034759773 0.54480571 -0.57945544 0.60615039 0.0041868309
0.036785766 0.050634094 -0.00042241305 0.56823164 -0.55894339 0.60389996 0.0047384487
-0.052194729 0.052487973 -0.0014377373 -0.99174935 0.10537436 -0.073002778 0.0017344771
0.03869433 0.052307848 -0.00064009672 0.56761515 -0.43371063 0.69979149 0.0051867468
-0.051748861 0.055462375 -0.0015223793 -0.98451483 0.16372412 -0.062649079 0.011011115
-0.049798638 0.056913178 -0.0024314788 -0.23882653 0.91429007 -0.32716298 0.018403692
-0.046396837 0.056913164 -0.0024425206 -0.13990375 0.91206712 -0.38543558 0.018627631
-0.04367869 0.056856692 -0.0026830256 -0.2861833 0.80844218 -0.51431543 0.026128637
0.040069528 0.054826461 -0.00030006355 0.61265337 -0.29733762 0.73228836 0.0072234413
-0.05139301 0.057217002 -0.00057312829 -0.89395046 0.43215948 -0.11870395 0.031459939
-0.049481608 0.057295669 -0.00086137123 -0.26366928 0.90653765 -0.32964826 0.020010106
-0.045758918 0.058394764 -0.00091373781 -0.31052998 0.87613559 -0.36872414 0.015759327
-0.043477744 0.058838218 -0.0017046538 -0.27923709 0.86316711 -0.4206771 0.016307276
-0.040330701 0.05956468 -0.0019598207 -0.23422523 0.8697049 -0.43445584 0.0074399868
-0.037984855 0.059632123 -0.0025772091 -0.12770475 0.89844048 -0.42011455 0.00020978747
0.041830156 0.059294432 -0.00078666164 0.60703218 5.9952261e-05 0.79467732 0.0030179231
-0.03968041 0.060242873 -0.00059072353 -0.20133404 0.89073038 -0.40750957 0.00042132684
-0.038029939 0.060373537 -0.0010024734 -0.17786153 0.8986057 -0.40108982 0.00033476905
-0.034451041 0.060793769 -0.0012948358 -0.13634984 0.88028497 -0.45443064 0.00047863871
-0.031640146 0.061203461 -0.0012999121 -0.12078254 0.8607651 -0.49446437 0.00068363931
-0.028473755 0.06160197 -0.0013577034 -0.10506748 0.8387782 -0.53423965 0.00042727907
-0.025430458 0.061819401 -0.0016196959 -0.11637108 0.80643588 -0.57975763 0.00057563517
-0.022467002 0.062060773 -0.0018311273 -0.11309641 0.76907587 -0.62907195 0.00048813983
-0.019638157 0.062252752 -0.0021601436 -0.14533445 0.74511689 -0.65090609 0.00052803825
-0.016878178 0.062579915 -0.0024888872 -0.18343927 0.68818915 -0.7019586 0.00088627794
0.042537242 0.06095453 -0.0015075484 0.60703212 5.9793325e-05 0.79467732 0.0030181105
-0.024404503 0.063007399 -0.00022351423 -0.13036729 0.79364425 -0.59425008 0.00047589323
-0.022480723 0.063336059 -0.00026141532 -0.15143253 0.77508396 -0.61344361 0.00044560403
-0.019391885 0.063621514 -0.00069765642 -0.17751886 0.74901438 -0.63832951 0.00036928101
