# .PCD v0.7 - Point Cloud Data file format
VERSION 0.7
FIELDS x y z normal_x normal_y normal_z curvature
SIZE 4 4 4 4 4 4 4
TYPE F F F F F F F
COUNT 1 1 1 1 1 1 1
WIDTH 563
HEIGHT 1
VIEWPOINT 0 0 0 1 0 0 0
POINTS 563
DATA ascii
-0.04353014 0.013369359 0.0013782006 -0.53288001 -0.81434 -0.22997683 0.0081090322
-0.041071232 0.012517261 0.00065500167 -0.46674058 -0.85342646 -0.23198415 0.0057691108
0.047948521 0.01204457 0.0023787196 0.49021384 -0.86101836 0.13541709 0.0035174009
0.049316291 0.012656935 0.00095303234 0.49901432 -0.86560684 0.041346259 0.0020651505
0.051905885 0.014243663 0.00098499842 0.53226537 -0.84639722 0.01747454 0.0021588516
-0.051149722 0.017850649 0.0027852054 -0.55081481 -0.83040822 -0.083816759 0.014775234
-0.049212974 0.017025063 0.0017364685 -0.56273419 -0.80376852 -0.19309673 0.007195937
-0.046866905 0.015868522 0.0010951498 -0.55570453 -0.80485487 -0.20832904 0.0059828605
-0.044863082 0.015140877 0.00039715265 -0.53257751 -0.81289464 -0.23571888 0.0054627587
0.053589035 0.015356733 0.0014404996 0.55300093 -0.82905626 0.082799166 0.0019724788
0.05560492 0.016771171 0.0014116196 0.58354211 -0.8091107 0.069415249 0.0018532353
0.057311874 0.01790249 0.0010167044 0.59692436 -0.79150164 0.13117371 0.0025123651
-0.054480832 0.020648416 0.002332086 -0.60368586 -0.76278311 -0.23178755 0.0061603696
-0.052390158 0.019625293 0.0016025557 -0.59148079 -0.76272386 -0.2615391 0.0064331782
-0.050157253 0.018638162 0.00079563126 -0.58342201 -0.77232164 -0.25127274 0.0040773121
0.058569223 0.019023549 0.0013767305 0.62578642 -0.77848047 0.048574246 0.0026208975
0.060369432 0.020477377 0.0011809103 0.66632074 -0.7364924 0.11660049 0.0020751604
-0.057622835 0.023442097 0.0022496227 -0.66838157 -0.72491026 -0.16664706 0.0052283225
-0.055646244 0.022379899 0.0014312837 -0.61484277 -0.75318903 -0.23382595 0.0063187592
-0.05354261 0.021375328 0.00068529422 -0.58815134 -0.76869386 -0.25137195 0.004665107
0.061528508 0.02159325 0.0010887928 0.67831606 -0.73464876 0.013363012 0.0023583425
0.063437924 0.023434542 0.00099466031 0.72746325 -0.67464173 0.12512304 0.0027617167
-0.060474124 0.026434874 0.0020655859 -0.7259801 -0.67605668 -0.1260962 0.0024471737
-0.058765095 0.025167942 0.0013720266 -0.6684494 -0.72070414 -0.1837415 0.0029346906
-0.056912083 0.024098717 0.00067000609 -0.6279887 -0.74562603 -0.22287224 0.0035728449
0.064860433 0.025197383 0.0015307713 0.76493716 -0.63424122 0.11229075 0.0018116594
0.066069365 0.026421154 0.0012329111 0.78696924 -0.59626418 0.1585826 0.0040255375
-0.063232921 0.029670117 0.0020932227 -0.76871103 -0.63369125 -0.086710438 0.0012063676
-0.061804786 0.028253423 0.0014537574 -0.74266595 -0.65660346 -0.13160247 0.0010419852
0.067193583 0.028265271 0.0014487475 0.81182158 -0.56976163 0.12773974 0.0061718584
-0.064508885 0.031445239 0.0015492983 -0.79781532 -0.60018319 -0.057191446 0.0012412182
0.068592094 0.030426707 0.0010502123 0.84440458 -0.53460687 0.034299046 0.0072029065
0.069572158 0.031877875 0.0011376815 0.87106198 -0.49116972 0.001850714 0.0033695032
-0.066933744 0.034690689 0.0015312795 -0.82271218 -0.56808954 0.020466672 0.0015314453
-0.06583374 0.033205941 0.0012573419 -0.80714792 -0.59000558 -0.020138938 0.0009427921
0.013307038 0.033497486 0.00021335755 -0.11936934 0.97938627 -0.16295278 0.0016464059
0.0166214 0.034019362 0.00094892416 -0.22497739 0.96264511 -0.15066402 0.0023008883
0.019347304 0.034700375 0.00075467123 -0.22492646 0.96885461 -0.10358068 0.0015889953
0.023142328 0.035574809 0.0018289449 -0.25205508 0.96538877 -0.067028038 0.0016751774
0.070787974 0.034373134 0.00069953536 0.9068014 -0.40878221 -0.10299673 0.0025515826
-0.06941285 0.038345173 0.0012086468 -0.86294454 -0.49836126 0.083443813 0.0039935205
-0.068419524 0.036840703 0.0014991891 -0.83753353 -0.54444695 0.045989916 0.0013763957
0.024943134 0.036250681 0.00094860041 -0.26464376 0.96415412 -0.019249357 0.0012484771
0.028230095 0.03722892 0.0013375401 -0.31539312 0.94777089 -0.047513876 0.0028943485
0.031931367 0.038645275 0.00067588309 -0.37986365 0.9230265 -0.061038576 0.0033292249
-0.070556529 0.040420599 0.0013158931 -0.89232171 -0.43938392 0.1034588 0.0033521168
0.03498964 0.040002588 0.0008855678 -0.46932966 0.88300574 -0.0055246595 0.0023826549
0.0375637 0.04135352 0.0013668338 -0.49276614 0.86929619 0.038804166 0.0018187788
-0.072256126 0.044170916 0.000961582 -0.93618214 -0.32259172 0.13963351 0.0065755346
-0.071643017 0.042907763 0.001501076 -0.9157958 -0.37795582 0.13589515 0.0051868195
0.038764156 0.042209432 0.00086877932 -0.49770597 0.86458814 0.069109306 0.0011225591
0.040441532 0.043131456 0.0012951087 -0.51929367 0.85051548 0.083411634 0.0013181386
0.042645443 0.044533964 0.0014374865 -0.54511482 0.83401054 0.085301124 0.0015103418
-0.072961852 0.04649261 0.0012979485 -0.93367684 -0.30269206 0.19137691 0.0077777789
0.04430145 0.045593888 0.0015264346 -0.53480828 0.84152812 0.076228045 0.0021850523
0.046593472 0.047098774 0.0013856253 -0.54314542 0.83530259 0.085220598 0.0020226212
-0.075112402 0.05081575 0.00037952609 -0.91659707 -0.36559281 0.16183871 0.021695606
-0.074109077 0.049581766 0.0011341994 -0.92132467 -0.37744153 0.093266226 0.0093495371
0.049478829 0.049032122 0.0012501568 -0.56476921 0.82274276 0.064266518 0.0024336844
0.051808309 0.050624955 0.0013609679 -0.57675284 0.8151902 0.053114496 0.0025207426
-0.075604767 0.0525942 0.00091300643 -0.94507009 -0.31718782 0.0789584 0.012649142
-0.074769124 0.051530391 0.0018827083 -0.91112703 -0.37084889 0.17977372 0.010616736
0.053469162 0.051798433 0.0011641919 -0.54681897 0.83681309 0.02707001 0.0038082572
0.055528197 0.053100958 0.001203577 -0.54539502 0.83611763 0.058749806 0.0030998781
-0.076219685 0.055101931 0.0010370879 -0.98379433 -0.11119739 0.14065467 0.031872459
0.058606833 0.055197913 0.0011575641 -0.60614997 0.79432571 0.04035816 0.0097050825
0.060746003 0.056620136 0.0017365431 -0.68296516 0.72551739 0.084754094 0.0079417052
-0.075519077 0.057293043 0.0010716114 -0.89774388 0.42394686 0.11968705 0.037214633
-0.073429853 0.058507271 0.0016854068 -0.55893928 0.81286502 0.16382107 0.021117358
-0.071218491 0.059601944 0.0013599303 -0.47920012 0.87604249 0.054007564 0.0072273565
0.062197249 0.058555141 0.00054875802 -0.74477267 0.64061189 -0.18689571 0.014691752
0.063382261 0.059521705 0.0017300221 -0.82089883 0.57098687 0.0099511882 0.014077705
-0.069651738 0.060361415 0.0011243928 -0.45998856 0.8846181 -0.076559052 0.0063740402
-0.068616748 0.06083348 0.0006004367 -0.28088129 0.95692843 -0.073442221 0.022059232
0.064114787 0.061508555 0.00098524778 -0.88011497 0.45693547 -0.12887074 0.01283289
0.065079324 0.064495273 0.00077157095 -0.94182497 0.25148454 -0.22298263 0.013453705
0.066239938 0.065482818 0.0022096976 -0.95794505 0.23731746 0.1613126 0.012036918
0.065665022 0.067229219 0.00053067709 -0.93578398 0.22459655 -0.27178067 0.015397271
0.066233993 0.068359144 0.00094075687 -0.96176982 0.20809837 -0.17802733 0.013843556
0.066610977 0.070765652 0.00066182995 -0.95008934 0.23297212 -0.20749532 0.01093094
0.069355518 0.07170365 0.0026635565 -0.804892 0.19167928 0.56161189 0.024292689
0.067193016 0.07376539 0.00068110647 -0.96974719 0.18830039 -0.15534939 0.01672066
0.06912072 0.072797149 0.0025916281 -0.86553335 0.11883202 0.48655012 0.030489011
0.067551509 0.075913906 0.00081952644 -0.92043042 0.17716596 -0.34845397 0.032925755
-0.018257715 0.0029005976 0.003202053 -0.25291732 -0.95263529 0.16887528 0.0056168158
-0.016239192 0.0026482469 0.0039029189 -0.20038477 -0.95118392 0.23472345 0.0075779967
-0.013579219 0.0022549117 0.0042376742 -0.16897807 -0.95367092 0.24891426 0.0037876787
-0.010520473 0.0017625693 0.0042378027 -0.13775297 -0.95699245 0.25532243 0.0034808544
-0.0076123425 0.0014708434 0.0044090739 -0.099485449 -0.95133531 0.29165688 0.0030219355
-0.0046175835 0.0012030262 0.0043426803 -0.07159169 -0.95617682 0.28390223 0.0031117932
-0.0016752389 0.001006469 0.0041161748 -0.04103088 -0.96274137 0.26729316 0.0026289178
0.0014221702 0.0010314363 0.0043090982 -0.0083164768 -0.94857419 0.31644583 0.00176423
0.004345241 0.0010965544 0.0043645133 0.026796579 -0.93425357 0.35560116 0.0025486762
0.0073107672 0.0012153937 0.0043342761 0.058128368 -0.92804575 0.3679024 0.0017041287
0.010318279 0.0014201704 0.0043537333 0.073795505 -0.92525029 0.37211031 0.0016625728
0.013303088 0.0016277258 0.0042027314 0.10270846 -0.92063773 0.3766658 0.0030632732
0.01656574 0.0020084698 0.0041685994 0.11921266 -0.92547721 0.35955563 0.0027551567
0.019568011 0.0023780088 0.0039436119 0.16256019 -0.93821704 0.30548805 0.0028203586
0.022004092 0.0027033605 0.0036116112 0.19509947 -0.94429928 0.265019 0.0037157836
-0.027533952 0.0058374307 0.0035034814 -0.29903904 -0.94849628 0.10454829 0.012374795
-0.025378833 0.0054045571 0.004310864 -0.27864039 -0.92700797 0.25102952 0.0069403471
-0.02247199 0.0045023775 0.0043661962 -0.27457577 -0.92561287 0.26047814 0.0056751845
-0.019521989 0.0037028058 0.0045246626 -0.27892393 -0.92395282 0.26174918 0.0059372121
-0.016845074 0.003289982 0.0051954798 -0.21211646 -0.92040706 0.32841659 0.0043435181
-0.014599758 0.0030637232 0.0059250933 -0.18226913 -0.89002979 0.41788149 0.0022508958
0.017969526 0.0030013586 0.0057483539 0.15402426 -0.86937249 0.46954015 0.0054618302
0.020193223 0.0033475622 0.0057492605 0.14598846 -0.8848936 0.44232422 0.0037445151
0.022442937 0.0033313776 0.0049329479 0.20189817 -0.91664666 0.34495789 0.0032289773
0.025445633 0.0037477512 0.004247976 0.22933379 -0.92531067 0.3020035 0.0023788125
0.02842086 0.0045114793 0.0042241048 0.26346096 -0.92726123 0.2660355 0.002435294
0.031780172 0.0055764848 0.0043824222 0.29309022 -0.92193109 0.25326103 0.0021029331
0.033512898 0.0058331802 0.0034535257 0.30975071 -0.92559355 0.21755713 0.0025175684
-0.036098488 0.0089368513 0.0032479409 -0.38289052 -0.9136163 0.13674821 0.023403071
-0.034243688 0.0085299723 0.0040824297 -0.35745966 -0.92579609 0.12298039 0.01446906
-0.031467151 0.0075448318 0.0043293601 -0.32955641 -0.92402172 0.19384649 0.0064425538
-0.028695459 0.0066120196 0.0045069861 -0.33893931 -0.91547883 0.216838 0.0078236051
-0.026453253 0.0062456662 0.0055826167 -0.28929329 -0.90533614 0.31092733 0.0041071218
0.032393944 0.0061973603 0.0054214024 0.28399909 -0.89095926 0.35431075 0.0027655335
0.034576099 0.0064016301 0.0039483747 0.324534 -0.918145 0.22734858 0.0026062613
0.037436701 0.0076090894 0.0043164315 0.34472522 -0.88652313 0.30861157 0.0026090289
0.040121738 0.0086135119 0.0039957818 0.37796727 -0.88350511 0.27669382 0.0022914161
-0.042239215 0.011889171 0.0030918359 -0.44917738 -0.89146793 0.059367806 0.01726556
-0.040344913 0.011298257 0.0040306747 -0.44803706 -0.89096332 0.073804893 0.016575355
-0.037505697 0.010047219 0.0044323588 -0.42760044 -0.87826562 0.21402653 0.006876084
-0.035315819 0.0093395915 0.0051416289 -0.39137891 -0.89307225 0.22191109 0.010894733
0.041005585 0.0093823494 0.0049807322 0.38662049 -0.85942888 0.33452436 0.0027428048
0.043705255 0.010259117 0.0038621691 0.43214116 -0.88056803 0.19456087 0.0014914074
0.04611928 0.011520433 0.0039767534 0.45335454 -0.85025716 0.26745564 0.0018106292
-0.045794152 0.014471364 0.0042030723 -0.5463903 -0.83199281 0.096153751 0.021756548
-0.043579597 0.013154567 0.0042338721 -0.52387673 -0.840388 0.13892846 0.0072021238
-0.041420247 0.012260533 0.0052020596 -0.45409298 -0.85583901 0.24766745 0.0093999058
0.046938416 0.012431337 0.0051131137 0.45745203 -0.82079607 0.34209859 0.0022363111
0.0494752 0.013519255 0.0042062383 0.49269506 -0.83222669 0.25426432 0.0020656639
0.051481459 0.014515256 0.0036984084 0.51031637 -0.80578351 0.30048311 0.001399913
-0.051111169 0.017868083 0.0034839488 -0.56229693 -0.82634646 0.031204062 0.021978971
-0.049405325 0.01693438 0.0041169967 -0.58081007 -0.8131687 0.037635189 0.020559099
-0.047179982 0.015580442 0.0046328194 -0.58227021 -0.81000334 0.069686025 0.0095102163
0.052668117 0.015797634 0.0047817873 0.52923292 -0.79569817 0.29457915 0.0032393429
0.055019457 0.01712486 0.0041671386 0.55848223 -0.77968031 0.28318942 0.0022092941
-0.054464113 0.020587401 0.0038626306 -0.6092093 -0.79300827 -0.0014013478 0.02069312
-0.052550778 0.019313196 0.0042633 -0.60714 -0.79027545 0.082739331 0.012397252
-0.050623786 0.018293031 0.0053450526 -0.56341046 -0.79505932 0.22460903 0.010782704
0.05663126 0.018531375 0.0048002731 0.590204 -0.73355937 0.3369717 0.0026907756
0.058417372 0.019683121 0.0041130427 0.61877602 -0.72373515 0.30548933 0.0017554748
-0.05768913 0.023315242 0.0039740806 -0.66176999 -0.74954504 0.015577695 0.016898224
-0.055928115 0.021975392 0.0044121933 -0.64860845 -0.75566334 0.090993755 0.010270665
-0.053975951 0.021081446 0.0058564451 -0.58638322 -0.746683 0.31403697 0.0024919838
0.059585504 0.021404956 0.005525928 0.63792515 -0.67374927 0.3729791 0.0032644628
0.061386392 0.022455897 0.0042855125 0.66819495 -0.67430907 0.31436098 0.0019138098
0.063122585 0.023786437 0.0033835445 0.70195109 -0.66291797 0.26039296 0.0029498371
-0.060653817 0.026277414 0.0040211845 -0.7237637 -0.68697685 0.065031245 0.011432963
-0.059123326 0.024873018 0.0044184048 -0.70271999 -0.70815569 0.068557404 0.01084612
0.064007804 0.025335444 0.0043207691 0.7168476 -0.61373127 0.33085272 0.0018517108
-0.063382335 0.029501094 0.0038369196 -0.79623663 -0.59513974 0.10870098 0.009353877
-0.062077772 0.028051054 0.0042619552 -0.76064605 -0.64540696 0.069767207 0.0079033813
0.065115698 0.027385032 0.005633892 0.75061196 -0.59117204 0.29512265 0.0019106466
0.066708654 0.028996278 0.0043534054 0.79153728 -0.54185957 0.2825897 0.0057773166
-0.066045761 0.03298264 0.0037540803 -0.81008238 -0.54654562 0.2122602 0.013389206
-0.064683087 0.031474173 0.0041905823 -0.81033897 -0.57254833 0.12465657 0.0074910484
-0.066745915 0.034638185 0.0040535443 -0.83647108 -0.51631224 0.18367861 0.0063364506
-0.065763146 0.03343961 0.0048217191 -0.82545674 -0.53271502 0.18664396 0.0080590406
-0.06918332 0.038660336 0.0034902645 -0.8451218 -0.4225339 0.32746649 0.0051605781
-0.068184808 0.037366871 0.0042957426 -0.84586424 -0.46227282 0.26611575 0.0041534896
0.028971059 0.037162229 0.0033158176 -0.31187361 0.94905275 0.045097493 0.00059938518
0.033692569 0.038752761 0.0039010674 -0.38569036 0.91928387 0.07848645 0.002297947
-0.069783837 0.040476032 0.0040062247 -0.86273718 -0.36872491 0.34601516 0.0038929204
-0.068794981 0.039706871 0.0053832578 -0.83641297 -0.35274905 0.41950169 0.0045584077
0.034275554 0.039256744 0.0030351325 -0.40592909 0.9099223 0.085223652 0.0018087492
0.038146898 0.041198611 0.0036670957 -0.49430764 0.86430925 0.0928948 0.0016055652
0.039808221 0.041929826 0.0043917042 -0.53481132 0.83409047 0.13516648 0.0019240143
-0.072115339 0.044942729 0.0030455068 -0.86701411 -0.31442019 0.38655728 0.015968697
-0.070772052 0.043380141 0.0042430595 -0.85480666 -0.30793083 0.41771308 0.0030293495
0.041207314 0.043009758 0.0037719416 -0.5272814 0.83989477 0.12865107 0.0017420888
0.043056399 0.044191878 0.0038105289 -0.53341591 0.83336568 0.14480726 0.0009947113
-0.072373837 0.047112942 0.0034339472 -0.8588571 -0.29067835 0.42174706 0.0032669881
-0.071354024 0.046169024 0.0046131965 -0.84948629 -0.26179647 0.45807824 0.00339006
0.044791885 0.045386724 0.0037220088 -0.51221138 0.81459957 0.27215266 0.00072892872
0.046579346 0.046310641 0.0041173794 -0.52135926 0.82179713 0.22985628 0.0018915717
0.049005143 0.047690891 0.0044525764 -0.52748555 0.81192064 0.25008768 0.0018035905
-0.072856873 0.04981707 0.003899771 -0.84350693 -0.31446987 0.43543628 0.0063794469
-0.071713708 0.048756413 0.0050356318 -0.77493525 -0.22653639 0.59004802 0.005024455
0.050285637 0.048798092 0.003979329 -0.52147275 0.77796853 0.35047296 0.0018142608
0.052230224 0.050030038 0.003925195 -0.53789735 0.80214232 0.25929543 0.002162087
-0.075086921 0.053467929 0.0030705258 -0.76718348 -0.20796406 0.60677874 0.013130281
-0.073870048 0.052280083 0.003744263 -0.84172374 -0.31767368 0.43655989 0.0070192204
-0.071905263 0.05189037 0.0055120001 -0.66615063 -0.1490106 0.73077989 0.0050974339
0.053456854 0.051097617 0.0034766223 -0.52962166 0.80731177 0.26028559 0.0023249798
0.055663247 0.051919956 0.0044384431 -0.50658762 0.77279645 0.38230181 0.0017639538
0.05784706 0.05358018 0.0038686302 -0.55254477 0.79656279 0.2453202 0.0019642939
-0.075144641 0.055132478 0.0031634218 -0.91775334 -0.035477683 0.3955631 0.029382905
-0.074244976 0.054924522 0.0040408284 -0.83333361 -0.14998764 0.53203267 0.016717404
-0.071688168 0.055185821 0.0057540163 -0.56826884 -0.050424408 0.82129651 0.0019799212
0.058885466 0.054458439 0.0035533588 -0.59276915 0.76629043 0.24783829 0.0066022687
0.061424583 0.055846352 0.0040802467 -0.6404295 0.7330997 0.22894315 0.0096671209
-0.073708937 0.057821855 0.0036241619 -0.73450017 0.48792678 0.47163233 0.036724307
0.06220815 0.057348717 0.0030536361 -0.65064692 0.71210384 0.26375493 0.0088655967
0.06421525 0.058389183 0.0039984705 -0.7323454 0.60422981 0.31396899 0.012267482
0.06507729 0.060505897 0.0032706184 -0.78728932 0.48493707 0.380804 0.021083692
0.066219456 0.061620817 0.0035857484 -0.82303089 0.4134579 0.38945189 0.02025998
0.066613466 0.063668594 0.00310672 -0.86056566 0.30159989 0.41044402 0.020141451
0.070150688 0.074302569 0.0036469554 -0.91976243 0.23362531 0.31536701 0.038826406
0.069514915 0.075468667 0.0034047803 -0.91891724 0.3062892 0.24855176 0.053626768
-0.012657314 0.0029149146 0.0062354403 -0.16408733 -0.87435496 0.45670426 0.00089735223
-0.010437719 0.0027163289 0.0065022469 -0.12679377 -0.87969822 0.45831671 0.0015815231
-0.0075748051 0.0025557321 0.0068392544 -0.08507245 -0.88828295 0.45134902 0.0014322181
-0.0046136463 0.0023928985 0.0069795083 -0.04890864 -0.8777799 0.47656089 0.0013461807
-0.0015215173 0.0022755153 0.0069953278 -0.02620621 -0.88340563 0.46787569 0.0013334369
0.0015300222 0.0023264212 0.0071075629 0.0047016619 -0.88262123 0.47006139 0.0010541936
0.0045657852 0.0022442909 0.00681801 0.03825679 -0.89432132 0.44578683 0.0014477053
0.0072408202 0.002425075 0.0068446002 0.060205586 -0.87177706 0.48618931 0.00087504892
0.010252228 0.0025772969 0.006598643 0.084467597 -0.87443417 0.47773427 0.0007479068
0.013205892 0.0027376765 0.0062729022 0.1120165 -0.87074476 0.47880667 0.0015355436
0.015274454 0.0028440123 0.0060634222 0.12763548 -0.83643818 0.53299195 0.00040215644
-0.024523893 0.0058729541 0.0061719916 -0.28927553 -0.8545804 0.43129113 0.00094606075
-0.022305522 0.0055441591 0.0068490491 -0.25740221 -0.86513162 0.43045494 0.0010778233
-0.019439915 0.004972917 0.007270521 -0.22200048 -0.85722154 0.46463636 0.00098194752
-0.016431477 0.0043600448 0.007468191 -0.19451189 -0.86180377 0.46846488 0.0013863465
-0.013438158 0.0037533033 0.0074637593 -0.16152757 -0.86664104 0.47206149 0.0012061477
-0.010486648 0.0035829532 0.0079785781 -0.1225661 -0.86058265 0.49434295 0.0013253711
-0.0076937736 0.0033924454 0.0082177473 -0.081500307 -0.84704924 0.52522886 0.0014825753
-0.0047137942 0.0033141642 0.0084317215 -0.047003202 -0.84250402 0.5366354 0.0011920823
-0.0012118771 0.0033429861 0.0086824019 -0.020196263 -0.84543532 0.5336957 0.0010877332
0.001311396 0.003323812 0.0087197935 0.0056742118 -0.8051514 0.59304219 0.00093172817
0.0048059756 0.0032830043 0.008469345 0.033022087 -0.83888805 0.54330134 0.00080262008
0.0080454964 0.003206101 0.0080465293 0.076046742 -0.8382892 0.53989643 0.00076382514
0.010981502 0.0034809751 0.0079880441 0.096626662 -0.85743588 0.50543737 0.00077093957
0.013640658 0.003686558 0.0077348282 0.1158314 -0.84444964 0.52296072 0.00040841755
0.01637044 0.0041366108 0.0077355653 0.12577449 -0.83684397 0.53279728 0.00033113864
0.019410165 0.0044612032 0.0074535455 0.15787618 -0.79878974 0.58052564 0.00092389248
0.02247013 0.0048182071 0.0071922205 0.16775502 -0.80347973 0.57120794 0.001693377
0.025449222 0.0052151112 0.0069388598 0.18250769 -0.7888999 0.5867945 0.002314582
0.028132951 0.0055343774 0.0065000854 0.20746811 -0.81456554 0.54170108 0.0045473212
0.030227734 0.0058495803 0.0060189222 0.27223697 -0.79680347 0.53943598 0.0027362038
-0.033421442 0.0089559034 0.0061709769 -0.35909712 -0.84772205 0.39040574 0.0034479182
-0.031236503 0.0085337544 0.0068709077 -0.31131133 -0.84144241 0.4416559 0.001048477
-0.028534001 0.0078698574 0.007410272 -0.28995806 -0.84033704 0.45799342 0.00092142104
-0.025601145 0.0069396487 0.0075048739 -0.27931538 -0.84479588 0.45640206 0.0008205871
-0.022787726 0.0064773127 0.0082415845 -0.24871694 -0.83595037 0.48921058 0.00084344635
-0.020533502 0.0062147919 0.0088702301 -0.22076915 -0.80672592 0.54813707 0.0011901063
0.022549588 0.0061839358 0.0087434789 0.17375177 -0.74990714 0.63831788 0.0005286815
0.025504239 0.0065927752 0.0084513212 0.17646229 -0.72368622 0.66718769 0.00024736943
0.028661603 0.0065964828 0.0076754848 0.19594526 -0.76948029 0.60786974 0.00266932
0.031530377 0.0071160165 0.0072979545 0.25726303 -0.79777628 0.54531521 0.0025739155
0.034396812 0.0079457471 0.007176186 0.27858192 -0.79915953 0.53266895 0.0031497655
0.037029576 0.008497105 0.006567982 0.32162106 -0.81092483 0.48883617 0.0029746969
-0.039388556 0.011773516 0.0064268392 -0.41184261 -0.8109501 0.41562665 0.0018949842
-0.037349433 0.011203189 0.0071822563 -0.37133381 -0.81439203 0.44595617 0.0010296819
-0.0345718 0.010148035 0.0074474821 -0.33993885 -0.82856661 0.4448809 0.00094396749
-0.031878047 0.0094393268 0.0080836024 -0.31121653 -0.82342517 0.47446308 0.0011039998
-0.029941825 0.0091019459 0.0088845864 -0.30550048 -0.77862161 0.54810393 0.0014988567
0.035138205 0.009486041 0.0088108284 0.26420042 -0.73230231 0.62763959 0.0013681613
0.037643921 0.0096676424 0.0078998357 0.31162933 -0.76987445 0.55693847 0.0032027937
0.040448755 0.010435101 0.0073126163 0.34784913 -0.78448534 0.51340401 0.0027722172
0.043128584 0.011294296 0.0067413733 0.38636723 -0.78699142 0.48100394 0.0020657172
0.045048468 0.01199971 0.0066366377 0.40763205 -0.80339485 0.43404245 0.00051293831
-0.045162097 0.014923985 0.0063062757 -0.5021506 -0.77970976 0.37402868 0.0048522004
-0.043209698 0.014225719 0.0070978133 -0.461494 -0.77228391 0.43657848 0.00095130753
-0.040608279 0.013002899 0.0075216838 -0.42542693 -0.79410183 0.43406704 0.00091739773
-0.038321383 0.012342846 0.0083894357 -0.37155864 -0.78356159 0.49797133 0.00087665534
0.041427404 0.012078035 0.0088608284 0.30019456 -0.72035074 0.62528241 0.0042142258
0.043877263 0.012565407 0.0080378577 0.3883478 -0.7684986 0.50852329 0.0027611477
0.046359491 0.013358884 0.0073092855 0.41899934 -0.76547539 0.48835132 0.0020561118
0.049081031 0.014387616 0.0064975563 0.47470835 -0.776963 0.4134979 0.0027217509
-0.04868602 0.017575571 0.0067132181 -0.52774125 -0.74074864 0.41566896 0.0013155404
-0.046446294 0.016463313 0.0074340822 -0.49521756 -0.74811018 0.44169074 0.00096022373
-0.044073448 0.015428099 0.0082606822 -0.45908517 -0.75179517 0.47333363 0.00086433458
0.047816452 0.015416691 0.0088794259 0.37355095 -0.63176602 0.67921376 0.0025860986
0.049418204 0.015596226 0.0079465732 0.44492897 -0.78788632 0.42576212 0.0030606829
0.052267238 0.016733767 0.0070230332 0.51092064 -0.7540428 0.41277063 0.0015917498
0.054053329 0.017323606 0.0063463897 0.5220046 -0.76702762 0.37306815 0.001745273
-0.052061092 0.020244146 0.0070323893 -0.54847896 -0.71927863 0.4263908 0.00097453652
-0.049809109 0.018978272 0.0076722242 -0.53018284 -0.72694588 0.43641239 0.0011486585
-0.047825877 0.01814373 0.0086287493 -0.50353926 -0.72228491 0.47408101 0.00097223412
0.053244729 0.018839732 0.0086905928 0.44278648 -0.61328143 0.65408415 0.0009510591
0.055389281 0.019037314 0.0071377158 0.53739494 -0.69656444 0.47539946 0.0014747344
0.057791673 0.020519037 0.0065372279 0.5828501 -0.68099624 0.44331694 0.00087310089
-0.057232559 0.023762152 0.006145718 -0.62960422 -0.69025743 0.35657135 0.0081114499
-0.055240147 0.022848565 0.007220869 -0.58756351 -0.69268578 0.41827685 0.0010585092
-0.053090923 0.021594923 0.0079707038 -0.54888022 -0.71115947 0.43929794 0.0012102972
0.056382909 0.021144284 0.0085023772 0.49858707 -0.58992249 0.6351397 0.0011925896
0.058701362 0.021831447 0.007170679 0.58554685 -0.67553413 0.44809434 0.0021093006
0.060841165 0.023213331 0.0063587073 0.63746655 -0.63994783 0.42907247 0.0014787165
-0.060242791 0.026847562 0.0061425492 -0.6853649 -0.60559613 0.40438619 0.0079149986
-0.058330528 0.025676752 0.007185421 -0.63950717 -0.64086318 0.42464685 0.0018097314
-0.056469876 0.024549533 0.0080947876 -0.59777522 -0.64379537 0.47769484 0.0018898768
0.059251476 0.024252122 0.0088606402 0.5599435 -0.58225274 0.58944482 0.00098087662
0.061786924 0.025406512 0.0073724277 0.62791324 -0.55636126 0.54423082 0.0017494962
-0.063025832 0.029958345 0.0060469285 -0.74562621 -0.57758373 0.33232298 0.012862384
-0.061154358 0.028696137 0.0070465803 -0.70232856 -0.55480784 0.44600752 0.0030036962
-0.059431143 0.027631793 0.0081521161 -0.63999981 -0.57167464 0.5134086 0.0014085381
0.06287545 0.02725851 0.007896767 0.64842105 -0.55729306 0.5186277 0.0022861308
-0.063821219 0.03205556 0.0067882743 -0.72742683 -0.50507993 0.46448314 0.0026552232
-0.062292363 0.031074254 0.0079600336 -0.70727283 -0.46989876 0.52816689 0.0026315909
-0.066212334 0.035454802 0.0063513285 -0.75279975 -0.40351447 0.52006596 0.002241815
-0.064739145 0.034401737 0.0075201555 -0.73294455 -0.4103598 0.54258382 0.0023125606
-0.062953748 0.033186521 0.0088320374 -0.69748938 -0.3967731 0.59672409 0.00085479399
-0.066792913 0.037556123 0.0069650114 -0.75920171 -0.36985883 0.53555322 0.0024414223
-0.065444201 0.037030529 0.0083120409 -0.72463018 -0.33752772 0.60082114 0.001887652
-0.069130927 0.041593645 0.0062370077 -0.77129501 -0.28784093 0.56767219 0.0036728112
-0.067569971 0.040241573 0.0073170336 -0.76073796 -0.29891986 0.57612902 0.0018271438
-0.065871999 0.039356999 0.0088822627 -0.66201371 -0.19943377 0.72247076 0.0021539121
-0.069336988 0.043021444 0.0062855892 -0.80779767 -0.26905105 0.52447546 0.0021792252
-0.068426579 0.042756878 0.007220631 -0.76763457 -0.24728376 0.59125954 0.0016788889
-0.069968179 0.046306837 0.0064389808 -0.77074122 -0.18719304 0.60902941 0.0030445042
-0.068342566 0.046272073 0.0079314103 -0.678128 -0.10074104 0.72800654 0.0022087737
0.047167514 0.045703102 0.0060918424 -0.49782628 0.7995618 0.33596131 0.0019179167
0.050062705 0.046848074 0.0069492832 -0.4739868 0.79322219 0.38227633 0.0015771486
-0.070418447 0.049446151 0.0064190547 -0.72879237 -0.16477482 0.66461331 0.0033570668
-0.067864612 0.048944049 0.0082186125 -0.60724044 -0.034327656 0.79377621 0.001672257
0.051146708 0.04810499 0.0061429432 -0.46843114 0.77589244 0.42256749 0.0012484088
0.054942645 0.049714204 0.0069741337 -0.48681095 0.77304435 0.40671557 0.0013820954
-0.070728235 0.052312315 0.0063377265 -0.64115828 -0.10131291 0.76069164 0.0029790348
-0.068448521 0.051906247 0.0075300857 -0.55812484 -0.0083767846 0.82971478 0.0015268332
-0.07083147 0.054507684 0.0061996952 -0.56530422 -0.027847609 0.82441235 0.0020915514
-0.018682135 0.0058618742 0.009144594 -0.20582519 -0.79837435 0.56589246 0.00081252248
-0.015913548 0.0055780737 0.0095432503 -0.16139416 -0.79364598 0.58658153 0.001448244
-0.013303684 0.0052526323 0.0097479541 -0.14036848 -0.80249482 0.57991278 0.00094608567
-0.010553769 0.0051108114 0.010091078 -0.10988935 -0.78819901 0.60553008 0.001075363
-0.0073244898 0.0046387301 0.0099284276 -0.075365782 -0.79460132 0.60243553 0.00075612275
-0.0040797568 0.0044626244 0.0099903299 -0.041870274 -0.79223317 0.60878026 0.00070945115
-0.0020748277 0.0041372841 0.0096575543 -0.02887515 -0.81228912 0.58253986 0.001113615
0.0016137599 0.0043811607 0.009987101 0.014471767 -0.77265835 0.63465714 0.0015622791
0.0044101574 0.0044774543 0.010007253 0.037484806 -0.76621008 0.64149588 0.0013714219
0.0072739311 0.0047494853 0.010128407 0.063384838 -0.75332272 0.6545893 0.0011892607
0.010557245 0.0049741953 0.010001163 0.088838175 -0.73430508 0.67298126 0.0012725595
0.013243405 0.0050801793 0.0097616892 0.11268974 -0.76176292 0.63797981 0.0011381957
0.016454445 0.0054239025 0.0095329331 0.13866074 -0.75663102 0.63897002 0.00093790219
0.019206258 0.0058072666 0.0092996433 0.15814735 -0.7607277 0.62950993 0.00055016729
-0.027452832 0.0088435914 0.0095972437 -0.2682136 -0.79512954 0.54390293 0.0006613505
-0.02529419 0.0083464719 0.0098740533 -0.25303072 -0.79331934 0.55373275 0.001035055
-0.022495307 0.0077331024 0.010171992 -0.2223306 -0.77683932 0.58914322 0.0010957356
-0.019631457 0.0071179383 0.010365682 -0.19968349 -0.7783078 0.59528434 0.0010288274
-0.016672341 0.0067569944 0.010787286 -0.16818275 -0.77523446 0.60887283 0.00087074633
-0.013660934 0.0066307285 0.011339417 -0.11929347 -0.72007692 0.68356293 0.001153606
-0.010693266 0.0064723478 0.011601739 -0.082615703 -0.69869041 0.71063793 0.0011118464
-0.0075400919 0.0062928982 0.011727343 -0.049935799 -0.70917749 0.70325929 0.001498463
-0.0044123344 0.0062271627 0.011828249 -0.028929668 -0.71015656 0.70344919 0.00088417146
-0.0018586407 0.0061545158 0.011811521 -0.0025454222 -0.674402 0.73835993 0.0011106062
0.0017331177 0.0061366581 0.011765172 0.012747118 -0.66636902 0.74551302 0.0015716857
0.0046477607 0.0062038749 0.011723268 0.038384393 -0.68908119 0.72366685 0.0009451544
0.0076781474 0.006361282 0.011672956 0.057077635 -0.6754874 0.7351591 0.0011783052
0.010542952 0.0065519535 0.011579883 0.075239755 -0.63258696 0.77082598 0.0016237678
0.013657723 0.0065245363 0.011202352 0.11191162 -0.69850582 0.70679945 0.0013831807
0.01691906 0.0067924121 0.010914255 0.1352959 -0.70443076 0.69675845 0.0013636488
0.019785237 0.0069283191 0.010408537 0.1671993 -0.72274613 0.67058367 0.0011827018
0.022593237 0.0074239527 0.010186518 0.17519915 -0.71106237 0.68095195 0.0010137919
0.025516959 0.0081614256 0.01011098 0.18320023 -0.70302266 0.6871658 0.00035504976
0.028366797 0.0082730614 0.0094107054 0.19469073 -0.70506299 0.68189567 0.00046991723
0.031074435 0.0087664463 0.0092129437 0.20826805 -0.68935889 0.69383633 0.0010387236
-0.036460295 0.011895655 0.0091654202 -0.3541573 -0.76467597 0.53837091 0.0011531792
-0.034267783 0.011453758 0.0097683351 -0.32662749 -0.77048999 0.54741174 0.00070504553
-0.031363588 0.010699639 0.010248458 -0.2920222 -0.7819832 0.550659 0.00083234656
-0.028752932 0.0098547786 0.010370015 -0.27304569 -0.78029078 0.56266534 0.00082740502
-0.025678663 0.0096032238 0.011309456 -0.23605016 -0.75636703 0.61007321 0.00094201771
-0.023341961 0.0091985809 0.011689096 -0.191999 -0.71358347 0.673747 0.0013510943
0.023227043 0.0090204375 0.011594169 0.1635765 -0.66399914 0.72962171 0.0014449658
0.025612725 0.0095057264 0.011395457 0.18556185 -0.64904755 0.73776972 0.0010356961
0.028419644 0.0098585514 0.010874964 0.19449204 -0.64805013 0.73634487 0.0006125152
0.031310994 0.010577712 0.010687853 0.20755175 -0.63769805 0.74179745 0.00041388231
0.034264326 0.010558029 0.0099216579 0.22253288 -0.65902799 0.71844363 0.0010975067
0.037388217 0.011283781 0.0096565522 0.24429643 -0.66669744 0.70415467 0.0022946324
0.039425816 0.011624227 0.0093172798 0.2958332 -0.68376112 0.66704828 0.0019034796
-0.042169191 0.014865891 0.0092424992 -0.4266746 -0.72936136 0.53477168 0.001193497
-0.040424127 0.014301555 0.0096991733 -0.40498242 -0.7391395 0.53820264 0.00090942933
-0.037571542 0.013393189 0.010375974 -0.35851014 -0.75041837 0.55528629 0.00074635074
-0.034874573 0.012774173 0.011123395 -0.32115549 -0.74300492 0.58719915 0.0007086093
-0.032195579 0.01222818 0.011770842 -0.29078114 -0.73099917 0.61732197 0.00074116519
0.032033268 0.012198005 0.011864264 0.19715014 -0.59251976 0.78105837 0.0005593308
0.034346074 0.01285291 0.011676122 0.21043181 -0.59196591 0.77800703 0.00043826632
0.037821155 0.013001149 0.010895789 0.22852194 -0.60607356 0.76187432 0.0010827224
0.040749799 0.013364096 0.01025847 0.28181341 -0.65105003 0.70478022 0.0017243881
0.043421287 0.013899521 0.0097011216 0.33683121 -0.6814267 0.64977109 0.0018379694
0.045318324 0.014425778 0.009331408 0.36993879 -0.67608136 0.63722777 0.0018674238
-0.045798484 0.01752501 0.009669208 -0.46566373 -0.69937199 0.54225093 0.0010985937
-0.043506555 0.016522065 0.010225093 -0.43501979 -0.70674711 0.55791253 0.000991193
-0.040856075 0.015627231 0.011035391 -0.38962004 -0.69870913 0.60000151 0.00091882655
-0.038736232 0.015119448 0.011843365 -0.35867706 -0.67610013 0.64361435 0.001543554
0.04096394 0.015416952 0.011720677 0.24263567 -0.53070611 0.81208307 0.00062583247
0.043694496 0.01596678 0.011199282 0.2742635 -0.53657144 0.7980417 0.00056737429
0.046676781 0.016224451 0.010185043 0.34518549 -0.6097331 0.71349323 0.0029631131
0.049408223 0.017286899 0.0097385691 0.39306557 -0.63132143 0.66853034 0.0021020917
-0.051093571 0.020758182 0.009159103 -0.50771368 -0.66337657 0.54968941 0.00077273196
-0.049295973 0.020105803 0.0098101608 -0.49781311 -0.68152875 0.53637731 0.0010729869
-0.046808351 0.01893732 0.010509005 -0.46153408 -0.67587954 0.57460696 0.0010348323
-0.044334996 0.018199969 0.011579722 -0.42937216 -0.6670897 0.60879457 0.00097259722
0.047236606 0.018495485 0.011620117 0.32967037 -0.55108756 0.76656377 0.002988908
0.0495505 0.019098373 0.011035519 0.35313836 -0.51628327 0.78022105 0.0014363478
0.052348621 0.019634051 0.0099813258 0.43827304 -0.56779087 0.69680011 0.002921408
0.054069147 0.020941623 0.010030973 0.43953234 -0.53994191 0.71782595 0.0026438101
-0.054344371 0.023686679 0.0094000651 -0.54320127 -0.61763376 0.56873626 0.0011250682
-0.052313168 0.022658447 0.010107451 -0.51268631 -0.63812017 0.57441747 0.0015554655
-0.050023407 0.021695251 0.011003075 -0.4833664 -0.63321102 0.6044839 0.0011791384
0.050506089 0.02119239 0.011950702 0.33386591 -0.45016342 0.8281827 0.0011037112
0.052995551 0.021671379 0.011095312 0.39756435 -0.48796412 0.77706736 0.0033089011
0.055794764 0.022545433 0.010064155 0.46368924 -0.51057941 0.7240864 0.0017044819
0.05780185 0.023239525 0.0092241112 0.52280295 -0.56732988 0.63624984 0.0041194186
-0.057406344 0.026667325 0.0094845463 -0.58877319 -0.56114191 0.58177823 0.0011181964
-0.055410963 0.025549693 0.010281167 -0.55710632 -0.5695715 0.60433501 0.00166629
-0.053267002 0.024653532 0.011307426 -0.5154233 -0.57238686 0.6377399 0.0010236991
0.055142291 0.024518061 0.011659708 0.4239946 -0.44561711 0.78845036 0.0023458407
0.05881054 0.02494522 0.0097260401 0.52950841 -0.50925595 0.67843884 0.0017456486
-0.060231227 0.029644385 0.0091923196 -0.63459873 -0.48625305 0.60070157 0.0013191532
-0.058375705 0.028545395 0.010120825 -0.60537606 -0.50678265 0.61375171 0.0013622829
-0.056409005 0.027594326 0.011180558 -0.56677902 -0.51422906 0.64368474 0.0012256911
0.061715119 0.028051697 0.0095120836 0.63385826 -0.53086716 0.56249791 0.0013020462
-0.061005089 0.031664152 0.0098456591 -0.64719641 -0.43930954 0.62301201 0.0012791023
-0.059180826 0.030728051 0.010931445 -0.60267377 -0.43336654 0.67005807 0.001112496
-0.063311353 0.035000894 0.0095178913 -0.68264806 -0.37767062 0.62558496 0.0011300894
-0.061827265 0.034005873 0.010401691 -0.63850516 -0.36561456 0.67722756 0.0011325764
-0.059964512 0.033241197 0.011791565 -0.59894109 -0.3333216 0.72812521 0.0022022559
-0.064298011 0.03712083 0.0095333206 -0.69009507 -0.32433179 0.64697582 0.0016232932
-0.062221337 0.037404194 0.011397603 -0.58812797 -0.23550066 0.77372152 0.0019904021
-0.066155218 0.041473459 0.0092145186 -0.65133154 -0.16291389 0.74109805 0.0019434293
-0.064915247 0.039999746 0.0098877717 -0.65456432 -0.20905039 0.72652835 0.0017925266
-0.062612593 0.039875031 0.011613052 -0.56444389 -0.13397981 0.8145259 0.0013851722
-0.066513151 0.043507967 0.0092021516 -0.65411001 -0.1229429 0.74634117 0.002274201
-0.064631566 0.043150865 0.010521214 -0.56858677 -0.048198897 0.82121009 0.0012267944
-0.062588945 0.043476231 0.011657778 -0.52582294 -0.031501751 0.85001051 0.00064095057
-0.066590637 0.0462308 0.0092229797 -0.62192315 -0.047744833 0.78162146 0.0015424246
-0.06482853 0.045702808 0.010283438 -0.56323028 -0.026623713 0.82587093 0.00088817673
-0.019496446 0.0086885467 0.012189004 -0.1852603 -0.73451847 0.65281034 0.00078708638
-0.016107982 0.0082324194 0.012480197 -0.14443007 -0.72830921 0.669855 0.00090217072
-0.013426625 0.008097887 0.01277867 -0.098278962 -0.65455264 0.74960136 0.0011538272
-0.011097856 0.0075893155 0.012572355 -0.090281352 -0.70479715 0.70364064 0.00075138453
-0.0078333486 0.0075534307 0.012821737 -0.047250386 -0.66586202 0.74457711 0.0013073889
-0.0045739203 0.007598679 0.012959537 -0.016614851 -0.60950977 0.79260445 0.0017743955
-0.0016005738 0.0073931254 0.012830012 0.00057320879 -0.60054678 0.79958946 0.00159994
0.0014260939 0.0074797794 0.012843001 0.024099579 -0.59264886 0.80510038 0.0016040081
0.0044522104 0.0075546782 0.012780763 0.04015331 -0.5814296 0.8126052 0.0014836248
0.0076024295 0.007796613 0.012771588 0.052874118 -0.58531791 0.80907798 0.001824912
0.010178372 0.0077710026 0.012562032 0.070294365 -0.60146165 0.79580313 0.0015282888
0.01337986 0.0082421731 0.012590236 0.091649927 -0.62042576 0.77889162 0.0013537523
0.015961787 0.0082016187 0.012238707 0.11385227 -0.63271445 0.76597005 0.0012980598
0.019595388 0.0087194163 0.012084497 0.13615821 -0.63496006 0.76045161 0.0015082714
-0.030375365 0.011801606 0.012065858 -0.25948402 -0.71596485 0.64812213 0.00070458557
-0.028238554 0.011356198 0.012352353 -0.24501106 -0.74317431 0.6226247 0.0007502982
-0.025761146 0.010992918 0.01278186 -0.21002713 -0.69472063 0.68793303 0.00094208051
-0.022493362 0.0099759176 0.012683966 -0.20508187 -0.72095829 0.66193694 0.0006088189
-0.01955886 0.010358182 0.013673228 -0.13066098 -0.59636277 0.79200959 0.00061595277
-0.016524842 0.010047718 0.013923424 -0.11043078 -0.58876723 0.80072361 0.0010408735
-0.013596885 0.010051063 0.014260739 -0.082573831 -0.57271653 0.81558406 0.00091257482
-0.010717116 0.0099459849 0.014389251 -0.049662635 -0.55802256 0.82833833 0.0011421618
-0.0075282794 0.01003011 0.014544782 -0.015098826 -0.53798038 0.84282213 0.001071199
-0.0043604891 0.01000815 0.014549731 -0.0018339721 -0.51504856 0.85715908 0.0012152068
-0.0014721815 0.0097542647 0.014360123 0.010120477 -0.51617301 0.85642457 0.00084981974
0.0014557233 0.0097778328 0.014284587 0.029895116 -0.5016107 0.86457676 0.00081463001
0.0047617909 0.010212614 0.014356725 0.048922211 -0.48247302 0.87454355 0.00099364214
0.0076405741 0.0099276109 0.014045293 0.043045364 -0.49787971 0.86617714 0.0014178408
0.01045529 0.01017935 0.013998937 0.060277473 -0.46643278 0.88250053 0.0019613027
0.013571788 0.010341411 0.013818653 0.082970776 -0.46156245 0.88321912 0.0012789161
0.016610175 0.010291101 0.013484744 0.10111085 -0.4875803 0.86720353 0.0022268079
0.019775202 0.010299419 0.013088449 0.14272434 -0.57161105 0.80801648 0.0015708477
0.022476204 0.010339833 0.012696982 0.16134772 -0.59101927 0.79035634 0.0019158436
0.025256207 0.011004838 0.012627396 0.16530652 -0.59471995 0.78675407 0.0018449911
0.027784431 0.011575102 0.012497132 0.18491577 -0.60074645 0.77775955 0.00091429963
0.030319739 0.01187689 0.012095652 0.19852957 -0.60260111 0.77295405 0.00074882823
-0.036844246 0.014675854 0.012285239 -0.33206716 -0.69140059 0.64163589 0.0010314637
-0.034194447 0.013962683 0.012772103 -0.29928184 -0.69511479 0.65364045 0.00079875346
-0.03149379 0.013423409 0.0132499 -0.25897017 -0.66509783 0.70041364 0.0013883009
-0.028827082 0.013172019 0.013862669 -0.21080872 -0.62999278 0.74744147 0.00070609414
-0.02553127 0.012588659 0.014227432 -0.18649781 -0.61840546 0.76340902 0.00088112842
-0.022702197 0.012468074 0.014710593 -0.1488454 -0.56399542 0.81225258 0.0015281657
-0.020158499 0.01217467 0.014926536 -0.11972037 -0.54168892 0.83200973 0.001064549
0.010587156 0.012175567 0.014878524 0.061098877 -0.4019601 0.91361648 0.0012056443
0.012788993 0.012570867 0.01486171 0.071930923 -0.39318091 0.9166432 0.0008629252
0.015850553 0.012653549 0.014643887 0.085525982 -0.40172669 0.91175705 0.00071428803
0.018859703 0.012835527 0.01444051 0.11073867 -0.4278599 0.8970356 0.0011077366
0.022210047 0.013074132 0.01417708 0.12334803 -0.4554342 0.88168305 0.0015551792
0.025472216 0.013306579 0.013863947 0.14363115 -0.4716095 0.87003136 0.0029711635
0.028621137 0.013637377 0.013531648 0.16003019 -0.48757127 0.85829163 0.0021644968
0.031478316 0.013363179 0.012836516 0.18409599 -0.51912403 0.83463699 0.0019000705
0.035064261 0.014161061 0.012464245 0.20552129 -0.57071584 0.7950123 0.00078785885
0.037477352 0.014730518 0.012185687 0.21603836 -0.55502367 0.8032909 0.00031339453
-0.042349525 0.017610237 0.012301635 -0.38823134 -0.64961326 0.65366584 0.0011802005
-0.040309407 0.01699933 0.012793587 -0.36604422 -0.65053111 0.66544789 0.00088641228
-0.03776338 0.015904095 0.013004536 -0.34328017 -0.65915471 0.66908431 0.0009744179
-0.034607939 0.015774461 0.014222219 -0.26781374 -0.60505092 0.74979281 0.0011675281
-0.032057095 0.015250915 0.014660238 -0.21674 -0.5975886 0.77195317 0.0014159611
0.02578171 0.015982253 0.014835961 0.1026229 -0.39100224 0.91465068 0.00086528482
0.028441867 0.01605851 0.014559043 0.15147372 -0.44301304 0.88362616 0.0010943086
0.0318259 0.016076986 0.014178971 0.16319193 -0.4452506 0.88040918 0.001702631
0.034508474 0.01597045 0.013686913 0.18178819 -0.46773037 0.86497474 0.0020453807
0.037582554 0.016523078 0.013281054 0.21451436 -0.49574804 0.84155655 0.00088099751
0.040167037 0.016607892 0.012642063 0.23119982 -0.51292855 0.82671094 0.0005095558
0.042898126 0.017154749 0.012212282 0.24974324 -0.51735812 0.81851625 0.00075542892
-0.045858253 0.020246642 0.012555708 -0.43941721 -0.61554056 0.65423423 0.00080480787
-0.043379411 0.019242223 0.013105785 -0.39952818 -0.61324972 0.68139708 0.00090080604
-0.040054172 0.018625842 0.014263421 -0.35310763 -0.60275525 0.7155425 0.00089980621
-0.038578339 0.018255891 0.014667919 -0.3091687 -0.57019305 0.76111406 0.0011223839
0.035064057 0.01838373 0.014610074 0.14739801 -0.40194952 0.90372038 0.0024759411
0.0376921 0.019744163 0.014700033 0.18114077 -0.41039115 0.89373773 0.0020431376
0.040697571 0.019192766 0.013895265 0.22474185 -0.46109581 0.85841817 0.00045992938
0.043274432 0.019170089 0.01319021 0.24323319 -0.46611017 0.8506344 0.00090479275
0.045873273 0.019215129 0.012472492 0.28865919 -0.51174504 0.80919278 0.0020875153
-0.051254123 0.023803459 0.012132476 -0.4770588 -0.56623775 0.67215312 0.0013898602
-0.049379103 0.022937786 0.012598202 -0.46208152 -0.5954504 0.65720582 0.00088431698
-0.046787437 0.021889076 0.013324531 -0.43640113 -0.58347601 0.68491596 0.001009201
-0.044215925 0.021617124 0.014541944 -0.35834908 -0.51543051 0.77840692 0.0013665291
0.043935716 0.021404115 0.014094102 0.25341743 -0.44901112 0.85683644 0.00029665444
0.046301395 0.021575522 0.013481604 0.26864558 -0.44023842 0.85674953 0.00029997714
0.048865125 0.02218486 0.012963656 0.29524121 -0.42035154 0.85798442 0.00037116415
0.052451938 0.023146745 0.012158873 0.35976008 -0.45342591 0.81546164 0.0011182834
-0.054324426 0.026703026 0.012195013 -0.51620615 -0.50604153 0.6909799 0.0014333938
-0.052158229 0.02534244 0.012641208 -0.49200147 -0.53783518 0.6845932 0.0011528885
-0.049803805 0.025259158 0.014029689 -0.4160704 -0.4602083 0.78427911 0.0011508381
-0.047526259 0.024383746 0.014693065 -0.37584838 -0.45360178 0.80807394 0.0013232986
0.051003147 0.024608638 0.01328016 0.33161026 -0.45273614 0.82768625 0.0010466552
-0.057163134 0.029880583 0.012226023 -0.55626422 -0.41856074 0.71789765 0.00097403978
-0.055408332 0.028646862 0.012618096 -0.51950961 -0.44621316 0.72869986 0.0014423809
-0.052888602 0.027889406 0.013790613 -0.47572023 -0.45777395 0.75108802 0.0007858841
-0.050660525 0.027550716 0.014848643 -0.40577021 -0.39194512 0.82566917 0.0015186677
-0.05819742 0.03187691 0.012341788 -0.57005864 -0.38859707 0.72389609 0.0015396025
-0.055654109 0.031299904 0.013757406 -0.47694489 -0.31942478 0.81883544 0.0013047677
-0.053599957 0.030947998 0.014727078 -0.44544205 -0.32720545 0.83337742 0.0011273043
-0.060234264 0.035615861 0.012377952 -0.563411 -0.2327359 0.79271817 0.00261033
-0.058726206 0.034084979 0.012862872 -0.53900743 -0.26908183 0.79816413 0.0017913526
-0.056312814 0.034124684 0.014217282 -0.46869713 -0.24765991 0.84793144 0.0017171493
-0.060863666 0.037523761 0.012358247 -0.55767322 -0.20819172 0.80352771 0.0015276483
-0.059023757 0.037690658 0.013422973 -0.51619732 -0.17184418 0.83905303 0.0010242922
-0.056270506 0.037203137 0.014603359 -0.3862254 -0.077292912 0.91916037 0.0012856281
-0.060624115 0.040199347 0.012774189 -0.5229646 -0.076111525 0.84894937 0.00082990655
-0.059439495 0.039372377 0.013305428 -0.49702817 -0.12379468 0.85885853 0.0011523317
-0.061296791 0.042773865 0.012385748 -0.50661349 -0.032876469 0.86154622 0.00090351631
-0.018337224 0.011986501 0.015038202 -0.12046212 -0.53822851 0.83414561 0.0024915542
-0.016618945 0.011802112 0.015115436 -0.093891963 -0.54244345 0.83482891 0.00057701388
-0.013652302 0.011464972 0.015161972 -0.06361942 -0.51626658 0.85406172 0.0011478021
-0.010633158 0.011347217 0.015244563 -0.02409363 -0.48927787 0.87179512 0.0014060815
-0.007538897 0.011414345 0.015311626 -0.0017808742 -0.4652968 0.88515294 0.0015052825
-0.0047906931 0.011558006 0.015347993 0.01599413 -0.45698839 0.88932884 0.0015451767
-0.0016811561 0.011354898 0.015181045 0.022697052 -0.45713583 0.88910723 0.0015879719
0.0017904839 0.011443142 0.015096399 0.041983683 -0.43000033 0.90185207 0.0015090307
0.003623399 0.011982396 0.01516228 0.056471415 -0.41807002 0.90665787 0.00090479956
-0.027822748 0.014674027 0.015234725 -0.17741987 -0.56449443 0.80614412 0.001832507
-0.02538909 0.014306151 0.015456344 -0.15414323 -0.5546217 0.8177008 0.0014699519
-0.022536306 0.013838596 0.015612123 -0.11951557 -0.52696431 0.84144199 0.0017587588
-0.019546114 0.013265826 0.015628768 -0.10177714 -0.50950712 0.85442603 0.0012911377
-0.016421197 0.013075426 0.015799416 -0.08259923 -0.48622391 0.86992168 0.0010839346
-0.013635391 0.013113521 0.015942743 -0.032293528 -0.43567967 0.89952224 0.0014784815
-0.010376791 0.013147447 0.015998218 -0.015593983 -0.41116989 0.91142529 0.00085289904
-0.0074750935 0.012878043 0.015881604 -0.0080367504 -0.40159377 0.91578263 0.00076475495
-0.0045713619 0.013009982 0.015844163 0.019110536 -0.42802107 0.90356666 0.00074270682
-0.00142961 0.012843982 0.015684616 0.032220777 -0.41661224 0.90851307 0.00056280114
0.001538114 0.012673529 0.015515216 0.049130641 -0.40469521 0.91313082 0.00052343
0.004907113 0.013105623 0.015460508 0.049325783 -0.38768244 0.92047232 0.00048170972
0.0074804653 0.013147425 0.01531657 0.051209003 -0.38756835 0.92041755 0.00037187367
0.010379611 0.013786798 0.015373461 0.065116942 -0.33389392 0.94035876 0.00045300944
0.013740549 0.014000189 0.015224062 0.077954739 -0.34840795 0.9340958 0.00097554154
0.017171536 0.01424177 0.015074737 0.093558222 -0.3455328 0.9337312 0.0010020739
-0.036281109 0.017775003 0.015161484 -0.25227788 -0.54118651 0.80216771 0.003187302
-0.034095809 0.01730941 0.015455633 -0.24152979 -0.55065203 0.79902798 0.0013039676
-0.031359632 0.016529063 0.015640497 -0.19312087 -0.52462518 0.82913977 0.0015302458
-0.028526396 0.016116066 0.015948458 -0.15934396 -0.50454265 0.84855539 0.0014010846
-0.02567794 0.016041396 0.016355252 -0.14182141 -0.48302326 0.8640458 0.0014034758
-0.022512086 0.015979575 0.016628196 -0.09057235 -0.42147142 0.90230727 0.0011911013
-0.019625343 0.016092654 0.01681307 -0.082780354 -0.41079035 0.90796399 0.0010649273
-0.017320391 0.016026136 0.016826622 -0.049766041 -0.39471158 0.91745633 0.0005038465
-0.012788898 0.015077154 0.016647302 -0.026799984 -0.34586117 0.93790287 0.00070400292
-0.010974031 0.015720008 0.016716897 -0.012876485 -0.33137012 0.94341302 0.00039827256
0.014422956 0.015470554 0.015516944 0.071127549 -0.3138544 0.94680321 0.00045238587
0.019789759 0.015367803 0.01516553 0.091573365 -0.35802016 0.92921251 0.0011957916
0.021958942 0.01644312 0.015243866 0.10711825 -0.38152739 0.91812998 0.0010412065
-0.042059176 0.020830046 0.015048198 -0.3386409 -0.52528942 0.78063655 0.001129791
-0.040261693 0.02029372 0.015360682 -0.2987628 -0.50487667 0.80983967 0.0021613804
