# .PCD v0.7 - Point Cloud Data file format
VERSION 0.7
FIELDS x y z normal_x normal_y normal_z curvature
SIZE 4 4 4 4 4 4 4
TYPE F F F F F F F
COUNT 1 1 1 1 1 1 1
WIDTH 556
HEIGHT 1
VIEWPOINT 0 0 0 1 0 0 0
POINTS 556
DATA ascii
-0.017747842 0.0060373293 -0.0086279465 -0.24002936 -0.76425236 -0.59858525 0.0016773402
0.029256323 0.0063269096 -0.0084531819 0.23633547 -0.82521898 -0.51299047 0.00091228075
0.03170513 0.0066671832 -0.0076523977 0.28822988 -0.85436732 -0.43241179 0.0014260669
0.034482371 0.0075446605 -0.0074620708 0.31176892 -0.8519454 -0.42070094 0.0015133118
0.037284538 0.0084663974 -0.0071429298 0.33841008 -0.84719777 -0.40955427 0.0012955967
0.039272815 0.0088885576 -0.0063711717 0.37662232 -0.84023875 -0.39006981 0.0013668542
-0.036481228 0.011854605 -0.0064050318 -0.40318486 -0.81259227 -0.42087495 0.0015816186
-0.034333717 0.01127556 -0.007132621 -0.36123374 -0.8135727 -0.45564204 0.0015995906
-0.031542961 0.010300586 -0.00749515 -0.33998784 -0.82228005 -0.4563593 0.0015105096
-0.028902769 0.0095545733 -0.0080481702 -0.31473362 -0.80414873 -0.50426924 0.0020142759
-0.026568718 0.009108101 -0.0087567596 -0.31079495 -0.76019663 -0.5705328 0.0023636324
0.035954453 0.0090353927 -0.0088876002 0.32630333 -0.76580155 -0.55414277 0.001986519
0.03825438 0.0093879513 -0.0081740161 0.35357106 -0.83268225 -0.42617813 0.0015215633
0.040633872 0.010086097 -0.0074833403 0.38020495 -0.82490861 -0.41829401 0.0014148749
0.043249324 0.011236287 -0.0072977226 0.40964228 -0.81302536 -0.41374266 0.0014095387
0.045427073 0.01186797 -0.0062999674 0.43783686 -0.80680573 -0.39669052 0.0010847175
-0.042285021 0.014834523 -0.0062657022 -0.47364342 -0.77576834 -0.41694778 0.0012316114
-0.040250782 0.014197803 -0.0071705054 -0.42741978 -0.77159119 -0.47112569 0.0014738267
-0.037618939 0.013065554 -0.0075915898 -0.38799131 -0.79760212 -0.46183723 0.0013359265
-0.035208508 0.012374009 -0.0083238482 -0.35045913 -0.77237076 -0.52973741 0.0011719518
0.044208352 0.012398566 -0.0085382694 0.40395021 -0.77748179 -0.48202312 0.00078796287
0.04653731 0.013089965 -0.0074827676 0.44502762 -0.79152149 -0.41886052 0.0010601544
0.049301099 0.01443914 -0.006970603 0.48113737 -0.77632278 -0.40722209 0.0012428743
-0.045730814 0.017480975 -0.0068310811 -0.51647234 -0.73269498 -0.44318655 0.0014866664
-0.043543156 0.016429737 -0.0075235176 -0.48607489 -0.74362683 -0.45907551 0.0012926378
-0.041173596 0.015415653 -0.0082949642 -0.41799062 -0.73547632 -0.53325278 0.0011936392
0.049910456 0.015516481 -0.0081828833 0.47091198 -0.74304438 -0.47552812 0.00077748834
0.052479055 0.016741473 -0.0073536299 0.53030926 -0.761922 -0.37181574 0.0012387634
0.054475512 0.017690793 -0.0066265399 0.54010379 -0.72586578 -0.42591879 0.0010819404
-0.049071368 0.020141281 -0.0071595535 -0.53961605 -0.70870215 -0.45448405 0.0015030382
-0.046833526 0.018879937 -0.0077430233 -0.5177846 -0.71968389 -0.46255171 0.0014824122
-0.044887137 0.018132521 -0.0088347653 -0.496308 -0.68436641 -0.53415447 0.0014456508
0.05360768 0.018310908 -0.0086042397 0.50451547 -0.69742543 -0.50898129 0.0014349653
0.055554248 0.01914316 -0.0076138247 0.5599739 -0.70983505 -0.42727444 0.0009928369
0.057481874 0.020332139 -0.0070129018 0.5857895 -0.6730302 -0.45153189 0.001162587
-0.05432881 0.023700342 -0.0064969738 -0.54960591 -0.7076993 -0.44395381 0.0010034486
-0.052352663 0.022735357 -0.0073506404 -0.53220034 -0.71890628 -0.44714284 0.0017610826
-0.050155211 0.02156925 -0.008061613 -0.54324114 -0.70478809 -0.45624861 0.0018299132
0.05672545 0.021035016 -0.008496251 0.55966568 -0.62388533 -0.54547358 0.0014343524
0.058861438 0.022030309 -0.0076436168 0.61737597 -0.63940191 -0.45827082 0.0016981462
0.060733207 0.023383014 -0.0070167538 0.63214409 -0.60610455 -0.48273304 0.001477698
-0.05753091 0.026477436 -0.0067053321 -0.59269834 -0.66024303 -0.46128917 0.00091612694
-0.055565909 0.025361719 -0.0075034541 -0.56218296 -0.68476707 -0.46372879 0.0016591229
-0.053468984 0.024489373 -0.0086137997 -0.51515341 -0.64621693 -0.56304586 0.00098037568
0.061867338 0.025205243 -0.0076631214 0.6497097 -0.55022985 -0.52452308 0.0022822109
0.063674122 0.026561232 -0.0067845816 0.69069093 -0.52443415 -0.49791059 0.0014510299
-0.060552508 0.0293923 -0.0066543366 -0.6413635 -0.5994764 -0.47883293 0.00093361613
-0.058701184 0.028242124 -0.0075591528 -0.62181425 -0.62313324 -0.47439659 0.0017472481
-0.056758836 0.027347073 -0.0087081157 -0.56420159 -0.59630805 -0.57104588 0.0012114415
0.06264133 0.027925754 -0.0089525701 0.66178143 -0.51581335 -0.54404223 0.0018476731
0.064509153 0.0284083 -0.0074203126 0.69958353 -0.48884511 -0.52116537 0.0021302227
0.066160552 0.029864537 -0.0060521718 0.76770604 -0.505593 -0.3937045 0.00365909
-0.063368447 0.032484125 -0.0064683571 -0.67703819 -0.53606683 -0.50423372 0.0013783267
-0.061631083 0.031337202 -0.0074566323 -0.66910529 -0.54738408 -0.50266176 0.0016786481
-0.059798837 0.030400069 -0.0087012192 -0.6105116 -0.54605812 -0.57366908 0.00080801715
0.065648146 0.031648275 -0.0088448692 0.71950096 -0.38581437 -0.57746488 0.0029147526
0.066785999 0.03140226 -0.0071695177 0.74311841 -0.40605035 -0.53188175 0.0028178603
-0.06615945 0.035837416 -0.0061428444 -0.70134169 -0.46981189 -0.53609395 0.0024666374
-0.064237297 0.034333881 -0.0071748421 -0.69002551 -0.49696949 -0.52619982 0.0019545841
-0.062593244 0.033493496 -0.0084118368 -0.65691257 -0.5198667 -0.54608107 0.0020268129
0.067843676 0.033790536 -0.007225222 0.78942293 -0.39281586 -0.47170657 0.0061531551
-0.066637211 0.037400994 -0.0067521376 -0.71995258 -0.45944953 -0.52016771 0.0023715317
-0.06518542 0.036784675 -0.0080211684 -0.68987823 -0.42234561 -0.58795589 0.0021302274
-0.069195002 0.041486125 -0.0063607814 -0.75024557 -0.35264426 -0.55926168 0.002722627
-0.067642823 0.040387973 -0.0075701624 -0.69469231 -0.31275004 -0.64775771 0.0028995224
-0.069678195 0.043488048 -0.0066560521 -0.75938368 -0.25144818 -0.60009193 0.0022542493
-0.06827119 0.043261051 -0.008077655 -0.67669332 -0.20559451 -0.70697743 0.0025106305
-0.069907911 0.046340957 -0.0071287239 -0.74364007 -0.17724364 -0.64465815 0.0022200069
-0.068217784 0.046367295 -0.0086420951 -0.6422264 -0.087281816 -0.76152945 0.0035555987
-0.070599392 0.049115263 -0.0067894012 -0.74423933 -0.1465003 -0.65164834 0.0032393634
-0.068640038 0.048685126 -0.0083424095 -0.62815291 -0.061043456 -0.77569169 0.0035384852
-0.071006387 0.05230999 -0.0066140699 -0.62470871 -0.075693086 -0.77718055 0.0031148626
-0.068776518 0.051579352 -0.0079293633 -0.65022045 -0.032632478 -0.75904453 0.0016225085
-0.07124871 0.054761488 -0.0063799242 -0.61036885 -0.090428516 -0.78693873 0.0028820075
-0.015677065 0.0028163258 -0.0035508294 -0.2531122 -0.92135912 -0.29501119 0.0021535393
-0.013413496 0.0025203398 -0.0042729252 -0.20127629 -0.93223232 -0.300717 0.0021933978
-0.010516934 0.0020168254 -0.0044640596 -0.16124237 -0.93552881 -0.31430343 0.0020630613
-0.007462848 0.0015429816 -0.0044720583 -0.12047141 -0.93712151 -0.32755136 0.0024046435
-0.0044728587 0.001229376 -0.0045357179 -0.083559804 -0.93731546 -0.3383157 0.002560701
-0.0014824537 0.00098695548 -0.004474292 -0.050368186 -0.93800461 -0.34294373 0.0026585264
0.0014937567 0.00087732327 -0.0045055314 -0.024767758 -0.93802565 -0.34567961 0.0027719194
0.004522508 0.0008383395 -0.0044544712 0.011086108 -0.94192445 -0.33564201 0.0024338448
0.0075214854 0.00093584723 -0.0044932174 0.03625707 -0.94325048 -0.33009687 0.0023733925
0.010519982 0.0011299778 -0.0045160423 0.072099969 -0.94334817 -0.32387647 0.0023512517
0.013487504 0.00140591 -0.0044762581 0.10291144 -0.9449603 -0.31057894 0.0021990463
0.016494701 0.0017860926 -0.0044668172 0.12954929 -0.94751346 -0.29229328 0.0019058167
0.019519225 0.0022798087 -0.0044581252 0.16447049 -0.94754016 -0.27407491 0.0016211878
0.022212779 0.0026694408 -0.0039970293 0.20083171 -0.9456901 -0.25561067 0.0015535682
0.024387993 0.0029017057 -0.0034343954 0.24437682 -0.94001657 -0.23801006 0.0016386489
-0.02456513 0.0058111153 -0.003735387 -0.343876 -0.88813412 -0.30490491 0.0024381795
-0.022395305 0.0052363724 -0.004386256 -0.3186096 -0.89584357 -0.30976146 0.0022970615
-0.019458018 0.0042557642 -0.0044889566 -0.29716805 -0.90180755 -0.31374252 0.0015797704
-0.01665801 0.003494763 -0.0047416938 -0.26141122 -0.90509444 -0.33536279 0.0019550596
-0.014109283 0.0031650437 -0.0055641276 -0.19971642 -0.90205646 -0.38263232 0.0016705982
0.020693563 0.0030716648 -0.0058630169 0.16063304 -0.9057551 -0.39217955 0.00056146231
0.02290491 0.0032061411 -0.0052486011 0.20793386 -0.93105388 -0.2998372 0.0020017039
0.025583131 0.0036315613 -0.0045718164 0.24265468 -0.92929298 -0.27844784 0.0016620537
0.028535539 0.0044140466 -0.0045124507 0.26625195 -0.92183065 -0.28167009 0.0015459274
0.031427946 0.0052828374 -0.0044323639 0.28934219 -0.92004281 -0.26420128 0.0015104293
0.033679474 0.0058261962 -0.003678418 0.32287177 -0.91456342 -0.2435727 0.0012714193
-0.031091159 0.0085740965 -0.0040936861 -0.36142135 -0.88570136 -0.29138917 0.001918435
-0.028507188 0.00768513 -0.0045476789 -0.34748012 -0.88409311 -0.31246907 0.0020608278
-0.02572763 0.0065965317 -0.004636535 -0.36190245 -0.88103247 -0.30464467 0.0018522461
-0.023628896 0.0061733383 -0.0056338646 -0.33469024 -0.86614543 -0.37117991 0.0027426865
0.032715462 0.0061303829 -0.0054763872 0.31737477 -0.90320885 -0.28894132 0.001853361
0.034710582 0.006513916 -0.0047367564 0.33585349 -0.90021062 -0.27717006 0.001663581
0.037473693 0.007497502 -0.0044481489 0.35915759 -0.89122254 -0.27699858 0.0015625943
0.040079579 0.0085124196 -0.0041459114 0.38153982 -0.88696325 -0.26023749 0.0015400717
-0.039156552 0.011959751 -0.0033180376 -0.44786522 -0.85983926 -0.24513924 0.0019724348
-0.037262335 0.011357793 -0.0042932723 -0.40889162 -0.86261892 -0.29781923 0.0020611414
-0.034496933 0.010168822 -0.0044984128 -0.38611919 -0.87615579 -0.28855309 0.0017023039
-0.032172576 0.0093310019 -0.0049830638 -0.37880838 -0.87412721 -0.30398345 0.0021276267
0.041306317 0.0093554091 -0.0051070265 0.40701789 -0.87288731 -0.26908031 0.0019257854
0.043479577 0.010193362 -0.0044137104 0.42582729 -0.86602139 -0.26206478 0.0012355017
0.046046078 0.011467047 -0.0042595756 0.45590851 -0.85478091 -0.24798581 0.0015625231
-0.042914558 0.014386364 -0.0042227805 -0.49398169 -0.81813008 -0.29435569 0.0017896524
-0.040493738 0.013095641 -0.0045244861 -0.44932136 -0.84110552 -0.30108431 0.002001805
-0.038470209 0.012301196 -0.0053195581 -0.41397822 -0.8554424 -0.31119204 0.0027864545
0.047481347 0.01253266 -0.0051085688 0.48810756 -0.83374739 -0.25810146 0.0016488764
0.049501341 0.01348783 -0.0043884977 0.50310755 -0.82027513 -0.27208731 0.0016311464
0.051498037 0.014497942 -0.0037130078 0.51841199 -0.82027137 -0.24166903 0.0020798317
-0.048194375 0.017757045 -0.0034360469 -0.57225835 -0.77996302 -0.25333411 0.0015423321
-0.046404913 0.0168129 -0.0044383854 -0.55909598 -0.77527624 -0.29386798 0.0020737359
-0.044240788 0.015492507 -0.0048600021 -0.53410089 -0.79439074 -0.28927413 0.0016375758
0.050959326 0.015013446 -0.0057717632 0.52625692 -0.77701992 -0.34538919 0.0032371681
0.05315977 0.016012533 -0.0048974934 0.54177326 -0.7946558 -0.27386853 0.0016708961
0.054912552 0.016996967 -0.0041830968 0.56286198 -0.79061019 -0.2410848 0.0029902179
-0.051585108 0.020541511 -0.004128221 -0.56460261 -0.76844513 -0.30119085 0.0017849704
-0.04957068 0.019192362 -0.0045502172 -0.58432996 -0.75986803 -0.2848843 0.0018111222
-0.047706854 0.018262794 -0.0056351279 -0.55760592 -0.75355762 -0.34817603 0.0017797174
0.056513429 0.018433757 -0.0049814591 0.59171522 -0.75479317 -0.28312606 0.0017533058
0.058365852 0.019754143 -0.0044640526 0.62668031 -0.72239089 -0.29227245 0.0019561662
0.060114451 0.020828139 -0.0038792295 0.64340931 -0.70999449 -0.28623831 0.0027072141
-0.055012245 0.023174873 -0.0042613014 -0.57698131 -0.75930834 -0.30090421 0.0019986797
-0.052932601 0.021758758 -0.0046551418 -0.58266181 -0.76436234 -0.27614373 0.0013969033
0.059651442 0.021271639 -0.0054041129 0.6344341 -0.69993168 -0.32800755 0.0021563321
0.06144746 0.022552639 -0.0043786122 0.68404222 -0.66715956 -0.29493123 0.0017163712
-0.060017332 0.026965395 -0.0031306006 -0.66302383 -0.6975922 -0.27159649 0.0020148284
-0.058247287 0.025838844 -0.0043456438 -0.64064503 -0.70218861 -0.31065291 0.0022937686
-0.056347176 0.024438135 -0.004823349 -0.60685945 -0.73787397 -0.29540429 0.0020276306
0.062505633 0.024349689 -0.0052534579 0.70541418 -0.63066709 -0.32349628 0.0017606926
0.064016357 0.025394063 -0.0044233985 0.73688477 -0.5992353 -0.31291834 0.0020486549
-0.061244462 0.02867832 -0.0042603849 -0.68884462 -0.66401136 -0.29082975 0.0021085853
-0.059548482 0.027405322 -0.0051626428 -0.64946151 -0.69323421 -0.31245184 0.0023809068
0.065568075 0.027587075 -0.0047136783 0.77546531 -0.54255617 -0.32293409 0.0022712708
0.066507399 0.028530154 -0.0040948484 0.78621274 -0.52853101 -0.32019451 0.0020423783
-0.064007409 0.031787459 -0.004258669 -0.72289819 -0.60992432 -0.32466978 0.0024943515
-0.062496692 0.030517206 -0.005133247 -0.71497488 -0.61871791 -0.32557523 0.0024840862
0.067828462 0.031129712 -0.0045705698 0.82935494 -0.44739753 -0.33467278 0.0037414662
-0.066648744 0.035087768 -0.0041073686 -0.75826305 -0.5439806 -0.35933584 0.0025052587
-0.065366812 0.033833053 -0.0048098424 -0.75011027 -0.56952417 -0.33612031 0.0025155216
0.069320619 0.034123644 -0.0040373122 0.87427586 -0.44380862 -0.19666132 0.0045182933
-0.069238052 0.03857119 -0.0035830364 -0.802477 -0.48769042 -0.34378576 0.0021791828
-0.067916237 0.037263516 -0.0045778337 -0.78731233 -0.50798428 -0.34941548 0.002414441
-0.069966152 0.040509243 -0.0042365943 -0.84082502 -0.4242619 -0.33617729 0.0039227684
-0.068820514 0.039518565 -0.0054046107 -0.77785254 -0.43275535 -0.45570636 0.0034751166
-0.072114415 0.044627979 -0.0033365539 -0.86990374 -0.30848587 -0.3848429 0.0072782477
-0.071062036 0.043378893 -0.0045277197 -0.84787875 -0.31104824 -0.42936066 0.0034617067
-0.072546378 0.046777084 -0.0037569087 -0.84753734 -0.24999559 -0.46816948 0.0053963508
-0.071517125 0.046289623 -0.0052156621 -0.82359356 -0.20691232 -0.52809185 0.0049559008
-0.073088877 0.049707118 -0.0042171301 -0.80148083 -0.25376728 -0.54150772 0.0082437694
-0.071788043 0.048946261 -0.0056243287 -0.75479144 -0.18517524 -0.62928534 0.0055579292
-0.075156622 0.053369753 -0.0033676333 -0.81545663 -0.29024839 -0.50078577 0.0069133393
-0.07379207 0.052264713 -0.0043699476 -0.76288021 -0.2218437 -0.60728836 0.0067819017
-0.075402632 0.054830976 -0.0034434106 -0.92950428 -0.19500858 -0.31303898 0.025264014
-0.073907495 0.054762218 -0.0048209829 -0.76498348 -0.22758956 -0.60249758 0.0071929735
-0.016350163 0.0025981124 -0.0013728398 -0.23978363 -0.96095729 -0.13807616 0.001137703
-0.013490682 0.0019145593 -0.0014906927 -0.19997895 -0.9685477 -0.14806658 0.0018803159
-0.010536261 0.0013303938 -0.0014774111 -0.16287255 -0.97285497 -0.16439523 0.0029845962
-0.0075516165 0.00086062244 -0.0014842389 -0.12767306 -0.97717077 -0.16981427 0.004035586
-0.0045433142 0.00053332263 -0.0015348936 -0.086910635 -0.98061806 -0.17559856 0.0050994647
-0.0014821232 0.00030667253 -0.0014941343 -0.053159017 -0.98973095 -0.1326907 0.0028181153
0.0015305439 0.00019081768 -0.0014565432 -0.021611745 -0.99783814 -0.062064692 0.0052602342
0.0045176889 0.00018506295 -0.0014936539 0.011138923 -0.9965288 -0.082499571 0.0036251827
0.0074948687 0.00027732516 -0.0014622916 0.051706072 -0.99550098 -0.079399422 0.0035978674
0.010492842 0.00048257306 -0.0015201793 0.084468551 -0.98682648 -0.13798028 0.0039628264
0.013488681 0.00077775429 -0.0014968449 0.11299799 -0.98167944 -0.15341766 0.0050313203
0.016526164 0.0011760726 -0.0014499066 0.14350015 -0.97997665 -0.13803436 0.00395014
0.0194635 0.0016740978 -0.0015262059 0.17434224 -0.97730428 -0.12033712 0.0030257718
0.022488346 0.0022754157 -0.0014617486 0.197465 -0.97491258 -0.10272811 0.0021243494
0.024823116 0.0027922995 -0.0012125693 0.22321856 -0.9720732 -0.072436526 0.0025295091
-0.025053404 0.0055530001 -0.0014252979 -0.35317513 -0.91890413 -0.17573439 0.00075659488
-0.022465149 0.0045882971 -0.0014728884 -0.32216716 -0.92968965 -0.17856489 0.00047781307
-0.019551659 0.0035778277 -0.0014850179 -0.29871953 -0.94118768 -0.15789987 0.00072794239
-0.01772929 0.0031158598 -0.0022708119 -0.27702799 -0.94774252 -0.1582388 0.0010323372
0.02611541 0.003176437 -0.0017936019 0.26673353 -0.95970452 -0.088433839 0.0018993035
0.028477222 0.0038068304 -0.001544714 0.28468063 -0.95457834 -0.087960713 0.001791963
0.031523209 0.0047417711 -0.0015292758 0.29902491 -0.94996321 -0.090299211 0.0015414177
0.034064159 0.0056070909 -0.0014402486 0.32117844 -0.94366032 -0.0796839 0.002000286
-0.033255544 0.0088530658 -0.0010778747 -0.37540632 -0.89476031 -0.24181414 0.0022182534
-0.031448085 0.008141987 -0.0015020613 -0.387696 -0.89918041 -0.20289516 0.00074595516
-0.028526329 0.0069465484 -0.0014856417 -0.35566142 -0.91067368 -0.21018645 0.0010571532
-0.026572665 0.0061881724 -0.0016883699 -0.36485955 -0.90895331 -0.20169611 0.0013709891
0.035625007 0.00617202 -0.0013842819 0.3672182 -0.92651021 -0.08203388 0.0019199514
0.037491266 0.0069219861 -0.0015215989 0.37744921 -0.9221217 -0.084991828 0.0017836443
0.040545788 0.0082202265 -0.0014687469 0.40138647 -0.91037142 -0.10056226 0.001667927
0.042266745 0.0088978764 -0.00095073029 0.41958508 -0.90247983 -0.097358227 0.0022537583
-0.039497763 0.011786145 -0.0013250936 -0.4678379 -0.85400277 -0.2276115 0.0020033147
-0.03753471 0.010849667 -0.0015054065 -0.39736068 -0.88906741 -0.22729626 0.0016726827
-0.034737248 0.0095596518 -0.0015613361 -0.38883993 -0.89036494 -0.23675697 0.001626657
0.041842885 0.0090164645 -0.0028135239 0.36855593 -0.91753179 -0.14933859 0.0030350999
0.04369485 0.0097148297 -0.001549128 0.44646588 -0.88905406 -0.10124733 0.0017743735
0.046432465 0.011122033 -0.0014499457 0.46875358 -0.87859392 -0.091338813 0.0019504541
0.048131026 0.01193686 -0.00083792093 0.48321906 -0.87221426 -0.075773813 0.0029548057
-0.043471128 0.014093517 -0.0014226143 -0.49815407 -0.83809769 -0.22233947 0.0019782695
-0.040970635 0.012633349 -0.0015373455 -0.47678179 -0.8496477 -0.22533926 0.0019199196
0.049522296 0.012879278 -0.0015067841 0.50769395 -0.85607958 -0.09682215 0.0017966122
0.051953819 0.014375139 -0.0014104921 0.53300297 -0.84246749 -0.078462444 0.0016905372
-0.048568372 0.017610094 -0.0013736213 -0.58647448 -0.78110516 -0.21429536 0.0021984503
-0.04652765 0.016146235 -0.0014783944 -0.55322421 -0.79696047 -0.24248071 0.0016041915
-0.044847533 0.015126453 -0.0024129271 -0.5533796 -0.80453253 -0.21563502 0.00051929516
0.053409953 0.015343156 -0.0015926833 0.56565094 -0.82002258 -0.087188825 0.0019143084
0.055519614 0.016821319 -0.0014495241 0.57949167 -0.80975163 -0.092150249 0.0022240705
0.057192322 0.017902944 -0.00079775904 0.60819399 -0.78858268 -0.090759881 0.0022662589
-0.052047212 0.020217279 -0.001451718 -0.58776957 -0.78631335 -0.19036365 0.0017343475
-0.050036196 0.018724578 -0.0015532036 -0.59173506 -0.77451259 -0.22356172 0.0019236418
0.056865118 0.01810205 -0.002931179 0.6040017 -0.76313794 -0.22978811 0.0037292168
0.05851211 0.019128524 -0.0015650204 0.63054776 -0.77396399 -0.058217242 0.002408132
0.060417674 0.02070507 -0.0015055805 0.66238797 -0.74187672 -0.10421658 0.0024863402
-0.057017136 0.023915417 -0.00055833487 -0.63106811 -0.74813426 -0.20505653 0.001297103
-0.055452645 0.022791469 -0.0014731035 -0.59168237 -0.7854929 -0.18141887 0.0009173755
-0.053522334 0.021352781 -0.0016152166 -0.59881353 -0.77349472 -0.20767356 0.0019408794
0.06148228 0.021764474 -0.0015230555 0.68427944 -0.72862273 -0.029504407 0.0022659099
0.063374788 0.023614595 -0.0012629349 0.73362505 -0.67187309 -0.1018861 0.0023151236
-0.060247943 0.026747098 -0.0010365533 -0.68407381 -0.7081722 -0.17474277 0.0007513708
-0.058502734 0.025262551 -0.0015083648 -0.64577603 -0.73910999 -0.19154552 0.00080641877
-0.056851368 0.024079574 -0.0027062756 -0.61477083 -0.75792581 -0.2181862 0.0012819439
0.064797163 0.025289562 -0.0014974249 0.7685582 -0.6245957 -0.13855833 0.0024387208
0.066036493 0.026770594 -0.0012415568 0.79868907 -0.59010243 -0.11779192 0.0028145011
-0.06323979 0.029830577 -0.00096928998 -0.7388258 -0.65359312 -0.16417181 0.0011642521
-0.061726909 0.028314581 -0.0015310043 -0.71477365 -0.67749405 -0.17349474 0.0009199272
0.06702055 0.028246153 -0.0014877548 0.82753235 -0.54586381 -0.13123602 0.0033651532
-0.064556427 0.031467572 -0.0015116682 -0.75893384 -0.63161433 -0.15837523 0.0014028369
0.068506017 0.030692397 -0.0016721662 0.8664633 -0.46302149 -0.18668818 0.0050640302
0.069249466 0.032180514 -0.0011905007 0.89049143 -0.43401101 -0.1366 0.003067014
-0.067085929 0.034616191 -0.0013830519 -0.79842669 -0.58527344 -0.14131467 0.0025137179
-0.065876916 0.033234321 -0.0021111763 -0.77999097 -0.60832369 -0.14682071 0.001748653
0.070222393 0.034485187 -0.0015449133 0.90558219 -0.40626916 -0.12192763 0.0043815193
-0.069532454 0.038077865 -0.001349099 -0.84891659 -0.50976229 -0.13958125 0.0042614997
-0.068574525 0.036673743 -0.0015605735 -0.81554157 -0.56428844 -0.12833768 0.0026251653
0.071219943 0.036731288 -0.00055431324 0.95981461 -0.27652383 0.047858916 0.011017436
-0.070860982 0.040444493 -0.0014678169 -0.88701671 -0.44041091 -0.13870704 0.0045427349
-0.072390169 0.043799166 -0.0010638792 -0.92881745 -0.36436695 -0.067341037 0.0080250287
-0.071808085 0.042591058 -0.0018266647 -0.90307224 -0.4100005 -0.12790678 0.0051710941
-0.073323458 0.04653753 -0.0012249408 -0.94478852 -0.31741339 -0.081383429 0.0057199593
-0.075197883 0.050732564 -0.00053558988 -0.9381544 -0.34574082 -0.018156918 0.016355598
-0.074376285 0.049475435 -0.0013963007 -0.91872901 -0.36167571 -0.1585169 0.012521349
-0.075750627 0.052231576 -0.0011228892 -0.92713982 -0.34042957 -0.15658692 0.012458826
-0.07488998 0.051184367 -0.0023137636 -0.917319 -0.33738214 -0.21142203 0.010383256
-0.076397166 0.054696076 -0.0014672757 -0.96121675 -0.13811363 -0.23871945 0.030152822
0.075614311 0.070612505 -0.00063826697 0.85982776 -0.32100442 0.39705473 0.018532597
0.0765891 0.073065624 -0.00093392382 0.85517567 -0.24229479 0.45822239 0.023972871
-0.018675754 0.0028349685 0.0022045812 -0.24890238 -0.96824169 0.023570713 0.0053212042
-0.01653555 0.0024189607 0.0015052803 -0.21778157 -0.97585964 0.016408619 0.00489857
-0.013513926 0.0017568781 0.0014554589 -0.19361953 -0.97836059 0.072952777 0.0035565153
-0.010501489 0.0012276924 0.0015314006 -0.15488273 -0.9814871 0.11266927 0.0048090145
-0.0075293467 0.00080683781 0.0014667091 -0.11605586 -0.98372436 0.13717636 0.0053526708
-0.0045228475 0.00050599972 0.0014843108 -0.077991843 -0.98785323 0.1343998 0.003992002
-0.0014352283 0.00030682332 0.0014733427 -0.046599422 -0.99484873 0.090024993 0.0033093253
0.0015471192 0.00021727434 0.0015105391 -0.017689437 -0.9916423 0.1277989 0.0020013086
0.0045022941 0.00021312952 0.0015026297 0.020941947 -0.99003899 0.13922726 0.0022048687
0.0074692718 0.00030791771 0.0014947299 0.05412513 -0.98175454 0.18228666 0.0047661518
0.010447343 0.00050879392 0.0015005694 0.082771793 -0.97549701 0.20384909 0.0062938537
0.013440157 0.00081571686 0.0015359041 0.11082235 -0.97408521 0.19717069 0.0059200078
0.016408673 0.001203169 0.0015104995 0.13569799 -0.97369373 0.18304805 0.0050992235
0.019543974 0.001722971 0.0014954746 0.1709796 -0.97279006 0.15635055 0.0037652224
0.022524178 0.0023168579 0.0015091039 0.20052826 -0.9691177 0.14352432 0.0029089043
0.024823075 0.0028132068 0.0013163533 0.21891549 -0.96854722 0.11828875 0.0031998465
-0.027881987 0.0056962525 0.0022126657 -0.33347839 -0.94156003 -0.04750539 0.0098478645
-0.02545275 0.0051374356 0.0015430202 -0.31037325 -0.94504857 -0.10272146 0.0042696446
-0.022495696 0.0041543148 0.0014929821 -0.32078668 -0.94640332 -0.037636537 0.0023616087
-0.019785639 0.0033558228 0.0012326678 -0.30951694 -0.94978416 -0.045925919 0.0023933139
0.026169246 0.0032199526 0.0017656743 0.27204862 -0.95517558 0.11674451 0.0025871971
0.028449336 0.0038159962 0.0014964015 0.28155163 -0.95288688 0.11285066 0.0024370162
0.031427566 0.0047371243 0.001527796 0.29811203 -0.94599295 0.12738398 0.0026319486
0.034028966 0.0056161261 0.0014560221 0.31753841 -0.94199365 0.10870758 0.0023715226
-0.036305428 0.0088461777 0.002428225 -0.39128953 -0.91113579 -0.1293216 0.013323728
-0.034364242 0.0083002187 0.0018687203 -0.3692188 -0.92041266 -0.12852243 0.012678175
-0.031486612 0.0073784534 0.0015052276 -0.39315099 -0.90548933 -0.1597539 0.003522503
-0.028756218 0.0065570925 0.001085535 -0.36393872 -0.92249548 -0.12864986 0.0049176202
-0.026729278 0.0061097457 0.00040384536 -0.32195702 -0.93908048 -0.12029769 0.0043368447
0.035502639 0.0061912388 0.0018119179 0.36996409 -0.92220867 0.11250654 0.0022697754
0.037503406 0.0069504161 0.0015082266 0.38010424 -0.91764414 0.11597373 0.0021016838
0.040431112 0.0081974128 0.001520662 0.38807669 -0.91375071 0.12023344 0.0022806947
0.042161614 0.0089288866 0.0012715617 0.41953826 -0.90020889 0.11666875 0.0028120477
-0.042284105 0.011783828 0.0023688723 -0.47793773 -0.86756253 -0.13751633 0.015312628
-0.040269226 0.011062886 0.0017914787 -0.44319153 -0.8807373 -0.16698238 0.012196644
-0.037638739 0.010050828 0.001399607 -0.44074699 -0.8774823 -0.18912171 0.0069153071
-0.034953531 0.0094705084 0.00048073227 -0.37447962 -0.90079153 -0.21986276 0.0056292261
0.043553036 0.0096698413 0.0015514325 0.44361752 -0.8870483 0.12786257 0.0023087433
0.046378661 0.011122999 0.0015094383 0.45756981 -0.88197011 0.11295406 0.0023354592
0.048117302 0.011933098 0.00082240609 0.49303564 -0.86165476 0.12027845 0.0032967383
-0.046087261 0.014270529 0.0021524637 -0.54598939 -0.82860851 -0.12370743 0.01037014
-0.043625265 0.01328924 0.0013823985 -0.52088809 -0.82422733 -0.22209218 0.0083353436
-0.041173231 0.012484975 0.00057792146 -0.45939663 -0.85779989 -0.23050852 0.0064485059
0.04796363 0.012126875 0.0025043415 0.4830246 -0.86239618 0.15152586 0.0024433536
0.049565654 0.012929748 0.0014790263 0.5141108 -0.85042703 0.11164237 0.0020641282
0.051919501 0.01435744 0.0013191147 0.52855122 -0.84191138 0.10871437 0.002244235
-0.051208526 0.017721154 0.002733662 -0.56184483 -0.80349064 -0.19680737 0.012583696
-0.049226146 0.016836712 0.0017907409 -0.53980261 -0.81438023 -0.21306807 0.0089646513
-0.046853598 0.015863271 0.00084669428 -0.58275342 -0.78895783 -0.19479214 0.0045526414
0.05337489 0.015379127 0.001750241 0.5696193 -0.81492788 0.10689383 0.0019793871
0.055469278 0.016801463 0.0014359779 0.58452964 -0.80189443 0.12365446 0.0022460383
0.057236515 0.017937712 0.00082539569 0.60313886 -0.79084182 0.10388833 0.0031767446
-0.05459692 0.02044232 0.0025075311 -0.64239889 -0.75190514 -0.14819659 0.012048542
-0.052429765 0.019532846 0.0015158708 -0.5908128 -0.7648738 -0.25672635 0.008845997
-0.050227653 0.018630309 0.00060973212 -0.58779049 -0.75738341 -0.28438121 0.0058350177
0.058546722 0.019212093 0.0016079197 0.63414872 -0.7615186 0.13395838 0.0023580703
0.060243372 0.020559715 0.00098834268 0.65779579 -0.7420665 0.12900361 0.0029330002
-0.057611767 0.023394877 0.0020156775 -0.67851871 -0.72532117 -0.11628211 0.0060811881
-0.055637684 0.022302238 0.0012287454 -0.61120152 -0.76030791 -0.21991941 0.0049468069
-0.053566545 0.021207526 0.00061168952 -0.57013339 -0.78186494 -0.25226015 0.0043258825
0.061784979 0.022106519 0.0015029156 0.69578284 -0.70280862 0.14814343 0.0033654403
0.06335102 0.023533255 0.00094846182 0.73579228 -0.6652444 0.12672655 0.0027674227
-0.060520176 0.026337007 0.0018247353 -0.7112599 -0.69086105 -0.12969263 0.0011684814
-0.058872107 0.025100967 0.0011819402 -0.66577482 -0.72757238 -0.16547608 0.0018361394
0.064851537 0.025425192 0.001637329 0.77116013 -0.62383366 0.12705743 0.001927002
-0.063346833 0.029580763 0.001761984 -0.76683438 -0.63702053 -0.078549214 0.00071663642
-0.061916545 0.028108234 0.0013120008 -0.73256654 -0.67120641 -0.11326139 0.00089659513
0.067030117 0.028307049 0.001525229 0.81971902 -0.56286198 0.10605286 0.0057021077
-0.06603229 0.032872908 0.0024406638 -0.80863386 -0.58831227 0.00011686507 0.0021499258
-0.064769804 0.031420272 0.0014226353 -0.78579754 -0.61498636 -0.065681584 0.00040922113
0.068498328 0.030536538 0.00095386617 0.85197741 -0.51822609 0.074673608 0.0087695932
0.069607109 0.032755569 0.00094219373 0.89136261 -0.43123442 0.13967659 0.0044405162
-0.067106985 0.034496117 0.0014877482 -0.80866307 -0.58825052 -0.0050375611 0.0010075449
-0.065949991 0.033121578 0.00077585469 -0.80730349 -0.59012467 -0.0037387428 0.0015387932
0.070096694 0.034174282 0.0018718686 0.91359633 -0.3729085 0.16211416 0.00383034
-0.069546573 0.038077053 0.0013849976 -0.86109853 -0.49839565 0.10055366 0.0028281193
-0.068575226 0.036612086 0.001654165 -0.8373791 -0.54312545 0.061733067 0.0016794571
0.071106918 0.036815327 0.0017804655 0.92807472 -0.29705381 0.22458066 0.005585074
-0.070812322 0.040382817 0.0015161108 -0.89086944 -0.43594861 0.12767339 0.0038916718
-0.0723534 0.043898169 0.0013264101 -0.93187964 -0.31614044 0.17792018 0.0063141179
-0.071784049 0.042553533 0.0017076847 -0.90949547 -0.38255784 0.16268833 0.0045825355
-0.073212199 0.046549514 0.0015312546 -0.91776246 -0.29992485 0.26030192 0.0082410676
-0.075202368 0.050797421 0.0006867671 -0.88249427 -0.43181142 0.18639407 0.01746689
-0.074275531 0.049500078 0.0016241795 -0.8897748 -0.38603497 0.24347037 0.0093165236
-0.075720914 0.052517522 0.0014487421 -0.91185725 -0.29604977 0.28437817 0.0090744011
-0.074694328 0.051360279 0.00267906 -0.8684181 -0.33215478 0.36813471 0.0088626835
-0.076296352 0.054881886 0.0016830597 -0.91170704 -0.21243802 0.35165387 0.026705131
0.072507061 0.058147095 0.0026252477 0.70341432 0.060773209 0.70817721 0.0034206521
0.073087096 0.06211067 0.0019170986 0.61553907 -0.038961187 0.78714275 0.005074007
0.073487341 0.064484574 0.0018934914 0.6002984 -0.030159973 0.79920727 0.012270827
0.073988505 0.067402996 0.00228051 0.60954762 -0.17236456 0.77378434 0.020191632
0.075115465 0.068749256 0.00056722393 0.85547811 -0.22729224 0.46529076 0.015582842
0.068129219 0.071109571 0.0029018428 -0.5427888 -0.089915514 0.83504224 0.0055752047
0.07467711 0.070145026 0.0025834548 0.79759568 -0.29471523 0.52629274 0.020224024
0.075543314 0.070704602 0.0013494762 0.85527802 -0.24204093 0.45816565 0.023923339
0.067769594 0.073711962 0.0024795611 -0.37508678 -0.051930264 0.92553401 0.019605858
0.076342791 0.072948374 0.0017161639 0.85517567 -0.24229479 0.45822239 0.023972871
0.067733601 0.075539924 0.0024181968 -0.37508678 -0.051930264 0.92553401 0.019605858
-0.018483583 0.0028785113 0.0035017345 -0.26160467 -0.93479759 0.24024239 0.0069978484
-0.016277064 0.002583392 0.0041942871 -0.18664302 -0.94579786 0.26576453 0.0045830202
-0.013480525 0.0021390296 0.0044659679 -0.14928547 -0.94990373 0.27458483 0.0036772371
-0.010500558 0.0016937339 0.0045394604 -0.13065456 -0.94864476 0.28810135 0.0039650048
-0.0074844491 0.0013380687 0.0045155375 -0.0946564 -0.9451865 0.31251034 0.0036890616
-0.0045304205 0.0010979589 0.0044593099 -0.059756838 -0.94181007 0.33079118 0.0033683386
-0.0014749012 0.00098679436 0.0044836891 -0.027407905 -0.93802816 0.34547356 0.0028562422
0.0015382195 0.00096902373 0.0044860314 0.00065805798 -0.93408322 0.35705477 0.002442444
0.0045117582 0.0010221429 0.0044647376 0.028598804 -0.92995626 0.36655617 0.0021299603
0.0074898093 0.0011590663 0.0044675963 0.055395488 -0.92596763 0.37351748 0.0020167169
0.010510714 0.001382711 0.004494064 0.07932888 -0.9231317 0.37621111 0.0020550776
0.013486606 0.0016839206 0.0045479974 0.10095783 -0.92101079 0.37622687 0.0025245494
0.016446991 0.0020379564 0.0045075035 0.12397918 -0.92151064 0.3680315 0.0030891432
0.01943239 0.0024082048 0.0043080444 0.15324727 -0.91932184 0.36243963 0.0039216825
0.022176826 0.0027223013 0.0037645195 0.20297052 -0.91732454 0.342518 0.004216637
0.024442017 0.0029462664 0.0031213355 0.25833663 -0.93635708 0.2376923 0.0077572805
-0.027696669 0.0057733431 0.0037342189 -0.30229455 -0.94915426 0.087886877 0.012659233
-0.025442852 0.0052766181 0.0044622067 -0.27701724 -0.92488062 0.26049429 0.0055087549
-0.022495082 0.0043563512 0.0044987537 -0.27669579 -0.93058914 0.2396732 0.0061214156
-0.019618936 0.0035672083 0.0046210256 -0.28850445 -0.92156154 0.25978747 0.0057414179
-0.017087668 0.0032596614 0.0054659327 -0.21808235 -0.92000169 0.32563314 0.0041822884
-0.014755984 0.0030656797 0.0059388652 -0.18778582 -0.86490327 0.46548778 0.0015289137
0.020047879 0.0031895891 0.005756259 0.15767154 -0.8474676 0.50689089 0.0022215529
0.022759816 0.0033767836 0.0050820685 0.19549993 -0.89419872 0.40272626 0.0047501377
0.025528193 0.0037952985 0.004532651 0.23666328 -0.90654361 0.34952697 0.0030728497
0.028550589 0.0045995372 0.0045185182 0.24786589 -0.90365386 0.34924522 0.0033504479
0.031365115 0.0053975261 0.0043830536 0.28520331 -0.8990435 0.33223477 0.0035376679
0.033420637 0.0058178455 0.0036271501 0.32408005 -0.88802981 0.32615188 0.0034603989
-0.036220029 0.008871438 0.0034745305 -0.37614262 -0.92115134 0.099984229 0.026856009
-0.034308892 0.0084140245 0.0043108244 -0.35320508 -0.9254905 0.13679725 0.023011306
-0.03152281 0.0073936344 0.0044627353 -0.34249938 -0.91396827 0.21761486 0.0060573206
-0.028819015 0.0065368768 0.004789371 -0.366853 -0.90683848 0.20751618 0.009350541
-0.026682133 0.0061077909 0.0056165797 -0.26187211 -0.92369652 0.2796565 0.0055877459
0.032288626 0.006175762 0.0055735051 0.27326033 -0.87785184 0.39332557 0.0038033233
0.03468686 0.0066623189 0.0046939501 0.34905839 -0.88280505 0.31434608 0.0021164753
0.037545994 0.0076969601 0.0045092083 0.34781995 -0.87690151 0.33176056 0.0028270073
0.040019121 0.0086016105 0.0041227918 0.37828779 -0.87346083 0.30653635 0.0025122094
-0.04225542 0.011827056 0.0034494491 -0.46962622 -0.88116866 0.054708052 0.020715715
-0.040314756 0.011141148 0.0043833037 -0.40555462 -0.89460307 0.18764536 0.013591029
-0.037504759 0.0098580364 0.0045482912 -0.4459998 -0.87207454 0.20142037 0.0074884319
-0.035386492 0.0092301229 0.0053918171 -0.33180177 -0.89308625 0.30381656 0.0043991595
0.041118335 0.0094200475 0.0050236662 0.40283614 -0.85923553 0.315337 0.0024707543
0.043410718 0.010329054 0.0045052287 0.41878384 -0.85079849 0.3174305 0.0024933252
0.045924086 0.011506073 0.0042005857 0.44215688 -0.8418963 0.30936688 0.0025308069
-0.045989741 0.014355252 0.0042651868 -0.52131498 -0.84480482 0.12056306 0.016857276
-0.043594733 0.013008781 0.0045988075 -0.52855796 -0.82819176 0.18634611 0.0086726919
-0.04150096 0.012178212 0.0055391784 -0.39731032 -0.86884773 0.29537809 0.005760489
0.047176272 0.012465566 0.0049264045 0.4624711 -0.82646352 0.32105845 0.0023050224
0.049553126 0.013693242 0.0044894512 0.50220138 -0.81172049 0.29816705 0.002039281
0.051581573 0.014634192 0.0036593943 0.50996417 -0.80499673 0.30317795 0.0018115457
-0.051202197 0.017779941 0.0036879173 -0.57876259 -0.81467628 0.036557276 0.025398081
-0.049366504 0.016722275 0.0044564204 -0.55723649 -0.80471331 0.20475391 0.015119765
-0.04725996 0.01542664 0.0048910067 -0.58197087 -0.8042686 0.12025756 0.0147947
0.050970636 0.015007732 0.0058709597 0.48617706 -0.75973493 0.4317809 0.0012864145
0.052811906 0.015877848 0.0047356212 0.52682984 -0.78758746 0.31961891 0.0020672819
0.055033009 0.017230866 0.004227316 0.55865514 -0.76603633 0.31795096 0.0022544647
-0.054611832 0.020507174 0.0042421329 -0.61137682 -0.79047167 0.037054148 0.025509119
-0.052570984 0.019134913 0.004615379 -0.60407782 -0.77229935 0.1965802 0.013235078
-0.050718211 0.018194474 0.0054632742 -0.52867258 -0.8031863 0.27458519 0.0077586081
0.05634601 0.018485235 0.0048948773 0.58916152 -0.74217588 0.31947407 0.0025445488
0.058253616 0.019820007 0.0043866965 0.62165934 -0.71854866 0.31181335 0.0028361883
0.060252018 0.020917891 0.0031119594 0.64877474 -0.70405585 0.28878489 0.001716546
-0.057888035 0.023270005 0.0043322132 -0.6375342 -0.76601309 0.082304917 0.016907815
-0.056043118 0.021834465 0.0046872995 -0.65081751 -0.75323319 0.095269777 0.013588705
0.059626218 0.021524956 0.0054105129 0.63542652 -0.66353482 0.39491111 0.0044070785
0.061308756 0.02267926 0.0044991821 0.67658675 -0.65007967 0.34587121 0.0028759942
0.063130945 0.0238175 0.0030512002 0.69515675 -0.67580372 0.24504404 0.0042804186
-0.060767595 0.026124069 0.0043449211 -0.74756283 -0.65590996 0.10455534 0.01537007
-0.059207216 0.024706012 0.0047906651 -0.70191932 -0.70687616 0.087381266 0.012664906
0.062778503 0.024281736 0.0048984061 0.70698851 -0.63449603 0.31238136 0.0024369441
0.063885294 0.025553927 0.0045480425 0.71568173 -0.58334291 0.38407114 0.0039835023
-0.063560694 0.029447461 0.004359676 -0.7762537 -0.6055522 0.17531885 0.012672562
-0.062237736 0.027972227 0.0046917526 -0.75679517 -0.64111567 0.12740371 0.01162981
0.06558875 0.027849132 0.0049343584 0.77053273 -0.53031135 0.35362312 0.0021654065
0.066438846 0.029050127 0.0047490196 0.77679002 -0.50528997 0.37587154 0.0061224028
-0.066050962 0.032906421 0.0038836733 -0.81779003 -0.53917801 0.20126225 0.01122188
-0.064931802 0.031488683 0.004563156 -0.79676294 -0.56797445 0.20633444 0.013989984
0.067977369 0.031488128 0.0046103802 0.83744133 -0.41946483 0.35034472 0.0025821759
-0.066981815 0.034640163 0.0044213752 -0.83515239 -0.49159384 0.24669005 0.0084844036
-0.06582275 0.033332143 0.0055247503 -0.81778139 -0.48311928 0.3127768 0.011579203
0.068675131 0.033533409 0.0052499645 0.85251832 -0.37858546 0.36039636 0.0030997228
0.069513947 0.03474113 0.0045403112 0.86216229 -0.32955292 0.38480011 0.0044313143
-0.069238879 0.038409468 0.0038056572 -0.83872455 -0.40851361 0.3600803 0.0059483442
-0.068284564 0.037217323 0.0047380812 -0.83850402 -0.40423828 0.36537975 0.006415572
0.070404038 0.037448667 0.0046387333 0.86468518 -0.24861002 0.43647763 0.004234408
-0.06997896 0.040493827 0.0043221172 -0.84678125 -0.34335512 0.40628657 0.0040865527
-0.068865076 0.039821185 0.0057106023 -0.79774135 -0.30389532 0.5208227 0.0032872637
0.071038581 0.040450703 0.0046513444 0.87170953 -0.17037287 0.45945144 0.0033845799
-0.07216917 0.044766478 0.0033362519 -0.88336223 -0.30770344 0.3535389 0.012871872
-0.070982091 0.043402892 0.0044722706 -0.84644616 -0.29534486 0.44305795 0.0033314768
0.07131207 0.042981099 0.0047935015 0.82994288 -0.10791267 0.54731137 0.001076736
-0.07245665 0.046931673 0.0037518896 -0.83458179 -0.25072715 0.49051932 0.0045744115
-0.071387433 0.046364676 0.0051409272 -0.82266337 -0.20600426 0.52989352 0.0049258205
0.071392201 0.045428626 0.0049774293 0.79909039 -0.01539568 0.60101384 0.0030933092
-0.073043689 0.049703106 0.0040756273 -0.79209757 -0.25411567 0.55498344 0.0066448301
-0.071812958 0.049010288 0.0053516552 -0.71873111 -0.18739662 0.66955811 0.0042762696
0.070829548 0.050773349 0.0057510678 0.77628899 0.039284356 0.62915194 0.0016974469
-0.075356074 0.053636871 0.0031865065 -0.79870313 -0.27796271 0.53367597 0.018637383
-0.073738419 0.052362356 0.0042951023 -0.73635674 -0.2209447 0.63950139 0.0044917255
-0.07186158 0.051649667 0.0057907244 -0.52227223 -0.02566655 0.85239249 0.0086286115
-0.075404242 0.055085249 0.0034479001 -0.79776382 -0.17804632 0.57608366 0.02750928
-0.074030057 0.054989029 0.004464569 -0.75858647 -0.18111622 0.62589413 0.011207274
-0.07144057 0.055952694 0.0058376258 -0.5154627 0.016235124 0.85675818 0.004599663
-0.073962748 0.057065375 0.0042810962 -0.65256447 -0.07077527 0.7544207 0.013034104
0.071669377 0.0599312 0.0036340137 0.46564686 0.06323304 0.88270867 0.016441559
0.072209708 0.05991454 0.0030950326 0.46568269 0.063282505 0.88268626 0.01643832
0.070814662 0.061394881 0.0040350212 0.46568716 0.063283183 0.88268381 0.016436867
0.072050489 0.062609687 0.003250059 0.46577871 0.063236944 0.88263887 0.016423725
0.071143821 0.064484172 0.0035891836 0.38809669 -0.019103089 0.92142069 0.023086207
0.072384499 0.065074876 0.0032210501 0.38807827 -0.019024629 0.92143005 0.023094559
0.068858169 0.066135578 0.0036808797 0.0023902005 0.039900657 0.99920082 0.0075718942
0.070621222 0.067636415 0.0035913454 0.045388285 0.005278972 0.99895549 0.021922966
0.072735272 0.067742847 0.0034059836 0.51579648 -0.10691438 0.85001373 0.028168801
0.068650335 0.069785289 0.0031687368 -0.17166132 -0.00040215105 0.985156 0.016286099
0.070649281 0.0706366 0.0038766812 -0.068166576 -0.12069342 0.99034667 0.0280906
0.073281616 0.070633754 0.0037667665 0.34795529 -0.21010105 0.91366559 0.026743837
0.068696648 0.074005187 0.0032176173 -0.37509677 -0.05199163 0.9255265 0.019605966
0.070532084 0.073512144 0.0043870225 -0.33168903 -0.13999882 0.93294305 0.024400819
0.073565751 0.073234685 0.0044988939 0.23769276 -0.16820785 0.95666522 0.056940764
0.075418383 0.073300436 0.0034556433 0.69948953 -0.21811487 0.6805442 0.083441041
0.068731688 0.075469904 0.0035608304 -0.37510395 -0.052000266 0.92552316 0.019602846
0.070154905 0.075271681 0.004651045 -0.33155712 -0.13975331 0.93302673 0.024411524
-0.015308774 0.0029410205 0.0060710283 -0.21260451 -0.87528104 0.43437603 0.0013223136
-0.013009201 0.0028420996 0.0063482993 -0.15789455 -0.88454795 0.43891254 0.00065798708
-0.010388906 0.0026363451 0.006721782 -0.11776202 -0.87232387 0.47453466 0.0014533355
-0.0074500521 0.0024427867 0.006988591 -0.080018856 -0.87311143 0.48090899 0.001587992
-0.0045225066 0.0022946987 0.0071140951 -0.046970353 -0.87265819 0.4860673 0.0017000235
-0.0014642099 0.0022518707 0.0072410745 -0.018582085 -0.87267894 0.48794082 0.0017424145
0.0015363245 0.0022397789 0.0072326977 0.0097201699 -0.87108505 0.49103603 0.0018175825
0.0044928226 0.0022975309 0.0071761622 0.036520787 -0.86842501 0.49447364 0.001702922
0.0074444413 0.002400459 0.0070223766 0.062717304 -0.86424726 0.49914247 0.0014158478
0.010331706 0.0025474972 0.0067781564 0.087176099 -0.85798293 0.50622684 0.00094830943
0.013268235 0.0027151352 0.006474277 0.10781866 -0.84870565 0.51775849 0.0006752584
0.015792564 0.0028496843 0.0061828294 0.12572269 -0.83891714 0.52953917 0.00064500951
0.018455304 0.0029186271 0.0060798042 0.15579562 -0.83781117 0.52325922 0.001754044
-0.024638116 0.0058359206 0.0064532701 -0.28370973 -0.85596126 0.43224895 0.0011504698
-0.022341097 0.0054239389 0.0070278575 -0.25026757 -0.8595382 0.44560105 0.00094113912
-0.019479657 0.0048659053 0.0074636564 -0.21588954 -0.84767205 0.48460689 0.0010506596
-0.016489761 0.0041762837 0.0075196396 -0.18299556 -0.85672492 0.48221901 0.00096050958
-0.013598113 0.0037245124 0.0077364952 -0.15381899 -0.85187739 0.50064433 0.0010269498
-0.010616529 0.0035104088 0.0081766471 -0.1107903 -0.84586632 0.52176213 0.0013492834
-0.0076282378 0.0033580295 0.0084721791 -0.075171933 -0.84428483 0.53059632 0.0016639456
-0.0046361103 0.0032613222 0.0086573474 -0.044702772 -0.81403148 0.57909793 0.0012315962
-0.0014374139 0.0031950811 0.0087430011 -0.01719337 -0.8098833 0.586339 0.0013344991
0.001548113 0.0031967731 0.0087707741 0.012458306 -0.80687112 0.59059608 0.0014721751
0.0045885998 0.0032486022 0.00871043 0.04006996 -0.80631202 0.59013164 0.0014363035
0.0075858464 0.003339743 0.0085456157 0.067013688 -0.80833071 0.58490229 0.0013220158
0.010562766 0.0034278247 0.0082257995 0.093786083 -0.82220942 0.56140518 0.00094811345
0.013567127 0.00364995 0.0079183578 0.1150076 -0.82815814 0.54856843 0.00055782666
0.016544824 0.003929677 0.0076156161 0.13152824 -0.8191787 0.55825311 0.0005075151
0.019517694 0.0043688244 0.0074941833 0.15703346 -0.80585158 0.57091469 0.00088479539
0.022467615 0.0048316228 0.0073858439 0.17016573 -0.79384428 0.58382779 0.0010170481
0.025417017 0.0051534534 0.0070400424 0.18957028 -0.79611295 0.57468873 0.0024110104
0.028250596 0.0055511035 0.0066324398 0.21867993 -0.80586672 0.55023438 0.0029941676
0.030273644 0.0057793139 0.0061430251 0.27582201 -0.8154937 0.50881451 0.0028229482
-0.033518367 0.0088690268 0.0064084367 -0.35766134 -0.85951793 0.36511281 0.0029969411
-0.031279679 0.0084355092 0.0071136598 -0.30706093 -0.84384423 0.44004601 0.00096829963
-0.028479462 0.0076534604 0.0074907369 -0.28377444 -0.84564477 0.45205858 0.0011671489
-0.025623068 0.0068110605 0.0076928786 -0.27087346 -0.84258419 0.46548834 0.00094886799
-0.022856621 0.006363105 0.0084226131 -0.24374564 -0.81717122 0.52232105 0.00046062586
-0.02066635 0.0061061578 0.0088487398 -0.2251875 -0.78501421 0.57709908 0.0012103211
0.023101667 0.006171471 0.0087919543 0.16963632 -0.74224973 0.64829689 0.00070513599
0.025637513 0.0064557344 0.0084967418 0.17766502 -0.72458577 0.66589081 0.00029777639
0.028649027 0.0067810714 0.0080664735 0.19981073 -0.75336671 0.62650967 0.001890798
0.031514719 0.0072153299 0.0075919684 0.23436637 -0.77843028 0.58233899 0.0033928987
0.034326255 0.0079620173 0.0073725418 0.26818457 -0.78299719 0.56124175 0.0032830995
0.037096497 0.0085264472 0.0066943355 0.32911855 -0.80313015 0.49665177 0.0024466051
0.039235838 0.0089617493 0.0061941808 0.36536056 -0.8079288 0.46234488 0.0016115489
-0.039550785 0.011690736 0.0066222674 -0.41464281 -0.8110953 0.41254801 0.0012864951
-0.03736268 0.011036445 0.0073498711 -0.3629325 -0.81467003 0.45231929 0.00091401621
-0.034597673 0.0099767642 0.0075909463 -0.34798798 -0.83270615 0.4307026 0.00081332837
-0.032087412 0.0093979975 0.0083230017 -0.31083313 -0.8168146 0.48600066 0.0011964204
0.035340678 0.0092915213 0.0086585283 0.25081387 -0.68663847 0.68236357 0.0021993623
0.037705559 0.0096721137 0.0080179889 0.29265141 -0.77419448 0.56122899 0.003476803
0.040443331 0.010457211 0.0074731088 0.33905193 -0.78867054 0.51287669 0.0028507805
0.04316175 0.011375903 0.0069526336 0.39185759 -0.77892578 0.48961431 0.00206668
0.045199066 0.0118283 0.0062519037 0.44545707 -0.77145356 0.4543429 0.0038528538
-0.045321167 0.014857589 0.0064856191 -0.49583274 -0.77452689 0.39275691 0.002221118
-0.043279916 0.014073099 0.0072817043 -0.46745053 -0.77223706 0.43027887 0.0011709585
-0.040669877 0.012861854 0.0077273413 -0.42134434 -0.79535574 0.4357501 0.00083226105
-0.038414259 0.012261316 0.0086511075 -0.37527797 -0.78525835 0.49247915 0.0010004379
0.041560672 0.01208435 0.0088295508 0.30362847 -0.69065464 0.65635812 0.0041174311
0.043741465 0.012499332 0.0081829829 0.36144692 -0.73683864 0.57133609 0.0030003118
0.046442788 0.013496577 0.0075241565 0.41095868 -0.75050068 0.51755363 0.0027713319
0.048859701 0.014449225 0.0068787388 0.46054661 -0.74907285 0.47622114 0.0020202007
-0.048739586 0.017415792 0.0069391578 -0.53352582 -0.7357316 0.41719207 0.0012304584
-0.04651681 0.016275721 0.0075815241 -0.50210869 -0.7551626 0.42144546 0.00087489816
-0.044333514 0.015327296 0.0083660679 -0.47024399 -0.75206292 0.46181369 0.0014727268
0.047816452 0.015416691 0.0088794259 0.37355095 -0.63176602 0.67921376 0.0025860986
0.049774081 0.015748538 0.0079226494 0.4457919 -0.71297044 0.54124171 0.0031803679
0.052149072 0.016906073 0.0073618232 0.48740327 -0.70168096 0.51969409 0.0020452801
0.054206759 0.017683851 0.0064220545 0.51945674 -0.70987916 0.47564307 0.0012837461
-0.054112315 0.020878155 0.0062677516 -0.57633245 -0.73452795 0.35820317 0.0049991496
-0.052119602 0.020078786 0.0072463006 -0.54287571 -0.72174561 0.42938223 0.0014966935
-0.04990818 0.018799491 0.0078157522 -0.53756291 -0.7329759 0.41686016 0.00085489312
-0.047868956 0.018065549 0.0087828683 -0.49354964 -0.71040314 0.50173306 0.00051573571
0.053185046 0.018591827 0.0085788341 0.45597321 -0.62780154 0.63083565 0.0014197553
0.055391293 0.019396661 0.0074951896 0.51732022 -0.68208838 0.51685119 0.0025405139
0.057791997 0.020618066 0.0065256623 0.56770802 -0.65573174 0.49771833 0.0012698943
-0.057336818 0.023693606 0.0063136108 -0.62302202 -0.69064099 0.36723098 0.0061155916
-0.055372272 0.02267178 0.0073457942 -0.58770448 -0.69888157 0.40763715 0.0007722475
-0.05328824 0.021530772 0.008197722 -0.54627752 -0.69835776 0.46246865 0.0018318803
0.056556225 0.021349641 0.0086662713 0.51421094 -0.57849276 0.63319296 0.0021782753
0.058596343 0.022242256 0.007619984 0.55463952 -0.6313104 0.5420537 0.0025221317
0.060808498 0.023504257 0.0065948181 0.62295765 -0.58689249 0.51718557 0.0013796777
-0.060230415 0.026587158 0.0063255019 -0.6754359 -0.60850787 0.41653866 0.0049817604
