# .PCD v0.7 - Point Cloud Data file format
VERSION 0.7
FIELDS x y z normal_x normal_y normal_z curvature
SIZE 4 4 4 4 4 4 4
TYPE F F F F F F F
COUNT 1 1 1 1 1 1 1
WIDTH 554
HEIGHT 1
VIEWPOINT 0 0 0 1 0 0 0
POINTS 554
DATA ascii
0.013490575 0.0048510325 -0.01044384 0.069408968 -0.76331782 -0.64228368 0.0010660311
0.016527602 0.0049993121 -0.010252637 0.095621713 -0.78126234 -0.61683518 0.0014117084
0.019484511 0.0052507124 -0.010034443 0.13037378 -0.78915232 -0.60020101 0.0011941442
0.022369122 0.0055294982 -0.0096985046 0.16072513 -0.79648316 -0.58290827 0.0010203081
0.024966637 0.0057977387 -0.0092909206 0.19555132 -0.80193764 -0.56449598 0.00072295644
-0.024442274 0.0089139156 -0.0091762133 -0.29917622 -0.74840868 -0.59192741 0.0011760821
-0.022234211 0.0085342331 -0.0096912384 -0.27251562 -0.74033648 -0.61452186 0.00091124914
-0.019373886 0.0079769082 -0.010167946 -0.2452669 -0.72417706 -0.64452446 0.0014302613
-0.016478486 0.0074760993 -0.010577905 -0.19419816 -0.72344816 -0.66250265 0.00075779745
-0.013595748 0.0070825052 -0.01095944 -0.16435082 -0.70232219 -0.69262713 0.00081886147
-0.010573298 0.0067759175 -0.011312327 -0.13198508 -0.68212515 -0.71922535 0.0013093866
-0.0075779133 0.0064792694 -0.011530588 -0.10221546 -0.71024674 -0.69649225 0.0012291925
-0.0045300759 0.0062699672 -0.011717272 -0.075949654 -0.70557475 -0.70455372 0.0012574316
-0.0016620016 0.0061497912 -0.011871152 -0.049499225 -0.69311881 -0.71912187 0.0018171924
0.00088931009 0.006162791 -0.011954327 -0.033105802 -0.7026068 -0.7108078 0.0013037543
0.0037423675 0.006075907 -0.011993152 0.0012652109 -0.67228204 -0.74029404 0.0028822599
0.0084786778 0.006093374 -0.011994929 -0.00851906 -0.68080246 -0.73241758 0.0025686913
0.011188576 0.0060373321 -0.011880655 0.021815106 -0.70546585 -0.70840812 0.0018562609
0.013484976 0.0061280313 -0.011864905 0.052952077 -0.71365178 -0.6984964 0.0011470119
0.01657288 0.0062503219 -0.01172319 0.079828635 -0.69138265 -0.71806502 0.0013182969
0.01968368 0.0064496249 -0.011498732 0.113469 -0.70649672 -0.69856083 0.0014045468
0.022619719 0.0066976869 -0.011172478 0.14597386 -0.75573826 -0.6383974 0.0012771121
0.025631225 0.007038564 -0.010748464 0.1823238 -0.77939218 -0.59942126 0.00086907909
0.028524822 0.0076044821 -0.010506834 0.20998091 -0.7712189 -0.60094053 0.0016700854
0.031409059 0.008150639 -0.010139338 0.24936265 -0.7784428 -0.57605982 0.0015199751
0.034076206 0.0086099515 -0.0095399218 0.28749844 -0.78033793 -0.5553534 0.0011684467
0.036118176 0.0089909649 -0.0090162959 0.32220623 -0.76804215 -0.55343872 0.0021190643
-0.031053266 0.011752688 -0.0094410442 -0.31704792 -0.74475169 -0.58721846 0.0010034306
-0.028322553 0.011129327 -0.010001547 -0.28912595 -0.73124623 -0.61780661 0.0014553039
-0.025487922 0.01058198 -0.010605793 -0.26282898 -0.71134555 -0.65185004 0.0011197544
-0.022661179 0.0099370908 -0.011048894 -0.25593537 -0.70360708 -0.6628983 0.0010805216
-0.019843705 0.0093906932 -0.011503338 -0.21639624 -0.67497498 -0.70539457 0.00085906917
-0.017773805 0.0091200769 -0.011890895 -0.19202149 -0.67138404 -0.71580106 0.0015700666
0.031760875 0.0093974108 -0.01156694 0.2301348 -0.69959986 -0.67645991 0.00099892518
0.034645747 0.0098953294 -0.010957625 0.27124056 -0.75748706 -0.59383667 0.0013964871
0.037476793 0.01062398 -0.010490011 0.29394582 -0.76268399 -0.57611543 0.0013159281
0.040166538 0.011329929 -0.0099146431 0.35180214 -0.75134027 -0.55832165 0.0012638901
0.042297471 0.011817068 -0.0092169279 0.38142389 -0.75415295 -0.53457385 0.001257948
-0.03701527 0.014514607 -0.0095206266 -0.37966284 -0.71297234 -0.5895139 0.001002431
-0.034234624 0.013914199 -0.010335661 -0.32321456 -0.71234244 -0.6229772 0.0012325059
-0.03158395 0.013177019 -0.010806606 -0.30026042 -0.71170396 -0.63507563 0.0012217573
-0.028689491 0.012547397 -0.01140631 -0.26129466 -0.6754384 -0.68957096 0.0019314199
-0.026419731 0.012085117 -0.011973381 -0.25180182 -0.65809458 -0.70958251 0.0030303649
0.038615372 0.012186711 -0.011821297 0.30170509 -0.68438327 -0.66377223 0.001929598
0.0408362 0.012642966 -0.011188018 0.32154509 -0.72206652 -0.61255914 0.0013375254
0.043511674 0.013460261 -0.010561665 0.36304563 -0.73425871 -0.57363921 0.0011443362
0.04615115 0.014311896 -0.0098478356 0.42000929 -0.71368915 -0.56057113 0.0011577174
0.048183195 0.014839312 -0.009043552 0.43591213 -0.7234332 -0.53537375 0.00086338853
-0.042643484 0.017728334 -0.0095057013 -0.45232719 -0.66687006 -0.59218615 0.0011163565
-0.04040907 0.016932437 -0.010112842 -0.40107527 -0.6732102 -0.62123001 0.002042617
-0.037702706 0.016151628 -0.010905418 -0.36135632 -0.67486364 -0.64341336 0.0013196709
-0.035221551 0.015465021 -0.011506523 -0.30422917 -0.67544937 -0.67172378 0.001388485
0.044677239 0.015145064 -0.011804487 0.36733407 -0.6567269 -0.6586163 0.0025287552
0.04683109 0.015798412 -0.011151247 0.39827067 -0.68684161 -0.60797119 0.0015154994
0.049362805 0.016693836 -0.010352132 0.43580174 -0.67336041 -0.59721237 0.0015793393
0.051686693 0.017575493 -0.009559243 0.48620984 -0.66772997 -0.5636813 0.0012706657
-0.04595286 0.020553874 -0.0099785915 -0.4613688 -0.62760633 -0.62709582 0.00082314829
-0.043449525 0.019473149 -0.010687598 -0.41453621 -0.62424475 -0.66217685 0.001393028
-0.040850405 0.0185173 -0.011444109 -0.37737331 -0.62441343 -0.68388385 0.001273091
0.05037244 0.018454487 -0.011519436 0.44958207 -0.63614309 -0.62705499 0.00061620102
0.052671771 0.019328816 -0.010681254 0.46569458 -0.62499928 -0.6265018 0.0016970987
0.054937009 0.020240171 -0.0097924983 0.52320701 -0.62909478 -0.57488626 0.0016472527
-0.051522054 0.023874592 -0.0091456538 -0.50575262 -0.67821366 -0.53314227 0.00098442938
-0.049190883 0.023196535 -0.010185259 -0.46714976 -0.60125297 -0.64827913 0.0010491024
-0.046731401 0.022279074 -0.011096131 -0.43588111 -0.57206392 -0.69480246 0.00096944737
-0.044480968 0.021285264 -0.0117432 -0.41849786 -0.58722872 -0.69283617 0.00086727407
0.053728495 0.021280199 -0.011732243 0.48723379 -0.58280283 -0.65034151 0.0010289398
0.055773094 0.022134872 -0.010905675 0.49935806 -0.55655164 -0.66399693 0.0022705225
0.057981674 0.023094505 -0.009923107 0.56026143 -0.5654633 -0.60527545 0.0019139125
-0.054328516 0.026383989 -0.0094116377 -0.53576642 -0.61957312 -0.57365799 0.00083747209
-0.052311588 0.025870668 -0.010420692 -0.47822747 -0.56800771 -0.66982508 0.0019478169
-0.049940545 0.024935966 -0.011293877 -0.44492224 -0.57874066 -0.68344969 0.0011964682
0.056764547 0.024258172 -0.011852301 0.50944901 -0.49185157 -0.70607632 0.0007522988
0.05881466 0.025239708 -0.010943291 0.53460723 -0.46276405 -0.70713836 0.0010985275
0.060829464 0.026005799 -0.0097806016 0.5982725 -0.51462758 -0.61418921 0.0013901191
-0.057414103 0.029252525 -0.0093600433 -0.55130506 -0.5572558 -0.62090963 0.0021016737
-0.05528846 0.028565118 -0.01047949 -0.49978065 -0.50584471 -0.70309335 0.0013508656
-0.053164314 0.027745632 -0.011455715 -0.45725408 -0.50933045 -0.72904134 0.0010360709
-0.012743257 0.029603727 -0.01195026 0.19578862 0.66482151 -0.72088778 0.0018123698
-0.011030816 0.029391773 -0.011736549 0.16090254 0.70047534 -0.69530195 0.0017609134
-0.007009781 0.029334482 -0.010886814 0.12361177 0.66821283 -0.73362923 0.0018270506
-0.0042861188 0.028635241 -0.011173889 0.096093424 0.69475657 -0.71279687 0.00092685863
-0.0014372062 0.028490793 -0.010934075 0.06738352 0.67982072 -0.73027617 0.0016858429
0.0014625494 0.028355386 -0.010859969 0.039663199 0.68817306 -0.72446167 0.0012795428
0.0045794002 0.028224122 -0.010929063 -0.01131988 0.66681516 -0.74513721 0.0013423781
0.0075972714 0.028021585 -0.011213453 -0.039488874 0.6570946 -0.75277311 0.0012029679
0.010582788 0.028453574 -0.011030594 -0.07434348 0.64601463 -0.75969613 0.00085206795
0.013497165 0.028648026 -0.011156048 -0.11803485 0.62183917 -0.77419883 0.00068186043
0.017013958 0.029029639 -0.011560326 -0.14478591 0.61412537 -0.77581382 0.00050720538
0.059592396 0.027388051 -0.011761683 0.55952495 -0.42055947 -0.71418595 0.0015920297
0.061619032 0.028406322 -0.010685767 0.57934237 -0.38226214 -0.71988755 0.00095149718
0.063492052 0.029186547 -0.0094799073 0.65281564 -0.42916185 -0.62422097 0.0014448796
-0.060434934 0.0327258 -0.0093556624 -0.59791934 -0.47852969 -0.64304107 0.0015948296
-0.058143534 0.031312689 -0.010308487 -0.55807382 -0.47568527 -0.67990965 0.0024225863
-0.056123439 0.030782178 -0.01153148 -0.52111804 -0.46872205 -0.71325707 0.00097915018
-0.022168888 0.032839809 -0.011796282 0.25449559 0.6623857 -0.70461142 0.00091925258
-0.019317184 0.032226413 -0.011451693 0.242138 0.66956848 -0.70217323 0.00066011015
-0.01655441 0.032034256 -0.010628182 0.23004872 0.71157295 -0.66388363 0.0012046102
-0.013766257 0.0317377 -0.0099571254 0.20265578 0.73472404 -0.64738798 0.0010407271
-0.010268407 0.031007417 -0.0097738281 0.16627055 0.72748792 -0.66566914 0.0010212371
-0.0080297403 0.030502401 -0.0097993258 0.14489198 0.73607004 -0.66121644 0.001036301
-0.0054353727 0.030319519 -0.0093756542 0.1144762 0.76466572 -0.63417786 0.0010975671
-0.0021911878 0.030111412 -0.0090293372 0.079888046 0.76008373 -0.64489585 0.0011519621
0.02206542 0.030643404 -0.011243491 -0.19557108 0.59411502 -0.78024316 0.001085454
0.062318385 0.031194603 -0.011514802 0.5848946 -0.29066074 -0.75724143 0.0017338732
0.064214297 0.031605914 -0.010108952 0.64155447 -0.34170562 -0.68676424 0.0016807175
-0.063053787 0.035795309 -0.0090337712 -0.64910829 -0.43293223 -0.62548232 0.001734724
-0.061276183 0.035218652 -0.010134122 -0.57131553 -0.40551305 -0.71355283 0.0045936108
-0.058973014 0.034239639 -0.011377341 -0.49799398 -0.32211182 -0.80513728 0.00178036
-0.027658466 0.035535414 -0.011456403 0.30184665 0.66038918 -0.68758619 0.002547066
-0.025187161 0.034772843 -0.011136096 0.28403783 0.67993307 -0.67602777 0.00091214449
-0.022691552 0.034393519 -0.010401031 0.27267337 0.71008545 -0.64917475 0.001136313
-0.019873939 0.033676784 -0.0099116452 0.2663731 0.74416035 -0.61259347 0.0015233139
-0.017262459 0.033135913 -0.0094487909 0.24477579 0.78068 -0.57499874 0.0018969126
0.062945202 0.033435427 -0.011784233 0.55841595 -0.19400764 -0.80655605 0.0016628405
0.064611606 0.034399942 -0.010805684 0.59405839 -0.20679393 -0.7773872 0.0012723363
0.066442877 0.034955308 -0.0094087981 0.67624432 -0.25613472 -0.69071591 0.0017198352
-0.063728154 0.038035542 -0.0096203368 -0.60521924 -0.34136021 -0.7191543 0.0030308166
-0.060811289 0.037044883 -0.011304685 -0.48264915 -0.21292603 -0.84953654 0.0012498372
-0.033725295 0.038380247 -0.011440249 0.31464034 0.66887569 -0.67350334 0.0016826934
-0.031387214 0.037698694 -0.010971016 0.32130921 0.69353473 -0.64480227 0.0010869852
-0.029081989 0.037271243 -0.010225751 0.30954224 0.70837313 -0.63434309 0.001435881
-0.025980443 0.036330812 -0.009662509 0.31181079 0.7212891 -0.61847883 0.00074549246
0.064899117 0.037398059 -0.01122668 0.56461471 -0.094984584 -0.81987077 0.0018076353
0.066864818 0.037622821 -0.0097101489 0.66735744 -0.14438899 -0.7306065 0.0025366608
-0.064140849 0.040555231 -0.010170999 -0.57776397 -0.2042516 -0.79023421 0.0035731525
-0.061603278 0.039892573 -0.011605859 -0.43730766 -0.12056244 -0.89119399 0.0031842808
-0.04248384 0.041978855 -0.011868499 0.2942408 0.64461064 -0.70561999 0.0010599642
-0.039815094 0.041093543 -0.01163041 0.30159298 0.65408003 -0.69370097 0.0019363699
-0.037441682 0.040852152 -0.010684881 0.32861206 0.69367141 -0.64096338 0.0013939689
-0.035058178 0.040076695 -0.010253031 0.32782763 0.70442259 -0.62953782 0.0013494648
-0.032157078 0.03939072 -0.009372931 0.3402198 0.72539306 -0.59837735 0.0011362493
0.046428829 0.040530875 -0.01172008 -0.21654055 0.52959853 -0.82014364 0.00066160661
0.048175707 0.041587725 -0.011668115 -0.23860081 0.54993731 -0.80039907 0.00053599378
0.06487453 0.040499564 -0.011384196 0.49442708 0.032752629 -0.86860174 0.0036675241
0.067072004 0.04046388 -0.0098576648 0.62319195 -0.027858313 -0.78157264 0.0031544287
-0.066583276 0.044058818 -0.0091277221 -0.61977321 -0.13724437 -0.77268696 0.0041210381
-0.064477608 0.043451656 -0.010449287 -0.52948803 -0.089052938 -0.84363031 0.0021746976
-0.061599046 0.043903142 -0.011801004 -0.36650449 0.080268458 -0.92694736 0.006060278
-0.048774134 0.044611476 -0.011897393 0.20717105 0.58169776 -0.78657991 0.0019534344
-0.045955047 0.044000611 -0.011564618 0.25840333 0.6277793 -0.73424852 0.0017679926
-0.043366313 0.043711789 -0.010692853 0.31829271 0.67797881 -0.66259676 0.0014790628
-0.040759206 0.042746618 -0.010391893 0.32305083 0.67615372 -0.66215885 0.0013347093
-0.038560733 0.042596534 -0.0092075095 0.38661769 0.71345335 -0.58438957 0.00096200249
0.050517559 0.043411091 -0.010927651 -0.23578973 0.5639357 -0.79144162 0.00055254268
0.052891359 0.043879025 -0.011447662 -0.20720533 0.54687262 -0.81116974 0.00170583
0.055171844 0.044440836 -0.011682116 -0.16690101 0.512393 -0.84237611 0.0032676759
0.057750843 0.044804037 -0.011865376 -0.051133249 0.47694516 -0.87744439 0.0040278444
0.062014878 0.044525605 -0.01176545 0.24067216 0.25306648 -0.93703485 0.004000335
0.064570636 0.043499161 -0.011198421 0.41730434 0.14760117 -0.89670008 0.0036472902
0.067120329 0.043390807 -0.0097700888 0.57153314 0.076849423 -0.81697249 0.0033691619
-0.0665479 0.046564311 -0.0092833741 -0.55497605 0.021429742 -0.83159029 0.0053120116
-0.063981235 0.046948228 -0.010435849 -0.28403419 0.26986966 -0.92005163 0.0044336864
-0.061460145 0.046469368 -0.011386074 -0.22128381 0.30714837 -0.92557734 0.0060676434
-0.058578223 0.047026351 -0.01166629 -0.05369962 0.41272214 -0.90927273 0.0041131498
-0.055328071 0.047139049 -0.01152722 0.080235273 0.50541204 -0.85913968 0.0033406313
-0.052233119 0.046894401 -0.011182148 0.18679959 0.58389926 -0.79004282 0.0024205381
-0.049395062 0.046328444 -0.010764014 0.25952366 0.63840014 -0.7246328 0.0015088734
-0.046582956 0.045836277 -0.010089347 0.31576389 0.69241655 -0.64873147 0.001414908
-0.044819467 0.045711432 -0.0093320198 0.32505822 0.68259454 -0.65452421 0.0010021314
0.052824654 0.046027333 -0.0096538197 -0.21316148 0.57509482 -0.78982788 0.00077242916
0.055880941 0.046166129 -0.010647217 -0.18169986 0.54555053 -0.81814408 0.0025428247
0.058631707 0.04639817 -0.011044992 -0.07085415 0.49073839 -0.86842126 0.0030819625
0.061592072 0.046430666 -0.011092928 0.1132317 0.3882741 -0.91456097 0.0052412124
0.064755939 0.046363022 -0.010430492 0.35765544 0.24151592 -0.90208238 0.0059212851
0.066905409 0.046371084 -0.0094680339 0.50759351 0.17708823 -0.8432014 0.00366843
-0.066432901 0.048727006 -0.0091599394 -0.42878208 0.17456305 -0.88638234 0.0060901516
-0.064356863 0.04942821 -0.0096564293 -0.1951174 0.3641606 -0.91066808 0.0046143229
-0.061437301 0.049444616 -0.010243479 -0.11253071 0.44726509 -0.88729411 0.0053711962
-0.058507562 0.049397033 -0.010366606 0.019429218 0.52184838 -0.85281694 0.0048369104
-0.055700518 0.049106881 -0.010232879 0.1273414 0.59244126 -0.79548573 0.0025133793
-0.052648623 0.048848201 -0.009639658 0.23757845 0.64374918 -0.72742248 0.0020461001
-0.050175399 0.048226401 -0.0092215938 0.30507416 0.69684643 -0.64910316 0.0015562206
0.055626243 0.048120234 -0.009060028 -0.22373673 0.5904296 -0.7754578 0.00028671927
0.05914009 0.048510078 -0.0097845979 -0.12812667 0.53747928 -0.83348644 0.0036895804
0.061653346 0.049060524 -0.009743616 -0.0042250087 0.4775385 -0.87860066 0.0041005434
0.064821079 0.048832133 -0.0095505128 0.25575921 0.32990882 -0.90870643 0.0062656193
0.066324763 0.048686266 -0.0091717551 0.44000521 0.26040184 -0.85941041 0.0041050524
-0.063860014 0.051301043 -0.0090695359 -0.19352666 0.39450532 -0.89828336 0.0093710525
-0.061491601 0.051161118 -0.0092574731 -0.03136614 0.53289878 -0.84559745 0.0060834796
-0.059853513 0.051245216 -0.0091090417 0.039838448 0.5999108 -0.79907447 0.0063569243
-0.009964643 0.0028820969 -0.0063363779 -0.16645142 -0.86537772 -0.47266838 0.0013804275
-0.0072833174 0.0026562493 -0.0066414583 -0.11622883 -0.86017239 -0.49658266 0.0017158223
-0.0043759886 0.0024855568 -0.0069274865 -0.084690526 -0.86515081 -0.49430919 0.001767837
-0.0014307359 0.0023463368 -0.007087497 -0.056171555 -0.86772734 -0.49385622 0.0017692592
0.0014936229 0.002290522 -0.0072403722 -0.028161442 -0.86903268 -0.49395257 0.0018283756
0.0045425035 0.0022663502 -0.0072860359 -0.00027823556 -0.87251139 -0.48859376 0.0017495969
0.0074927588 0.0023052169 -0.007277403 0.027857518 -0.87550002 -0.48241431 0.0017493005
0.010468774 0.0023866908 -0.0071578254 0.057446618 -0.87875175 -0.47380918 0.001718012
0.013472742 0.0025422447 -0.0069648381 0.086664736 -0.88113177 -0.46486124 0.0016935874
0.01635102 0.0026794325 -0.0065979962 0.11705351 -0.88377678 -0.45303106 0.0016210056
0.018732825 0.0028552301 -0.0062826774 0.15863025 -0.8931734 -0.42080602 0.0011622462
-0.02119319 0.0058822683 -0.0062308074 -0.30468404 -0.83001351 -0.46716717 0.0015799608
-0.019130023 0.005490724 -0.0068343771 -0.27748096 -0.83412558 -0.47669572 0.0017846228
-0.016375208 0.0050155115 -0.0074218884 -0.22730374 -0.82788974 -0.51276857 0.0016094433
-0.013476285 0.0043435697 -0.0075314525 -0.19305563 -0.84357184 -0.50111485 0.0015486148
-0.010493777 0.003823448 -0.0076865889 -0.15664791 -0.83779556 -0.52302969 0.0010507676
-0.0074566691 0.0036064715 -0.0081329271 -0.1154195 -0.8290599 -0.54711789 0.0017173366
-0.0044878437 0.0034281462 -0.0084019331 -0.083040997 -0.82244265 -0.56275415 0.0013363311
-0.0015371105 0.0032777491 -0.0085527869 -0.056892101 -0.80662179 -0.58832353 0.0010320274
0.001442877 0.0032173574 -0.0087005384 -0.031478111 -0.80925399 -0.58661503 0.0011371019
0.0043952507 0.0031916469 -0.0087612784 -0.006048705 -0.81125957 -0.58465487 0.0011054912
0.007507591 0.0031865386 -0.0087089604 0.022577535 -0.81581378 -0.57787371 0.0011566906
0.010585991 0.0032698468 -0.0086369272 0.051297393 -0.80750924 -0.58762014 0.00079118385
0.013587472 0.0033892684 -0.0084689939 0.079301141 -0.82868654 -0.55406672 0.001183841
0.016599154 0.00351841 -0.0081172129 0.10719624 -0.85768348 -0.50287968 0.001565082
0.019590154 0.0037314652 -0.0076910034 0.15363188 -0.86500537 -0.47766414 0.0011701051
0.022523241 0.0042091198 -0.0075497185 0.18055211 -0.87419808 -0.45075333 0.0013855012
0.025501126 0.0048764423 -0.0075463746 0.21140136 -0.86501545 -0.45503601 0.001486373
0.028334847 0.005424466 -0.0071848226 0.23681886 -0.86878276 -0.43489477 0.001614452
0.030619407 0.0057371403 -0.0064418674 0.28369141 -0.87313145 -0.39643487 0.0012587412
-0.027684808 0.0086602941 -0.0067695552 -0.3344987 -0.82271498 -0.45962009 0.0021261259
-0.025296079 0.0081152245 -0.0074269115 -0.29916126 -0.80460799 -0.51294112 0.0015091691
-0.022619456 0.0072202631 -0.0076123518 -0.3074618 -0.82022917 -0.4823809 0.0010255388
-0.019767473 0.0065292069 -0.0081683025 -0.26524046 -0.79913765 -0.53946877 0.0012870388
-0.017187707 0.0061683189 -0.008823148 -0.23283565 -0.76056528 -0.60607588 0.00097106071
0.029011093 0.006327875 -0.0085200248 0.22943385 -0.83431762 -0.50127268 0.001309842
0.031649884 0.0067022257 -0.0077207107 0.28249779 -0.85077804 -0.44313848 0.0011402315
0.034517668 0.0075896773 -0.0075312159 0.29729182 -0.84023881 -0.45344931 0.0014778194
0.037208982 0.0084067807 -0.0071431962 0.33274102 -0.8478651 -0.41280532 0.0012342809
0.039434087 0.0088871559 -0.006257806 0.37669587 -0.83556294 -0.39991844 0.0010281123
-0.036034878 0.011921433 -0.0062014144 -0.38029015 -0.79933631 -0.46523216 0.0017822579
-0.034230657 0.011469199 -0.0069194566 -0.36194184 -0.81159824 -0.45859173 0.0012535147
-0.031555269 0.010693493 -0.0075263656 -0.32971534 -0.81251734 -0.48073202 0.0017522145
-0.028682021 0.009732238 -0.0078859767 -0.32422861 -0.79930407 -0.50595343 0.0016824486
-0.02600201 0.0092704752 -0.0087777311 -0.29674056 -0.77064049 -0.56396663 0.0010449392
0.038068827 0.0093681132 -0.0083042486 0.32333693 -0.81615961 -0.47889113 0.0010661586
0.040558547 0.010084352 -0.0076279114 0.37763977 -0.82683557 -0.41681069 0.0010575383
0.043303628 0.011209992 -0.0073067416 0.38828886 -0.81028759 -0.4389371 0.0012943853
0.045353834 0.011791822 -0.0064334287 0.4280417 -0.8069039 -0.40704602 0.0010169429
-0.040639479 0.01458894 -0.0067198612 -0.43382922 -0.76324868 -0.47879404 0.0015056748
-0.037404086 0.013367499 -0.0075909756 -0.3969695 -0.78284752 -0.47912943 0.0013497323
-0.03477494 0.012505181 -0.0082125077 -0.35289946 -0.79248601 -0.49742129 0.0016602966
-0.032800477 0.012095253 -0.008880958 -0.32178518 -0.75766593 -0.56779975 0.0022275152
0.044361759 0.012343255 -0.0084121488 0.41219845 -0.76021236 -0.50216478 0.0015165765
0.046612572 0.013131458 -0.0076355166 0.44422019 -0.79373097 -0.4155232 0.0010210733
0.049091842 0.014299267 -0.0071522421 0.47387245 -0.77011079 -0.42705294 0.0013868297
0.051096875 0.014956242 -0.0061263633 0.4952344 -0.76626384 -0.40936854 0.00093631382
-0.045717768 0.01774976 -0.0064750365 -0.52430701 -0.72648603 -0.44420731 0.0013389089
-0.043439284 0.016780628 -0.0074568037 -0.48461136 -0.74227589 -0.4627941 0.0014472546
-0.040924124 0.015575695 -0.0080545004 -0.44233492 -0.74765509 -0.49532998 0.0015334593
0.050152794 0.015518278 -0.0081182411 0.48384383 -0.75965655 -0.43453097 0.0015889042
0.052430484 0.016637452 -0.0074589164 0.51056141 -0.74588978 -0.42775622 0.001288209
0.05451839 0.017623199 -0.0066690464 0.53214085 -0.72527283 -0.43681297 0.0011405674
-0.048914369 0.020300664 -0.0068085156 -0.53827107 -0.71671987 -0.44336984 0.0012225532
-0.046620656 0.019204039 -0.0077279052 -0.51655304 -0.72086012 -0.46209696 0.0011559891
-0.04450658 0.018343445 -0.0086534545 -0.49686792 -0.68068159 -0.53832597 0.0017947159
0.053675603 0.018270196 -0.0086278673 0.50226116 -0.68322134 -0.53004003 0.001478051
0.055698771 0.019208517 -0.007720551 0.54807901 -0.69627714 -0.46347338 0.0016546646
0.057773098 0.020377608 -0.0069428333 0.57731885 -0.67055684 -0.46589318 0.0012222243
-0.052260414 0.023093414 -0.0072238678 -0.54218829 -0.70853823 -0.45166957 0.0017793903
-0.049906287 0.021879606 -0.0080417795 -0.52321035 -0.70020014 -0.48576814 0.0022815694
0.056871954 0.021086384 -0.008948613 0.53889436 -0.61984038 -0.57043034 0.00052689831
0.058901358 0.022069992 -0.0078780288 0.60347724 -0.63693452 -0.47971836 0.0016412259
0.060760785 0.023203298 -0.007001942 0.62328058 -0.60427469 -0.49636024 0.0010624724
-0.057211597 0.026654169 -0.0065235253 -0.59106255 -0.66512018 -0.45635539 0.0010136876
-0.055171154 0.025582513 -0.0074888626 -0.55784672 -0.68091089 -0.47451806 0.0020115848
-0.0531082 0.024523262 -0.0083270436 -0.51700485 -0.66741592 -0.53596824 0.0015827459
0.059953228 0.02412531 -0.0089467373 0.59615022 -0.55844587 -0.57683885 0.0010937424
0.061949123 0.025189303 -0.0078158621 0.65965515 -0.56736189 -0.4929052 0.001951289
0.063619733 0.026242627 -0.0068000802 0.67727488 -0.55308717 -0.48517352 0.0023004478
-0.060322721 0.029549828 -0.0063688117 -0.64445943 -0.60462701 -0.46807945 0.0005948816
-0.058355004 0.028529268 -0.0075422069 -0.61463863 -0.60768408 -0.50293076 0.0025427048
-0.056705035 0.027488776 -0.0082152672 -0.5780704 -0.60979682 -0.54220146 0.0014302046
0.062772915 0.027278401 -0.0088498276 0.63235909 -0.49677685 -0.59441972 0.0016008494
0.064594246 0.028432829 -0.0076262932 0.71127063 -0.45386469 -0.53675038 0.0019559038
0.066264592 0.029582607 -0.0064336644 0.73649377 -0.47590801 -0.48071659 0.0016194865
-0.063023873 0.032650284 -0.006339849 -0.67916894 -0.53641051 -0.50099242 0.0013517487
-0.061165504 0.031298049 -0.007197137 -0.65816778 -0.55205435 -0.51190948 0.0020834464
-0.059415076 0.030679161 -0.008661516 -0.59282637 -0.52701753 -0.6089412 0.0010364261
-0.012525911 0.032429114 -0.008582212 0.21308319 0.76505709 -0.60768676 0.0027438237
-0.010483038 0.032191399 -0.0080788312 0.19152834 0.84680778 -0.49621928 0.0019591406
-0.0076150433 0.031946257 -0.0075192587 0.16073596 0.82689011 -0.53890324 0.0023587439
-0.0043379767 0.031315878 -0.0076481542 0.11530159 0.82840192 -0.54813862 0.0015857216
-0.0012894127 0.030954778 -0.007657689 0.067598857 0.78894031 -0.61074024 0.0018560669
0.0014282437 0.030622678 -0.0078968806 0.038068727 0.75958288 -0.64929551 0.00058020733
0.0048551648 0.030311791 -0.0082427617 -0.027135072 0.73024315 -0.6826483 0.0011331015
0.065524496 0.030890791 -0.0084073739 0.69262826 -0.35088539 -0.63019478 0.0014649652
0.066917546 0.031776022 -0.0071956296 0.73976028 -0.39050901 -0.54795754 0.0022848372
-0.063942663 0.034723271 -0.0071865274 -0.69826919 -0.48371568 -0.52767342 0.0030321283
-0.06245891 0.033731356 -0.0080288155 -0.66709894 -0.50431371 -0.54831249 0.0026035649
-0.022131003 0.035516448 -0.0085300533 0.30786255 0.80916482 -0.50047272 0.0015608147
-0.019495534 0.035120819 -0.0075438875 0.30107182 0.84125888 -0.44904259 0.001960824
-0.016659427 0.034078412 -0.0077620558 0.25719437 0.83025956 -0.49448985 0.0016012643
-0.013664656 0.033557892 -0.0071392846 0.23486589 0.84624118 -0.4782404 0.0017818953
-0.01112471 0.033231333 -0.0065208278 0.20060255 0.85663414 -0.47532791 0.0016224948
0.067798398 0.034431871 -0.007621692 0.75864828 -0.2987566 -0.57896221 0.002461334
0.069175072 0.03549787 -0.0063115731 0.79228276 -0.31046817 -0.52525944 0.0018529408
-0.066599146 0.038197525 -0.006714114 -0.70549667 -0.42558515 -0.56670254 0.0017549844
-0.064985782 0.037246093 -0.0079290075 -0.68963248 -0.38023064 -0.61630487 0.0025966284
-0.028159056 0.038449034 -0.0078674359 0.36541393 0.79882199 -0.4778662 0.0014963767
-0.02563463 0.037463728 -0.0076242234 0.34745753 0.79905576 -0.49069667 0.0016230248
-0.022767792 0.036609475 -0.0071009141 0.32791674 0.83045727 -0.45034587 0.0019318131
-0.020843478 0.036069699 -0.0066837408 0.29405999 0.83646989 -0.46243578 0.0022291953
0.068301886 0.037288364 -0.008180581 0.7587797 -0.17556836 -0.62723923 0.0022893082
0.069534227 0.037597213 -0.0067374273 0.79522091 -0.20798157 -0.56953263 0.0022230835
-0.067212857 0.040579699 -0.0074319751 -0.70290095 -0.29868695 -0.64553577 0.0026082061
-0.065864511 0.040381793 -0.0087573864 -0.66412205 -0.26828754 -0.69782782 0.0028146964
-0.034112658 0.04126567 -0.0078478027 0.38369638 0.79315162 -0.47295627 0.0019805059
-0.031422868 0.040099815 -0.00764358 0.37899908 0.79417974 -0.47501388 0.0017717923
-0.029399037 0.039583188 -0.0068164445 0.39016515 0.81097645 -0.43599132 0.0015141133
0.068582602 0.040334772 -0.0084927706 0.7237072 -0.076042913 -0.68590474 0.0023935579
0.069833577 0.040555585 -0.0070945784 0.78378695 -0.10977153 -0.61125129 0.0022468308
-0.069138072 0.042364616 -0.0060748132 -0.73362404 -0.2497686 -0.63199002 0.0023069086
-0.067900568 0.043355282 -0.007803591 -0.69606119 -0.20529725 -0.68800569 0.003206295
-0.042223357 0.044780083 -0.0088785002 0.34470367 0.69603026 -0.6298582 0.0010756289
-0.039952502 0.043971434 -0.0083708446 0.36626217 0.73741758 -0.56750977 0.0013029557
-0.037315093 0.042802699 -0.0081069088 0.36387491 0.73844498 -0.56770951 0.0012607496
-0.035377685 0.042455591 -0.0069287224 0.40736297 0.7774325 -0.47922239 0.0014744429
0.068587229 0.043572325 -0.008618772 0.70461285 0.027591856 -0.7090553 0.0026639656
0.06996239 0.043448839 -0.0071873795 0.75742084 -0.010342662 -0.65284508 0.0027615447
-0.0698561 0.04633468 -0.0065246392 -0.6804319 -0.12131173 -0.72270048 0.0032850914
-0.068225764 0.046247553 -0.0080614705 -0.63312125 -0.08147122 -0.76975316 0.0063798432
-0.048483852 0.047893092 -0.0087407334 0.33917704 0.73240525 -0.59037411 0.0009932575
-0.046806574 0.047509462 -0.0083086807 0.33240092 0.72239715 -0.60634315 0.0015503765
-0.043633468 0.046283033 -0.0077808923 0.36713269 0.73560613 -0.56929535 0.0012258328
-0.040780768 0.045314118 -0.0068593328 0.42182729 0.77719867 -0.46693048 0.0013914303
0.06833297 0.046528146 -0.0085044978 0.56563717 0.12907664 -0.8144899 0.003748117
0.069982983 0.046460599 -0.0070168353 0.72658718 0.061762907 -0.68429261 0.0035009317
-0.069735967 0.049585227 -0.0069874846 -0.60265917 -0.014211456 -0.79787219 0.0081385663
-0.067350313 0.049901303 -0.0083533023 -0.31346756 0.25671837 -0.91423941 0.0042041065
-0.065628938 0.050926652 -0.0088951923 -0.17413479 0.28740838 -0.94184583 0.011721097
-0.054894257 0.050779674 -0.0085977679 0.20499323 0.66523439 -0.71794218 0.0027593034
-0.052288964 0.05016645 -0.0080131907 0.2837182 0.71954173 -0.63384837 0.0029384119
-0.049918842 0.049343396 -0.0078381617 0.31228882 0.72715843 -0.61132336 0.0013582525
-0.046897821 0.048525833 -0.0069574574 0.36234924 0.73790061 -0.56939059 0.0010101893
0.056897797 0.049810354 -0.0079302732 -0.17979516 0.54269844 -0.82045847 0.0022241434
0.058760121 0.050013758 -0.008522599 -0.13280326 0.54454279 -0.82815248 0.0028144887
0.061310656 0.050656781 -0.0086859278 -0.10498606 0.52499729 -0.8446039 0.0038305686
0.064984888 0.05057767 -0.0088067548 0.10737783 0.42113891 -0.90061754 0.0057716575
0.067821197 0.049480032 -0.0081767375 0.49686584 0.19446933 -0.8457576 0.0052169398
0.069921017 0.049439322 -0.0066950084 0.68142718 0.1314189 -0.71999031 0.0048714955
-0.06985604 0.052530933 -0.0067790402 -0.47175071 0.10494723 -0.87546414 0.0098971557
-0.067547336 0.052674465 -0.0075866496 -0.15296587 0.36806589 -0.91713083 0.0087681524
-0.064570263 0.052539974 -0.0081824614 -0.10189684 0.44474643 -0.88984138 0.0077615557
-0.061678305 0.052805141 -0.0079728439 0.0017448593 0.59102494 -0.80665141 0.0076427781
-0.058458053 0.052181736 -0.0081093255 0.13673982 0.68418938 -0.71637076 0.0037030212
-0.055957351 0.051540866 -0.0081036892 0.18453717 0.67426753 -0.71505898 0.0036827717
-0.053074278 0.051389113 -0.0070449598 0.27638257 0.7072975 -0.65064812 0.0017071156
0.059757262 0.052155327 -0.0070704101 -0.13313881 0.53325284 -0.8354134 0.0029192704
0.062066562 0.052120216 -0.0078062047 -0.060454804 0.4834733 -0.87326902 0.0029179268
0.064699247 0.052389905 -0.0079690833 0.081111647 0.40625972 -0.91015053 0.006527612
0.067737125 0.052567083 -0.0073255263 0.41766232 0.2512444 -0.87317491 0.0082741501
0.069542773 0.052318692 -0.0064576729 0.61497009 0.1677009 -0.77051169 0.0058490303
-0.069817588 0.055088449 -0.0063057868 -0.2506952 0.27902621 -0.9269824 0.010033513
-0.067453332 0.055290163 -0.0066282637 -0.0041814214 0.43858901 -0.89867806 0.0084434152
-0.064598605 0.054963596 -0.0066805389 0.089233011 0.56711268 -0.81879216 0.0083809141
-0.061644919 0.054333705 -0.0064743692 0.17897239 0.68761325 -0.70367384 0.0068504619
0.06271302 0.054148853 -0.0065815384 -0.13097376 0.49614838 -0.85830218 0.0018587937
0.06506224 0.054972865 -0.0066190464 0.02594186 0.4003911 -0.915977 0.0056757578
0.068014495 0.055035669 -0.0064198244 0.33277363 0.29825699 -0.89459735 0.010831766
0.069222361 0.054580912 -0.0061877337 0.40544543 0.25516519 -0.87778395 0.01771212
-0.01550179 0.0029074601 -0.0032885298 -0.25981694 -0.93110359 -0.25601044 0.0021521177
-0.013290838 0.0026621965 -0.0040952191 -0.20166004 -0.9247781 -0.32267427 0.0021594742
-0.010383119 0.0022957725 -0.0047007618 -0.1625548 -0.93254793 -0.32238224 0.0017371395
-0.0074828039 0.0017848602 -0.0045960085 -0.12690131 -0.93240792 -0.33839548 0.0022416429
-0.0045059449 0.001421067 -0.0045534945 -0.085993476 -0.935238 -0.34341669 0.0023973151
-0.0015011611 0.0011926228 -0.0045808447 -0.055550873 -0.93557864 -0.34872147 0.0024543202
0.0015187931 0.0010474743 -0.004568635 -0.024585515 -0.93565714 -0.35205293 0.0025378494
0.0044697188 0.0010091029 -0.0045639584 0.004646135 -0.93657339 -0.35044065 0.002530342
0.0074932775 0.0010744378 -0.0045528682 0.035953335 -0.93861443 -0.34308937 0.0024292946
0.010515275 0.0012386334 -0.0045408928 0.066965148 -0.9401983 -0.33398032 0.0022738904
0.01350528 0.0015147609 -0.0045485734 0.095221274 -0.94263315 -0.31996199 0.0021098566
0.016497152 0.0018714225 -0.0045245532 0.12495574 -0.94535279 -0.30115467 0.0019058714
0.019498261 0.0023512272 -0.0045421841 0.16001035 -0.94540071 -0.28392619 0.0015869596
0.022280825 0.002703842 -0.0039718295 0.1936999 -0.94311607 -0.27020818 0.0018289954
0.02421453 0.0029085074 -0.0031250359 0.21391454 -0.96491116 -0.15227334 0.0022808767
-0.024209429 0.0058376836 -0.0033567904 -0.37620336 -0.88246936 -0.28234538 0.002475213
-0.02227851 0.0054585501 -0.0042967577 -0.32089031 -0.88784617 -0.32978573 0.0022162546
-0.019459268 0.0045691659 -0.0045642164 -0.2848165 -0.89141411 -0.35250613 0.0020900697
-0.016535195 0.0036633406 -0.0045622746 -0.26106328 -0.90475935 -0.33653593 0.0016372536
-0.01379626 0.0032872807 -0.0054226234 -0.21182956 -0.90388399 -0.37164772 0.0020502193
-0.011990291 0.0031298434 -0.0058843824 -0.16244051 -0.88928467 -0.42753473 0.0052366499
0.020942057 0.0031215148 -0.0058117043 0.17513572 -0.93623513 -0.30461654 0.0023560408
0.022811485 0.0032611212 -0.0053596855 0.19962342 -0.9246254 -0.32437381 0.0015218644
0.02556478 0.0036535424 -0.0045999116 0.25595957 -0.92574441 -0.27835587 0.0013267713
0.028492464 0.0044105477 -0.004530265 0.25557703 -0.92231643 -0.28984952 0.0015813569
0.031443354 0.0052922615 -0.0045026648 0.28685525 -0.91690314 -0.27749348 0.0017965008
0.033661202 0.0058126133 -0.0037876482 0.31862307 -0.9107787 -0.26260495 0.0014753332
-0.030909698 0.0087316986 -0.0038970555 -0.35460824 -0.8806656 -0.31413561 0.0015563352
-0.028778009 0.0081789484 -0.0047071534 -0.34744868 -0.87257165 -0.34336296 0.0016019546
-0.025654331 0.0069267866 -0.0047248867 -0.35894784 -0.87456888 -0.32601497 0.0015997645
-0.023120096 0.0062496737 -0.005500224 -0.33463031 -0.87456948 -0.35092854 0.0020042716
0.032611411 0.0060757766 -0.0057454142 0.28376329 -0.90392083 -0.3200087 0.0017594987
0.034767929 0.006514519 -0.0047795861 0.33483085 -0.89773625 -0.28628296 0.0016052687
0.037495881 0.0074926675 -0.004571008 0.3520087 -0.89195275 -0.28374317 0.0014991183
0.040137213 0.0084989415 -0.0042583458 0.3826029 -0.88772577 -0.25604278 0.0016632719
-0.036734942 0.011499669 -0.0044256933 -0.40024829 -0.85476786 -0.33041355 0.0015912881
-0.034447201 0.010528157 -0.0045888033 -0.38184291 -0.85487425 -0.35126337 0.0013722716
-0.031833857 0.0095525207 -0.0050441106 -0.3635335 -0.86103117 -0.35562426 0.001850347
0.041377787 0.0093353232 -0.005132087 0.41856399 -0.86955142 -0.26207721 0.0014921585
0.043464944 0.010131734 -0.0045398031 0.42018637 -0.86913401 -0.26086318 0.0015265341
0.046139225 0.011408729 -0.0042713219 0.45112041 -0.85336328 -0.26126909 0.0016468432
-0.042723633 0.014639586 -0.0041559367 -0.4938499 -0.80931443 -0.31799752 0.0018739689
-0.040097069 0.013477921 -0.0050230413 -0.4553889 -0.81359494 -0.36150259 0.0015868406
-0.038322981 0.012405951 -0.0048013441 -0.42895728 -0.84115201 -0.32933107 0.0014462351
0.04733352 0.012330614 -0.0050667939 0.46718651 -0.84072119 -0.27372351 0.001986075
0.049506113 0.013409927 -0.0045480207 0.49559185 -0.82635868 -0.2674323 0.0017782358
0.051652726 0.014577508 -0.0041365917 0.50986761 -0.81007206 -0.28951374 0.0018371962
-0.048044674 0.017987572 -0.003100568 -0.56023234 -0.78913772 -0.25179654 0.00064240483
-0.046084777 0.017011009 -0.0043706894 -0.55127376 -0.77486712 -0.3093189 0.001733392
-0.043820664 0.01568073 -0.0049479739 -0.50653648 -0.79670525 -0.32966882 0.0016183883
0.052970454 0.015674053 -0.0047547845 0.54021955 -0.79474306 -0.27667007 0.0013631368
0.055220585 0.01709543 -0.0043647047 0.55966181 -0.77735847 -0.28721485 0.0017948784
-0.051378887 0.020790726 -0.00394359 -0.56537634 -0.76839679 -0.29985991 0.0018185568
-0.049475916 0.019570075 -0.0044748569 -0.58071756 -0.7567504 -0.30015999 0.0014798837
-0.047338054 0.018320596 -0.0053358846 -0.55312264 -0.7588703 -0.34376052 0.0025232588
0.056472432 0.018338656 -0.0051731984 0.58222526 -0.75855905 -0.29257807 0.0018064851
0.058439851 0.019647509 -0.0044941856 0.61677104 -0.73781401 -0.27427 0.0015151374
0.060206074 0.020726426 -0.0034840589 0.64141637 -0.70952839 -0.2918126 0.0018019006
-0.054714665 0.02338619 -0.0041600657 -0.58507127 -0.7495144 -0.30970925 0.0015707263
-0.052684866 0.022077071 -0.0046973098 -0.57400095 -0.76459718 -0.29311094 0.001764673
-0.050778106 0.02108597 -0.0057771234 -0.59564191 -0.7254774 -0.34480917 0.0031378523
0.059756804 0.021283789 -0.0056257392 0.63124865 -0.68336731 -0.3667891 0.001418286
0.061512109 0.022464653 -0.0045615975 0.67443788 -0.68295336 -0.28054994 0.0014607218
0.063213132 0.02374625 -0.003593999 0.70539016 -0.64318997 -0.29787812 0.0015788445
-0.05787028 0.026077947 -0.0043847347 -0.63490725 -0.69427311 -0.33893615 0.0018326133
-0.056001134 0.024618242 -0.0046946341 -0.60530788 -0.72805011 -0.3217847 0.001631308
0.062750928 0.024250045 -0.005532302 0.68850142 -0.63203669 -0.3556619 0.0025878104
0.064375482 0.025553649 -0.0044772639 0.7311548 -0.60889196 -0.30767405 0.0021938577
0.066028461 0.026893638 -0.0031650532 0.78081661 -0.56741184 -0.26147521 0.0032708687
-0.061060324 0.029175721 -0.0043550842 -0.67789382 -0.63410115 -0.37198889 0.0020543123
-0.059327602 0.027671931 -0.0048834458 -0.65802032 -0.67643821 -0.33081803 0.0016813915
0.065603681 0.027601788 -0.0052186321 0.76113617 -0.55491054 -0.33577684 0.0022530595
0.066839486 0.028788896 -0.0043325648 0.78398412 -0.52303976 -0.33436251 0.0025372484
-0.063350752 0.031480707 -0.0038466905 -0.69947565 -0.5911063 -0.40165552 0.002631234
-0.06234568 0.030779496 -0.0047311056 -0.70906037 -0.62227732 -0.33166912 0.0015012072
-0.0062411604 0.032753475 -0.005498087 0.13908626 0.86241364 -0.48672152 0.0010600283
0.068155117 0.031304467 -0.0047196052 0.82206309 -0.41765925 -0.38700533 0.0030708991
0.06926138 0.032476161 -0.0036548863 0.84011269 -0.41268787 -0.35199347 0.0023779646
-0.066416755 0.03567753 -0.0043565002 -0.74506038 -0.53591627 -0.39708802 0.0034288855
-0.064934999 0.034045666 -0.0048975055 -0.74476188 -0.57571465 -0.33746466 0.0014768527
-0.018445637 0.035631321 -0.0059128325 0.3124871 0.87169892 -0.37748227 0.0032450168
-0.016743498 0.035336282 -0.0052779596 0.26174724 0.88266605 -0.39037046 0.0029016905
-0.013520154 0.034696989 -0.0045129731 0.24007185 0.86583275 -0.43897519 0.00055935053
-0.010786219 0.034067538 -0.0043374998 0.20349583 0.87247998 -0.44426146 0.00076917064
-0.0082787629 0.033351239 -0.0049308231 0.17048925 0.86889446 -0.46471059 0.0008192354
0.068803608 0.033422366 -0.0055665113 0.83054626 -0.34562382 -0.43673462 0.0028650274
0.069824494 0.034601759 -0.0044356943 0.85893255 -0.34219581 -0.38096848 0.0033762436
-0.067491218 0.037516896 -0.0046630446 -0.76059508 -0.485975 -0.43049216 0.0038758938
-0.06576474 0.036012609 -0.0059660343 -0.72893071 -0.51492858 -0.45111921 0.0040058917
-0.025016811 0.03844418 -0.0050368453 0.36920056 0.87069529 -0.32493177 0.0014822901
-0.02244316 0.037468527 -0.0048811836 0.33440727 0.8793779 -0.33891946 0.0020182093
-0.020142427 0.036956307 -0.0038087927 0.32856598 0.88987517 -0.31649113 0.0016419578
0.070788115 0.037510168 -0.0045325295 0.8882823 -0.22928128 -0.39797556 0.0025504583
-0.06958095 0.040800348 -0.0041960622 -0.79151762 -0.38777131 -0.47236988 0.0043395874
-0.068338975 0.039745316 -0.00548867 -0.77772969 -0.38765827 -0.49483097 0.0052407845
-0.033063423 0.041889202 -0.0057516615 0.42360839 0.84080672 -0.33704594 0.003172535
-0.031503037 0.041515883 -0.0047373213 0.42079329 0.85321772 -0.30814382 0.0019061305
-0.028526476 0.040149774 -0.0046240711 0.38366655 0.87170595 -0.30484229 0.0017508331
-0.026636116 0.039636366 -0.0036166459 0.36046615 0.87878382 -0.31273505 0.0016471046
0.071331121 0.040410608 -0.0046954844 0.89174116 -0.16615482 -0.42093983 0.0025883547
0.072085984 0.041223194 -0.0032836322 0.92981309 -0.16875938 -0.3270596 0.0027643405
-0.07023599 0.043693483 -0.0051203594 -0.79957044 -0.27684155 -0.53295952 0.0049949992
-0.037186351 0.044264294 -0.005139505 0.44257742 0.83156735 -0.33559051 0.002089374
-0.034634836 0.043209318 -0.0043935692 0.44301578 0.83805448 -0.31843647 0.0020973771
0.07147792 0.043416325 -0.0050807227 0.86601394 -0.049293146 -0.49758425 0.0030912124
0.07223516 0.043554634 -0.0036132995 0.90524858 -0.074869573 -0.41823381 0.0037113745
-0.071438923 0.04700961 -0.0047079413 -0.76600081 -0.17150585 -0.61953896 0.0017484816
-0.042570047 0.047047123 -0.0053914981 0.46211407 0.81120461 -0.3583262 0.0028156242
-0.040481161 0.046220146 -0.0046277894 0.45175979 0.82330829 -0.34362277 0.0023884196
-0.038067099 0.045033764 -0.0042897514 0.42173594 0.8411082 -0.33863819 0.0017824229
0.071429998 0.046438981 -0.0052315816 0.8506521 0.016528655 -0.52546906 0.0036986258
0.072304852 0.046503216 -0.0037281315 0.89069587 -0.011605677 -0.4544515 0.0036029147
-0.072619595 0.049951315 -0.0040974175 -0.71347088 -0.17622614 -0.67816198 0.0065422645
-0.07117039 0.04946411 -0.0056808661 -0.68786579 -0.15207624 -0.70972776 0.0083149485
-0.048662644 0.050219994 -0.005532885 0.37788951 0.80655271 -0.45461231 0.0034665721
-0.046433214 0.049451888 -0.004664917 0.43937403 0.81793594 -0.37139094 0.0028787595
-0.043939367 0.048310153 -0.004119819 0.44062573 0.82674837 -0.34976584 0.002599037
0.071340807 0.049473673 -0.0051330342 0.81625801 0.066508092 -0.57384622 0.004690567
0.072310604 0.049611975 -0.0036458792 0.86795789 0.023171635 -0.49609697 0.0041939043
-0.072668143 0.053274136 -0.0048597786 -0.49230394 0.13217425 -0.86032951 0.0087680593
-0.071363501 0.052573573 -0.005887073 -0.5401178 -0.028519897 -0.84110606 0.0072444011
-0.05513088 0.053451806 -0.0050981292 0.30677462 0.8203395 -0.48263073 0.0033560111
-0.052553661 0.052632086 -0.0045662737 0.36958402 0.83039665 -0.41695216 0.0027634101
-0.049819376 0.051475495 -0.0040969392 0.42643335 0.84255654 -0.32901835 0.0035823486
0.07106334 0.052534867 -0.0050788443 0.70384711 0.099327058 -0.70337278 0.005394185
0.072291948 0.052440409 -0.0035201907 0.82211637 0.039319776 -0.56796008 0.0058565405
-0.072889492 0.055126503 -0.0049170638 -0.46265924 0.2564674 -0.84862882 0.016289357
-0.07056506 0.056186352 -0.0057782037 -0.29429516 0.29254949 -0.90983802 0.016071236
-0.067791253 0.056754414 -0.0058972077 0.035834093 0.48337266 -0.87468094 0.0072883987
-0.064411692 0.056264203 -0.00555269 0.21141557 0.64830273 -0.7314418 0.0069863275
-0.061833333 0.055839647 -0.0049307658 0.23796193 0.68642819 -0.68716115 0.0054866248
-0.058302727 0.054956358 -0.0041961181 0.23955984 0.81739002 -0.52391291 0.0049297875
0.064662009 0.056509562 -0.0055644056 0.096640505 0.36123759 -0.92745245 0.008095121
0.068359405 0.056388497 -0.0059267157 0.38629338 0.23641916 -0.89156234 0.0075015668
0.070756942 0.05552699 -0.0048932806 0.6380282 0.10052088 -0.76342362 0.010890975
0.072279006 0.055382241 -0.003393651 0.76572746 0.028864464 -0.64251709 0.0069450825
-0.072106354 0.057056814 -0.0052906624 -0.27502385 0.17750502 -0.94490951 0.031863157
-0.070250109 0.057951584 -0.0052443473 -0.23572685 0.4204357 -0.87616587 0.021295853
-0.067520089 0.058497556 -0.0046230541 0.10014682 0.6198653 -0.77829152 0.011311762
-0.064592153 0.05766283 -0.0043777702 0.23543862 0.64841312 -0.72396755 0.0076025054
0.065151148 0.058376905 -0.0046766996 -0.11262165 0.43557853 -0.89307767 0.0095405886
0.067965448 0.058691505 -0.0052870624 0.22771315 0.22173037 -0.94814676 0.010185839
0.070630901 0.058469594 -0.0045973756 0.52896953 0.117132 -0.84051853 0.019444183
0.072241552 0.058538109 -0.0033705279 0.72023231 0.016815519 -0.69352913 0.020673426
-0.067685083 0.060144443 -0.0031275228 0.20770285 0.73874712 -0.6411804 0.0271006
0.065727241 0.061380193 -0.0034726684 -0.20554295 0.27185282 -0.94013196 0.021992506
0.067787245 0.061457671 -0.0044656722 0.012796883 0.19502434 -0.98071492 0.01738283
0.070704415 0.061479371 -0.004261924 0.42617926 0.063150108 -0.90243191 0.023425223
0.072374798 0.061579552 -0.0032885475 0.53068191 -0.00033506553 -0.84757096 0.024718769
0.068270631 0.064395271 -0.0040083732 0.072892018 0.074843787 -0.99452758 0.011761426
0.070696495 0.064488173 -0.0041300184 0.34099561 -0.017004112 -0.93991113 0.023208186
0.072525866 0.064536333 -0.0033871792 0.54740548 -0.072282821 -0.83374006 0.024054483
0.068428531 0.067417979 -0.003703645 -0.12407565 0.025900561 -0.99193472 0.018072883
0.070795655 0.067483269 -0.0041419272 0.17108431 -0.064476788 -0.98314434 0.020800142
0.072889864 0.067600548 -0.0035581235 0.55530685 -0.13267495 -0.82099432 0.016898878
0.06834954 0.070121489 -0.0033780723 -0.19728053 -0.0093516475 -0.98030251 0.010891218
0.070850573 0.070370726 -0.004313176 0.080361888 -0.12309921 -0.98913527 0.019794112
0.073479764 0.070579968 -0.0038351172 0.41431424 -0.21560113 -0.88422841 0.019566344
0.075127602 0.071600169 -0.003091221 0.71600097 -0.228852 -0.65952206 0.016207671
0.068866894 0.073533714 -0.0035717443 -0.40729514 0.0063900906 -0.91327429 0.018393409
0.071019925 0.0731925 -0.004595933 0.0079661617 -0.11348961 -0.99350727 0.014744611
0.073618643 0.07342384 -0.0045303553 0.35464931 -0.14561698 -0.92359054 0.027990105
0.075566553 0.073475629 -0.0035211521 0.74485761 -0.18070048 -0.64228851 0.033032138
0.068999574 0.075103931 -0.0036018582 -0.38443971 -0.019607292 -0.92294186 0.016081244
0.070617497 0.07540708 -0.0045936024 0.12246272 -0.090309724 -0.9883557 0.021811575
0.073249511 0.075202383 -0.0049279667 0.27744216 -0.13962716 -0.95054203 0.033643667
0.075358622 0.075016014 -0.0036633883 0.40548486 -0.12758189 -0.90515465 0.027755421
-0.015835442 0.0026994448 -0.0015303843 -0.25055104 -0.95661497 -0.14870094 0.0015350269
-0.013416375 0.0021371795 -0.0017190711 -0.19902653 -0.96563792 -0.16712813 0.0022395868
-0.010511768 0.0015490437 -0.0017788127 -0.17674109 -0.96945375 -0.17006476 0.0028676309
-0.0075097741 0.001038927 -0.0016159978 -0.13921534 -0.97503865 -0.17297035 0.0037332268
-0.0045340713 0.00068017264 -0.0015419777 -0.10375886 -0.98203063 -0.1576388 0.004135306
-0.0013670804 0.00044030315 -0.0015800648 -0.054544237 -0.99184155 -0.11521815 0.0053071096
0.0016335429 0.00031352878 -0.001568527 -0.028486108 -0.99722826 -0.06873484 0.0060073747
0.0045456653 0.00028897385 -0.00155803 0.0087562799 -0.99466169 -0.1028173 0.0035114679
0.0075343498 0.00037287033 -0.0015812403 0.0439885 -0.99522543 -0.087128848 0.0041932296
0.010500652 0.00054950122 -0.0015308078 0.0779415 -0.99146539 -0.10450537 0.0051050503
0.013526641 0.0008372842 -0.0015579431 0.11009636 -0.98534119 -0.13031347 0.0049453122
0.016533695 0.0012198988 -0.0015452214 0.14259508 -0.98192012 -0.12449683 0.0037920477
0.019481381 0.0016991711 -0.0015539736 0.16669312 -0.97694951 -0.13335329 0.0026736585
0.022473805 0.0022848372 -0.0015543516 0.19696948 -0.97330165 -0.11784328 0.0023113985
0.024868563 0.0027997957 -0.0012855635 0.22531259 -0.9704023 -0.086912222 0.0019756819
-0.024728753 0.0056798533 -0.0013676815 -0.35863358 -0.91644067 -0.17753439 0.0009992416
-0.022882685 0.0050263586 -0.0016283412 -0.32611281 -0.92429215 -0.19832924 0.0008965375
-0.019200079 0.0037433233 -0.0016836611 -0.3019329 -0.93484187 -0.18683466 0.0013398245
-0.017326625 0.0031689932 -0.0019113498 -0.29125524 -0.94414568 -0.15414067 0.0012139464
0.02627424 0.0031916897 -0.0017081111 0.26988515 -0.95812786 -0.095670924 0.0019167546
0.028494431 0.003779863 -0.0015296675 0.27638572 -0.95589817 -0.099346362 0.001770088
0.031449307 0.0046792408 -0.0015804461 0.2948713 -0.95004982 -0.10225542 0.0014516668
0.03409477 0.0055595539 -0.0014714232 0.31829727 -0.9433971 -0.093213566 0.0019529947
-0.031411599 0.008413149 -0.0015589744 -0.36811581 -0.90414941 -0.21680543 0.00046403776
-0.028763818 0.0074153715 -0.00196851 -0.35427731 -0.90434587 -0.23800422 0.0013488117
-0.02615533 0.0062839282 -0.0015962133 -0.36614415 -0.90956038 -0.19656676 0.0013650571
0.035615277 0.0061334521 -0.0017249696 0.36386508 -0.92642033 -0.09668275 0.0018426193
0.037507046 0.0068535707 -0.001557964 0.37242448 -0.92272156 -0.099422768 0.0017519412
0.04051441 0.0081142755 -0.0015705592 0.38644603 -0.91581452 -0.10928511 0.0017332492
0.042326543 0.0088533061 -0.00090714201 0.41329208 -0.90397751 -0.1096094 0.0018527847
-0.039237015 0.011942772 -0.0010078829 -0.47029492 -0.8498975 -0.23769093 0.0012361382
-0.03742836 0.01112212 -0.0015958103 -0.42362872 -0.879116 -0.21838897 0.00072050712
-0.034386337 0.0097708702 -0.0019211695 -0.39602616 -0.88478541 -0.24559721 0.00065584364
-0.032856643 0.0091744009 -0.0025715297 -0.39362329 -0.8883788 -0.23631297 0.0011102266
0.043746546 0.009630627 -0.0016553063 0.44387209 -0.88933855 -0.10979302 0.0018948001
