# .PCD v0.7 - Point Cloud Data file format
VERSION 0.7
FIELDS x y z normal_x normal_y normal_z curvature
SIZE 4 4 4 4 4 4 4
TYPE F F F F F F F
COUNT 1 1 1 1 1 1 1
WIDTH 557
HEIGHT 1
VIEWPOINT 0 0 0 1 0 0 0
POINTS 557
DATA ascii
0.04065901 0.031271756 -0.015926899 -0.12553585 0.35060653 -0.92807096 0.001887945
0.043634735 0.031368155 -0.016320094 -0.066694155 0.29347843 -0.95363635 0.0034118271
0.046601269 0.031386182 -0.016479021 0.0093769394 0.19874455 -0.98000646 0.004882914
0.049592409 0.031375427 -0.01636154 0.11516941 0.098774321 -0.98842281 0.0044099754
0.052544121 0.031419404 -0.015906192 0.20533538 -0.0049338536 -0.97867924 0.002792801
0.055019405 0.031577241 -0.015287813 0.29366174 -0.072304457 -0.95317101 0.0029646067
-0.051283676 0.034915157 -0.015126547 -0.25489143 -0.08147984 -0.96353072 0.0052523986
-0.049456038 0.034453645 -0.015482934 -0.18390784 -0.048734836 -0.98173463 0.0046874476
-0.046533868 0.034540668 -0.015883448 -0.092614658 0.080404766 -0.9924503 0.0038888701
-0.043537643 0.03449662 -0.015983496 -0.018126134 0.17476502 -0.98444331 0.0046143467
-0.040586684 0.034386594 -0.015836611 0.064065658 0.24818686 -0.9665913 0.003772968
-0.037694566 0.034159601 -0.015551467 0.14715008 0.37562296 -0.91501594 0.0032326451
-0.03495007 0.033587009 -0.015303252 0.18276884 0.43960738 -0.87939799 0.0027474507
-0.032605708 0.0330722 -0.015026418 0.21575239 0.48222977 -0.84906143 0.0015845168
0.041467428 0.033127334 -0.015230129 -0.18799256 0.45207956 -0.87194198 0.0012837447
0.043642491 0.033588052 -0.015450289 -0.15160739 0.41026908 -0.89927441 0.0019331579
0.046652336 0.034150727 -0.015649276 -0.086638138 0.33627582 -0.93776989 0.0022670811
0.049681593 0.034265645 -0.015792975 0.0053568222 0.22837548 -0.97355837 0.0035822466
0.052576121 0.034277294 -0.015663452 0.12314157 0.12610921 -0.98434371 0.0027528394
0.055244148 0.034368165 -0.015233654 0.22891478 0.042871639 -0.97250199 0.0026176192
0.057215504 0.033631872 -0.015002219 0.28918675 -0.001184213 -0.95727199 0.0036403292
-0.051444557 0.037225764 -0.015126207 -0.15811725 0.10030541 -0.9823125 0.0054515828
-0.049377453 0.037449583 -0.015278193 -0.072578743 0.16256292 -0.98402524 0.0030455568
-0.046504311 0.037242126 -0.01537923 0.00068692106 0.24209242 -0.97025299 0.0035616439
-0.043702096 0.036881015 -0.015327366 0.083440036 0.35725316 -0.93027312 0.003897907
-0.040928014 0.036400486 -0.015156146 0.15614741 0.43328229 -0.88762856 0.0027062697
-0.03873026 0.036037084 -0.015004555 0.19414411 0.49473456 -0.84708077 0.002106979
0.047715381 0.036072575 -0.015055589 -0.16132972 0.4676809 -0.86904967 0.001978125
0.050165799 0.036343489 -0.015155358 -0.055915866 0.3582153 -0.93196315 0.0023822361
0.052707996 0.036531135 -0.015160559 0.031575348 0.28608447 -0.95768404 0.0032173526
0.054881774 0.036400821 -0.015079094 0.15045786 0.18331452 -0.9714722 0.0038584124
-0.049667388 0.039043762 -0.01501861 -0.023338366 0.19585535 -0.98035502 0.0046928432
-0.00048861076 0.0059669777 -0.012072432 -0.036749382 -0.72038198 -0.69260329 0.0014810053
0.0016798726 0.0059608463 -0.012054015 -0.031430069 -0.69504815 -0.71827585 0.001727535
0.0044093099 0.0059079994 -0.012099866 -0.017614121 -0.67997491 -0.73302382 0.0018854522
0.0075244494 0.0059380201 -0.012058585 0.0032218383 -0.68922174 -0.72454333 0.002144309
0.010324406 0.0059326068 -0.012070445 0.030029351 -0.71288604 -0.70063668 0.00073786185
0.012552516 0.0059773102 -0.012063261 0.053088907 -0.71101576 -0.70116913 0.00053958275
-0.015662072 0.0088074207 -0.01217196 -0.17731906 -0.66004866 -0.72999573 0.00090417854
-0.013253399 0.0085255597 -0.012372255 -0.14807093 -0.6427871 -0.75159812 0.0012783615
-0.010386787 0.0082047423 -0.01258986 -0.11637796 -0.62792802 -0.76952106 0.0011648411
-0.0074598212 0.0080018379 -0.012810959 -0.09088847 -0.61518621 -0.78312528 0.0011648805
-0.0045173303 0.0077615227 -0.01291748 -0.06946753 -0.6057511 -0.79261577 0.001171873
-0.0014685771 0.0076137814 -0.013027686 -0.050331537 -0.59805727 -0.79987139 0.001458155
0.0015166742 0.0075423736 -0.013144887 -0.033359591 -0.58593708 -0.80966955 0.0019107565
0.0044994331 0.0074593271 -0.013194016 -0.015560001 -0.59466732 -0.80382138 0.00188206
0.0074784704 0.0074743251 -0.013240279 -0.0063547022 -0.59948546 -0.80036044 0.0020772333
0.010497573 0.0074985418 -0.013224541 0.015662769 -0.61198264 -0.79071605 0.0018275826
0.01349176 0.0075763655 -0.013174274 0.036735553 -0.63006967 -0.77566922 0.0016479887
0.016494652 0.0077180751 -0.013092238 0.063562989 -0.65089077 -0.75650573 0.0012465207
0.019455697 0.0079091433 -0.012947262 0.096292883 -0.66884351 -0.73714042 0.0012519733
0.022398211 0.0081850393 -0.012765556 0.1310522 -0.6847356 -0.71691179 0.0013755696
0.025294771 0.0084886756 -0.01249136 0.15923892 -0.68976396 -0.7063064 0.001439127
0.027769933 0.0088062091 -0.012207764 0.19225618 -0.69535667 -0.6924715 0.0010057518
-0.024521356 0.011700489 -0.012180627 -0.23953091 -0.65720916 -0.71463352 0.0013083162
-0.022298275 0.011350427 -0.012479651 -0.21527213 -0.62532777 -0.75008208 0.0012282411
-0.019355737 0.010883692 -0.012893986 -0.18986785 -0.60057777 -0.77669585 0.0014527701
-0.016451845 0.010483723 -0.01323898 -0.16454655 -0.57742292 -0.79969198 0.0014909244
-0.013480837 0.01047068 -0.01376073 -0.12191154 -0.53696179 -0.83475125 0.001197978
-0.010499005 0.010375275 -0.014101174 -0.097348474 -0.51780999 -0.84993881 0.0012127558
-0.0075485366 0.010257318 -0.014324881 -0.077780612 -0.49340117 -0.86631709 0.00154501
-0.0045356243 0.010037539 -0.0144268 -0.056535725 -0.48228604 -0.87418753 0.0018473245
-0.0015648458 0.0099117327 -0.014529358 -0.045143701 -0.4705137 -0.88123715 0.0019834619
0.0015034392 0.0097444579 -0.014577241 -0.034793522 -0.46751764 -0.88329881 0.0020574068
0.0045034718 0.0096548181 -0.014626027 -0.022210889 -0.46404475 -0.88553327 0.0022535368
0.0075542443 0.0096392138 -0.014676803 -0.0099408207 -0.46754128 -0.88391531 0.0023884312
0.010443643 0.0096244458 -0.014681547 0.0055730855 -0.48146605 -0.87644696 0.0023174433
0.013497171 0.0096161095 -0.014632966 0.02406816 -0.50183415 -0.86462891 0.0022199191
0.016522938 0.0096881837 -0.014555387 0.046135489 -0.51705807 -0.85470605 0.002057757
0.019579986 0.0098294644 -0.014430811 0.072599739 -0.53958225 -0.83879691 0.0017710589
0.022610506 0.010048303 -0.014248223 0.10324365 -0.56342995 -0.81968737 0.0015468422
0.025566684 0.010300589 -0.013979658 0.13439493 -0.58693802 -0.79839945 0.0010282212
0.028511876 0.010463245 -0.013511368 0.17813663 -0.62644702 -0.75883567 0.0012359187
0.031406507 0.010799213 -0.013058963 0.21596119 -0.65598589 -0.72321731 0.0016689715
0.034271684 0.011344223 -0.012638763 0.24529146 -0.66916853 -0.70145965 0.001223015
0.036597289 0.011780959 -0.012242346 0.27945229 -0.68412179 -0.67370903 0.00098299317
-0.033141442 0.014964059 -0.012099054 -0.27076113 -0.6288628 -0.72884834 0.001912728
-0.031002989 0.01452179 -0.012369108 -0.26301923 -0.63457584 -0.72672856 0.0010383334
-0.028391091 0.014008015 -0.012803753 -0.23465817 -0.60293806 -0.76249671 0.0015895165
-0.025464339 0.013538736 -0.013285934 -0.2183179 -0.57697284 -0.78704482 0.0012362009
-0.022546887 0.013490703 -0.013993197 -0.17478888 -0.52522856 -0.83281684 0.0012299983
-0.019672776 0.013124802 -0.01437172 -0.16065376 -0.49743542 -0.85249543 0.0015217764
-0.016665688 0.012648027 -0.014617727 -0.13155594 -0.46009165 -0.87807101 0.0022988738
-0.013891564 0.012362394 -0.014809161 -0.10236406 -0.41964486 -0.90189791 0.0026500726
-0.01128953 0.012110313 -0.014908386 -0.078829013 -0.45074639 -0.88916463 0.0023527604
0.026556613 0.012111662 -0.014986143 0.11068735 -0.54161328 -0.83330864 0.0016149152
0.028944494 0.012279808 -0.014822663 0.14971797 -0.55499458 -0.81826985 0.0016556885
0.031717073 0.012698402 -0.014510135 0.18546747 -0.55370283 -0.81179738 0.0018536183
0.034651056 0.013183297 -0.014101304 0.21129331 -0.57596564 -0.78969532 0.0010726419
0.037509408 0.013499771 -0.013471632 0.26147166 -0.60827535 -0.74942225 0.0013207588
0.040315866 0.014052263 -0.012884456 0.30991757 -0.64813054 -0.69561332 0.001486437
0.042660162 0.014647737 -0.012374043 0.34706143 -0.65986431 -0.66642886 0.0016178362
-0.039340802 0.017895477 -0.012105498 -0.37172398 -0.59615725 -0.71163046 0.0020131608
-0.037086524 0.017385365 -0.012408897 -0.33132809 -0.61177677 -0.71829712 0.0010742421
-0.034397699 0.016775111 -0.012974735 -0.28929314 -0.59863257 -0.74695957 0.0011446895
-0.031506892 0.016507013 -0.013726726 -0.23175304 -0.54015952 -0.80902296 0.0012093174
-0.028576536 0.016110601 -0.014270623 -0.20411566 -0.51329523 -0.8335855 0.0013681483
-0.025670169 0.015683046 -0.014674873 -0.1839004 -0.48017648 -0.85767782 0.0017149189
-0.023246681 0.015263326 -0.014895006 -0.15485872 -0.45206332 -0.87844044 0.0018424195
0.038048025 0.015374358 -0.014758495 0.2288761 -0.55992299 -0.79630518 0.0014417445
0.040691283 0.015980573 -0.014304042 0.27341649 -0.54446042 -0.7929731 0.0014527648
0.043507177 0.016485805 -0.013546008 0.32231298 -0.56572634 -0.75899148 0.0010901041
0.046227261 0.017108709 -0.01277086 0.37745517 -0.61219031 -0.69480258 0.0014376523
0.048391487 0.017814888 -0.012205032 0.41174379 -0.61357677 -0.67378825 0.001493295
-0.042680398 0.020599388 -0.012257729 -0.39904869 -0.58557111 -0.70559663 0.0014383415
-0.040271223 0.019788034 -0.012801886 -0.35937327 -0.5689221 -0.7397151 0.0010288182
-0.037383124 0.019414635 -0.013767248 -0.29335353 -0.51770538 -0.80369455 0.001123477
-0.034650166 0.019047523 -0.014462379 -0.24746077 -0.48065862 -0.84126723 0.0018079662
-0.032156322 0.018381281 -0.014782283 -0.20475365 -0.45923147 -0.86439717 0.0019665211
0.044187099 0.018474961 -0.01471091 0.2963731 -0.49528348 -0.81661326 0.0015948243
0.046688002 0.019210717 -0.014124167 0.34343755 -0.49958092 -0.7952795 0.0012259273
0.049368721 0.019644139 -0.013101063 0.40578663 -0.55534083 -0.72590202 0.0016775271
0.051658243 0.020492205 -0.01245448 0.44431233 -0.57065541 -0.69060767 0.0014675813
-0.045936454 0.023359945 -0.012521045 -0.41335839 -0.55065012 -0.72520298 0.0012068294
-0.043391302 0.022570413 -0.013272196 -0.38123384 -0.49950644 -0.77791649 0.0014041949
-0.04063936 0.022238765 -0.014290377 -0.31938857 -0.46227604 -0.82721931 0.0011931306
-0.038270134 0.021462657 -0.014712044 -0.26973331 -0.43972167 -0.85667306 0.0026224593
-0.0066311969 0.023654588 -0.014915069 0.069296375 0.40052292 -0.91366255 0.0036537542
-0.0042907456 0.0236299 -0.014800631 0.067688443 0.40489098 -0.91185611 0.002930003
-0.0014474401 0.023375364 -0.014731185 0.041967057 0.42754966 -0.90301722 0.0021090682
0.0014747398 0.023310356 -0.014702257 0.01251333 0.42996696 -0.90275794 0.0023029963
0.0044480944 0.023362959 -0.014674542 -0.012212137 0.43551204 -0.90010011 0.0024254539
0.0075757382 0.023477448 -0.014687648 -0.044925652 0.44915429 -0.89232397 0.0020618255
0.010292321 0.023612002 -0.014786978 -0.06770616 0.44099775 -0.89495081 0.0024189826
0.013002008 0.023847405 -0.014882671 -0.083458252 0.43512946 -0.89649147 0.0021724587
0.047719434 0.021182843 -0.014855373 0.36031216 -0.47586024 -0.80232918 0.0014331092
0.049853045 0.022029459 -0.014403959 0.36835331 -0.42904207 -0.82476592 0.0014254468
0.052487388 0.022530762 -0.01335042 0.42773798 -0.46385986 -0.77580559 0.0017552521
0.054797608 0.023268186 -0.012486957 0.47646201 -0.5037266 -0.72058553 0.0016857357
-0.051410362 0.026808813 -0.012101932 -0.45231298 -0.55273467 -0.69992667 0.0017156575
-0.049114995 0.02605168 -0.012707639 -0.41595 -0.52537674 -0.74227005 0.00130027
-0.046492968 0.025531519 -0.013651125 -0.36986133 -0.46910444 -0.80196232 0.0017156864
-0.043851733 0.025008177 -0.014523357 -0.32631019 -0.40939894 -0.8520059 0.0016219188
-0.041788314 0.024183964 -0.014866034 -0.30089161 -0.38341439 -0.8731882 0.00255664
-0.018158142 0.026746901 -0.014974516 0.17278565 0.44418445 -0.87911618 0.0035700446
-0.016206697 0.026636856 -0.014833533 0.16485941 0.43040454 -0.88745326 0.0027515911
-0.013517804 0.026200769 -0.014582713 0.15400904 0.45658776 -0.87624699 0.0024046311
-0.010518763 0.025732305 -0.014346086 0.13209267 0.4843457 -0.86484724 0.0015041961
-0.0074995738 0.025436977 -0.01410076 0.10216353 0.50380385 -0.85775536 0.0011876409
-0.0044939015 0.025227483 -0.013904131 0.078904569 0.5171982 -0.85222065 0.0018221779
-0.0014960043 0.025424071 -0.013536689 0.046995997 0.54413396 -0.83768111 0.0017556921
0.0015061069 0.025435762 -0.01339691 0.017791554 0.53202134 -0.84654397 0.001662466
0.0046288404 0.025415532 -0.013365472 -0.017222311 0.54101413 -0.84083712 0.0016831246
0.0075391927 0.025398595 -0.013481015 -0.045116346 0.52489579 -0.84996992 0.0016448761
0.010567287 0.025114205 -0.013893247 -0.079174832 0.51585567 -0.85300899 0.001213209
0.013555644 0.025326319 -0.014064074 -0.097374603 0.50679249 -0.85655093 0.0010587656
0.016799284 0.025388109 -0.014488343 -0.12887523 0.48128822 -0.86703682 0.0012183749
0.01893593 0.026250862 -0.014313436 -0.14028983 0.48348379 -0.86403829 0.0013282485
0.021916749 0.026586898 -0.014699613 -0.16429754 0.51130444 -0.84354854 0.001387142
0.024061339 0.026776055 -0.014931552 -0.18308885 0.55117774 -0.81405258 0.00085106096
0.050800875 0.024077507 -0.014936878 0.38126624 -0.3964197 -0.83515716 0.0014352342
0.052963454 0.02511549 -0.014479137 0.39164317 -0.35053059 -0.85073137 0.0015137716
0.055484395 0.025498671 -0.01334569 0.45681509 -0.40508083 -0.79197824 0.0020198312
0.057645902 0.026212072 -0.01242864 0.50696206 -0.43021318 -0.74693108 0.0021386852
-0.054213557 0.029701794 -0.012294305 -0.48636585 -0.4739401 -0.73404974 0.0017377461
-0.05216502 0.028819386 -0.012795018 -0.43892184 -0.46364716 -0.76966161 0.0018920747
-0.049528316 0.028466556 -0.013896053 -0.36582196 -0.39383256 -0.84324974 0.0015841849
-0.04700648 0.027839094 -0.014651584 -0.31858104 -0.35666391 -0.87823516 0.0019602641
-0.024492783 0.029733608 -0.014851131 0.19115373 0.49487707 -0.84767741 0.0021611501
-0.022249633 0.029325604 -0.014597056 0.19581614 0.46528673 -0.86322904 0.0024008569
-0.019359471 0.0287298 -0.014268234 0.18675643 0.51203763 -0.83841485 0.0018325315
-0.016420653 0.028405305 -0.013799254 0.18580213 0.54017955 -0.82078236 0.0014251838
-0.013548692 0.028364442 -0.013158415 0.17376131 0.57049602 -0.80270869 0.0014988841
-0.010458061 0.027991274 -0.012799137 0.14764087 0.59027392 -0.79358613 0.0015951811
-0.0076502888 0.027540589 -0.012646709 0.11893263 0.61632627 -0.77845806 0.0014903741
-0.0050903261 0.027344186 -0.012488548 0.094648175 0.59894705 -0.79517555 0.0015331038
-0.0016871395 0.027149167 -0.012266838 0.06663388 0.63772523 -0.76737636 0.0018350875
0.001332744 0.027117826 -0.012081333 0.023175161 0.62637979 -0.77917349 0.0017799974
0.0051210853 0.027160576 -0.012049734 -0.0075458363 0.61873806 -0.78556114 0.0013111871
0.0079683028 0.02712743 -0.012148547 -0.030044397 0.65107077 -0.75842214 0.0014687676
0.010599039 0.027287221 -0.012231521 -0.073175855 0.64345723 -0.76197642 0.001094662
0.013653842 0.027502777 -0.012397782 -0.11102874 0.64588809 -0.75531524 0.0010836504
0.016869685 0.027746465 -0.012743102 -0.14822857 0.62359124 -0.76756901 0.0011386939
0.019940346 0.027821403 -0.013390985 -0.16889323 0.57585633 -0.79991531 0.0012988696
0.022604048 0.02824471 -0.013674835 -0.17587629 0.55696994 -0.81169695 0.0013417194
0.025451208 0.028428998 -0.014248501 -0.18466833 0.54468912 -0.81805342 0.0010984157
0.028076524 0.029026831 -0.01447974 -0.1855417 0.51783514 -0.8351174 0.00161056
0.031042386 0.029727817 -0.014748313 -0.19728479 0.52754772 -0.82630026 0.0012623637
0.053756874 0.027381448 -0.014937246 0.34688056 -0.2195536 -0.91184986 0.003477941
0.055765737 0.028333751 -0.014363267 0.41238841 -0.2701323 -0.87003696 0.0015025608
0.058430735 0.02855047 -0.013029605 0.48005706 -0.33130321 -0.81227052 0.0023527481
0.060334738 0.029538274 -0.012259551 0.54574025 -0.35374525 -0.75962609 0.0021398223
-0.057220444 0.032748837 -0.01209091 -0.52007842 -0.40789068 -0.75042897 0.0021897836
-0.055212956 0.031739198 -0.012620637 -0.45158336 -0.38041627 -0.80706632 0.0024448703
-0.052487202 0.031459183 -0.01387726 -0.38407105 -0.32067701 -0.86582661 0.002137397
-0.050103139 0.030938109 -0.014691591 -0.33123359 -0.26982212 -0.90414619 0.0023665656
-0.030760922 0.032746729 -0.014732821 0.21219136 0.47304705 -0.85510308 0.0018557074
-0.02836098 0.032069534 -0.014476523 0.22843306 0.48416722 -0.84463036 0.0019912266
-0.025448276 0.031477802 -0.014031697 0.22445334 0.53865421 -0.81207907 0.001585635
-0.022647224 0.031295016 -0.013332426 0.23205037 0.57617182 -0.78369546 0.0018000922
-0.019748826 0.03086303 -0.012816 0.22355974 0.62182289 -0.75057137 0.0020450887
-0.01710573 0.030444857 -0.012381502 0.20310616 0.6528905 -0.72971362 0.001341728
-0.014747978 0.030003851 -0.012058803 0.1861641 0.62734663 -0.7561608 0.001785349
0.022907132 0.030109685 -0.012195832 -0.20749512 0.66384417 -0.71851003 0.0010793445
0.025581138 0.030553063 -0.012545191 -0.20919003 0.64480013 -0.73516828 0.001056815
0.02888019 0.030812209 -0.013303745 -0.20924786 0.59978002 -0.77232069 0.00088821293
0.031501777 0.031450726 -0.013554618 -0.21166943 0.57397848 -0.79104024 0.00098775176
0.034445293 0.031459637 -0.014415954 -0.2163956 0.5424704 -0.81172574 0.0011860894
0.03741296 0.032291643 -0.01468039 -0.22521286 0.50787872 -0.83146757 0.0017747103
0.039252065 0.032692522 -0.014881056 -0.20424747 0.49005446 -0.84742522 0.0026099647
0.056443512 0.031183651 -0.014755377 0.35824472 -0.13765393 -0.92342412 0.0029166257
0.058559049 0.031443831 -0.013854827 0.41926688 -0.17264302 -0.89129663 0.0016892628
0.060974136 0.031712573 -0.012607351 0.50528306 -0.24344386 -0.82790339 0.0029543934
-0.057731461 0.034670062 -0.012402581 -0.48241559 -0.31619895 -0.81688029 0.0028797057
-0.055477887 0.034433525 -0.013490702 -0.40202516 -0.23897354 -0.88389331 0.0036069222
-0.052706897 0.034296185 -0.014586328 -0.33379951 -0.17299332 -0.92663431 0.0034185997
-0.050719041 0.033070512 -0.014948152 -0.24882682 -0.15338734 -0.95632505 0.0061783721
-0.039218999 0.035981745 -0.014853669 0.1566613 0.4787879 -0.86383992 0.0031410672
-0.037023921 0.03554954 -0.014763836 0.20274544 0.44885966 -0.87029833 0.0023084974
-0.034348462 0.034895793 -0.014434646 0.22817788 0.49593756 -0.837843 0.001922101
-0.031446397 0.034496766 -0.01379095 0.25373593 0.53994381 -0.80254513 0.0014926741
-0.028719379 0.034062963 -0.013185883 0.26653755 0.58331388 -0.76726955 0.001855683
-0.025925634 0.033603124 -0.01257938 0.25999624 0.62871081 -0.73288786 0.0012866125
-0.02372122 0.033203501 -0.012098525 0.24900028 0.6338973 -0.73223835 0.0012532602
0.032560203 0.033211492 -0.012290454 -0.24749418 0.64074564 -0.72676796 0.0015570476
0.034553278 0.033655688 -0.01261849 -0.24229385 0.60842603 -0.75571913 0.0010399662
0.037506968 0.034044039 -0.013408748 -0.25272137 0.56026548 -0.78881842 0.0011484817
0.04002111 0.0338009 -0.014407329 -0.19869837 0.46975282 -0.86014605 0.00086349185
0.043769941 0.035365183 -0.014524754 -0.17463122 0.43120632 -0.8851921 0.001410056
0.045756277 0.035830911 -0.014722846 -0.14557248 0.40522239 -0.9025538 0.0016632354
0.056592595 0.034551453 -0.014881837 0.2678147 0.0025248504 -0.96346712 0.0034954334
0.058571141 0.03444501 -0.014253891 0.35528591 -0.038836267 -0.9339506 0.0037555869
0.061501179 0.034502428 -0.012916508 0.45605633 -0.12709238 -0.88082922 0.0029619997
0.063188404 0.035336267 -0.012134231 0.55118436 -0.15083036 -0.82063752 0.0025354484
-0.060444798 0.038608845 -0.012102206 -0.49763498 -0.2142043 -0.84052122 0.003692179
-0.058301557 0.037570007 -0.012889056 -0.41987488 -0.18081179 -0.88938868 0.0042211297
-0.055374097 0.037353396 -0.01407097 -0.32700396 -0.081396013 -0.94151109 0.0045971358
-0.052747417 0.03752058 -0.014805752 -0.21577699 0.016530262 -0.97630268 0.0047093038
-0.050284993 0.038738579 -0.014915313 -0.049139585 0.20295224 -0.97795486 0.0049045198
-0.046367716 0.038653005 -0.014876083 0.08634077 0.3502174 -0.93268055 0.0037687644
-0.043286286 0.03830523 -0.01463968 0.15755489 0.42723316 -0.89030796 0.0030502034
-0.040412273 0.037739523 -0.014327575 0.1967748 0.48173928 -0.85393614 0.0017205979
-0.037494227 0.03748456 -0.013657302 0.24116337 0.53444713 -0.81006575 0.0016827553
-0.034673106 0.037091553 -0.012989605 0.2790451 0.59816885 -0.75121754 0.0014486515
-0.032068908 0.036531575 -0.012420392 0.29028839 0.63664663 -0.71443248 0.0018481747
0.03882217 0.036016371 -0.012276289 -0.3354325 0.6211071 -0.70831561 0.0012299808
0.04100043 0.03662524 -0.012644771 -0.28141811 0.58922452 -0.75737596 0.00089530961
0.043658935 0.03703009 -0.013406105 -0.23617278 0.53506577 -0.81112707 0.001309816
0.046811853 0.036985904 -0.01430759 -0.16177274 0.45193931 -0.87725735 0.0012571173
0.049470648 0.037567459 -0.014526058 -0.10601585 0.40100169 -0.90992218 0.0019402887
0.052589033 0.038023412 -0.014645385 -0.038743325 0.35002387 -0.93593931 0.0022795235
0.055651791 0.037659742 -0.014654945 0.11396137 0.21869272 -0.96911627 0.0034319512
0.058715921 0.037242834 -0.014129996 0.29437003 0.077274755 -0.95256227 0.0041963961
0.061582714 0.037393302 -0.013091181 0.39703575 -0.0072561922 -0.9177745 0.0034731205
0.063412569 0.037786778 -0.012230422 0.51033658 -0.054510854 -0.85824543 0.0027182288
-0.060566191 0.040597346 -0.012264572 -0.42029506 -0.063933372 -0.90513235 0.0044795168
-0.058316424 0.040511154 -0.013183826 -0.3166146 0.015018039 -0.94843543 0.0050141416
-0.055492889 0.040404275 -0.013985142 -0.22098495 0.11176325 -0.96885216 0.0063117677
-0.052640419 0.040469952 -0.014363447 -0.10355506 0.22633792 -0.96852851 0.0052358275
-0.049459077 0.040501997 -0.014395725 0.036637306 0.36558542 -0.93005645 0.0046510305
-0.046442285 0.040451203 -0.014056671 0.12454762 0.449954 -0.88432419 0.0026472602
-0.043469075 0.040447462 -0.013406449 0.21774307 0.52568638 -0.82233918 0.001983918
-0.040611878 0.04004436 -0.012820188 0.25512084 0.58840007 -0.76726711 0.0019333778
-0.038114354 0.039331935 -0.0124581 0.29300508 0.62098634 -0.72699654 0.001782842
0.04468634 0.039238214 -0.01207608 -0.33259755 0.61026478 -0.71899641 0.0022829506
0.047046319 0.04003565 -0.01244135 -0.24201514 0.55311286 -0.79717934 0.0014572155
0.049805574 0.039926305 -0.013303828 -0.16155773 0.466196 -0.86980474 0.0013337127
0.052715518 0.040354252 -0.01360027 -0.075939819 0.41340908 -0.90737319 0.0019012328
0.055608995 0.040481046 -0.013755805 0.031833615 0.3322179 -0.94266528 0.0027143154
0.058616757 0.040337186 -0.01360255 0.16686837 0.24875563 -0.95408362 0.0048313914
0.06171516 0.040273193 -0.01283775 0.32783064 0.11650075 -0.93752581 0.0036854779
0.063330673 0.040244199 -0.012227518 0.43694583 0.07727509 -0.89616233 0.0039735446
-0.060808204 0.043198325 -0.012191859 -0.34837499 0.087984443 -0.93321681 0.006123967
-0.05842381 0.04365252 -0.012786974 -0.18203774 0.2142271 -0.95967132 0.0049026702
-0.055388641 0.043461706 -0.013288025 -0.074058309 0.32573071 -0.94255763 0.0048469417
-0.052434757 0.043475356 -0.013268071 0.04277597 0.41171074 -0.91031009 0.0036341192
-0.049644701 0.043461256 -0.012938853 0.13820706 0.47999671 -0.86631519 0.0031298648
-0.046726901 0.042888034 -0.012659602 0.19963095 0.54513443 -0.8142333 0.0028017536
-0.044123504 0.042315897 -0.012243671 0.26287711 0.60279852 -0.75334561 0.0018033438
0.050676748 0.042256854 -0.012061746 -0.26849875 0.59945983 -0.75402671 0.0017489302
0.052943479 0.042546462 -0.012432745 -0.17165494 0.51273817 -0.84120995 0.0023318008
0.05581579 0.043013021 -0.012618752 -0.018714802 0.39948708 -0.91654778 0.0023964564
0.05857075 0.043200921 -0.012644351 0.067205086 0.34618047 -0.9357577 0.0031506121
0.061377205 0.042977534 -0.012388496 0.22003272 0.25401664 -0.94183928 0.0042760218
0.063153937 0.042391956 -0.012121118 0.30032688 0.19482578 -0.93372732 0.0054594595
-0.0604016 0.045255456 -0.012060567 -0.26463777 0.18571815 -0.94629574 0.0059720944
-0.058056772 0.045470238 -0.012375267 -0.11435392 0.34238586 -0.93257451 0.0050284802
-0.055725947 0.045799807 -0.012301107 0.011253418 0.45397544 -0.89094311 0.0034244834
-0.052858829 0.045439765 -0.012296822 0.11085439 0.51763237 -0.84839147 0.0028993804
-0.050787531 0.045206793 -0.012073511 0.19251251 0.58437318 -0.78831899 0.0020600171
0.059495699 0.045072973 -0.012047959 3.3524164e-05 0.44979784 -0.89313042 0.0035777567
0.060484238 0.045131899 -0.012001386 0.054191928 0.43534377 -0.89863175 0.0077665346
-0.015423785 0.0058446298 -0.0092216255 -0.21238947 -0.74976295 -0.62669474 0.0015822185
-0.013328499 0.0056006922 -0.0094132228 -0.17716083 -0.75809872 -0.62761492 0.001241956
-0.010415842 0.0053345747 -0.0098040402 -0.14311165 -0.75029045 -0.64543265 0.0011895595
-0.0074062124 0.0050744391 -0.010064446 -0.11173983 -0.75228375 -0.64929456 0.0012849225
-0.0044238186 0.0049056616 -0.010286404 -0.083518028 -0.74237567 -0.66475797 0.0010811123
-0.0014627011 0.0047523757 -0.010409029 -0.055672489 -0.73947752 -0.67087519 0.0013168297
0.0015113862 0.0046578092 -0.010493696 -0.031548984 -0.74697191 -0.66410655 0.0016835066
0.0045117014 0.004631232 -0.01055868 -0.0092069535 -0.75128824 -0.6599099 0.0015508068
0.0075196978 0.0046225754 -0.0105355 0.014968833 -0.7551595 -0.65537024 0.0016212439
0.010523361 0.0047045234 -0.010508983 0.040579185 -0.76244152 -0.64578342 0.0015671862
0.013493727 0.0048313327 -0.01041805 0.068195514 -0.7728436 -0.63092166 0.0014141934
0.016472064 0.0049935197 -0.010252701 0.097329631 -0.78253472 -0.61495233 0.0013413384
0.019472016 0.0052468502 -0.010030791 0.13048278 -0.78916693 -0.6001581 0.0011695522
0.02239632 0.0055314559 -0.0096908025 0.16079924 -0.79791009 -0.58093292 0.00097179646
0.024894344 0.0057932455 -0.0093079591 0.19509779 -0.80250078 -0.56385219 0.00076487707
0.027077191 0.0059258528 -0.009036134 0.23673725 -0.79619509 -0.55680239 0.0017136607
-0.024366703 0.0089070722 -0.0092225466 -0.29746377 -0.73977453 -0.60353047 0.0015463259
-0.022228755 0.0084828073 -0.0096537136 -0.2734901 -0.73760408 -0.61736816 0.00098091853
-0.019300178 0.0078861639 -0.010096949 -0.2393754 -0.72684824 -0.64373213 0.0016673882
-0.016604176 0.0074970485 -0.010565498 -0.19629031 -0.72271436 -0.662687 0.00093639089
-0.013587118 0.0070542614 -0.010938175 -0.16647024 -0.70092446 -0.69353634 0.0017955563
-0.01060054 0.0067441813 -0.011281026 -0.13148165 -0.69692683 -0.70498616 0.0012783509
-0.0076722861 0.006491933 -0.011529073 -0.10155215 -0.70658296 -0.7003054 0.0012522287
-0.0046027196 0.006297613 -0.011737749 -0.076810777 -0.70277286 -0.70725554 0.001164768
-0.0017060261 0.0061299023 -0.011852238 -0.05235533 -0.69565982 -0.716461 0.0017403505
0.0010795629 0.0061042481 -0.011936213 -0.023312286 -0.6749143 -0.73752773 0.0026667176
0.0037423675 0.006075907 -0.011993152 0.0012652109 -0.67228204 -0.74029404 0.0028822599
0.0079861516 0.0060624881 -0.01193994 -0.0023967815 -0.68157595 -0.7317434 0.0026888978
0.010981163 0.0060477434 -0.011885768 0.022931539 -0.7031588 -0.7106629 0.0020677729
0.013527819 0.0061409012 -0.011875451 0.048903108 -0.70825315 -0.70426261 0.0020772098
0.016629433 0.0062770848 -0.011746291 0.079422578 -0.69912094 -0.7105785 0.0012482241
0.019652668 0.006463435 -0.011518246 0.11358716 -0.70712054 -0.69791007 0.0014033316
0.02260855 0.0066937562 -0.011169925 0.14591165 -0.7599082 -0.6334424 0.0012553771
0.025591871 0.0070242225 -0.010739915 0.18172385 -0.77915597 -0.59991044 0.00087864202
0.028493291 0.0076006404 -0.010511965 0.20715167 -0.77186459 -0.60109335 0.0011588782
0.031396363 0.0081490343 -0.01013717 0.25141844 -0.77526194 -0.57944602 0.0013532895
0.034093332 0.0086204149 -0.0095407004 0.28865591 -0.78046393 -0.55457538 0.0011069106
0.036164999 0.0089565469 -0.0090187732 0.32580835 -0.77310443 -0.54420447 0.0015943458
-0.030986741 0.011706291 -0.0094484882 -0.31762168 -0.74286306 -0.58929688 0.00098453392
-0.028321119 0.011145898 -0.010045611 -0.29510313 -0.72891837 -0.61773139 0.0014784578
-0.025493514 0.010555013 -0.010596515 -0.26311892 -0.71103168 -0.65207541 0.0011750542
-0.022630651 0.0099038864 -0.011047666 -0.25167453 -0.70758599 -0.66028929 0.0013739867
-0.019766493 0.0094369752 -0.011580634 -0.21291809 -0.68073452 -0.70090395 0.00096522848
-0.017485861 0.0090810945 -0.011918339 -0.19112484 -0.67251855 -0.7149756 0.0013190456
0.029822385 0.009079081 -0.011805701 0.20419823 -0.71923935 -0.66407675 0.0024666525
0.031852938 0.0093934089 -0.011524838 0.23062854 -0.71263069 -0.66254663 0.00088106416
0.034646746 0.0098813409 -0.0109349 0.27241033 -0.75756627 -0.59319973 0.001343944
0.037472185 0.010630234 -0.010494135 0.29769805 -0.75995582 -0.57779145 0.0011999785
0.040217672 0.011353262 -0.0099087926 0.35087746 -0.75159556 -0.55855978 0.001245825
0.042312454 0.011834729 -0.0092242286 0.38218403 -0.75479776 -0.53311884 0.0012811502
-0.03693499 0.014450958 -0.0095151011 -0.37125987 -0.71499652 -0.59240693 0.0010231421
-0.034334999 0.013852123 -0.010238848 -0.3236275 -0.71417111 -0.62066478 0.0014613569
-0.031669818 0.01315538 -0.010766047 -0.29945609 -0.71588391 -0.63074267 0.0012373198
-0.028768433 0.01257263 -0.0114186 -0.26412341 -0.67945123 -0.68453252 0.0014106709
-0.026573224 0.012236135 -0.011924727 -0.24636775 -0.6551559 -0.71419442 0.0028187544
0.038554754 0.012210498 -0.011841792 0.2961348 -0.68776298 -0.66278678 0.0020340709
0.04080455 0.012663505 -0.011224709 0.32306144 -0.7089529 -0.62691081 0.00096749887
0.043496981 0.013464175 -0.010569467 0.36645362 -0.73343825 -0.57252073 0.0011407686
0.046121951 0.014316767 -0.0098669874 0.41844481 -0.71531463 -0.5596686 0.0012529694
0.048192464 0.014887238 -0.0091207661 0.4378446 -0.71713358 -0.54222834 0.0009385405
-0.042724583 0.017688911 -0.0094132647 -0.45858276 -0.67251939 -0.58087826 0.0012458583
-0.040254418 0.016898818 -0.01019628 -0.39920601 -0.6749689 -0.62052524 0.0016098383
-0.037704185 0.016096704 -0.010869164 -0.35855418 -0.67666537 -0.64308846 0.0012510139
-0.035161857 0.01546947 -0.011567292 -0.30623564 -0.66800702 -0.67822289 0.0014014227
0.044625163 0.015200719 -0.011843649 0.3707467 -0.65821028 -0.65521461 0.0022791536
0.046838328 0.015790934 -0.01113027 0.39642346 -0.68213993 -0.61443764 0.0014587198
0.049357917 0.01669774 -0.01035403 0.4370065 -0.68409687 -0.58398354 0.0015212358
0.051660124 0.017566958 -0.0095638735 0.48584843 -0.66800964 -0.56366163 0.0012457388
-0.045906078 0.020441471 -0.0099373218 -0.47106895 -0.63246423 -0.61488456 0.0010179293
-0.043450322 0.019385098 -0.010625741 -0.4169628 -0.63300383 -0.65226394 0.0014672254
-0.041094806 0.018532889 -0.011332908 -0.38028365 -0.62311578 -0.68345517 0.0011087867
0.050372768 0.018440118 -0.011498476 0.44863683 -0.63554126 -0.6283409 0.00076641166
0.052660104 0.019326257 -0.010680615 0.46805567 -0.62689042 -0.62284207 0.0017690837
0.054924328 0.020245442 -0.0098005859 0.52450836 -0.62519717 -0.57794416 0.0015282339
-0.051384836 0.023781704 -0.0091991145 -0.50032926 -0.65800273 -0.56276381 0.0011920561
-0.049168356 0.023000212 -0.010043137 -0.47582322 -0.61710685 -0.62671477 0.0012420608
-0.046755195 0.022232685 -0.011072516 -0.43882281 -0.58318466 -0.68361557 0.0011834655
-0.044537798 0.021265445 -0.011734482 -0.42348129 -0.59806776 -0.68042535 0.0010225496
0.053666681 0.02127731 -0.011764749 0.48166558 -0.57709986 -0.65951043 0.001158157
0.055806741 0.022171924 -0.010903124 0.49704552 -0.54404539 -0.67598838 0.0016185679
0.057952177 0.023038445 -0.0098916264 0.56232727 -0.56453478 -0.60422552 0.0016658171
-0.054429777 0.026606537 -0.0095433034 -0.52687484 -0.59404057 -0.60788047 0.0014754997
-0.052308351 0.02581653 -0.010410962 -0.48159215 -0.58878541 -0.64915395 0.001949816
-0.049908131 0.024837587 -0.011267475 -0.44847089 -0.58728409 -0.67377388 0.0015113022
0.056732427 0.024245789 -0.011823463 0.50759298 -0.49882448 -0.70251232 0.00088967348
0.058801219 0.025217535 -0.010928284 0.53247368 -0.46543697 -0.70699376 0.0011150044
0.060803112 0.025998034 -0.0097926734 0.5954808 -0.51476192 -0.61678416 0.0013169353
-0.057427425 0.029305849 -0.0094058104 -0.56361991 -0.54748791 -0.6185382 0.0014368593
-0.055259388 0.028596839 -0.01056231 -0.50779366 -0.52051961 -0.68644363 0.0016244581
-0.053029835 0.027755758 -0.011587637 -0.46123272 -0.50204033 -0.73158729 0.0011380858
-0.01291511 0.029761609 -0.011821932 0.18359789 0.64486897 -0.74191356 0.0016384079
-0.010532265 0.02951324 -0.011484304 0.15017779 0.66501522 -0.73157454 0.0013558359
-0.0074300217 0.029035751 -0.011238021 0.12653564 0.64924479 -0.74997997 0.0013030274
-0.0042184852 0.028489672 -0.0112723 0.097017117 0.66250956 -0.74274409 0.0011442928
-0.0014693586 0.028518206 -0.01087814 0.076615185 0.7020207 -0.70802337 0.0021115274
0.0016524745 0.028381839 -0.010783602 0.034023646 0.70345414 -0.70992583 0.0016997367
0.0045358436 0.028327202 -0.010813579 -0.013487575 0.70740473 -0.70668006 0.0018636811
0.0075718351 0.028068826 -0.011129826 -0.050832547 0.67906147 -0.7323193 0.0016072976
0.010515274 0.028570339 -0.010897851 -0.080419317 0.69387424 -0.71559155 0.0017018493
0.013476711 0.028758397 -0.011079716 -0.1182784 0.70636213 -0.69789886 0.0018606087
0.01676617 0.029139873 -0.011376854 -0.15188621 0.68419164 -0.71331084 0.00092650065
0.019344067 0.029681604 -0.011492934 -0.18973383 0.73742211 -0.64823592 0.0016635221
0.021758843 0.029988308 -0.011820676 -0.20759626 0.70930892 -0.67363536 0.0013767865
0.059639826 0.027417608 -0.011734575 0.55494249 -0.40193912 -0.72834325 0.0014665043
0.061629836 0.028399156 -0.010662832 0.58079535 -0.39300212 -0.71289974 0.0013833852
0.063505463 0.029248161 -0.0094936723 0.64412397 -0.430444 -0.63231504 0.0016387213
-0.060318477 0.0325201 -0.0093354629 -0.60963345 -0.49568486 -0.61858189 0.0017021839
-0.058299728 0.031543691 -0.010347001 -0.55296785 -0.46991265 -0.68804693 0.001897743
-0.056298897 0.030771758 -0.011409294 -0.51237106 -0.46256593 -0.72353899 0.0021685932
-0.021795969 0.03271509 -0.011800589 0.26384315 0.67670977 -0.68735051 0.0024919487
-0.019383881 0.032230407 -0.011437513 0.23884572 0.66115224 -0.71121752 0.0012762612
-0.016453337 0.031711113 -0.010906173 0.22062518 0.69848335 -0.68076837 0.0013190095
-0.013726302 0.031271476 -0.010473068 0.19890459 0.70908636 -0.67648613 0.0014332249
-0.010459227 0.030915326 -0.0099077933 0.17426585 0.74125481 -0.64820731 0.0015835685
-0.0077397591 0.030514726 -0.0096768076 0.14142968 0.74914485 -0.64713192 0.0014394965
-0.0045768688 0.03018545 -0.0094128568 0.11128356 0.76005179 -0.64026344 0.0011731915
-0.0021797295 0.030047676 -0.0091853766 0.086574264 0.77357352 -0.62776506 0.0017234482
0.011260241 0.03000739 -0.0091832383 -0.092332482 0.77613336 -0.6237722 0.00099228055
0.013523784 0.030165005 -0.0094195269 -0.1274118 0.79087394 -0.5985688 0.0021878942
0.016459569 0.030561663 -0.0096029416 -0.16514423 0.76998842 -0.61631584 0.0013787944
0.019518523 0.030937685 -0.010074067 -0.20326152 0.75607407 -0.62212282 0.001385669
0.022368198 0.031115988 -0.010817699 -0.21472524 0.70021874 -0.68087214 0.0017415336
0.02541854 0.031986907 -0.010920033 -0.23633263 0.75388831 -0.61302477 0.00084540294
0.028245036 0.032506123 -0.011415843 -0.24324794 0.73946577 -0.62771076 0.0013229095
0.030504763 0.032709166 -0.011984402 -0.25170806 0.65887684 -0.7088896 0.0014229831
0.06231482 0.03116023 -0.011496441 0.58063102 -0.28901607 -0.76114213 0.0016183387
0.06423974 0.031655025 -0.010099417 0.64181113 -0.33782792 -0.68844086 0.0017027939
-0.063071251 0.035689663 -0.0090533625 -0.63739598 -0.43344826 -0.63706279 0.0022708136
-0.061050884 0.034715019 -0.010070453 -0.58072239 -0.40180159 -0.70803738 0.0024012991
-0.058980625 0.034108531 -0.011347139 -0.51199281 -0.34207374 -0.78793973 0.0015526117
-0.027830394 0.035503931 -0.011542361 0.2957232 0.66514605 -0.68565923 0.0017552549
-0.025382973 0.034880001 -0.011069342 0.28631055 0.68590063 -0.66900414 0.00090994046
-0.022534188 0.034283701 -0.010412846 0.26888758 0.70876318 -0.65219188 0.0010279666
-0.019384092 0.033548076 -0.0099020666 0.25226256 0.70764583 -0.66000074 0.0013585361
-0.017428899 0.033257835 -0.0093861232 0.24626999 0.77147573 -0.58666539 0.0012004017
0.025950048 0.033290014 -0.0095017515 -0.2483663 0.77268094 -0.58419031 0.00079759053
0.028559674 0.033708028 -0.010074902 -0.25508329 0.76014477 -0.5975889 0.0011084479
0.031532891 0.034375295 -0.010551784 -0.27068734 0.73799109 -0.61814034 0.0015367614
0.034333583 0.035013944 -0.011101106 -0.30262202 0.72904956 -0.61392725 0.0013683706
0.036916867 0.035701528 -0.011609087 -0.32395855 0.69530565 -0.64156127 0.0015982663
0.062851727 0.033501551 -0.011870021 0.55548024 -0.19160968 -0.80915236 0.0020194764
0.06461855 0.034446727 -0.010809314 0.60128397 -0.21201061 -0.77039534 0.0014249516
0.066430718 0.034951631 -0.0094081163 0.68157065 -0.25606462 -0.68548697 0.0016773656
-0.063540623 0.037570588 -0.0094906474 -0.60901421 -0.3317253 -0.72045827 0.002205407
-0.061359957 0.037272397 -0.011019845 -0.53443474 -0.26555976 -0.80240732 0.0014939032
-0.059725758 0.036722105 -0.011945657 -0.51569599 -0.27396339 -0.81178921 0.0031140526
-0.036045671 0.038777087 -0.011924405 0.30673492 0.64064616 -0.70390785 0.0035245705
-0.033787463 0.038452424 -0.011366032 0.31185153 0.66514969 -0.67847222 0.0011267565
-0.03133896 0.037798811 -0.010782916 0.31878364 0.69424319 -0.64529318 0.00098987413
-0.028895929 0.037028946 -0.010375383 0.30725044 0.7023614 -0.64209473 0.0012791061
-0.026349967 0.036324482 -0.0098493434 0.3091321 0.70995396 -0.63277382 0.00076042576
0.035024218 0.03643354 -0.0097196624 -0.32722181 0.75365365 -0.57002825 0.00072280027
0.037701197 0.037118297 -0.010434655 -0.35978469 0.70549697 -0.61059725 0.0017910458
0.040345512 0.037966825 -0.011043578 -0.36248624 0.68676943 -0.63004082 0.0015469657
0.042734459 0.03864339 -0.011680934 -0.34457076 0.63189811 -0.69424474 0.0010109522
0.064879157 0.037391942 -0.011234189 0.56386447 -0.095178694 -0.82036448 0.0018005935
0.066818409 0.037634831 -0.0097437454 0.66621703 -0.14562155 -0.73140222 0.0024167288
-0.066208713 0.041705206 -0.0091073709 -0.65042222 -0.26760772 -0.71087062 0.0027355943
-0.064023368 0.040407769 -0.01015616 -0.57457912 -0.22492361 -0.78693599 0.0030370613
-0.06184667 0.040306572 -0.011551188 -0.48732552 -0.14294177 -0.86144149 0.0028681986
-0.04248384 0.041978855 -0.011868499 0.2942408 0.64461064 -0.70561999 0.0010599642
-0.040004704 0.041459747 -0.011329256 0.3008247 0.64578551 -0.70175892 0.0015054377
-0.03740292 0.040809382 -0.010673686 0.32459033 0.68347973 -0.65383226 0.0011015536
-0.034746557 0.039990634 -0.010134839 0.3284429 0.69581962 -0.63871771 0.0011936572
-0.032218009 0.039299708 -0.0094976649 0.33823115 0.70610219 -0.62210882 0.00092068303
0.040853977 0.039538044 -0.0096101668 -0.40096945 0.6976195 -0.59375966 0.0011334486
0.043666724 0.040318385 -0.010495279 -0.37048465 0.67690897 -0.63603103 0.0015528648
0.046381187 0.040815622 -0.011448152 -0.27419066 0.59457737 -0.75584203 0.0011901029
0.048554886 0.041655906 -0.011713711 -0.259397 0.58378875 -0.76935285 0.0014665808
0.064908363 0.040435832 -0.011358357 0.50896317 0.023918653 -0.86045587 0.0028459684
0.067084007 0.040505663 -0.0098435944 0.627882 -0.031370353 -0.77767605 0.0029571166
-0.066276006 0.043542225 -0.0092504807 -0.58577347 -0.11774345 -0.80187643 0.0035518685
-0.064622737 0.043850813 -0.010317284 -0.49083012 -0.029824384 -0.87074465 0.0031885256
-0.062145267 0.043601289 -0.011595566 -0.39789188 0.039445594 -0.9165839 0.0043450505
-0.048402194 0.044754375 -0.011726131 0.22517291 0.60958511 -0.76006782 0.0016715778
-0.046100751 0.044128004 -0.011470832 0.26402792 0.61943716 -0.73931515 0.0016510785
-0.043459993 0.043656927 -0.01075004 0.30548054 0.65481287 -0.69130439 0.0010238647
-0.040728699 0.042928509 -0.010138939 0.32478425 0.67686564 -0.66058159 0.0011676677
-0.03836308 0.042385399 -0.0093931789 0.34909031 0.69389665 -0.62979633 0.00078396668
0.044774644 0.042118259 -0.009279714 -0.39383969 0.67171824 -0.62744319 0.0013221888
0.046805266 0.042728133 -0.0098249614 -0.37347132 0.66693306 -0.64476305 0.001320774
0.050033979 0.043389674 -0.010749592 -0.27363133 0.60794944 -0.74533439 0.00098737574
0.052734144 0.043956894 -0.011377178 -0.20711356 0.54464972 -0.81268734 0.0012236133
0.055216849 0.044538505 -0.011667846 -0.1584439 0.51386607 -0.84311163 0.0023763296
0.058006946 0.044763833 -0.011887971 0.022215184 0.40927058 -0.91214257 0.0027080721
0.062082939 0.044408876 -0.011801532 0.19473961 0.2793867 -0.9402231 0.004199957
0.064703427 0.043393385 -0.011152245 0.4426643 0.12841855 -0.88744402 0.0033053712
0.067147322 0.043361973 -0.0097476756 0.57929361 0.071512125 -0.81197596 0.0034369102
-0.06643346 0.046341244 -0.0093145492 -0.49662963 0.042060658 -0.86694282 0.0051418403
-0.06413617 0.046842329 -0.010416476 -0.35963631 0.17905673 -0.91575128 0.0060786912
-0.061486997 0.046597015 -0.011351766 -0.25109875 0.27067885 -0.92934513 0.0079597412
-0.058729675 0.04694372 -0.011679774 -0.064204171 0.40802026 -0.91071254 0.0066474215
-0.055303093 0.047120266 -0.011531576 0.071518458 0.49704033 -0.86477518 0.0025176844
-0.052202888 0.046700153 -0.011315694 0.16730428 0.55990231 -0.81149167 0.0017827041
-0.049488746 0.04648295 -0.010619117 0.26062903 0.64577866 -0.7176646 0.0019945146
-0.046589658 0.045946941 -0.0099429023 0.32220078 0.69085634 -0.64722818 0.0017943971
-0.044381998 0.045382209 -0.0094272578 0.3391903 0.70319229 -0.62487644 0.0022611965
0.050675616 0.045113452 -0.0094966255 -0.33468118 0.65313518 -0.67926651 0.0014955977
0.052803278 0.045957021 -0.0097028054 -0.26245943 0.60597783 -0.75093669 0.0011566818
0.05595072 0.046400029 -0.010539066 -0.19157545 0.55199045 -0.81154507 0.0019966504
0.058905773 0.046197861 -0.011194061 0.0067861727 0.43376991 -0.90099812 0.0024921624
0.06162915 0.046372872 -0.011111127 0.1243918 0.37093428 -0.92029041 0.0040991176
0.0646668 0.0463509 -0.010461163 0.35270265 0.25111565 -0.901411 0.0059865802
0.066860572 0.046202555 -0.0095201461 0.52212739 0.16157231 -0.83742309 0.0037123926
-0.066376135 0.048985615 -0.0091851419 -0.41829997 0.20162359 -0.88564837 0.0062753577
-0.064471759 0.049345419 -0.0096633006 -0.28152683 0.28190014 -0.9172104 0.0041399486
-0.061346218 0.049694125 -0.010115314 -0.0805161 0.46011627 -0.88420033 0.0049583097
-0.058389433 0.049392249 -0.010348478 0.019645974 0.5213955 -0.85308897 0.0037528451
-0.055416413 0.049204446 -0.010060893 0.1353402 0.61435044 -0.7773394 0.0040155868
-0.05261584 0.048570629 -0.0098458603 0.22655246 0.64498675 -0.72983974 0.0033637243
-0.050390363 0.048352331 -0.0092252092 0.29600647 0.69045764 -0.66003662 0.0012839588
0.055863135 0.048186325 -0.009106053 -0.26331875 0.6203388 -0.73881185 0.0017058928
0.058905911 0.048581161 -0.0097270403 -0.14022982 0.54921627 -0.82383066 0.0034713983
0.061918482 0.049111024 -0.0097323302 0.086695932 0.41696957 -0.90477628 0.0032752268
0.064648733 0.049039576 -0.0095291482 0.24434978 0.3370629 -0.90922046 0.0063577304
0.066369757 0.048602212 -0.0091920281 0.40525231 0.27954605 -0.87041628 0.0051318132
-0.063894585 0.0512233 -0.0090917405 -0.18633728 0.40603265 -0.89465964 0.0088366093
-0.061728586 0.051119607 -0.0092782211 -0.022402698 0.54275739 -0.83959067 0.005797822
-0.059853513 0.051245216 -0.0091090417 0.039838448 0.5999108 -0.79907447 0.0063569243
-0.0098402426 0.0028460035 -0.0063023944 -0.16805008 -0.87021583 -0.46312386 0.0014370327
-0.0073532793 0.0026587658 -0.0066387281 -0.12044939 -0.86218351 -0.49206868 0.0016599387
-0.004410258 0.0024973201 -0.0069464929 -0.084759273 -0.86540973 -0.493844 0.0017650551
-0.0014146473 0.0023397764 -0.0070789536 -0.056203648 -0.86659938 -0.49582916 0.0017267213
0.001527973 0.0022853706 -0.0072393506 -0.026194014 -0.86835933 -0.49524325 0.0017532064
0.0045045023 0.0022646005 -0.0072858646 0.0015769679 -0.87057 -0.49204209 0.0017837561
0.0075037335 0.0022979928 -0.0072628153 0.027866265 -0.87431991 -0.48454946 0.0017784914
0.010487265 0.0023622615 -0.0071092979 0.055789709 -0.87803704 -0.47532994 0.0017641666
0.013433456 0.0025319573 -0.0069520059 0.086755678 -0.88137037 -0.4643918 0.0016757087
0.016386993 0.0026893278 -0.006608577 0.11747399 -0.88358694 -0.45329231 0.0016070014
0.018839367 0.0028689913 -0.0062688366 0.15838052 -0.89669508 -0.41334438 0.0011861852
-0.021325633 0.0058727637 -0.0062180446 -0.31215125 -0.83185279 -0.45889267 0.0015727163
-0.019190066 0.0054786243 -0.0068027228 -0.27866766 -0.83272117 -0.47845563 0.0016030383
-0.01638669 0.0050624418 -0.0075183492 -0.22943215 -0.82856834 -0.51072043 0.0015596375
-0.013416507 0.0043630227 -0.0075849132 -0.19501306 -0.83480597 -0.51484835 0.0018778815
-0.010494684 0.0038188426 -0.0076821134 -0.15688846 -0.83752507 -0.52339059 0.0012085998
-0.0075544715 0.0035932802 -0.0080978097 -0.11724269 -0.83477396 -0.53796518 0.0016281497
-0.0045827213 0.0034469208 -0.0084177861 -0.08268892 -0.82145125 -0.5642522 0.0012934521
-0.0016286955 0.003293698 -0.0085696429 -0.0566695 -0.80332893 -0.59283322 0.00092230737
0.001423997 0.003214244 -0.0086986097 -0.031404383 -0.80767566 -0.58879018 0.0010403873
0.0045436854 0.0032196529 -0.0087762009 -0.0047833938 -0.82854056 -0.55990863 0.0016289306
0.0075612548 0.0032094896 -0.0087145986 0.023214616 -0.81326622 -0.58142853 0.0010784167
0.010560737 0.0032602495 -0.008625173 0.050626732 -0.82882124 -0.55721831 0.0013491904
0.013592217 0.0033740699 -0.0084462306 0.078653641 -0.84108317 -0.53515667 0.001428809
0.01661226 0.003508294 -0.008100125 0.10777424 -0.85786438 -0.50244743 0.0015548692
0.019571867 0.0037375868 -0.0077089979 0.15347375 -0.86472571 -0.47822094 0.0011869551
0.022518046 0.0042046523 -0.0075421985 0.18033937 -0.87311983 -0.45292324 0.0014694167
0.025485605 0.0048665619 -0.0075315125 0.206201 -0.86415172 -0.45904562 0.0014331377
0.028324304 0.0053968653 -0.0071321535 0.23666415 -0.8701877 -0.43216142 0.0015727697
0.030644886 0.0057531763 -0.0064542019 0.27943242 -0.87831938 -0.38790798 0.0012143272
-0.027941952 0.0086845336 -0.0066631115 -0.33652467 -0.82600886 -0.45217317 0.0014787838
-0.025387717 0.0081386846 -0.0074265082 -0.30604368 -0.8062855 -0.50620246 0.0014556493
-0.022548039 0.0071813841 -0.0076269642 -0.30172908 -0.81734335 -0.49082515 0.0013845282
-0.019746082 0.0065100868 -0.0081792139 -0.26357505 -0.80469763 -0.53196812 0.0017615132
-0.017508332 0.0062304358 -0.008802413 -0.23170541 -0.77801847 -0.58395201 0.0016635794
0.026554435 0.0060612955 -0.0089302287 0.20233205 -0.79445332 -0.57263047 0.0009800134
0.028941704 0.0063088401 -0.0085142776 0.23150234 -0.82861817 -0.50970441 0.0010286598
0.031656388 0.0067136469 -0.0077334307 0.27856028 -0.85026109 -0.44660968 0.001250572
0.034503445 0.0076024435 -0.0075590634 0.3009856 -0.8424229 -0.44691318 0.0016603247
0.037199963 0.0083986046 -0.0071262266 0.33351061 -0.84381342 -0.420416 0.001416044
0.039341997 0.0088629285 -0.0063117165 0.37968463 -0.8402797 -0.38700092 0.0018265308
-0.036273621 0.011938281 -0.0061268285 -0.39435035 -0.8057391 -0.44189623 0.001439993
-0.034104921 0.011514879 -0.0071080592 -0.35501605 -0.80409861 -0.47685319 0.001492
-0.0314545 0.010642964 -0.00754807 -0.33721623 -0.80595201 -0.4865455 0.00165928
-0.028705277 0.0097780935 -0.0079718716 -0.31946233 -0.80172288 -0.50515777 0.0018649228
-0.026259506 0.0093008606 -0.0087032123 -0.30129093 -0.76313239 -0.57171023 0.0010718764
0.038062625 0.009367344 -0.008303808 0.32703766 -0.81998736 -0.46975222 0.0012845538
0.040553685 0.01006518 -0.0075886711 0.37601873 -0.82563299 -0.42064258 0.0011709017
0.043312784 0.011214334 -0.007299602 0.39477196 -0.81095499 -0.43186459 0.0014085737
0.04537937 0.01180818 -0.0064298231 0.42772627 -0.80888659 -0.40342629 0.0012164625
-0.040244974 0.014460264 -0.0069274856 -0.44314456 -0.76854527 -0.46147707 0.001446155
-0.037574291 0.013457011 -0.0076259393 -0.39257088 -0.77977538 -0.4876869 0.0013471053
-0.034954038 0.012543401 -0.0081689013 -0.3534061 -0.786183 -0.50697172 0.0017223723
-0.032800477 0.012095253 -0.008880958 -0.32178518 -0.75766593 -0.56779975 0.0022275152
0.044315513 0.012360561 -0.0084706154 0.40366533 -0.76350164 -0.50410277 0.0011572947
0.046603356 0.013126775 -0.0076275612 0.44806635 -0.79204535 -0.41460899 0.0010029151
