# .PCD v0.7 - Point Cloud Data file format
VERSION 0.7
FIELDS x y z normal_x normal_y normal_z curvature
SIZE 4 4 4 4 4 4 4
TYPE F F F F F F F
COUNT 1 1 1 1 1 1 1
WIDTH 556
HEIGHT 1
VIEWPOINT 0 0 0 1 0 0 0
POINTS 556
DATA ascii
0.050013836 0.021948924 -0.014540371 0.36808836 -0.43136546 -0.82367152 0.0013165992
0.052550118 0.022463283 -0.01352026 0.42993355 -0.45821866 -0.77794129 0.0012482688
0.05496107 0.023171023 -0.012558627 0.48336163 -0.50911695 -0.71215266 0.0012646638
-0.051423237 0.026742013 -0.012223067 -0.45590207 -0.55216843 -0.69804251 0.0016470135
-0.049253199 0.025886431 -0.012773049 -0.42110911 -0.5296672 -0.73628783 0.0015221842
-0.046564233 0.02542627 -0.013810401 -0.36854514 -0.4591302 -0.80831552 0.0010861024
-0.043937627 0.024714882 -0.014592885 -0.32524607 -0.41343409 -0.85046297 0.0018284308
-0.015748896 0.026668157 -0.014933315 0.16504501 0.43932837 -0.88303494 0.0020125092
-0.0133655 0.026299056 -0.014679991 0.1620063 0.48679808 -0.85835981 0.0016377685
-0.010418087 0.02602325 -0.014341651 0.13853973 0.49730214 -0.8564446 0.0019769804
-0.0074573141 0.025571737 -0.014186595 0.10450844 0.52992433 -0.84158075 0.0019258438
-0.004551447 0.025394842 -0.013979027 0.082348369 0.54126894 -0.83680743 0.0016321498
-0.0014932901 0.025373928 -0.013737364 0.052546293 0.5664894 -0.82239205 0.0024282804
0.0013877822 0.025309283 -0.0136531 0.019349216 0.57248229 -0.81968874 0.0021204487
0.0045403591 0.02530688 -0.013630755 -0.0059317448 0.57662928 -0.81698436 0.0020694472
0.0075197984 0.025375269 -0.013670424 -0.040491804 0.5764342 -0.81613976 0.0016987147
0.010457281 0.025318552 -0.013906945 -0.071798339 0.58429885 -0.80835629 0.0019165473
0.013365261 0.025554672 -0.014048573 -0.099207595 0.55222678 -0.82777017 0.0013356407
0.016284265 0.025927199 -0.014214654 -0.13915896 0.55213398 -0.82206017 0.0019984979
0.019340333 0.026284447 -0.014531052 -0.15582383 0.51514226 -0.84282106 0.0022107512
0.021624161 0.02679088 -0.014667362 -0.17248675 0.47915804 -0.8606137 0.0022593252
0.053155452 0.024979958 -0.014581494 0.39164048 -0.35122591 -0.85044587 0.0013899426
0.055529524 0.02543596 -0.01353364 0.45703536 -0.41265377 -0.7879312 0.002061612
0.057801519 0.026156718 -0.012542372 0.50963688 -0.43724081 -0.74100655 0.0019329116
-0.054370061 0.029659921 -0.012282128 -0.48759791 -0.47681582 -0.73136514 0.0018808855
-0.052317142 0.028694792 -0.012889559 -0.435756 -0.47016093 -0.76750594 0.0019814114
-0.049583014 0.028362168 -0.014074218 -0.361601 -0.39136738 -0.84621292 0.0015249593
-0.047181401 0.027554145 -0.014705837 -0.32023257 -0.35856012 -0.87686127 0.0027373303
-0.021964634 0.029474631 -0.014612049 0.20481654 0.48504192 -0.85016733 0.0030940196
-0.019445308 0.028925249 -0.01434202 0.19055994 0.50851798 -0.83970016 0.0019360094
-0.016483579 0.028442714 -0.013963381 0.17773649 0.52992952 -0.82920712 0.00092323381
-0.013604695 0.028287441 -0.013392162 0.16989449 0.56724948 -0.80583119 0.0018641767
-0.010526589 0.028207101 -0.01280208 0.15165576 0.62078702 -0.769171 0.0015630762
-0.0077143954 0.027846444 -0.012580458 0.12673055 0.61461204 -0.77858299 0.0012189519
-0.0050012106 0.027387999 -0.012608383 0.093658835 0.60686332 -0.78926861 0.0012171275
-0.0019659866 0.027452193 -0.012172913 0.06732861 0.61817473 -0.78315187 0.00087529712
0.0016673272 0.027099011 -0.012269503 0.026988063 0.61437517 -0.78855234 0.0009489957
0.0042334013 0.027241811 -0.012087424 -0.0075808382 0.61395574 -0.78930408 0.00091152731
0.0073155216 0.0273942 -0.012099384 -0.035954103 0.62696224 -0.77821952 0.00073884457
0.010449028 0.027385389 -0.012259074 -0.07386297 0.61973286 -0.78132921 0.00080453441
0.013813859 0.027562849 -0.012532351 -0.10658514 0.61659521 -0.78003204 0.00080147549
0.016803931 0.027853895 -0.012787225 -0.14881285 0.59890682 -0.7868706 0.0010049265
0.019525198 0.028132902 -0.013146408 -0.16142109 0.57085931 -0.80502355 0.00066388532
0.022535574 0.028387271 -0.013676453 -0.16887 0.54885173 -0.81868482 0.00071146258
0.0251626 0.028465118 -0.014287554 -0.18411404 0.549842 -0.81472439 0.00083565491
0.028158702 0.02917349 -0.014532632 -0.19986595 0.56815726 -0.79828006 0.0014049443
0.03041986 0.029630793 -0.014798203 -0.19767652 0.54158127 -0.81707633 0.0017137669
0.055910718 0.028268689 -0.014522884 0.41400978 -0.28329408 -0.86506665 0.001472389
0.058484916 0.028498115 -0.013220238 0.4883911 -0.33721328 -0.80483621 0.0019877879
0.060512286 0.029340217 -0.012295521 0.5490669 -0.35686651 -0.75575906 0.0023769226
-0.057319049 0.032651611 -0.012147555 -0.5239327 -0.41374484 -0.74451983 0.0022317395
-0.055264186 0.031635672 -0.012792491 -0.46294764 -0.38217822 -0.79976201 0.0026991544
-0.052511457 0.031410467 -0.014102298 -0.38808498 -0.31303591 -0.86683244 0.0015951983
-0.050275087 0.030681977 -0.01479086 -0.33214334 -0.27509356 -0.90222186 0.0032071744
-0.030305833 0.032770261 -0.014764016 0.21192519 0.49316746 -0.84372598 0.0029413386
-0.028172206 0.03225597 -0.014473949 0.23536706 0.48989469 -0.83940786 0.0025411327
-0.025377963 0.03149499 -0.014166225 0.22487405 0.54078394 -0.81054568 0.0015543516
-0.022618152 0.031431265 -0.013378656 0.21573702 0.56946939 -0.79319745 0.0013113632
-0.019849969 0.030899033 -0.013005756 0.21878205 0.5692122 -0.7925477 0.00094412488
-0.017063461 0.030308643 -0.012681783 0.20423852 0.59409332 -0.77803582 0.0011173362
0.025517961 0.030311579 -0.012890451 -0.2066696 0.60851419 -0.76615804 0.001653512
0.028704207 0.031053424 -0.013166908 -0.21866274 0.59803796 -0.77106243 0.00085553585
0.031584315 0.031419981 -0.013731689 -0.2067854 0.59398669 -0.77744424 0.0011094706
0.034424491 0.031766605 -0.014315577 -0.22674516 0.55798858 -0.79827023 0.0012958446
0.037511379 0.032632038 -0.014616 -0.23318255 0.53109568 -0.81459391 0.0017219731
0.039166585 0.032970123 -0.014974116 -0.20754902 0.50031704 -0.84059882 0.0017559575
0.056624506 0.030852256 -0.014874473 0.35725334 -0.14241214 -0.92308658 0.0027801783
0.058537692 0.031417295 -0.014104806 0.42368066 -0.17894448 -0.88796026 0.0018735434
0.061184186 0.03168574 -0.012708095 0.51675856 -0.24465764 -0.82042873 0.0023623107
-0.05795531 0.034783687 -0.012556799 -0.48856941 -0.3025409 -0.81839412 0.0031121988
-0.055484224 0.034376599 -0.013710134 -0.40626112 -0.23824793 -0.88215065 0.0027383838
-0.053037282 0.034097549 -0.014677086 -0.34529918 -0.17977993 -0.92111218 0.003207016
-0.036916643 0.035638124 -0.01486833 0.19742997 0.45588148 -0.86786723 0.0025611841
-0.034304358 0.0350812 -0.014482753 0.24438606 0.49467179 -0.83401155 0.0023127892
-0.031513758 0.034486521 -0.013995251 0.24625751 0.55336601 -0.79570299 0.0015484197
-0.028802212 0.034109354 -0.013345914 0.2574909 0.57303953 -0.77802581 0.0017587987
-0.025957689 0.03396029 -0.012435459 0.25508881 0.59566832 -0.76164883 0.0014337025
0.034962919 0.03388796 -0.012716087 -0.24516794 0.59885085 -0.76241088 0.0013081825
0.03770373 0.034493499 -0.013239579 -0.26402494 0.59202874 -0.76144129 0.0015219436
0.040496677 0.034588851 -0.01417832 -0.24574322 0.53213114 -0.81021404 0.00086548895
0.043481164 0.035348777 -0.014616365 -0.23062049 0.50472909 -0.83190304 0.0018694536
0.045314506 0.035846125 -0.014810978 -0.16466703 0.47962049 -0.86188686 0.0025162848
0.056877811 0.034278877 -0.014969403 0.25925061 0.017249569 -0.96565604 0.0035109899
0.058692653 0.034373555 -0.014444922 0.36332944 -0.052046623 -0.93020582 0.0030020017
0.061537459 0.03446459 -0.013128371 0.45890111 -0.12561709 -0.8795625 0.0031655605
0.063387908 0.035201352 -0.012168027 0.55982155 -0.18410069 -0.80790269 0.0020852096
-0.060545415 0.038364615 -0.012145014 -0.502994 -0.22003765 -0.83581132 0.0035554899
-0.058512483 0.037477393 -0.013004277 -0.41271201 -0.16418102 -0.89594275 0.0039604953
-0.055534661 0.037390698 -0.014243976 -0.32091185 -0.058545012 -0.9452979 0.0045072637
-0.053444523 0.037342299 -0.014870745 -0.24794699 -0.013944327 -0.96867317 0.0038332546
-0.045499079 0.038938694 -0.01493388 0.094111063 0.38651687 -0.91746819 0.0026895609
-0.043335088 0.038442742 -0.014761576 0.16016234 0.43726236 -0.88495743 0.0032590078
-0.040462844 0.037905902 -0.014416218 0.2007952 0.49247763 -0.84684539 0.0020430209
-0.03743232 0.037375741 -0.013893263 0.23829225 0.53470045 -0.81074792 0.0010097714
-0.034594275 0.037211239 -0.013028173 0.27646178 0.58198237 -0.7647649 0.0011697479
-0.031316884 0.036433473 -0.012379135 0.27627605 0.59808451 -0.75230742 0.0015123828
0.041043729 0.036894687 -0.012593196 -0.29060704 0.59576273 -0.74874175 0.00084131496
0.043693811 0.037299871 -0.013351411 -0.26431632 0.54683352 -0.7944243 0.0011602975
0.046553068 0.037486006 -0.01412943 -0.20245975 0.51969916 -0.83001375 0.0014447137
0.049450494 0.037879426 -0.014551166 -0.15238459 0.44500852 -0.88246608 0.0021824483
0.052363612 0.038305108 -0.014701581 -0.055172224 0.36777875 -0.92827517 0.0030787003
0.055750091 0.038018983 -0.01477385 0.11123911 0.20205358 -0.97303653 0.0034761762
0.058502153 0.037298717 -0.014426957 0.24634862 0.11351929 -0.96251017 0.0037013937
0.061606336 0.037471879 -0.013317317 0.39306659 0.017320514 -0.91934687 0.0026632252
0.063550405 0.037481543 -0.012357163 0.51301187 -0.051444259 -0.85683852 0.0033710049
-0.060762197 0.040622607 -0.012387064 -0.44735706 -0.083743267 -0.89042616 0.0038315766
-0.058507476 0.04045843 -0.013316897 -0.32542968 0.014381669 -0.94545686 0.0034120402
-0.055466313 0.040415864 -0.014203229 -0.24201962 0.094930291 -0.96561629 0.0050925231
-0.05275828 0.040235888 -0.014638457 -0.14812583 0.16085969 -0.97579867 0.0045977538
-0.049531557 0.040633805 -0.014523257 0.066984124 0.37951782 -0.92275643 0.0036383606
-0.046528012 0.040501356 -0.014221359 0.12644765 0.47881609 -0.86876124 0.0017966881
-0.043547012 0.040399209 -0.013630616 0.22118109 0.53788036 -0.81348854 0.0018580887
-0.040674649 0.040069114 -0.012981054 0.26002714 0.58070064 -0.77147436 0.00110108
-0.038243126 0.039563388 -0.012506175 0.27286953 0.58444917 -0.76417369 0.0013267946
0.044529628 0.039201979 -0.01230674 -0.3059271 0.58467305 -0.75137609 0.0011122777
0.046986356 0.039848372 -0.01266635 -0.25492519 0.56900346 -0.78182364 0.0015513548
0.049630504 0.040316883 -0.013168175 -0.21998043 0.52920371 -0.81948274 0.0016859266
0.052546144 0.040436666 -0.013698452 -0.096044958 0.4509463 -0.88736844 0.0029081476
0.055573989 0.040478081 -0.013940152 0.003347788 0.35065907 -0.93649721 0.0038238158
0.058869284 0.039974764 -0.013851494 0.20221262 0.20635678 -0.95735407 0.0045385309
0.061471563 0.040526163 -0.013123877 0.32518741 0.12340166 -0.93756336 0.0039965655
0.063593276 0.040296506 -0.012323217 0.44720155 0.071693659 -0.89155531 0.0034781022
-0.060909588 0.043389335 -0.012336162 -0.36518338 0.069407754 -0.92834461 0.0029986699
-0.058752853 0.04335377 -0.012991735 -0.24561226 0.13586727 -0.95979929 0.0043120114
-0.05547056 0.043034565 -0.013632432 -0.15530844 0.23359397 -0.95985055 0.004109906
-0.052490368 0.04337918 -0.013485992 0.043641482 0.41255865 -0.90988499 0.0049503073
-0.049600966 0.043372035 -0.013150627 0.13794105 0.48850366 -0.86158949 0.0035068435
-0.046757191 0.042982846 -0.012767799 0.19626614 0.55320722 -0.80959332 0.0018226549
-0.044449016 0.042517871 -0.012396725 0.24919596 0.56454748 -0.78688467 0.0012698397
0.052850436 0.042668663 -0.012468217 -0.19727984 0.53976172 -0.81837523 0.002462992
0.0557332 0.043081474 -0.012738407 -0.093697175 0.46611366 -0.87974936 0.0035777721
0.058571037 0.043450207 -0.012718411 0.029064128 0.37633336 -0.92602837 0.0040988321
0.061442506 0.043143179 -0.012551208 0.2969172 0.20101047 -0.93350685 0.0026975758
0.063334338 0.042627849 -0.012119992 0.32021159 0.2229301 -0.92074245 0.0048044194
-0.060254432 0.045393974 -0.012201563 -0.20555721 0.28152329 -0.93727845 0.0078101261
-0.058874559 0.045574784 -0.012399369 -0.18620662 0.27021778 -0.94462132 0.0034629805
-0.055711605 0.045713145 -0.012519825 0.010888807 0.44782224 -0.89405632 0.0035694139
-0.052905798 0.045633934 -0.01235074 0.1187212 0.51992577 -0.8459211 0.002809878
-0.05086631 0.045645252 -0.012010127 0.16770715 0.55311882 -0.81604773 0.0015101919
0.059949856 0.045232199 -0.012037934 0.0543954 0.43400699 -0.89926583 0.0047317077
-0.015580361 0.0058000595 -0.0092623429 -0.21979286 -0.76283348 -0.60809231 0.001356898
-0.013353446 0.0055159125 -0.0095747123 -0.17773983 -0.76642674 -0.61725092 0.00099842285
-0.010410582 0.005214829 -0.0099348621 -0.14655638 -0.75439352 -0.63985282 0.0012600636
-0.0074631679 0.0049551171 -0.010187224 -0.11170655 -0.7525143 -0.64903313 0.0013393831
-0.0045133345 0.0047854465 -0.010404834 -0.081247509 -0.75268686 -0.6533463 0.0015496864
-0.0014615256 0.0046408079 -0.010546297 -0.058363307 -0.74934328 -0.65960473 0.0014212701
0.0015271633 0.0044983341 -0.01058171 -0.033286665 -0.7556833 -0.65409076 0.001198718
0.0045044613 0.0044283951 -0.010595863 -0.0075326026 -0.77650028 -0.63007188 0.00066555635
0.007486287 0.0044352016 -0.010588397 0.016245462 -0.78003579 -0.6255241 0.00066244131
0.010471788 0.0045426604 -0.010584739 0.043637607 -0.76857919 -0.63826472 0.0012092567
0.013455263 0.0047170166 -0.010545 0.06837827 -0.76956284 -0.63489956 0.0012296807
0.01642595 0.0048975409 -0.010396837 0.093997724 -0.79266763 -0.602364 0.0017928985
0.019443473 0.0051302058 -0.010145794 0.13456355 -0.79440337 -0.59229714 0.0012587631
0.022388315 0.0054359245 -0.0098306825 0.16430089 -0.80179197 -0.57457358 0.0011118964
0.025172872 0.0057207369 -0.0093818493 0.19581701 -0.80672091 -0.55754554 0.00078373105
-0.024487326 0.008788594 -0.0092300354 -0.2986851 -0.75979072 -0.57749909 0.0013990602
-0.02219204 0.0083379233 -0.0097598098 -0.27732593 -0.73853976 -0.61453182 0.0012391289
-0.019407919 0.0078521473 -0.010301108 -0.23702028 -0.73054564 -0.64040965 0.0015936816
-0.016566521 0.0073344014 -0.010681813 -0.20035663 -0.72921783 -0.6542924 0.00077234179
-0.013612422 0.0069268118 -0.011078035 -0.16476201 -0.72535187 -0.66836977 0.0010530109
-0.010664073 0.006598609 -0.011395057 -0.13100825 -0.68862242 -0.71318716 0.0012200512
-0.0077586235 0.0063289073 -0.011626143 -0.10179722 -0.71544594 -0.69121224 0.0011903786
-0.0049064993 0.0061312211 -0.011807623 -0.07316681 -0.70550519 -0.70491773 0.0016807035
-0.0017085928 0.0060566911 -0.01189798 -0.054367516 -0.70692229 -0.70519859 0.0012002144
0.013528954 0.0060545034 -0.011905271 0.053176843 -0.73388237 -0.67719191 0.00097592466
0.01697064 0.0061108 -0.011796511 0.077545382 -0.70741403 -0.70253259 0.0015405676
0.019726871 0.0062976447 -0.011585198 0.11317935 -0.71229869 -0.69269109 0.0013862856
0.022582158 0.0066172495 -0.011353607 0.14839399 -0.72794592 -0.66938323 0.0013006618
0.025559379 0.0069280542 -0.010900696 0.18341357 -0.77724391 -0.60187322 0.0014217986
0.028474964 0.0074255187 -0.010555073 0.21419188 -0.78586996 -0.58011228 0.0010986078
0.031383075 0.0080540376 -0.01027933 0.25070316 -0.77777028 -0.57638645 0.0013591242
0.034136914 0.0085439915 -0.0096724583 0.28996202 -0.78569597 -0.54644662 0.0011417816
0.036376052 0.0089290999 -0.0091717029 0.33173487 -0.78631151 -0.52121603 0.0010955818
-0.033031024 0.011958123 -0.0090185776 -0.35067493 -0.73751074 -0.57715255 0.0019726288
-0.031049674 0.011611104 -0.0095558977 -0.3195681 -0.74403137 -0.58676535 0.001053596
-0.028362127 0.010993897 -0.010114606 -0.29111347 -0.73202777 -0.61594498 0.0014726511
-0.025511542 0.010341677 -0.010625355 -0.26565161 -0.73558164 -0.62317646 0.0010761869
-0.022626663 0.0097729852 -0.01118181 -0.24879444 -0.69595289 -0.67361039 0.0011581063
-0.020020943 0.0093113845 -0.011650725 -0.21589251 -0.67131668 -0.70903057 0.00097266602
-0.017866952 0.0090014031 -0.011892855 -0.19635895 -0.68333155 -0.70320779 0.00089215225
0.032002196 0.0093025016 -0.011631335 0.23006096 -0.72135508 -0.65323722 0.0011792607
0.034728553 0.0097955577 -0.011066853 0.27034941 -0.7558428 -0.59633285 0.0019156974
0.03751193 0.010459906 -0.010514785 0.30737695 -0.77174443 -0.55671346 0.00085716165
0.040230572 0.011253084 -0.010025277 0.34775898 -0.75416446 -0.55704552 0.0011964167
0.042393614 0.011732869 -0.0092726098 0.38192928 -0.75765806 -0.52922988 0.0012859686
-0.037149385 0.014457006 -0.0096804211 -0.37800106 -0.7146576 -0.58854038 0.0008815297
-0.03441282 0.013765899 -0.010373174 -0.32260868 -0.71807975 -0.61667258 0.0017787097
-0.03161649 0.013007906 -0.010906533 -0.29517347 -0.71502489 -0.63372856 0.00100748
-0.02880072 0.012385012 -0.011481908 -0.26677793 -0.68014747 -0.68280959 0.0010286719
-0.026419731 0.012085117 -0.011973381 -0.25180182 -0.65809458 -0.70958251 0.0030303649
0.038805924 0.012099528 -0.011891246 0.3112005 -0.70616174 -0.63599515 0.0027441196
0.040900312 0.01254879 -0.011302706 0.32778507 -0.72021168 -0.61143434 0.0012026592
0.043556392 0.013334545 -0.0106343 0.37352738 -0.738244 -0.56166995 0.00099767873
0.04615159 0.0142309 -0.0099916877 0.41681817 -0.72246712 -0.55163741 0.0013739298
0.04820694 0.014844317 -0.009212113 0.43242669 -0.71559316 -0.54857403 0.0010037069
-0.042684089 0.017568992 -0.0095430296 -0.45952514 -0.67076957 -0.58215535 0.0013558971
-0.04036364 0.016777018 -0.010276805 -0.4040994 -0.68020993 -0.61157018 0.001637681
-0.037736654 0.01594775 -0.010976183 -0.36001331 -0.69318467 -0.62440801 0.0012872521
-0.035173487 0.01530803 -0.011671674 -0.31174746 -0.67467916 -0.66904533 0.00098199944
0.044758935 0.015116867 -0.011909927 0.37418213 -0.66700625 -0.64427507 0.0027160798
0.046866175 0.015680658 -0.011256833 0.39670849 -0.66710049 -0.63055485 0.00098597293
0.049370889 0.016560331 -0.010442724 0.43650395 -0.68779308 -0.58000427 0.0011301404
0.051693365 0.01748425 -0.0096923001 0.48032677 -0.67236418 -0.56321633 0.0010188689
-0.04800985 0.020963803 -0.0090857763 -0.49455392 -0.65310705 -0.57346988 0.00073842099
-0.046108544 0.020273373 -0.009872159 -0.48787737 -0.65211129 -0.5802815 0.0014486872
-0.043668952 0.01931119 -0.010678896 -0.43943694 -0.65553099 -0.61414516 0.0014385193
-0.041217793 0.018506287 -0.011513491 -0.39451638 -0.63969374 -0.65965807 0.0010250813
0.05048874 0.018418631 -0.01165846 0.44276729 -0.61338741 -0.65399766 0.0015237286
0.052666962 0.019184785 -0.010794099 0.46851584 -0.64394665 -0.60483521 0.0017631557
0.054978188 0.020146953 -0.0099011185 0.52497429 -0.62416095 -0.5786407 0.0013074992
-0.051473092 0.023762489 -0.0092649646 -0.50927889 -0.65732843 -0.55547673 0.001350107
-0.049190477 0.022894554 -0.010187741 -0.48195404 -0.63695967 -0.60166657 0.0017007369
-0.046841156 0.021980003 -0.011050737 -0.44863021 -0.60951215 -0.65362519 0.0014345358
-0.044823404 0.02114132 -0.011683741 -0.43869051 -0.61833286 -0.65208519 0.00096652558
0.053793639 0.021199983 -0.011803987 0.4733398 -0.58457792 -0.6589523 0.001537953
0.055843905 0.022050506 -0.011030515 0.50702125 -0.56656128 -0.64956737 0.0024791437
0.058033824 0.022979259 -0.010012544 0.56001043 -0.57059252 -0.60067672 0.0014471025
-0.054598857 0.026452271 -0.0094986968 -0.53923482 -0.6201511 -0.5697704 0.00092454517
-0.052378681 0.025621602 -0.010449684 -0.48592654 -0.61064327 -0.62529206 0.0022519252
-0.050050821 0.024731098 -0.011349998 -0.45413747 -0.59153771 -0.66621488 0.0015217685
0.056818474 0.024306849 -0.011980851 0.48292881 -0.47827303 -0.73350847 0.0010199707
0.058898166 0.025120184 -0.011035833 0.54028505 -0.48321077 -0.68891174 0.0016635674
0.060917705 0.025933007 -0.0098778419 0.59835327 -0.51493931 -0.61384928 0.0013833209
-0.057615936 0.029376077 -0.00954236 -0.5730769 -0.55407643 -0.60380644 0.0014129509
-0.055500399 0.028495869 -0.010570209 -0.51647103 -0.52174103 -0.67900229 0.0010444169
-0.053366765 0.027631978 -0.011527944 -0.50248981 -0.54930305 -0.66766024 0.00081820315
-0.012277407 0.029543119 -0.011969574 0.20277373 0.66551638 -0.71831113 0.0030170248
-0.010483019 0.029359207 -0.011812815 0.14481018 0.65221089 -0.74407727 0.0012727608
-0.0066711474 0.02920825 -0.011126399 0.11367942 0.64061582 -0.75940001 0.0010413763
-0.0042052795 0.028648077 -0.01131665 0.088918038 0.63258862 -0.76936674 0.00051354425
-0.0013341666 0.028413815 -0.011181376 0.061032318 0.63169688 -0.77280927 0.00059302076
0.0014452476 0.028166942 -0.011234524 0.035112169 0.63637072 -0.77058387 0.00033899673
0.004639918 0.028086599 -0.011256374 -0.0082954783 0.61703742 -0.78689015 0.00075205194
0.0074968431 0.027954798 -0.011470683 -0.03477576 0.63044882 -0.77545142 0.00037757269
0.010503802 0.028345346 -0.011327533 -0.067236215 0.63167787 -0.77230978 0.00052137091
0.013207639 0.029111529 -0.01091779 -0.09137176 0.65632856 -0.74892199 0.00072819932
0.016438786 0.028740408 -0.011797406 -0.12976407 0.59827113 -0.79071671 0.00056852901
0.059683621 0.027193457 -0.011832315 0.54996461 -0.41418481 -0.72525156 0.0019966254
0.061690837 0.02837502 -0.01085567 0.58011317 -0.3877852 -0.71630394 0.00098888425
0.063614704 0.029038994 -0.0095008453 0.64678836 -0.43437555 -0.62688339 0.0015349115
-0.060433563 0.032483708 -0.0094568916 -0.61768198 -0.49399251 -0.61191535 0.0011813706
-0.058400568 0.031502992 -0.010495435 -0.55394918 -0.46174961 -0.6927681 0.001693708
-0.056288768 0.030676099 -0.011616965 -0.52607542 -0.45474184 -0.7186476 0.0020297233
-0.01931724 0.032205608 -0.011572071 0.23383369 0.64691478 -0.72582579 0.00078336854
-0.016593968 0.032199495 -0.010559936 0.22611549 0.68587387 -0.69169992 0.0013215804
-0.013456779 0.031506009 -0.010283563 0.18885902 0.65325582 -0.73320466 0.0010623652
-0.0099518914 0.031225311 -0.0094995163 0.15134141 0.71056789 -0.68716013 0.00044962548
-0.008101848 0.030294966 -0.010171551 0.14142565 0.71741509 -0.68213964 0.00045746189
0.023687422 0.032571357 -0.0097567998 -0.21492 0.6762948 -0.70458126 0.0013192986
0.025513662 0.032187995 -0.011005603 -0.24370243 0.66806382 -0.70306462 0.001051347
0.027785128 0.032190192 -0.01185407 -0.2385554 0.67394221 -0.69920903 0.0006938359
0.062484454 0.031112006 -0.01159813 0.58828658 -0.28831872 -0.75550723 0.0016196006
0.06428498 0.031537008 -0.010249701 0.64667916 -0.34913513 -0.67816722 0.0015280725
-0.063165516 0.035728097 -0.0090733469 -0.64720041 -0.43304151 -0.62738085 0.0017051055
-0.061205145 0.034677882 -0.01017912 -0.59530824 -0.41430545 -0.68844694 0.0020115455
-0.059179079 0.03399666 -0.011422794 -0.52971673 -0.36203846 -0.76702565 0.0019010095
-0.027696572 0.03560327 -0.011501346 0.29570979 0.64496714 -0.70467949 0.0015800657
-0.025139874 0.03463525 -0.011370019 0.27101207 0.65264052 -0.70753998 0.0012180251
-0.022763414 0.034419604 -0.010499071 0.26222891 0.66644722 -0.69791418 0.00098568154
0.03203737 0.034566399 -0.010840408 -0.273395 0.71030682 -0.64862889 0.0015286183
0.033466764 0.034279034 -0.011798222 -0.29377615 0.6903699 -0.66112411 0.0018738352
0.036591213 0.035848845 -0.011554978 -0.32098788 0.67680311 -0.66249865 0.0020468493
0.064650811 0.034285318 -0.010991368 0.6010381 -0.22556154 -0.76673019 0.001480584
0.066445701 0.034746274 -0.0095744403 0.67681599 -0.25616258 -0.69014555 0.0017758379
-0.063772142 0.037847925 -0.0096651549 -0.61823004 -0.3414847 -0.70794058 0.0029523037
-0.061720982 0.037262946 -0.011011398 -0.54096109 -0.27742854 -0.79397386 0.0011816187
-0.033469051 0.038310524 -0.011491925 0.31387937 0.64396292 -0.69770443 0.001373949
-0.031430151 0.03764594 -0.011162993 0.30851838 0.66528726 -0.67985976 0.0008696994
-0.029458653 0.037588801 -0.010150629 0.30403793 0.67080975 -0.67644316 0.0010514612
-0.026141027 0.036463972 -0.0096602989 0.30521995 0.69495809 -0.65105605 0.00030072118
0.035659354 0.036589053 -0.010121426 -0.32425824 0.70707363 -0.62841344 0.00079369167
0.038443692 0.037569575 -0.010622021 -0.37432775 0.7134679 -0.59231949 0.001917651
0.040617786 0.03817996 -0.01125964 -0.37397075 0.6561479 -0.65545088 0.001393269
0.064946085 0.037319675 -0.011427373 0.56914812 -0.099473983 -0.81619567 0.0018697792
0.066878714 0.037423726 -0.0098853866 0.66568249 -0.15069069 -0.73086196 0.0021693872
-0.066109948 0.041337676 -0.0091492552 -0.65333092 -0.25381246 -0.71325868 0.0029639553
-0.064384528 0.040495913 -0.010142751 -0.58119452 -0.21548703 -0.78471541 0.004024067
-0.062156945 0.04040214 -0.011617634 -0.49651948 -0.14526874 -0.85578352 0.0028229605
-0.039466936 0.040913589 -0.011742946 0.29851192 0.65869683 -0.69065857 0.0026945786
-0.037508875 0.040909093 -0.010761322 0.3168956 0.67863262 -0.66259712 0.0012592113
-0.035517897 0.039722543 -0.011035105 0.29488561 0.63520765 -0.71383035 0.00063465838
-0.032025062 0.039358683 -0.0094256718 0.32117951 0.69625288 -0.64193124 0.00030274497
0.040004261 0.039177503 -0.0097528053 -0.39422506 0.71396285 -0.57865679 0.001402632
0.043381482 0.040334616 -0.010587199 -0.37093398 0.66451073 -0.64871681 0.0012253048
0.046169654 0.040892586 -0.011460925 -0.28957179 0.60528934 -0.7414667 0.0013957648
0.048315339 0.041676555 -0.011756018 -0.27842137 0.59803224 -0.75155771 0.001094839
0.065147392 0.040495351 -0.01146943 0.53067333 0.013127215 -0.84747475 0.002921765
0.067261703 0.040501449 -0.0099412166 0.62120879 -0.037016224 -0.78277034 0.0031370732
-0.06650541 0.043753203 -0.0092941588 -0.61609828 -0.13705443 -0.77565378 0.0034519434
-0.064507984 0.043400142 -0.010575595 -0.50597399 -0.056035824 -0.86072659 0.0028216457
-0.062322367 0.043606278 -0.011747698 -0.42137733 0.006716155 -0.90686053 0.0039387341
-0.045471743 0.043839399 -0.011680434 0.24706741 0.59057409 -0.76823175 0.0012981743
-0.043585829 0.043235615 -0.011406499 0.28035486 0.619968 -0.7328307 0.0012076828
-0.041057236 0.042444818 -0.01101735 0.28618082 0.6218859 -0.72894341 0.001116486
0.046428382 0.042730138 -0.0098668858 -0.37694675 0.67368609 -0.63565576 0.00098618621
0.049928464 0.043551877 -0.01073444 -0.28018671 0.61413491 -0.73778969 0.0011619923
0.052483138 0.04425624 -0.011181099 -0.24699205 0.58960098 -0.76900297 0.0012860997
0.054938383 0.044581432 -0.011710863 -0.19333209 0.53098744 -0.82503039 0.0044442369
0.057171792 0.044912029 -0.011846197 -0.08525376 0.51713836 -0.85164535 0.0056895427
0.062490623 0.044746693 -0.01181234 0.21833919 0.26665464 -0.93873495 0.0062909364
0.064634882 0.043403924 -0.011420228 0.44676331 0.12153375 -0.88635892 0.0030734353
0.067256391 0.043559011 -0.0098963277 0.58342743 0.0763207 -0.80857128 0.0035922655
-0.066633947 0.04654507 -0.0093767149 -0.54947501 0.012491173 -0.83541679 0.0044016764
-0.064558461 0.046343207 -0.010501388 -0.44069526 0.091757864 -0.89295477 0.0052913078
-0.061719224 0.046296488 -0.011579719 -0.2996068 0.21223113 -0.9301579 0.0053167171
-0.058559384 0.047231205 -0.011745316 -0.036258876 0.42220378 -0.90577549 0.0034145024
-0.05526989 0.047238275 -0.011623018 0.085393436 0.50543249 -0.85863024 0.0028521656
-0.052368671 0.046854645 -0.01140718 0.16903219 0.5706659 -0.80359727 0.0019685756
-0.049451977 0.046101138 -0.011141788 0.22314447 0.60023105 -0.76806849 0.0012296917
-0.04685054 0.045535646 -0.01064867 0.27059147 0.63946837 -0.71962523 0.00066545035
-0.044857275 0.045982212 -0.0091367364 0.32522681 0.6935845 -0.64278162 0.0005651181
0.049913302 0.045194753 -0.009230542 -0.37026131 0.67873812 -0.6342091 0.00070387067
0.052714705 0.045932814 -0.0098487623 -0.27145973 0.61062706 -0.74393827 0.00110239
0.055636786 0.04646232 -0.010510528 -0.23224948 0.57812494 -0.7821967 0.0021061089
0.058412246 0.04651498 -0.01112486 -0.080471776 0.48997632 -0.86801362 0.0034738933
0.061466485 0.046475954 -0.011259574 0.093041033 0.41622049 -0.90449095 0.0059944633
0.064828552 0.046221759 -0.010673501 0.36153761 0.23749298 -0.9016028 0.005975157
0.066977859 0.046304803 -0.0096805347 0.53022891 0.1520469 -0.83410966 0.0038432328
-0.066708475 0.048897445 -0.0091240183 -0.46144962 0.14477628 -0.87527364 0.0052074473
-0.064502992 0.049077015 -0.0099515179 -0.33237574 0.2228138 -0.9164499 0.0053828233
-0.061547764 0.049369872 -0.010451069 -0.12805374 0.4351308 -0.89121461 0.0074147573
-0.058657676 0.049407318 -0.010535002 0.033047616 0.53411549 -0.84476531 0.0029758937
-0.055705361 0.049108732 -0.010376866 0.10475481 0.56174088 -0.82065445 0.0015590705
-0.052427679 0.048591338 -0.00995983 0.18259957 0.60433441 -0.77552384 0.0011119
0.055626243 0.048120234 -0.009060028 -0.22373673 0.5904296 -0.7754578 0.00028671927
0.05875447 0.048839048 -0.0096316785 -0.18031655 0.58185869 -0.7930488 0.0031582539
0.061643951 0.049210411 -0.0098314555 -0.034555815 0.49217576 -0.86980969 0.0049472488
0.064540178 0.04940965 -0.0095834667 0.11413771 0.40511718 -0.90711224 0.010024885
0.066499814 0.04891631 -0.0092397835 0.39146736 0.3003926 -0.86978024 0.0067575541
-0.063966379 0.051298901 -0.0091342181 -0.1984985 0.40151221 -0.8940841 0.0075505977
-0.061362125 0.05122488 -0.0093816184 -0.0026670455 0.54513317 -0.83834523 0.0044128834
-0.059226111 0.051585097 -0.0090976954 0.050793964 0.5802663 -0.8128413 0.0015462619
-0.012344441 0.0029808402 -0.0060550221 -0.22066601 -0.86724323 -0.44631344 0.0015282884
-0.01004854 0.0028102754 -0.0064084772 -0.16446632 -0.87587392 -0.45364714 0.0011101029
-0.0074109584 0.0025855713 -0.0067853588 -0.12005095 -0.87010491 -0.47802219 0.001790332
-0.0044272505 0.0023924462 -0.0070429067 -0.083573185 -0.87162197 -0.48300168 0.0018343559
-0.0014472618 0.0022791224 -0.0072529665 -0.05471937 -0.87327403 -0.48414704 0.0018411827
0.0015253661 0.0022037884 -0.0073755085 -0.027528565 -0.87618202 -0.48119363 0.0017830048
0.0045116208 0.0021622393 -0.007385151 0.00042612711 -0.87912363 -0.47659364 0.0017289817
0.0074680094 0.0022094909 -0.0073892581 0.029644256 -0.88234162 -0.46967483 0.001704153
0.010449156 0.0022917793 -0.0072627091 0.057650425 -0.8848244 -0.46234429 0.0017236754
0.013442632 0.0024472205 -0.0070712138 0.085016385 -0.88663572 -0.45458698 0.0017671151
0.016319668 0.0026364101 -0.0068089231 0.11815804 -0.88820702 -0.44398984 0.0017148904
0.019018872 0.0028015766 -0.0063390862 0.16034713 -0.89038438 -0.4260335 0.0014436148
-0.021304147 0.0058028777 -0.0063258782 -0.32128629 -0.8372491 -0.44248068 0.0016267629
-0.019231774 0.0054419413 -0.0069968947 -0.27925649 -0.83929354 -0.46647841 0.0018964921
-0.016488081 0.00490889 -0.0075029097 -0.22323327 -0.83071339 -0.50998265 0.0015320322
-0.013491415 0.00416238 -0.0075326399 -0.19351426 -0.85091811 -0.48835504 0.0012183232
-0.010579822 0.0037435375 -0.0078415982 -0.15731113 -0.84265298 -0.51496524 0.0013608653
-0.0076076114 0.0035107776 -0.0082570883 -0.1151859 -0.84026718 -0.52979547 0.0016587562
-0.0046642604 0.0033243175 -0.0085163154 -0.08403261 -0.81234157 -0.57709593 0.001010159
-0.0015561655 0.0032025704 -0.0087304777 -0.055968493 -0.8121596 -0.58074456 0.0011150221
0.0014779844 0.0031251705 -0.0088564446 -0.030952349 -0.79711604 -0.60303229 0.00077327265
0.0043798238 0.0030916401 -0.0089040818 -0.0047288104 -0.79969668 -0.60038561 0.00078759616
0.007490288 0.0030956033 -0.0088589638 0.022799114 -0.8040449 -0.59413135 0.00085201749
0.010540958 0.0031895007 -0.0088029997 0.051378049 -0.81062502 -0.58330727 0.0009284867
0.013537527 0.0032864809 -0.0086069899 0.079084717 -0.83355188 -0.5467512 0.0012959469
0.016625658 0.0034202232 -0.0082438225 0.10873858 -0.86170059 -0.49562889 0.0016443728
0.019672729 0.0036480371 -0.0078029796 0.1510409 -0.86720496 -0.47449166 0.0014336914
0.022529721 0.0040399753 -0.0075127538 0.19141917 -0.88149846 -0.43164715 0.0013095537
0.025534378 0.0047040544 -0.0074772541 0.21319889 -0.87040687 -0.4437772 0.0017259835
0.028376507 0.0053648129 -0.0073193908 0.23833241 -0.87369436 -0.4240942 0.0016032943
0.030800194 0.0057339133 -0.0065932111 0.28809279 -0.87568247 -0.38753426 0.0010652725
-0.028055893 0.0086308541 -0.0067568324 -0.33463034 -0.82930553 -0.44752079 0.0013393238
-0.025496496 0.0080039026 -0.0074249222 -0.30468261 -0.81397355 -0.49458629 0.0013867915
-0.022611054 0.0070336438 -0.0076410682 -0.30265823 -0.822321 -0.48185709 0.0013691187
-0.019855142 0.0064470209 -0.0083171586 -0.25981608 -0.80243355 -0.53721118 0.0018112563
-0.017626688 0.0061312453 -0.0089016436 -0.23772486 -0.7589817 -0.60616308 0.0012630329
0.02926358 0.0062626279 -0.0085623423 0.23868275 -0.84258008 -0.4827933 0.0014130357
0.03165926 0.0066265985 -0.0078498172 0.28453299 -0.85523593 -0.43314269 0.0015671364
0.034505054 0.0074508837 -0.0075435452 0.29945672 -0.85361129 -0.42623171 0.0015424093
0.037281618 0.0083468659 -0.0072334479 0.33735988 -0.8476432 -0.40949887 0.0014884827
0.039490331 0.0088372789 -0.006351762 0.3800813 -0.84000063 -0.38721716 0.0013001732
-0.036369525 0.01185165 -0.0062150303 -0.40215662 -0.81100237 -0.42490613 0.001087789
-0.03425853 0.01142126 -0.0071234605 -0.36061099 -0.81353784 -0.45619729 0.0014744821
-0.031477209 0.010455146 -0.0075128176 -0.33344203 -0.82136506 -0.46279141 0.0014588772
-0.028755143 0.0095995301 -0.0079594674 -0.32174778 -0.81249326 -0.48614088 0.0017449405
-0.026564742 0.0092782713 -0.0087885773 -0.3093316 -0.76246953 -0.56829053 0.0020415168
0.038232874 0.0093228584 -0.0083878376 0.34222353 -0.818133 -0.46210563 0.0014114511
0.040580731 0.0099656926 -0.0076583601 0.37069803 -0.82883203 -0.41907093 0.0012417111
0.043347586 0.011111949 -0.007347397 0.3978813 -0.81344086 -0.42426929 0.0013443517
0.045524552 0.011824169 -0.0065696151 0.42990008 -0.80972517 -0.3994135 0.0010510794
-0.042071875 0.014872985 -0.0061526201 -0.47389391 -0.77465355 -0.41873199 0.0010034337
-0.040151849 0.014343031 -0.0071107205 -0.44576269 -0.77231067 -0.45258346 0.0013387465
-0.037566796 0.013262966 -0.0076249796 -0.40153065 -0.79272902 -0.45864356 0.0014586402
-0.035009194 0.012446005 -0.0082888221 -0.35244033 -0.79766405 -0.48940566 0.0015691571
-0.032717776 0.012015749 -0.0089374762 -0.32138598 -0.73744714 -0.59403932 0.0011716153
0.044260558 0.01225378 -0.0086180726 0.40081051 -0.77095991 -0.49494621 0.00095449714
0.046658337 0.013030327 -0.0076765134 0.43786308 -0.79526645 -0.41931769 0.0013083104
0.049215406 0.014271186 -0.007224306 0.47535348 -0.77440059 -0.41754377 0.0013607986
-0.045549918 0.017588193 -0.0067171887 -0.52165097 -0.73109478 -0.43975067 0.0012911343
-0.043440271 0.016629456 -0.0075194226 -0.48659119 -0.74663568 -0.45361248 0.0012277932
-0.041134667 0.015543562 -0.0081628477 -0.45111722 -0.75644356 -0.47358885 0.0017538355
0.050287109 0.015469194 -0.0081720995 0.48845375 -0.76263696 -0.42402554 0.0015083909
0.052528322 0.016577393 -0.0075092125 0.51632214 -0.73908222 -0.43263024 0.0018962616
0.054623693 0.017582262 -0.0067081465 0.53610295 -0.72931737 -0.42507622 0.0012907892
-0.04895078 0.020304503 -0.0070769764 -0.53974181 -0.7129752 -0.44759929 0.0016205363
-0.046748225 0.019102417 -0.0077343029 -0.53118199 -0.7205596 -0.44568998 0.0012954528
-0.044707593 0.018266255 -0.0086534256 -0.50274771 -0.68342239 -0.52931905 0.0016958093
0.053756062 0.018230818 -0.0086636934 0.5078513 -0.690588 -0.51495165 0.0020126901
0.055720676 0.019082025 -0.0077674929 0.54910016 -0.70579648 -0.4475939 0.0013235305
0.057783753 0.020276105 -0.0070342389 0.58768719 -0.67438418 -0.44702315 0.0012832895
-0.05415938 0.023758225 -0.0063728718 -0.55513668 -0.70967865 -0.43379658 0.00085097965
-0.0522708 0.022968693 -0.0073270015 -0.54469067 -0.71301699 -0.44149625 0.0021536297
-0.050073195 0.021735599 -0.0079540266 -0.53455484 -0.7150811 -0.45045552 0.0017116194
0.058951836 0.021915391 -0.0078745252 0.60058826 -0.63795865 -0.48197764 0.0022204926
0.060840186 0.02316466 -0.0070989407 0.62955111 -0.61787617 -0.47105676 0.0013057804
-0.057424288 0.026691534 -0.0066059581 -0.59920233 -0.6548478 -0.46057677 0.00093709398
-0.055397768 0.025541464 -0.0074788197 -0.57309216 -0.69086629 -0.44075963 0.0010218588
-0.053291902 0.024503963 -0.0084126284 -0.52618372 -0.65656829 -0.54041529 0.00091508264
0.062022205 0.025082985 -0.0078645963 0.64668572 -0.57145631 -0.50520808 0.0022858826
0.063673735 0.026240194 -0.006962575 0.68245965 -0.55133015 -0.47987911 0.0018605618
-0.060346711 0.029562781 -0.0066007953 -0.64694411 -0.59810525 -0.47300479 0.00091143319
-0.058478039 0.028419608 -0.0075649451 -0.61984169 -0.62525117 -0.47419101 0.0019134347
-0.056551982 0.027444437 -0.0086245527 -0.55623406 -0.60289776 -0.57194221 0.0008373328
0.062775761 0.027180858 -0.0089471992 0.63447714 -0.48533621 -0.60157084 0.0017263442
0.064717382 0.02836501 -0.0076572355 0.71472156 -0.47170168 -0.51640159 0.0027998078
0.066370107 0.029646218 -0.0065892618 0.73600638 -0.46839309 -0.48877648 0.0017901747
-0.063219994 0.032670829 -0.0063043926 -0.68756318 -0.55098808 -0.47293654 0.0017671287
-0.061380547 0.031579398 -0.0075314473 -0.66868782 -0.52972829 -0.5217706 0.0023385917
-0.059483334 0.030410139 -0.008622474 -0.59537297 -0.53453696 -0.5998345 0.0010083785
-0.012573558 0.032309145 -0.0088914894 0.1926039 0.70588344 -0.68163949 0.00097775192
0.065542214 0.030619418 -0.0084651168 0.70004308 -0.37796214 -0.60587472 0.0014292095
0.066962324 0.031819586 -0.0074077607 0.74311227 -0.38445163 -0.54770529 0.0018853826
-0.064055182 0.034697216 -0.007236829 -0.69847637 -0.48489287 -0.52631706 0.0028275575
-0.062473286 0.033712968 -0.0082932552 -0.66064209 -0.49386108 -0.5653789 0.0014057513
0.031479269 0.035951883 -0.0085972929 -0.29223022 0.72353566 -0.62537807 0.00068955566
0.067864329 0.03436403 -0.0077523724 0.76432449 -0.30672145 -0.56721252 0.0026086939
0.069197588 0.035393905 -0.0064637638 0.79752064 -0.32181764 -0.51028836 0.0020309577
-0.066603415 0.038062278 -0.0068158936 -0.70734531 -0.423031 -0.56631029 0.002812041
-0.065074176 0.037123624 -0.0079517812 -0.69203991 -0.39003775 -0.60741365 0.0024907852
0.03791194 0.038594909 -0.0089242738 -0.37429091 0.71348268 -0.59232491 0.0019073142
0.068411164 0.037207831 -0.0082774861 0.75410432 -0.18963671 -0.62878025 0.0021964384
0.069680259 0.037790675 -0.0068467725 0.78583771 -0.2112956 -0.58121705 0.0027200989
-0.069206946 0.041910786 -0.006066402 -0.72926563 -0.34860158 -0.58876872 0.0056146532
-0.067317247 0.040540695 -0.0074872659 -0.70411718 -0.29980442 -0.64368951 0.0021388957
-0.065750904 0.039709304 -0.0087569468 -0.65012652 -0.28178674 -0.70564276 0.0020854438
0.038325377 0.040047016 -0.0069572646 -0.40814957 0.73182666 -0.54575062 0.000564004
0.041138109 0.04077629 -0.0084463051 -0.39590216 0.70360148 -0.59009033 0.0014252792
0.068589509 0.040169265 -0.0087110111 0.726574 -0.078409404 -0.68259954 0.0022500355
0.069789015 0.040429071 -0.0073793717 0.77299285 -0.10668466 -0.62538016 0.0027169529
-0.06938041 0.043272469 -0.006355518 -0.73857182 -0.24565727 -0.62782496 0.0025876584
-0.067967683 0.043436635 -0.0079440912 -0.69606858 -0.20031814 -0.68946439 0.0035359084
-0.042198662 0.044922009 -0.0087666744 0.34419131 0.68546003 -0.64162052 0.00044150898
-0.039750468 0.043808661 -0.0085565345 0.33911046 0.69727522 -0.63151515 0.00048880541
-0.037179034 0.042479075 -0.0086179404 0.33111921 0.68969899 -0.64395291 0.00052753108
0.043587476 0.042361565 -0.0082575697 -0.41091901 0.69373155 -0.59150839 0.00075641047
0.046386685 0.043956205 -0.0083464747 -0.38087666 0.68942577 -0.61613721 0.0003848605
0.068677925 0.043451119 -0.0087976428 0.66434437 0.041457288 -0.74627602 0.0036924572
0.070037924 0.04341824 -0.0073476867 0.73918784 0.012636056 -0.67338073 0.0036698284
-0.069816388 0.046539124 -0.0067838542 -0.69376314 -0.11983006 -0.71016443 0.0036802671
-0.068229415 0.046413202 -0.0082354257 -0.63390636 -0.070414297 -0.77019769 0.0039795623
-0.047289364 0.047781929 -0.0083647184 0.30957097 0.6918667 -0.65229309 0.00073584571
-0.043756571 0.046284843 -0.0079886746 0.34070876 0.70484352 -0.62218416 0.00037415829
0.047229122 0.045216024 -0.0072915712 -0.38795587 0.68431818 -0.61741316 0.00036837024
0.049684275 0.046465024 -0.0075402604 -0.37215862 0.67940336 -0.63238364 0.0006435198
0.052008171 0.047164984 -0.0083072931 -0.35407099 0.68811208 -0.63335264 0.0014866496
0.068409979 0.046782106 -0.008616006 0.5979625 0.12681377 -0.79142851 0.0030254545
0.070080206 0.04668403 -0.0071388911 0.72662711 0.070740111 -0.68338048 0.0032870695
-0.070020698 0.049637575 -0.0069146794 -0.62097001 -0.017168429 -0.78364635 0.0072200741
-0.067957349 0.049343538 -0.0083295153 -0.50250214 0.070595451 -0.86168891 0.0061081587
-0.065628938 0.050926652 -0.0088951923 -0.17413479 0.28740838 -0.94184583 0.011721097
-0.054727927 0.050878756 -0.0085309297 0.20706916 0.64511138 -0.73549557 0.0017426962
-0.050279066 0.049321495 -0.0081832735 0.28485426 0.68415511 -0.67140889 0.0010110658
-0.047090292 0.048584595 -0.0071380744 0.32650167 0.70585549 -0.62862122 0.00022996511
0.053138714 0.048441611 -0.0075756046 -0.36468568 0.69251651 -0.62243491 0.0013014514
0.055572342 0.04948052 -0.0079047214 -0.35854113 0.67576104 -0.64404607 0.0021177526
0.058494791 0.050488703 -0.0081924703 -0.22973773 0.60484695 -0.76248324 0.0032059038
0.060991198 0.050796967 -0.0087116892 -0.14624247 0.56178224 -0.81425667 0.005116554
0.065571576 0.050775755 -0.008822415 0.16213502 0.4145183 -0.89548129 0.014193314
0.06777712 0.04977699 -0.0083398316 0.41896003 0.2499949 -0.87291187 0.007302545
0.069764674 0.048995376 -0.0071507618 0.66629004 0.12064185 -0.73586893 0.0049816091
-0.070153885 0.052649926 -0.0067500486 -0.51682991 0.048702128 -0.85470164 0.0091049569
-0.067894332 0.052523211 -0.0077330866 -0.38120809 0.19273901 -0.9041748 0.0092850104
-0.064750165 0.052701179 -0.0082597304 -0.12533246 0.42699793 -0.89552474 0.0087212492
-0.061890513 0.052746806 -0.0082197972 -0.010904784 0.55740649 -0.83016813 0.0052640643
-0.058594365 0.052224752 -0.0082679708 0.076900236 0.61723638 -0.7830106 0.0025802094
-0.056489468 0.051256429 -0.0087576946 0.12543313 0.60163379 -0.78886211 0.0019843283
-0.053308666 0.051262204 -0.0074508972 0.20707592 0.64508367 -0.73551798 0.001759152
0.056933671 0.051426258 -0.006540142 -0.35954273 0.68704814 -0.63142216 0.0027423387
0.05927356 0.052239798 -0.0068540266 -0.24287848 0.62556201 -0.74140555 0.0026534167
0.061800949 0.052370451 -0.0077164602 -0.19961083 0.56391114 -0.80134875 0.0034219837
0.064549118 0.052473374 -0.0080936048 0.033852827 0.44953227 -0.89262241 0.009815407
0.067545339 0.052569233 -0.0076030539 0.29856268 0.31139472 -0.90216058 0.012604954
0.069543391 0.052322794 -0.0067003402 0.63156784 0.12827526 -0.76463556 0.0056469492
-0.070438772 0.055068601 -0.0063025863 -0.36344606 0.15370677 -0.91884768 0.0079876557
-0.067593507 0.055356525 -0.0067549739 -0.057808697 0.42375681 -0.90392935 0.011637862
-0.064780153 0.055109311 -0.0067709647 0.048354469 0.53581029 -0.84295273 0.005374752
0.061999932 0.054133289 -0.0063700872 -0.24270903 0.55803347 -0.79353076 0.004535784
0.064836174 0.055073991 -0.0066865021 -0.12535362 0.45700797 -0.88058513 0.008924705
0.06747134 0.055527486 -0.006600332 0.12025222 0.37224305 -0.92031223 0.017528504
0.069294035 0.05504214 -0.0062263459 0.32880729 0.23302884 -0.91519576 0.016467368
0.068162121 0.057271712 -0.0060915621 0.012988389 0.30478445 -0.95233279 0.020088784
-0.015535586 0.0028812755 -0.0034553532 -0.25648576 -0.93405581 -0.24850512 0.0015785001
-0.013278555 0.0025962538 -0.0042537055 -0.20697308 -0.93111056 -0.30032542 0.0021062084
-0.010475293 0.0021302579 -0.0045474903 -0.16710481 -0.935987 -0.30984563 0.0020293186
-0.0074980701 0.0016472824 -0.0045534903 -0.12475605 -0.93857485 -0.32173464 0.0023434889
-0.0045184647 0.0012948391 -0.0045412318 -0.087507427 -0.9389528 -0.33273122 0.0025113542
-0.001444953 0.0010547329 -0.0045435601 -0.055679295 -0.93839687 -0.34104422 0.0026087752
0.0015280829 0.00091541192 -0.0045337225 -0.025749203 -0.93915874 -0.34251702 0.0027204452
0.0045052134 0.00088487699 -0.0045399978 0.0049805418 -0.94025964 -0.34042171 0.0026848924
0.0074950489 0.00095502805 -0.0045398553 0.036322914 -0.94211602 -0.33331379 0.0025966016
0.010512263 0.0011053146 -0.0044718073 0.066719644 -0.94319767 -0.32546365 0.0024525225
0.013477367 0.0013992008 -0.0045431466 0.096994124 -0.94566303 -0.31034428 0.0022410213
0.016444162 0.0017819527 -0.0045899884 0.12618442 -0.94830984 -0.29118043 0.0019149386
0.019530445 0.0022504276 -0.0045263884 0.16315371 -0.9462738 -0.27918953 0.0015576137
0.022349998 0.002674028 -0.0041331439 0.19077905 -0.94705099 -0.25825906 0.0016540311
0.024270201 0.0029197957 -0.003453498 0.23418485 -0.94570827 -0.22537373 0.0017248435
-0.024452435 0.0058504529 -0.0033829242 -0.35282853 -0.90448552 -0.23962049 0.0018469171
-0.022341406 0.0053777075 -0.0043611978 -0.32537991 -0.89443475 -0.30678073 0.0023222112
-0.019497054 0.0044299965 -0.0045142635 -0.29635006 -0.90057552 -0.3180258 0.002080925
-0.01660491 0.0036030009 -0.004706414 -0.26707414 -0.90650147 -0.32699603 0.0018612896
-0.013999406 0.003224693 -0.0055012465 -0.20868096 -0.900994 -0.38034469 0.0015442065
0.022999885 0.0032086249 -0.0054119718 0.20050593 -0.93063676 -0.30612507 0.0016564758
0.025590589 0.0035652367 -0.0046215248 0.24552007 -0.92810923 -0.27988032 0.0016194776
0.028552731 0.0043465425 -0.0045823301 0.26174319 -0.92588413 -0.27245039 0.0013220622
0.031459756 0.0052124914 -0.0045298892 0.2837632 -0.92154104 -0.2650294 0.0016686684
0.033642929 0.0057728901 -0.003980346 0.31168056 -0.91285551 -0.26372361 0.0015907075
-0.030829579 0.0086562531 -0.0040872572 -0.35162684 -0.88520074 -0.30459523 0.0017395308
-0.028486863 0.0078694932 -0.0045653125 -0.34665608 -0.88547331 -0.30946174 0.0018782946
-0.025635766 0.0067426339 -0.0046480359 -0.36235291 -0.88276219 -0.2990506 0.001831484
-0.023477653 0.0062188688 -0.0055017676 -0.34914047 -0.88353586 -0.31219444 0.0024799795
0.032640003 0.0060098381 -0.0056788907 0.29068679 -0.91333222 -0.2851761 0.0020460491
0.03485081 0.0064579607 -0.004814202 0.33248055 -0.90073538 -0.27952173 0.0017483368
0.037528541 0.0074076601 -0.0045567327 0.35589853 -0.89431375 -0.2711812 0.0015287803
0.040180095 0.0084444843 -0.0043184045 0.38146347 -0.88904488 -0.25314993 0.0016394737
0.042103074 0.0089217592 -0.0032292232 0.43341318 -0.87979716 -0.19521773 0.0042077713
-0.037114356 0.011498836 -0.0042677005 -0.41114059 -0.86516154 -0.28715673 0.0020568555
-0.034550849 0.010408212 -0.0045353039 -0.39017484 -0.87116218 -0.29806045 0.0014784876
-0.0320432 0.0094268518 -0.004857501 -0.38171613 -0.87250596 -0.30500194 0.001738849
0.041387137 0.0092722103 -0.005256834 0.40505928 -0.87544721 -0.26366493 0.0017429991
0.043484718 0.01005952 -0.0045769573 0.42215592 -0.86871564 -0.25907078 0.0014568828
0.04621679 0.011367855 -0.0042973142 0.45082238 -0.85663694 -0.25086313 0.001594609
-0.042718019 0.014550652 -0.0042612595 -0.49849772 -0.81354803 -0.29939878 0.0018753069
-0.040501762 0.013359468 -0.0045502274 -0.4678815 -0.83805764 -0.28061777 0.0018405091
-0.03827149 0.012354691 -0.005131111 -0.44005692 -0.84720635 -0.29764286 0.0019056877
0.047453862 0.012307462 -0.00511915 0.47478327 -0.84091419 -0.25970009 0.0017292226
0.049594861 0.013371095 -0.0045704674 0.49664673 -0.82837838 -0.25909707 0.0016849721
0.051815648 0.014613581 -0.0042003854 0.50809669 -0.8137874 -0.28211325 0.0015967054
-0.048044674 0.017987572 -0.003100568 -0.56023234 -0.78913772 -0.25179654 0.00064240483
-0.046259388 0.017007127 -0.0044036671 -0.55052614 -0.78238291 -0.2912007 0.0019344483
-0.044048328 0.015655184 -0.00486142 -0.52936751 -0.7963863 -0.29247043 0.0014544368
0.053110186 0.015671635 -0.0047803423 0.54307932 -0.79839557 -0.26005635 0.0012112312
0.055254806 0.017030986 -0.0044079716 0.56741107 -0.77722597 -0.27196401 0.001848937
0.057035066 0.017922428 -0.0034972515 0.58891726 -0.76519996 -0.26008743 0.0017997093
-0.051443309 0.020720089 -0.0039945035 -0.56464958 -0.77174824 -0.29253289 0.00181187
-0.049483489 0.019449275 -0.0045288256 -0.58419436 -0.76205301 -0.27927086 0.0017792309
-0.047546159 0.018326551 -0.0053718942 -0.55901033 -0.76810682 -0.3122811 0.0022151277
0.05643804 0.018219469 -0.005241299 0.5796454 -0.75997472 -0.29402313 0.001937952
0.058388155 0.019527862 -0.0045862789 0.62054569 -0.72741294 -0.29290518 0.0023021577
0.060184762 0.020724365 -0.0037988957 0.64772266 -0.70788497 -0.2816987 0.0023478642
-0.054769699 0.023326868 -0.0042549451 -0.58564681 -0.75412607 -0.29717261 0.0017132914
-0.052748799 0.021946399 -0.0046452866 -0.58180344 -0.76508832 -0.27594319 0.0016377658
-0.050778106 0.02108597 -0.0057771234 -0.59564191 -0.7254774 -0.34480917 0.0031378523
0.059802823 0.02120024 -0.0055412389 0.63960546 -0.68897897 -0.34090015 0.00141407
0.061604392 0.022459714 -0.0046276595 0.67065006 -0.6746403 -0.3083649 0.0018871091
