# .PCD v0.7 - Point Cloud Data file format
VERSION 0.7
FIELDS x y z normal_x normal_y normal_z curvature
SIZE 4 4 4 4 4 4 4
TYPE F F F F F F F
COUNT 1 1 1 1 1 1 1
WIDTH 560
HEIGHT 1
VIEWPOINT 0 0 0 1 0 0 0
POINTS 560
DATA ascii
0.061961304 0.021929489 -0.0017648716 0.69069093 -0.71102321 -0.13187885 0.0017895657
0.063477576 0.02342521 -0.0015913676 0.72820216 -0.67159742 -0.13666981 0.0025916726
-0.06007757 0.026902216 -0.00065951963 -0.67809367 -0.71481937 -0.17094517 0.001229809
-0.058450602 0.025609881 -0.0015787558 -0.64736342 -0.73891103 -0.18689872 0.00096063857
-0.056741711 0.024201656 -0.0018504011 -0.63019544 -0.74998599 -0.20093457 0.0012492747
0.064958088 0.025126688 -0.0016737505 0.76111197 -0.63550794 -0.12976174 0.0021080917
0.066275477 0.026695702 -0.0013181679 0.79282999 -0.59669268 -0.12400934 0.0031156191
-0.063053869 0.029899955 -0.00087365619 -0.74217337 -0.65254956 -0.15283293 0.0011331192
-0.06150591 0.028532011 -0.0015539218 -0.71406615 -0.67778558 -0.1752608 0.00081102923
-0.059909958 0.027087651 -0.0023096926 -0.6843006 -0.70156837 -0.19883271 0.0014062128
0.067478307 0.028484803 -0.0016840213 0.82272714 -0.54633653 -0.15695976 0.0027032846
-0.064169869 0.031536102 -0.0016563215 -0.76109183 -0.62739849 -0.16465253 0.0016850415
-0.062830821 0.030133057 -0.0024618895 -0.73596007 -0.64491367 -0.20603165 0.001390876
0.068718828 0.030507863 -0.0017757757 0.85481155 -0.49413651 -0.15851268 0.0032880921
0.069560148 0.031885803 -0.0014817473 0.88705993 -0.44132778 -0.13547881 0.0035264513
-0.066770785 0.034794774 -0.001605818 -0.80132979 -0.57747775 -0.1561729 0.0026313076
-0.065620586 0.033407692 -0.0018818377 -0.77687335 -0.60635495 -0.16970988 0.0015463008
0.070724197 0.034547172 -0.0017293305 0.91031909 -0.36984852 -0.18582591 0.0027509872
-0.069424309 0.03849636 -0.0011548435 -0.83984935 -0.51622838 -0.1678136 0.0055439561
-0.068307258 0.036952578 -0.0017889492 -0.81908888 -0.54900974 -0.16637795 0.002433893
0.071692854 0.037387781 -0.0020038183 0.92896134 -0.30762178 -0.20591187 0.0037357789
0.072102509 0.038227793 -0.00089944468 0.94997311 -0.24908954 -0.18842918 0.0041739591
-0.070336312 0.040331621 -0.0017845302 -0.86732662 -0.44381371 -0.22533078 0.0038101273
0.071947828 0.039224364 -0.0029657143 0.9224425 -0.22071527 -0.31683537 0.0037155091
0.072439656 0.040519975 -0.001610083 0.97298211 -0.16037741 -0.16608699 0.0036936994
-0.07231243 0.044554386 -0.0010644834 -0.91526473 -0.324532 -0.23868252 0.00387152
-0.071606793 0.043166261 -0.0019599041 -0.89666629 -0.36478585 -0.25083995 0.0036311932
0.039377481 0.042238288 -0.0026124499 -0.47243178 0.81391448 -0.33815891 0.001017188
0.04307111 0.044626914 -0.0023967589 -0.49982828 0.79720992 -0.33856758 0.00091300241
0.072831653 0.043435033 -0.0016874713 0.97257954 -0.095549598 -0.21203622 0.0044482686
-0.072790608 0.046561226 -0.0018579647 -0.89178342 -0.28472731 -0.35164291 0.0051452098
-0.038262028 0.045805011 -0.0021220066 0.44653141 0.82080412 -0.35621664 0.0010041412
0.072919548 0.046356797 -0.0021918279 0.92124826 -0.030142767 -0.3878054 0.0040802318
-0.075054385 0.05080964 -0.00068463205 -0.91697437 -0.38400549 -0.10815625 0.018022874
-0.073957197 0.049677335 -0.0018099162 -0.86448926 -0.31303528 -0.39327767 0.0085053686
0.049299702 0.048636727 -0.0025716585 -0.50163174 0.7796877 -0.37477022 0.0011984949
0.051527351 0.050232872 -0.0021829067 -0.51317495 0.78755999 -0.34117562 0.00044164225
0.073108412 0.049517334 -0.0015855893 0.96148932 0.0064123906 -0.27476746 0.0058564493
-0.075459845 0.052671231 -0.0014511618 -0.83435965 -0.26874015 -0.48127198 0.015054594
-0.074639171 0.051647168 -0.0024526913 -0.82386315 -0.31166729 -0.47340566 0.010664042
-0.052249249 0.053341944 -0.0027784959 0.35950956 0.80420005 -0.47330236 0.00095935352
0.053723659 0.051785249 -0.00193586 -0.51319104 0.78774089 -0.34073353 0.0003276499
0.054547511 0.052107226 -0.0026857273 -0.50077766 0.78569847 -0.36317998 0.0005999594
0.073038518 0.052353185 -0.0020331366 0.86731642 0.025931576 -0.49708122 0.0057233339
-0.075832777 0.054845642 -0.0020670672 -0.80847216 -0.18705377 -0.55801767 0.02118342
-0.060317632 0.056664694 -0.0024437478 0.3511256 0.761105 -0.54537147 0.0033235734
0.058960233 0.055171959 -0.0024220243 -0.4888629 0.70653236 -0.51168841 0.0038829048
0.061164998 0.056751847 -0.0027213772 -0.55347282 0.66302568 -0.50404835 0.0052131386
0.073031619 0.055608355 -0.0021381425 0.84041846 0.00067022722 -0.54193771 0.0082879104
-0.063974172 0.058795631 -0.0026229573 0.34014267 0.68853068 -0.64049077 0.0034030234
-0.062064469 0.057721891 -0.0023758886 0.32932955 0.72837383 -0.60084409 0.0028875265
0.06227782 0.058299243 -0.0017560316 -0.61792415 0.57259989 -0.53879404 0.0097491378
0.063442454 0.059425682 -0.002300794 -0.62012911 0.51672697 -0.5902822 0.0093196481
0.073275283 0.058494125 -0.00193597 0.75586593 -0.0051788022 -0.65470594 0.0072380197
-0.066471487 0.060266543 -0.0023703871 0.20746392 0.6620717 -0.72015256 0.0081683882
0.064734221 0.061760273 -0.0022110753 -0.55388302 0.3542414 -0.75347632 0.01112344
0.073493667 0.061488397 -0.0020051603 0.71472889 -0.035577085 -0.69849616 0.008859436
0.065466382 0.064384155 -0.0018944817 -0.60106534 0.22581106 -0.76663542 0.015150086
0.066279784 0.06523601 -0.0027710842 -0.61389136 0.23492296 -0.7536236 0.013761817
0.073993012 0.064583763 -0.0019291682 0.66400695 -0.0928073 -0.74194443 0.013243663
0.065848678 0.06669756 -0.0014950295 -0.75120103 0.19880968 -0.62942177 0.0072869239
0.066583425 0.067710474 -0.0022855394 -0.65294498 0.15205979 -0.74198431 0.0088087646
0.074474558 0.067403577 -0.0022573995 0.66590726 -0.2025173 -0.71802109 0.018513601
0.075375974 0.068401791 -0.00099077437 0.83213663 -0.25429246 -0.49283263 0.013203934
0.065984696 0.069242224 -0.0003976477 -0.89805049 0.19589156 -0.39386773 0.01504733
0.06718123 0.070498228 -0.0021723588 -0.60762584 0.080855533 -0.79009688 0.010539655
0.074810512 0.069584653 -0.002697655 0.67269784 -0.2654008 -0.69068086 0.012227598
0.075711451 0.070731014 -0.0018955104 0.70648974 -0.2750327 -0.65209603 0.015621522
0.067635149 0.073511094 -0.002122025 -0.66463035 0.094326302 -0.74119431 0.012742858
0.076700971 0.072920479 -0.0018448675 0.72857535 -0.23876509 -0.64200407 0.025532505
0.067956306 0.075818367 -0.0021724887 -0.63865131 0.089062326 -0.76432484 0.015385232
-0.018392168 0.0028951608 0.0022374121 -0.25088531 -0.96799535 0.0064441054 0.0063075777
-0.016426846 0.0025269457 0.0015617684 -0.22810969 -0.9735921 -0.0091816224 0.0042135525
-0.013519506 0.0018907537 0.0014942344 -0.20212474 -0.97922909 0.016003942 0.0016218136
-0.010527606 0.0013459902 0.0014845234 -0.16505876 -0.98370904 0.071218848 0.0039468757
-0.0075296648 0.00091551919 0.0014987489 -0.12235912 -0.98757386 0.098621115 0.0046369103
-0.00451463 0.00058558857 0.0013276665 -0.086405292 -0.99052173 0.10677455 0.004449755
-0.0013848896 0.00038026468 0.001447633 -0.045479145 -0.99492097 0.089799359 0.0045023798
0.00163532 0.00025781107 0.0012183898 -0.020939786 -0.99615496 0.085069232 0.0027931072
0.0045380145 0.00025330053 0.0013755494 0.017247265 -0.98979396 0.14145836 0.0039853207
0.007449822 0.00032421967 0.0013540181 0.044587355 -0.99150908 0.12215473 0.0051705274
0.010520564 0.00052317238 0.0013688464 0.081137493 -0.98685473 0.13976555 0.0060957344
0.013602681 0.00082577701 0.0013386059 0.10897357 -0.98425692 0.13915147 0.00483398
0.016407331 0.0011860436 0.0013825878 0.1398578 -0.98669779 0.082869269 0.0048474451
0.019457111 0.0016730758 0.0013207537 0.17435744 -0.97878766 0.10758328 0.0028758254
0.022488885 0.0022659863 0.0013472731 0.19686122 -0.97581476 0.095032811 0.002462914
0.024908563 0.0027831106 0.0011481479 0.21826223 -0.97257477 0.08037366 0.002741538
-0.02761771 0.0057971715 0.0021128082 -0.3393912 -0.93664855 -0.086620085 0.0093722269
-0.025413662 0.0052854423 0.0015595458 -0.32358932 -0.93890095 -0.11728167 0.0046396679
-0.022468111 0.0043203845 0.0014749086 -0.32009894 -0.94513535 -0.065236911 0.0022148809
-0.019642623 0.0034439713 0.0013815177 -0.2899515 -0.95564979 -0.051589899 0.0024614406
-0.017776443 0.0030934394 0.0006150775 -0.27270451 -0.96090776 -0.047839638 0.0028857568
0.026231267 0.0031781108 0.0016908129 0.25975916 -0.959737 0.1069115 0.0022840602
0.028532155 0.0037703572 0.0013705905 0.27781188 -0.95714968 0.081761874 0.0022569157
0.031480018 0.0046662926 0.0013655046 0.29524812 -0.95098907 0.091915324 0.0017919553
0.034204334 0.0055779102 0.0013285509 0.3161518 -0.9458071 0.074142292 0.0021547838
-0.036198292 0.008940571 0.0023144127 -0.38016215 -0.91943431 -0.10058452 0.01233313
-0.034256883 0.0084472327 0.0018163086 -0.38014629 -0.9138394 -0.14278048 0.0053236154
-0.031480212 0.0076061753 0.0014082128 -0.36717826 -0.91813022 -0.14905411 0.0038329319
-0.028701378 0.0066468641 0.0012165145 -0.3601037 -0.92135358 -0.14640005 0.0043284758
-0.026542455 0.0062201577 0.00058339763 -0.32399139 -0.9350093 -0.14417766 0.0034906764
0.035678014 0.0061509754 0.0016452563 0.36074221 -0.92843443 0.088738307 0.0021900453
0.037405048 0.0067955763 0.0013941649 0.37293085 -0.923895 0.085677333 0.0018991655
0.04049537 0.0080889193 0.0013512498 0.38730401 -0.91761345 0.089336887 0.0018100659
0.042319946 0.0088487444 0.001112095 0.41233641 -0.90446174 0.10921391 0.0024808194
-0.042209554 0.011932477 0.0025439332 -0.48854965 -0.86029625 -0.14563489 0.012347708
-0.040213414 0.011295176 0.0017026427 -0.45104796 -0.87364984 -0.18245997 0.0076261237
-0.037543643 0.010215204 0.0013959004 -0.4396874 -0.87511796 -0.20209771 0.0039534317
-0.03493144 0.0094707785 0.00075964257 -0.39990956 -0.8961426 -0.19235592 0.0035942497
0.043774169 0.0096210316 0.0013685591 0.44595206 -0.89122033 0.082783729 0.0020583279
0.046482898 0.011002926 0.0013809225 0.45536608 -0.88511729 0.095964186 0.001943115
0.048241522 0.01188642 0.00087918137 0.48334822 -0.86926556 0.10369121 0.0021665362
-0.045774814 0.014434385 0.0019856105 -0.54341972 -0.81418049 -0.20446308 0.0062842234
-0.043486103 0.013418726 0.0014374888 -0.52541113 -0.81691647 -0.23788786 0.006866069
-0.041078143 0.012530257 0.00078733993 -0.47299209 -0.85138381 -0.22676876 0.0055887233
0.047948521 0.01204457 0.0023787196 0.49021384 -0.86101836 0.13541709 0.0035174009
0.049542174 0.012716877 0.0012950718 0.50808471 -0.85813951 0.0737997 0.0019481712
0.052042294 0.014232234 0.0012606853 0.5289731 -0.84549266 0.073004782 0.0018213172
-0.05113823 0.017799933 0.0028235596 -0.54683954 -0.83348089 -0.079222426 0.014391978
-0.049130842 0.017086353 0.0017706365 -0.57742923 -0.79122341 -0.20134793 0.0048955074
-0.046814103 0.015897786 0.0011951042 -0.55755657 -0.79908586 -0.22492775 0.0049325405
-0.044776749 0.015131739 0.00051741273 -0.52274156 -0.81984717 -0.23364921 0.0053635421
0.053611092 0.015282361 0.0015450326 0.55072963 -0.83001089 0.088197283 0.0020616455
0.055549048 0.016609641 0.0014283728 0.58302408 -0.80804509 0.084534429 0.0020447341
0.057295401 0.017829202 0.0011741524 0.59834218 -0.79348665 0.11120089 0.0024192207
-0.054426894 0.020716455 0.0023676741 -0.59388107 -0.76704407 -0.24279337 0.0052823308
-0.052348632 0.01969278 0.0016760104 -0.59030604 -0.76365298 -0.26148215 0.0047346423
-0.050157573 0.018606864 0.0010140428 -0.59266382 -0.77235657 -0.22850579 0.0036916139
0.058675427 0.019005494 0.0014996973 0.6285606 -0.77349073 0.081385791 0.0020479411
0.060482129 0.020469917 0.0012516299 0.66293097 -0.74325073 0.09000469 0.0021418061
-0.05755645 0.023517104 0.0022920065 -0.66601276 -0.72365832 -0.18095759 0.0051573366
-0.055625621 0.022446824 0.0015508939 -0.6138972 -0.75146455 -0.24172565 0.0056048823
-0.053529099 0.021378266 0.00088876369 -0.59366393 -0.76517564 -0.24913719 0.0041278182
0.061898399 0.021832401 0.0013146992 0.69466734 -0.71557403 0.073424004 0.0020508547
0.063476808 0.023364242 0.0011436288 0.72854304 -0.67788714 0.098458208 0.0026382185
-0.060459659 0.02648058 0.0022828495 -0.71946818 -0.67881596 -0.14688264 0.0021143083
-0.058675196 0.025186017 0.0015006062 -0.67510045 -0.71211916 -0.19268028 0.0028166312
-0.056891978 0.024102286 0.00069126958 -0.62157416 -0.75055093 -0.22431876 0.0034609269
0.064924441 0.025085496 0.0014629955 0.76202554 -0.64071071 0.093844578 0.0020118407
0.066183068 0.026557947 0.0012921854 0.79344457 -0.59635079 0.12170238 0.0036849538
-0.063171715 0.029650314 0.0023059316 -0.77526611 -0.62769753 -0.070414752 0.0025924062
-0.061694976 0.028203398 0.0016653511 -0.73282254 -0.66414797 -0.14791435 0.0011786129
0.067405328 0.028349956 0.0013582244 0.82385528 -0.55547023 0.11276241 0.0037942885
-0.064374179 0.031404253 0.001716417 -0.78926557 -0.60913408 -0.077559233 0.0010718758
0.068702191 0.03045149 0.0014005989 0.85292953 -0.51808178 0.064052358 0.0034696173
0.069579184 0.031866912 0.001152212 0.88400018 -0.46587539 0.038778529 0.003279757
-0.066830382 0.034693547 0.0016537709 -0.81614619 -0.5776915 -0.01334054 0.0010599464
-0.065797299 0.033285126 0.0013840451 -0.8093707 -0.58638573 -0.032723997 0.00079853437
0.070816725 0.034527048 0.0010181671 0.92171472 -0.38783655 -0.0049897167 0.0026569983
-0.069385923 0.038424358 0.0011349055 -0.85957634 -0.50945538 0.039796386 0.0027166232
-0.068364017 0.036899459 0.0014818796 -0.83425921 -0.55071104 0.026998729 0.0010001907
0.071693175 0.036947403 0.0011726127 0.94316882 -0.33130133 0.025920944 0.0050228047
0.072178125 0.038485516 0.00092640216 0.97233796 -0.23351854 0.0052908743 0.0046761027
-0.07033027 0.040126458 0.0011198721 -0.87950677 -0.47538364 0.021870887 0.0033432862
0.072457999 0.039953381 0.00093889516 0.98381168 -0.16865259 0.060589191 0.0038117499
-0.072259516 0.044217113 0.00066480419 -0.93882418 -0.34437016 -0.0042787343 0.0059837485
-0.071687363 0.042976383 0.00093571149 -0.91875148 -0.39475051 -0.0082371635 0.0039322162
0.072894759 0.043174267 0.0014715567 0.99248248 -0.11295124 0.047122691 0.0037887164
-0.072984956 0.046542324 0.0010678866 -0.94820875 -0.31480813 0.042378552 0.0058245654
0.073143214 0.046345495 0.0012405455 0.98863798 -0.031930335 0.1468859 0.0058987346
-0.075148761 0.050923701 0.00054711272 -0.88253033 -0.42373773 0.20392813 0.021929096
-0.074162282 0.049647424 0.0006618441 -0.91307688 -0.36481544 -0.18220937 0.0070359209
0.073237024 0.049492374 0.001048549 0.99898672 -0.034977715 -0.028320152 0.0074910275
-0.0755907 0.052478664 0.0006062247 -0.92301887 -0.36288318 -0.12787418 0.010612125
-0.074771322 0.051411405 0.0015115886 -0.92318517 -0.38431847 0.0053292057 0.0078496663
0.073295504 0.052018244 0.0010272398 0.98656678 -0.023693899 -0.16163085 0.0086146267
-0.076326385 0.05492197 0.00083918584 -0.96693653 -0.24210246 0.080125928 0.029082393
0.073341392 0.055410281 0.0012841648 0.97914624 -0.060626626 -0.19389977 0.010099685
0.062348727 0.058884058 4.8534675e-06 -0.69423199 0.6314671 -0.3453857 0.013513478
0.073623091 0.058580495 0.0010291454 0.95493144 -0.079686552 -0.28593007 0.0055008354
0.063988417 0.061428905 0.00079090457 -0.85312229 0.45717621 -0.25134107 0.010372528
0.073997237 0.061706506 0.00092038361 0.92811769 -0.089086346 -0.36147097 0.010611709
0.065073326 0.06480141 0.00039749907 -0.87915593 0.25998732 -0.39936385 0.0074735209
0.074504167 0.064530738 0.0007693544 0.94133186 -0.17585267 -0.28804553 0.021207364
0.065611601 0.066946745 0.00048494115 -0.86695141 0.23321486 -0.44046125 0.01275021
0.066041812 0.068974182 1.1145801e-05 -0.84792066 0.19056228 -0.49468848 0.006149543
0.074565634 0.067110837 0.0018717732 0.97119153 -0.2362278 0.031362087 0.018065484
0.075464599 0.068245634 0.00037448778 0.90140784 -0.2638016 -0.34332585 0.018885169
0.066591904 0.070991568 0.00037207844 -0.90903956 0.20392326 -0.36340392 0.0059253462
0.076129891 0.070843033 0.0010225165 0.94982356 -0.29297155 -0.109558 0.016684774
0.067169286 0.074117996 0.00045684993 -0.91074425 0.17691226 -0.37315816 0.0098767634
0.077031873 0.072913118 0.0010536055 0.92697608 -0.28608453 -0.24263333 0.039608102
0.067458473 0.075886883 0.00057152158 -0.84487098 0.16510624 -0.50885451 0.021123149
-0.018324388 0.0029214325 0.0032522583 -0.24622665 -0.9530443 0.17629278 0.0073671788
-0.016285889 0.0026711801 0.0039998433 -0.20274623 -0.96219862 0.18184559 0.0064104162
-0.013588651 0.0022343388 0.0042666947 -0.16848344 -0.95656019 0.23791982 0.0035165024
-0.010573751 0.0016986905 0.0041310624 -0.14234518 -0.96129435 0.23590466 0.0031295086
-0.0074678594 0.0014028114 0.0044073504 -0.10155179 -0.94655311 0.30614448 0.0032475009
-0.0045203683 0.0011267585 0.004297399 -0.065476879 -0.95524466 0.28847963 0.0039167344
-0.0015418389 0.0010100623 0.004298788 -0.031768333 -0.95245779 0.30300987 0.0027869553
0.0015545627 0.0010540985 0.0045354301 -0.0020632208 -0.93811411 0.34632018 0.0021757835
0.0044590929 0.0010781751 0.0044764271 0.026037185 -0.93738908 0.34730923 0.0030084522
0.0074928268 0.0011479894 0.0043276544 0.056961801 -0.9292537 0.3650246 0.0018302829
0.010429638 0.001360057 0.0043727262 0.071555495 -0.92647523 0.36949071 0.0018888023
0.013363026 0.0015647809 0.0042447182 0.1018068 -0.92232829 0.37275434 0.0030341919
0.016502496 0.0019405795 0.0042363526 0.12013187 -0.92781103 0.35317847 0.0035259235
0.019495558 0.0023164323 0.0040450157 0.15248708 -0.93306094 0.32579896 0.0040658051
0.022204222 0.0026779519 0.0036414454 0.20178318 -0.94309783 0.26429141 0.0034763061
0.024429254 0.0029435854 0.0032948786 0.21574709 -0.91413116 0.34324533 0.0037931148
-0.027577212 0.0058572884 0.0035466924 -0.29752687 -0.94981009 0.096636698 0.012557535
-0.025278887 0.0053218594 0.0041840398 -0.28522345 -0.93131137 0.22650985 0.006537498
-0.022496983 0.0044905273 0.004369027 -0.2819407 -0.92939657 0.23818383 0.005880198
-0.019500483 0.003643034 0.0044362736 -0.28867379 -0.92577314 0.24415497 0.0061730281
-0.016781006 0.0032799549 0.0052952506 -0.22253868 -0.92711335 0.30155808 0.0043725902
-0.014388817 0.0030350625 0.00593179 -0.16581419 -0.91556829 0.36638838 0.003418474
0.02031273 0.0031849265 0.0056572179 0.15831734 -0.87232941 0.46257639 0.0040774103
0.022776674 0.0033237461 0.0050095362 0.19983877 -0.9080441 0.36813098 0.0040313955
0.025567314 0.0036747672 0.0042575784 0.23533361 -0.91896242 0.31642738 0.0025886355
0.02841277 0.0044089817 0.0042193579 0.25794527 -0.92140019 0.29066491 0.0026516295
0.031515907 0.0053732968 0.0043437239 0.28161049 -0.91147852 0.2998372 0.0025644493
0.033533875 0.0057689967 0.0035822361 0.30819657 -0.90822858 0.28308278 0.0025989083
-0.034161653 0.0084730871 0.0039763954 -0.36034027 -0.93034703 0.067892209 0.010987057
-0.031445388 0.0075086025 0.0042456868 -0.3444562 -0.92378467 0.16724762 0.0073125754
-0.028801663 0.0066476022 0.0045198011 -0.34335467 -0.92146397 0.18169141 0.0085072732
-0.026478941 0.0062352545 0.0055844262 -0.28607419 -0.91899163 0.27132279 0.0059068273
0.032564815 0.006187215 0.0055656023 0.27428499 -0.88734841 0.37064892 0.0036878793
0.034699645 0.0064772107 0.0043834527 0.32647708 -0.89936167 0.29079431 0.0023870729
0.037454579 0.0074851811 0.0043236283 0.34914321 -0.88306767 0.31351337 0.0025508131
0.04021534 0.0085707372 0.0041407966 0.38155875 -0.88712746 0.25964937 0.0020642166
-0.042233776 0.011925827 0.0030858454 -0.45135504 -0.88981932 0.067083448 0.017207161
-0.040226698 0.011260337 0.0040633171 -0.44319749 -0.89572048 0.035508908 0.014700616
-0.037582405 0.010045102 0.0042676246 -0.42611858 -0.89536285 0.12941459 0.006099137
-0.035290688 0.0093230614 0.0051338966 -0.38784507 -0.89570123 0.21747535 0.011198076
0.041336969 0.0093077002 0.0048177554 0.3983348 -0.87269276 0.282377 0.0020466382
0.04351097 0.010118091 0.0041373861 0.42278248 -0.87420434 0.23879226 0.0018133033
0.046161249 0.011433032 0.0041048815 0.44879767 -0.8515144 0.27111581 0.0018878722
-0.045825478 0.014484052 0.0040604533 -0.52901459 -0.8475666 0.042123824 0.018791221
-0.043550711 0.013167003 0.004263741 -0.52148241 -0.8450858 0.11783953 0.0073222602
-0.04150847 0.012272479 0.0050908714 -0.4783307 -0.85803938 0.18699798 0.015842309
0.047292043 0.012375439 0.0049920143 0.47131348 -0.82988101 0.29859853 0.0017889653
0.049537998 0.013426619 0.0043212846 0.48781633 -0.83228779 0.26331005 0.0017538433
0.051656466 0.014535598 0.0038840058 0.50819159 -0.80484301 0.3065438 0.0016640357
-0.051084682 0.01791971 0.0034161389 -0.59574407 -0.8029725 -0.018005097 0.018738667
-0.049241364 0.016836794 0.0040261191 -0.58897913 -0.8080759 0.010816338 0.016132589
-0.047136508 0.015535119 0.0044835303 -0.58049864 -0.8129862 0.045550298 0.0093037616
0.052998122 0.015692867 0.004523572 0.53583831 -0.79935724 0.27185509 0.0014829878
0.055232499 0.017119849 0.0042342627 0.55698568 -0.7727766 0.30427516 0.0018305817
0.057032045 0.017815396 0.0031122337 0.57508421 -0.79364103 0.19852491 0.0041971765
-0.054449517 0.020618051 0.0038292068 -0.60376543 -0.79703742 0.014092309 0.021752961
-0.052592039 0.019363234 0.0041515389 -0.60562217 -0.79575229 -0.00045439185 0.014389415
-0.050575912 0.018272439 0.0052839918 -0.57617283 -0.79820812 0.17575152 0.013721376
0.056621876 0.018419366 0.0048846984 0.58736014 -0.7447263 0.31684503 0.0021342395
0.058438033 0.019592874 0.0042210738 0.61295086 -0.73103034 0.29980975 0.001782043
0.060208995 0.020690955 0.0035587901 0.63690388 -0.70749569 0.30627328 0.0020819623
-0.057633176 0.023307895 0.003937196 -0.68561876 -0.7277742 0.016477348 0.018975489
-0.055934392 0.02199652 0.0041948552 -0.65596175 -0.75406492 0.033169307 0.0098436093
-0.053975951 0.021081446 0.0058564451 -0.58638322 -0.746683 0.31403697 0.0024919838
0.059611518 0.021259533 0.0055512968 0.63173932 -0.68940139 0.35444492 0.0028869302
0.061452232 0.022370985 0.0043453532 0.66349101 -0.68031311 0.31137392 0.0021591941
0.063171484 0.023708247 0.0035125862 0.70499235 -0.6489659 0.28605765 0.0028745504
-0.060550645 0.026286649 0.0041056564 -0.72878194 -0.68293905 0.049710609 0.01162318
-0.05899974 0.024792658 0.0042715496 -0.69480038 -0.71765709 0.047124844 0.011053815
0.062753387 0.024230272 0.0053784139 0.69129896 -0.63218766 0.34992084 0.002624633
0.064247534 0.025379356 0.0042799804 0.72735637 -0.61047006 0.31349471 0.0017530444
-0.063340485 0.029564368 0.003814823 -0.78929752 -0.61336958 0.028054435 0.0067637763
-0.061984271 0.027957797 0.0040195445 -0.75833333 -0.65185815 -0.003397688 0.0058409893
0.065362193 0.027474208 0.0054267496 0.75663096 -0.57100511 0.31853217 0.0019431085
0.066899993 0.0287723 0.0040328847 0.79410517 -0.54200721 0.2750003 0.0032249661
-0.066010304 0.032993041 0.0040556435 -0.81220597 -0.54116011 0.21786976 0.014122297
-0.064495787 0.031268876 0.003898788 -0.8029055 -0.59566557 0.022917364 0.0046353899
0.068249255 0.031145845 0.0044195363 0.82277018 -0.46727213 0.32358307 0.0019425262
0.069250017 0.032192186 0.0034469303 0.85336411 -0.44564572 0.27049875 0.0032678875
-0.066706635 0.034660619 0.0038920087 -0.83214211 -0.54782379 0.086189039 0.0038764374
-0.065868936 0.033444151 0.0041069146 -0.82648021 -0.5549407 0.094716996 0.0051987916
0.0687797 0.033516422 0.0058531109 0.77717406 -0.35516185 0.519481 0.0016208292
0.069952697 0.034321543 0.0040020668 0.88614988 -0.38251215 0.2615777 0.0036277445
-0.069178596 0.038714249 0.0033757354 -0.85757613 -0.46085134 0.22842763 0.0037136674
-0.06830515 0.03749479 0.0039209258 -0.8499608 -0.50438887 0.15217906 0.0022509955
0.070928082 0.037475593 0.0044771791 0.88652253 -0.25995618 0.38275397 0.0027544978
-0.069756478 0.040335827 0.0038102346 -0.87743324 -0.41263232 0.24463335 0.0028600148
-0.068797529 0.039818916 0.0054760873 -0.83039522 -0.33881173 0.44232398 0.0040955101
0.071518093 0.040408053 0.0046309172 0.91414124 -0.1701985 0.3679378 0.0030496181
0.072144017 0.040749781 0.0032620516 0.94691479 -0.17720877 0.26823404 0.0031088442
-0.070816681 0.043396443 0.0042026076 -0.84819281 -0.31268603 0.42754695 0.0022443458
0.071786672 0.043359235 0.004903147 0.92584646 -0.10818063 0.36208478 0.0026272375
0.072437949 0.043407034 0.0033947648 0.95262915 -0.083825447 0.29235426 0.0044034268
-0.072389886 0.047179475 0.0034550857 -0.85145873 -0.28038603 0.44317243 0.0028872471
-0.071321934 0.046274245 0.0046797348 -0.85112518 -0.26953903 0.45048261 0.0027354879
0.071755275 0.047001094 0.0052099647 0.93651587 -0.032926481 0.34907585 0.0015602023
0.072606549 0.046482541 0.0034420411 0.96687275 -0.060186144 0.24806187 0.0076487483
-0.072938636 0.050037045 0.0038704998 -0.85755283 -0.33239925 0.3925733 0.0063417424
-0.071970157 0.048318047 0.0046166736 -0.80965781 -0.27935368 0.51615477 0.0041780784
0.072533384 0.049422789 0.0036028712 0.98474771 -0.030379554 0.17131551 0.0050377203
-0.073989138 0.052206486 0.0035993233 -0.85449064 -0.35664269 0.37769261 0.0052569169
0.072554804 0.052504361 0.0033743074 0.99068016 -0.051579092 0.12606557 0.004107092
-0.074884541 0.054505557 0.0033921129 -0.90810835 -0.29421449 0.29795486 0.012526511
0.073534995 0.067879379 0.0032066456 0.9461084 -0.153446 0.28518996 0.032416064
0.073883556 0.070753768 0.0037027739 0.84485847 -0.27011579 0.46179184 0.031154612
0.075067617 0.071225986 0.0031390453 0.84486634 -0.27009928 0.46178707 0.031153277
0.073918842 0.073276751 0.0045215944 0.87993878 -0.27249911 0.38916841 0.030499427
0.075664788 0.073097408 0.0034453801 0.95132047 -0.2581903 0.16830672 0.026031967
-0.012703329 0.0028668947 0.0062396238 -0.16264091 -0.8765679 0.45296445 0.00085056882
-0.010381451 0.0026625965 0.0065286271 -0.12371525 -0.88745445 0.44398105 0.0012185508
-0.0073827412 0.0025149914 0.0069171297 -0.081585594 -0.88345253 0.46136245 0.0014864748
-0.0046035657 0.00232086 0.0069666565 -0.0510187 -0.89120781 0.45071706 0.0013751521
-0.0016033889 0.0022477983 0.0070683151 -0.025927948 -0.89440137 0.44651312 0.0015713446
0.0015860831 0.0022661374 0.0071522309 0.0067386995 -0.88695276 0.46181089 0.0010931528
0.0047042184 0.0022500898 0.0069722147 0.038303278 -0.88540274 0.46324381 0.0013625042
0.0075286883 0.0024040523 0.0069519314 0.061042227 -0.87417221 0.48176432 0.0010659489
0.010289522 0.0025735474 0.0067669512 0.085432149 -0.87724704 0.47237584 0.00094452512
0.013218392 0.0026842512 0.0063788239 0.10856403 -0.86933404 0.4821538 0.0014982249
0.015774682 0.0028171258 0.0061926562 0.1205129 -0.84596926 0.51943493 0.00056773826
0.018633552 0.0029488371 0.0060887551 0.14846832 -0.8361448 0.5280332 0.0015124389
-0.024511589 0.00588017 0.006230697 -0.28708029 -0.86040318 0.42105973 0.00087043538
-0.022297395 0.0055335527 0.0069039986 -0.26536784 -0.8752135 0.4044517 0.0012480684
-0.019594606 0.0048847115 0.007108666 -0.23458365 -0.87350219 0.42657277 0.0014197461
-0.016481362 0.0042661717 0.0073808855 -0.19578947 -0.87081277 0.45094517 0.001111327
-0.013508924 0.0037051865 0.0074661174 -0.16438983 -0.86048293 0.48222923 0.00083194271
-0.010492733 0.003473683 0.00791487 -0.12194171 -0.86942178 0.47878584 0.0013980273
-0.0077009182 0.0033202127 0.0082325721 -0.087445669 -0.85143614 0.51711679 0.0013739744
-0.004772292 0.0032497018 0.0085117538 -0.047680311 -0.84627563 0.5306074 0.0013902979
-0.00099265587 0.0033094902 0.0087655978 -0.015761875 -0.84821844 0.52941185 0.0012053663
0.0010301925 0.0033345807 0.008866787 -0.00034012398 -0.83059096 0.55688274 0.00083624682
0.0046636835 0.0031856478 0.0085596377 0.02931769 -0.83110809 0.55533755 0.0013982889
0.0079549244 0.0031919654 0.0082114013 0.071777485 -0.84148288 0.53549469 0.0010178392
0.010724712 0.0034341079 0.0081327558 0.094745442 -0.84873086 0.52026838 0.00097434863
0.013628868 0.0035913736 0.0077853403 0.11875117 -0.84352404 0.52379906 0.00082715193
0.016396455 0.0039842781 0.0077097723 0.12920463 -0.83365327 0.53696227 0.00070804701
0.019365463 0.0043006116 0.0074524679 0.1516425 -0.80628806 0.57175529 0.00092055782
0.022487264 0.0046102065 0.0071206205 0.16628344 -0.80162674 0.57423377 0.0015913652
0.025524948 0.0050974675 0.0069701872 0.1929739 -0.81102902 0.55226171 0.0023930056
0.02821821 0.0054502068 0.0065703252 0.20734532 -0.84170681 0.49853536 0.0053409291
0.03050573 0.0058575864 0.0062410007 0.26836655 -0.82546401 0.49657679 0.0024985899
-0.033588909 0.0089584403 0.0061945734 -0.38380012 -0.85783583 0.34178233 0.0058405888
-0.031244153 0.0085399682 0.0069128587 -0.31328809 -0.84150487 0.44013646 0.0010962188
-0.028444314 0.0077681653 0.0073445342 -0.29424468 -0.86414087 0.40826544 0.0021162361
-0.025541874 0.0068894266 0.0075032525 -0.27266139 -0.84333611 0.46307665 0.00095604174
-0.022703798 0.0064423732 0.0082863113 -0.24832676 -0.83536172 0.49041274 0.0009064906
-0.020333406 0.0061013554 0.008791009 -0.22352533 -0.81494266 0.53470075 0.00073473796
0.022685852 0.0060955924 0.0088106552 0.173768 -0.75753862 0.62923759 0.00061577611
0.025902759 0.0064933174 0.0085403807 0.17930415 -0.73439956 0.65460467 0.00087410735
0.028903905 0.0064322017 0.0076341871 0.20849118 -0.78511971 0.5831967 0.002285128
0.031585302 0.0068245111 0.0071365749 0.26784936 -0.8230049 0.50091881 0.0023593623
0.03440072 0.0077271541 0.0071230079 0.28344285 -0.81734538 0.50160408 0.0022017143
0.037245169 0.0084747691 0.006686477 0.32377827 -0.83442962 0.44597626 0.0028725101
0.039277274 0.0087744649 0.0061223763 0.32377025 -0.79978573 0.50548553 0.0029639031
-0.039297413 0.011700133 0.0063712946 -0.41405705 -0.82800663 0.37810284 0.0049119606
-0.03732023 0.01116976 0.007163445 -0.37622875 -0.81684363 0.43728521 0.00093594508
-0.034537323 0.010132388 0.0074723288 -0.3451061 -0.83030039 0.43761066 0.00092873827
-0.031902395 0.0094675729 0.0081583662 -0.31184813 -0.82614237 0.4692969 0.0011023482
-0.02958829 0.00902298 0.008882748 -0.2828936 -0.78509134 0.55100173 0.00073831796
0.03538524 0.0093645891 0.0087986449 0.28108445 -0.76579171 0.57840687 0.0013568846
0.03780397 0.0095974468 0.0080099413 0.31404042 -0.80076092 0.51005936 0.0023482812
0.040530991 0.010237675 0.0072785611 0.35741863 -0.80982202 0.4652313 0.0018224915
0.043248504 0.011220707 0.0068646111 0.39263648 -0.80377817 0.44696447 0.001557179
0.045146991 0.011934593 0.0065467134 0.40730706 -0.79512167 0.44931352 0.0012455285
-0.045100871 0.014915787 0.0063331579 -0.50299078 -0.77420771 0.38419074 0.0039948779
-0.0432234 0.014255199 0.0071165976 -0.46732429 -0.77166963 0.43143257 0.00099489989
-0.040597398 0.012975032 0.0074815103 -0.42458969 -0.79207861 0.43856022 0.00097674434
-0.038301639 0.01235537 0.0084357774 -0.37270713 -0.78407073 0.49630886 0.00074347376
0.04164857 0.012050387 0.0087509882 0.29310918 -0.71012211 0.64016694 0.0061415946
0.043813739 0.012510843 0.0083275856 0.38325241 -0.77745259 0.49868336 0.0019765052
0.046571873 0.013231857 0.0072997976 0.42593804 -0.77983826 0.45872548 0.0018562636
0.049083672 0.014315804 0.0067616943 0.46664631 -0.76972991 0.43561128 0.0011367985
-0.048595615 0.0175822 0.0067858486 -0.5242244 -0.74119478 0.41930783 0.0010303494
-0.046434373 0.016439058 0.00737574 -0.49821281 -0.75194329 0.43170047 0.00093436305
-0.044165343 0.015491088 0.0082549872 -0.46580476 -0.75664908 0.45881167 0.00093722792
0.047794603 0.015269628 0.0088852122 0.37736243 -0.63906658 0.67021751 0.0022783997
0.049865872 0.015682587 0.0080431057 0.46130586 -0.74349511 0.48416108 0.001918437
0.052321143 0.016644064 0.0071492051 0.49819383 -0.74420559 0.44492814 0.0015232795
0.054245804 0.017453974 0.0064475057 0.5135178 -0.74032098 0.43384838 0.001968181
-0.052056972 0.020302031 0.0070773624 -0.55115622 -0.72349352 0.4156729 0.00088854355
-0.049792498 0.018968228 0.0076283859 -0.53210968 -0.73135912 0.42658317 0.00084470207
-0.047830965 0.018112756 0.0085067386 -0.51069206 -0.73246306 0.45021275 0.00070944935
0.053457826 0.018594405 0.0086679403 0.45959872 -0.634826 0.62109977 0.0010488055
0.055532221 0.019016845 0.0072160494 0.54351407 -0.70308852 0.45854005 0.0016603335
0.057730041 0.020375788 0.0066677108 0.58010465 -0.68509626 0.44059253 0.0010877886
-0.05709644 0.023734128 0.0061704568 -0.62362146 -0.69487071 0.35812154 0.0070861387
-0.055175036 0.022841411 0.0072143935 -0.59181184 -0.69969314 0.40023533 0.00063344365
-0.053051118 0.02160012 0.0079758223 -0.55171978 -0.71516585 0.4291189 0.00097914459
0.05645673 0.021122344 0.0087381508 0.50642627 -0.59381771 0.62523031 0.0015052757
0.058892466 0.021820195 0.0071993237 0.59333915 -0.67150015 0.44388753 0.0020229751
0.060724288 0.023045704 0.0065608635 0.63517284 -0.64300722 0.42789862 0.0016629577
-0.060206529 0.026846476 0.0061623957 -0.69510698 -0.6190449 0.36552668 0.0098018907
-0.058256175 0.025556795 0.0070442883 -0.65528321 -0.66089517 0.36581627 0.0028074265
-0.056468409 0.02445573 0.0079131424 -0.61123317 -0.66977423 0.42165932 0.0025355436
0.059251476 0.024252122 0.0088606402 0.5599435 -0.58225274 0.58944482 0.00098087662
0.062016677 0.025315825 0.0075439299 0.64103144 -0.56603944 0.51834166 0.0021753621
0.063647665 0.026258297 0.0067159534 0.66223383 -0.55054653 0.50827634 0.0020140538
-0.061371706 0.028805008 0.006797397 -0.71550149 -0.58470738 0.38232818 0.0047945059
-0.0594653 0.027646029 0.0080780853 -0.65540099 -0.58932239 0.47238606 0.0019757904
0.062830538 0.027290154 0.0081717074 0.64267087 -0.53761411 0.5458436 0.0023045533
0.064785458 0.028503021 0.0073413677 0.6894331 -0.47488469 0.54696119 0.0022402089
0.066288896 0.02961768 0.006425384 0.72461063 -0.4521471 0.52009857 0.0016580668
-0.063995093 0.032196563 0.0065885247 -0.75159985 -0.52706867 0.39660591 0.0034037316
-0.062212195 0.030818414 0.0077846255 -0.72101837 -0.51130414 0.46765432 0.0044679674
0.065162569 0.030803418 0.0085831881 0.69763303 -0.42464873 0.57704562 0.0026827352
0.067011498 0.031397071 0.0067768618 0.75771272 -0.41266757 0.50554603 0.0028651049
-0.066240311 0.035420869 0.0062870653 -0.75189555 -0.41102764 0.51547009 0.0017809811
-0.064655893 0.034638911 0.0077240444 -0.7486456 -0.44520357 0.49124688 0.0044766637
0.067955226 0.034183174 0.0074084527 0.76664829 -0.33029342 0.55059665 0.0017526364
0.069262572 0.035395205 0.0063024592 0.8005507 -0.3221499 0.50530988 0.0021272097
-0.066736855 0.037496157 0.0069926144 -0.76398247 -0.37677053 0.52380794 0.0020692828
-0.065399006 0.037078872 0.0083715497 -0.73527676 -0.3415857 0.58539498 0.0027227444
0.068683892 0.036967158 0.007819877 0.78137714 -0.25702322 0.56867284 0.0022923604
0.06961973 0.03755739 0.0068198266 0.83266306 -0.25274849 0.49273774 0.0023216461
-0.067521751 0.040147208 0.0073214867 -0.76445562 -0.3246353 0.55697346 0.0021793041
0.070136614 0.040176921 0.0069669238 0.82278073 -0.15809874 0.54592741 0.0016055303
-0.069363177 0.042880744 0.0061944355 -0.83137923 -0.29769179 0.4692421 0.0019031393
-0.068550065 0.042620324 0.007041805 -0.78006452 -0.2766338 0.56122452 0.0012071624
0.07028266 0.043470003 0.0072681317 0.83848327 -0.093217544 0.5368951 0.0020058192
-0.070159592 0.045348663 0.0060402742 -0.82005924 -0.23899637 0.5199843 0.003103507
-0.070844606 0.049397022 0.0060318355 -0.80963326 -0.27943158 0.51615119 0.0042039622
-0.018475037 0.0058655255 0.0092586838 -0.20458238 -0.80541104 0.55629039 0.00066580158
-0.015877698 0.0055934298 0.0096455468 -0.16652763 -0.79450643 0.58397603 0.00087935437
-0.013304139 0.0052464902 0.0098129297 -0.14800814 -0.80748898 0.57101238 0.00080876576
-0.010772306 0.0048349584 0.0098265614 -0.10771012 -0.79618192 0.59539306 0.0010458555
-0.0072948509 0.0046397452 0.010053563 -0.079083808 -0.80636245 0.58611041 0.00090927992
-0.004387931 0.0043420917 0.0099252714 -0.047663845 -0.78148073 0.62210602 0.00098286592
-0.0016191802 0.004031253 0.0096810292 -0.027463116 -0.81971484 0.5721131 0.0011136163
0.0017642441 0.0040462133 0.0097021041 0.013512534 -0.80219638 0.59690738 0.0012770774
0.0045369077 0.0041622934 0.0097809881 0.033645432 -0.8078782 0.58838832 0.0010260046
0.0074080271 0.0045098574 0.010006435 0.062704571 -0.79128009 0.60823017 0.00071373716
0.010527105 0.0047174916 0.0099577243 0.085813887 -0.76292062 0.64077145 0.0012861823
0.013181507 0.004902483 0.0097410753 0.11640354 -0.78119117 0.61334378 0.00080733589
0.016597448 0.0053245695 0.0095708081 0.13998435 -0.77574939 0.61531878 0.00061436585
0.019415421 0.005706415 0.0093148947 0.16018064 -0.76722932 0.62104857 0.00053204875
0.021034064 0.0058148131 0.0092763994 0.15200108 -0.75170308 0.64174616 0.001149794
-0.027720688 0.008771671 0.0094264131 -0.27328217 -0.79493839 0.54165465 0.00073185522
-0.025313389 0.0083339149 0.0099017853 -0.25440982 -0.78923202 0.55891722 0.00094099151
-0.022575757 0.0077552544 0.010234581 -0.22992089 -0.78393257 0.57670277 0.0013141374
-0.019685941 0.0070557902 0.010343259 -0.2073769 -0.77793056 0.59314322 0.00090878789
-0.016695168 0.0068316632 0.010949655 -0.16569704 -0.77297902 0.6124115 0.00068923895
-0.013639522 0.0065654628 0.011351717 -0.12324798 -0.75191182 0.64764082 0.0011619107
-0.010642207 0.0063786027 0.011664852 -0.084209159 -0.70466673 0.70452362 0.00096316246
-0.0075566838 0.0062182061 0.011809858 -0.052524116 -0.7119503 0.70026278 0.0014290527
-0.0051220572 0.0060857842 0.01171872 -0.031366169 -0.71462494 0.6988042 0.001131729
-0.0018082018 0.0061735921 0.011851101 -0.0019119087 -0.70019823 0.71394593 0.00081211922
0.0016954311 0.0061822473 0.011825107 0.016155539 -0.69189006 0.72182214 0.0007902956
0.0052098637 0.0061329594 0.01170794 0.041522089 -0.70089352 0.71205622 0.00095602585
0.0075354874 0.0062513803 0.011800509 0.052797619 -0.68133765 0.7300626 0.0019397474
0.010478369 0.00640155 0.011659436 0.076995313 -0.65961391 0.74765044 0.0013483908
0.013870926 0.0063221417 0.011132094 0.11925504 -0.73676574 0.66554821 0.00089972373
0.017228056 0.0066334791 0.010863051 0.14240833 -0.71642715 0.68297291 0.00087715179
0.020038536 0.006694077 0.010303525 0.16263703 -0.74780941 0.64368492 0.00087566621
0.022718007 0.0072064437 0.010120554 0.17817311 -0.73785657 0.65101612 0.00070256629
0.025591714 0.0081244884 0.010261674 0.18223761 -0.72205758 0.66739964 0.00028020141
0.028160594 0.008442454 0.0099044405 0.19351164 -0.70241338 0.68495888 0.00035126391
0.031165903 0.008589183 0.009282914 0.20033197 -0.68953884 0.69599086 0.00059994112
0.033315729 0.0089014107 0.009217469 0.2468206 -0.77196991 0.58578324 0.0016114834
-0.036324721 0.011804153 0.0091864662 -0.35911033 -0.76244897 0.53824848 0.0013370888
-0.034169845 0.011384815 0.0097542517 -0.32620019 -0.77387905 0.542867 0.00078621245
-0.031311259 0.010678636 0.010296545 -0.293841 -0.78132164 0.55063051 0.0008561908
-0.028804671 0.0099053662 0.010453967 -0.27450407 -0.78459311 0.55593276 0.00078105851
-0.025839062 0.0094909165 0.011177503 -0.23847312 -0.75637627 0.60911858 0.00080667768
-0.023254668 0.0091439337 0.011757282 -0.19912395 -0.71332037 0.67195523 0.00088332378
0.023072857 0.0090184659 0.011716429 0.16585504 -0.64197081 0.74857575 0.0012713806
0.02583763 0.0094885826 0.011577695 0.18222761 -0.64058834 0.74594885 0.0014043488
0.028568067 0.0098482138 0.011097666 0.19593862 -0.64033204 0.74268639 0.00059863768
0.031474266 0.010376877 0.010733426 0.2018636 -0.62714696 0.7522884 0.00035325685
0.034353983 0.010571665 0.010158605 0.21590316 -0.64201838 0.7356618 0.0012363793
0.037263762 0.011097658 0.0097978739 0.24906796 -0.67528754 0.69422752 0.00219024
0.039792869 0.011622732 0.0094249221 0.29156801 -0.68196124 0.67075849 0.0017725887
-0.042430133 0.014945404 0.0092139347 -0.44094822 -0.74369472 0.50247675 0.00083601451
-0.040432915 0.014350187 0.0097640399 -0.40814328 -0.74897057 0.52197915 0.00086263719
-0.03751827 0.013221447 0.010215684 -0.3614924 -0.75584251 0.54591709 0.00094280322
-0.034953374 0.012761484 0.011106903 -0.32106119 -0.7468093 0.58240497 0.00077278848
-0.031822231 0.012157909 0.0118481 -0.2870799 -0.74128455 0.60669798 0.00070601149
0.032562017 0.012158176 0.011775676 0.20694771 -0.5929355 0.77820313 0.00057650602
0.034886476 0.01263396 0.011607803 0.2075084 -0.58693552 0.78258991 0.00032885137
0.037631873 0.012955938 0.011160341 0.21949518 -0.58460426 0.78106314 0.00054045161
0.040431313 0.013042213 0.010430611 0.28711355 -0.65638345 0.69765794 0.0015366925
0.043699741 0.013704214 0.0097130612 0.34465477 -0.68259841 0.64441633 0.0023419154
0.045831729 0.014512333 0.0094740828 0.37805149 -0.68237031 0.62565798 0.0017727932
-0.04584923 0.017534241 0.0096370447 -0.4785111 -0.71324819 0.51215637 0.00073509803
-0.043481655 0.016446888 0.010149044 -0.43743986 -0.71834612 0.54094845 0.0007411486
-0.040340852 0.015554666 0.011307253 -0.3922058 -0.71040702 0.58437699 0.00099314703
0.04076656 0.015439424 0.011787968 0.24138385 -0.52079695 0.81884336 0.00071041146
0.043719858 0.015826486 0.011365405 0.27266598 -0.55696362 0.78450292 0.0014619321
0.046619184 0.01619539 0.01055024 0.3586815 -0.60994357 0.70662326 0.0018757109
0.049315549 0.016916025 0.0097875306 0.40258768 -0.64273208 0.65178108 0.0017394475
0.051465806 0.017532205 0.0093391063 0.42575181 -0.64311218 0.63650775 0.0020669608
-0.051011816 0.020731919 0.0091805169 -0.50746661 -0.66236448 0.55113614 0.00069763366
-0.049321678 0.02011949 0.0097886547 -0.5093779 -0.6964193 0.50550401 0.00075262389
-0.047023971 0.018775802 0.010138386 -0.48006663 -0.6997543 0.52903682 0.0010111479
-0.044332385 0.018289419 0.011717411 -0.4243167 -0.65398735 0.62630332 0.00078745815
0.047296852 0.018437214 0.011844064 0.30676824 -0.5331707 0.78843027 0.0011164545
0.049805265 0.019005904 0.011147827 0.35447806 -0.53448766 0.76724726 0.0014974488
0.052381992 0.019350916 0.010090965 0.44825825 -0.61107773 0.65241748 0.0018827049
0.054551713 0.020553105 0.0097428421 0.4770689 -0.59899914 0.6431216 0.0019930578
-0.054391194 0.02369922 0.0093808509 -0.55206317 -0.61881721 0.55883056 0.0012584305
-0.052312583 0.022656661 0.010125839 -0.51660818 -0.64060819 0.56809956 0.0013484636
-0.050062019 0.021716667 0.011026526 -0.48250654 -0.64168972 0.59617269 0.0013541821
0.050506089 0.02119239 0.011950702 0.33386591 -0.45016342 0.8281827 0.0011037112
0.053097758 0.021689832 0.011347372 0.40823105 -0.52651507 0.74574077 0.002168318
0.055771422 0.022212451 0.010216741 0.48437142 -0.54656446 0.68311906 0.0017284658
0.057867441 0.023115989 0.0094752619 0.53677619 -0.56268895 0.62869108 0.0020641105
-0.057315856 0.026498927 0.009404283 -0.5952332 -0.56420088 0.5721668 0.0010785238
-0.055329945 0.025490204 0.010314316 -0.54923636 -0.56636149 0.6144706 0.0011737782
-0.05322931 0.024643391 0.011346705 -0.51504731 -0.55965155 0.64924294 0.0008939695
0.056025177 0.024612838 0.011557617 0.45466882 -0.46817902 0.75768381 0.0019793008
0.058792055 0.025084343 0.01018567 0.53614438 -0.5103218 0.67239928 0.0012677397
0.060817763 0.026195794 0.0095769754 0.58252835 -0.50209534 0.63918775 0.0011115234
-0.060175084 0.029589973 0.0092041176 -0.63332975 -0.4923436 0.59706891 0.001364029
-0.058303662 0.02840654 0.010078164 -0.60275108 -0.51684916 0.6079129 0.0013988146
-0.056288987 0.027630469 0.0113183 -0.5592429 -0.52372521 0.64261901 0.00098513998
0.059248459 0.027983898 0.011758636 0.45984259 -0.35043398 0.81592947 0.001276997
0.0617125 0.028082376 0.0099285943 0.60025209 -0.4715136 0.6460436 0.0012641737
0.063426569 0.028916521 0.0092195272 0.63673347 -0.45611253 0.6217168 0.0011175401
-0.060870487 0.031455647 0.0097854324 -0.64361149 -0.44316956 0.62399119 0.0010343877
-0.05916103 0.030622568 0.010875177 -0.59826398 -0.43270007 0.67442626 0.0009871854
0.062347431 0.031509668 0.011286609 0.52347887 -0.29319841 0.80000287 0.0015857158
0.063912779 0.030763838 0.0097966325 0.62775421 -0.38943765 0.67399031 0.0015865676
-0.063217193 0.034872685 0.0095354039 -0.68418574 -0.3804116 0.62223536 0.0010542464
-0.061890244 0.033991061 0.010334867 -0.6420452 -0.36748049 0.67285663 0.0012532488
0.064716697 0.03487267 0.010748395 0.57689416 -0.2341186 0.78254807 0.0023583928
0.066186681 0.033581864 0.0091256071 0.69921982 -0.32530615 0.63660622 0.0010319505
-0.064260319 0.036972072 0.0094812792 -0.69760591 -0.33555371 0.63304788 0.001774063
-0.062160119 0.037777055 0.011524296 -0.62372863 -0.29270247 0.72476745 0.0013280229
0.067121133 0.037140634 0.0094982916 0.64655399 -0.1897808 0.7388851 0.0032069304
-0.064453423 0.040137853 0.010300132 -0.66742253 -0.25520155 0.6995852 0.0016668977
0.068243131 0.040420413 0.0091184862 0.79169369 -0.15946931 0.58973777 0.0013506963
0.0024981936 0.0059756823 0.012031426 0.026794307 -0.67791206 0.73465455 0.0022910631
-0.021755051 0.0089279767 0.012188473 -0.20304988 -0.704081 0.68047094 0.0010878453
-0.019269986 0.0086076343 0.012279555 -0.17574185 -0.72592461 0.66494232 0.00078148767
-0.016317014 0.0082557006 0.012571066 -0.13982587 -0.70883942 0.69137222 0.001125539
-0.013480374 0.0079950914 0.012816536 -0.10205755 -0.6694839 0.73578233 0.0011138539
-0.0109448 0.0076067988 0.012722615 -0.088177249 -0.68722248 0.72107565 0.00092452788
-0.0081217643 0.0072998893 0.012686151 -0.069237933 -0.71767378 0.69292897 0.00092397135
-0.0044930587 0.0074974052 0.013056344 -0.020498199 -0.6352005 0.77207512 0.0012928289
-0.0015374152 0.0074660392 0.013056812 -0.0002099296 -0.6214422 0.78345996 0.0013745613
0.0013320938 0.0074445507 0.012999923 0.018075038 -0.60353959 0.79712814 0.0018361394
0.0044675497 0.0073848777 0.012851503 0.033343047 -0.59118289 0.805848 0.0018851837
0.0075320019 0.0076886956 0.012898021 0.051486515 -0.58383471 0.81023836 0.0021439332
0.010390527 0.0077801086 0.01274018 0.080360629 -0.59329933 0.80096066 0.00158126
0.013425577 0.0079471357 0.012575601 0.09216655 -0.59630817 0.79744714 0.0014912445
0.016350729 0.0084370803 0.012565479 0.10819267 -0.61184257 0.78354514 0.0017937059
0.019196136 0.0085208053 0.012209374 0.13787553 -0.63673675 0.75865448 0.0014487067
0.021563897 0.00865662 0.01214641 0.15775439 -0.65982419 0.7346738 0.001519865
-0.030398348 0.01186074 0.012226007 -0.25989097 -0.70681202 0.65793109 0.0010555632
-0.027904758 0.011214589 0.012366078 -0.2447107 -0.74185693 0.62431163 0.00086661708
-0.025377097 0.010889749 0.012910161 -0.20861143 -0.69168103 0.69141775 0.00090894132
-0.02280887 0.01014863 0.0128403 -0.20541616 -0.72123092 0.66153628 0.00074096315
-0.019603193 0.010267532 0.013719996 -0.13937666 -0.60094178 0.78704703 0.00071840873
-0.0165368 0.0099582318 0.01399109 -0.11788607 -0.59139001 0.79772222 0.00099540758
-0.013551195 0.010115894 0.014444928 -0.091242485 -0.58538854 0.80560231 0.0009232618
-0.010550648 0.0096607748 0.014371689 -0.0584695 -0.57700419 0.81464559 0.0012451085
-0.0076779588 0.009764703 0.014576114 -0.014460327 -0.51237625 0.85863936 0.0015415822
-0.0046228939 0.0096591599 0.014545902 -0.0054434845 -0.50634068 0.86231631 0.00093897141
-0.001411411 0.0097928094 0.014583037 0.013685989 -0.49208793 0.87043792 0.0010470329
0.0018583132 0.0096140066 0.014355876 0.02815868 -0.52378929 0.85138232 0.0013144409
0.0044431849 0.010070624 0.014482009 0.042720724 -0.49383199 0.86850727 0.0013127732
0.0075686318 0.010107355 0.014356051 0.046437252 -0.44832319 0.89266449 0.0016404236
0.010859809 0.0097968066 0.013951237 0.066294678 -0.50549656 0.86027801 0.00091721787
0.013239381 0.010291112 0.014016001 0.083304584 -0.50362945 0.8598941 0.00088079675
0.016720153 0.010143486 0.013586978 0.096699357 -0.51251316 0.85321718 0.0012089213
0.019572688 0.010076274 0.013172898 0.13867903 -0.54026103 0.8299917 0.0013251741
0.022483448 0.010267668 0.012855531 0.16079518 -0.57418007 0.80278397 0.0020073566
0.02538942 0.010923401 0.012767956 0.16406403 -0.57463342 0.80179763 0.0018978422
0.028265974 0.011310667 0.012432426 0.18428138 -0.58810943 0.7875073 0.0012584325
0.030610168 0.011757217 0.01216064 0.19976462 -0.60577935 0.77014631 0.00058882922
-0.036781371 0.014549506 0.012255994 -0.33645123 -0.68424267 0.6470027 0.0010679993
-0.033842251 0.013717595 0.012706113 -0.30592304 -0.72098494 0.62176502 0.0008147622
-0.031443115 0.013422524 0.013369537 -0.2573511 -0.65473831 0.71069556 0.0016368185
-0.028611651 0.013111378 0.013983898 -0.21084668 -0.61425161 0.76042002 0.0011471389
-0.025579145 0.012685652 0.014417488 -0.17566043 -0.58519018 0.79164124 0.0011692083
-0.022965595 0.012198837 0.014603935 -0.16018568 -0.59027964 0.79114503 0.0015552548
-0.020381898 0.012127916 0.01486401 -0.12332349 -0.58403933 0.80230248 0.0008372888
0.010049895 0.01211765 0.014879096 0.048078869 -0.42680427 0.90306509 0.00070283149
0.012622229 0.012376849 0.014787532 0.065738432 -0.43703294 0.89704001 0.00075168285
