# .PCD v0.7 - Point Cloud Data file format
VERSION 0.7
FIELDS x y z normal_x normal_y normal_z curvature
SIZE 4 4 4 4 4 4 4
TYPE F F F F F F F
COUNT 1 1 1 1 1 1 1
WIDTH 555
HEIGHT 1
VIEWPOINT 0 0 0 1 0 0 0
POINTS 555
DATA ascii
0.040354986 0.011541051 -0.010027959 0.346699 -0.75157613 -0.561189 0.0012041061
0.042207051 0.011971713 -0.009517584 0.35590971 -0.7509616 -0.55622393 0.0015196023
-0.036860351 0.014475077 -0.0095690787 -0.37807342 -0.71740109 -0.58514625 0.00089645386
-0.034388851 0.013888287 -0.010337149 -0.33317876 -0.71433729 -0.61539751 0.0015751701
-0.031635683 0.013122679 -0.010834329 -0.30215278 -0.71907526 -0.62580705 0.0011118936
-0.028910926 0.012629851 -0.011493482 -0.26688665 -0.67698717 -0.68590069 0.0011344147
-0.026704188 0.01212007 -0.011858979 -0.25768554 -0.67322332 -0.69308627 0.0021763225
0.038606629 0.012147017 -0.011881473 0.3112531 -0.69915879 -0.64366025 0.0030545995
0.04065451 0.012659247 -0.011272357 0.3188715 -0.70606971 -0.63228679 0.0018551941
0.043674875 0.013633005 -0.010677398 0.37314385 -0.71798265 -0.58759218 0.0014221217
0.046150591 0.014433268 -0.0099284109 0.42160773 -0.71901232 -0.5525108 0.0012350155
-0.042539343 0.01767865 -0.0095386067 -0.45399773 -0.66781902 -0.58983374 0.0012686086
-0.040300339 0.016928187 -0.010302891 -0.4053705 -0.68208522 -0.6086334 0.0017030492
-0.037670728 0.0160507 -0.010875225 -0.3570388 -0.69780028 -0.62096542 0.0014122633
-0.035117373 0.015449695 -0.011613872 -0.31102517 -0.65976006 -0.68409055 0.0012931308
0.044429261 0.015068657 -0.011848659 0.38284624 -0.6556648 -0.65079379 0.0037700301
0.046793148 0.015822189 -0.011129333 0.39907271 -0.69388825 -0.59938312 0.0014741945
0.049286198 0.016726019 -0.010443263 0.42919838 -0.65370584 -0.62326348 0.0013912503
0.051757976 0.017583311 -0.0094665401 0.48315555 -0.67048246 -0.56304002 0.0010979169
-0.045978785 0.020259194 -0.0098029403 -0.47553459 -0.6577577 -0.58414179 0.0013939934
-0.04359575 0.019439394 -0.010641788 -0.4291437 -0.65390319 -0.62309402 0.0011159341
-0.041224133 0.018649194 -0.011457707 -0.40044665 -0.63083458 -0.66459787 0.0013743099
0.05039439 0.018576667 -0.011629357 0.4470771 -0.61761844 -0.64704674 0.0015565202
0.05261391 0.019422017 -0.010771307 0.46498677 -0.59842193 -0.65244037 0.0010486962
0.05459936 0.019911269 -0.0097177522 0.49723443 -0.61084676 -0.61613649 0.00093860249
-0.051287163 0.023681303 -0.0091965199 -0.52061254 -0.65491968 -0.54776168 0.0018376968
-0.049200866 0.022956282 -0.0101165 -0.47937065 -0.63776934 -0.60287142 0.0016798555
-0.046803758 0.022033924 -0.010993057 -0.45245779 -0.61963123 -0.64135718 0.0017591383
-0.044674426 0.021212904 -0.011690321 -0.42673904 -0.60774946 -0.66972703 0.0018626865
0.053662539 0.021318696 -0.011856499 0.46724802 -0.56304038 -0.68166327 0.0019186744
0.05605261 0.022349494 -0.010871007 0.50029242 -0.54031998 -0.67658097 0.0014328543
0.057998177 0.022964371 -0.0096844025 0.56095469 -0.57168657 -0.59875226 0.0011401611
-0.054594014 0.02660278 -0.0094197663 -0.53616846 -0.6040616 -0.58960408 0.0015121208
-0.052369449 0.025736494 -0.010401364 -0.4921453 -0.59906024 -0.63160104 0.0022387209
-0.049972076 0.024798615 -0.011339589 -0.45041966 -0.58654761 -0.67311513 0.0019275501
0.056851272 0.024303306 -0.011814585 0.51816541 -0.49692211 -0.69611281 0.0004952036
0.058696061 0.025514528 -0.011245742 0.50793815 -0.4445886 -0.73779386 0.0014752744
0.060698759 0.025798758 -0.0097572841 0.59108841 -0.51144677 -0.6237281 0.0018228631
-0.057512909 0.029477803 -0.009579909 -0.57102472 -0.55984938 -0.60041612 0.001404563
-0.055415351 0.028626261 -0.010581054 -0.51669204 -0.52838147 -0.67367834 0.001846895
-0.053284716 0.027735723 -0.011444468 -0.48506212 -0.5439564 -0.68470889 0.0016419691
-0.013053471 0.029855676 -0.011813825 0.18988313 0.70287496 -0.68550068 0.0017521693
-0.010457392 0.029465565 -0.01159848 0.16485789 0.70212823 -0.69270331 0.0014203169
-0.0073976214 0.029140292 -0.011243406 0.13530995 0.73840165 -0.66064692 0.0015058391
-0.0044196551 0.028918453 -0.010980912 0.10615017 0.74801958 -0.65513265 0.0010611427
-0.0015366273 0.02867288 -0.010841035 0.08154548 0.74086338 -0.66668719 0.0024102021
0.0015114463 0.028568516 -0.010707133 0.042590518 0.73842472 -0.67298967 0.0025450212
0.0044759237 0.028525436 -0.010684811 -0.0061513549 0.74541968 -0.66656709 0.0023289453
0.0075403131 0.028579943 -0.010710339 -0.046821859 0.75254571 -0.65687346 0.0027451161
0.01050349 0.028793151 -0.010770163 -0.080475278 0.75303578 -0.65303963 0.0021295997
0.013425984 0.028948089 -0.010987365 -0.12392361 0.75831157 -0.64000511 0.0021589671
0.016346984 0.029241575 -0.011299256 -0.15579981 0.71875739 -0.67757964 0.0013784682
0.018871127 0.029507319 -0.011609827 -0.18590952 0.70052725 -0.6889841 0.0013088356
0.059567552 0.02727282 -0.011747438 0.54665214 -0.39880905 -0.73628986 0.001636548
0.061459985 0.028450727 -0.010914209 0.56349558 -0.36468905 -0.74126565 0.001411811
0.063382119 0.029101942 -0.0095688347 0.62043953 -0.43070111 -0.65540165 0.001364994
-0.060398418 0.032546218 -0.0093752025 -0.6152963 -0.48554498 -0.62101251 0.0021891601
-0.058382649 0.031643558 -0.010411359 -0.55230057 -0.45713821 -0.69712895 0.001648752
-0.056336645 0.030948609 -0.011577044 -0.50589263 -0.41950989 -0.75371355 0.0019616438
-0.02160552 0.032829214 -0.011714697 0.25636458 0.70008385 -0.66645312 0.0021635636
-0.019339345 0.032334484 -0.011401917 0.24967383 0.71015245 -0.65829057 0.00090308819
-0.016477777 0.031814117 -0.010905765 0.23730555 0.74486953 -0.62358278 0.0010692354
-0.01357156 0.031206137 -0.010589224 0.20233372 0.74936247 -0.63048947 0.0022708967
-0.010546965 0.030784031 -0.010213341 0.17721671 0.74816197 -0.63941216 0.0014288006
-0.0075838021 0.030491514 -0.0097939717 0.1432627 0.76004088 -0.63388777 0.0013910962
-0.0046564559 0.030246904 -0.009483316 0.11221972 0.76929867 -0.6289565 0.0010844697
-0.0014452472 0.030059258 -0.0091701606 0.083362974 0.77409637 -0.62755519 0.0010358631
0.00055731449 0.030033106 -0.0090713976 0.052834496 0.82077605 -0.56880158 0.0037974454
0.008909462 0.030044883 -0.0090565784 -0.030841684 0.81363124 -0.58056277 0.0034765739
0.010635321 0.030046901 -0.0093077477 -0.083934188 0.7925896 -0.60395098 0.0010255651
0.013906311 0.030317107 -0.0094052069 -0.11954118 0.79111576 -0.59987152 0.0017808309
0.016668461 0.030534057 -0.0098545151 -0.16571547 0.77636015 -0.60811448 0.0012848024
0.019659122 0.030836336 -0.010345069 -0.19919623 0.76960737 -0.60665095 0.0020375224
0.022518456 0.031421378 -0.010623616 -0.23231164 0.75305146 -0.61558491 0.0014258468
0.025385484 0.032074306 -0.010924533 -0.23515587 0.7558952 -0.61100262 0.0010201945
0.028078074 0.032459784 -0.011489232 -0.24396591 0.71533352 -0.65481192 0.001053648
0.03006772 0.032642007 -0.011953486 -0.24314152 0.66683573 -0.70442343 0.0012370426
0.062423397 0.031189939 -0.011440549 0.56141078 -0.28620449 -0.77646953 0.0010318502
0.064427547 0.031816561 -0.010119107 0.59903944 -0.30579826 -0.74002653 0.0017720432
-0.063185461 0.035974994 -0.0091246171 -0.61544496 -0.42324775 -0.66489768 0.0024375392
-0.061170518 0.034747016 -0.01008232 -0.59951043 -0.40762091 -0.68879056 0.0015825093
-0.059067696 0.034189437 -0.011436343 -0.52227145 -0.35225779 -0.77662539 0.0016882495
-0.027978366 0.0356117 -0.011570562 0.30190384 0.6788972 -0.66929263 0.0016672971
-0.025333324 0.034968901 -0.011044065 0.29985753 0.72927141 -0.61501926 0.0012427039
-0.022609418 0.034245878 -0.010590794 0.27069363 0.73608691 -0.62040395 0.0019759524
-0.019639524 0.033641811 -0.010017761 0.26832351 0.7491287 -0.60564744 0.0012762566
-0.017279582 0.033250388 -0.0094319656 0.24410464 0.77469957 -0.58331251 0.0011827246
0.023864493 0.033034761 -0.0091634542 -0.24306242 0.77729851 -0.58028239 0.00076674751
0.026035817 0.03340245 -0.0095449043 -0.24424119 0.77610153 -0.58138847 0.00095239206
0.028724544 0.033740658 -0.010222987 -0.25970092 0.76383847 -0.59085214 0.001340691
0.031474009 0.034417417 -0.010593365 -0.28211027 0.76347303 -0.58096701 0.0016630912
0.034302041 0.035140991 -0.011056595 -0.30865014 0.73548955 -0.60315019 0.0015759006
0.036482956 0.03556063 -0.011718581 -0.3175188 0.69743359 -0.64247042 0.0024115073
0.062879384 0.033296324 -0.011884949 0.56458056 -0.22789603 -0.79329199 0.0013065526
0.064402789 0.034497235 -0.011120717 0.58044726 -0.19350599 -0.79097182 0.0017067309
0.066434547 0.034781352 -0.0094400179 0.67462718 -0.25452092 -0.69289047 0.0015183133
-0.063672036 0.037956115 -0.0096633108 -0.6125077 -0.33591333 -0.71553934 0.0026705805
-0.061606675 0.03744952 -0.010998283 -0.5360899 -0.26328728 -0.80205202 0.0012200428
-0.059793249 0.036368664 -0.011869139 -0.52269757 -0.25553793 -0.81331897 0.0036662344
-0.034193646 0.038590193 -0.011493397 0.31904331 0.67489594 -0.6653772 0.0016627723
-0.031399246 0.037799321 -0.010913696 0.33585033 0.72025108 -0.60699499 0.0015323417
-0.028676644 0.036988404 -0.010414106 0.32331648 0.72602755 -0.60691881 0.0015163488
-0.025953583 0.036422879 -0.0095589915 0.3181119 0.74326515 -0.58852494 0.0010175634
0.032972191 0.036059614 -0.0092015229 -0.32692522 0.76854366 -0.54996419 0.00072801224
0.034865342 0.036514189 -0.0096998205 -0.33268526 0.75185233 -0.56924385 0.0012625405
0.037611879 0.037154343 -0.010462699 -0.34119031 0.73366463 -0.58764386 0.0017642663
0.040267747 0.038074985 -0.011006705 -0.37407908 0.69682956 -0.61195868 0.0021688321
0.042773817 0.038688429 -0.011799823 -0.33188853 0.62686211 -0.704907 0.0017826586
0.064882845 0.037407413 -0.011356455 0.53512424 -0.073121905 -0.8416028 0.0020082889
0.066914558 0.037653223 -0.0097497599 0.66777593 -0.1453968 -0.73002404 0.0022751424
-0.066270679 0.041942183 -0.0090986723 -0.64936131 -0.24851975 -0.71872658 0.0026526474
-0.064280838 0.040665124 -0.010098452 -0.57338357 -0.21197845 -0.79138887 0.0038714299
-0.06209461 0.040423021 -0.011515099 -0.49300507 -0.13584228 -0.85935611 0.0027102688
-0.042096455 0.041966762 -0.011851148 0.29767731 0.6587851 -0.69093448 0.0011925385
-0.040073533 0.041453514 -0.011452805 0.31257552 0.66983467 -0.6735118 0.0019926347
-0.037368055 0.040687691 -0.01087866 0.33227515 0.70109087 -0.63092375 0.0016558958
-0.034692373 0.04001319 -0.010172335 0.3426986 0.72233802 -0.60065413 0.0014581648
-0.032347973 0.03930511 -0.0096575385 0.35352007 0.72906619 -0.58607686 0.0011223678
0.040926442 0.039592206 -0.0097012445 -0.40173042 0.71289706 -0.57479602 0.0013708166
0.043554712 0.040401079 -0.010439172 -0.3620182 0.67421627 -0.64371985 0.0010271296
0.046274513 0.041095328 -0.011258093 -0.32366291 0.62968105 -0.70621824 0.00122816
0.048567925 0.041784536 -0.011682995 -0.29179046 0.63120747 -0.71863437 0.0013844731
0.064800791 0.04056453 -0.011554397 0.4708789 0.055492952 -0.88045079 0.0039823633
0.067125 0.040592127 -0.0099586956 0.59824085 -0.0068324674 -0.80128723 0.0019724797
-0.066303089 0.043868374 -0.0093284817 -0.60088646 -0.13346574 -0.78811312 0.0033684254
-0.064485289 0.043487668 -0.010470673 -0.50845408 -0.073162474 -0.8579753 0.0027301379
-0.062160552 0.043692503 -0.011665252 -0.40262035 0.027373102 -0.91495764 0.0045674318
-0.048460376 0.044736307 -0.011863668 0.22192259 0.61151737 -0.75947148 0.0022594163
-0.046328753 0.044408057 -0.011423768 0.2690146 0.65288019 -0.70808089 0.0017861575
-0.043429684 0.043687459 -0.010810952 0.31134686 0.67066592 -0.67325354 0.0017780376
-0.040718216 0.042927276 -0.010221238 0.33897987 0.71034718 -0.6168465 0.0015450498
-0.038312074 0.042307362 -0.0095919175 0.35765347 0.72253537 -0.59163058 0.0012356478
0.044750251 0.042146698 -0.0092595005 -0.42176402 0.70892334 -0.56528121 0.0014082999
0.046762165 0.042758048 -0.009859222 -0.3863562 0.67489517 -0.62868553 0.0016446584
0.049523011 0.043554023 -0.010513865 -0.31216681 0.64433604 -0.69812822 0.0015778573
0.052335817 0.044050951 -0.011267523 -0.25546092 0.59459925 -0.76235914 0.0017298734
0.055217981 0.044616312 -0.011678857 -0.17086405 0.5398913 -0.82421041 0.0025529377
0.058005374 0.044932246 -0.011929974 -0.052340303 0.45780846 -0.88750881 0.0041893781
0.062235493 0.044439744 -0.011879086 0.17601915 0.29345801 -0.93962741 0.0028769246
0.064526193 0.043607492 -0.011327225 0.37303278 0.19528207 -0.9070344 0.0057803267
0.067226708 0.043446988 -0.00982715 0.54305822 0.10145491 -0.83354342 0.0031674157
-0.066515714 0.046597451 -0.0093042217 -0.53420901 0.028855652 -0.84485984 0.0052915327
-0.064556994 0.046515495 -0.010339208 -0.39047804 0.14463356 -0.90917993 0.0064489916
-0.061599538 0.046602126 -0.011412032 -0.27174196 0.27757421 -0.921471 0.0092592658
-0.058644664 0.047131937 -0.011702572 -0.049261626 0.41327593 -0.90927243 0.0049566608
-0.055501822 0.047248617 -0.011566061 0.080401421 0.51008564 -0.85635751 0.0028193283
-0.052415702 0.046996105 -0.011227845 0.17384309 0.58517605 -0.79205275 0.0018018378
-0.049526107 0.046487879 -0.010740315 0.2463768 0.63364363 -0.73334455 0.0015776657
-0.046689432 0.046014834 -0.010004971 0.3164753 0.6894545 -0.65153348 0.0019416272
-0.044167768 0.045371551 -0.0094262026 0.35780212 0.69350058 -0.62532753 0.0016450863
0.050580453 0.045447309 -0.0092055099 -0.38693118 0.66685587 -0.63685751 0.0017549944
0.052744567 0.045978557 -0.0098026982 -0.32253724 0.65128911 -0.68687129 0.0020096037
0.055526573 0.046530146 -0.010397042 -0.24621892 0.58225787 -0.7748239 0.0022926684
0.058440764 0.046545859 -0.011047767 -0.1015543 0.51380831 -0.8518731 0.0023364204
0.061457574 0.046580046 -0.011121909 0.080438577 0.43039346 -0.89905006 0.0057514668
0.06443835 0.046496738 -0.010604204 0.29493365 0.28798151 -0.91108763 0.0081369588
0.066859581 0.046608675 -0.0095814802 0.47530299 0.19881943 -0.85706359 0.0044776085
-0.066358842 0.048979882 -0.0091771511 -0.3453902 0.21784769 -0.91282421 0.0095055988
-0.064435244 0.04952256 -0.0096860565 -0.24807478 0.28177926 -0.92685455 0.006140511
-0.061478276 0.049405724 -0.010309168 -0.14260721 0.42941272 -0.89177793 0.0068092323
-0.058573663 0.04945058 -0.010394797 0.020693094 0.54527754 -0.83800012 0.0036193912
-0.055616915 0.049297657 -0.010139749 0.14316501 0.61163366 -0.77807975 0.0032249689
-0.052758571 0.04884116 -0.0097637596 0.24051429 0.66088951 -0.71089941 0.0023536661
-0.050486643 0.048314918 -0.0094163744 0.29421896 0.67199755 -0.67959887 0.0025393378
0.056359351 0.048334796 -0.0092667388 -0.29038894 0.62268448 -0.72659355 0.0028621294
0.058694873 0.048809353 -0.0095960489 -0.18540312 0.57987952 -0.79332554 0.0039709434
0.061581273 0.049278051 -0.0097291451 -0.037967049 0.49182498 -0.86986595 0.0049445275
0.064376734 0.049438458 -0.0095513882 0.14534113 0.38606253 -0.91095102 0.0077171177
0.066372834 0.048864752 -0.0092491666 0.39740637 0.27451304 -0.87562025 0.0051818746
-0.06346681 0.05140977 -0.0090636648 -0.10253434 0.4893398 -0.86604464 0.0081627285
-0.061629813 0.051272433 -0.009227897 -0.018555799 0.55637562 -0.8307237 0.0053638369
-0.059184909 0.051215362 -0.0091528902 0.10139439 0.63191855 -0.76837367 0.0028206466
-0.0098268036 0.0028250073 -0.0061357711 -0.16923943 -0.88523364 -0.43326604 0.0025331422
-0.0072554536 0.0027088942 -0.0065872795 -0.12271503 -0.85754371 -0.49955961 0.0014096946
-0.0043714647 0.0026091149 -0.0071728621 -0.099489205 -0.85977024 -0.50089628 0.0016796555
-0.0015045358 0.0025390002 -0.0074273213 -0.051992197 -0.85724527 -0.51227659 0.0016485095
0.0015168278 0.0023968231 -0.0074331104 -0.027200213 -0.86384284 -0.5030266 0.0018572183
0.0043675955 0.0021743814 -0.0071780556 -0.0012289792 -0.86827219 -0.49608657 0.0017423881
0.0075657554 0.0024567617 -0.0075308825 0.031911161 -0.87461042 -0.48377508 0.0018825891
0.010258599 0.0022895734 -0.0069937464 0.054520819 -0.88461113 -0.46313122 0.0013736557
0.013093214 0.0026094103 -0.0071666478 0.081814073 -0.8743633 -0.47832549 0.001657382
0.016224617 0.0026794758 -0.0065342817 0.10868932 -0.87249535 -0.47638074 0.0013155228
0.019139297 0.0028834578 -0.006204057 0.15881623 -0.91263145 -0.37667134 0.00084162958
-0.021287987 0.0058957944 -0.0062437686 -0.31893244 -0.8365913 -0.44541788 0.00198444
-0.019230919 0.0055459295 -0.0068787127 -0.26789775 -0.83727109 -0.47666338 0.0015589966
-0.016373552 0.0051628528 -0.0075515159 -0.21842784 -0.83126682 -0.51116019 0.0013419666
-0.013452093 0.0044767228 -0.0076965936 -0.20203348 -0.82765257 -0.5236159 0.0021290851
-0.010538638 0.0038790414 -0.0078203343 -0.15426004 -0.84268838 -0.51582944 0.00097323448
-0.0075629479 0.0037609327 -0.0083061447 -0.12023607 -0.83326387 -0.53964299 0.0016743848
-0.0049574221 0.0035873202 -0.0085964845 -0.10260571 -0.82439232 -0.55664128 0.0017476953
-0.0016063971 0.0033879394 -0.0088029029 -0.059521075 -0.7993412 -0.59792215 0.00072164537
0.0010086683 0.0033456804 -0.0089308079 -0.032808512 -0.82382333 -0.56589645 0.0015524789
0.0048711854 0.0031610553 -0.008790208 0.0021199868 -0.84148699 -0.54027331 0.0018972285
0.0070788027 0.0031057419 -0.0086290343 0.024526345 -0.84755439 -0.53014153 0.0020020232
0.010551003 0.0032737458 -0.00870921 0.051260836 -0.8367511 -0.54517883 0.0014396958
0.013793317 0.0034417547 -0.0085346401 0.090809733 -0.84524626 -0.52660447 0.0017307689
0.016687632 0.0035610336 -0.008152538 0.10475384 -0.85350436 -0.51044774 0.001523057
0.019410342 0.0038573705 -0.0079447888 0.13941611 -0.84745175 -0.5122388 0.0011063273
0.022416851 0.004380682 -0.0078096013 0.17418341 -0.8522101 -0.49335399 0.0011329963
0.02525924 0.0049125669 -0.00768595 0.19864501 -0.84295148 -0.49997306 0.0010467045
0.028321454 0.0055352729 -0.0072732493 0.2302171 -0.8406601 -0.49019444 0.0010420354
0.03083016 0.0058135195 -0.0064404835 0.28198788 -0.88751954 -0.36440626 0.0006724667
-0.028018916 0.0087744789 -0.0068310914 -0.33230805 -0.82075882 -0.46467873 0.0011796703
-0.025381984 0.0081738522 -0.0075319367 -0.29863134 -0.81336313 -0.49925923 0.0011854214
-0.022488033 0.0072132964 -0.007713858 -0.29199415 -0.81740439 -0.49657771 0.0012565866
-0.019752586 0.006530032 -0.008233889 -0.25439876 -0.81222445 -0.52495015 0.0016730172
-0.017701514 0.0063232691 -0.0088070957 -0.23926194 -0.78255761 -0.57476711 0.0014681496
0.029194338 0.0063801534 -0.0084807239 0.23774195 -0.82979339 -0.50489783 0.0012102869
0.031369057 0.0064739124 -0.0073840036 0.25362498 -0.82771593 -0.50056046 0.00074187951
0.034450822 0.0076321512 -0.0075431322 0.29575914 -0.81924093 -0.49129492 0.00081845745
0.037520226 0.0085973004 -0.0071916189 0.3242318 -0.81032044 -0.48811325 0.00093080563
0.039065164 0.0087127499 -0.0062646978 0.38414401 -0.85429615 -0.35015923 0.0032922786
-0.036093861 0.011895852 -0.0062266085 -0.39391476 -0.81412202 -0.42665747 0.00091499672
-0.034136403 0.011499822 -0.0071353619 -0.36902875 -0.80319363 -0.4676514 0.0011698055
-0.03149201 0.010753397 -0.0077324049 -0.33422056 -0.80318439 -0.49314445 0.0016391956
-0.028750213 0.0097819306 -0.0080209933 -0.32209316 -0.8008222 -0.50491565 0.0018981751
-0.026570991 0.0093701351 -0.0087307198 -0.29085684 -0.76657987 -0.57250118 0.0011199993
0.038262464 0.0094919633 -0.0083386693 0.32149011 -0.80709207 -0.4952237 0.00097351667
0.040640801 0.010193931 -0.0076257698 0.37490967 -0.80297393 -0.46333095 0.00072938064
0.043374319 0.011213254 -0.0071430281 0.38813019 -0.79868889 -0.45983809 0.00087358273
0.045328703 0.011724899 -0.0063415794 0.43071967 -0.80795497 -0.40210617 0.0011842641
-0.040121999 0.014494181 -0.0070605986 -0.4360148 -0.77177703 -0.46287286 0.0010262294
-0.037563048 0.013546064 -0.0076808217 -0.39644349 -0.77685392 -0.48921424 0.0015834229
-0.034998816 0.012569186 -0.0082518272 -0.36222416 -0.77165407 -0.52282274 0.001390787
0.044446807 0.01234453 -0.0083244983 0.3816897 -0.75423026 -0.534275 0.0012678838
0.046341967 0.013164771 -0.0078371279 0.43910003 -0.75969827 -0.479635 0.0012517934
0.048994355 0.014297079 -0.0071263309 0.4473055 -0.75486004 -0.47969165 0.0011626044
-0.045540154 0.017676024 -0.0065482804 -0.50339663 -0.73832929 -0.44884491 0.00076119835
-0.043364141 0.016820386 -0.0075970641 -0.48351631 -0.73732334 -0.47176924 0.0013426474
-0.040942639 0.015607758 -0.0081598694 -0.43219507 -0.75103617 -0.4991515 0.0018144805
0.050142549 0.015530046 -0.0080754636 0.47337186 -0.74071836 -0.47671309 0.00068995525
0.05261562 0.016794857 -0.0073859864 0.50031143 -0.72828901 -0.46827728 0.00059539475
0.054290701 0.017620213 -0.0068574115 0.53196055 -0.7311821 -0.42707241 0.0010181724
-0.048811819 0.020328633 -0.0071114651 -0.53491455 -0.71067417 -0.45695582 0.0012503952
-0.046683196 0.019242197 -0.0078107924 -0.50241846 -0.7245869 -0.47175157 0.0012419815
-0.044510558 0.01837662 -0.0086971615 -0.47987929 -0.6889919 -0.54314458 0.001711246
0.053700179 0.018444419 -0.0087191584 0.50559485 -0.67191064 -0.54121155 0.0011711398
0.055772536 0.019349271 -0.007787033 0.53917688 -0.67168868 -0.50805771 0.0011734616
0.057745852 0.020338735 -0.0068696397 0.59114337 -0.67105544 -0.44747534 0.0011257066
-0.054301694 0.0238901 -0.0061257733 -0.56347829 -0.70714968 -0.42712009 0.00073819549
-0.052201252 0.023020081 -0.0073288116 -0.54607224 -0.69074565 -0.47399959 0.0016014864
-0.049918253 0.021771058 -0.0080299154 -0.52236539 -0.70811063 -0.47509342 0.0015369352
0.058888763 0.022058208 -0.0077633779 0.61088216 -0.65703094 -0.44173896 0.00096406537
0.061077103 0.023345269 -0.0067051961 0.60714179 -0.59334081 -0.52851266 0.0013070509
-0.057305504 0.026762547 -0.0066620861 -0.59464759 -0.65921128 -0.46025515 0.0011459159
-0.055373624 0.025745794 -0.0075213495 -0.57211578 -0.67905468 -0.45996547 0.0013217266
-0.053350117 0.024568444 -0.0082473354 -0.54529113 -0.67341751 -0.4991658 0.0010139344
0.062069483 0.025312649 -0.0077984743 0.6242944 -0.54589736 -0.55879563 0.0017764942
0.063542947 0.02664594 -0.0073559196 0.67163271 -0.5201602 -0.52758211 0.0013143595
-0.060276791 0.02974529 -0.0066872407 -0.64119017 -0.59024435 -0.49039456 0.0014640754
-0.058427703 0.028557861 -0.007610485 -0.62913704 -0.62077749 -0.46778408 0.0017288659
-0.05651794 0.027480969 -0.0085126413 -0.55059618 -0.61635625 -0.56298196 0.0013554123
0.0022490486 0.029845061 -0.0089926403 0.043424722 0.78018284 -0.62404257 0.0007466625
0.0042046714 0.029952861 -0.0089127235 0.0018232802 0.82167447 -0.56995428 0.0029287557
0.007856016 0.029972058 -0.008837319 -0.054797623 0.81606245 -0.57536018 0.0035998949
0.062983781 0.027310235 -0.0087734116 0.67596763 -0.50802958 -0.53382927 0.0022138681
0.064554684 0.028493106 -0.0077557703 0.6962328 -0.44890812 -0.56012619 0.0016390425
0.06620644 0.029286638 -0.0062202862 0.72259873 -0.45067361 -0.52416068 0.0017939936
-0.063172407 0.032745823 -0.0062860078 -0.68516368 -0.54724669 -0.48069948 0.0015243716
-0.06141204 0.031703167 -0.0074556544 -0.66358453 -0.54427189 -0.51324809 0.0029160243
-0.059587348 0.03052379 -0.0083836159 -0.62227952 -0.56446058 -0.54235816 0.0017208502
-0.013085037 0.032660469 -0.0084996754 0.22485632 0.81119418 -0.53981817 0.0013323808
-0.010442498 0.032317847 -0.0080240127 0.19438298 0.84051365 -0.5057193 0.0014595917
-0.0075345561 0.031782221 -0.0078846319 0.1622415 0.85430562 -0.49380127 0.0019374564
-0.0044773775 0.031367928 -0.0077777621 0.12335567 0.85297894 -0.50715899 0.0022890419
-0.0014262827 0.031063417 -0.0076473081 0.092396915 0.85693198 -0.50708032 0.0021979297
0.0014757869 0.030806625 -0.0077106482 0.05207178 0.85628265 -0.51387608 0.002164125
0.0046125166 0.030707238 -0.007733284 -0.0046200072 0.86146927 -0.5077886 0.002276188
0.0075625298 0.030806614 -0.0076264385 -0.053676177 0.8485381 -0.52640474 0.0023613896
0.010539196 0.030965636 -0.0077574141 -0.070583433 0.85550988 -0.5129531 0.0016151782
0.013394505 0.031316172 -0.0076851994 -0.13441095 0.86455083 -0.48423716 0.0027609293
0.016449267 0.031868573 -0.0076947212 -0.18483183 0.86655742 -0.46358964 0.0015824597
0.019321246 0.032325376 -0.0080785546 -0.2192256 0.83872247 -0.4984825 0.0023572159
0.021468138 0.032580901 -0.0086592799 -0.2456927 0.81036186 -0.53192925 0.0018152781
0.065598309 0.03066403 -0.0082349759 0.71822047 -0.39626503 -0.57195568 0.0014123643
0.066839352 0.031866848 -0.0074106362 0.72912931 -0.3760995 -0.57176882 0.0020944723
-0.06402608 0.034898896 -0.0072505116 -0.68346441 -0.48388392 -0.5465644 0.0020408037
-0.062416952 0.03394727 -0.0083752489 -0.66410559 -0.46508145 -0.58537418 0.0021360824
-0.021972025 0.035530683 -0.0085117603 0.32000223 0.78932697 -0.5239861 0.0020992875
-0.019326648 0.034975838 -0.0078454241 0.29450658 0.82818651 -0.47683638 0.0017320262
-0.016338347 0.034058783 -0.0077388282 0.25400698 0.82937348 -0.49761432 0.0014902001
-0.013670172 0.033620432 -0.0072136782 0.22703142 0.83758408 -0.49690011 0.0015009899
-0.010575322 0.033222035 -0.0064047687 0.20675047 0.85434693 -0.47680762 0.0012683399
0.019450029 0.03321318 -0.0065188818 -0.22536999 0.86910391 -0.44030312 0.0013567368
0.022661418 0.033640444 -0.0075074486 -0.24626061 0.85465896 -0.45707098 0.0018692553
0.02554133 0.03436837 -0.0077016279 -0.26393005 0.84391731 -0.4670594 0.0021339476
0.028397521 0.035134848 -0.0078929244 -0.28155512 0.84274924 -0.45880321 0.0016852588
0.030790493 0.035677571 -0.0084279301 -0.31379378 0.81729001 -0.48329118 0.0015561166
0.067664027 0.034413405 -0.007846754 0.74197495 -0.29673794 -0.60118198 0.0016472215
0.0691939 0.035781991 -0.0065525565 0.79567707 -0.29038754 -0.53157604 0.0049450467
-0.066560961 0.038127627 -0.0067185736 -0.71738738 -0.43083361 -0.54748315 0.0026933204
-0.064990774 0.037316099 -0.008020144 -0.6749863 -0.38990578 -0.62639201 0.0024194221
-0.030197058 0.038917303 -0.0086717233 0.37117648 0.76197571 -0.53067976 0.0012340678
-0.028244659 0.038303833 -0.0082991729 0.36359161 0.78527915 -0.50113636 0.0018715877
-0.025547951 0.037442479 -0.0077190944 0.33324069 0.81248796 -0.47834495 0.0017380132
-0.022969192 0.036498602 -0.0076213288 0.31645125 0.82198888 -0.47349018 0.0016916
-0.020498842 0.036202759 -0.0060958965 0.31380484 0.84088427 -0.4409537 0.0011328169
0.029352829 0.036135193 -0.0066953911 -0.28631958 0.85482043 -0.43278518 0.0016563752
0.031824637 0.036664281 -0.0073199817 -0.31877682 0.83832526 -0.44225791 0.0018923575
0.034477178 0.037601512 -0.0076831412 -0.36631581 0.81368023 -0.45137265 0.0025156017
0.036986973 0.038461205 -0.0082078846 -0.40087074 0.78957409 -0.46462393 0.0024352719
0.068396054 0.037327789 -0.008168852 0.75446194 -0.18326794 -0.63023806 0.0018240418
0.069543101 0.03784908 -0.0068658786 0.7800805 -0.19514298 -0.59446925 0.002167955
-0.069022246 0.041821159 -0.0060028983 -0.77342409 -0.31508774 -0.55003172 0.0097122444
-0.067263305 0.040703863 -0.0074573481 -0.69817984 -0.29333231 -0.65307045 0.0018293344
-0.065625362 0.039800141 -0.0087076975 -0.66161913 -0.27397668 -0.69799495 0.0020225262
-0.036248472 0.041744221 -0.008802156 0.37068847 0.75884837 -0.5354805 0.0041620629
-0.034228187 0.041367073 -0.0079018474 0.38625824 0.76858896 -0.50997597 0.0016097628
-0.031645771 0.040113535 -0.0079079038 0.36977267 0.78276479 -0.50054717 0.0014164603
-0.029340833 0.039258558 -0.0075447001 0.36434594 0.81454998 -0.45139825 0.0012033288
0.035942305 0.039141487 -0.0061645964 -0.46654385 0.81270337 -0.34907025 0.0033457717
0.037960384 0.039561134 -0.0072480827 -0.41655704 0.78545231 -0.45776072 0.0022677134
0.040426668 0.040772732 -0.0075852606 -0.45988998 0.774239 -0.4348048 0.0015587063
0.042601835 0.041594058 -0.008317004 -0.45769051 0.73048973 -0.50685716 0.0020230527
0.068685085 0.040270578 -0.008474865 0.74092907 -0.075602286 -0.66731429 0.0024056325
0.069934368 0.040711448 -0.0070827799 0.7794112 -0.10901987 -0.61695445 0.0018961146
-0.069314294 0.043920368 -0.0064955149 -0.73401183 -0.24846202 -0.63205475 0.0024304737
-0.067794047 0.043508738 -0.0079660639 -0.67509198 -0.17820011 -0.71588796 0.0035259333
-0.042416595 0.04494901 -0.0087610483 0.38984174 0.72445267 -0.56849957 0.0014446712
-0.040219106 0.04439697 -0.0079492321 0.39861697 0.75521201 -0.52034545 0.0014989484
-0.037711997 0.043159585 -0.0078664906 0.3808291 0.76422322 -0.52051127 0.0018341709
-0.035367042 0.042372126 -0.0072488263 0.3864935 0.78349096 -0.48658475 0.0010907701
0.041664522 0.042240474 -0.0064069317 -0.46409312 0.76281863 -0.45025042 0.0014790319
0.043738578 0.042935837 -0.0073074102 -0.4544166 0.7588858 -0.46647382 0.0020211441
0.046278015 0.044110268 -0.007852423 -0.42272916 0.74114859 -0.52153504 0.0022977814
0.048604026 0.044825941 -0.0086896596 -0.40905017 0.7017312 -0.5833106 0.0014604126
0.068664618 0.043500308 -0.0086432844 0.70540744 0.028353421 -0.70823473 0.0027096886
0.07004384 0.043636605 -0.0071810698 0.76393908 -0.0041115638 -0.64527524 0.0029820891
-0.06977886 0.04660219 -0.0067568733 -0.70045912 -0.12923044 -0.70189494 0.0049794838
-0.068021595 0.046559852 -0.0082691833 -0.59236479 -0.054046027 -0.80385506 0.0029313846
-0.048094966 0.047660597 -0.008851219 0.31770164 0.69536901 -0.6446144 0.0013538797
-0.046346571 0.047341298 -0.0082755405 0.34933165 0.73117894 -0.58595622 0.0018941123
-0.043461949 0.04633002 -0.007582624 0.37059131 0.74515587 -0.55444103 0.00099372061
-0.040977318 0.045404553 -0.0070177 0.40642825 0.7598232 -0.50742954 0.0013233026
0.047202181 0.045476377 -0.0066368156 -0.46184832 0.74561906 -0.48036268 0.0021970419
0.04955684 0.046286661 -0.0074950303 -0.41328815 0.73295975 -0.54033595 0.001261228
0.052129027 0.047268461 -0.0081251906 -0.37696356 0.69244581 -0.61515629 0.0017494797
0.054423392 0.047859516 -0.0088237096 -0.34828931 0.66605937 -0.65959042 0.0023703808
0.068378069 0.046236739 -0.0086470507 0.53939986 0.13205563 -0.83163035 0.0029891927
0.069635913 0.046275828 -0.0075207483 0.63912892 0.10909832 -0.76132238 0.0027765092
-0.070054255 0.049570739 -0.0068069813 -0.62451375 -0.017159678 -0.78082526 0.008556175
-0.067768484 0.049591333 -0.0083383126 -0.48560315 0.076901503 -0.8707903 0.0050640516
-0.065609246 0.050907064 -0.0089207245 -0.1843994 0.31817016 -0.92992723 0.0090250708
-0.057111274 0.050988879 -0.0089304307 0.0869831 0.69384223 -0.71485448 0.0036724757
-0.054977011 0.050794806 -0.0086845541 0.21246573 0.71849912 -0.66228193 0.0024880318
-0.052300692 0.050198674 -0.008134882 0.30822855 0.74582899 -0.59053731 0.0022031702
-0.049597606 0.049270023 -0.0077863173 0.33479944 0.74006635 -0.58327615 0.0013292072
-0.046966922 0.048644662 -0.0068203826 0.3555761 0.7483319 -0.55996883 0.0010679638
0.050848946 0.048062049 -0.0061933356 -0.45999292 0.73838556 -0.4931463 0.0012687356
0.052922267 0.048680063 -0.0069907047 -0.4064846 0.71528912 -0.56844676 0.0020582841
0.055507559 0.049553487 -0.00765752 -0.33731541 0.68460977 -0.64616388 0.0020247956
0.058272406 0.050218526 -0.0083137536 -0.26280883 0.65747178 -0.70616025 0.0031754281
0.061349392 0.050774369 -0.0087683676 -0.13158911 0.56482428 -0.81465191 0.0042286594
0.065132447 0.050783377 -0.0088915676 0.12445503 0.41295269 -0.90220898 0.0099693155
0.067582555 0.049662996 -0.0083946763 0.433593 0.22107926 -0.873568 0.0068615978
0.069633566 0.04969484 -0.0070199971 0.59711915 0.1486412 -0.78826046 0.0053489166
-0.070099652 0.052573353 -0.0067089419 -0.48633376 0.11208803 -0.86655396 0.009657532
-0.067512266 0.052557927 -0.0078057274 -0.2773149 0.2871373 -0.91686893 0.014436957
-0.064544283 0.052613467 -0.0082677184 -0.07850454 0.4837614 -0.87167192 0.01028417
-0.061486989 0.052801747 -0.008044594 0.097550191 0.62112159 -0.77761942 0.0034974709
-0.058530122 0.052558258 -0.0077108121 0.17864576 0.71801853 -0.67270732 0.0030204765
-0.055663463 0.052001912 -0.0074968678 0.22409867 0.74463934 -0.62872255 0.0018304716
-0.052968096 0.051470418 -0.0069372659 0.32687205 0.75954545 -0.56235689 0.0011500923
0.056475915 0.05127091 -0.0062774997 -0.4119181 0.71731305 -0.56194788 0.0032708975
0.058758408 0.051872965 -0.0069308095 -0.35433567 0.67634219 -0.64576113 0.0032123823
0.061498571 0.052520093 -0.007515837 -0.24242432 0.59527737 -0.76607788 0.0060664378
0.064465515 0.05256933 -0.0080322279 0.02774886 0.45117652 -0.89200324 0.010099086
0.067413665 0.052512441 -0.007618079 0.28123119 0.31888238 -0.90510947 0.011722618
0.069501117 0.052771971 -0.0065584104 0.49112716 0.21155131 -0.84500897 0.0085564377
-0.069984928 0.055117428 -0.0063484604 -0.27245533 0.31928241 -0.90764904 0.014816642
-0.067532502 0.05540204 -0.0066726194 -0.075606823 0.42264321 -0.90313697 0.010299757
-0.064703174 0.054955106 -0.0068024322 0.097242646 0.57774168 -0.81040627 0.0092976866
-0.061742861 0.054522458 -0.0065328437 0.18195692 0.68111151 -0.70921004 0.0054777265
-0.059175491 0.054083347 -0.0061259954 0.22280827 0.72836059 -0.64795625 0.0028698347
0.062179621 0.05437237 -0.0062961592 -0.33219907 0.62265378 -0.70848149 0.0055390666
0.064678848 0.055095989 -0.0066088531 -0.16988178 0.4966968 -0.85113597 0.011295694
0.06743934 0.055479545 -0.0065815081 0.087341547 0.3426806 -0.93538308 0.017520266
0.069382787 0.055115756 -0.0061686873 0.36502838 0.24689303 -0.89766258 0.0081765335
0.067347765 0.057259936 -0.0060315579 0.0032054407 0.30549559 -0.95218813 0.020462431
-0.015097449 0.0029763097 -0.0033318345 -0.27274978 -0.90766889 -0.31897464 0.0024580795
-0.013170257 0.0026485217 -0.0040039113 -0.21267131 -0.92648733 -0.31047088 0.00247704
-0.010136787 0.0023683608 -0.0049074958 -0.16575626 -0.90683609 -0.38752168 0.0013387827
-0.0078504235 0.0020735199 -0.0049187983 -0.13733172 -0.91074163 -0.38947359 0.0019801389
-0.0045566326 0.0014773778 -0.0046540275 -0.10793782 -0.93671834 -0.33302882 0.0027686304
-0.0014122437 0.0011393445 -0.0043281657 -0.061353821 -0.92912501 -0.36464006 0.0018991001
0.0014225789 0.0010635251 -0.0044622207 -0.032966372 -0.92268729 -0.38413718 0.0017181109
0.0047887489 0.0011697317 -0.0048763747 0.0092365323 -0.90212649 -0.43137276 0.0014453587
0.0071250554 0.0012287757 -0.0048650918 0.036398556 -0.91529661 -0.40113255 0.0013045379
0.010547548 0.0013676815 -0.0047910563 0.059170686 -0.91953433 -0.38852981 0.0011736602
0.013483837 0.0017435168 -0.0050349026 0.088317372 -0.91020054 -0.40464178 0.0012865708
0.016114853 0.0019573779 -0.0047201891 0.11627848 -0.93140668 -0.34490713 0.0010515091
0.019218279 0.0024442533 -0.0048761205 0.14989179 -0.919312 -0.36386526 0.0014434385
0.02202189 0.0027120756 -0.0038875618 0.19072486 -0.95635951 -0.22136073 0.00070495892
0.02400835 0.0028918632 -0.0030728942 0.17094059 -0.97517914 -0.1407302 0.0020882343
-0.02433297 0.0059415647 -0.0032966221 -0.34182411 -0.91474164 -0.21541597 0.0016396835
-0.022246607 0.005631356 -0.0047188532 -0.31791604 -0.87236559 -0.37135926 0.0017147852
-0.019487141 0.0047375793 -0.0049198815 -0.2733452 -0.88046259 -0.38738635 0.0017173522
-0.016286986 0.0038490382 -0.0049239048 -0.25127745 -0.89267457 -0.37415487 0.0013266056
-0.013714117 0.00330461 -0.0053839479 -0.21820024 -0.88302094 -0.41552693 0.0018411503
0.020671219 0.0030332054 -0.0058804983 0.17673805 -0.93392485 -0.31072193 0.0016445374
0.022729158 0.0033392929 -0.0054558176 0.19047448 -0.90511543 -0.38011244 0.0011094135
0.025250601 0.0037361614 -0.004969487 0.22706473 -0.90638459 -0.35624242 0.00083520042
0.028505407 0.0044893725 -0.0045233881 0.2610153 -0.9236756 -0.28052527 0.0019494006
0.031329807 0.0052933106 -0.0044278172 0.2829234 -0.92255837 -0.26237473 0.0021517649
0.033437312 0.005821825 -0.0039383499 0.32846087 -0.91324836 -0.24102077 0.0019197997
-0.030795883 0.0087583978 -0.0040875776 -0.35514766 -0.88229883 -0.30889949 0.0021086959
-0.028290922 0.0080550993 -0.0049714376 -0.34041771 -0.86388284 -0.37124416 0.0015278115
-0.025541665 0.0069887885 -0.0049896236 -0.33395702 -0.86735493 -0.36900958 0.0013018738
-0.023584725 0.0064352113 -0.0055043618 -0.33839789 -0.85615361 -0.39049691 0.0019301133
0.032475635 0.0060561639 -0.0057809795 0.29842913 -0.90137976 -0.31377482 0.0026710618
0.034709524 0.0065808939 -0.0048068329 0.34662816 -0.90089911 -0.26120847 0.001613513
0.037423339 0.0075463336 -0.0045976951 0.33690929 -0.9085539 -0.24702646 0.0012696282
0.039982338 0.0085067386 -0.0043320572 0.38921791 -0.89030617 -0.23635645 0.0021377101
-0.036870942 0.011557436 -0.0043629613 -0.40648741 -0.85678643 -0.31730902 0.0021654416
-0.034664024 0.010710065 -0.0048926845 -0.39644918 -0.8446365 -0.35974613 0.0013943613
-0.03186385 0.0096189519 -0.005174573 -0.35920745 -0.85739028 -0.36858091 0.0014413093
0.041205484 0.0092893317 -0.0049672937 0.40712327 -0.87017071 -0.27758521 0.0014726076
0.043550037 0.010299911 -0.0046706479 0.43173632 -0.85600233 -0.28436574 0.0019586626
0.04606973 0.01141341 -0.0042389557 0.45223773 -0.85643268 -0.24900632 0.0018873047
-0.042532708 0.014661965 -0.0045312885 -0.49346974 -0.79340774 -0.35635909 0.0014845803
-0.040349025 0.013629594 -0.0049494379 -0.45440489 -0.81344837 -0.36306751 0.0015732223
-0.037918124 0.012422095 -0.005155087 -0.42961591 -0.82740039 -0.36171642 0.0013573966
0.047404315 0.01243347 -0.0049806288 0.48813972 -0.83533704 -0.25284714 0.0015834884
0.049440198 0.01347314 -0.0045823292 0.48623648 -0.83575928 -0.2551088 0.0016128471
0.051505823 0.014661932 -0.004523355 0.50739026 -0.81233126 -0.28752911 0.0015998489
-0.046172678 0.017198401 -0.0046014613 -0.53504336 -0.77438605 -0.33772016 0.0014409674
-0.043889079 0.015737295 -0.00487509 -0.51842356 -0.78354764 -0.34247637 0.0013105702
0.052865036 0.01570889 -0.0048092646 0.53528935 -0.7955761 -0.28376776 0.001802548
0.055085525 0.017138829 -0.0044725984 0.55896664 -0.77555263 -0.2933844 0.0014913465
-0.051376607 0.020659044 -0.0038202121 -0.57541645 -0.76470172 -0.29004687 0.0017625042
-0.049610306 0.019688891 -0.0046738791 -0.56065345 -0.75920886 -0.33055952 0.001045068
-0.047522768 0.018448314 -0.005376548 -0.54496455 -0.76476312 -0.34373102 0.0013826987
0.056434419 0.018365562 -0.0051607341 0.56774813 -0.76272094 -0.30970788 0.002293065
0.058457114 0.01973171 -0.0045204572 0.61791509 -0.72371745 -0.30726871 0.0018830572
0.060258146 0.020972311 -0.0037914349 0.63987958 -0.71166754 -0.28997159 0.0015307284
-0.05459841 0.02348859 -0.0046568811 -0.58923304 -0.73200083 -0.34202218 0.0013871972
-0.052668881 0.022069247 -0.0049133445 -0.57360971 -0.74370486 -0.34332931 0.0014117259
-0.050746795 0.021121893 -0.0059596905 -0.54640067 -0.72241181 -0.4237541 0.00053361314
0.059822652 0.021312004 -0.0052123787 0.63742054 -0.69757479 -0.32723784 0.0017397896
0.061418936 0.022545954 -0.0047436072 0.66040903 -0.65572417 -0.36590403 0.00083554268
-0.057979014 0.026187589 -0.0044032279 -0.61744231 -0.70205915 -0.35479304 0.0015481658
-0.056073558 0.024799511 -0.0049025151 -0.60019571 -0.71894646 -0.35054415 0.0014511972
0.064232059 0.02551551 -0.0047015212 0.71367407 -0.60184854 -0.35839602 0.0012614961
-0.060818333 0.029029889 -0.0045714532 -0.68114763 -0.63601655 -0.36265799 0.0017455252
-0.059395909 0.02769362 -0.0049126851 -0.65413892 -0.67089581 -0.34928638 0.0017092502
0.065654531 0.027713932 -0.0053276704 0.74111825 -0.55914968 -0.37161195 0.0025324004
0.066758648 0.028742949 -0.0044434825 0.76496863 -0.48572567 -0.42295823 0.0014886543
-0.063703388 0.032252226 -0.0046066302 -0.7252937 -0.57938504 -0.37183607 0.0019766509
-0.062211413 0.030748859 -0.0050173351 -0.70332515 -0.61493534 -0.35663465 0.0020461127
-0.0070183626 0.032817498 -0.0056409016 0.16878723 0.88831061 -0.42710084 0.0017326372
-0.0043038651 0.032621566 -0.0051516858 0.1459057 0.90130675 -0.40786967 0.0016423902
-0.0014150784 0.032440517 -0.004716096 0.11287231 0.91700727 -0.38256687 0.0020204789
0.0017197761 0.032170519 -0.0048016631 0.047593594 0.92077023 -0.38719127 0.0028521258
0.004152637 0.032281145 -0.0043424889 0.030344706 0.93329895 -0.35781604 0.0021051627
0.007539297 0.032145981 -0.004716191 -0.039993666 0.94578689 -0.32231608 0.0031893179
0.010465958 0.032283105 -0.0048641693 -0.11744677 0.93465024 -0.33561161 0.0033019444
0.013903837 0.032695774 -0.0048395791 -0.15044186 0.92231339 -0.3559567 0.0019820493
0.015723882 0.032790881 -0.0054445672 -0.19461781 0.90906501 -0.36840835 0.0021258907
0.067543477 0.030759469 -0.0053801127 0.76101279 -0.40516916 -0.50665331 0.0012873593
0.06905473 0.031841192 -0.003363607 0.81861186 -0.40942281 -0.40279976 0.0010282252
-0.066575944 0.035552066 -0.0038999848 -0.76097304 -0.52023017 -0.38766047 0.0022947986
-0.065091409 0.03422951 -0.0048677935 -0.74143273 -0.56316495 -0.36485994 0.0019090627
-0.018519729 0.035765175 -0.0055381432 0.30611485 0.89230919 -0.33178017 0.0027572631
-0.016517131 0.035345022 -0.0052702962 0.25678161 0.87340593 -0.41379371 0.0012542406
-0.013231449 0.034473449 -0.0050510392 0.23373656 0.87369847 -0.42663595 0.0010964916
-0.010494327 0.033871897 -0.0047569731 0.20463888 0.90551817 -0.37169838 0.0013884547
-0.0071602371 0.033374384 -0.004359975 0.16361855 0.89607918 -0.41263914 0.001635347
-0.0051055825 0.033260848 -0.0038621556 0.14665365 0.92235845 -0.357418 0.0015461437
0.014128985 0.033082135 -0.0038485499 -0.15506861 0.93265009 -0.32575688 0.00093894592
0.016681334 0.033362828 -0.0043424536 -0.18587364 0.93818051 -0.29200754 0.0026337665
0.019501811 0.033952765 -0.0046556471 -0.22314045 0.91149265 -0.34552783 0.0020623466
0.022599956 0.034839462 -0.004613677 -0.2619431 0.90785086 -0.32740298 0.0012331456
0.025206154 0.035448115 -0.004993449 -0.28647241 0.89820153 -0.33341798 0.0015351707
0.027653828 0.035903994 -0.0055799447 -0.28633603 0.90079212 -0.32647413 0.0026420699
0.068857528 0.033688471 -0.0057417243 0.82571232 -0.34726718 -0.44452751 0.0012366242
0.069532357 0.034860604 -0.0052550533 0.81938279 -0.30246523 -0.48695651 0.0020287542
-0.067513071 0.037560154 -0.0046528527 -0.78396958 -0.48455146 -0.38807404 0.0023063498
-0.065975226 0.036123693 -0.00584818 -0.75924575 -0.47275913 -0.44726366 0.0059917374
-0.027064288 0.038956814 -0.0058892542 0.39752746 0.84123808 -0.36645663 0.0040694159
-0.025165418 0.038695414 -0.0048020082 0.35245222 0.85171312 -0.38776579 0.0011489281
-0.022385299 0.037404109 -0.0050887354 0.33966765 0.86823779 -0.36164764 0.0011463345
-0.019963941 0.036547445 -0.0049014972 0.30689472 0.86310023 -0.40109053 0.0015036529
-0.017609566 0.036129579 -0.004088819 0.27151048 0.89943904 -0.34247857 0.00073244469
0.026288077 0.03610922 -0.0039985171 -0.27706909 0.92098528 -0.27389568 0.00213204
0.028418025 0.036569476 -0.0046341731 -0.29977375 0.89542639 -0.32916155 0.0017067081
0.031579528 0.037730064 -0.0045352713 -0.34348649 0.87901056 -0.33069223 0.0018805995
0.033859871 0.038531143 -0.0050264876 -0.39696252 0.85536766 -0.33281663 0.002132521
0.070547 0.037523903 -0.0050544892 0.82621431 -0.21340233 -0.52137262 0.0017070428
-0.069647066 0.040910192 -0.0042343563 -0.81620878 -0.39525321 -0.4214004 0.0033520535
-0.068574198 0.039929498 -0.0052931346 -0.80063182 -0.40466926 -0.44185001 0.003889747
-0.031425327 0.041542668 -0.0046531986 0.40905511 0.83856636 -0.35983378 0.0014520236
-0.02811506 0.039877102 -0.0048588645 0.36956948 0.84853822 -0.37868363 0.0017292298
-0.026385067 0.039413095 -0.0042675217 0.36627609 0.85192567 -0.37425205 0.0011636917
0.035073526 0.039340209 -0.0043595545 -0.39676994 0.85233933 -0.34072173 0.0019724932
0.037487164 0.040450152 -0.0046845898 -0.45527142 0.82799238 -0.32734764 0.002011311
0.039551467 0.041523192 -0.0050718882 -0.48241603 0.81366497 -0.32438266 0.001599221
0.071208663 0.04041345 -0.0050002411 0.82793808 -0.12643468 -0.54638153 0.0019241285
-0.07050278 0.043619853 -0.004628941 -0.82543814 -0.29546255 -0.48099256 0.0031961973
-0.039129384 0.044950079 -0.0058977953 0.45064369 0.80952132 -0.37629172 0.0041085305
-0.037072144 0.044510994 -0.0043680575 0.43823576 0.81863803 -0.37118906 0.0015562151
-0.034508061 0.043054223 -0.0046624029 0.42236695 0.85441041 -0.3026368 0.002330109
-0.032529578 0.042336486 -0.0040214262 0.41114679 0.86162961 -0.29757813 0.0023692318
0.040889833 0.042630032 -0.0042959242 -0.48266029 0.81057674 -0.33166897 0.0017686273
0.043413054 0.044102397 -0.0046285554 -0.51558721 0.79601425 -0.31706637 0.0012394423
0.04527086 0.044834927 -0.0057409317 -0.471131 0.78478926 -0.40266776 0.002550415
0.071394011 0.042953812 -0.0052577909 0.83145678 -0.075871535 -0.55038458 0.0028233062
0.072172046 0.044221934 -0.0039053187 0.7974695 0.0058727372 -0.60333067 0.0011729576
-0.072300576 0.047150623 -0.0035817791 -0.82823735 -0.27290934 -0.48943174 0.0041072667
-0.071238838 0.046417106 -0.0049247141 -0.80734646 -0.21971078 -0.54764855 0.0056460313
-0.042921994 0.047502592 -0.004735752 0.44622871 0.82660329 -0.34293866 0.0031228289
-0.040498551 0.04624638 -0.0045577479 0.46489698 0.82837063 -0.31252676 0.0030267087
-0.03837806 0.045378618 -0.0038148144 0.47505319 0.84723097 -0.23774827 0.0029039544
0.044695932 0.045347512 -0.0035703622 -0.51264006 0.79320168 -0.32868123 0.0013478808
0.046653166 0.046230864 -0.0045189336 -0.51099998 0.7781958 -0.36508945 0.0022670862
0.048813473 0.047383189 -0.0050613508 -0.49581784 0.77462673 -0.39257878 0.0024177916
0.071745917 0.04650566 -0.0047580004 0.78129059 0.043342113 -0.62266082 0.0011603499
0.072082669 0.047702216 -0.0042014578 0.80522281 0.037303306 -0.59179789 0.00035195032
-0.072702356 0.04968797 -0.0040070079 -0.77746284 -0.22194518 -0.58846563 0.0057189665
-0.071488567 0.049593318 -0.0055171079 -0.72290957 -0.12664984 -0.67923605 0.005858202
-0.04924662 0.050577153 -0.0055144001 0.37240294 0.77955002 -0.50360477 0.0013526672
-0.046423528 0.04945093 -0.00464836 0.44540778 0.81725228 -0.36566463 0.002873756
-0.044267766 0.048464857 -0.0041851164 0.42342171 0.83408809 -0.35356915 0.0021802294
0.050004113 0.048511695 -0.0042434395 -0.49005607 0.78164309 -0.38584843 0.0021484504
0.052401077 0.049838707 -0.0046825004 -0.49550158 0.77382225 -0.39455962 0.0021521859
0.054481577 0.050611883 -0.0055918321 -0.46401945 0.75727892 -0.45958078 0.0031776868
0.071204498 0.04963759 -0.005377051 0.7339617 0.081662506 -0.6742636 0.0043942034
0.072375767 0.049772512 -0.0036168057 0.78160781 0.069254734 -0.61991382 0.00091032684
-0.073294304 0.052668411 -0.0043302239 -0.71865934 -0.20120528 -0.66561645 0.0070067681
-0.071619026 0.052332502 -0.0056841555 -0.60978884 -0.028286384 -0.792059 0.0077521629
-0.057485763 0.053924873 -0.0055763265 0.25600716 0.81409085 -0.52126426 0.0041359253
-0.055426985 0.053437013 -0.0052647814 0.28119701 0.8047713 -0.5227536 0.0017367569
-0.052693259 0.052425649 -0.0051978282 0.34044543 0.79483932 -0.50232196 0.0016454346
-0.050458971 0.051293444 -0.0052552931 0.36485562 0.78117144 -0.50660795 0.0017001508
0.053659901 0.051245671 -0.0033938477 -0.48954022 0.78823268 -0.37288016 0.0037717994
0.055707674 0.051948532 -0.0045392229 -0.45607698 0.77563888 -0.43632337 0.0032177467
0.058157455 0.053133275 -0.0049919919 -0.43771175 0.73407829 -0.51916999 0.0056429431
0.060262851 0.053763907 -0.0057215276 -0.40671211 0.67326349 -0.61749619 0.0088659497
0.071052819 0.05267667 -0.0052128723 0.75269216 0.075973898 -0.65397441 0.0030516072
0.072577029 0.052344427 -0.0031657042 0.75869495 0.045162048 -0.64987874 0.0022497657
-0.075153828 0.055538569 -0.003179708 -0.76624089 0.04186419 -0.64118814 0.027447425
-0.07347881 0.055546332 -0.0045993398 -0.63154668 0.13179703 -0.76405388 0.020455325
-0.071052313 0.055958811 -0.0057707014 -0.35614455 0.18506452 -0.91592151 0.015821163
-0.067424841 0.056810841 -0.0059025702 0.031733029 0.54323864 -0.83897835 0.0088237198
-0.064190157 0.056428734 -0.0055100438 0.21853401 0.67218649 -0.70739532 0.0052853506
-0.06144039 0.055827539 -0.0048421021 0.27421767 0.73140311 -0.62438303 0.0041499096
-0.058725733 0.054821387 -0.0048040347 0.24604852 0.77421695 -0.58313662 0.0020527982
-0.056247503 0.054214053 -0.004280664 0.2939111 0.82854426 -0.4765822 0.0016954996
0.059178602 0.054484736 -0.0039982814 -0.47867614 0.72496575 -0.49527144 0.0044810968
0.061531018 0.055542737 -0.0046606953 -0.45341742 0.67705542 -0.5796625 0.0067821699
0.064056776 0.056390863 -0.0055077858 -0.33028281 0.57211286 -0.75073308 0.01134082
0.067608409 0.05694725 -0.0059190202 0.019362429 0.40754598 -0.91297942 0.017368775
0.070458777 0.055681586 -0.0053122262 0.42678493 0.17438002 -0.88738161 0.012661393
0.072208747 0.055863302 -0.0036029888 0.66861761 0.053013779 -0.74171418 0.0085453084
-0.073126346 0.057733569 -0.0042800959 -0.55317873 0.46835715 -0.68893749 0.020808892
-0.070486195 0.058437247 -0.004925055 -0.2406594 0.64258081 -0.72744274 0.025708409
