# .PCD v0.7 - Point Cloud Data file format
VERSION 0.7
FIELDS x y z normal_x normal_y normal_z curvature
SIZE 4 4 4 4 4 4 4
TYPE F F F F F F F
COUNT 1 1 1 1 1 1 1
WIDTH 557
HEIGHT 1
VIEWPOINT 0 0 0 1 0 0 0
POINTS 557
DATA ascii
0.067579746 0.064453945 -0.0038249057 -0.42510796 0.17644769 -0.88777775 0.020555137
0.070372559 0.064540446 -0.0043385047 0.059441235 0.065841809 -0.99605805 0.023260437
0.072553635 0.064657927 -0.0034997994 0.27402714 -0.023461172 -0.96143579 0.021437947
0.068013512 0.067352593 -0.0036630549 -0.54470557 0.10496824 -0.83203208 0.017853262
0.070402019 0.067473792 -0.0043654111 -0.067563094 0.005889501 -0.99769765 0.02508375
0.072912753 0.067636013 -0.0037159878 0.38230416 -0.08740405 -0.9198935 0.012775901
0.068379201 0.070362829 -0.0034981845 -0.68383181 0.08630418 -0.72451752 0.027635531
0.07045199 0.070504941 -0.0043946002 -0.28444099 -0.015660755 -0.95856571 0.028735025
0.073141433 0.070598342 -0.0041035372 0.19907975 -0.15448859 -0.96772963 0.016128132
0.075140797 0.071823314 -0.0031873833 0.55821973 -0.20835622 -0.80310553 0.0039430209
0.068543248 0.073387012 -0.0033972363 -0.72618413 0.091279253 -0.68141377 0.024425499
0.07039573 0.07348416 -0.0045346981 -0.3592419 -0.021053586 -0.93300694 0.027944082
0.073382899 0.073564805 -0.0047573498 0.14251244 -0.071736641 -0.98719001 0.036825541
0.075644843 0.073769644 -0.0035813446 0.32939231 -0.17553176 -0.92773348 0.052857105
0.068725713 0.075834855 -0.0033052585 -0.64733678 0.24838196 -0.72059798 0.06310638
0.070280522 0.075805366 -0.0044121831 -0.46620548 0.24267624 -0.85074127 0.054163057
0.072928004 0.075427555 -0.0049880245 -0.06180393 0.13225631 -0.9892869 0.050391953
0.075327039 0.075093292 -0.0036963208 0.28929365 0.32613 -0.89997131 0.088726193
-0.015803473 0.0028263053 -0.001393477 -0.25145635 -0.95544142 -0.15460096 0.00098013901
-0.013424961 0.0022081048 -0.0016619185 -0.22535929 -0.95771319 -0.17888159 0.0015612151
-0.010898856 0.0017119853 -0.002089191 -0.17159863 -0.96715933 -0.18750139 0.0017983129
-0.0076587237 0.0011845158 -0.0015640919 -0.14307255 -0.97098643 -0.19161296 0.0020960229
-0.0044920524 0.00076765276 -0.001817556 -0.10568611 -0.97187644 -0.21044368 0.00227629
-0.001929855 0.00063094118 -0.0021179982 -0.075867601 -0.97478098 -0.20987193 0.0021483025
0.0014522094 0.00041498936 -0.0016052353 -0.035420179 -0.99015039 -0.13545363 0.0042483192
0.0049783448 0.00045362907 -0.0022006806 0.016745502 -0.96887493 -0.24698384 0.0028841265
0.0072721024 0.00046952625 -0.0015382164 0.038456962 -0.973297 -0.22630522 0.0013992649
0.010412239 0.00064319285 -0.0017574665 0.074620813 -0.98210359 -0.17292832 0.0021318831
0.013488818 0.00092744769 -0.0016726045 0.12412183 -0.9793067 -0.15985076 0.0030840507
0.016520787 0.0013079983 -0.00140617 0.14096919 -0.97925633 -0.14554967 0.0025599555
0.01947578 0.0017849222 -0.001695045 0.17350237 -0.97267443 -0.15427677 0.0017537596
0.02251542 0.0024102363 -0.0015553811 0.2018372 -0.96735406 -0.15325761 0.001522225
0.024667006 0.0028279773 -0.0010969164 0.22032697 -0.96742439 -0.12468343 0.0012444123
-0.024833182 0.005831508 -0.0015994224 -0.34873059 -0.91812611 -0.18823239 0.00063519459
-0.022664554 0.0050091296 -0.0017102635 -0.33214974 -0.92231697 -0.19750403 0.00071004132
-0.019570539 0.0039043939 -0.0017316424 -0.29175791 -0.94062918 -0.17347644 0.00063655537
-0.017399097 0.0033110557 -0.0018449245 -0.27357337 -0.94706422 -0.16800894 0.00078004738
0.025937466 0.003199649 -0.0018924571 0.25602481 -0.95611858 -0.14243791 0.0014645403
0.028496217 0.0038841597 -0.0014048128 0.27418333 -0.95162547 -0.13868128 0.0011985018
0.031112399 0.0046865451 -0.0016189049 0.2898671 -0.94761699 -0.1341608 0.0010478792
0.034057159 0.0056371787 -0.0014837653 0.32546666 -0.94153053 -0.087130085 0.0017978493
-0.031414326 0.0084724529 -0.0015294724 -0.3706601 -0.90132987 -0.22408803 0.00048007059
-0.028545486 0.0073003802 -0.0018407442 -0.35656896 -0.9090507 -0.21560487 0.00098467036
-0.026227567 0.0063854568 -0.0017801531 -0.35316017 -0.9124707 -0.20657966 0.0011079852
0.035512596 0.0062067602 -0.0016160746 0.36621234 -0.92669809 -0.08437413 0.0017787575
0.037547912 0.0069681094 -0.0014653435 0.3651067 -0.92678183 -0.08816199 0.0017049847
0.040451292 0.008189748 -0.0016090693 0.40208998 -0.90661561 -0.12795222 0.0012128353
0.042198297 0.0088939592 -0.00057639397 0.41956258 -0.8994565 -0.12225079 0.0010430663
-0.039108433 0.011984147 -0.0013135185 -0.45669594 -0.85518795 -0.24511699 0.0019285257
-0.03750499 0.011263066 -0.0017643211 -0.42732108 -0.87362427 -0.23276007 0.00085026701
-0.034708764 0.0098837027 -0.0016852132 -0.40316838 -0.88501251 -0.23282659 0.00061677606
-0.032799363 0.0091272611 -0.0023302969 -0.37949169 -0.89505774 -0.23421718 0.00078312994
0.043540169 0.0096467873 -0.0016076645 0.43497077 -0.89188874 -0.12383433 0.001055338
0.046363518 0.011042568 -0.0014672087 0.46180275 -0.8788209 -0.12005025 0.0012014011
0.048105434 0.011990491 -0.0010516952 0.47975478 -0.86361122 -0.15495493 0.00044731461
-0.043059364 0.014236899 -0.0014828163 -0.50546885 -0.83449095 -0.21937686 0.0025823445
-0.040448252 0.012800996 -0.0016366934 -0.46263933 -0.85483068 -0.23500921 0.00083822134
-0.038811155 0.01207431 -0.0024908131 -0.4602181 -0.85568827 -0.23663673 0.00079149753
0.047966953 0.012064634 -0.002372554 0.48027012 -0.87170595 -0.097311176 0.0019711473
0.049577747 0.012909323 -0.001718951 0.50208062 -0.85547185 -0.12681866 0.0011246571
0.051928859 0.014262792 -0.0014206293 0.52606905 -0.8411333 -0.12548412 0.0012896094
-0.048316579 0.017858032 -0.0014060476 -0.57471341 -0.78521979 -0.23050906 0.0009559652
-0.046559621 0.016668709 -0.0016031832 -0.55631477 -0.79524606 -0.24103454 0.0023694332
-0.044549 0.015301839 -0.0019067238 -0.55431759 -0.79801953 -0.23642522 0.0027313365
0.053290915 0.015255702 -0.0019225163 0.56507808 -0.81425989 -0.13291956 0.0014163126
0.055529088 0.016756207 -0.001511388 0.57276595 -0.80847228 -0.13532096 0.0013999529
0.057195108 0.017827334 -0.00087435386 0.58838993 -0.79765677 -0.13244268 0.0017554153
-0.05174733 0.020420693 -0.0014889635 -0.59490436 -0.77772826 -0.20304541 0.00106135
-0.049788348 0.018967137 -0.001618469 -0.57277048 -0.78541273 -0.23465019 0.0010048876
0.058549151 0.019003501 -0.0016321494 0.6142177 -0.77648968 -0.14071395 0.0017010557
0.06036358 0.020484501 -0.0014357684 0.64480793 -0.74904239 -0.15217835 0.002474163
-0.055098224 0.022993285 -0.0016001428 -0.60933918 -0.76892138 -0.1935605 0.00087368407
-0.05316104 0.021504439 -0.0017076463 -0.59883571 -0.77215683 -0.21253175 0.0013523031
0.061837684 0.02194058 -0.0018738365 0.68530238 -0.70511127 -0.18215048 0.0017431175
0.063454151 0.023558551 -0.0018058427 0.71405154 -0.66694504 -0.21287255 0.0022637332
-0.058419149 0.025732759 -0.0015924373 -0.64349288 -0.73934978 -0.19818887 0.00076614402
-0.056659792 0.024289539 -0.0017361268 -0.62596273 -0.75201267 -0.2065129 0.00095188722
0.064987838 0.025281131 -0.0016618829 0.75027734 -0.62505424 -0.21538614 0.0021795647
0.066159435 0.026619792 -0.0010677709 0.79697472 -0.59027433 -0.12809226 0.0030592883
-0.061488543 0.028666427 -0.0014577626 -0.71456736 -0.67695224 -0.17643456 0.0011145065
-0.059954274 0.027210942 -0.002596227 -0.67590129 -0.70325941 -0.22041713 0.0011636523
0.067705989 0.029035926 -0.0019056313 0.81556237 -0.5155049 -0.26289308 0.001918559
-0.064114302 0.031596586 -0.0017781764 -0.75540483 -0.62617201 -0.19305991 0.001663219
-0.062874161 0.030317131 -0.0025738881 -0.74091917 -0.64294755 -0.19405475 0.0018449156
-0.000414315 0.032923147 -0.0026324203 0.09838815 0.97589403 -0.19480909 0.0016300882
0.0016578154 0.03290255 -0.0017080182 0.059938058 0.97115856 -0.23077799 0.0018140925
0.0045485292 0.032881007 -0.0012240824 0.021150537 0.9745028 -0.22337623 0.0023653309
0.0075443434 0.032887943 -0.0012675422 -0.043627474 0.97860461 -0.2010714 0.0025589291
0.010405797 0.032931477 -0.002278358 -0.098856688 0.969266 -0.22527923 0.0022083959
0.012096151 0.032975487 -0.0028063457 -0.10265937 0.984806 -0.14006479 0.0022720892
0.068781517 0.030881774 -0.0022919907 0.83548516 -0.49657398 -0.23532705 0.0029441076
0.069463611 0.0320279 -0.0020185667 0.86991304 -0.41408661 -0.26792452 0.0032941091
-0.06679026 0.034909051 -0.0016428195 -0.79895031 -0.57548183 -0.17463985 0.0024927051
-0.065621242 0.033427455 -0.0016984094 -0.78394026 -0.60408872 -0.14322904 0.0018344329
-0.015438875 0.035851225 -0.0021524469 0.28531191 0.94713259 -0.14675443 0.0027636802
-0.013714917 0.035429161 -0.0016470688 0.2702747 0.93757766 -0.21886009 0.0017146447
-0.010316986 0.034473035 -0.0020455769 0.21175614 0.94953144 -0.23140752 0.0024284008
-0.0075352886 0.034009624 -0.0014603877 0.16676879 0.96465981 -0.20400897 0.0014376433
-0.0045019495 0.033537198 -0.0014914543 0.13327534 0.97343445 -0.18618032 0.0014252977
-0.0021476031 0.033294033 -0.0010894602 0.10634387 0.98012656 -0.16746022 0.0013390929
0.00087000302 0.033099905 -0.00060219737 0.043196604 0.99798661 -0.04644084 0.0020136624
0.0043547135 0.033017132 -0.00016153655 0.014208584 0.99989718 0.0019266328 0.0018547227
0.0082427412 0.03302329 -0.00038644258 -0.034536269 0.99897897 -0.029123724 0.0010393111
0.010784757 0.033123728 -0.00092518248 -0.077512547 0.99250519 -0.094473451 0.0025437255
0.013751185 0.033420105 -0.0014420839 -0.14200881 0.97455001 -0.17345244 0.0016169864
0.01662826 0.033888273 -0.001665225 -0.19453229 0.96809995 -0.15792286 0.0021781325
0.019527525 0.034606043 -0.0014255429 -0.25280976 0.95986408 -0.12144181 0.0018541259
0.022419618 0.035383068 -0.0015809445 -0.27333826 0.95487446 -0.11619372 0.0014820504
0.024379805 0.035901852 -0.001891767 -0.29515868 0.94705313 -0.12637919 0.0018560992
0.070439108 0.03436568 -0.0023385424 0.88146532 -0.35032079 -0.31669277 0.0019713882
-0.069241352 0.038494982 -0.0014639322 -0.84790397 -0.48310119 -0.21833937 0.0038890205
-0.06824103 0.037089184 -0.0018948108 -0.81760746 -0.53742731 -0.20661533 0.0027033226
-0.02430414 0.038909249 -0.0024541765 0.39496925 0.90237784 -0.17237629 0.0015876133
-0.022507261 0.038318515 -0.001359759 0.36686969 0.91659933 -0.15890968 0.0014625775
-0.019514894 0.037151668 -0.0014662783 0.30732355 0.93934339 -0.15227036 0.0027307109
-0.016763708 0.036343545 -0.0013978676 0.27687678 0.95291966 -0.12362614 0.0022743815
0.025854692 0.036389656 -0.0014800415 -0.2854287 0.95154124 -0.11445411 0.0017198417
0.028540077 0.037259057 -0.0015049404 -0.31360698 0.94055134 -0.13043725 0.0018334005
0.03148162 0.038315013 -0.0014984903 -0.36024833 0.92330676 -0.13313793 0.0020455564
0.033228967 0.038936883 -0.0022722078 -0.43157467 0.89503568 -0.11249202 0.0023930355
0.071573816 0.037471473 -0.0021111013 0.90403199 -0.26601502 -0.3346076 0.0022086529
0.072278775 0.038906571 -0.00034429974 0.94703108 -0.26229626 -0.18529136 0.0046367431
-0.070278578 0.040422741 -0.0018257988 -0.86665732 -0.42888078 -0.2548849 0.0039141281
-0.030446408 0.041693985 -0.0018256676 0.45896062 0.87983024 -0.12350623 0.001394983
-0.028494278 0.040788412 -0.0015470082 0.41400605 0.90144718 -0.12645933 0.001612479
-0.025735483 0.039642893 -0.0014394867 0.37759584 0.91018248 -0.17026219 0.001587341
-0.023940792 0.039101593 -8.4539417e-05 0.37990624 0.91738921 -0.11860996 0.00083290262
0.032968499 0.039092723 -2.3347806e-05 -0.36541238 0.93051672 -0.024748113 0.0029687861
0.034599219 0.03969026 -0.0015847384 -0.43226972 0.89486599 -0.11116549 0.00221669
0.037359513 0.041114248 -0.0015638957 -0.48556337 0.86477393 -0.12803985 0.0020629165
0.039126117 0.041955911 -0.0025456354 -0.51240361 0.8496868 -0.12439833 0.0029730559
0.071923628 0.039392933 -0.0027912774 0.90832835 -0.17311293 -0.38075128 0.003012819
0.072384104 0.040681921 -0.0016729543 0.94153154 -0.15097405 -0.30120626 0.0021628435
-0.072176062 0.044515219 -0.0013758871 -0.91149771 -0.3422685 -0.22808835 0.0063814698
-0.07144592 0.04310685 -0.0019488602 -0.89048457 -0.35537636 -0.28415632 0.0043806788
-0.036488235 0.044754267 -0.001930844 0.4728691 0.87116432 -0.1321644 0.0021145449
-0.034567311 0.043846462 -0.0014415737 0.45348543 0.88365859 -0.11618287 0.0016655732
-0.03193897 0.042514831 -0.0014031902 0.43428373 0.89172035 -0.12740627 0.0015201092
0.038831897 0.042042028 -0.0012395898 -0.51316255 0.85013092 -0.11807472 0.0026196789
0.040546015 0.043064341 -0.0015218961 -0.52026451 0.84485573 -0.12467458 0.002342799
0.042730808 0.044465415 -0.0015796028 -0.54998904 0.83032858 -0.089813218 0.002376732
0.072700948 0.043443069 -0.0018233496 0.94910437 -0.084818035 -0.30332637 0.0020255391
-0.072766773 0.046573915 -0.0018562562 -0.89280194 -0.29644156 -0.33915642 0.0072591174
-0.042144865 0.047765002 -0.0027371983 0.48030487 0.86180496 -0.16309321 0.0035710235
-0.040499639 0.047021847 -0.0014746567 0.47474065 0.87108612 -0.1258188 0.0020954644
-0.037906315 0.045579899 -0.0013843095 0.46467292 0.87621063 -0.12780489 0.0020299933
0.044231921 0.045486748 -0.0013326691 -0.54804122 0.82989532 -0.10452036 0.0031051391
0.046458147 0.046934415 -0.0016123398 -0.54855722 0.82489121 -0.13652639 0.0032584199
0.048125297 0.047850117 -0.0026528488 -0.55418199 0.81411898 -0.17347215 0.0027550459
0.072842881 0.046314761 -0.001801416 0.93109161 -0.020595599 -0.36420363 0.0023868578
-0.073808163 0.049666788 -0.0019505223 -0.84331292 -0.28254908 -0.45715353 0.006504938
-0.046323955 0.050278042 -0.0015940075 0.48161533 0.86128789 -0.16195604 0.0024892001
-0.043568928 0.048749033 -0.0014758738 0.47330856 0.87130505 -0.12963958 0.002469097
0.04790502 0.048107758 -0.00040863961 -0.5469861 0.83663207 -0.029205354 0.0061358889
0.049460057 0.048951082 -0.0015875142 -0.54785693 0.82249367 -0.15282989 0.0031438246
0.051695537 0.050407212 -0.001802858 -0.55281156 0.81499827 -0.17371583 0.0030579828
0.072921671 0.050074697 -0.0019922708 0.86467302 0.028635951 -0.50151825 0.0020068705
-0.075412095 0.05302937 -0.0015524011 -0.86909133 -0.1432417 -0.4734576 0.023906635
-0.074614771 0.051914435 -0.0023336525 -0.80655432 -0.25257802 -0.53448516 0.0078056245
-0.052224349 0.053343784 -0.0020963 0.39470202 0.87404048 -0.28330824 0.0020126735
-0.049416393 0.051865455 -0.0022943865 0.42823195 0.84506744 -0.32012248 0.0015997556
-0.047754403 0.051153172 -0.0010172921 0.45877826 0.87243599 -0.16845785 0.0023440889
0.053238485 0.051486894 -0.0015184925 -0.53808331 0.82384419 -0.17817715 0.0048333374
0.055471133 0.052878551 -0.0017645459 -0.53614664 0.8159408 -0.21630412 0.004935422
0.057151042 0.053774565 -0.0024606322 -0.5433318 0.80324298 -0.24411294 0.0070591453
0.07289803 0.052500658 -0.0023148202 0.81460524 0.040309299 -0.5786134 0.003607614
-0.075733937 0.055411737 -0.0019161026 -0.82305157 0.023579234 -0.56747711 0.027042648
-0.0749112 0.054196164 -0.0029681209 -0.73650795 0.10729204 -0.66786563 0.023361335
-0.060444009 0.056758326 -0.0021527915 0.44548479 0.8256585 -0.3461667 0.005444237
-0.058334246 0.055818163 -0.0021329962 0.3606368 0.85326904 -0.37666035 0.0038854147
-0.055224281 0.054580383 -0.0020812084 0.32334435 0.88298756 -0.34026667 0.0019929931
-0.05360708 0.054118201 -0.00095974701 0.38002792 0.90433013 -0.1943341 0.0032193179
0.056920122 0.054099027 -0.00048775974 -0.53819752 0.83688164 -0.099863023 0.0068612956
0.05858006 0.055039532 -0.0016939465 -0.5557884 0.78458214 -0.27482721 0.0067656911
0.060679454 0.056548782 -0.0018042285 -0.63935655 0.72113109 -0.26682055 0.0094140377
0.07304129 0.055609256 -0.0018980615 0.81005293 0.028062586 -0.58568484 0.009778494
-0.075377926 0.057215627 -0.0015731993 -0.84039026 0.40351224 -0.36183158 0.074870452
-0.073907435 0.058156397 -0.0018436102 -0.60178894 0.70328838 -0.37846488 0.029084014
-0.071083814 0.059612099 -0.00095065573 -0.34989402 0.90797174 -0.23056769 0.0098867267
-0.066290475 0.059775133 -0.0027814205 0.28772435 0.84579557 -0.44927108 0.01464161
-0.064566687 0.059202738 -0.0022671556 0.35962027 0.77106148 -0.52548772 0.006286867
-0.061821159 0.057648767 -0.0019511544 0.42229104 0.79358834 -0.43805003 0.0046758479
0.062231321 0.058125094 -0.0017297965 -0.71277356 0.60167223 -0.36047816 0.01598073
0.063522406 0.059430379 -0.0022868461 -0.72163832 0.57536089 -0.38496497 0.018207254
0.073180266 0.058859583 -0.0020202643 0.70395964 -0.015735926 -0.7100656 0.0065458193
-0.069500297 0.060332797 -0.0018671541 -0.19391721 0.94353747 -0.26857626 0.023772782
-0.067464493 0.06055247 -0.0020096642 0.06236672 0.91019976 -0.40944698 0.027864346
-0.065791242 0.060162939 -0.001646054 0.26663187 0.88327038 -0.38566941 0.027572433
0.064470746 0.061527357 -0.0017868187 -0.79860443 0.36856765 -0.47580335 0.022020118
0.073239028 0.061312854 -0.0024059704 0.45016456 0.07348913 -0.88991642 0.012794627
0.06534218 0.064345188 -0.0015430873 -0.85383594 0.25463584 -0.45400962 0.018107636
0.066269346 0.065171592 -0.0026721342 -0.77520454 0.21782525 -0.59296721 0.02314703
0.073793128 0.064838663 -0.0022570984 0.51518047 -0.057384316 -0.85515857 0.0070562232
0.065760396 0.067075871 -0.00091864349 -0.87447268 0.22085267 -0.43188158 0.0166979
0.066553213 0.067695506 -0.0022034093 -0.81407791 0.21467836 -0.53962052 0.016657611
0.074354909 0.067636028 -0.0024348723 0.47962493 -0.14238143 -0.86584491 0.0094362004
0.075221829 0.068163775 -0.001166541 0.63215089 -0.20326589 -0.74770868 0.0093800006
0.066987537 0.070477597 -0.0017520246 -0.84920132 0.16363186 -0.5020774 0.012745053
0.074765861 0.069834478 -0.0026516707 0.54566562 -0.22381194 -0.80756253 0.0092051467
0.075489148 0.070747845 -0.0022165054 0.58047593 -0.21624577 -0.78503853 0.013136478
0.067467384 0.073461175 -0.0017334763 -0.84506375 0.15080993 -0.51295584 0.020405008
0.076449215 0.073269218 -0.002198854 0.60211515 -0.020321418 -0.79815066 0.032291833
0.067903332 0.076063208 -0.001759417 -0.79682231 0.34645203 -0.49502048 0.04490592
0.070160173 0.076862559 -0.0019341968 -0.26029313 0.87056017 -0.41757941 0.077737249
0.073474966 0.07587073 -0.0015118647 0.38126969 0.90839374 -0.17162235 0.025525307
0.075755663 0.075167805 -0.0012095179 -0.11246457 0.9581672 -0.26318693 0.051805884
-0.018214025 0.0028802145 0.0024006956 -0.23457743 -0.97185612 -0.021658201 0.005841888
-0.016583828 0.002669428 0.0014658436 -0.24662812 -0.9662652 -0.074203096 0.0021868004
-0.013759177 0.002025573 0.0014247132 -0.22321832 -0.97245771 -0.067078806 0.0011019744
-0.010419153 0.0014336568 0.0016029089 -0.16422214 -0.98641664 -0.0036702054 0.0026782998
-0.0076741967 0.0011034613 0.0015366862 -0.13246757 -0.99043941 0.03849804 0.0035815923
-0.0046619335 0.00069031096 0.0011562324 -0.098233014 -0.99515575 0.0039136005 0.0025375953
-0.0014068153 0.00052815309 0.0017385477 -0.059852142 -0.99630368 0.061615869 0.0032397415
0.0017499853 0.00034118662 0.0008631043 -0.02573272 -0.99859256 -0.046375196 0.0019888033
0.0046016495 0.00029116627 0.0009230079 0.018815443 -0.9995876 -0.021694895 0.0023379661
0.0075395773 0.00045660805 0.0013449807 0.042435803 -0.9987976 -0.024547255 0.0016695875
0.010526726 0.00056953868 0.001051354 0.059739076 -0.99759036 0.035279974 0.0039250185
0.013627747 0.0008765097 0.00094627816 0.1145068 -0.99156213 -0.060768098 0.0012540426
0.016275518 0.0012770779 0.0014770002 0.15103267 -0.98840547 -0.015613174 0.0017756716
0.019372689 0.0016649986 0.00087288331 0.17550363 -0.98437554 -0.014252406 0.0019237093
0.022484066 0.0023427717 0.0011406001 0.20025422 -0.97972006 -0.0068430379 0.0013779951
0.024820969 0.0028170089 0.0007114762 0.23282751 -0.97190285 -0.03458688 0.0012494987
-0.027404187 0.0058029573 0.0019755249 -0.3431617 -0.92493588 -0.16350424 0.0044204271
-0.02537128 0.0054370593 0.0013672458 -0.32707164 -0.93032277 -0.16590285 0.0027054795
-0.022443689 0.0044447137 0.0013266742 -0.3193008 -0.93852001 -0.1312522 0.0014301969
-0.019559337 0.0034882561 0.0014426248 -0.28701034 -0.95295912 -0.097437285 0.0011178128
-0.017812992 0.0032201286 0.00055914395 -0.26546121 -0.95824808 -0.10625891 0.0013344202
0.02608862 0.0031527609 0.0012088713 0.25351885 -0.96697915 -0.026067527 0.0015352708
0.028571444 0.0038629964 0.0010948376 0.29226807 -0.95608431 -0.021956563 0.0012426818
0.031517845 0.0047606882 0.0011903386 0.31129071 -0.95031422 0.00095995626 0.00166743
0.03389157 0.0055651814 0.0013598283 0.32949311 -0.94397599 0.018537251 0.0016642135
-0.034098644 0.00858445 0.001544614 -0.38637924 -0.90114182 -0.19660738 0.0019321216
-0.031486157 0.0077597699 0.0013342194 -0.3612726 -0.91201496 -0.19419293 0.0015309978
-0.028682543 0.0067159696 0.0012090816 -0.35541958 -0.91434664 -0.19402866 0.0019608422
-0.02660393 0.006255304 0.00063356943 -0.3444953 -0.9213413 -0.18014772 0.0021844287
0.035384279 0.0061767618 0.0017446772 0.35444444 -0.93460292 0.029775357 0.0010325921
0.037210763 0.0068778931 0.00174135 0.36983716 -0.92795908 0.045960795 0.00083123293
0.040740177 0.0082568722 0.00083092949 0.38936955 -0.92084998 -0.020653082 0.0018794388
0.042245131 0.0089346459 0.0004776495 0.4134576 -0.9023602 0.12165071 0.0021352465
-0.042068213 0.011944946 0.0025148275 -0.51336455 -0.83000362 -0.21806127 0.010353833
-0.040116083 0.011434657 0.001636675 -0.46054229 -0.85943037 -0.22199145 0.0033023425
-0.03749511 0.010352163 0.001339653 -0.43508384 -0.87126505 -0.22715491 0.0015440064
-0.034957681 0.0094593596 0.00091912079 -0.40429649 -0.88960546 -0.21247724 0.001301802
0.044003844 0.0098179951 0.0010189927 0.4472971 -0.89384824 -0.030995276 0.0012013704
0.046481166 0.011141714 0.0015677521 0.47942308 -0.87677926 0.037571337 0.001436721
0.048131622 0.01199725 0.0010216027 0.48611522 -0.87386477 -0.0072427788 0.00021043629
-0.045566957 0.01451006 0.0018792072 -0.5345242 -0.80901515 -0.24449603 0.0033556197
-0.04349133 0.013513872 0.001449424 -0.51528203 -0.81916416 -0.25190166 0.003656673
-0.0409659 0.012494847 0.00095953088 -0.47591075 -0.84398472 -0.24738376 0.0028906581
0.049604423 0.012903046 0.0013523471 0.50570524 -0.86099464 0.054318797 0.0012492578
0.05194157 0.014300071 0.001398563 0.52188438 -0.85299033 0.0066529843 0.0028547603
-0.049131069 0.017182764 0.0017625715 -0.56717879 -0.7853207 -0.24815243 0.002447943
-0.046792082 0.015901098 0.0013464218 -0.5497998 -0.79524279 -0.25555605 0.0031507884
-0.044721942 0.01511523 0.00074926607 -0.53385776 -0.80891067 -0.2462914 0.0038910406
0.053596452 0.015396828 0.001161406 0.55106753 -0.83445805 0.0020870352 0.00025461146
0.055393584 0.016705483 0.0015776163 0.57900119 -0.8153072 0.0056425761 0.00029266847
0.057148673 0.017852936 0.0010481696 0.59933078 -0.80050147 -1.1740639e-05 0.00050560141
-0.054320645 0.02064828 0.0024784307 -0.60938203 -0.74596858 -0.26867163 0.0047275284
-0.052335232 0.019724324 0.0017195825 -0.58394331 -0.76187116 -0.28029013 0.0032849826
-0.050199769 0.018576127 0.0011690021 -0.57815588 -0.7684499 -0.2742635 0.0021274376
0.058683373 0.019151725 0.0015772978 0.62791228 -0.77823651 -0.0086104115 0.00079495506
0.060395859 0.020505622 0.0013022124 0.66299331 -0.74827403 -0.02293138 0.00088525249
-0.057417192 0.023606906 0.0022594803 -0.65264511 -0.71779305 -0.24254398 0.0020415452
-0.055547737 0.022388721 0.0016778134 -0.62317741 -0.73545575 -0.26599792 0.003910481
-0.053564399 0.021409661 0.00097096938 -0.58403903 -0.76321256 -0.27641445 0.0038630175
0.061573602 0.02154216 0.00067249633 0.67925608 -0.73282129 -0.039801471 0.0018038271
0.06331268 0.023364279 0.0015093251 0.72778773 -0.68572766 -0.010131679 0.00052772119
-0.060385413 0.026516035 0.0022756681 -0.71870822 -0.66678375 -0.1971243 0.00082935084
-0.05874595 0.025223807 0.0017339891 -0.669429 -0.70830452 -0.22398558 0.0017574902
-0.056842729 0.024182547 0.00057843432 -0.6330564 -0.74130434 -0.22295165 0.0023726705
0.065024987 0.025361022 0.0017307348 0.76332963 -0.6459583 -0.0081125526 0.00094366691
-0.063147694 0.029722918 0.0023534964 -0.7683686 -0.62779588 -0.12442692 0.00067797676
-0.061645433 0.028275205 0.0016749839 -0.73569924 -0.65949768 -0.15430342 0.0011964695
0.067188717 0.028194821 0.0015603321 0.82025647 -0.56828403 -0.065059185 0.0021311543
-0.06428571 0.031329621 0.0017298362 -0.78649378 -0.61065298 -0.092360534 0.0013092614
-0.062934242 0.030002473 0.00098629599 -0.75775647 -0.64029282 -0.12581865 0.00085112959
-0.00085345458 0.032963142 0.0027282084 0.10932947 0.99175286 0.066883512 0.0028004157
0.0021946633 0.032862548 0.0021625683 0.047577806 0.99407518 0.09772893 0.0030194819
0.0049261744 0.032879975 0.001637711 -0.0057368507 0.997787 0.066243663 0.0025388424
0.0073476871 0.032900751 0.0016232203 -0.025055816 0.99828285 0.052948352 0.0028092517
0.010284429 0.032915641 0.0025797936 -0.076841205 0.98698533 0.14126332 0.0020432596
0.012278242 0.032976285 0.0029321185 -0.087502517 0.97470379 0.20565984 0.0065278052
0.06852787 0.030278811 0.0015931189 0.869232 -0.49196541 -0.049048454 0.0017491847
0.069066636 0.030969119 0.00072648731 0.86785364 -0.48783875 -0.09403991 0.0035344663
-0.066857032 0.034772731 0.0015041943 -0.82029855 -0.57179326 -0.012755366 0.00084006955
-0.065758348 0.033320297 0.0015694519 -0.80728412 -0.58885431 -0.039279755 0.00061988219
-0.015466973 0.035836026 0.0028121155 0.27837339 0.95880663 0.056551419 0.0020952914
-0.013519774 0.035504647 0.0011856504 0.26701456 0.9624486 0.048948649 0.0019096901
-0.010540531 0.034726258 0.0010955157 0.22685392 0.97380686 0.015412912 0.0027480933
-0.0071817515 0.034119703 0.0012244189 0.16313581 0.9862271 -0.027253849 0.0021712882
-0.0046286783 0.033752017 0.00086061039 0.14389274 0.9894104 -0.019023707 0.0024880304
-0.00130048 0.033240773 0.0012928017 0.086934038 0.99537277 0.040932681 0.0030684578
0.0017232875 0.033079159 0.00064984756 0.034700308 0.99787152 0.05521204 0.0035551805
0.0042980374 0.033025227 0.00020450704 0.016341221 0.99985236 0.0053096889 0.0017836922
0.0085043535 0.03302424 0.00086821022 -0.034558639 0.99936229 0.0089821154 0.0023071037
0.010512823 0.033148751 0.0010873784 -0.066087589 0.99702555 0.039655071 0.0034441352
0.013553848 0.033471763 0.0011255021 -0.13114852 0.99134851 0.0052992124 0.0029292137
0.016468789 0.033961449 0.0012381123 -0.19441798 0.98085707 0.011004669 0.0032618344
0.020013601 0.034800261 0.0013656126 -0.25664148 0.96600908 -0.031010117 0.002017953
0.023089454 0.035666391 0.0010153868 -0.27270535 0.96208966 -0.0039105709 0.0015113577
0.024354525 0.035879303 0.0024648244 -0.28424555 0.95229644 0.11106757 0.0037288181
0.070602439 0.034226328 0.0010768843 0.91255158 -0.39746016 -0.096307494 0.0025265762
-0.069360353 0.038508911 0.0010713981 -0.85840112 -0.5120455 0.03093325 0.002823581
-0.068365663 0.036989871 0.0014360934 -0.84147286 -0.53998852 0.018326042 0.0012310973
-0.022294044 0.038316343 0.0013451301 0.36552867 0.9307974 -0.0022297213 0.0022967497
-0.019455871 0.037244141 0.001259494 0.3273336 0.94425589 0.035120405 0.0018113173
-0.016524564 0.036366396 0.0012572671 0.27366957 0.96174592 -0.0122396 0.0019108654
0.025563356 0.036408897 0.0009839104 -0.28764513 0.95743167 -0.02418381 0.0020530652
0.028094748 0.037204459 0.0010691728 -0.31248835 0.94975668 -0.017696168 0.0017675521
0.031619351 0.038432214 0.0011661528 -0.37740508 0.92588514 -0.017380014 0.0020990614
0.033133775 0.038872819 0.0026033754 -0.40676588 0.90561306 0.12002705 0.0052629262
-0.070271336 0.040243529 0.0017064362 -0.89662123 -0.44091007 0.040849082 0.0026584815
-0.0303242 0.041809153 0.0010352297 0.45291528 0.891541 0.0047294665 0.0014907513
-0.028460139 0.040897328 0.0012842127 0.41445166 0.90988332 0.018500365 0.001773151
-0.025455512 0.039634053 0.0012751821 0.38370928 0.92345387 0.00040271902 0.0020424721
-0.023897674 0.039019622 0.00073028542 0.35181621 0.93344951 0.069981702 0.0038693426
0.032917056 0.039026603 0.00098923082 -0.39631882 0.91442865 -0.08216878 0.0018217392
0.034534194 0.039767895 0.0010403361 -0.43151397 0.90210515 -0.0014372042 0.0024055839
0.037308291 0.041144155 0.001213919 -0.48516607 0.87382251 0.032373201 0.0019039137
-0.072118677 0.04448992 0.0012353637 -0.93608439 -0.34756821 0.054243941 0.0043049329
-0.071529783 0.042946871 0.0013448814 -0.92231792 -0.38343775 0.04801251 0.0045590545
-0.036177356 0.044734489 0.001677818 0.47093847 0.88200545 0.016832598 0.0013326787
-0.034396335 0.043874469 0.0011433109 0.45576656 0.88995212 0.016191756 0.0013626404
-0.03185593 0.042582303 0.0013002534 0.44117391 0.89740646 0.0052237944 0.0016166591
0.038791623 0.042084329 0.00061059312 -0.51227123 0.85879463 0.0070716552 0.001798499
0.040625174 0.04311727 0.0013576192 -0.52716935 0.84801382 0.054451697 0.0018286692
0.042722739 0.044401247 0.00185798 -0.54181755 0.83899575 0.050198056 0.0015454806
0.073001772 0.043827768 4.2333068e-06 0.94975901 -0.073227338 -0.30429533 0.0010902085
-0.072828889 0.046567861 0.0012457324 -0.93519771 -0.31912899 0.15349886 0.0058383383
-0.042129911 0.047933906 0.0021735448 0.49220368 0.86522901 0.095468879 0.0036422575
-0.040417567 0.047097612 0.0011324136 0.48980784 0.87178856 0.0085429484 0.0015340253
-0.037735205 0.045617726 0.0009582694 0.46826196 0.88357043 -0.0058275964 0.0021308062
0.044150792 0.045403972 0.0013837414 -0.54959911 0.83535308 0.011227889 0.002817424
0.046452969 0.046947628 0.0013502083 -0.55437899 0.83226359 0.0010979637 0.0022982715
0.048285469 0.047935892 0.0024598695 -0.52821928 0.82648426 0.19469997 0.0037888139
-0.07396327 0.049640737 0.0012803639 -0.91805559 -0.39292496 0.05276281 0.0079620127
-0.046243612 0.050347943 0.0013848222 0.49457669 0.86908239 -0.0094753383 0.0016634868
-0.043589901 0.048872437 0.0012292231 0.48641607 0.87359017 -0.015478571 0.0023443534
0.049468499 0.04898937 0.0012594647 -0.55935216 0.82889831 -0.0072529549 0.0022437077
0.051700294 0.050504208 0.0011627392 -0.5591532 0.82895684 -0.013354438 0.002506152
-0.075524382 0.052839175 0.00093275006 -0.95685905 -0.28881502 -0.031728182 0.01518423
-0.074759774 0.051604852 0.0016218713 -0.92270267 -0.36126441 0.13456522 0.0095399348
-0.052151844 0.053542484 0.0011532906 0.42575011 0.90460598 -0.020610593 0.0018683248
-0.049527258 0.052179653 0.00095006026 0.45880872 0.88848311 -0.0096109584 0.0019106301
-0.047617652 0.051133089 0.0010516152 0.46649441 0.88151759 0.072867304 0.0024318565
0.053068142 0.051432904 0.0010746514 -0.54891694 0.83544493 -0.02686986 0.0033675602
0.055532251 0.053036101 0.0010952277 -0.56112397 0.82747447 -0.020635026 0.0026870803
0.057378154 0.053879786 0.0025102682 -0.5776428 0.78151196 0.23572834 0.010287838
0.073447108 0.053948682 4.2237698e-05 0.90302521 -0.0081187179 -0.42951077 0.0029686433
-0.075938366 0.055691294 0.0013339471 -0.96015143 0.26959243 0.073681548 0.044373851
-0.060184166 0.05682889 0.0015054485 0.461934 0.883762 -0.07471025 0.006895768
-0.058413044 0.056074236 0.0010647593 0.41373685 0.90795374 -0.066646881 0.0033152259
-0.055432271 0.054861244 0.0011073925 0.35903925 0.93115222 -0.063611791 0.0025261911
-0.053490501 0.054160383 0.00062333618 0.39487794 0.91687536 -0.058403328 0.0025479163
0.058794871 0.05533658 0.0010546936 -0.60133022 0.79446065 -0.085055016 0.004587858
0.060589004 0.056586653 0.0013300854 -0.67453063 0.73449701 0.074314609 0.010501546
-0.07535281 0.057378691 0.00065110845 -0.8722015 0.48908344 -0.0078672171 0.047703668
-0.073316477 0.058510434 0.0016812335 -0.52912426 0.84852505 -0.0057208603 0.011755342
-0.071137913 0.059579033 0.0014221428 -0.42603913 0.90469235 0.0047292653 0.0013401809
-0.06389568 0.059321813 0.00084559101 0.48682094 0.86788017 -0.098941341 0.0056188367
-0.06185526 0.057955291 0.00089359685 0.50298589 0.84469688 -0.18300934 0.0036408743
0.061989266 0.058182962 0.00086176425 -0.76365441 0.63172162 -0.13326539 0.017336532
0.06336613 0.059554372 0.0016959887 -0.82310247 0.56090683 -0.088802546 0.016956512
-0.069739886 0.060266357 0.001113415 -0.28598538 0.94489902 -0.15930542 0.013869375
-0.067942277 0.060807623 0.00078775641 -0.12350915 0.99175596 -0.03414103 0.020183623
-0.065403923 0.060274605 0.00056862616 0.33607242 0.94134581 -0.030387742 0.021485209
0.064144455 0.061521094 0.00084999646 -0.89151067 0.43288669 -0.13348341 0.016311955
0.065082051 0.064376459 0.00071701739 -0.94251859 0.26126826 -0.20832059 0.010259505
0.066185571 0.065497287 0.0021157633 -0.97119105 0.23814091 0.0087627154 0.016947759
0.074363582 0.063490555 2.7300253e-05 0.7053104 -0.10341099 -0.70131552 0.01378454
0.06565278 0.066924542 0.00046297198 -0.9269492 0.22429872 -0.30075765 0.010787761
0.066208787 0.068492778 0.00080332288 -0.93575275 0.2245781 -0.27190349 0.011094782
0.066597044 0.070648395 0.00055147626 -0.92553306 0.20656289 -0.31736463 0.012231033
0.067141578 0.073774815 0.00057185802 -0.9478848 0.23727539 -0.2126379 0.027909504
0.069008678 0.074953578 0.0027961847 -0.91417748 0.37622213 0.15078633 0.038100392
0.076719373 0.074849248 0.00087805348 0.64225262 0.76646751 -0.0062499726 0.048328694
0.067607157 0.076153785 0.00058526365 -0.86375743 0.36017108 -0.35242006 0.049766924
0.070231549 0.076776609 0.0017021176 -0.30938631 0.9500854 0.040222377 0.059541129
0.073604278 0.075832926 0.0014451948 0.34608501 0.93652767 -0.056044523 0.0088167423
0.075681053 0.075194836 0.0014688779 0.41870511 0.90375757 -0.088927731 0.039071184
-0.016420959 0.0026842151 0.0036884223 -0.23253174 -0.96609378 0.11221352 0.0058691856
-0.013828267 0.0022680713 0.0039677769 -0.17258856 -0.9715246 0.16233693 0.0025623979
-0.010053894 0.0016150023 0.0037918985 -0.14236134 -0.97111696 0.19148129 0.0020756705
-0.0071841665 0.0013080467 0.0038269151 -0.12119298 -0.97939146 0.16156937 0.0027140395
-0.0052897502 0.0011181942 0.0036772725 -0.093269639 -0.9853698 0.14264344 0.0033790132
-0.0018968757 0.00092211238 0.0037768208 -0.046618715 -0.98515332 0.16522598 0.0036017008
0.00078371953 0.00090471533 0.0038248079 -0.029434679 -0.98669398 0.15990183 0.0029304477
0.0045248517 0.001037303 0.0041158819 0.045600217 -0.9467051 0.31885758 0.0070465552
0.0075132647 0.001470798 0.0046789246 0.029619848 -0.92440969 0.38024914 0.0019039912
0.010618974 0.0014011716 0.0041876812 0.036746055 -0.95942611 0.2795555 0.005053055
0.012550722 0.0012058117 0.0032878865 0.054293409 -0.97759712 0.20336202 0.0047075427
0.016455213 0.0019855169 0.0041103652 0.1302021 -0.98273259 0.13146921 0.0020191399
0.019706903 0.0021313559 0.0032612029 0.17174861 -0.98308587 0.063596994 0.0012136069
0.022456506 0.0026773752 0.0030440788 0.20249286 -0.97718269 0.064115569 0.0011054167
-0.027529109 0.005842051 0.0032711579 -0.33673558 -0.92902076 0.15339324 0.01632262
-0.025486017 0.0053926832 0.003830631 -0.30805922 -0.9500196 0.050618947 0.0098969713
-0.02246906 0.0046118046 0.0042797071 -0.28871125 -0.92925727 0.23049252 0.0036217989
-0.019458855 0.0036983383 0.0042856168 -0.26137236 -0.93336344 0.24600239 0.0058500995
-0.016599549 0.0034090199 0.0053375717 -0.21697825 -0.93625581 0.27630675 0.0058399253
-0.014974029 0.0030000634 0.0052397987 -0.17508063 -0.94574809 0.27369213 0.0038077994
0.025589615 0.003384114 0.0030787049 0.25840324 -0.96282315 0.078736521 0.0018011143
0.028741252 0.0044381777 0.0037007413 0.298026 -0.94886023 0.10413839 0.0011372525
0.031126043 0.0053248513 0.0043238695 0.29666665 -0.94543725 0.1346747 0.0010530991
0.033632301 0.0057978821 0.0031731329 0.3288748 -0.9407922 0.082167268 0.0010961175
-0.034274723 0.0085144006 0.0036621403 -0.38793868 -0.92027628 -0.050941877 0.0046537789
-0.031737674 0.0076846206 0.0039577335 -0.34815755 -0.93258977 0.095198616 0.0045357519
-0.028966993 0.0066335197 0.0039813388 -0.35938707 -0.93313044 0.010419268 0.0043054256
-0.026242031 0.0062519922 0.0054118256 -0.3121624 -0.91973644 0.23799048 0.0096170474
0.03468338 0.0064535118 0.0039477982 0.34938034 -0.92530221 0.14747615 0.0015889324
0.037370116 0.0074779033 0.0039580427 0.3841559 -0.91169822 0.14570707 0.001220752
0.039905913 0.0085966829 0.0041811131 0.39507055 -0.90035856 0.18241088 0.00051335606
-0.040566672 0.011515211 0.0038876401 -0.46270466 -0.88650209 0.0042964541 0.011181752
-0.037147764 0.009867521 0.0038297668 -0.43704501 -0.89941788 -0.0062571452 0.0037092017
-0.035357714 0.0093101598 0.0045587192 -0.39806956 -0.91618335 0.046353426 0.0068607493
0.041453145 0.0094546806 0.0045708795 0.41947806 -0.88744467 0.19099778 0.00052968744
0.043808199 0.010391754 0.004055792 0.44399202 -0.87365407 0.19899675 0.00076899899
0.046024289 0.011830243 0.0049247383 0.45706323 -0.87192136 0.17563142 0.0012076211
-0.045710936 0.014454052 0.0037000405 -0.53204751 -0.8398068 -0.10793506 0.012285416
-0.043607533 0.013224211 0.0039611277 -0.53815717 -0.84217316 -0.033633266 0.0054571237
-0.04127764 0.012328466 0.0051440117 -0.47180903 -0.85808349 0.20270425 0.0078098192
0.047904722 0.013077479 0.0053443569 0.48425123 -0.86313599 0.14316823 0.0013537575
-0.04944675 0.016980063 0.0038210801 -0.57925951 -0.80974513 -0.093654588 0.0084142266
-0.047082618 0.015527369 0.0042478601 -0.56781459 -0.819484 -0.077669933 0.007040849
-0.054334104 0.020538516 0.0036264388 -0.62190014 -0.76913345 -0.14722075 0.014281864
-0.053140219 0.019658521 0.0034416898 -0.59457535 -0.77471191 -0.21517764 0.0058176089
-0.050568696 0.018423317 0.0053995121 -0.56153119 -0.80202049 0.20358253 0.011155365
-0.057669967 0.023458023 0.0035637191 -0.65789878 -0.70623207 -0.26154435 0.0062221116
-0.056239374 0.022230254 0.0037496749 -0.64672428 -0.73010051 -0.22068289 0.0045185955
-0.053903405 0.021191338 0.0059791729 -0.59288591 -0.73336476 0.33265963 0.0015645137
-0.060630739 0.026397595 0.0036867766 -0.72684628 -0.6730817 -0.13658544 0.003772221
-0.05913819 0.024873167 0.0039215991 -0.69356871 -0.71187347 -0.11044729 0.0081306687
-0.063326091 0.029626753 0.0037502311 -0.78878903 -0.61363554 -0.035541452 0.0044544847
-0.062189348 0.02832512 0.0036444354 -0.76528257 -0.64057595 -0.063286111 0.0038751492
-0.064665899 0.031580415 0.003680567 -0.81046623 -0.58577043 0.004172015 0.0032541605
-0.0034415778 0.032216672 0.0056603104 0.13425031 0.93682051 0.3230235 0.0018441076
-0.00098745897 0.03277437 0.0036335173 0.094255835 0.98648471 0.13402884 0.0022959178
0.001860634 0.032505747 0.0038096837 0.047976889 0.988199 0.14546819 0.001757453
0.0043507847 0.03245911 0.0036705844 0.0017091468 0.98673493 0.16233063 0.0019914273
0.0077792373 0.032255031 0.0042044451 -0.036609493 0.95549709 0.29272005 0.0030436513
0.010345853 0.032520059 0.0039899503 -0.083556555 0.96851063 0.23453246 0.0017120015
0.013266502 0.032509193 0.0047398163 -0.12876132 0.93409568 0.33299527 0.001601988
0.016601615 0.032812785 0.0053943442 -0.18097119 0.92705774 0.32834944 0.0020735911
-0.066769801 0.034798484 0.0037253939 -0.82724339 -0.55972123 0.048791047 0.0022918461
-0.065783732 0.033362944 0.0037158851 -0.82095695 -0.57000965 0.033447653 0.002683931
-0.015619006 0.035627317 0.0039411811 0.28521791 0.93461055 0.21249434 0.0016409541
-0.013293301 0.034913134 0.0038978916 0.27276212 0.94392675 0.186019 0.0020620681
-0.010809216 0.034314588 0.0035942185 0.22359842 0.96522987 0.13540697 0.0016132441
-0.0082925893 0.033750005 0.0038689701 0.17104882 0.96753776 0.18604575 0.0019311472
-0.00437458 0.033249915 0.0034472342 0.12225931 0.97684497 0.17557505 0.0018295016
-0.002533582 0.033038948 0.0031609675 0.082533374 0.97563106 0.20330347 0.005469352
0.014065079 0.033180378 0.0034177976 -0.1351229 0.97611052 0.17014709 0.0019034899
0.01701948 0.033611652 0.0036165507 -0.19611295 0.95567667 0.21959458 0.0017451807
0.019827664 0.034234568 0.0039227782 -0.25060374 0.95253992 0.1728162 0.0013148681
0.022766938 0.034992974 0.0040119048 -0.27268454 0.93428642 0.22967798 0.0012175543
0.0254412 0.035644803 0.004299609 -0.2787807 0.93118113 0.23491076 0.0018186993
0.027809745 0.035828631 0.0056287348 -0.29956698 0.87996054 0.36868566 0.001483988
-0.069136068 0.038793616 0.0034911023 -0.85932702 -0.41563749 0.29799744 0.0083913477
-0.06809476 0.037300251 0.0041762004 -0.84525162 -0.49777249 0.19435073 0.0034869155
-0.024455104 0.038638927 0.0040173465 0.38154283 0.90686613 0.17893836 0.0016821413
-0.022153392 0.037755951 0.0040360452 0.36644205 0.91519868 0.1677247 0.0018545552
-0.019710504 0.03683234 0.0039088773 0.30857444 0.93402535 0.17994019 0.0019442446
-0.017159877 0.036139961 0.0037554412 0.29101163 0.94926351 0.11920944 0.0018448174
0.026458712 0.036276877 0.0034321016 -0.28565067 0.93359697 0.21633394 0.0017210032
0.027979964 0.036695283 0.0035483607 -0.30880639 0.94046432 0.1420048 0.0014883692
0.031057272 0.037707418 0.0037734942 -0.36327443 0.91617781 0.16926293 0.0017274229
0.033660896 0.038686376 0.0040496564 -0.39093098 0.89755654 0.20387542 0.0023921463
-0.069689944 0.040452931 0.0039603687 -0.87780005 -0.4137367 0.24143131 0.0034420842
-0.068694592 0.039558604 0.0053038751 -0.84089112 -0.38420087 0.38117164 0.0043755146
-0.030778259 0.041510627 0.0039288802 0.43727472 0.88086712 0.1812841 0.0015088809
-0.028366327 0.040311497 0.0040960172 0.39965579 0.89832532 0.18244682 0.001687402
-0.02579736 0.039393287 0.0035786529 0.38472721 0.90577292 0.17765263 0.0014739285
0.03527163 0.039606471 0.003623357 -0.4256826 0.88004398 0.21051539 0.0017401641
0.037465885 0.040395178 0.0045053419 -0.46279913 0.85387594 0.23814465 0.003624415
0.039929882 0.041613787 0.0051236986 -0.51256365 0.81908143 0.25765133 0.0025612335
-0.070734739 0.043232173 0.0040083891 -0.89299732 -0.34693813 0.28668746 0.0024698728
-0.036800947 0.044585794 0.0038216179 0.45962799 0.87002814 0.17830643 0.0013993068
-0.03440468 0.043380529 0.0037740995 0.44263211 0.87820065 0.18121932 0.0013482259
-0.032267928 0.042410113 0.0034792887 0.44118488 0.87947881 0.17852981 0.0015066185
0.040933728 0.04273339 0.0038384299 -0.5136143 0.83234316 0.20833927 0.0019898892
0.043569252 0.044058096 0.0047333203 -0.52886331 0.81528139 0.23583858 0.0024182536
0.045428202 0.044782195 0.0058028265 -0.48087806 0.77514797 0.40975851 0.00055698981
-0.07224004 0.04695994 0.0033234805 -0.90213102 -0.32675293 0.2817663 0.0041983714
-0.07152047 0.046384711 0.0043119756 -0.89693677 -0.32748687 0.29708034 0.0032074926
-0.042588979 0.047462553 0.0043596076 0.46777886 0.83246601 0.29695669 0.00084388838
-0.040035322 0.046287313 0.0038921004 0.47549129 0.86186427 0.17634656 0.0012063038
-0.037880078 0.045270652 0.0034084064 0.46135032 0.8706407 0.17070647 0.0013965033
0.044739462 0.045307837 0.0034735501 -0.51872885 0.78986335 0.3271639 0.0024266602
0.04652239 0.046189729 0.0041896063 -0.53360742 0.80970317 0.24422114 0.0023628816
0.048783455 0.04750067 0.0045313267 -0.52673107 0.80037123 0.28628704 0.0020908047
-0.072815932 0.049372017 0.0036338386 -0.87471312 -0.33660552 0.34867412 0.0033151519
-0.071966588 0.048226506 0.0044918437 -0.84108895 -0.28607103 0.45905635 0.001828004
-0.04912642 0.050606403 0.0052357111 0.45241728 0.84645849 0.28076085 0.00036994036
-0.045965955 0.04964453 0.0036536944 0.48182091 0.86316437 0.15098348 0.00066412881
-0.043477915 0.048225872 0.0037599192 0.48291558 0.85939753 0.16801314 0.00086380797
0.049809225 0.04844448 0.0039357617 -0.54001909 0.80476892 0.24642706 0.0015429535
0.052290928 0.04996733 0.0040417272 -0.52799195 0.79954368 0.28627703 0.0024397625
0.054406166 0.050719302 0.0051606232 -0.48977903 0.78240812 0.38464805 0.0033894677
-0.074279621 0.053080693 0.0034325435 -0.89626491 -0.13349068 0.42295325 0.024658306
-0.054385699 0.053723156 0.0037442811 0.38803464 0.89980918 0.19943078 0.0025849831
-0.052649081 0.052758031 0.0044001024 0.39191756 0.87606162 0.2809211 0.00090953306
-0.050205082 0.051629446 0.0041756993 0.43659121 0.86419946 0.25009501 0.00040193193
0.053763911 0.051136304 0.003644834 -0.5058825 0.80307519 0.31488588 0.0028535437
0.05563907 0.052235819 0.003795641 -0.52607679 0.81415939 0.24573922 0.0028164058
0.057897311 0.05338094 0.0042011603 -0.52533257 0.78912318 0.31829286 0.0033886016
-0.075016223 0.05664786 0.003147556 -0.98469657 -0.056054227 0.16501719 0.030061286
-0.074858248 0.055126075 0.0033462816 -0.92857516 0.047055341 0.36814952 0.032632176
-0.057927419 0.054886319 0.004098794 0.40701824 0.9010725 0.14968148 0.0039713001
-0.055419248 0.054332081 0.0031699208 0.36911434 0.91720766 0.14994921 0.0044417563
0.059188705 0.054549649 0.0037277299 -0.53172302 0.75218737 0.38921061 0.0050100056
0.061366543 0.055651192 0.0042607691 -0.55672807 0.69905013 0.44875696 0.0047357809
-0.073025696 0.0584036 0.0035566809 -0.550228 0.81229454 0.19345988 0.018110357
-0.071022585 0.059409685 0.0035843463 -0.46791652 0.87980139 0.08368814 0.0073402193
0.062922001 0.057044227 0.0040188371 -0.58627021 0.57706261 0.56858242 0.010812148
0.063806318 0.058252271 0.0036913019 -0.73528719 0.62425393 0.26393145 0.01378974
-0.069721818 0.060101721 0.0030953393 -0.42775771 0.90370274 0.018567204 0.002391163
-0.068921655 0.060260016 0.0031162531 -0.2664209 0.96176922 0.063402332 0.0142373
0.06529244 0.061060723 0.0031548203 -0.83703214 0.44487762 0.31852964 0.019900814
0.066502012 0.062455125 0.0033530439 -0.91120785 0.31315026 0.26765129 0.020237716
0.069821626 0.074395552 0.0034290757 -0.93289387 0.32644793 0.15212102 0.04179721
0.070374332 0.076018974 0.0034933137 -0.55869246 0.82708257 0.061621957 0.056947336
0.073406182 0.075894602 0.0034507073 0.22492246 0.96880662 -0.10403651 0.03274202
-0.010473065 0.0027394544 0.0063361102 -0.13604823 -0.94488508 0.29779691 0.0023217364
-0.0077706249 0.0026167559 0.0067414781 -0.1099427 -0.94470364 0.30894604 0.0023354953
-0.0046982048 0.002321112 0.0066881888 -0.054746959 -0.93988043 0.33708701 0.0026278105
-0.0022325967 0.0023174707 0.006933108 -0.034692597 -0.9382351 0.34425482 0.0019813408
0.0014763855 0.0026048289 0.0074480381 0.018853722 -0.91394043 0.40541035 0.0014029907
0.0064868378 0.002788642 0.0073082149 0.037918337 -0.91938907 0.39151743 0.0016534481
0.0099539813 0.0024568141 0.0063972212 0.061935283 -0.92161429 0.38313332 0.0022585059
-0.022300776 0.0056293467 0.0067351381 -0.25453645 -0.84994739 0.46130309 0.0011604474
-0.019592706 0.0047680079 0.0066936435 -0.24460606 -0.861902 0.44417655 0.0016685292
-0.016603593 0.0042124703 0.0070300149 -0.22641933 -0.88813382 0.39994067 0.0015373417
-0.013081289 0.0033946305 0.0068554599 -0.15386796 -0.93356246 0.32370642 0.0023789718
-0.011240707 0.0030684159 0.0068904781 -0.15159433 -0.93167228 0.33016047 0.0021026456
0.0063828491 0.0033958396 0.0083813239 0.037918206 -0.91938907 0.39151746 0.0016534792
-0.031111399 0.0084814802 0.0065794047 -0.31448889 -0.84212643 0.43808663 0.00094428065
-0.028554086 0.0077685788 0.0069791963 -0.28936106 -0.84701389 0.44591221 0.0012247635
-0.025555525 0.0068279095 0.0071198661 -0.2783446 -0.84991622 0.44739991 0.0012547243
-0.023239752 0.0071502086 0.0087420903 -0.26453254 -0.84236091 0.4695217 0.0011311931
-0.039190285 0.011844798 0.0063321097 -0.41567066 -0.83239055 0.36652949 0.0027611977
-0.037313394 0.011179242 0.0068537234 -0.37993142 -0.81600243 0.43565145 0.0013686244
-0.034650892 0.010033606 0.0069825053 -0.35062382 -0.83509803 0.42387986 0.00077369704
-0.031575531 0.009517177 0.0080980193 -0.3153308 -0.83082831 0.45857474 0.00099372631
-0.043111853 0.014193098 0.0068259062 -0.46783054 -0.76648366 0.44004247 0.0012322613
-0.040686525 0.013021693 0.0072679198 -0.4351218 -0.79127389 0.42959824 0.0010254615
-0.038375936 0.01217369 0.0077725062 -0.38210011 -0.80653405 0.45111227 0.0013096747
-0.048615634 0.017586194 0.0065799882 -0.51143777 -0.76633209 0.38880146 0.0050083939
-0.046353713 0.016341673 0.0070389006 -0.49140304 -0.75785303 0.42916411 0.001198694
-0.043988377 0.015374372 0.0079309121 -0.47520861 -0.76371622 0.43693739 0.0012243649
-0.052079976 0.020237878 0.0067622643 -0.55516094 -0.72622234 0.40545955 0.00073823892
-0.049694497 0.018880174 0.0074837548 -0.52978456 -0.7235316 0.44252715 0.0015731994
-0.047716033 0.018195415 0.0086047696 -0.49773353 -0.70761359 0.50154197 0.0012068743
-0.055216163 0.022957282 0.0072384123 -0.59267545 -0.69610327 0.40518636 0.0010589638
-0.052959323 0.021534262 0.0078637497 -0.5569213 -0.70501441 0.43908241 0.0017559335
-0.058332346 0.025727974 0.0070615141 -0.64886522 -0.64045537 0.41084146 0.0012266614
-0.056660362 0.024573509 0.0077381339 -0.63365895 -0.66489971 0.39545509 0.0032844506
-0.061160587 0.028892512 0.0070402734 -0.71281481 -0.59146208 0.37691858 0.0040787505
-0.05959487 0.027666297 0.0078020119 -0.68435788 -0.59936768 0.41522604 0.0033261313
