# .PCD v0.7 - Point Cloud Data file format
VERSION 0.7
FIELDS x y z normal_x normal_y normal_z curvature
SIZE 4 4 4 4 4 4 4
TYPE F F F F F F F
COUNT 1 1 1 1 1 1 1
WIDTH 547
HEIGHT 1
VIEWPOINT 0 0 0 1 0 0 0
POINTS 547
DATA ascii
0.050811335 0.020919317 -0.091123149 0.42183816 0.9060514 0.033519194 0.00034384101
0.052528728 0.020112939 -0.091495968 0.44821319 0.89344722 0.029274201 9.236762e-05
0.055177268 0.01873347 -0.091575466 0.49627963 0.86755311 0.032530323 0.0002283348
0.010221409 0.02147837 -0.091871679 -0.39947754 0.91654229 0.019181307 0.00031104547
0.013541706 0.022788092 -0.091600835 -0.33652654 0.9413377 0.025163319 0.00019304027
0.016254039 0.023669364 -0.091399506 -0.29070053 0.95609075 0.037199583 0.00038992387
0.043818641 0.023641525 -0.091438875 0.29550797 0.95456725 0.038424648 0.00037978351
0.046629671 0.022709463 -0.091541521 0.34298086 0.9387691 0.032812346 0.00017787462
0.049362224 0.021615656 -0.091536589 0.39495063 0.91820246 0.030303009 0.00017923913
0.017823864 0.024139652 -0.091560751 -0.27264708 0.9612847 0.039942872 0.00030199139
0.01959491 0.024540845 -0.091606796 -0.21546157 0.97504205 0.05356738 0.00026311452
0.02252163 0.02510816 -0.091368705 -0.17344061 0.9826296 0.066011392 0.00022222806
0.025430545 0.025565013 -0.091584824 -0.09932813 0.99244308 0.072045565 0.0006022391
0.028571079 0.025713667 -0.091723666 -0.039107148 0.99701363 0.066592783 0.00018528505
0.031463362 0.025743803 -0.091553658 0.017031925 0.99788797 0.062685721 0.0012067372
0.03442483 0.025630366 -0.091572508 0.096472792 0.99109417 0.091790378 0.00032300974
0.037279025 0.025214057 -0.09136112 0.14951682 0.98421115 0.094726048 0.00062380265
0.039855182 0.024819989 -0.091993034 0.17505112 0.98157567 0.076591723 0.00059308973
0.042437982 0.024098473 -0.092158854 0.27192298 0.9608711 0.052770354 0.00061644131
0.0045958827 -0.066736929 -0.087435365 -0.51866567 -0.85497379 0.0024014234 0.0015846482
0.0081333891 -0.068678439 -0.087032527 -0.45099667 -0.89243335 -0.012839185 0.00067156315
-0.000415335 -0.063276328 -0.087355122 -0.63868666 -0.76937813 -0.011688459 0.0024774643
0.0010103624 -0.064394906 -0.088389516 -0.60523528 -0.79603201 0.0048205038 0.0021034447
-0.0035011172 -0.060631178 -0.088320546 -0.67738479 -0.73350441 -0.055867106 0.0014016113
-0.0017075494 -0.06208697 -0.088358156 -0.64222872 -0.76649886 0.0046646935 0.0025419751
-0.0065944279 -0.057531357 -0.088114351 -0.73563141 -0.67723256 -0.014231805 0.0017777868
-0.0051085874 -0.059047714 -0.088519119 -0.72502762 -0.68831038 -0.023744747 0.0019731792
-0.0094319563 -0.054143786 -0.088582397 -0.80311477 -0.59574395 -0.0097864326 0.0013618523
-0.0080713574 -0.055693172 -0.088364616 -0.78151256 -0.62385583 -0.0064845611 0.00118135
-0.010664552 -0.052395966 -0.088354267 -0.81949687 -0.57306266 -0.0049151373 0.0017342046
-0.012756191 -0.049104773 -0.088400692 -0.85545588 -0.51784062 0.0060254694 0.0010743251
-0.011854187 -0.050614823 -0.089028239 -0.83930552 -0.54365742 0.0017276588 0.0010290311
-0.015098537 -0.045053814 -0.088109054 -0.88534498 -0.46487114 -0.007689096 0.0013931963
-0.014227042 -0.046481624 -0.088252604 -0.88366622 -0.46811324 -0.0019988196 0.0012086168
-0.015782477 -0.043330647 -0.088397354 -0.91405952 -0.40548405 -0.008830457 0.00087592215
-0.017023142 -0.040383816 -0.088509575 -0.94072014 -0.33906129 -0.0091138892 0.00088248891
-0.018197335 -0.036593445 -0.088344604 -0.96318817 -0.2686125 -0.010764059 0.00067470729
-0.017757941 -0.038163006 -0.088373043 -0.96065527 -0.27748764 -0.011920782 0.0006645011
-0.018762331 -0.034358241 -0.088507697 -0.97653544 -0.21524309 -0.0069974563 0.00045360945
-0.01933771 -0.031365521 -0.088456027 -0.98590022 -0.16722198 -0.0061304444 0.00061558682
-0.019667756 -0.02849764 -0.088484392 -0.99610454 -0.087957717 -0.0062579387 0.00060369051
-0.019816134 -0.025628511 -0.08826305 -0.99922287 -0.038881477 -0.0064798761 0.00037078306
-0.019814972 -0.022641107 -0.088231258 -0.99970502 0.023380166 -0.0065832301 0.00043713418
-0.019601138 -0.019613322 -0.088514537 -0.99434704 0.10611754 -0.0036114024 0.0004376221
-0.019046677 -0.016316757 -0.088261902 -0.97909838 0.20306179 -0.011503283 0.00059280545
0.079274155 -0.017200261 -0.089579545 0.97433221 0.22467425 0.014082952 0.00053167058
-0.018548826 -0.013897649 -0.088741086 -0.97159052 0.23666823 9.7979813e-05 0.00070015294
-0.017937666 -0.01206095 -0.087834783 -0.97047734 0.24104221 -0.0085109817 0.00080510136
0.078306824 -0.012475003 -0.087981358 0.97430742 0.22495122 0.011048372 0.00048561531
-0.01810389 -0.011689917 -0.08850424 -0.95606005 0.29308325 -0.0071667442 0.0011185168
-0.017554121 -0.010301694 -0.088423438 -0.95675933 0.29087317 -0.0020878916 0.00096495711
0.077475004 -0.0096804295 -0.088293165 0.95572084 0.29410842 0.0098999338 0.00038885218
0.078173377 -0.011817115 -0.089552894 0.96372211 0.26689726 -0.00235715 0.00068046665
-0.016553598 -0.0073540974 -0.088403143 -0.9385162 0.34521616 0.0036369418 0.00068518636
0.076800264 -0.0076212366 -0.088928051 0.94227415 0.33484134 0.00089387066 0.00042622193
-0.015534595 -0.004690547 -0.088327922 -0.92468643 0.3807224 0.0023382418 0.00047300154
-0.014930948 -0.0032003673 -0.088519119 -0.92089087 0.38981402 0.0022097139 0.00042097052
0.075683169 -0.0048074741 -0.088592358 0.91655606 0.39937341 0.020638449 0.00053033745
-0.01501012 -0.0029939227 -0.0885676 -0.9145354 0.40450588 -0.00031363044 0.00032759501
-0.014149624 -0.0013618629 -0.088590354 -0.89588356 0.44426861 0.0042435536 0.00076066982
0.074079454 -0.0014522541 -0.088379957 0.89086223 0.45364964 0.023800453 0.00035238318
-0.012747847 0.0011787071 -0.088566564 -0.85943508 0.51123708 0.0028424768 0.00044551643
-0.011829567 0.0026516833 -0.088456623 -0.83175272 0.55514503 -0.0011866338 0.0004994226
0.071573384 0.0029135924 -0.088459916 0.82020998 0.57204348 0.0046779667 0.00070080266
0.072531298 0.0015253134 -0.088674992 0.85344112 0.52109492 0.00991714 0.0011677382
-0.010526657 0.0045263786 -0.088522077 -0.81320077 0.58191466 -0.0089341849 0.00075090287
0.070342265 0.0046071685 -0.088452466 0.81288123 0.58241135 -0.0046129585 0.0012691694
-0.0092587154 0.0062302081 -0.088420108 -0.77329183 0.63390797 -0.013434735 0.00062140962
-0.0079521956 0.0076919454 -0.088389687 -0.75725603 0.65298593 -0.013141189 0.00069919432
0.067833833 0.0079320334 -0.088475563 0.75349039 0.65745312 0.0027589421 0.0012482811
0.069254681 0.0061278371 -0.088370837 0.80852503 0.58846158 -0.00053518836 0.0012197406
-0.0064582485 0.0094390241 -0.088280298 -0.72964162 0.68381262 -0.0048512467 0.00073862443
-0.0050682877 0.010878201 -0.088507645 -0.71724832 0.6968075 -0.0037610708 0.00055629783
0.065076679 0.010971986 -0.088406712 0.72071582 0.69322556 -0.0026591956 0.0012710148
0.066436 0.0096017253 -0.088487387 0.71841037 0.69561857 0.0011595919 0.0012802207
-0.0035208266 0.012409606 -0.088235848 -0.69328058 0.72061986 -0.0083160568 0.00064195291
-0.0019204327 0.013877754 -0.088612318 -0.65476328 0.75577617 -0.0093488246 0.0007746651
0.061624456 0.014027996 -0.088469453 0.61797804 0.78618878 0.0032179195 0.0012731296
0.063435584 0.012494626 -0.088497125 0.68026626 0.73296314 -0.001698174 0.00126152
-0.00031204612 0.015189692 -0.088422351 -0.6282357 0.77794528 -0.01100131 0.00073167076
0.0014662859 0.016538979 -0.0884322 -0.57426989 0.81852967 -0.014945913 0.00053228595
0.0032316046 0.017777545 -0.088597246 -0.5687319 0.82242244 -0.012856575 0.00043332414
0.056670234 0.01766683 -0.088515431 0.55865133 0.82939452 0.0036720529 0.00087472628
0.058542382 0.016375098 -0.088504307 0.58379483 0.81187958 0.0059399419 0.0011582519
0.060131006 0.015223896 -0.088593185 0.58620781 0.81015402 0.0032969001 0.0011614296
0.0047283079 0.018683245 -0.088207901 -0.51323807 0.8579064 -0.024152756 0.00084176101
0.0075258291 0.020142255 -0.088278957 -0.4554449 0.88979101 -0.029016394 0.0007310877
0.0094337696 0.020932937 -0.088567615 -0.38041165 0.92437446 -0.02861568 0.0011722117
0.05073604 0.020869378 -0.088802993 0.40116784 0.91599661 -0.0038317076 0.00083018147
0.052619964 0.019947117 -0.088497169 0.44138321 0.89731777 -0.0013232176 0.00052377122
0.055130843 0.018608456 -0.08850126 0.51025283 0.86001658 0.0036802334 0.00094695174
0.010382065 0.02148216 -0.088137656 -0.39819223 0.91706067 -0.021035966 0.00086363143
0.013184786 0.022551069 -0.088073231 -0.34785038 0.93747413 -0.011932367 0.00067380856
0.016303895 0.023587938 -0.088510841 -0.28023586 0.95981711 -0.014799065 0.0013056435
0.018277148 0.023986377 -0.087288894 -0.19916101 0.97994196 -0.0069756354 0.0013051652
0.041991662 0.023942517 -0.08931458 0.19270803 0.98124868 0.003837486 0.0015622625
0.043576062 0.023631359 -0.088386506 0.27279112 0.96207273 0.001031887 0.0015253036
0.046688236 0.022538846 -0.088554226 0.35636625 0.93433583 -0.0044295201 0.0007184968
0.049304154 0.021458425 -0.088391408 0.40237278 0.91545403 -0.0063291043 0.00077295129
0.017959761 0.024174547 -0.088635266 -0.21326031 0.97682518 -0.018237716 0.001436456
0.01945772 0.024338005 -0.088541731 -0.2122499 0.97714496 -0.011735378 0.0013336324
0.022329383 0.024857175 -0.088395283 -0.17584868 0.98436612 -0.0100318 0.0014204743
0.025356863 0.025268268 -0.088476211 -0.10464171 0.99445319 -0.010625374 0.0020125736
0.028356038 0.025484487 -0.088618949 -0.021760467 0.99967426 -0.013335153 0.0017917394
0.031120831 0.025553463 -0.088539414 0.026455723 0.99963754 -0.0049822726 0.0025884476
0.034176745 0.025258126 -0.088483095 0.1121771 0.99368286 -0.0032556378 0.003558459
0.03759186 0.024846703 -0.08837752 0.1605223 0.98699975 -0.007997511 0.0026597602
0.039731581 0.024414981 -0.08888039 0.17583109 0.98436874 0.010074391 0.0026074878
0.008347637 -0.069076516 -0.085684724 -0.45498019 -0.88999045 -0.030167848 0.00060876197
0.010324138 -0.069940664 -0.085451014 -0.43327329 -0.90050983 -0.036827773 0.00087412691
0.012812768 -0.071012765 -0.085081287 -0.422295 -0.90621936 -0.020818023 0.00047335029
0.015152584 -0.0719008 -0.085628092 -0.40829393 -0.91284984 0.0011280602 0.00031043869
0.0049668374 -0.067287318 -0.084951043 -0.53598267 -0.84379685 -0.027006498 0.00070079276
0.0064737089 -0.068125509 -0.08571817 -0.5213964 -0.85313863 -0.017329382 0.00072789798
-0.0007644532 -0.063291356 -0.086103037 -0.62657195 -0.77761686 -0.052150045 0.0010592202
0.001447334 -0.064938866 -0.085567221 -0.57697892 -0.8146807 -0.058229476 0.00050218246
-0.0039962283 -0.060593203 -0.085454039 -0.68662786 -0.72448909 -0.060479056 0.00059114362
-0.0020926981 -0.062241077 -0.085725136 -0.64634365 -0.75980306 -0.070279397 0.00066282507
-0.0065327669 -0.057846855 -0.085608438 -0.74642164 -0.6635229 -0.050912801 0.00023750348
-0.0054135546 -0.059067134 -0.085421935 -0.72467375 -0.68697715 -0.05394882 0.00029924593
-0.0092584454 -0.054621946 -0.085788041 -0.78318226 -0.61994314 -0.047917794 0.00036175572
-0.008088327 -0.056093846 -0.085607864 -0.76087505 -0.64732808 -0.045116343 0.00021859162
-0.010734966 -0.052595645 -0.085559934 -0.82461631 -0.56463861 -0.034511901 0.00020371587
-0.012791974 -0.049342465 -0.08556892 -0.85914731 -0.51034802 -0.037559994 0.0001689496
-0.011819215 -0.050824493 -0.085762359 -0.83697659 -0.54600042 -0.03679511 0.00026113004
-0.015036738 -0.045479454 -0.085049093 -0.89224708 -0.45092967 -0.023611736 0.00072918931
-0.014344675 -0.046707038 -0.085496783 -0.88199514 -0.47014153 -0.03242597 0.00050782273
-0.015912678 -0.043478027 -0.085558318 -0.91375726 -0.40497836 -0.032251295 0.00045996954
-0.017153896 -0.040441215 -0.085557118 -0.93516189 -0.35329944 -0.025529059 0.00032617
-0.018255398 -0.036979035 -0.085460559 -0.96552187 -0.25908822 -0.025314586 0.00025167997
-0.017819043 -0.038485263 -0.085670739 -0.95756334 -0.28709877 -0.025431264 0.00039935327
-0.01885183 -0.034384198 -0.085571721 -0.97817117 -0.20703466 -0.017829508 0.00023005388
-0.019379422 -0.031392004 -0.085535526 -0.98939699 -0.1449433 -0.0092235208 0.00036949574
-0.01969846 -0.028600246 -0.085581109 -0.99674624 -0.080482855 -0.0044154599 0.00029316399
-0.019913133 -0.0256113 -0.085233033 -0.9992131 -0.03799371 -0.011387623 0.00032342697
-0.019885149 -0.022639807 -0.085500002 -0.99926728 0.03395275 -0.017664976 0.00051204569
-0.019695133 -0.019494364 -0.085706189 -0.99478143 0.10177755 -0.007161417 0.00048658589
-0.019145111 -0.016162811 -0.085839622 -0.97915721 0.20070897 -0.031094376 0.0003257801
-0.01874713 -0.01398132 -0.085338116 -0.97317672 0.22766249 -0.033118747 0.00025562363
0.078459516 -0.012916093 -0.085367486 0.96821415 0.24960126 -0.016142307 0.0008053364
-0.01810763 -0.011475029 -0.08514154 -0.9606365 0.275691 -0.034232058 0.00035324562
-0.017763585 -0.010421869 -0.085718013 -0.95468754 0.29464921 -0.041873999 0.00029539736
0.077567257 -0.0095328093 -0.08560466 0.9573831 0.28822884 -0.018488374 0.00015406415
-0.016840244 -0.0076588062 -0.08547616 -0.9398337 0.33984697 -0.034882542 0.00014558154
0.076827355 -0.00748761 -0.085702986 0.94554073 0.32431927 -0.027745066 0.00058921042
-0.015645377 -0.0045935344 -0.085535519 -0.92145056 0.38802579 -0.019100884 0.00039885109
-0.01492357 -0.0030269164 -0.08659108 -0.92145669 0.38834298 -0.01035901 0.00061379123
0.075751819 -0.0047960151 -0.085592374 0.91850507 0.39421529 -0.030703641 0.00037685074
-0.01507209 -0.0029709507 -0.08559709 -0.90707177 0.42087883 -0.009048732 0.0003414705
-0.014200434 -0.0014546778 -0.085670769 -0.8924064 0.4512307 0.0013025783 0.00032533705
0.074151419 -0.0014325418 -0.085464105 0.88855994 0.4578796 -0.028417602 0.00029727406
-0.012822915 0.0010752128 -0.08555492 -0.86644173 0.49922425 0.0073395353 0.00018707493
-0.011925758 0.0025636947 -0.085493304 -0.84189522 0.53963935 -0.0012510716 0.00023626412
0.071673557 0.00296841 -0.085542396 0.83225834 0.5538159 -0.025181493 0.00024662854
0.07258074 0.0014668056 -0.085591584 0.8643831 0.50220621 -0.025117135 0.00033435161
-0.01068835 0.0044890242 -0.085624017 -0.81986552 0.57244909 -0.011064203 0.0004505635
0.070655957 0.0045463401 -0.085523352 0.82461262 0.56455398 -0.035957411 0.00019490784
-0.0092375083 0.006499276 -0.085018963 -0.77863246 0.62729073 -0.015424687 0.00045758544
-0.008036091 0.0078695863 -0.085683756 -0.75804102 0.65162754 -0.027481362 0.00036208937
0.068196371 0.0077847801 -0.0855214 0.77571595 0.6299063 -0.038508002 0.00016450962
0.069337122 0.0063752583 -0.085323028 0.79149365 0.60980272 -0.04096977 0.00029895094
-0.006529273 0.0095458217 -0.085596539 -0.7334978 0.67923141 -0.025009874 0.00018199167
-0.0049825748 0.011144201 -0.085448496 -0.7094534 0.70439875 -0.022319479 0.00013930634
0.065172501 0.011141961 -0.085680149 0.69099945 0.72204864 -0.034139685 0.00030245027
0.066735908 0.0094998069 -0.08543624 0.74361157 0.66786855 -0.031517364 0.00026727447
-0.0035920341 0.01253128 -0.085456453 -0.68517524 0.72800583 -0.023290116 0.00019894342
-0.0019285362 0.014040354 -0.085548878 -0.66069907 0.75014174 -0.027639888 0.00027688782
0.06183631 0.01409317 -0.085569315 0.63061374 0.77471864 -0.046232063 0.00025168151
0.063650198 0.012579499 -0.085414805 0.66044164 0.74982029 -0.039830346 0.00022672383
-0.00031609365 0.015365578 -0.085697889 -0.61941713 0.78465265 -0.025349032 0.00025906262
0.001512674 0.016724462 -0.085448951 -0.58321285 0.81188512 -0.026557609 0.00017399252
0.0032484168 0.017875642 -0.08618816 -0.55448443 0.83151644 -0.033576231 0.00040301913
0.056651101 0.017742427 -0.085692786 0.52932459 0.84740663 -0.041443191 0.00055062218
0.05839958 0.016705288 -0.085390441 0.56819725 0.82141376 -0.049308691 0.00036316831
0.060308736 0.015313366 -0.085447572 0.61233044 0.78911614 -0.04844787 0.000171388
0.0046857246 0.018841002 -0.085425325 -0.51313877 0.85752803 -0.036528014 0.00052351388
0.0072222422 0.020264572 -0.085746564 -0.46381989 0.88499719 -0.040633701 0.00043170541
0.050914098 0.020906571 -0.085729674 0.42609888 0.90351045 -0.045919154 0.00043518547
0.052676082 0.020036217 -0.08551982 0.45437929 0.88990319 -0.04014755 9.5913543e-05
0.055203233 0.018714827 -0.085502826 0.50224578 0.86387938 -0.038231418 0.00020498052
0.0086284168 0.021013724 -0.084948957 -0.44351432 0.89480877 -0.051111076 0.00064219686
0.010420592 0.021749802 -0.085515477 -0.38402846 0.92241985 -0.040788166 0.00055808906
0.013414058 0.022866068 -0.085429557 -0.34651333 0.93714345 -0.041117195 0.00028660308
0.01602675 0.023699181 -0.085668348 -0.31399414 0.94842863 -0.043483838 0.00043739742
0.043853514 0.023639165 -0.085447341 0.28713638 0.9567163 -0.047398467 0.0002739653
0.046691667 0.022717958 -0.085575186 0.35407129 0.93401545 -0.047421224 0.00025095567
0.049467809 0.0216158 -0.085472427 0.39814058 0.9163186 -0.042946044 0.00025148154
0.017552473 0.024232781 -0.084802188 -0.29714605 0.95399708 -0.039921805 0.0003216055
0.019589636 0.024633806 -0.085489094 -0.21071382 0.97563016 -0.061200254 0.00035311276
0.022455733 0.025196739 -0.085508227 -0.16455111 0.9844721 -0.061136119 0.00048918906
0.025337223 0.025569208 -0.085485652 -0.11078954 0.99223107 -0.056596927 0.0005866678
0.028447405 0.025781102 -0.085388124 -0.033163544 0.99837822 -0.046272215 0.00054205582
0.031442121 0.025780784 -0.085657552 0.032128338 0.99818635 -0.050908692 0.00089849194
0.034509316 0.025636012 -0.085556149 0.10548249 0.99285609 -0.055770352 0.0011211778
0.03792347 0.025230668 -0.084824115 0.16275324 0.98415357 -0.070378006 0.00072969892
0.040779889 0.024552952 -0.085283101 0.19385004 0.97969264 -0.051229823 0.00070370303
0.042192806 0.024117 -0.085285269 0.26298231 0.96332353 -0.053367883 0.00040015805
0.0041918461 -0.066913724 -0.08274699 -0.53051686 -0.84759277 -0.011760861 0.00039220872
-0.00087959127 -0.063354522 -0.08368171 -0.61794406 -0.78576761 -0.026730314 0.00066418917
0.0012133857 -0.064844668 -0.082187563 -0.58295792 -0.81245703 -0.0085759135 0.0002752461
-0.0038520743 -0.060796551 -0.082615003 -0.68710428 -0.72653729 -0.0055882037 0.0003530996
-0.0018431137 -0.062539294 -0.082215428 -0.64027828 -0.76814306 0.00019386124 0.00051153736
-0.0066708955 -0.057790175 -0.082662731 -0.74227399 -0.67005205 -0.0077199689 9.3856695e-05
-0.0054742852 -0.059123486 -0.082580239 -0.73281467 -0.68039852 -0.0063614561 9.9580167e-05
-0.0093930513 -0.054580875 -0.082381994 -0.79495966 -0.60659879 -0.0087741958 0.00021502015
-0.0080798045 -0.05618535 -0.082447648 -0.76016635 -0.64967746 -0.0081418566 7.8418867e-05
-0.010942537 -0.052399419 -0.082552478 -0.82591963 -0.56367135 -0.011462794 0.00028227293
-0.012777697 -0.049489144 -0.082473844 -0.8598749 -0.51044703 -0.0076819994 0.00011229123
-0.011797232 -0.050985787 -0.083131149 -0.83960992 -0.54304868 -0.012384535 0.00012707904
-0.014343042 -0.04676003 -0.08236976 -0.88405597 -0.46736926 0.0033318123 0.00033610087
-0.015860491 -0.043588802 -0.082505494 -0.91523749 -0.40269753 0.013228774 0.00024630624
-0.017079005 -0.040573522 -0.082440332 -0.9373467 -0.34814137 0.013371499 0.0002046108
-0.018271595 -0.03700076 -0.082493767 -0.96490753 -0.26238707 0.010325676 0.00035895623
-0.01780997 -0.038550727 -0.082392342 -0.95687687 -0.29017591 0.013588955 0.00034200185
-0.018842939 -0.034512568 -0.082629092 -0.97915584 -0.20282227 0.010817559 0.00025767781
-0.019341514 -0.031561039 -0.082581356 -0.98961926 -0.14343916 0.0088926181 0.00027533708
-0.019696616 -0.028464898 -0.082435481 -0.99638718 -0.084642336 0.0069474275 0.00026727479
-0.019903671 -0.025615446 -0.08248581 -0.99904215 -0.043735761 0.0014183244 0.00033322658
-0.019890018 -0.022632562 -0.08265613 -0.99978954 0.020477233 -0.0012639143 0.00033100595
-0.019739207 -0.019561164 -0.082518399 -0.99394816 0.10984015 -0.0014768488 0.00044077353
-0.019241573 -0.016423846 -0.082578361 -0.98247033 0.18641877 -6.4040396e-05 0.00022682776
-0.01854196 -0.013065271 -0.082142383 -0.97275352 0.23184144 -0.00024844366 0.00024327503
0.07860072 -0.013160737 -0.082522623 0.96381992 0.26642796 -0.0082062939 7.1750736e-05
-0.018157257 -0.01154308 -0.08266259 -0.96177226 0.27381536 -0.004377543 0.00033000601
-0.017580003 -0.0097292857 -0.082438879 -0.95497715 0.29653889 -0.0091262246 0.00014871273
0.077737965 -0.0099533284 -0.082445748 0.95935696 0.28214616 -0.0052779559 0.0002870179
-0.016829293 -0.0074836127 -0.08248511 -0.94055164 0.33933312 -0.014680436 0.00017163309
0.076958641 -0.0075902082 -0.08265917 0.93635464 0.35104829 0.0022574884 0.00034127198
-0.015657457 -0.0044879052 -0.082573459 -0.91734648 0.39799094 -0.0088737113 0.00045344874
0.075925507 -0.0048888554 -0.082591422 0.91553068 0.40195295 -0.0154091 0.00035014472
-0.015039254 -0.0029831228 -0.082635157 -0.88932174 0.45724776 -0.0056028971 0.00026404249
-0.014124337 -0.0014973683 -0.08252918 -0.8854782 0.46466789 0.0034914257 0.00022348149
0.074299105 -0.0014039369 -0.082458615 0.88992804 0.45581281 -0.016212359 0.00028505633
-0.012615792 0.0013190826 -0.082564861 -0.86401129 0.50335789 0.01074262 0.00023130661
-0.01174299 0.0027985107 -0.082453899 -0.83281654 0.55312461 0.021673102 0.00017556093
0.071793325 0.0028441418 -0.08255136 0.83809799 0.54551727 0.0016105218 8.6423614e-05
0.072799094 0.0012448663 -0.082559779 0.86202419 0.50678104 -0.0093428381 0.00022545605
-0.010644657 0.0044639912 -0.082670815 -0.82430071 0.56553322 0.026467254 0.00023522398
0.070606388 0.0046514706 -0.082528017 0.8174032 0.57604468 0.0049695205 0.00018829497
-0.009212669 0.0063961227 -0.082028061 -0.79330146 0.60823923 0.026791543 0.00035964433
-0.007961167 0.0079868892 -0.082498409 -0.75750858 0.65270036 0.012769863 0.00041738115
0.068178676 0.0078780018 -0.082453579 0.77458102 0.6324321 0.0073476569 0.00020858833
0.069445372 0.0063006231 -0.082366779 0.80456698 0.59381115 0.0077628111 0.0002824993
-0.0064932294 0.0095776282 -0.082514904 -0.73613411 0.6768204 0.0045530149 0.00025904368
-0.0050895549 0.011040974 -0.08244735 -0.70953178 0.70466733 0.0029212944 0.00011335093
0.064982302 0.011315382 -0.082467191 0.69820583 0.71586698 0.0065676579 0.00013114901
0.066576399 0.0097272694 -0.082685627 0.73098993 0.68234581 0.0076108999 0.00031542504
-0.0036130261 0.012524796 -0.082340918 -0.68696231 0.72663248 0.0093842885 0.00016062165
-0.0019472867 0.014038862 -0.082378559 -0.65987915 0.75130117 0.010299182 0.00023826522
0.062070165 0.014020604 -0.082479335 0.65236193 0.75790757 -0.00032940615 0.00028583169
0.06364914 0.01261392 -0.082525246 0.67880422 0.73430258 0.0049627037 0.00024429389
-0.00050505315 0.015272574 -0.08277791 -0.62991077 0.77664167 0.0063315746 0.000275528
0.0015453583 0.01676991 -0.082457006 -0.5870313 0.80955446 0.0039900141 0.00021799329
0.0032425597 0.017807348 -0.082330041 -0.56182605 0.82724273 0.004580758 0.00016060389
0.056580599 0.01799679 -0.081090041 0.52011204 0.85401887 -0.011634078 0.00022536521
0.058373261 0.016860912 -0.082486242 0.56048065 0.82804972 -0.013967987 0.00037819427
0.060429838 0.015410374 -0.08254987 0.61657131 0.78728282 -0.0050596702 0.00039963884
0.004545704 0.018811496 -0.082541741 -0.51855969 0.85503256 0.0038981307 0.00030120742
0.0073094736 0.020343818 -0.082452156 -0.46357867 0.8858276 0.020107141 0.0003626667
0.052632257 0.0202525 -0.08259327 0.45637059 0.88948882 -0.023141749 0.00019324974
0.055385571 0.018739324 -0.082479641 0.49785519 0.86703587 -0.019724352 0.00030953554
0.0086129289 0.021010706 -0.0831507 -0.45099625 0.89250463 0.0061520636 0.000527845
0.010347705 0.021767527 -0.082543314 -0.3856658 0.92261547 0.0065272553 0.00052314746
0.013452755 0.022993889 -0.082467288 -0.33743924 0.94131458 -0.0078517022 0.00034981431
0.01580045 0.02380833 -0.082910694 -0.31908008 0.94767112 -0.010363641 0.00039089346
0.044045184 0.023734787 -0.082426295 0.29430529 0.95554858 -0.017645795 0.0002054037
0.046601646 0.022865331 -0.082474403 0.33827412 0.94093162 -0.014776024 0.0002410217
0.049774766 0.021613196 -0.082537241 0.40676305 0.91323054 -0.023534557 0.0003100865
0.017213307 0.024172951 -0.082527243 -0.26250157 0.96487051 -0.01085345 0.00033240538
0.019451261 0.024707839 -0.082584791 -0.20834494 0.97803771 -0.0058943136 0.00019566962
0.022497267 0.02525584 -0.082393989 -0.16235539 0.98672819 -0.0028729588 0.00036083694
0.025450509 0.025616545 -0.082511455 -0.088870198 0.9960103 -0.0081051951 0.00036391226
0.028694253 0.025826011 -0.082521796 -0.024698921 0.99969107 0.0027821057 0.00034569713
0.031651542 0.025855254 -0.082489058 0.025177211 0.99967539 -0.0039077215 0.00034641454
0.03438969 0.025730196 -0.082549185 0.076222986 0.99707419 -0.005756598 0.00073193852
0.038067736 0.0252521 -0.082656294 0.1643482 0.98616749 -0.021526292 0.00055829412
0.039842039 0.02488628 -0.081954852 0.18811336 0.98207146 -0.012208603 0.00027335042
0.042517755 0.024156725 -0.082547337 0.26746535 0.96336645 -0.019683789 0.00034288326
0.0084912479 -0.06914898 -0.079953618 -0.44742131 -0.89432198 0.0015371237 0.00027407747
0.010259209 -0.069924206 -0.078059822 -0.44199011 -0.89701086 -0.0040376987 0.00035368052
0.0046163448 -0.067031436 -0.079101302 -0.51723754 -0.85584122 0.0010934586 0.00031607764
0.007333627 -0.06858556 -0.079328135 -0.507397 -0.86164594 0.01070124 0.00042561512
-0.00058237027 -0.063475348 -0.079558834 -0.61897594 -0.78537875 0.0069977785 0.00051791559
0.0014214914 -0.064985484 -0.079337709 -0.57720923 -0.81652951 0.010444175 0.00025130494
-0.0038669989 -0.060730722 -0.079542637 -0.6931541 -0.72076583 0.0058329967 0.00029152996
-0.0017705783 -0.062557176 -0.079564683 -0.64842492 -0.76125056 0.0065406496 0.00023315308
-0.0065384265 -0.057924852 -0.079452008 -0.74054736 -0.67198801 0.0046670716 9.5125637e-05
-0.0053453585 -0.059227757 -0.079791479 -0.72181803 -0.69205767 0.0059078983 0.00024402358
-0.0092892041 -0.054698095 -0.079373658 -0.78443456 -0.62021047 -0.0011833301 0.00030516094
-0.0079745837 -0.056261219 -0.07941778 -0.75639135 -0.65411651 0.0019310733 5.6933219e-05
-0.010876601 -0.052529432 -0.079524189 -0.82518893 -0.56485337 -0.0019838491 0.00038521556
-0.012892911 -0.049296547 -0.079470754 -0.86545026 -0.50099093 0.0019905949 0.00028905226
-0.011975093 -0.050756909 -0.078508005 -0.83633363 -0.54820371 -0.004343221 0.00023109863
-0.015132044 -0.045029908 -0.079242297 -0.90166783 -0.4320862 0.017224407 0.00040108588
-0.014406216 -0.046561722 -0.079463184 -0.89098966 -0.45397913 0.0063548461 0.00028534309
-0.015875403 -0.043369099 -0.079509676 -0.91861808 -0.39467806 0.019237464 0.00019175024
-0.017049465 -0.040425234 -0.079562649 -0.93799204 -0.34592363 0.022532418 0.00021519308
-0.018245451 -0.036733799 -0.079397246 -0.96343488 -0.26716733 0.020367412 0.00040165876
-0.0177924 -0.038319767 -0.079357654 -0.95624995 -0.29156104 0.024046808 0.00046606094
-0.018779473 -0.034454402 -0.079609528 -0.97840112 -0.20603326 0.016781921 0.00029224076
-0.019313132 -0.031374153 -0.079490736 -0.98719066 -0.15890341 0.014293795 0.00037355686
-0.019661346 -0.028629102 -0.07956247 -0.99541426 -0.09475407 0.013116795 0.00035800418
-0.019878877 -0.025626026 -0.079344794 -0.99874586 -0.048837297 0.0110256 0.00030401227
-0.01990938 -0.022620862 -0.079364039 -0.99984443 0.016223317 0.0069220378 0.00037191893
-0.01962938 -0.019235177 -0.079540975 -0.99067283 0.13622485 0.0031757921 0.00020105923
-0.019266771 -0.016594799 -0.079609379 -0.98357147 0.18034393 0.0079561919 0.00023237141
-0.018561693 -0.013273701 -0.079547577 -0.97370583 0.22774959 0.005202251 0.00016070562
0.078837655 -0.014202349 -0.079401597 0.97498226 0.22226474 0.0028515083 0.00015384432
-0.018165108 -0.011459678 -0.079442501 -0.96308964 0.26917255 0.0021258737 0.000168086
-0.017667718 -0.009885856 -0.079536639 -0.95710284 0.2897191 -0.0041410383 0.00016754919
0.077929027 -0.010727477 -0.079704925 0.95876133 0.2842038 0.0022203673 0.00018618889
0.078021675 -0.011040628 -0.078212716 0.95795083 0.28689951 0.004351336 0.00028994848
-0.016881345 -0.0074483827 -0.079502381 -0.94194937 0.33563694 -0.008899197 0.00027640574
0.076779619 -0.0071756714 -0.07949578 0.94115448 0.33785939 0.008907103 0.00024632955
-0.01570843 -0.0045588603 -0.079544768 -0.91587162 0.4013105 -0.011361456 0.00039594507
0.07551077 -0.0040344782 -0.079260282 0.91698676 0.39885777 0.0069093588 0.00029046132
-0.015109564 -0.0029570591 -0.079665221 -0.88688308 0.46181551 -0.012840766 0.0002173542
-0.014140855 -0.0013865386 -0.07953719 -0.88094622 0.47312263 -0.0094188135 0.0002223098
0.074162558 -0.0012546186 -0.0797299 0.88053554 0.47378385 0.013641407 0.0002685884
0.075024381 -0.002957542 -0.080076553 0.89938641 0.43715453 -0.00022645274 0.00067025842
-0.012667555 0.0011971875 -0.079580568 -0.85623527 0.51657981 -0.0025459076 0.00045958799
-0.011738685 0.0026752027 -0.079831906 -0.83185363 0.5548104 0.014312297 0.00031347826
0.071924135 0.0026220337 -0.079510316 0.84812319 0.52971244 0.0095781172 0.00035928184
0.072818965 0.0011168491 -0.079393096 0.85736072 0.51465738 0.0077714841 0.00034675127
-0.01046554 0.004478849 -0.079488955 -0.8152616 0.57857627 0.024455763 0.00029185289
0.070567548 0.0045817941 -0.079477429 0.8265245 0.56268424 0.015613847 0.00014588379
-0.0092439987 0.0061825989 -0.079869345 -0.80452144 0.59311712 0.030940661 0.00015786334
-0.0079611503 0.0078207115 -0.0793631 -0.77153087 0.63592535 0.018413655 0.00056368508
0.068035819 0.0079083573 -0.079649486 0.77813393 0.62797397 0.012505353 0.00029697124
0.069228008 0.0064536138 -0.079419628 0.78708369 0.61667782 0.01441431 0.00031583718
-0.0065275119 0.009586527 -0.079423666 -0.73723555 0.6755749 0.00906628 0.00045681818
-0.0051028389 0.011014346 -0.079528831 -0.7118398 0.70233971 0.001755691 0.00031738111
0.065089837 0.011122326 -0.079483449 0.69073814 0.72300887 0.011790523 0.00014599029
0.066458769 0.0097549688 -0.079541206 0.72666585 0.68692166 0.0097682271 0.00033946813
-0.0034828335 0.012534234 -0.079420269 -0.67720169 0.73577732 0.0054528089 0.00020005676
-0.0017385202 0.014105375 -0.079387508 -0.64295256 0.76578194 0.013787514 0.00027194218
0.061876182 0.014072869 -0.079473153 0.65975845 0.75126749 0.017778223 0.00022083649
0.063702412 0.012482709 -0.079546548 0.68424678 0.72910446 0.014600823 0.00017498036
-0.00026886855 0.015343818 -0.079700388 -0.61722541 0.78663492 0.015435854 0.00024250592
0.0013944927 0.016600043 -0.079378873 -0.5887078 0.80827659 0.010585822 0.00043687926
0.0031322625 0.017795734 -0.079003304 -0.5635761 0.82592976 0.014896827 0.00034820242
0.056622218 0.017936772 -0.079496548 0.55368978 0.83266169 0.010108734 0.00026524047
0.058403276 0.016765624 -0.079515405 0.56228393 0.82679224 0.015855778 0.00025035714
0.060338277 0.015335897 -0.07955616 0.6227982 0.78220266 0.016776392 0.00034164201
0.0047582067 0.018801874 -0.079350881 -0.51655358 0.85612881 0.014690668 0.00051012356
0.007312573 0.020250767 -0.079631738 -0.46289435 0.88622266 0.018389028 0.00024863982
0.05238938 0.020328917 -0.079457715 0.45029297 0.89283055 0.0094830347 0.00014589177
0.055118125 0.01885603 -0.079514854 0.5011735 0.86530006 0.0089988941 0.00027028922
0.0099689914 0.021497818 -0.079182737 -0.41968614 0.9075591 0.014143265 0.00024031714
0.013576974 0.02292916 -0.079451375 -0.33756086 0.94106555 0.021172198 0.00019881621
0.015787929 0.023695581 -0.079495251 -0.29042575 0.95676738 0.015780639 0.00031777046
0.043886162 0.023736525 -0.079608425 0.29008192 0.95697188 -0.007572101 0.00042470798
0.046250649 0.022953371 -0.079494037 0.33992079 0.94045389 -0.00063273299 0.0002836989
0.04930862 0.021766322 -0.079514652 0.39620277 0.91813517 0.0071561025 0.00020020586
0.051006589 0.021006653 -0.080583647 0.42624527 0.90459448 -0.0048736674 0.00044039029
0.017250087 0.024124466 -0.079411387 -0.27388617 0.96169704 0.01119219 0.00033722713
0.019524798 0.024682879 -0.079567403 -0.21253915 0.97712129 0.007819498 0.00028900057
0.022448089 0.025225855 -0.079534985 -0.16445981 0.98636657 0.0058344691 0.00042797072
0.025529046 0.025562573 -0.079388365 -0.088626519 0.99600434 0.010991287 0.0002255608
0.028824234 0.02573907 -0.0795037 -0.021961752 0.99974984 0.0042415941 0.00041212508
0.031745307 0.025797818 -0.079465687 0.023686385 0.99969792 0.0065502827 0.00047254778
0.034428723 0.025692478 -0.079380378 0.087226443 0.99618757 -0.0013788487 0.00084292685
0.037441965 0.025234306 -0.079500444 0.17129816 0.98521841 -0.0012639745 0.00051198504
0.040108748 0.024795532 -0.079502761 0.18878892 0.98200065 -0.005785482 0.00032688695
0.042444933 0.024163546 -0.079224892 0.27405289 0.96168089 -0.0080575095 0.00038997983
0.0096889883 -0.069690809 -0.075009279 -0.46244261 -0.88616997 0.029148098 0.00039161253
0.01218661 -0.070753522 -0.075757541 -0.44556633 -0.89490247 0.024905192 0.00024895012
0.0048437309 -0.067230687 -0.07576713 -0.52549738 -0.84998518 0.037118182 0.00051027845
0.0067536738 -0.068315908 -0.076958418 -0.50551975 -0.86237139 0.027665794 0.00070599501
-0.00065142201 -0.063485853 -0.076493584 -0.62606347 -0.77977103 0.0013065604 0.00039444875
0.0013418193 -0.064947948 -0.076630682 -0.57956779 -0.8145411 0.024978597 0.00045844592
-0.0038253951 -0.060739554 -0.07659819 -0.69036162 -0.72295827 0.027060656 0.00036797154
-0.0018628773 -0.062507421 -0.076675758 -0.64225978 -0.76624805 0.019141382 0.00078361348
-0.0066735647 -0.057764769 -0.076773599 -0.74451876 -0.66705728 0.02695521 0.00023119326
-0.0054533938 -0.059109394 -0.076583162 -0.72290337 -0.69021851 0.031767745 0.00033499906
-0.0092501324 -0.054764532 -0.076909706 -0.78652704 -0.61741346 0.013262924 0.00045455288
-0.0081533846 -0.05604697 -0.076387063 -0.76239622 -0.6461727 0.034826171 0.00028304264
-0.010792464 -0.052668519 -0.076547191 -0.82562029 -0.56366414 0.025177157 0.00036916239
-0.012860994 -0.049385399 -0.076585993 -0.86356288 -0.5032509 0.031587794 0.00037624632
-0.011923303 -0.050874181 -0.076571688 -0.8360976 -0.54755974 0.033453073 0.00048645082
-0.015172877 -0.045017917 -0.07733953 -0.90109253 -0.43259004 0.029969107 0.00030364341
-0.014369989 -0.04657717 -0.076449156 -0.89330089 -0.4487215 0.02573986 0.00026606541
-0.015731169 -0.043535739 -0.076380998 -0.92222083 -0.3853853 0.031415794 0.00014393483
-0.016957631 -0.040420599 -0.076415241 -0.93669605 -0.34835142 0.035380974 0.00012319448
-0.018209074 -0.036724191 -0.076635361 -0.96242315 -0.26977319 0.031050442 0.000429534
-0.017770728 -0.038194828 -0.076279655 -0.95334274 -0.29983741 0.035144258 0.00037244544
-0.018752947 -0.034422595 -0.076516822 -0.97904754 -0.20155764 0.02899023 0.00032503935
-0.019270081 -0.031589717 -0.076676384 -0.98701721 -0.15760575 0.030941963 0.00031269866
-0.01961793 -0.028509982 -0.076531455 -0.99554795 -0.08783748 0.034188271 0.00022461676
-0.019816797 -0.025594451 -0.076325841 -0.99809968 -0.051696558 0.03353462 0.00020591382
-0.019898091 -0.022580445 -0.076509207 -0.99950701 0.010878387 0.0294536 0.0004419357
-0.019686766 -0.019424686 -0.076421171 -0.99446911 0.1032313 0.019352095 0.00029999844
-0.019219343 -0.016340017 -0.076519199 -0.9837116 0.17922705 0.013751796 0.00022475421
0.079159491 -0.016040506 -0.076270342 0.97590548 0.21716854 0.021128688 0.00025441399
-0.018615957 -0.013560322 -0.076571815 -0.97546256 0.21996611 0.0093695382 0.00019997863
-0.018121518 -0.01133783 -0.076605558 -0.96418154 0.26491934 0.013099573 0.00017729957
-0.017709775 -0.010014538 -0.076423213 -0.95967942 0.28078654 0.013197898 0.0001611623
0.077389814 -0.0090293884 -0.075547919 0.95108736 0.30839539 0.018032132 0.00029113542
0.078132957 -0.011414269 -0.076414198 0.96576655 0.25925764 0.0089734998 0.00053156714
-0.016863162 -0.0073656142 -0.076543681 -0.94100487 0.3380909 0.014294373 0.00031802431
0.076897755 -0.0075261188 -0.07667616 0.94261885 0.33350238 0.015681507 0.00026028327
-0.015737923 -0.0045888009 -0.076650232 -0.91746604 0.39778209 0.0050497055 0.00039000539
0.075540252 -0.0040922076 -0.076401219 0.91604733 0.40061748 0.019050376 0.00033418025
-0.015111945 -0.0029561769 -0.076700814 -0.88871706 0.45841751 0.0059519564 0.00030562593
-0.01423915 -0.001470643 -0.076531209 -0.88134533 0.47247195 0.00087261846 0.00026220523
0.074229486 -0.0014146916 -0.07649561 0.88703078 0.461281 0.019906621 0.00017992336
-0.012694087 0.0011812175 -0.076542713 -0.85150129 0.52432597 0.0052853934 0.00036459658
-0.01179371 0.0026066771 -0.076580532 -0.82541221 0.56449175 0.0066141104 0.00024450527
0.071995616 0.0025019874 -0.077844575 0.85290468 0.52194262 0.011381718 0.00031374663
0.07267227 0.0013682588 -0.076365188 0.85861725 0.51221132 0.020395702 0.00019164271
-0.010432561 0.0044663171 -0.076436289 -0.80798537 0.58903074 0.014226889 0.00014570855
0.070545845 0.0045828503 -0.076521009 0.81711471 0.57630306 0.014085827 0.00013358568
-0.0091526415 0.0062455786 -0.076601304 -0.79573286 0.60525608 0.021777852 0.00010304053
-0.0079131303 0.0077855908 -0.076413818 -0.77724022 0.6285423 0.0288461 0.00028953727
0.067970097 0.0080122175 -0.076522097 0.75698495 0.65320361 0.017286377 0.00023494837
0.069110774 0.0065785521 -0.076556288 0.79039186 0.61238849 0.01615504 0.00030592218
-0.0064434265 0.0096532861 -0.076552115 -0.74726439 0.66411287 0.023454456 0.0005829627
-0.0050231507 0.011098602 -0.076545604 -0.70644867 0.70760477 0.015030692 0.00035519214
0.065190144 0.011014923 -0.076512009 0.71024257 0.70347685 0.025997991 0.00023726354
0.066542506 0.0096686641 -0.076423727 0.7410202 0.67111421 0.022245148 0.00038126484
-0.0036304072 0.012465908 -0.076310076 -0.68427819 0.72912306 0.011954165 0.00024409084
-0.001859492 0.014013901 -0.076548271 -0.64394724 0.76498389 0.011475795 0.00020719464
0.061771721 0.014150381 -0.076606959 0.63764328 0.76990992 0.025490308 0.00018135822
0.063631341 0.012522127 -0.076408118 0.67749852 0.73501623 0.027331922 0.00026272834
-0.00023724431 0.01533345 -0.076529659 -0.61503083 0.78834689 0.015691468 0.00020498037
0.0014377363 0.016607456 -0.076525196 -0.58703637 0.80947089 0.012050482 0.00028535529
0.0031805963 0.01782253 -0.076534063 -0.56012046 0.8281396 0.021208864 0.00022779591
0.056694549 0.017887117 -0.07658495 0.54999757 0.83462191 0.030149374 0.00021641844
0.05850758 0.016657501 -0.076533504 0.56910491 0.82178134 0.028197542 0.00018618716
0.060354054 0.015290009 -0.076442145 0.61986363 0.7842434 0.027043961 0.00018687047
0.0045975451 0.018718915 -0.076565646 -0.52164245 0.85296446 0.018460967 0.00034910996
0.0074279942 0.020296058 -0.07621213 -0.47094259 0.88192171 0.020668009 0.00039004255
0.05229244 0.020352038 -0.076504499 0.45220923 0.89127874 0.033602063 0.00015397987
0.055098027 0.018865496 -0.076506563 0.4982028 0.86648881 0.031483766 0.00033417172
0.010247719 0.021639915 -0.076597176 -0.4188756 0.90783268 0.019569857 0.00027112986
0.0134639 0.022866618 -0.076560058 -0.34028673 0.93989027 0.028482318 0.00018521308
0.015896179 0.023691611 -0.076348945 -0.29934952 0.95369387 0.029289961 0.00024871805
0.044093899 0.023767322 -0.076630212 0.30265179 0.95289791 0.019685062 0.00053559302
0.046300344 0.02296645 -0.076505251 0.34616849 0.93785793 0.02428733 0.00037558845
0.049267624 0.021777617 -0.076500475 0.39596033 0.91799539 0.022356825 0.00020358253
0.017256424 0.024130415 -0.07648477 -0.26196 0.96450859 0.033168573 0.00040140015
0.019531738 0.024684479 -0.076464154 -0.21109788 0.97686166 0.034336533 0.00036108511
0.022513844 0.025210455 -0.076617911 -0.15965948 0.98656446 0.034633238 0.00041064509
0.025418686 0.025600402 -0.076519951 -0.10023101 0.99465483 0.024809603 0.00040871228
0.028694026 0.025805146 -0.076357618 -0.035278164 0.9991551 0.021086745 0.00032657356
0.031717263 0.025819486 -0.076442212 0.013334334 0.99950767 0.028402472 0.00031094049
0.034340389 0.02574924 -0.076481655 0.06672737 0.99729866 0.030705485 0.00068390777
0.037955806 0.025292154 -0.076639868 0.15560351 0.98756415 0.022463646 0.00039930636
0.039905239 0.024879595 -0.075764045 0.17379302 0.98446739 0.024897134 0.00041923657
0.042613499 0.024214845 -0.076534383 0.26826218 0.9631747 0.018164009 0.00068710628
0.0047501056 -0.066901617 -0.073273487 -0.55227703 -0.83320481 0.027566822 0.00082417106
-0.00079749571 -0.063250057 -0.07395491 -0.62527776 -0.77717119 0.070941813 0.00040734725
0.00148757 -0.064765133 -0.073507547 -0.57354403 -0.81474751 0.085051298 0.00031824643
-0.0037851948 -0.060531639 -0.073504783 -0.6864661 -0.72440815 0.06322331 0.00043416407
-0.0020219851 -0.062198315 -0.074166231 -0.64474112 -0.76250994 0.053734731 0.00071979681
-0.0065567684 -0.057614967 -0.073624194 -0.73953587 -0.67104894 0.052726038 0.00021044968
-0.0056675496 -0.058692828 -0.074038923 -0.73279113 -0.67847455 0.051860295 0.00026685663
-0.0093918573 -0.054392286 -0.073974267 -0.78703523 -0.61436749 0.055930182 0.00054228952
-0.007687408 -0.056225337 -0.072984189 -0.76115531 -0.64722615 0.041724604 0.00052569917
-0.010907579 -0.052166849 -0.073629223 -0.8279525 -0.55694556 0.065621205 0.00028991149
-0.012823338 -0.049217544 -0.073795609 -0.86519879 -0.49808064 0.057850853 0.0002820153
-0.011753834 -0.050634801 -0.072383158 -0.83301264 -0.55198067 0.03751348 0.0010511547
-0.015109688 -0.045048431 -0.074268065 -0.89958388 -0.4343625 0.045586221 0.00021758932
-0.014270138 -0.046399489 -0.073500447 -0.89453274 -0.44367707 0.054423008 0.00026932021
-0.015697815 -0.043310024 -0.073578514 -0.91944689 -0.39019531 0.048631772 0.00019443592
-0.016769849 -0.040521935 -0.073327988 -0.93868744 -0.34095666 0.05113247 0.00016047657
-0.01816638 -0.036486354 -0.074136674 -0.95947528 -0.2755084 0.059181314 0.0003627679
-0.01764261 -0.038046613 -0.07335797 -0.95364875 -0.29513377 0.058738351 0.00030115963
-0.018646197 -0.034307435 -0.073569842 -0.97649038 -0.20886122 0.053324904 0.00030379574
-0.019117385 -0.031343371 -0.073535867 -0.98635536 -0.15689354 0.049875353 0.00034932123
-0.019456405 -0.02861733 -0.073436402 -0.99429041 -0.10048962 0.035894636 0.00043456641
-0.019653704 -0.025551993 -0.073659092 -0.99824959 -0.037520587 0.045715921 0.00032177989
-0.019758813 -0.022516131 -0.073850736 -0.99896961 0.016185688 0.042399976 0.00023276106
-0.019604396 -0.019533087 -0.073523499 -0.995547 0.085669942 0.039330654 0.00070152135
-0.01907385 -0.016122293 -0.073488861 -0.97923529 0.20099114 0.026473965 0.00024132605
0.079354651 -0.017193953 -0.074473023 0.97813243 0.20761262 0.012411638 0.00036260943
-0.018630646 -0.01384781 -0.073832758 -0.97552365 0.21845417 0.025125481 0.00026127035
0.078365594 -0.012524415 -0.073515534 0.97117704 0.23478039 0.041150402 0.00045477893
-0.018094989 -0.01168058 -0.073435701 -0.96352363 0.26698077 0.018534007 0.00024866348
-0.017683281 -0.010278563 -0.073395021 -0.95925069 0.28081951 0.031283345 0.00027336227
0.077535257 -0.0097028269 -0.073641449 0.95065331 0.30747321 0.041456074 0.00018275221
0.078247368 -0.011812268 -0.074601375 0.9657982 0.25736725 0.03155838 0.00055289472
-0.016811917 -0.0074530006 -0.0738535 -0.94194734 0.33428439 0.031449601 0.00023868005
0.07657408 -0.0070230737 -0.073174573 0.93679535 0.34613511 0.051039133 0.00017624909
-0.015669981 -0.0045607123 -0.07356701 -0.91999561 0.39053482 0.033023752 0.00048788087
-0.014954816 -0.0030938154 -0.073712565 -0.90348697 0.42805037 0.022007022 0.00061892561
0.075630866 -0.0045741345 -0.073610425 0.91714633 0.3971087 0.033873446 0.00028533803
-0.015099322 -0.0029608556 -0.073490128 -0.90128154 0.43269601 0.021581076 0.00017679554
-0.014159728 -0.0014821901 -0.073503055 -0.88038927 0.47351611 0.026406428 0.0003216723
0.074183114 -0.0015241124 -0.073245279 0.88885379 0.45704818 0.032341432 0.00024823923
-0.012791361 0.00096875895 -0.073792107 -0.8530395 0.52142215 0.021037275 0.00033664997
-0.011818225 0.0024789597 -0.073294707 -0.83152699 0.5552125 0.017372726 0.00038714692
0.071636058 0.0027935077 -0.072771117 0.83993644 0.54145777 0.036472712 0.00036575843
0.072660036 0.0012083019 -0.073575981 0.85573483 0.51646996 0.031253904 0.00020296816
-0.010502613 0.0043195621 -0.073495626 -0.80574745 0.5921554 0.011092043 0.00029599448
-0.0089827524 0.0059782132 -0.072551444 -0.78385931 0.61989731 0.035944521 0.00012529503
0.07053306 0.0044752066 -0.073587433 0.81914228 0.57223856 0.039356645 0.00029436653
-0.0092344573 0.0061677676 -0.074019343 -0.78630614 0.61732101 0.025248207 0.00019954724
-0.0080830613 0.0073846248 -0.073598646 -0.77652484 0.6289562 0.037726521 0.00019209
0.067970343 0.0078048259 -0.073433168 0.76299745 0.6438908 0.05691715 0.00045002563
0.069213718 0.0063759079 -0.074051164 0.79219258 0.60773325 0.055599205 0.00028086113
-0.0063583083 0.0095448224 -0.073772721 -0.74754989 0.66303945 0.039341837 0.0003862934
-0.0051674522 0.010850751 -0.073949963 -0.71895528 0.69420397 0.034412581 0.00044132886
0.065049112 0.010944746 -0.073473305 0.70646322 0.70479608 0.064592481 0.00021512641
0.066614583 0.0093826549 -0.073644787 0.7364468 0.67385107 0.059757259 0.00018376969
-0.0035331901 0.012442075 -0.073689163 -0.68450916 0.72808421 0.036614947 0.00041427984
-0.0019352003 0.013830959 -0.073704079 -0.64561373 0.76290578 0.034023095 0.00020484142
0.061683271 0.014000244 -0.07342767 0.6379379 0.76714051 0.067310654 0.00016987014
0.063421398 0.012534532 -0.073456533 0.66627789 0.74277824 0.065987565 0.00013782394
-0.00021498928 0.015245661 -0.073809311 -0.60932666 0.79145753 0.048124216 0.00019235619
0.0011908707 0.016324235 -0.073810421 -0.58577853 0.80921078 0.045183487 0.00023251744
0.0033017523 0.017749239 -0.073676139 -0.55931729 0.82724458 0.053203739 0.00013308214
0.056560226 0.01775568 -0.073274061 0.51913345 0.85259551 0.059844296 0.00034695576
0.058615446 0.016405135 -0.073532313 0.5834536 0.81000882 0.058886375 0.00024751728
0.06042606 0.015103879 -0.074249052 0.62186766 0.78074503 0.060973942 0.00015397073
0.0050670267 0.01888481 -0.073705666 -0.50815606 0.86026764 0.04143649 0.0003535072
0.0074375845 0.0201414 -0.073408559 -0.46925288 0.88185716 0.04614852 0.00031517213
0.0091464026 0.020869464 -0.073197305 -0.42803761 0.90295374 0.038190015 0.00062144455
0.050667044 0.020901361 -0.072681926 0.41293707 0.91024762 0.030532537 0.00056311936
0.052448682 0.020067586 -0.073474206 0.45610514 0.88813329 0.056456748 0.00015316073
0.055120822 0.018645542 -0.073611207 0.502662 0.86255586 0.057691991 0.00028154338
0.010574011 0.021615375 -0.073534146 -0.38454899 0.92242759 0.035347302 0.00045287376
0.013425927 0.022729993 -0.07361789 -0.33558533 0.94119972 0.039060209 0.00028776453
0.016254496 0.023610421 -0.073418409 -0.28648117 0.95686752 0.048301909 0.00033687288
0.018120887 0.023978274 -0.072524965 -0.22230367 0.97333604 0.056551006 0.00047969748
0.043611109 0.023652252 -0.07332962 0.29057351 0.95358014 0.079069577 0.00024566182
0.04644822 0.022760067 -0.073521458 0.33799174 0.93891716 0.064778008 0.00023802626
0.049284782 0.021616835 -0.073581815 0.39807004 0.91610056 0.04795805 0.00024503985
0.017755415 0.024146598 -0.07436268 -0.25438729 0.96578473 0.050467622 0.00055907707
0.019427018 0.024451651 -0.073469415 -0.21713074 0.97523612 0.042057816 0.00058889459
0.02230677 0.024995463 -0.073474184 -0.16585718 0.98532307 0.040370557 0.0004857819
0.025497558 0.025400206 -0.073548347 -0.098836616 0.99454719 0.033274762 0.00019910047
0.028523749 0.025656603 -0.073435545 -0.021407798 0.99872714 0.045671042 0.00052317913
0.031538043 0.025652969 -0.073501959 0.04389149 0.99750018 0.055380877 0.00066067482
0.034350425 0.025559345 -0.073569581 0.092523336 0.99408883 0.056805357 0.00035755549
0.037121274 0.025148842 -0.073128372 0.1306448 0.99048114 0.043348055 0.00094052253
0.040434357 0.024542065 -0.07352329 0.21764743 0.97322416 0.073921047 0.00025978268
0.042457234 0.024129156 -0.074349776 0.27318576 0.95854181 0.081038401 0.0002270296
0.0050679203 -0.066852003 -0.070012435 -0.5522989 -0.83364618 -0.00015744343 0.0011709557
-0.00045897192 -0.063085496 -0.069197901 -0.60354042 -0.79249424 -0.087703444 0.00071435061
0.0011271324 -0.06423296 -0.070433438 -0.58116174 -0.81269151 -0.042232402 0.00129609
0.0034297032 -0.065845512 -0.069092877 -0.54268205 -0.83688277 -0.071578488 0.00040363095
-0.0033917732 -0.060651075 -0.06991592 -0.67572308 -0.73409933 -0.067055687 0.0011221217
-0.0020995992 -0.061743923 -0.070258021 -0.6507923 -0.75925493 -0.0011159412 0.002937441
-0.0065951231 -0.057360344 -0.070191771 -0.7470572 -0.66470665 -0.0084050074 0.0014888808
-0.0050464477 -0.05899585 -0.070154414 -0.69478941 -0.71856058 -0.030632544 0.0014725334
-0.0091879088 -0.054278873 -0.070538029 -0.78398544 -0.62058955 -0.015346721 0.0011878351
