# .PCD v0.7 - Point Cloud Data file format
VERSION 0.7
FIELDS x y z normal_x normal_y normal_z curvature
SIZE 4 4 4 4 4 4 4
TYPE F F F F F F F
COUNT 1 1 1 1 1 1 1
WIDTH 554
HEIGHT 1
VIEWPOINT 0 0 0 1 0 0 0
POINTS 554
DATA ascii
0.025409652 0.0050259531 -0.0077032931 0.20232755 -0.84000558 -0.50344235 0.0012662596
0.028230144 0.0055534886 -0.0072278655 0.2325086 -0.84769058 -0.47682324 0.0011025
0.030819841 0.0058563724 -0.0063669626 0.26438552 -0.84851074 -0.45839921 0.00098718551
-0.027978176 0.0086482354 -0.0065060733 -0.33518383 -0.82397074 -0.45686319 0.00082976796
-0.025210761 0.0083118211 -0.0077137263 -0.29384312 -0.78412431 -0.54663092 0.00091486383
-0.022573937 0.0073712771 -0.0077540232 -0.2879194 -0.79093713 -0.53992671 0.0011593932
-0.019752644 0.006631447 -0.0082163494 -0.25144783 -0.79011559 -0.55900919 0.0014403478
-0.017261105 0.0062158396 -0.00866077 -0.21285531 -0.79195595 -0.57227474 0.001106786
0.026540423 0.0060495473 -0.0089031868 0.20038126 -0.79622382 -0.5708546 0.0012219733
0.028666066 0.0063794362 -0.0085783917 0.23124593 -0.82735294 -0.5118714 0.001391353
0.031475391 0.0067061246 -0.0076323724 0.26354763 -0.83848023 -0.47696272 0.001000829
0.034496803 0.0077527864 -0.0076069999 0.29692996 -0.82339311 -0.48358703 0.0010526343
0.037292108 0.0084649734 -0.0069703641 0.32196006 -0.82565212 -0.46329287 0.00094594649
0.039328612 0.008942768 -0.0064770966 0.35559294 -0.82893884 -0.431757 0.0013787026
-0.033937871 0.011594576 -0.0073146066 -0.35362509 -0.77693963 -0.52087826 0.00069637597
-0.031495783 0.01101379 -0.0079858825 -0.32164937 -0.76655787 -0.5558154 0.001004592
-0.028605107 0.0098284185 -0.0080252551 -0.31053197 -0.778947 -0.54480398 0.00077144546
-0.026398942 0.0092761256 -0.008521772 -0.28950742 -0.76486301 -0.57547385 0.00096345058
0.037798494 0.00942933 -0.0084329629 0.32377449 -0.80346829 -0.49960864 0.00097068847
0.040559299 0.010194984 -0.0075817863 0.35714281 -0.80117989 -0.48016647 0.00098880695
0.043269981 0.011249621 -0.0071797799 0.39749721 -0.80159456 -0.44658935 0.0015571632
0.045315206 0.011849444 -0.0065512732 0.42768258 -0.80185765 -0.4172672 0.0016557953
-0.039820362 0.014469537 -0.0071516288 -0.42074862 -0.75871724 -0.49731165 0.00090696535
-0.03771881 0.01385608 -0.0078843394 -0.3818287 -0.74991429 -0.54021794 0.00072749192
-0.034756292 0.012663416 -0.0083922641 -0.35415187 -0.74351126 -0.56724548 0.0009074884
0.044139627 0.012350482 -0.0084204637 0.39544487 -0.77952373 -0.48576343 0.0012409413
0.046515346 0.013284339 -0.0077544055 0.43741062 -0.77570534 -0.45492104 0.0011946455
0.049164638 0.014408793 -0.007027918 0.46798241 -0.76129919 -0.44879395 0.001025586
-0.045368645 0.017662629 -0.0066172318 -0.50186068 -0.73397726 -0.4576169 0.00065188715
-0.043315478 0.017011195 -0.0077853249 -0.46101674 -0.70173568 -0.54316723 0.0008632837
-0.040809236 0.015605918 -0.0081235543 -0.4343977 -0.72228289 -0.53815061 0.00094508711
-0.038861036 0.015102772 -0.0088311862 -0.38951382 -0.70232034 -0.59583974 0.0015619237
0.050125096 0.015714383 -0.0082377624 0.46616143 -0.7290374 -0.50119662 0.0011575137
0.052345693 0.01672966 -0.0074354764 0.49924701 -0.71914655 -0.48330185 0.0013168982
0.05438675 0.01768942 -0.0066459547 0.53620851 -0.72457296 -0.43298319 0.0010465631
-0.048435677 0.020439604 -0.0075686774 -0.50435621 -0.68447322 -0.52642304 0.00076941145
-0.046481647 0.019332265 -0.0079910718 -0.48501816 -0.68863189 -0.5390209 0.00079576805
-0.044520412 0.01840785 -0.0085701477 -0.46783018 -0.69352496 -0.54786682 0.0012535508
0.053676985 0.018288868 -0.0083938688 0.51547313 -0.69388902 -0.50279772 0.0016311588
0.055751573 0.019421538 -0.0077389195 0.5475508 -0.67236239 -0.49811348 0.002049698
0.057752065 0.020515569 -0.0068691541 0.58006674 -0.65484649 -0.48445725 0.0012301927
-0.054201681 0.023866944 -0.0060187746 -0.58385003 -0.71100181 -0.39191282 0.0031827248
-0.05218102 0.023320893 -0.0076550771 -0.52634877 -0.66094756 -0.53488815 0.00084005954
-0.049933128 0.021878928 -0.0080074975 -0.50609714 -0.67332613 -0.53897834 0.0010915507
0.056798361 0.021222014 -0.0089180861 0.55582374 -0.59962553 -0.57576829 0.0015668136
0.05886215 0.022253169 -0.007806858 0.5912413 -0.62172359 -0.51370555 0.0019953847
0.060883921 0.023367012 -0.0068012802 0.61456543 -0.60508281 -0.50614631 0.0012848449
-0.057193696 0.026700916 -0.0066166245 -0.59339029 -0.65694439 -0.46509355 0.0011395587
-0.055504676 0.025977083 -0.0075406069 -0.54501057 -0.6415081 -0.53984338 0.00095104228
-0.053335082 0.024713315 -0.0082837604 -0.53064579 -0.65083975 -0.54297578 0.0010516732
0.05983752 0.024366815 -0.0089827888 0.57176751 -0.53993136 -0.61770225 0.0013079167
0.061877359 0.025242481 -0.0077897431 0.63214815 -0.559407 -0.53614599 0.0017493576
0.063591346 0.026377127 -0.0068103424 0.67222756 -0.52791089 -0.51905698 0.0012026995
-0.060342863 0.029827749 -0.0065959827 -0.6397292 -0.59303576 -0.48893258 0.0014105734
-0.058326375 0.028760089 -0.0078028673 -0.59993851 -0.58342129 -0.54744256 0.0014707085
-0.056514755 0.02740762 -0.0082649989 -0.55833679 -0.60308659 -0.56968993 0.0013418888
-0.00091165071 0.029962733 -0.00891844 0.076004788 0.77745652 -0.62432742 0.0010006371
0.0021712433 0.029831205 -0.0088784201 0.032140546 0.78384787 -0.62012064 0.00074067625
0.0045130956 0.02984065 -0.008786126 0.0045290492 0.80206054 -0.59722549 0.0012821853
0.0071994853 0.029911252 -0.0087591717 -0.03727876 0.79699832 -0.60282999 0.0011290503
0.0097328285 0.029936487 -0.0089209788 -0.075976461 0.78882402 -0.60990506 0.00079106732
0.062813185 0.027386438 -0.008716343 0.64316326 -0.48723987 -0.59070998 0.0024002329
0.064425774 0.028657967 -0.0078767482 0.68673193 -0.4450148 -0.57477039 0.0013761506
0.066143721 0.029559642 -0.0063791936 0.72088265 -0.44397101 -0.53218228 0.0015949198
-0.063165799 0.032788128 -0.0062450841 -0.6878199 -0.56775278 -0.45228383 0.0022303748
-0.061152816 0.031688299 -0.0075946264 -0.63508576 -0.52313179 -0.56833023 0.0014354419
-0.059640504 0.030398589 -0.0080308411 -0.60554391 -0.54033649 -0.58425415 0.0014382475
-0.015201729 0.032853093 -0.0088759651 0.24288678 0.76985198 -0.59019816 0.0014770234
-0.013163336 0.032585625 -0.0084422315 0.22281404 0.80120432 -0.55536073 0.0013656296
-0.010375565 0.032301094 -0.0078196181 0.19724885 0.84012514 -0.50525504 0.0016638298
-0.0075006406 0.031799316 -0.0076343361 0.15979929 0.85320002 -0.49650154 0.0019517913
-0.0044949786 0.031332526 -0.0076189674 0.12600261 0.84763807 -0.515396 0.0022179279
-0.0014954428 0.030982733 -0.0075853807 0.088244878 0.85591525 -0.5095312 0.0023103894
0.0014874184 0.030806085 -0.0075092646 0.050914198 0.86060208 -0.50672656 0.002183096
0.0044708895 0.030760033 -0.0074364343 0.0046557635 0.8614226 -0.50786752 0.0023726905
0.0074911001 0.030764779 -0.007486816 -0.037324317 0.85970342 -0.50942808 0.0022512686
0.010500672 0.030904057 -0.0076373313 -0.085130826 0.86060351 -0.50210994 0.0020826496
0.013454381 0.031238852 -0.0076152314 -0.13055979 0.85982543 -0.4936136 0.0025261308
0.016466402 0.031784531 -0.0076265694 -0.18623532 0.86039668 -0.47437745 0.0018066303
0.019320602 0.032336209 -0.007840774 -0.22380722 0.83821368 -0.49730089 0.0017586765
0.021983055 0.032648489 -0.0085900817 -0.24414539 0.80032986 -0.54759949 0.0010257167
0.024111919 0.032945238 -0.0089782039 -0.25187817 0.76687241 -0.59030849 0.001087887
0.065527566 0.031125607 -0.0084041767 0.6867193 -0.35623142 -0.63365269 0.0017199632
0.066780791 0.031838074 -0.0072874366 0.73163426 -0.38498929 -0.56257844 0.0020010017
-0.063914284 0.034913693 -0.0072440645 -0.66680425 -0.45428905 -0.59075671 0.0014807456
-0.062301762 0.034046128 -0.0084054163 -0.64051193 -0.46348915 -0.61230898 0.001735628
-0.024239752 0.035913028 -0.0089377519 0.32621443 0.75046444 -0.57479322 0.0016089545
-0.021998174 0.035522498 -0.0083438354 0.30950364 0.79945153 -0.51486391 0.0016704155
-0.019453714 0.034992687 -0.0076984763 0.29776096 0.83471137 -0.46324438 0.0014596811
-0.016522976 0.034095708 -0.0075748651 0.24694164 0.83292627 -0.49523076 0.0017521773
-0.013684083 0.033568196 -0.0071219136 0.23012394 0.84494901 -0.48280862 0.0018570662
-0.011226293 0.033287365 -0.0063712578 0.20501681 0.86996341 -0.44847709 0.001039846
0.020153305 0.033290301 -0.0066092964 -0.23319575 0.86012572 -0.45365569 0.0018218562
0.022652946 0.033629417 -0.0073291268 -0.24429786 0.84573656 -0.47439253 0.0019249691
0.025501102 0.034279186 -0.0076224892 -0.25126979 0.84194046 -0.47749323 0.0017399465
0.028423792 0.035122465 -0.0077206478 -0.28736052 0.83991975 -0.46038967 0.0014705737
0.030989544 0.035639752 -0.0083949883 -0.30613258 0.8145417 -0.4927521 0.0020536461
0.067550093 0.034343436 -0.0077772308 0.74271965 -0.2882615 -0.60437804 0.0018718641
0.069095589 0.03555721 -0.0063218726 0.79731518 -0.31316441 -0.51596183 0.0028197947
-0.066416346 0.038057551 -0.0066886423 -0.69518691 -0.39640886 -0.59964585 0.0022411519
-0.064551204 0.037319046 -0.0082921423 -0.63943684 -0.35140854 -0.68383664 0.0018691099
-0.030437574 0.038849607 -0.0087545291 0.36460561 0.75910509 -0.53927922 0.0010485465
-0.028216779 0.038356714 -0.0079872711 0.36454266 0.80111504 -0.47468239 0.0017612217
-0.025551369 0.037391197 -0.0076226895 0.3356666 0.81463271 -0.47297087 0.0017805792
-0.022815922 0.036571991 -0.0071520102 0.3241359 0.82518029 -0.46261591 0.0015039206
-0.02064896 0.036132488 -0.0062760622 0.31425112 0.84096253 -0.44048634 0.0010209237
0.02960741 0.036218185 -0.0064689992 -0.30782071 0.85081476 -0.42586446 0.0016121581
0.031727586 0.036563572 -0.0072371676 -0.32238013 0.82765347 -0.45941347 0.001684344
0.034541156 0.037519168 -0.0076595116 -0.36053625 0.80455256 -0.47192034 0.0023794158
0.037063766 0.038419593 -0.0081289187 -0.39852011 0.77387244 -0.49224299 0.0021183931
0.039049171 0.038981453 -0.0089223627 -0.3991271 0.70657492 -0.58433676 0.0015194882
0.068310611 0.037353389 -0.0080987616 0.73886037 -0.16846341 -0.65246105 0.002174651
0.069462389 0.037795551 -0.0067769424 0.78063208 -0.19389243 -0.59415424 0.0019317199
-0.067075804 0.040809102 -0.0075335889 -0.6804412 -0.26716408 -0.68236583 0.001736182
-0.065619744 0.040085264 -0.0086562848 -0.64645708 -0.24931353 -0.72106588 0.0027192652
-0.036321215 0.041803073 -0.0086646276 0.3848933 0.7589497 -0.52521658 0.0022246137
-0.03421266 0.041252337 -0.0078902775 0.38999823 0.79129237 -0.47091156 0.0016693949
-0.03156713 0.040182933 -0.0075381412 0.37230816 0.79471207 -0.47939473 0.0016534743
-0.029120574 0.039403465 -0.0068775169 0.37501329 0.81609821 -0.43971437 0.0011839162
0.037931848 0.039512359 -0.0070877303 -0.4180266 0.7774564 -0.46990982 0.0018675113
0.040457845 0.040647242 -0.0076083695 -0.44074306 0.75782341 -0.48109174 0.0016514413
0.042900208 0.041560229 -0.0084214685 -0.42666891 0.72149026 -0.54534888 0.0020377038
0.068527095 0.040348668 -0.0084700417 0.71769464 -0.072554193 -0.69256788 0.002199017
0.069819704 0.040689345 -0.0070468648 0.76602733 -0.094788812 -0.63578075 0.0019639733
-0.069389038 0.044329271 -0.0063934643 -0.71092993 -0.21858358 -0.66843092 0.0021640044
-0.067576863 0.043582059 -0.0079954769 -0.64303672 -0.15845333 -0.74926376 0.002985911
-0.042378847 0.044832431 -0.0087603461 0.37308142 0.72992873 -0.57272536 0.0016680912
-0.040228412 0.044314329 -0.0078873644 0.3971183 0.77424222 -0.4927941 0.0022795785
-0.037603982 0.043188941 -0.0075351954 0.38777548 0.77722412 -0.4955329 0.0016849859
-0.035229933 0.042399257 -0.0068550059 0.40854162 0.79550165 -0.44751623 0.0012148562
0.041725542 0.042227004 -0.0062714391 -0.4767572 0.76488668 -0.43318686 0.0012030212
0.043792736 0.042856902 -0.0072696698 -0.44266689 0.74437183 -0.49995661 0.0019826323
0.046341199 0.044004615 -0.0078409212 -0.42514014 0.7277866 -0.53812867 0.002145286
0.048513424 0.044693928 -0.0085789403 -0.40126634 0.69042385 -0.60191387 0.0015319432
0.068503819 0.043516129 -0.0086186426 0.68015969 0.032116167 -0.73236012 0.0027030958
0.069862552 0.043521609 -0.0072170817 0.74333656 -0.00076537364 -0.66891718 0.0027282846
-0.069640711 0.046610042 -0.0067219669 -0.66082948 -0.10559463 -0.74307078 0.0036589601
-0.067776747 0.046744615 -0.0082724458 -0.55594796 -0.0082511343 -0.8311761 0.0029673304
-0.048445426 0.047833525 -0.0087284781 0.32889616 0.70310515 -0.63045269 0.0016521204
-0.046217132 0.047313925 -0.0080221957 0.36841932 0.75590235 -0.54118276 0.0028377259
-0.043572057 0.046330933 -0.0074802856 0.38202205 0.78015757 -0.49539199 0.001900271
-0.041149165 0.045505699 -0.0068075568 0.42102581 0.78171122 -0.46007043 0.0015961557
0.047334004 0.045431346 -0.0066164308 -0.45249927 0.73862767 -0.49967349 0.001789568
0.049652841 0.046182495 -0.0074948519 -0.39914516 0.73149866 -0.55280447 0.0015983864
0.052228164 0.047212359 -0.0080483798 -0.38218129 0.70255136 -0.60029912 0.0028699895
0.054465707 0.047748707 -0.0087997504 -0.31397712 0.65015024 -0.69189817 0.0021001098
0.068219937 0.046612438 -0.0085018082 0.55949974 0.12678151 -0.8190766 0.0036424079
0.069873378 0.046459977 -0.0070558526 0.69061512 0.081500106 -0.71861565 0.0032398703
-0.069917828 0.049647976 -0.0067466986 -0.59544104 0.0082810782 -0.80335629 0.0066031185
-0.067515135 0.04961415 -0.00828778 -0.45122457 0.14165859 -0.88109541 0.0080638556
-0.065366313 0.050659992 -0.0088801999 -0.23408405 0.28092816 -0.93074381 0.0072328048
-0.05741372 0.050906554 -0.008931281 0.10130367 0.66950327 -0.73586881 0.0036238036
-0.055151481 0.050670613 -0.0086746002 0.20037262 0.6790958 -0.70617253 0.0020971887
-0.052296553 0.05014481 -0.0080125658 0.29911524 0.73903716 -0.60361755 0.0026135307
-0.049567804 0.049309701 -0.0075244661 0.3387785 0.75666708 -0.55918163 0.0017442708
-0.04703733 0.048549872 -0.006835111 0.39280769 0.7687608 -0.50468701 0.001889498
-0.044834178 0.048021257 -0.0060944338 0.40358019 0.7860347 -0.46826541 0.0011424074
0.053010296 0.048662353 -0.006881312 -0.41856474 0.71493548 -0.56006318 0.001794665
0.055548508 0.049468044 -0.0075609419 -0.34017682 0.6899128 -0.63898367 0.0022650259
0.058347661 0.050102055 -0.0082431231 -0.25796264 0.62889349 -0.73344958 0.0030157724
0.061261784 0.050557401 -0.0086928047 -0.12726133 0.56369388 -0.81612122 0.0044599469
0.064789526 0.050536197 -0.0088179894 0.091552429 0.42929059 -0.89851421 0.0074562486
0.067654252 0.049594741 -0.0081759766 0.4455421 0.2174688 -0.86844665 0.0061363555
0.069790274 0.049395222 -0.0067331754 0.66023058 0.13380617 -0.73904771 0.0058085606
-0.06994272 0.052666161 -0.0065931329 -0.4464595 0.13800402 -0.8840977 0.0092579676
-0.067497678 0.052548081 -0.0076290225 -0.26493084 0.29893219 -0.91676128 0.012799803
-0.064520679 0.052555468 -0.0081159007 -0.073726848 0.47849089 -0.87499189 0.0094293421
-0.061457943 0.052682389 -0.0079537043 0.076669551 0.60325897 -0.79385161 0.0045907577
-0.058501121 0.052505132 -0.0075793266 0.15593 0.71949768 -0.67676353 0.0027284839
-0.055578765 0.052025508 -0.0072586257 0.24959047 0.75202078 -0.61005688 0.0026005495
-0.052882884 0.051492751 -0.006666549 0.34042948 0.76597214 -0.54533887 0.0017266494
0.056656323 0.051183354 -0.0062895645 -0.40617526 0.7007497 -0.58649093 0.0024483176
0.058778081 0.051780995 -0.0068367962 -0.33761224 0.67050588 -0.66063595 0.0032800529
0.061555464 0.052440654 -0.007394996 -0.20560716 0.59088016 -0.78011936 0.004466367
0.064512447 0.05250119 -0.0078743845 0.01726835 0.43996122 -0.89785075 0.0084985709
0.067462377 0.052475303 -0.0074117617 0.33003592 0.29486352 -0.89673394 0.013551117
0.069536507 0.052387714 -0.0064006671 0.58723688 0.17055321 -0.7912423 0.0072550089
-0.069770016 0.0550084 -0.0062734392 -0.30778983 0.28368852 -0.90817744 0.012816682
-0.067459479 0.055223826 -0.0065856674 -0.0897009 0.43580559 -0.89555973 0.0097161867
-0.064626776 0.054914203 -0.0066468674 0.09279047 0.57996172 -0.80934191 0.0096848765
-0.06176931 0.054425877 -0.0064599793 0.1845488 0.67638397 -0.7130543 0.0056633842
-0.059625123 0.054159019 -0.0061004143 0.25083348 0.72857827 -0.63738233 0.0042417664
0.062405396 0.05430432 -0.0062623341 -0.32298937 0.61836112 -0.71645468 0.0060679098
0.064728215 0.054929141 -0.0065216757 -0.15084599 0.50122607 -0.85206681 0.010858827
0.067426994 0.05525133 -0.0064752884 0.14979973 0.3402487 -0.9283269 0.017219512
0.069236934 0.054770175 -0.0061459644 0.47809759 0.22111979 -0.85001695 0.011959433
-0.015235248 0.0029796474 -0.0031458361 -0.25480172 -0.93028402 -0.26390874 0.00054217287
-0.012940803 0.002633014 -0.0039700656 -0.2285419 -0.91344428 -0.33673164 0.0018385068
-0.010215198 0.0024028078 -0.0048225252 -0.15527394 -0.90427172 -0.39772174 0.0015473871
-0.0071720537 0.0020245954 -0.0049721547 -0.12475951 -0.88600302 -0.44657996 0.00103433
-0.0040991814 0.0016584255 -0.005090408 -0.090947278 -0.89924854 -0.42787918 0.0010230064
-0.0014390962 0.0012982537 -0.0046009985 -0.0510519 -0.92606932 -0.3738842 0.0020118216
0.0012736823 0.0013394201 -0.0050175735 -0.042355247 -0.89033723 -0.45332736 0.0015714092
0.0047456073 0.0011435815 -0.0047182683 0.010080728 -0.90775484 -0.41937989 0.0015679427
0.0072974055 0.0011874392 -0.0045954389 0.041181024 -0.91773635 -0.39504945 0.0015482759
0.01049233 0.0015090392 -0.0050677424 0.062710829 -0.89903253 -0.43336803 0.0012486044
0.013141441 0.001797461 -0.0052055558 0.089585952 -0.89323211 -0.44057995 0.0010409232
0.016508415 0.0020013445 -0.0045495294 0.12940009 -0.93615264 -0.3269158 0.001480703
0.019716535 0.0026602622 -0.0050699883 0.16459177 -0.8989923 -0.40585995 0.0011077472
0.021932289 0.002724916 -0.0038215742 0.19629169 -0.93297154 -0.30171797 0.0013765699
-0.022015378 0.0055798455 -0.0046473965 -0.30871943 -0.86464512 -0.39633483 0.0011772809
-0.019350853 0.0047858814 -0.0050093187 -0.27042243 -0.8672049 -0.41812348 0.0014649609
-0.016358385 0.0039698672 -0.0050655142 -0.24592482 -0.8817755 -0.40248337 0.0010831391
-0.013664311 0.0034152206 -0.0054701702 -0.20833349 -0.85976076 -0.46627089 0.0011215823
-0.011652529 0.0030893171 -0.0059456415 -0.18832172 -0.87629169 -0.44345 0.0025177978
0.020639909 0.0031299405 -0.0058849514 0.1680741 -0.92987168 -0.32724571 0.0022374105
0.022905732 0.0033433756 -0.0051788078 0.20239636 -0.9186753 -0.33922181 0.0015226884
0.026097123 0.0040625678 -0.005148734 0.22800051 -0.88841444 -0.39841637 0.00091826235
0.028468313 0.0045702178 -0.0046538063 0.25736091 -0.91400898 -0.3136127 0.0014853565
0.031361762 0.0053489227 -0.0044147298 0.27957255 -0.91234666 -0.29910314 0.0017513359
0.033262208 0.0056765736 -0.0034962408 0.32247654 -0.91821945 -0.22996062 0.0023147585
-0.030569712 0.008791714 -0.004277674 -0.35699743 -0.86463368 -0.35349885 0.0011762903
-0.028454164 0.0082255993 -0.0050995601 -0.33060682 -0.84809977 -0.41403598 0.0012106467
-0.0256547 0.0071110972 -0.0050435243 -0.32244283 -0.8543855 -0.40749973 0.0011157941
-0.023327498 0.0063421121 -0.0053885398 -0.33276775 -0.85900658 -0.38906723 0.0012456772
0.032719143 0.0061122617 -0.0055411346 0.30604813 -0.89371765 -0.3280296 0.0017341771
0.034698937 0.0065593328 -0.0045896131 0.33641216 -0.89194405 -0.30209702 0.001284793
0.037397631 0.0076284134 -0.0047306628 0.34334123 -0.88546342 -0.31316334 0.0014018493
0.039881345 0.0084668016 -0.0041670403 0.38718483 -0.88775033 -0.24897251 0.0018900138
-0.036750302 0.011662613 -0.0046628672 -0.41147694 -0.84017164 -0.353268 0.001984298
-0.034537092 0.010785948 -0.0051307655 -0.39170772 -0.83620518 -0.38383067 0.0012462568
-0.031672299 0.0096053155 -0.0052437261 -0.36899057 -0.84847134 -0.37939742 0.0013510706
-0.029826274 0.0090645729 -0.005849903 -0.35392296 -0.85579306 -0.37730199 0.0023322848
0.041381955 0.0094323549 -0.0049841865 0.40781239 -0.86183751 -0.30153808 0.0014751103
0.043660287 0.010349915 -0.0045078909 0.41604638 -0.85300845 -0.31509036 0.0012983715
0.046190571 0.01155816 -0.0042680828 0.43631831 -0.83178163 -0.34317002 0.0010460891
-0.04241804 0.014700167 -0.0047045485 -0.48146325 -0.78598505 -0.38784102 0.0011347069
-0.040286072 0.013700932 -0.0050979322 -0.44504356 -0.80622518 -0.38979137 0.0012198456
-0.037919924 0.012537321 -0.0052981982 -0.42373851 -0.81557024 -0.39406967 0.00092134275
0.047561098 0.012635051 -0.0050907256 0.465444 -0.81699151 -0.34042159 0.00098239817
0.049098928 0.013510329 -0.0050443518 0.48161501 -0.8031956 -0.35060507 0.0011547947
0.051411357 0.014485578 -0.0040406026 0.50748652 -0.80085468 -0.31794515 0.0014872928
-0.046070069 0.017191151 -0.004649824 -0.5351063 -0.76937932 -0.34887919 0.001277902
-0.043767437 0.015831679 -0.0051482199 -0.50769728 -0.7726106 -0.38120383 0.0010546199
0.05267404 0.015663957 -0.0048304629 0.52370524 -0.78353775 -0.33436733 0.00093616376
0.055406477 0.017369302 -0.0042960038 0.56027788 -0.75073606 -0.34997717 0.0010868917
-0.051446185 0.020748764 -0.0037402352 -0.56392008 -0.77029562 -0.29772273 0.0017000881
-0.049763165 0.019937646 -0.0048586717 -0.55011994 -0.74460196 -0.37806877 0.0012513676
-0.047373183 0.018387102 -0.0053365519 -0.53829968 -0.75082421 -0.38274857 0.0013642907
0.056359071 0.01835669 -0.00507935 0.58173162 -0.75872564 -0.29312733 0.0018865708
0.058488935 0.019838663 -0.0044384552 0.60455132 -0.70902443 -0.36304563 0.0010950116
0.060186733 0.020777868 -0.0033726462 0.64355171 -0.71764803 -0.26612499 0.0020730754
-0.054468729 0.023525869 -0.0048766895 -0.58170217 -0.71910638 -0.38014278 0.0013231849
-0.052983988 0.022364786 -0.0049257413 -0.5661906 -0.73032892 -0.38216212 0.0012016325
-0.050617699 0.021106783 -0.0059211217 -0.53792673 -0.70963955 -0.45502371 0.0004159997
0.059536763 0.021275137 -0.0054319394 0.62151486 -0.67266166 -0.40155399 0.0014572836
0.061402798 0.022480553 -0.0043821535 0.65673155 -0.66269749 -0.35991064 0.00087676622
0.063256532 0.023754675 -0.0032870043 0.70224911 -0.64522398 -0.30088595 0.0019404835
-0.057932433 0.02622316 -0.0044684173 -0.61917526 -0.69279927 -0.36966363 0.0013823338
-0.05580426 0.024763113 -0.0051382924 -0.58698612 -0.70351112 -0.40064862 0.001477131
0.062814943 0.024212856 -0.0050678537 0.67787445 -0.61129493 -0.40841728 0.0017816549
0.064392745 0.025800915 -0.0045711314 0.72005016 -0.57784289 -0.3842206 0.0014906547
-0.060835499 0.029053532 -0.0044538821 -0.6811446 -0.64195067 -0.35205308 0.0017538052
-0.059535243 0.027995953 -0.0050607086 -0.64058572 -0.64295024 -0.41983932 0.001128635
0.065408722 0.027649691 -0.00542806 0.73219121 -0.52319086 -0.43608186 0.0018012412
0.066735446 0.02891162 -0.0044526155 0.77478814 -0.49631271 -0.39163381 0.0017569786
-0.063474998 0.032121748 -0.00473542 -0.70163047 -0.56308544 -0.43663409 0.0012705408
-0.062103856 0.030851156 -0.0052256919 -0.68305111 -0.58590841 -0.43606475 0.001181382
-0.0093041128 0.032985851 -0.00593183 0.20066923 0.89615184 -0.39578241 0.0015379682
-0.007267334 0.032824378 -0.0055317809 0.1685871 0.91178662 -0.37446442 0.0021548606
-0.0043272716 0.032595154 -0.0050056544 0.14337498 0.92124999 -0.36158267 0.0022163813
-0.0014936387 0.032400765 -0.0046116873 0.10070363 0.9345727 -0.34122214 0.0025660859
0.001473473 0.032198116 -0.0045560934 0.057341695 0.93886548 -0.33947542 0.0028261654
0.0044607031 0.032100048 -0.004553399 0.014763681 0.93609822 -0.35142872 0.0027271055
0.007500839 0.032093305 -0.0046125678 -0.039274834 0.94277483 -0.33110881 0.0028748109
0.010459773 0.032255512 -0.0047193361 -0.099123709 0.93219972 -0.34810653 0.0030651253
0.013401639 0.032545637 -0.0047739362 -0.14537656 0.92875922 -0.34098685 0.0024637256
0.016113447 0.032793771 -0.0053888378 -0.19496015 0.91168684 -0.36168718 0.0025021175
0.018010871 0.032901548 -0.0058146291 -0.24126457 0.88752228 -0.39255032 0.0047475114
0.067928158 0.031281687 -0.0049441345 0.79980588 -0.41818929 -0.43061396 0.0018644155
0.06922698 0.032575984 -0.0035340958 0.82692099 -0.4147535 -0.37971205 0.0024476866
-0.066565692 0.03553978 -0.0037880975 -0.74985409 -0.51591891 -0.41418165 0.0020121185
-0.064820111 0.034156926 -0.0051239557 -0.71629381 -0.53354585 -0.44972441 0.0014056759
-0.018521441 0.035744768 -0.005488161 0.3041997 0.88198608 -0.35994872 0.0024522392
-0.01635077 0.035404589 -0.004803217 0.27717778 0.90090966 -0.33396757 0.0022388007
-0.013492342 0.03461872 -0.0046562073 0.25802696 0.90431869 -0.34004402 0.0023489215
-0.010559343 0.033841081 -0.0046628835 0.2067489 0.92243236 -0.32614923 0.0022622452
-0.007674614 0.0334257 -0.0042339079 0.15894732 0.93348825 -0.32145819 0.0027184701
-0.0049322606 0.03324594 -0.0035136319 0.14045672 0.95099187 -0.27547467 0.0030675186
-0.0024911463 0.0330032 -0.003033615 0.10555 0.97002757 -0.21887399 0.00067857513
0.014232081 0.03313281 -0.0035054791 -0.13916907 0.96350539 -0.22866854 0.0017949999
0.016605251 0.033376869 -0.0040613632 -0.19110072 0.93284512 -0.30541861 0.0024343608
0.01948704 0.033869553 -0.00462452 -0.23094468 0.92082274 -0.31424499 0.0021734601
0.022507289 0.034732737 -0.0045960578 -0.26591292 0.91368288 -0.30736604 0.001538122
0.025335569 0.035496105 -0.0047223377 -0.27966699 0.9056704 -0.31866497 0.0018611652
0.027457763 0.035837896 -0.0054889605 -0.3034552 0.89996737 -0.3130075 0.0022315194
0.068670355 0.033429645 -0.0055877627 0.82583386 -0.34102201 -0.44911304 0.002170406
0.069672793 0.034791447 -0.0046883514 0.85047978 -0.31362873 -0.42228103 0.0025581215
-0.067169137 0.037795871 -0.0053308797 -0.73239118 -0.42297456 -0.5335688 0.0020227421
-0.065938406 0.03628343 -0.0059281657 -0.69338405 -0.4209412 -0.58483088 0.0012097533
-0.027087625 0.038891677 -0.0057866895 0.38964319 0.84224117 -0.37256944 0.0030657165
-0.0250997 0.038504858 -0.0049687447 0.36606976 0.86800039 -0.33551195 0.0020125762
-0.022470189 0.037549529 -0.0046374011 0.35046127 0.87272906 -0.33988386 0.0021475854
-0.019663982 0.036540128 -0.0044614282 0.3041499 0.89766836 -0.31887987 0.002480719
-0.01746848 0.036190558 -0.0036327562 0.27926448 0.91541487 -0.28987393 0.0015150778
0.02649991 0.036188997 -0.0036820821 -0.28085157 0.91788024 -0.28038973 0.0016640191
0.028493874 0.036619172 -0.0043406202 -0.29786664 0.90437979 -0.30556953 0.0019588771
0.031541541 0.037575275 -0.0046749157 -0.35250604 0.87731344 -0.32566959 0.0020918874
0.03404161 0.038569868 -0.0049023381 -0.39720523 0.86139822 -0.3165772 0.0023187981
0.070569694 0.037689671 -0.0048090443 0.85734361 -0.22324844 -0.46381259 0.0023939896
-0.069466837 0.041475516 -0.0048602303 -0.76420814 -0.32279557 -0.55838066 0.0022972536
-0.06859725 0.040278327 -0.0053760051 -0.7545836 -0.35192162 -0.55385447 0.0023869085
-0.033257939 0.041884962 -0.0057572098 0.42397079 0.8233729 -0.37723443 0.0023730169
-0.03125478 0.041322555 -0.0047907173 0.42334059 0.84978592 -0.31408066 0.0018485313
-0.028491402 0.040078182 -0.004591546 0.3792913 0.86829406 -0.31969309 0.0020268811
-0.02620247 0.039302859 -0.0041256449 0.35881054 0.87668872 -0.32042438 0.001918797
0.03519965 0.039398663 -0.0041110246 -0.40039074 0.8626222 -0.30914432 0.0020098484
0.037465516 0.040406458 -0.004523892 -0.45907488 0.82691282 -0.32475442 0.0027221031
0.03962167 0.041541535 -0.0048899087 -0.50915349 0.8082912 -0.29568237 0.00197929
0.071232863 0.040548243 -0.004757137 0.87218541 -0.13240607 -0.47091526 0.0023389524
0.072074883 0.04152735 -0.003248981 0.94540638 -0.1461526 -0.29128382 0.0039086882
-0.070085138 0.043545239 -0.0050641559 -0.76106918 -0.24555655 -0.60039628 0.0024592811
-0.039140571 0.044917069 -0.0057718549 0.44650927 0.80645359 -0.38763654 0.0034583453
-0.037242208 0.044323787 -0.0048485906 0.44148302 0.83627546 -0.32517084 0.001999404
-0.034524277 0.043062463 -0.0045434958 0.42429531 0.84824735 -0.31693828 0.0020159828
-0.032411452 0.042262699 -0.0039253281 0.42028388 0.85149556 -0.31355491 0.0021022863
0.04101681 0.042604484 -0.0043243812 -0.48879769 0.81620973 -0.30802354 0.002174688
0.04344951 0.043999828 -0.0046969876 -0.50752616 0.79440254 -0.33367932 0.0018737462
0.045318887 0.044802144 -0.0056261513 -0.4737781 0.79405761 -0.38079777 0.0034135161
0.071346804 0.0434465 -0.0051511289 0.85127062 -0.044870295 -0.52280498 0.0030807105
0.072179787 0.043901015 -0.0036174399 0.90010619 -0.058559835 -0.43171692 0.0034860775
-0.072321013 0.047065195 -0.0033374238 -0.79111397 -0.22717869 -0.56791598 0.0021802161
-0.070994161 0.046582121 -0.0051535466 -0.73850751 -0.1650442 -0.65373307 0.0031060013
-0.042989109 0.047438338 -0.0048561594 0.44752941 0.82050347 -0.35565639 0.0021968063
-0.040490195 0.046202887 -0.0045380793 0.45006439 0.82624513 -0.3387638 0.0022279557
-0.03838918 0.045317885 -0.0038819921 0.44560876 0.83929497 -0.31147519 0.0019847837
0.044736668 0.045240112 -0.003661833 -0.51390898 0.79547906 -0.32110843 0.0020449995
0.046651233 0.04607768 -0.0046227635 -0.4965485 0.78419685 -0.37212205 0.0026181729
0.04909255 0.047435369 -0.0050706048 -0.48350245 0.76953763 -0.41717771 0.0025157344
0.071418554 0.046581939 -0.0050635668 0.82501769 0.033110697 -0.56413609 0.0027946136
0.072249442 0.046717957 -0.0035375361 0.89340085 -0.0042691575 -0.44923997 0.0032499235
-0.072597198 0.049763113 -0.0039983126 -0.73117977 -0.17472571 -0.65942925 0.0031064902
-0.071356013 0.049534153 -0.0054537384 -0.701487 -0.093145899 -0.70656902 0.0049363133
-0.048916493 0.050515655 -0.0050902269 0.42139289 0.81987906 -0.38759041 0.0027994553
-0.046521027 0.049490064 -0.0045555388 0.43565074 0.81972522 -0.37183192 0.0023932946
-0.044210058 0.048441943 -0.0040405565 0.43199843 0.82813519 -0.35716876 0.0019407653
0.050191902 0.048514795 -0.0042928569 -0.48368755 0.77473801 -0.40721911 0.0021425863
0.052407254 0.049664065 -0.0047997539 -0.47725999 0.76108533 -0.43928581 0.0026908834
0.054500386 0.050604973 -0.0054057091 -0.45870849 0.75360918 -0.47080749 0.003728115
0.07120537 0.049663831 -0.0051701162 0.77673709 0.074796319 -0.62536794 0.0039778543
0.072292812 0.049418554 -0.0034535946 0.86936724 0.012305065 -0.49401331 0.0039301543
-0.073067017 0.052708816 -0.0043960395 -0.63687187 -0.084296748 -0.76634741 0.0055294042
-0.071459614 0.052637376 -0.0056530223 -0.55615157 0.016865242 -0.83090979 0.0071532191
-0.057417497 0.05372281 -0.0057346253 0.26179126 0.79013485 -0.55421323 0.0027597423
-0.055218816 0.053430021 -0.0049340948 0.30364683 0.84170341 -0.44646823 0.0037412951
-0.052463531 0.052496981 -0.0046348586 0.36123401 0.83041197 -0.42417678 0.0025984684
-0.05004761 0.051509589 -0.0041700262 0.41643852 0.82580763 -0.38029042 0.002585402
0.053715445 0.051155038 -0.0034563898 -0.49537748 0.7860744 -0.36971372 0.0026904847
0.05572984 0.05181862 -0.0045671691 -0.4428488 0.76146692 -0.47334245 0.00277703
0.058259841 0.053070921 -0.0049631917 -0.41791996 0.72865802 -0.54258692 0.0054484927
0.0604208 0.053750783 -0.0057544908 -0.38043949 0.65294474 -0.65492666 0.0044444422
0.070977658 0.052591439 -0.0051136795 0.70513821 0.098378703 -0.70221204 0.0050864108
0.072272547 0.052664664 -0.0034741575 0.7849068 0.043025374 -0.61811817 0.0049889088
-0.075169042 0.05570896 -0.0030731533 -0.67458218 0.074696973 -0.73441082 0.02529601
-0.073302336 0.05558395 -0.0045466009 -0.57881004 0.17257763 -0.79699171 0.021751599
-0.070849828 0.055868775 -0.0056819092 -0.31818387 0.22414705 -0.92114985 0.015096553
-0.067223012 0.056686137 -0.0057990937 0.043356627 0.53582311 -0.84321636 0.0081908749
-0.06425152 0.056308452 -0.0054595084 0.22174555 0.65300196 -0.72416657 0.0064286464
-0.06148101 0.055833276 -0.0046736915 0.31796393 0.76670957 -0.5577234 0.0075863767
-0.058630418 0.0548645 -0.0044827382 0.28249422 0.82459086 -0.49015 0.00350625
-0.056104671 0.054325406 -0.0037681998 0.3279407 0.85582811 -0.40001649 0.0026615842
0.059340212 0.054454695 -0.0039949478 -0.47698385 0.70790303 -0.52092201 0.0036542427
0.061570764 0.055417109 -0.0046365894 -0.40676293 0.67933983 -0.61077106 0.005506529
0.064183176 0.056261539 -0.0054596695 -0.29602998 0.5591982 -0.77437943 0.010227205
0.067833498 0.056711581 -0.005898573 0.051834021 0.38614506 -0.92098057 0.01860271
0.070596434 0.055592272 -0.0050243596 0.53630406 0.1408788 -0.83218449 0.011666517
0.072224513 0.05540543 -0.003378462 0.76909846 0.039500326 -0.63790846 0.0065574734
-0.07303039 0.057742938 -0.0041874093 -0.44718829 0.52654141 -0.72303295 0.025076039
-0.070376001 0.058432132 -0.0047495984 -0.18867217 0.62370175 -0.75855058 0.0224011
-0.067516096 0.058443621 -0.00456081 0.14671427 0.66807073 -0.72949058 0.0091804648
-0.064704098 0.057884526 -0.004096034 0.32633963 0.71427369 -0.61912471 0.0068805027
-0.062556893 0.057353258 -0.0033350696 0.42041513 0.75658911 -0.50082332 0.008421653
0.06263531 0.057278018 -0.0034487087 -0.52567881 0.62350804 -0.57870495 0.011918142
0.064723663 0.058297437 -0.0043025357 -0.46414465 0.47473705 -0.74779308 0.01484787
0.06749887 0.058515292 -0.005276741 -0.023844086 0.32332343 -0.94598806 0.019555932
0.07046134 0.058510572 -0.0046381033 0.45993391 0.12368941 -0.87929624 0.017580602
0.072212838 0.058581438 -0.0033319925 0.65058714 0.034234896 -0.7586596 0.01680214
-0.069239184 0.060068853 -0.0033148057 -0.057369716 0.84808546 -0.52674448 0.027213909
-0.068156496 0.060072262 -0.0032723257 0.057410803 0.86360931 -0.50088227 0.029131539
0.06557063 0.060996633 -0.0034505967 -0.56321502 0.31545553 -0.76372552 0.012170275
0.067492925 0.061498981 -0.0043075327 -0.2954776 0.25232816 -0.92142469 0.023770807
0.070486449 0.061541513 -0.0043271887 0.28802186 0.09905751 -0.95248675 0.024151914
0.072394378 0.061708331 -0.0033118892 0.61074674 0.0012935291 -0.791825 0.017767061
0.067761607 0.064406417 -0.0037592526 -0.38293657 0.14635433 -0.91210747 0.019029073
0.070479922 0.064488418 -0.0041366257 0.1770163 0.017520985 -0.984052 0.027194805
0.072494589 0.064593248 -0.0033563182 0.48305866 -0.060853776 -0.87347072 0.024546614
0.068152137 0.067354575 -0.0035785846 -0.48556393 0.084880494 -0.87007064 0.016005639
0.070469193 0.067483835 -0.0041879253 -0.036447201 -0.0030778835 -0.99933088 0.029337717
0.07282301 0.067586794 -0.0035966376 0.46783501 -0.10314085 -0.87777698 0.015748056
0.068470269 0.070299275 -0.0034078679 -0.50403196 0.060534898 -0.86156094 0.023190409
0.070544235 0.070476048 -0.004225431 -0.18309909 -0.029391987 -0.98265499 0.029121615
0.07326556 0.070618391 -0.0038738688 0.34637699 -0.17696863 -0.92125189 0.019290356
0.075086355 0.071855426 -0.0032266174 0.55145097 -0.19898841 -0.8101269 0.0033645618
0.068658061 0.073477089 -0.0033328526 -0.65121132 0.12156765 -0.74909616 0.027888125
0.070476957 0.073477559 -0.0043966528 -0.29872766 -0.00079858711 -0.95433807 0.022380801
0.073491313 0.073541969 -0.0045315507 0.34211364 0.075178407 -0.9366464 0.06441503
0.07557977 0.073996097 -0.0035380723 0.61086065 -0.055189576 -0.78981227 0.073421188
0.06885156 0.075895801 -0.0032611263 -0.48048285 0.53023499 -0.69856071 0.073127806
0.070521928 0.075917356 -0.004249312 -0.24753661 0.47903275 -0.84217173 0.080349967
0.073246144 0.075547643 -0.0044847727 0.1854834 0.61683565 -0.76492459 0.055577058
0.075290486 0.075107291 -0.0035731704 0.56190997 0.47761109 -0.67538488 0.077946723
-0.015917167 0.0028921803 -0.0014712049 -0.25096557 -0.9547233 -0.15974873 0.0010774151
-0.013838905 0.0023884913 -0.0019283647 -0.23051713 -0.93993539 -0.25176054 0.0014098802
-0.010543186 0.0017337534 -0.0024232599 -0.16151984 -0.94324654 -0.29016766 0.001484703
-0.0078576691 0.0013040984 -0.0020444102 -0.14602795 -0.9514901 -0.27081811 0.0013152077
-0.0040001068 0.0008403972 -0.0023743752 -0.087096982 -0.94676608 -0.30991635 0.0016237721
-0.0014878507 0.00059724023 -0.0017729946 -0.069065131 -0.95271993 -0.29589668 0.0014948823
0.0016707949 0.00055590743 -0.0023584326 -0.026438413 -0.94668335 -0.3210789 0.0013793757
0.0050780526 0.00049781107 -0.0024538857 0.026842652 -0.95583498 -0.29267544 0.0033218632
0.0072501255 0.00048304087 -0.0015734984 0.039998729 -0.97020996 -0.23894082 0.0010854189
0.010516722 0.00074133894 -0.002279785 0.080547996 -0.96263725 -0.25853732 0.0032983348
0.013233547 0.00090515119 -0.0014483016 0.11239035 -0.96127051 -0.25164938 0.0015940432
0.016880469 0.0014742384 -0.0020696502 0.13962847 -0.96770978 -0.2098611 0.001821672
0.019501546 0.0018196286 -0.0017211126 0.17055869 -0.96762872 -0.18602251 0.0017604706
0.022351412 0.0024139762 -0.0016329968 0.20502688 -0.96386498 -0.17008325 0.00096547062
0.024816602 0.0029045278 -0.0012607047 0.23342329 -0.95887464 -0.1614714 0.0010445036
-0.024811823 0.0058602728 -0.0016269672 -0.34499672 -0.91813093 -0.19496892 0.00064539752
-0.022477809 0.0049618706 -0.0016405024 -0.33730036 -0.92126948 -0.19362609 0.00054997997
-0.019514322 0.0039098151 -0.0016988043 -0.29443625 -0.94040173 -0.17015265 0.00071438483
-0.017239092 0.0033712054 -0.0022655684 -0.26463091 -0.93258303 -0.24547794 0.00087957521
0.026094412 0.0032883929 -0.0020021151 0.24797025 -0.95229846 -0.17787187 0.0010763261
0.028289838 0.0038472582 -0.0014083557 0.27086568 -0.94952548 -0.15821874 0.00074453279
0.031361431 0.0047649941 -0.0014422889 0.29304197 -0.94489717 -0.14593026 0.00094029604
0.033937279 0.0056080739 -0.0013219184 0.33032954 -0.93326533 -0.14106043 0.0015124487
-0.031358309 0.0084970072 -0.0016226951 -0.36986414 -0.90003735 -0.23050657 0.00057650125
-0.02847454 0.0073047956 -0.0018237715 -0.35729668 -0.90949589 -0.2125003 0.0009503183
-0.026088238 0.0064186007 -0.0020923382 -0.34509736 -0.90721881 -0.24054496 0.0014270805
0.03523507 0.0061571454 -0.0018138514 0.35337096 -0.92654395 -0.12901616 0.0010943499
0.037474453 0.0069890446 -0.0016062651 0.36604261 -0.92227 -0.12422102 0.0010432509
0.040437087 0.0081911394 -0.0013660443 0.3935011 -0.90989971 -0.13129836 0.0012142804
0.042188566 0.0089347651 -0.00066980784 0.42300624 -0.89595437 -0.13539413 0.0013942859
-0.037434377 0.011291413 -0.0019291434 -0.42364669 -0.87528926 -0.23322132 0.00047466162
-0.034723487 0.0099616284 -0.0019593576 -0.40350634 -0.88022012 -0.24979042 0.0005298765
-0.032628838 0.009122395 -0.0025363602 -0.37202191 -0.89707214 -0.23845609 0.00095594535
0.041869491 0.0090377796 -0.0027386709 0.41317815 -0.89317554 -0.17754237 0.0022711216
0.043560948 0.0096853515 -0.0015576707 0.43459037 -0.88991845 -0.13847847 0.0015027933
0.046507139 0.011162671 -0.0014828603 0.46040642 -0.87632918 -0.14167982 0.0011551018
-0.042908341 0.014194446 -0.0015196053 -0.49749729 -0.83680671 -0.22858493 0.002773175
-0.040424298 0.012856208 -0.0018263431 -0.46275014 -0.85412282 -0.23735324 0.00044486386
-0.038819399 0.012030683 -0.0021100487 -0.46487242 -0.85271049 -0.23828252 0.00038937354
0.047966953 0.012064634 -0.002372554 0.48027012 -0.87170595 -0.097311176 0.0019711473
0.049578864 0.012929865 -0.0015939543 0.50519329 -0.85200113 -0.137382 0.001240992
0.051968604 0.014318105 -0.0013536002 0.52951282 -0.83926409 -0.12349911 0.0016905464
-0.048408795 0.017954266 -0.0013489453 -0.57985902 -0.78091049 -0.23225482 0.00080110651
-0.046598174 0.016759701 -0.0016939595 -0.55846804 -0.79469782 -0.23784189 0.0022141344
-0.044437058 0.015297366 -0.0020733625 -0.55353016 -0.79877281 -0.23572528 0.0026888233
0.053418081 0.01535999 -0.0017621975 0.55950922 -0.8200714 -0.12013454 0.0012831468
0.055493142 0.016756233 -0.0014210133 0.5675959 -0.8122142 -0.13469604 0.0014802756
0.057235222 0.017948434 -0.0012792338 0.59225142 -0.79451501 -0.13410461 0.0018631626
-0.051695019 0.020455839 -0.0016119373 -0.5944429 -0.77721435 -0.20633838 0.00088400708
-0.049766183 0.018996166 -0.0015457781 -0.57420409 -0.78444606 -0.23438023 0.00065691775
0.058753293 0.019206332 -0.001593878 0.62077361 -0.77335638 -0.12868592 0.0017608716
0.060447615 0.020586951 -0.0013462929 0.65652376 -0.74184799 -0.13652171 0.0029028028
-0.054938272 0.022957098 -0.0018440054 -0.60781574 -0.76702017 -0.20552422 0.00071348553
-0.052984111 0.021448357 -0.001891752 -0.59584874 -0.77587247 -0.20733143 0.00084134983
0.061888766 0.021983663 -0.0015661363 0.70017838 -0.70645195 -0.10332397 0.0028503651
0.063406445 0.023484387 -0.0014046017 0.7266705 -0.6770851 -0.11621424 0.0034304152
-0.058264561 0.025688082 -0.0017413523 -0.64660513 -0.73262763 -0.21250556 0.00060161954
-0.056617483 0.024249285 -0.0012590219 -0.61797327 -0.75553465 -0.21743143 0.0011751549
0.065066025 0.025546698 -0.0019183503 0.770908 -0.60903323 -0.18649226 0.0027290329
0.066199474 0.026822347 -0.0012499152 0.79451132 -0.57908773 -0.18278156 0.0024444943
-0.06142433 0.02862455 -0.0011504677 -0.71650839 -0.67472392 -0.17709744 0.0011968454
-0.059987862 0.02724928 -0.0024396654 -0.68123627 -0.70947284 -0.18045917 0.00079782179
0.067463808 0.028694516 -0.0016310449 0.82084209 -0.54334772 -0.17604424 0.0025031555
-0.063899919 0.031519502 -0.002293162 -0.73819637 -0.61434174 -0.278658 0.0015166634
-0.062870391 0.030451395 -0.0028434715 -0.74024743 -0.63654351 -0.21643978 0.0023814838
-0.00056680676 0.032909133 -0.002550941 0.098973118 0.97977853 -0.17389196 0.0020294825
0.0015889264 0.032874618 -0.0016716871 0.063059844 0.97922087 -0.19274317 0.0018404364
0.0045249551 0.032827809 -0.0013385582 0.023029342 0.98076791 -0.19381447 0.0020583363
0.0073994906 0.032830041 -0.0013729172 -0.045614518 0.98292899 -0.17824107 0.0027279167
0.010288718 0.032892022 -0.0022316342 -0.089485191 0.97440994 -0.20619823 0.0019773396
0.012277327 0.032959245 -0.0027340392 -0.13565792 0.97934055 -0.14996324 0.0023784614
0.068651661 0.030673178 -0.0017961427 0.85148311 -0.49637228 -0.16908899 0.0028350602
0.069462828 0.032084852 -0.0018748484 0.87221217 -0.41205758 -0.26354241 0.0033121195
-0.066638008 0.034864627 -0.001976395 -0.77735311 -0.56673139 -0.27301595 0.0020922339
-0.065587729 0.033421811 -0.0015307963 -0.78393698 -0.60433954 -0.14218523 0.0018873477
-0.015552272 0.03587763 -0.0019903397 0.29295796 0.94570339 -0.14078671 0.0024350304
-0.013534438 0.035349999 -0.0015819218 0.26882228 0.95140129 -0.15023348 0.0016450982
-0.010458947 0.034532953 -0.0016025105 0.21320948 0.95925164 -0.18541288 0.0025455686
-0.0074782446 0.03396114 -0.0014691888 0.16146696 0.97073925 -0.17774606 0.0018050905
-0.0044508483 0.033488005 -0.0015432169 0.13395771 0.97756124 -0.16257103 0.0014988552
-0.0019751715 0.033250216 -0.0010321905 0.10059947 0.98369694 -0.1490638 0.0017249151
0.00087427296 0.033086143 -0.0004641019 0.050933894 0.99823636 -0.030493995 0.0021067373
0.0044603627 0.033014525 -7.0284121e-05 0.015443783 0.99983811 0.009228684 0.0020850324
0.0084587708 0.033023182 -0.00024943909 -0.039153527 0.99825943 -0.044103488 0.0011093641
0.010791838 0.033112433 -0.00079001178 -0.081400484 0.99309516 -0.084475212 0.0022891762
0.013602309 0.033350211 -0.0014897322 -0.1393214 0.97673923 -0.16300364 0.0020364795
0.016472379 0.03384101 -0.0015240008 -0.1876297 0.96882319 -0.1617917 0.0023653239
0.019406607 0.034527369 -0.0015060456 -0.2500467 0.95840323 -0.1376224 0.0017671457
0.02248814 0.035372838 -0.0015266971 -0.27031103 0.95565796 -0.11683279 0.0015351777
0.024385946 0.035873454 -0.001885052 -0.30147439 0.94513571 -0.12582357 0.0019170354
0.070439868 0.034412853 -0.0021129316 0.90025538 -0.33690816 -0.27574113 0.0022415381
-0.069154091 0.038514864 -0.0018022581 -0.82843977 -0.44473523 -0.34043807 0.0026468094
-0.068139553 0.037165359 -0.0023138237 -0.79515541 -0.4936595 -0.35217628 0.0026533604
-0.024312308 0.038911797 -0.0022490995 0.38454616 0.91310072 -0.13554075 0.0019608757
-0.022505037 0.03827145 -0.0014876447 0.37082213 0.91907305 -0.13340053 0.0015610028
-0.019534947 0.037128236 -0.0014910356 0.30752671 0.94096154 -0.14148739 0.002770365
-0.016845401 0.036353607 -0.0013048404 0.27735427 0.95301515 -0.12180623 0.0019207511
0.025851421 0.036352295 -0.0014634179 -0.27985984 0.95146543 -0.12803192 0.0019003304
0.028493166 0.037209265 -0.0014596053 -0.31191 0.93957305 -0.14111885 0.0017897958
0.031567011 0.038299266 -0.0015018575 -0.36768898 0.92080373 -0.1300972 0.0017437773
0.033181395 0.03888445 -0.0022462981 -0.42745733 0.89673525 -0.11465672 0.0028306777
0.071488179 0.03730315 -0.0018674626 0.92166162 -0.28680333 -0.26131162 0.0025912053
0.072124295 0.038764611 -0.00053527061 0.95930117 -0.23803933 -0.15191606 0.0073216744
-0.070124634 0.040397458 -0.0022300442 -0.83136612 -0.39710936 -0.38876009 0.0031349976
-0.030560236 0.041727554 -0.0018062927 0.45957327 0.87898964 -0.12715988 0.0015455864
-0.028539455 0.04079042 -0.0015057201 0.41210094 0.90216053 -0.12758963 0.0017051876
-0.025653094 0.039583147 -0.0014346412 0.37676758 0.91750836 -0.1273758 0.0017493026
-0.023940792 0.039101593 -8.4539417e-05 0.37990624 0.91738921 -0.11860996 0.00083290262
0.032968499 0.039092723 -2.3347806e-05 -0.36541238 0.93051672 -0.024748113 0.0029687861
0.034649961 0.039676413 -0.0014985549 -0.43025544 0.89539021 -0.11470196 0.0025570046
0.037422378 0.041108921 -0.0015133136 -0.48569745 0.86281562 -0.14016888 0.0019907078
0.039115056 0.041924883 -0.0025870781 -0.49976367 0.85493428 -0.13900958 0.0032114433
0.071896918 0.039454803 -0.0027025349 0.93127638 -0.18114179 -0.31608862 0.0030640257
0.072337635 0.040729798 -0.0016311001 0.95833695 -0.14817546 -0.2442015 0.002925924
-0.07210429 0.044658117 -0.0017600203 -0.88232952 -0.33816189 -0.32732424 0.0038995612
-0.071311638 0.043071352 -0.0021555116 -0.85735565 -0.33010006 -0.39493698 0.0029851687
-0.036547568 0.044763278 -0.001897138 0.47748205 0.86886555 -0.13070428 0.0019820002
-0.034559764 0.043814398 -0.001455477 0.4507522 0.8840642 -0.12350275 0.0016889116
-0.031997472 0.042517345 -0.001406671 0.43356401 0.89171267 -0.129888 0.0016981916
0.038839847 0.042098992 -0.00059947174 -0.51070094 0.85300303 -0.10756607 0.0030482605
0.040533558 0.043007273 -0.0015180429 -0.51577145 0.84586847 -0.13596438 0.0022769189
0.042910445 0.044520535 -0.0016915735 -0.54933703 0.82390857 -0.1392967 0.0018973623
0.072639726 0.043449983 -0.0019076291 0.95478702 -0.06718488 -0.28959966 0.0028429965
-0.072687149 0.046730909 -0.0021749306 -0.8402409 -0.28194064 -0.46314654 0.0047818832
-0.042206418 0.047808118 -0.0024267526 0.48805574 0.86155164 -0.13975096 0.0028613652
-0.040511601 0.047000743 -0.0014799511 0.47490653 0.87022716 -0.13102846 0.0021041436
-0.037964597 0.045583863 -0.0013921454 0.46288976 0.87703717 -0.12860331 0.0019992751
0.044265255 0.045444265 -0.0014187053 -0.54400396 0.82759368 -0.13837786 0.0033853147
0.04647794 0.046901356 -0.0015520182 -0.54402047 0.82705677 -0.14148815 0.0029880612
0.048160054 0.047835801 -0.0025657038 -0.55270565 0.81799543 -0.15937339 0.0034878063
0.072792687 0.046339739 -0.0017945498 0.95839006 -0.030996239 -0.2837742 0.0038557714
-0.073599219 0.04992282 -0.0024587694 -0.76063579 -0.21863295 -0.61125505 0.0021761816
-0.048299685 0.050994623 -0.0028128629 0.43303689 0.88160133 -0.18777144 0.0030459641
-0.04634979 0.050263725 -0.001609933 0.47985008 0.86261529 -0.16012144 0.0025039881
-0.043589514 0.048735905 -0.0014660427 0.47762483 0.86848027 -0.13272734 0.00259881
0.047963575 0.048048291 -0.000488016 -0.53893811 0.83550471 -0.10713421 0.0037084431
0.049606193 0.048975173 -0.001679445 -0.53938681 0.81853563 -0.19763915 0.0028350567
0.051758725 0.050359059 -0.0019202146 -0.54626882 0.81705868 -0.184406 0.0030671216
0.072896972 0.049740594 -0.0018594939 0.91353321 0.0062354035 -0.40671635 0.0040642028
-0.075238414 0.053140875 -0.0019339654 -0.79558772 -0.041930217 -0.60438555 0.030020533
-0.074516304 0.052159358 -0.0025154902 -0.72738367 -0.15743726 -0.66792703 0.0039329594
-0.054151017 0.053842798 -0.0028082216 0.3308726 0.90649003 -0.2622959 0.0056574647
-0.052138742 0.053332876 -0.0018121786 0.41343081 0.88446254 -0.21633545 0.0026398711
-0.049473632 0.05196226 -0.001701406 0.44504765 0.87173986 -0.20494433 0.0025409688
-0.047792789 0.051142946 -0.0010427911 0.45945144 0.87172711 -0.17028306 0.0026266624
0.053248931 0.05144133 -0.0014977277 -0.52456707 0.82446659 -0.21233052 0.0042615854
0.055474441 0.052827708 -0.0017203384 -0.53875899 0.81061548 -0.22943687 0.0050072325
0.057238799 0.053761404 -0.0024982335 -0.54640561 0.78772861 -0.28447253 0.005942381
0.072917454 0.052442659 -0.0020066393 0.88607097 0.018943045 -0.46316248 0.0060121082
-0.075468145 0.055656683 -0.0022221804 -0.73405468 0.14360978 -0.66373181 0.032054849
-0.0749112 0.054196164 -0.0029681209 -0.73650795 0.10729204 -0.66786563 0.023361335
-0.060433172 0.056733456 -0.0020666553 0.47568965 0.83808678 -0.26707643 0.008113049
-0.058444753 0.055888634 -0.0018336283 0.38059533 0.88557345 -0.26628342 0.006609132
