# .PCD v0.7 - Point Cloud Data file format
VERSION 0.7
FIELDS x y z normal_x normal_y normal_z curvature
SIZE 4 4 4 4 4 4 4
TYPE F F F F F F F
COUNT 1 1 1 1 1 1 1
WIDTH 555
HEIGHT 1
VIEWPOINT 0 0 0 1 0 0 0
POINTS 555
DATA ascii
0.01005582 0.0021374514 -0.0065777013 0.051296014 -0.89606363 -0.440952 0.00055477122
0.012873301 0.0026328096 -0.0071328692 0.081555188 -0.86467272 -0.49567109 0.0013538469
0.015978511 0.0026062536 -0.0063125566 0.10472438 -0.89235747 -0.43901134 0.0012094917
-0.019125449 0.0055409838 -0.0067724129 -0.27372548 -0.83002084 -0.48594207 0.0012382022
-0.01625381 0.005254955 -0.0076023275 -0.22306624 -0.82518852 -0.51894647 0.0013356293
-0.013477134 0.0045689382 -0.0076750126 -0.20034592 -0.81764203 -0.53974348 0.0017553438
-0.010523701 0.0040005464 -0.0078638121 -0.14635473 -0.82912499 -0.53956646 0.0010364359
-0.0075063412 0.0037952154 -0.0082079647 -0.12931333 -0.82746518 -0.54642421 0.0013322609
-0.0051441267 0.003759576 -0.0086561507 -0.11079729 -0.81307316 -0.57152069 0.0016452597
-0.0014629156 0.0032813766 -0.0084299836 -0.051978126 -0.8321324 -0.55213588 0.0017868587
0.0014887077 0.003360311 -0.0087554138 -0.030124076 -0.8345924 -0.55004382 0.0020432149
0.0041907178 0.0033174981 -0.0088692382 -0.0029352463 -0.83530605 -0.54977739 0.0015971956
0.0072299791 0.003174955 -0.0085832002 0.025018906 -0.82003701 -0.5717634 0.0011073886
0.01065704 0.0032944581 -0.0085984915 0.049556337 -0.82652181 -0.56071913 0.0011633283
0.013723196 0.003460526 -0.0084302742 0.08819472 -0.8386808 -0.53743488 0.001560827
0.016575918 0.0036143232 -0.0081294831 0.1091504 -0.84913039 -0.51678216 0.0013454445
0.019580174 0.0039318278 -0.0078739543 0.13939367 -0.84766096 -0.5118987 0.00090352067
0.022526436 0.0045059822 -0.0078741834 0.18214136 -0.83588368 -0.51780593 0.001327363
0.02522999 0.0049699256 -0.0076762997 0.19972986 -0.83873773 -0.50658369 0.0010479449
0.028052552 0.0055384757 -0.0073088612 0.22884554 -0.83650202 -0.49788961 0.0012258233
0.030404815 0.0056949919 -0.0062461868 0.29265222 -0.86610925 -0.40522772 0.0016609544
-0.028142149 0.0087445788 -0.0065004593 -0.32592064 -0.8118028 -0.48451203 0.00068481406
-0.025173746 0.0082255071 -0.0075869476 -0.30158114 -0.80763775 -0.50672489 0.0010046685
-0.022352349 0.0072882958 -0.0077511594 -0.30022678 -0.80704027 -0.50847799 0.0015307534
-0.019616274 0.0065488149 -0.0081681218 -0.26028329 -0.8070758 -0.52998227 0.0016039234
-0.01757722 0.006317229 -0.0086897388 -0.21957104 -0.80835754 -0.54621118 0.0013486289
0.028913561 0.0063986504 -0.008453601 0.23388693 -0.84619355 -0.47880417 0.0014961788
0.031331003 0.006544794 -0.0074166227 0.26876512 -0.83662677 -0.47730595 0.00074330188
0.034614749 0.0076859556 -0.0074084559 0.30177647 -0.81943089 -0.48730263 0.0010739062
0.037553601 0.0085216984 -0.006903843 0.33694717 -0.81771266 -0.46670395 0.00091479637
-0.034004781 0.011577208 -0.0072105033 -0.36687642 -0.79119933 -0.48929065 0.00075997575
-0.031467237 0.010847357 -0.0077449321 -0.33338401 -0.79134154 -0.51247787 0.00093656965
-0.028668592 0.0098800436 -0.008059565 -0.32531738 -0.8018443 -0.50121284 0.0007916399
-0.026565863 0.0093446579 -0.0085349828 -0.29362741 -0.78896749 -0.53973436 0.0019505846
0.038223784 0.0094960574 -0.0082703298 0.32420412 -0.79959589 -0.50550765 0.0011552038
0.040594321 0.010185978 -0.0075504463 0.36285064 -0.80328804 -0.47230038 0.00086866709
0.043262348 0.011162437 -0.0070489263 0.39252701 -0.79798007 -0.45732954 0.00092614733
0.045686796 0.011996083 -0.0063337726 0.44548011 -0.80185622 -0.39821362 0.00128881
-0.039972216 0.014496514 -0.0070344135 -0.42525104 -0.7595892 -0.49212381 0.00067900924
-0.037530407 0.013677654 -0.00774178 -0.39191425 -0.77299964 -0.4988735 0.00085927162
-0.034984473 0.012600923 -0.0081496742 -0.37123281 -0.77098739 -0.51745975 0.0011421901
0.044213824 0.012274471 -0.0081976932 0.40630671 -0.80064517 -0.44032064 0.0014977148
0.046330623 0.013201138 -0.0078102299 0.43332922 -0.77002466 -0.46828166 0.00071922503
0.048967343 0.014295328 -0.0070543615 0.45566046 -0.7535944 -0.47378168 0.00093748147
-0.04533476 0.017677251 -0.0066238046 -0.49793833 -0.73021656 -0.46780473 0.00043952081
-0.043213945 0.016912557 -0.0077068582 -0.47746119 -0.72032017 -0.5031597 0.0011350549
-0.040749926 0.015631704 -0.008171564 -0.43578947 -0.74951792 -0.49830759 0.0011753634
0.050078206 0.015562199 -0.0080904979 0.46740401 -0.73280698 -0.49449715 0.0013025264
0.052570574 0.016790746 -0.0073300526 0.49948987 -0.72863007 -0.46862358 0.00058345171
0.054492746 0.017624265 -0.006425689 0.53446543 -0.7268005 -0.43140215 0.0011075722
-0.048498407 0.020411633 -0.0074410839 -0.51295781 -0.70295525 -0.49267462 0.0010276956
-0.046657577 0.019371331 -0.0078599714 -0.4919509 -0.70380592 -0.51248574 0.00099745637
-0.0444346 0.018442972 -0.00867722 -0.48190108 -0.70614374 -0.51877964 0.00173024
0.05364915 0.018462952 -0.0087020984 0.49661139 -0.65846139 -0.56551367 0.0010193931
0.056039553 0.019770905 -0.0079227416 0.53689373 -0.64548028 -0.54323137 0.0015677748
0.058031462 0.020536745 -0.0065112324 0.57851636 -0.63265252 -0.51484907 0.00083513942
-0.051878177 0.023033228 -0.0075482232 -0.53673583 -0.68348271 -0.49473843 0.00093586941
-0.049917441 0.021944145 -0.0080808941 -0.51109266 -0.68812937 -0.51503623 0.0016051815
0.058779575 0.022111332 -0.0076942509 0.58874154 -0.61002141 -0.53033698 0.0015207914
0.060833838 0.023225956 -0.0066849315 0.60459268 -0.59378314 -0.53093243 0.0012037061
-0.057021342 0.026768034 -0.006929771 -0.59347576 -0.65679395 -0.46519697 0.001121261
-0.055538278 0.025964828 -0.0074310061 -0.55852318 -0.66823709 -0.49143776 0.0013132265
-0.053393815 0.024661135 -0.0081359446 -0.55147815 -0.6766901 -0.48781386 0.00078129873
0.059949707 0.024397001 -0.0089744003 0.5721724 -0.54188824 -0.61561024 0.0013663307
0.061959211 0.025305288 -0.0077588796 0.62316287 -0.53928769 -0.56642461 0.0012295892
0.063539378 0.02649644 -0.0070217992 0.67297792 -0.52198565 -0.5240531 0.0013138183
-0.060140021 0.02990975 -0.0069784159 -0.62740809 -0.58262086 -0.5166353 0.0023533003
-0.058150448 0.028428007 -0.0076151248 -0.60777539 -0.61094403 -0.50730312 0.0011607045
-0.056354247 0.02740757 -0.0084108841 -0.5462721 -0.63254011 -0.54907173 0.0019710534
-0.0010733426 0.029966472 -0.0089051239 0.07668341 0.77153999 -0.63154233 0.0010939142
0.0020256373 0.02984987 -0.0088858698 0.041425832 0.77937073 -0.62519222 0.00083179714
0.0047052419 0.029816717 -0.0087477816 0.0026131179 0.840509 -0.54179138 0.0026677041
0.0076523926 0.029919565 -0.0087874504 -0.04579844 0.80073154 -0.59727001 0.0022871778
0.010150238 0.029933471 -0.0089675002 -0.082464293 0.78477848 -0.6142658 0.00093579898
0.062758923 0.027257107 -0.0086766146 0.63751411 -0.49469277 -0.59063929 0.0021552157
0.064510144 0.028562536 -0.0077084056 0.69923371 -0.44998336 -0.55550623 0.001651221
0.066132545 0.029337907 -0.0062662568 0.71025312 -0.43475938 -0.5536468 0.0017175099
-0.063204959 0.032726467 -0.0060474239 -0.68950313 -0.56425917 -0.45408919 0.0025883175
-0.061226182 0.031748161 -0.0075463485 -0.64803457 -0.54046428 -0.53660935 0.0021685632
-0.059412826 0.030327063 -0.0081979195 -0.61402798 -0.57020032 -0.54574835 0.0024388749
-0.015289 0.032884181 -0.0088475719 0.25821269 0.760732 -0.59549397 0.0010411062
-0.013209599 0.032627676 -0.008401053 0.22278343 0.79720324 -0.56110108 0.0014308352
-0.01039572 0.032276452 -0.0078642583 0.19901565 0.84236187 -0.50081843 0.0015494699
-0.0074987435 0.03181855 -0.0075997151 0.1600085 0.85494101 -0.4934299 0.0020156133
-0.0045147338 0.031340312 -0.0076124743 0.12444805 0.85037506 -0.51124829 0.0023388849
-0.0015067883 0.030995769 -0.0075693522 0.092844814 0.85629934 -0.50806624 0.0022067123
0.001469704 0.030824175 -0.0074749105 0.05397553 0.85811985 -0.51060456 0.0022063258
0.0044943001 0.030763755 -0.0074239946 -0.0020235807 0.86084378 -0.5088653 0.0023215779
0.0074762828 0.0307857 -0.0074468236 -0.043753911 0.8597663 -0.5088098 0.0021473875
0.010453843 0.030908329 -0.0076191165 -0.084872015 0.86383861 -0.4965679 0.001989715
0.013443994 0.031262171 -0.0075749177 -0.13166213 0.86265361 -0.48835832 0.0024217528
0.016433723 0.031795532 -0.0075932057 -0.18660444 0.86503845 -0.46571147 0.0017115497
0.019336572 0.032307956 -0.0078915348 -0.22152156 0.84103239 -0.49355111 0.0018166202
0.021911435 0.032665003 -0.0085303448 -0.24234898 0.81988263 -0.51870936 0.0015309252
0.024107289 0.03295524 -0.0089864014 -0.24872443 0.76742423 -0.59092826 0.0010309762
0.065537162 0.030963624 -0.0083033359 0.69937587 -0.36788216 -0.61281013 0.0014874722
0.066811197 0.031807784 -0.0072295405 0.72682637 -0.377922 -0.5734967 0.0017690994
-0.063896775 0.035038263 -0.0073556318 -0.67124623 -0.47968629 -0.5650925 0.0012787508
-0.062305018 0.034007464 -0.0083626602 -0.66469073 -0.46475872 -0.58496624 0.0020195935
-0.024262898 0.035949007 -0.0088936649 0.32430136 0.75165236 -0.57432348 0.0016858149
-0.022097772 0.035568271 -0.0083361454 0.3121101 0.78932273 -0.52873141 0.0015353424
-0.019467073 0.035014834 -0.0076649133 0.29426828 0.83484828 -0.46522525 0.0014637103
-0.016534343 0.034104008 -0.007567646 0.24954301 0.8326928 -0.49431872 0.0017120583
-0.0136984 0.033618968 -0.0070401882 0.23045368 0.84526676 -0.48209465 0.0018784907
-0.011138816 0.033245817 -0.0064286138 0.20262669 0.87360948 -0.44243512 0.00078364945
0.020015569 0.033272196 -0.006567379 -0.23382655 0.85993969 -0.45368373 0.0018968297
0.022655705 0.033659641 -0.0072652008 -0.24203067 0.85143495 -0.46527365 0.0020983657
0.025525482 0.034290507 -0.0076164678 -0.25127786 0.84501904 -0.47201928 0.0018373588
0.028449548 0.035116639 -0.0077415123 -0.27691433 0.84227258 -0.46248826 0.0017489763
0.030957619 0.035629597 -0.0083916569 -0.3060717 0.821814 -0.48056409 0.0021621929
0.06764809 0.034481388 -0.0077223815 0.74669033 -0.29295394 -0.59718627 0.0017959228
0.069150344 0.035677999 -0.0062528495 0.7925086 -0.29788655 -0.53215945 0.0033861143
-0.066495448 0.038101561 -0.0066023292 -0.69986129 -0.42685211 -0.57270539 0.0029922454
-0.064672887 0.037564833 -0.0082969302 -0.63657361 -0.33090875 -0.69661576 0.0019236865
-0.030343473 0.038874064 -0.0086708385 0.37975913 0.77322865 -0.50783902 0.0013795424
-0.028213827 0.038347457 -0.008002664 0.36451462 0.80524725 -0.46766013 0.0016864091
-0.02550865 0.037388477 -0.0075984895 0.32791534 0.82323682 -0.46341407 0.0015665224
-0.022703819 0.036590114 -0.0070435549 0.32575887 0.82635236 -0.45937234 0.0014744388
-0.020622134 0.036181509 -0.0060928743 0.319673 0.8379361 -0.44234857 0.00092776853
0.029559657 0.036188781 -0.0065111979 -0.30607107 0.84841001 -0.43188071 0.0015794652
0.031744402 0.036558732 -0.007255442 -0.32329953 0.8339172 -0.44728023 0.001797806
0.034534167 0.037508111 -0.0076730386 -0.36562538 0.80626452 -0.46503302 0.0025970994
0.037064802 0.03846401 -0.0080546737 -0.39953244 0.78319216 -0.47642818 0.002330912
0.068271272 0.037372176 -0.0081426399 0.75391692 -0.17533171 -0.63314146 0.0021609946
0.069478504 0.037892114 -0.0067955218 0.78304005 -0.19591594 -0.59030938 0.0021469214
-0.067050479 0.04079124 -0.0075333547 -0.65555817 -0.23933704 -0.71621317 0.0015755474
-0.065567628 0.039939895 -0.0086497199 -0.65897429 -0.26245412 -0.70489055 0.0020564969
-0.036281124 0.041754071 -0.0087076863 0.39072794 0.75607538 -0.52505398 0.0025832399
-0.034230482 0.041279629 -0.0078603001 0.39229292 0.79283345 -0.46639186 0.0017702248
-0.031595748 0.040190924 -0.007553244 0.3704311 0.79721349 -0.47668809 0.0017334521
-0.029181784 0.039442778 -0.0068672602 0.37730843 0.81874579 -0.43277436 0.00093299453
0.038017917 0.039592925 -0.0070257918 -0.42448235 0.78445733 -0.45215186 0.0020085394
0.040454295 0.040636141 -0.0076182694 -0.45031512 0.76372945 -0.4625296 0.0019033635
0.042905759 0.041567128 -0.0084174164 -0.42354441 0.71473628 -0.5565629 0.0012863351
0.068500549 0.040301461 -0.0084817344 0.74091744 -0.072318457 -0.66769099 0.0023159173
0.069803834 0.040660549 -0.0070539862 0.77632815 -0.10572395 -0.62139934 0.0021560232
-0.069479853 0.044393025 -0.006309751 -0.70225847 -0.20143051 -0.68283147 0.0020943345
-0.06752526 0.043476924 -0.0080074752 -0.63133246 -0.14569071 -0.76170433 0.0025889806
-0.04237622 0.044854049 -0.0087663876 0.38861272 0.72390634 -0.57003486 0.001740424
-0.040220447 0.044296235 -0.0079109939 0.40226698 0.77683991 -0.48445955 0.001593816
-0.037587821 0.043183997 -0.0075300955 0.38351187 0.77909201 -0.49591756 0.0016147541
-0.035240959 0.042455923 -0.0067791739 0.41088027 0.79643285 -0.44370276 0.0011314
0.041653704 0.042214733 -0.006235736 -0.46920359 0.76310486 -0.44443116 0.001045995
0.043731112 0.042871874 -0.0071829278 -0.44513002 0.75641042 -0.47927299 0.0020537055
0.046320017 0.043983441 -0.0078464057 -0.43421376 0.73141456 -0.52582425 0.0023898527
0.048535988 0.044646606 -0.0086407466 -0.3926875 0.69228768 -0.60542083 0.0016929532
0.068511911 0.043571394 -0.0086041475 0.69933575 0.030584441 -0.71413875 0.0026353027
0.069886416 0.043596935 -0.007180261 0.75926757 -0.006614679 -0.65074497 0.0028281885
-0.069590166 0.046521325 -0.0067282692 -0.64338762 -0.082567625 -0.76107478 0.0029647453
-0.067807101 0.046593387 -0.0082370555 -0.58645499 -0.038435739 -0.80906928 0.0025499412
-0.048367705 0.047795366 -0.0087464554 0.33125669 0.71503079 -0.61562973 0.0017638053
-0.046221662 0.047324244 -0.0080104833 0.37281811 0.75851977 -0.53446651 0.0031739355
-0.04358786 0.046350911 -0.0074629989 0.37521875 0.78013891 -0.50059366 0.0020037328
-0.041154757 0.045534503 -0.0067677316 0.42848504 0.77804559 -0.45939699 0.0017520847
0.047309469 0.045381278 -0.006664047 -0.45803007 0.7440576 -0.48640195 0.0020019358
0.049643252 0.046208531 -0.0074514542 -0.39916697 0.73986191 -0.54154414 0.0015861107
0.052214086 0.047202107 -0.0080450838 -0.38283759 0.69790554 -0.60527945 0.003134205
0.054462373 0.047766637 -0.0087803984 -0.31291854 0.6559341 -0.68690062 0.0018623052
0.068187453 0.046616528 -0.0085217487 0.55897534 0.12665924 -0.81945354 0.0037248123
0.06987869 0.046500254 -0.0070353672 0.69973177 0.077121377 -0.71023077 0.0036284865
-0.06986481 0.049575876 -0.0067694527 -0.59149981 -0.00080284156 -0.80630475 0.0064019784
-0.067567416 0.049601164 -0.0082500484 -0.47714362 0.1123282 -0.87161714 0.0075550098
-0.065417536 0.050640333 -0.0088867759 -0.22405076 0.26552793 -0.9377079 0.0088217743
-0.057191022 0.050899517 -0.0089212507 0.094067894 0.6842773 -0.72312921 0.0033739805
-0.055035826 0.050605673 -0.00870072 0.20055513 0.66968238 -0.71505463 0.0021247217
-0.052243516 0.050093088 -0.0080456706 0.29583833 0.73002964 -0.61606526 0.0025048635
-0.049541291 0.0493058 -0.0075112474 0.33754215 0.76513398 -0.54830217 0.0017165914
-0.047080327 0.048605192 -0.006786807 0.39176235 0.76814353 -0.50643641 0.0019813199
0.053014297 0.048695102 -0.0068378276 -0.42476574 0.71099681 -0.56040835 0.0020379003
0.055561006 0.049433257 -0.0076009869 -0.33206752 0.67929202 -0.65444136 0.0019311985
0.058379065 0.050151419 -0.0082059372 -0.25648373 0.63918918 -0.72501951 0.0030796498
0.061281934 0.050587412 -0.0086697191 -0.12981477 0.56723356 -0.81326145 0.0045050313
0.06472487 0.0505815 -0.0088006156 0.087404579 0.43394968 -0.89668733 0.0072482
0.06764967 0.049545825 -0.0081867995 0.44897386 0.2123615 -0.86794293 0.0063906251
0.069754139 0.049409732 -0.0067527257 0.66923618 0.1244754 -0.73254949 0.0063382164
-0.069979839 0.052633476 -0.00658755 -0.47911412 0.10228238 -0.87177289 0.0099722296
-0.067439012 0.052549154 -0.0076428526 -0.27760124 0.28612745 -0.91709793 0.013817511
-0.064494051 0.052612979 -0.0080854772 -0.058121368 0.47915465 -0.87580407 0.0083347419
-0.061458081 0.05267635 -0.0079518715 0.090555094 0.59597141 -0.79788339 0.00490436
-0.058489058 0.052499998 -0.0075796954 0.14928216 0.71822125 -0.67961246 0.0026936929
-0.0555632 0.051992867 -0.007288421 0.24408549 0.74631256 -0.61922514 0.0021802932
-0.052815896 0.051426273 -0.006714419 0.33885542 0.76618248 -0.54602325 0.0015197784
0.056509439 0.051136922 -0.0062585878 -0.40321243 0.70934761 -0.57813996 0.002662949
0.058763038 0.051823381 -0.0067843734 -0.34295639 0.6775229 -0.65064859 0.0034751252
0.061555188 0.052488659 -0.0073541398 -0.19229913 0.58291912 -0.78944689 0.0045505171
0.064526416 0.052503634 -0.0078640291 0.024740329 0.43348485 -0.90082115 0.00959659
0.067480229 0.052503448 -0.0073906058 0.33271483 0.29615492 -0.89531732 0.013731276
0.069548503 0.052358106 -0.0063929181 0.60112691 0.16773535 -0.78135222 0.0080753006
-0.069750339 0.055036958 -0.0062661082 -0.31162298 0.27237999 -0.91032976 0.010948717
-0.067461707 0.055232543 -0.0065735546 -0.086217239 0.44310889 -0.89231217 0.0095071262
-0.064623453 0.054896832 -0.00665052 0.096626058 0.58335209 -0.80645138 0.0092681469
-0.061786246 0.054429602 -0.0064563514 0.1855628 0.67054021 -0.71829122 0.0053165243
-0.059659414 0.054183856 -0.0060964162 0.24596021 0.72695136 -0.64112818 0.0039912406
0.062448412 0.054346327 -0.0062386915 -0.32995251 0.6202504 -0.71163243 0.0071120108
0.064698629 0.05491915 -0.0065148412 -0.14883953 0.49475625 -0.85619098 0.010464509
0.067439057 0.055249091 -0.006465347 0.1506082 0.34187481 -0.92759842 0.01625344
0.069259077 0.054618329 -0.0061403364 0.47113135 0.24429302 -0.84755898 0.016620593
-0.012686455 0.002654142 -0.0041578095 -0.21522491 -0.89944601 -0.38036194 0.001211327
-0.0099123465 0.0024699569 -0.0051227175 -0.14918847 -0.87923181 -0.4524315 0.00070286717
-0.0079248659 0.0022577816 -0.0052284356 -0.14250323 -0.87987506 -0.45333505 0.00081941381
-0.0043766834 0.001570718 -0.0047148033 -0.11544564 -0.9079017 -0.40297246 0.0010794835
-0.0014966682 0.0014238564 -0.0048683607 -0.040995777 -0.93469912 -0.35306799 0.0027206084
0.0014437947 0.0012866707 -0.0048644543 -0.040242672 -0.92469317 -0.37858042 0.0038573341
0.0050611109 0.001319289 -0.0051446408 0.011596306 -0.87987024 -0.47507253 0.001084741
0.0068088351 0.0012069995 -0.0047351103 0.051610209 -0.90261459 -0.42734444 0.0011965589
0.010454278 0.0014920082 -0.0050835018 0.062802337 -0.90976977 -0.41033497 0.0016440053
0.013579352 0.0019046427 -0.0053302944 0.09801168 -0.90250272 -0.41938367 0.0014272842
0.01665454 0.0020754081 -0.0046558827 0.14093183 -0.93733269 -0.31866238 0.0015826171
0.019353293 0.0024243279 -0.0045263972 0.15914929 -0.94562441 -0.28366533 0.0014626649
0.021544686 0.0025386317 -0.0034191255 0.21335618 -0.93828225 -0.27222341 0.0019084662
-0.022098493 0.0056368383 -0.0046910085 -0.30163768 -0.84872705 -0.43436977 0.00071978907
-0.019328855 0.0048403228 -0.0051462799 -0.26860824 -0.84777951 -0.45729589 0.001036899
-0.016121287 0.0039922725 -0.0052622547 -0.23035242 -0.86233997 -0.45089629 0.00081156369
-0.013702473 0.003373466 -0.0053924639 -0.20729202 -0.86745983 -0.4522647 0.00079840724
0.020639909 0.0031299405 -0.0058849514 0.1680741 -0.92987168 -0.32724571 0.0022374105
0.022757895 0.0032498755 -0.0049222824 0.20501126 -0.92290902 -0.32589787 0.0014415608
0.025641037 0.0037472725 -0.0044934154 0.24361861 -0.93191779 -0.26866204 0.0014118532
0.028548436 0.0046037682 -0.0046314108 0.26439887 -0.91726995 -0.29784083 0.0020437853
0.031354818 0.0053436644 -0.00435074 0.28407767 -0.92011553 -0.26960573 0.0021907422
0.033169165 0.0056024902 -0.0033514779 0.31970599 -0.9059236 -0.27765185 0.0025342773
-0.030054875 0.0089075845 -0.0051703309 -0.3342151 -0.82424241 -0.45708281 0.00026449957
-0.027822355 0.0080667278 -0.0053603803 -0.32196954 -0.8331666 -0.44963208 0.00080798112
-0.025458392 0.0071181357 -0.0052299784 -0.30931309 -0.84096658 -0.44396013 0.00058538833
-0.023356304 0.0064391857 -0.0055219904 -0.31703591 -0.83077168 -0.45750037 0.00091377576
0.032692019 0.0061806841 -0.0057368306 0.32943246 -0.87692577 -0.34996507 0.0019906131
0.034564424 0.006517671 -0.0045668557 0.35401526 -0.89660889 -0.26601812 0.001431167
0.037451982 0.0076122764 -0.0045659957 0.35475644 -0.88997597 -0.28651482 0.0016452761
0.039728086 0.008439024 -0.0042892969 0.38411465 -0.88850844 -0.25101525 0.0019179089
-0.036625363 0.011768568 -0.0050867214 -0.40131679 -0.81630534 -0.41544011 0.002046424
-0.034631513 0.011029659 -0.0055952612 -0.38648808 -0.81366366 -0.43425617 0.00080035802
-0.031539466 0.0096850675 -0.0055250754 -0.35494953 -0.82368577 -0.44221324 0.00084056612
0.041100126 0.0092578642 -0.0048082983 0.41733965 -0.8710773 -0.25894386 0.0019173224
0.043513816 0.010314134 -0.004558987 0.41325423 -0.85610217 -0.31033874 0.0012304427
0.04601448 0.011539789 -0.004496255 0.43582368 -0.85291028 -0.28740537 0.0018744564
-0.042175487 0.014789615 -0.005312426 -0.46967551 -0.7543869 -0.45859063 0.00051380193
-0.040075347 0.013754794 -0.0054729963 -0.42791095 -0.77908939 -0.4581615 0.00069268153
-0.037695602 0.012550095 -0.0055598319 -0.4090983 -0.78718275 -0.46149957 0.00026533098
0.047482532 0.012523058 -0.0048978552 0.47488439 -0.83781916 -0.26933968 0.0013777775
0.049489066 0.013563984 -0.0045593344 0.49671215 -0.81528884 -0.29762581 0.0016930607
0.051524367 0.014614326 -0.004159763 0.5070594 -0.81174761 -0.28975263 0.0017882674
-0.045966566 0.017250583 -0.0050025648 -0.51913559 -0.74057025 -0.42667797 0.00028986245
-0.043665428 0.015882008 -0.0053396579 -0.49036917 -0.74981606 -0.44420046 0.00036898517
0.052896664 0.015784869 -0.0047360784 0.54416645 -0.79719162 -0.26147369 0.0013006948
0.054931086 0.017053129 -0.0043122247 0.57516682 -0.76857406 -0.28013769 0.0018655889
-0.050045714 0.020261666 -0.0050757146 -0.53684568 -0.71764112 -0.4436079 0.00033478928
-0.047291726 0.018468924 -0.0055724401 -0.51367426 -0.72577834 -0.4575856 0.00052184751
0.056342561 0.018292798 -0.004933544 0.58923471 -0.75748688 -0.2810981 0.0016437222
0.058361892 0.01974728 -0.0045165797 0.60302645 -0.73440969 -0.31145087 0.0027331277
0.060109992 0.020819332 -0.0035621137 0.6368404 -0.70232481 -0.31807885 0.0023848526
-0.054271199 0.023643512 -0.0054573817 -0.5589658 -0.69528604 -0.45181251 0.00038868113
-0.05325298 0.022655021 -0.0051201652 -0.55096614 -0.70229912 -0.45079076 0.00036826197
-0.050617699 0.021106783 -0.0059211217 -0.53792673 -0.70963955 -0.45502371 0.0004159997
0.059779841 0.021301866 -0.005063084 0.62384641 -0.7090168 -0.3288022 0.0019772586
0.061532974 0.022531826 -0.0042913924 0.67474318 -0.68223357 -0.28156552 0.0009541664
-0.057833519 0.026220473 -0.0045628063 -0.61179805 -0.66830248 -0.42317265 0.00036233896
-0.055600889 0.024752207 -0.0054179505 -0.56777233 -0.67813498 -0.46665561 0.00060196442
0.062726989 0.024215184 -0.0053392169 0.69782263 -0.63441211 -0.33251289 0.0016464458
0.064649805 0.026124539 -0.0045486023 0.72700614 -0.54880381 -0.41264573 0.0014262687
-0.060603727 0.029011613 -0.0048181168 -0.67065847 -0.626261 -0.39751035 0.0011892307
-0.059607726 0.028170265 -0.0051478166 -0.62870836 -0.62549579 -0.46203989 0.00057207095
0.065313399 0.02767545 -0.0055874735 0.72899973 -0.52054411 -0.44451457 0.0020249411
0.066631153 0.028929407 -0.0047327857 0.76117349 -0.49065197 -0.42411736 0.0018089588
-0.06331642 0.032002073 -0.004860878 -0.68909264 -0.55937403 -0.46070826 0.0010336452
-0.061893173 0.030888854 -0.005589962 -0.67435223 -0.57308447 -0.4656429 0.001171391
-0.0094073564 0.032992724 -0.0059827995 0.20120321 0.87914997 -0.43198678 0.00051146245
-0.0073045664 0.032859627 -0.005468538 0.16966259 0.91208792 -0.37324288 0.0020003235
-0.004391815 0.032621857 -0.0049669943 0.14457445 0.92352086 -0.35525686 0.0022117731
-0.001503325 0.032401193 -0.0046143867 0.10999153 0.93734235 -0.33059195 0.0024071475
0.0014769867 0.032202642 -0.0045411587 0.064935267 0.9434557 -0.32507652 0.0024519626
0.0044690692 0.032128479 -0.0044853487 0.021399235 0.94451535 -0.32776937 0.0027327163
0.0075014462 0.032102678 -0.0046061119 -0.047467321 0.94821686 -0.31405669 0.0026040815
0.010497001 0.032257851 -0.0047217719 -0.098583616 0.93965465 -0.32761323 0.003186716
0.013324208 0.0325404 -0.0047653322 -0.14081542 0.93258119 -0.33236033 0.0025464054
0.016238807 0.03283143 -0.0053492226 -0.19573417 0.92243904 -0.33285785 0.0027469166
0.067754984 0.031109525 -0.0051702983 0.78404921 -0.40303263 -0.47205034 0.0020932157
0.069201238 0.032497719 -0.0035989084 0.83893436 -0.41556922 -0.35141331 0.0021382933
-0.066663183 0.035596769 -0.0036225237 -0.75396436 -0.492062 -0.43521583 0.0011159753
-0.064647779 0.034062605 -0.005263004 -0.69923675 -0.51069123 -0.50026238 0.0015735386
-0.018673405 0.03580841 -0.0054551517 0.30911514 0.89219499 -0.32929599 0.0030328764
-0.0163833 0.035413321 -0.0048109773 0.28043592 0.90415674 -0.3222675 0.0023589216
-0.013493598 0.034656875 -0.0045647682 0.25693315 0.90989548 -0.32569245 0.0025312395
-0.010558401 0.033848003 -0.0046447865 0.20097648 0.92569005 -0.32047844 0.0027887914
-0.0076640821 0.033474036 -0.0041141887 0.15542239 0.94201988 -0.29739264 0.0030374986
-0.0050408123 0.033269916 -0.0035035007 0.13803442 0.95193815 -0.27342349 0.0020969613
0.014188321 0.033116482 -0.0035843714 -0.14704838 0.95498854 -0.25763097 0.0020573041
0.016725639 0.033403818 -0.0040675602 -0.19157241 0.93603992 -0.29517654 0.0026278661
0.019506378 0.033870433 -0.0046495218 -0.23140886 0.91688025 -0.32523915 0.0026368564
0.022475163 0.034741439 -0.004564669 -0.27084887 0.9108566 -0.31141791 0.0015178894
0.025213862 0.03544873 -0.0047674822 -0.28992334 0.89951682 -0.32682407 0.0016149009
0.027430413 0.035808638 -0.0055698287 -0.29633069 0.89001107 -0.34650883 0.0019694341
0.06865894 0.033410147 -0.0055803014 0.81787813 -0.3301076 -0.47127941 0.0024309815
0.069609791 0.03489681 -0.0049333037 0.83300424 -0.29138464 -0.47031787 0.0025024097
-0.066730976 0.036839701 -0.0050854022 -0.72753841 -0.45922884 -0.5097025 0.0019238655
-0.027109541 0.038969979 -0.0057420991 0.38464102 0.85317916 -0.35233021 0.0033622552
-0.025146045 0.038545173 -0.0049162689 0.37401208 0.87526339 -0.30664131 0.0022757486
-0.022481618 0.03757659 -0.0045822379 0.35266697 0.88581818 -0.30158275 0.0022118588
-0.019701788 0.036552209 -0.0044746078 0.3045342 0.90488756 -0.29738441 0.0028186748
-0.017619343 0.03624906 -0.003553659 0.28340745 0.9177022 -0.27839324 0.0019428949
0.026480177 0.036164228 -0.0037911031 -0.28094712 0.90902674 -0.30779725 0.0015022644
0.028586617 0.036593359 -0.00450789 -0.298471 0.89884359 -0.32092863 0.0017322591
0.031514969 0.037602186 -0.004595852 -0.33940887 0.87715203 -0.33971441 0.0018306132
0.034063842 0.038550228 -0.0049964413 -0.38749444 0.85574329 -0.34285766 0.0022069388
0.0705465 0.037577525 -0.0048558847 0.84992433 -0.21943212 -0.47903883 0.0022891948
-0.069559678 0.040938012 -0.0042759525 -0.80749065 -0.38763013 -0.44463667 0.0029425905
-0.068566106 0.040587671 -0.0056424737 -0.75370598 -0.35252646 -0.55466419 0.0028700302
-0.033099808 0.04188377 -0.0055927248 0.4170309 0.84540272 -0.33373567 0.0033324149
-0.031241871 0.041338157 -0.0047370507 0.4248805 0.85483563 -0.29788008 0.0022689283
-0.028534686 0.040094163 -0.0046043182 0.37774426 0.87497681 -0.30286115 0.0024299726
-0.026253298 0.039338272 -0.0040889606 0.36090639 0.88538468 -0.29298577 0.002202322
0.035228368 0.039417136 -0.0041168816 -0.40447596 0.854689 -0.32543182 0.0015887264
0.037459478 0.040388361 -0.0045767492 -0.45881999 0.8197484 -0.34277803 0.0021907378
0.039608303 0.041546829 -0.0048670564 -0.50305784 0.8039254 -0.31723309 0.0013909052
0.071204364 0.040458396 -0.0048223198 0.86481535 -0.14889516 -0.47950453 0.0017793638
0.072090149 0.041612558 -0.003132696 0.95679575 -0.13623591 -0.25686893 0.0037045549
-0.070076078 0.043540005 -0.0050832182 -0.74556714 -0.24038194 -0.62156755 0.0024386055
-0.039122798 0.044934612 -0.0058067297 0.447299 0.80518776 -0.38935363 0.0032646519
-0.037256233 0.044379782 -0.0047378317 0.45032227 0.84027791 -0.30189893 0.0020757364
-0.034544628 0.043066215 -0.0045590573 0.42881304 0.85222083 -0.29973167 0.0024660041
-0.032514125 0.042340886 -0.0038767792 0.42164066 0.86012787 -0.28705269 0.0030225113
0.041040175 0.042601645 -0.0043815323 -0.48935384 0.80868703 -0.32643232 0.0017578284
0.043451782 0.044036042 -0.0046238918 -0.5016374 0.79499269 -0.3410961 0.0017732824
0.045411862 0.044824809 -0.005683423 -0.47431642 0.7930513 -0.38222191 0.0041688946
0.07130488 0.043242779 -0.0052320156 0.84679902 -0.048869986 -0.52966321 0.0025291548
0.072173089 0.043920536 -0.0036800429 0.89039159 -0.043924853 -0.45307112 0.0025398412
-0.072223186 0.047042847 -0.0035077047 -0.79825848 -0.25041163 -0.54779321 0.0052907346
-0.070985936 0.04670918 -0.0052028713 -0.68455869 -0.11134736 -0.72040343 0.0022632179
-0.043039005 0.047460575 -0.004875286 0.44522512 0.82645416 -0.34459865 0.0028673464
-0.040516391 0.046233188 -0.0045034667 0.46376711 0.82889038 -0.31282723 0.0026650073
-0.038423743 0.045397684 -0.0037172737 0.46380639 0.84637004 -0.2618039 0.0031869283
0.044740748 0.045240629 -0.0036791272 -0.50877923 0.79242027 -0.33647248 0.0013822308
0.046663482 0.046137687 -0.0045172698 -0.50940436 0.77538329 -0.37321296 0.0022117859
0.049015522 0.047396049 -0.0050437781 -0.48470125 0.77712452 -0.40142515 0.0024759092
0.071540445 0.046578925 -0.0048860628 0.82632148 0.030012993 -0.56239849 0.00256679
0.072251163 0.046699949 -0.0035133515 0.93705904 -0.0037884174 -0.34915027 0.0031811674
-0.072542921 0.050064836 -0.0041638315 -0.71680492 -0.16376014 -0.67777085 0.0030525788
-0.07131619 0.04962771 -0.0054868218 -0.65361327 -0.062525794 -0.75424147 0.003851681
-0.048856348 0.050502777 -0.0050628702 0.4350017 0.81953615 -0.3730067 0.0033887133
-0.046478692 0.049463481 -0.0045715864 0.43192309 0.82505018 -0.3643277 0.0029704098
-0.044168014 0.048430383 -0.0040197396 0.43666956 0.83706027 -0.32962066 0.0026871627
0.050161224 0.048540052 -0.0042026551 -0.48521018 0.7809568 -0.39329067 0.0022918023
0.052433316 0.049736556 -0.0046887281 -0.49078375 0.77394676 -0.40017202 0.0022387393
0.054573376 0.050613094 -0.0054557719 -0.47739872 0.75332749 -0.45231429 0.0039046134
0.07124535 0.049595211 -0.0051177875 0.78973401 0.067141637 -0.6097641 0.0042896275
0.072311714 0.049422279 -0.003396363 0.91764951 0.014740216 -0.39711729 0.0046786023
-0.07298059 0.052620802 -0.0044324766 -0.62568063 -0.050670203 -0.77843195 0.0053199776
-0.071499825 0.05257969 -0.0056117601 -0.56272823 0.016938156 -0.82646841 0.0077519137
-0.057496697 0.053781006 -0.0057046972 0.24028392 0.77951515 -0.57846332 0.0032199568
-0.055213589 0.053419787 -0.0049535595 0.30248359 0.84189993 -0.4468872 0.0043025739
-0.052484501 0.052532863 -0.0045797941 0.3769238 0.82885778 -0.41342863 0.0030567683
-0.049977493 0.051463664 -0.0041962587 0.42469999 0.83021188 -0.36107904 0.002993077
0.053718731 0.051161006 -0.0034402958 -0.49287948 0.78451097 -0.37631422 0.0020898338
0.055715531 0.05190067 -0.0044099609 -0.46155816 0.77186018 -0.43725955 0.0034783373
0.05825505 0.053082526 -0.0049340208 -0.42076039 0.73935586 -0.52565539 0.0058650505
0.060298707 0.05373764 -0.0057028136 -0.42000285 0.67753756 -0.60377181 0.0069620796
0.070980906 0.05260196 -0.0050974772 0.73249346 0.078738235 -0.67620534 0.0046521756
0.072360307 0.052720387 -0.0033438373 0.79291594 0.03423208 -0.60836864 0.0046723406
-0.073460907 0.055597872 -0.0044207308 -0.60141766 0.15653183 -0.78345048 0.019265914
-0.070828594 0.055914611 -0.0056663123 -0.34344628 0.18315271 -0.92114043 0.012945034
-0.067534626 0.056722566 -0.0057858727 0.039338134 0.55910504 -0.82816309 0.0079722889
-0.064239256 0.056340337 -0.0054180347 0.21646334 0.66902608 -0.71101886 0.0059200129
-0.061483648 0.055861611 -0.0046347436 0.32285619 0.76836884 -0.55260581 0.0082289046
-0.058654323 0.054874603 -0.0044789142 0.2802361 0.82906371 -0.48386058 0.0037005423
-0.056157265 0.054325435 -0.0038156768 0.33057928 0.85969537 -0.38941157 0.0026276149
0.059304614 0.05450039 -0.003890659 -0.4986648 0.71554947 -0.48920578 0.0044758883
0.061548773 0.055375513 -0.0046591535 -0.4167704 0.6768921 -0.60672843 0.0065432857
0.064211279 0.056315985 -0.0054223146 -0.29769999 0.57362598 -0.76310414 0.011118236
0.067599043 0.056763947 -0.0059009898 0.039592635 0.40682507 -0.91264772 0.017606061
0.070572369 0.055573191 -0.0050357427 0.55010957 0.12836356 -0.82516795 0.012684907
0.072287112 0.055335104 -0.0033229701 0.77095753 0.036245324 -0.63585442 0.0055524292
-0.07291542 0.057722494 -0.0042965864 -0.47421035 0.54535377 -0.69116843 0.02901447
-0.070409037 0.058493495 -0.0047073974 -0.19268577 0.60873508 -0.76961923 0.023665937
-0.067518018 0.058493856 -0.0045215986 0.14954674 0.67868662 -0.71904117 0.011307075
-0.06472256 0.05793215 -0.0040496155 0.32356191 0.72418469 -0.60898626 0.0078585371
-0.062571704 0.057378706 -0.0033134564 0.44203907 0.78392512 -0.43596208 0.013856622
0.062666558 0.05726257 -0.0034966383 -0.51028156 0.61524671 -0.60090286 0.011622836
0.064717323 0.058351394 -0.0042510019 -0.47228998 0.45997357 -0.7519086 0.015257823
0.067527585 0.058489516 -0.0052801394 -0.026143562 0.31512597 -0.94868964 0.020674447
0.070459813 0.058556717 -0.004628622 0.47648317 0.10746661 -0.87259072 0.018758761
0.072171234 0.058521867 -0.0033879124 0.71888638 0.039030444 -0.69403088 0.015022078
-0.069400869 0.060092345 -0.0032022134 -0.17867656 0.89545178 -0.40772629 0.022724668
-0.06820862 0.06007424 -0.0033567632 0.12891826 0.79878724 -0.58763856 0.028720755
0.065581605 0.060944494 -0.0034742176 -0.63779318 0.3058126 -0.70689362 0.01652975
0.067452446 0.061507422 -0.0042850929 -0.30634418 0.27043366 -0.91269863 0.024262482
0.070457965 0.061553061 -0.0043300749 0.30688483 0.083784662 -0.94805169 0.02577427
0.072378904 0.061531741 -0.0033120036 0.63256973 -0.0076813749 -0.77446526 0.018753169
0.067747675 0.064458281 -0.0037381717 -0.43236995 0.13940109 -0.89085549 0.022509664
0.070450217 0.064520121 -0.0041251299 0.1853011 0.024152664 -0.98238492 0.023387576
0.072498627 0.064653791 -0.0033608701 0.45502621 -0.050608572 -0.88903874 0.024861822
0.068062074 0.067428432 -0.003515888 -0.50650448 0.086395413 -0.85789806 0.0158186
0.070425026 0.067504473 -0.0041688494 -0.12323803 0.00082323555 -0.9923768 0.02273584
0.07283707 0.067582168 -0.0035796922 0.47823665 -0.10377762 -0.87207794 0.013619999
0.068527319 0.070379116 -0.0034340043 -0.56929314 0.079414226 -0.81829017 0.024218574
0.070543595 0.070454694 -0.0042181383 -0.16907403 -0.041001134 -0.98475015 0.031067515
0.07327453 0.070566483 -0.0038529572 0.36553696 -0.19541785 -0.91005194 0.01888592
0.068708532 0.073386811 -0.0033735239 -0.65263611 0.10733534 -0.7500301 0.018780125
0.070583694 0.073465914 -0.0044380752 -0.31437102 0.023513492 -0.94900888 0.022355979
0.073455006 0.073486499 -0.0045281663 0.35250983 -0.011989472 -0.93573129 0.046407878
0.07548479 0.073985718 -0.0036185451 0.70843518 -0.0529611 -0.70378596 0.074452125
0.068836108 0.075823992 -0.003243583 -0.5160979 0.4354651 -0.73757249 0.056214899
0.070508756 0.075919688 -0.0042414605 -0.23301357 0.42541134 -0.87448835 0.077879436
0.073315002 0.075516768 -0.0044899764 0.20703456 0.57818717 -0.78919983 0.059285492
0.075372398 0.07516586 -0.0033108983 0.76038873 0.52151549 -0.38707966 0.096444026
-0.014595803 0.0026903786 -0.0025684074 -0.22718123 -0.89868844 -0.37516379 0.00091615412
-0.010559659 0.0018089478 -0.002731059 -0.1698475 -0.91634536 -0.36257833 0.0011458562
-0.0076847449 0.0013822763 -0.0026850798 -0.132992 -0.91815132 -0.37324432 0.00075196684
-0.004461498 0.00097998406 -0.0028876341 -0.069589019 -0.9466235 -0.31474009 0.0013862706
-0.00054875313 0.00046738976 -0.00091998611 -0.048598219 -0.94345838 -0.32790926 0.0014760847
0.0014660903 0.00062260119 -0.0027651035 -0.034129173 -0.94274867 -0.33175325 0.0013462441
0.010726519 0.00083539629 -0.0028126994 0.098776825 -0.93522626 -0.33999282 0.0023833327
0.012448467 0.0007807475 -0.0012343558 0.10239124 -0.95242769 -0.28704965 0.00082262798
0.016442416 0.0013796813 -0.001752459 0.1261556 -0.95620567 -0.26411268 0.00051336415
0.020011431 0.0019418234 -0.0018630186 0.18505372 -0.95947075 -0.21253496 0.00054076075
0.022494853 0.0024669934 -0.0017847242 0.21696962 -0.95152462 -0.21800253 0.00058410777
0.02518741 0.0029478148 -0.0008567039 0.24238321 -0.95117706 -0.19108273 0.00039547338
-0.016882345 0.0033905283 -0.002816184 -0.25050277 -0.89095879 -0.37873587 0.00080854178
0.025471369 0.0032011766 -0.0024774622 0.22922547 -0.93851924 -0.25814241 0.0013944322
0.028106805 0.0037972238 -0.0014077186 0.25882861 -0.94223738 -0.2125946 0.00045042098
0.031337827 0.0047624973 -0.0014387137 0.29071519 -0.93276209 -0.21316588 0.00061665813
0.03400141 0.0056321179 -0.0012770116 0.32226992 -0.92069596 -0.22013886 0.00088601309
-0.025800716 0.00640627 -0.0026581497 -0.33031315 -0.89501905 -0.29972345 0.0022293397
0.035257507 0.0062095448 -0.0021719313 0.33893552 -0.91870123 -0.20275789 0.00039945281
0.03751833 0.0070043653 -0.00155254 0.37181315 -0.9132933 -0.16628416 0.00024397162
0.04047659 0.0082243644 -0.0014489075 0.39297944 -0.90141821 -0.18169317 0.00035113355
0.042147264 0.0089236237 -0.00070924434 0.42079145 -0.89009434 -0.17511886 0.0004082403
-0.035140593 0.010206046 -0.0024652358 -0.40241212 -0.87131149 -0.28085732 0.00041225561
0.04180504 0.0090117771 -0.0028775677 0.39721605 -0.8861655 -0.23860039 0.0018687163
0.043679267 0.0097752735 -0.0018206821 0.43604922 -0.87724036 -0.20077464 0.00049101165
0.046612401 0.011219851 -0.0014339122 0.46011773 -0.8668502 -0.19199589 0.00038630134
0.049532428 0.012907357 -0.001601391 0.50534111 -0.84343934 -0.18232001 0.00032131522
0.05190796 0.014288277 -0.0013920142 0.52653068 -0.82869297 -0.189825 0.0005213159
0.053495135 0.015410902 -0.0017242157 0.55601639 -0.81605166 -0.15781491 0.00038551519
0.055429745 0.016705025 -0.0013495055 0.56674957 -0.80567622 -0.17228097 0.00036766662
0.05733633 0.017976744 -0.00095729809 0.60001439 -0.78388047 -0.15973158 0.0010203284
0.058748875 0.01922369 -0.0017027165 0.61479199 -0.76927757 -0.1739047 0.001851134
0.060438085 0.020598892 -0.0014582019 0.64734757 -0.74310499 -0.16951743 0.0019485067
0.061905432 0.021991115 -0.0014960448 0.70344901 -0.69974571 -0.12456121 0.0046445462
0.063359946 0.023448264 -0.0014930037 0.72343504 -0.6802395 -0.1179658 0.0035956269
0.064884603 0.025218904 -0.0016555282 0.76762676 -0.61330503 -0.18602754 0.0020100221
0.066259958 0.026784956 -0.00089337374 0.79734784 -0.57825309 -0.1728 0.0017047387
0.067476451 0.02865004 -0.001591577 0.80940795 -0.55769062 -0.18395658 0.0021654414
-0.063794613 0.031420808 -0.0024902732 -0.70940197 -0.57832599 -0.40284982 0.0010509171
-0.0006350521 0.032944847 -0.0023777341 0.098618276 0.98037583 -0.17069788 0.0017025899
0.0016109734 0.032882486 -0.0016438634 0.064040467 0.97563404 -0.20985031 0.0019496615
0.0044333041 0.032841254 -0.0012867469 0.018500967 0.97658795 -0.21432151 0.0015918883
0.0074245571 0.032837853 -0.0013653715 -0.045288783 0.97883934 -0.19955567 0.0025626912
0.010391501 0.032898232 -0.0022803077 -0.094550326 0.97336853 -0.20883957 0.0017475247
0.012194833 0.032957569 -0.002746613 -0.11210994 0.98294634 -0.14576666 0.0022752227
0.068664528 0.030636976 -0.001837026 0.85554057 -0.49956378 -0.1359646 0.0033213617
0.069505543 0.031993791 -0.001298869 0.88948959 -0.43328384 -0.14516674 0.003440042
-0.015601319 0.035884589 -0.0021506771 0.28734612 0.94590968 -0.15062246 0.0023404649
-0.013512873 0.035352115 -0.0015755967 0.26929742 0.95269662 -0.14088301 0.00168329
-0.010537113 0.034580991 -0.001441751 0.21728943 0.96203297 -0.16515991 0.0025522958
-0.0074397437 0.033964071 -0.0014453428 0.16110311 0.97059119 -0.17888144 0.0016859518
-0.0043748505 0.033474024 -0.0016164785 0.12975621 0.97827166 -0.16170307 0.0016678275
-0.002069853 0.033285677 -0.00088476605 0.097670719 0.98298657 -0.15555678 0.0015549826
0.00081825536 0.033060126 -0.00072066195 0.038682491 0.99557626 -0.085624255 0.0016313009
0.0051745176 0.033023421 -9.9116856e-05 0.0056876638 0.99933481 0.036021955 0.0030191019
0.0082825273 0.033017673 -0.00034753972 -0.03909089 0.99880999 -0.029163525 0.00091711694
0.010900938 0.033122234 -0.00082710793 -0.075263962 0.9961437 -0.045091063 0.0015601241
0.013680496 0.033358425 -0.0015758122 -0.14352052 0.9713015 -0.18967149 0.0023292534
0.016440934 0.033853341 -0.0014397044 -0.18615717 0.96370697 -0.19134888 0.0022830635
0.019251855 0.034477457 -0.001613404 -0.23653509 0.95739615 -0.16566168 0.0023379317
0.022489078 0.035374977 -0.0015071835 -0.26630515 0.95804006 -0.10602281 0.0017944614
0.024420349 0.035877015 -0.0019217953 -0.30958891 0.94446683 -0.11016838 0.001815325
0.070525251 0.034660928 -0.0021672351 0.9084332 -0.33674178 -0.24769749 0.00242352
-0.069228597 0.038662001 -0.0019909893 -0.81484216 -0.43082741 -0.38784015 0.0015000494
-0.068159714 0.037329357 -0.0026244684 -0.77376121 -0.45467582 -0.44109365 0.0017967972
-0.024228731 0.038930766 -0.0019880999 0.38337377 0.91383439 -0.13390753 0.0020440747
-0.022514729 0.038294062 -0.0014549326 0.37234607 0.91703314 -0.14285894 0.0015565167
-0.019560853 0.037145838 -0.0015169486 0.31296006 0.93865854 -0.1448313 0.0021116294
-0.016939579 0.036382928 -0.0013845653 0.27911571 0.95281094 -0.11935537 0.0026051474
0.025867499 0.036356539 -0.0014626589 -0.28539786 0.95073676 -0.12102734 0.0024200166
0.02853433 0.037229314 -0.0014103395 -0.2999275 0.94715565 -0.11375283 0.0011753535
0.031540211 0.038278297 -0.0015721442 -0.36530828 0.92375648 -0.11499546 0.002672235
0.033118248 0.038860466 -0.0022445871 -0.40140668 0.90772855 -0.12207162 0.0032080519
0.071509853 0.037475988 -0.0019615106 0.93084598 -0.28820276 -0.2246439 0.0022928223
0.072106034 0.038675591 -0.00060342869 0.9536792 -0.23363401 -0.18950212 0.0034579623
-0.070289403 0.040772416 -0.0023825786 -0.80749315 -0.38760629 -0.44465294 0.0029562481
-0.030612754 0.041763812 -0.0018458044 0.4570359 0.87818211 -0.14111829 0.0015515812
-0.028583096 0.040830109 -0.0014674404 0.41459203 0.89957398 -0.13740499 0.0015344978
-0.025753893 0.039636496 -0.001452439 0.37249637 0.91858697 -0.13207732 0.0019998348
-0.023940792 0.039101593 -8.4539417e-05 0.37990624 0.91738921 -0.11860996 0.00083290262
0.032968499 0.039092723 -2.3347806e-05 -0.36541238 0.93051672 -0.024748113 0.0029687861
0.0346376 0.039679818 -0.0014250851 -0.42897761 0.89609802 -0.11395863 0.0026949164
0.037437927 0.041107647 -0.0015882517 -0.48960274 0.86140478 -0.13517013 0.0021450615
0.071875513 0.039342616 -0.0027088835 0.95062321 -0.20354028 -0.23427953 0.0034680732
0.072312154 0.040690381 -0.0017310545 0.96288496 -0.14901458 -0.22504932 0.0031818375
-0.071400061 0.043084629 -0.001805828 -0.84189522 -0.34257194 -0.41696161 0.0015194076
-0.036528382 0.044729933 -0.0021712056 0.46300191 0.87394363 -0.14782384 0.0021552241
-0.034572009 0.043838453 -0.0014342772 0.45308927 0.88281065 -0.12391765 0.0014730423
-0.031983588 0.042534303 -0.0013439577 0.42907926 0.89178705 -0.14355044 0.0016992432
0.038748778 0.042015418 -0.00073039078 -0.51104629 0.85184205 -0.11487748 0.0031029759
0.040467709 0.042969514 -0.0014904819 -0.51021618 0.85140455 -0.12161323 0.0024491991
0.043121684 0.044620395 -0.0020045259 -0.53898484 0.81689203 -0.20538424 0.0015962683
0.072688475 0.043590516 -0.0017142107 0.97335362 -0.050584294 -0.22366033 0.0037116292
-0.072735295 0.046764661 -0.0020978542 -0.81284499 -0.28335592 -0.50891304 0.0021885217
-0.042166267 0.047771677 -0.0025677513 0.48479721 0.85812068 -0.16911702 0.002845112
-0.040540628 0.047032252 -0.0014810689 0.47547397 0.86674184 -0.15060891 0.0014654814
-0.037908912 0.045571115 -0.0013854784 0.46610141 0.8743695 -0.13500944 0.0017382827
0.044327535 0.045482688 -0.0014404496 -0.54508978 0.82642561 -0.1410595 0.0038880417
0.046485864 0.046908978 -0.0015436353 -0.54928911 0.82291019 -0.14525962 0.0034766789
0.048114352 0.047820374 -0.0026217084 -0.54794091 0.82327956 -0.14822766 0.0031891472
0.072787091 0.046423666 -0.0018159706 0.97114372 -0.046669576 -0.23388429 0.0045112856
-0.073674582 0.049684208 -0.0022432476 -0.75238895 -0.24450783 -0.61165911 0.0029177987
-0.046259154 0.05022572 -0.0016402405 0.47882566 0.8602249 -0.17532557 0.0020949952
-0.043561459 0.048731621 -0.0014922367 0.47777411 0.86637729 -0.14533521 0.0021743912
0.047963575 0.048048291 -0.000488016 -0.53893811 0.83550471 -0.10713421 0.0037084431
0.049702834 0.048993181 -0.0019549287 -0.51268923 0.81879818 -0.25830099 0.0024100158
0.051673528 0.050254494 -0.0021268884 -0.54055029 0.80832994 -0.2332554 0.0020817062
0.072881721 0.050056826 -0.0020252352 0.89965713 0.0036985902 -0.43658146 0.0050796778
-0.075459644 0.05342631 -0.0016403411 -0.86122125 0.028740175 -0.50741696 0.038885463
-0.074461341 0.052023478 -0.0025201458 -0.69133574 -0.11961468 -0.71256387 0.0038970103
-0.052283134 0.053415567 -0.0017925031 0.41302446 0.88826895 -0.20096995 0.0023701636
-0.04953745 0.052015577 -0.0016647815 0.44548479 0.87255257 -0.20048769 0.0017864484
-0.047755897 0.051162541 -0.00089259312 0.4601033 0.86872703 -0.18335269 0.0019070922
0.053219512 0.051416855 -0.0016223924 -0.5155347 0.81812239 -0.25475433 0.0029906782
0.05539738 0.052768137 -0.001828024 -0.52189147 0.80604595 -0.27914032 0.0040787198
0.057307869 0.053818408 -0.002510919 -0.5223217 0.79478127 -0.30903521 0.0046244604
0.072905488 0.05213818 -0.0020447474 0.87063187 0.013203934 -0.49175775 0.0053663361
-0.075423598 0.055576388 -0.002244008 -0.71739525 0.24076904 -0.65373868 0.038299538
-0.074881136 0.054101441 -0.0029932759 -0.72955048 0.10466282 -0.67587113 0.022669766
-0.060495052 0.056794319 -0.0019688604 0.47199449 0.84055096 -0.26588583 0.0072516087
-0.058528338 0.055957962 -0.0017076483 0.39617577 0.88619733 -0.24020611 0.0065830313
-0.055465758 0.054744512 -0.0015428771 0.34368211 0.91119897 -0.22715439 0.0031551281
-0.053567588 0.054099292 -0.00080374232 0.38401073 0.90203542 -0.19714931 0.0030319027
0.05696455 0.054055754 -0.0004480434 -0.54592258 0.83485711 -0.070585042 0.0057720034
0.058712423 0.05507715 -0.00171825 -0.52981234 0.78345382 -0.32480606 0.0044161296
0.060835097 0.056433182 -0.0022288219 -0.62167358 0.6976043 -0.35618839 0.0082030343
0.073019296 0.055569582 -0.0017971143 0.89068079 0.022635715 -0.45406538 0.011886329
-0.075305969 0.057309903 -0.0012895315 -0.63913172 0.71441132 -0.28482801 0.040392019
-0.073574089 0.058336169 -0.0015890934 -0.52000898 0.81182623 -0.26557261 0.024778973
-0.071126848 0.059578601 -0.001616122 -0.40296522 0.90279913 -0.15024243 0.0080451919
-0.06642168 0.059708774 -0.002844397 0.31093496 0.83383775 -0.45610753 0.016867364
-0.064346798 0.059177291 -0.0018488107 0.45801738 0.81787294 -0.34828705 0.0069534215
-0.061908457 0.057788879 -0.0014881935 0.47895026 0.82905281 -0.28857923 0.0083304653
0.062154289 0.0578564 -0.0018797222 -0.65612406 0.6219753 -0.42737335 0.012603431
0.063510515 0.059252348 -0.0022617038 -0.68315852 0.55112278 -0.47912222 0.011515118
0.073037542 0.058690008 -0.002086757 0.79714215 -0.016495647 -0.60356641 0.013207088
-0.069642588 0.060272783 -0.0016652714 -0.22613598 0.94971365 -0.2165793 0.023722768
-0.067279615 0.060578912 -0.0017438596 0.17246963 0.91163766 -0.37305623 0.025395185
-0.065586008 0.06020977 -0.0010540624 0.35473442 0.89144433 -0.28194076 0.021051772
0.064625233 0.061477628 -0.0019412752 -0.71718472 0.35526097 -0.5995295 0.013303618
0.073372282 0.061555345 -0.0020106614 0.73150861 -0.062619351 -0.67895067 0.013290311
0.065467067 0.064328492 -0.0016559373 -0.72494453 0.23434614 -0.64771706 0.014676855
0.06632752 0.064784877 -0.0026920035 -0.68622905 0.22797965 -0.69073522 0.01480968
0.073670156 0.064516626 -0.0020990625 0.7165854 -0.12238149 -0.68667901 0.0088387635
0.065718144 0.066626675 -0.00099880551 -0.79511321 0.19635823 -0.57379293 0.0089148683
0.066688836 0.0676037 -0.002225616 -0.73019117 0.16001916 -0.66423988 0.013029872
0.074342869 0.067389704 -0.0021615098 0.64326942 -0.17637727 -0.74504739 0.012555956
0.075215667 0.068226174 -0.0009346552 0.74633509 -0.2100735 -0.63154817 0.015810471
0.067228474 0.070424691 -0.0020175129 -0.74872762 0.12206852 -0.65154141 0.010984487
0.074591614 0.069893621 -0.0027030613 0.5336898 -0.24240682 -0.81019378 0.022166917
0.075494766 0.07072369 -0.0019268267 0.76361394 -0.22521015 -0.60512322 0.015139821
0.067664534 0.073510587 -0.001993695 -0.74479473 0.1549899 -0.64904475 0.020260006
0.07647606 0.07359466 -0.0019972257 0.87177724 0.10057949 -0.47946659 0.061007235
