# .PCD v0.7 - Point Cloud Data file format
VERSION 0.7
FIELDS x y z normal_x normal_y normal_z curvature
SIZE 4 4 4 4 4 4 4
TYPE F F F F F F F
COUNT 1 1 1 1 1 1 1
WIDTH 560
HEIGHT 1
VIEWPOINT 0 0 0 1 0 0 0
POINTS 560
DATA ascii
0.007696487 0.0082403226 -0.013623989 -0.018399576 -0.53473788 -0.84481764 0.0010039482
0.010643916 0.007117107 -0.01273571 0.027264683 -0.61501819 -0.78804147 0.0017668245
0.013911095 0.0078825327 -0.013187654 0.043912049 -0.61289591 -0.78894264 0.0014590959
0.017379232 0.0079213474 -0.012972538 0.084308282 -0.66862106 -0.73880851 0.0014853987
0.019837342 0.0082361158 -0.012963112 0.092375264 -0.64224261 -0.7609148 0.0022354492
0.022754407 0.0085523706 -0.012808274 0.12923053 -0.64825606 -0.75037563 0.0014094895
0.025523864 0.0087788049 -0.012476305 0.16821273 -0.67048955 -0.72259831 0.00094421965
-0.010535169 0.010625336 -0.014089121 -0.05861691 -0.32934046 -0.94239002 0.0010562771
-0.0083951261 0.011357721 -0.01466804 -0.041873582 -0.30511913 -0.95139319 0.0017014561
-0.0046393438 0.010513592 -0.014479061 -0.035568383 -0.47257304 -0.88057345 0.0016718666
-0.001222754 0.0094758468 -0.014113143 -0.070128851 -0.48200127 -0.8733595 0.0024282555
0.0015275989 0.010180909 -0.014624853 -0.031544287 -0.42874092 -0.90287662 0.002426615
0.0051166965 0.0099617373 -0.014630165 -0.029236382 -0.44753134 -0.89379025 0.0019235821
0.0081106378 0.0096170828 -0.014481844 -0.008961306 -0.46371096 -0.88594127 0.0029283948
0.011008011 0.0097660292 -0.014562822 0.0089814281 -0.47846672 -0.87805974 0.00242796
0.013652614 0.0098621007 -0.014581125 0.024027817 -0.50121135 -0.86499131 0.0024237079
0.016236089 0.0098937033 -0.01449232 0.053430606 -0.5132069 -0.85660017 0.0020285328
0.019341324 0.010096419 -0.014418128 0.074080639 -0.53171468 -0.8436774 0.0016554586
0.022593293 0.010193068 -0.014135079 0.10905984 -0.58087188 -0.80665594 0.0021304574
0.025624353 0.010562485 -0.013946551 0.12564297 -0.56680918 -0.81421202 0.00068434415
0.028537218 0.010462971 -0.013269071 0.18772165 -0.63519919 -0.74918801 0.001988404
0.03141911 0.010990091 -0.012977749 0.22292013 -0.64427304 -0.73158652 0.0020412165
0.034113605 0.011545317 -0.012625511 0.24329977 -0.64693731 -0.72268766 0.0010979067
-0.016435256 0.012773689 -0.014544201 -0.055915572 -0.29079792 -0.95514923 0.0023131103
-0.011368245 0.012283917 -0.014880102 -0.060532682 -0.32438511 -0.9439863 0.0011901603
0.026980411 0.012105308 -0.014823897 0.1150369 -0.54653186 -0.82949948 0.0010132539
0.029108537 0.012409371 -0.01465983 0.15486935 -0.58161312 -0.79858732 0.0016226992
0.031734031 0.012870063 -0.014389015 0.1816446 -0.54472607 -0.81870556 0.0017472695
0.034699686 0.013516496 -0.01410357 0.20207258 -0.55915552 -0.80405962 0.00067606475
0.037343718 0.013488567 -0.013269894 0.25784025 -0.62286866 -0.73861569 0.0017883214
0.040133361 0.01419575 -0.012826133 0.3096875 -0.65611815 -0.6881879 0.0011202376
0.042438958 0.014912295 -0.012458237 0.3477686 -0.67105091 -0.65478832 0.0012170989
0.037899017 0.015426698 -0.014597634 0.22995248 -0.57425344 -0.78571939 0.0014157918
0.040714387 0.016186723 -0.014188319 0.28844684 -0.54026461 -0.79051411 0.0013429809
0.043440059 0.016601188 -0.013403988 0.32563505 -0.58373737 -0.74378258 0.0021904863
0.046192784 0.017301967 -0.012677503 0.38253975 -0.59508473 -0.70677966 0.0019418789
0.044175085 0.018722938 -0.014618072 0.28338301 -0.46911287 -0.83643717 0.0019130573
0.046662319 0.019324429 -0.013950176 0.35678837 -0.50262135 -0.78744769 0.0014385022
0.049264576 0.019768294 -0.012972372 0.40939474 -0.56125486 -0.71929759 0.0011668792
0.05138398 0.020310622 -0.012159756 0.46931028 -0.58986694 -0.65711862 0.0018925997
-0.0097902976 0.02387484 -0.014962912 0.10466329 0.36362806 -0.92564583 0.0022700422
-0.007554994 0.023624973 -0.014867418 0.09003301 0.43727881 -0.89480799 0.0015189287
-0.0044878782 0.023218241 -0.014803173 0.055774983 0.39943251 -0.91506439 0.0020564313
-0.0015098481 0.023350483 -0.014571542 0.043303762 0.4374823 -0.89818376 0.002093723
0.0014808616 0.023277856 -0.014523713 0.01008709 0.4515397 -0.89219397 0.0019784346
0.0043828087 0.023224255 -0.014562336 -0.01688846 0.46204141 -0.88669759 0.0018317163
0.0073208148 0.023343652 -0.01459853 -0.049412534 0.46057954 -0.88624197 0.0018995013
0.010331854 0.023417719 -0.014756327 -0.071973331 0.44636738 -0.89195067 0.0022790455
0.01345994 0.023657633 -0.014921905 -0.087979488 0.42553493 -0.90065509 0.0022727815
0.04745983 0.021265959 -0.014795281 0.3130503 -0.42293274 -0.85036898 0.0015306136
0.049769159 0.022215597 -0.014282121 0.36890242 -0.43122706 -0.82337976 0.0014644712
0.052478127 0.022153141 -0.012819747 0.47041997 -0.52560991 -0.70882952 0.0010657613
0.054579575 0.023233276 -0.012286226 0.48869452 -0.52911562 -0.69369614 0.0013131984
-0.01836187 0.026767902 -0.014957489 0.15910697 0.42802107 -0.88965327 0.0010659742
-0.016150992 0.026535973 -0.014656326 0.16370326 0.46750224 -0.86870188 0.002679741
-0.013456596 0.026109446 -0.014379408 0.1523629 0.45956206 -0.87497902 0.0020830347
-0.010527641 0.025684021 -0.014131911 0.1300046 0.48980281 -0.86208588 0.0012224988
-0.0075045442 0.025614474 -0.013765184 0.10200014 0.50189692 -0.85889202 0.0009974303
-0.0045301495 0.025471598 -0.013535016 0.080172367 0.5297181 -0.84437621 0.0022076289
-0.0016193478 0.025667787 -0.013168691 0.047331095 0.56438392 -0.8241545 0.0031797257
0.0014144818 0.02569817 -0.013012115 0.030412015 0.58555156 -0.81006449 0.002739466
0.0044815312 0.025523348 -0.013124366 -0.020045059 0.59386992 -0.80431139 0.0023129229
0.0073625576 0.025591251 -0.013155971 -0.051807109 0.58874768 -0.80665499 0.0027244245
0.010442737 0.025492642 -0.013445055 -0.077356011 0.56600595 -0.82076389 0.0018845401
0.013330947 0.025573999 -0.013711939 -0.10413977 0.55881572 -0.82272708 0.0020747378
0.016333202 0.025716238 -0.01404878 -0.12839952 0.53091359 -0.83764213 0.0012804014
0.019113854 0.026102381 -0.014293516 -0.16295294 0.53264886 -0.83050078 0.0022215897
0.022052657 0.026492082 -0.014657006 -0.15994848 0.50070167 -0.85071403 0.002098514
0.050960537 0.024059754 -0.014677624 0.39501837 -0.40622634 -0.82397854 0.0014140782
0.052801106 0.025199745 -0.014335827 0.39275637 -0.35579461 -0.84802866 0.0014629011
0.056089252 0.025928909 -0.012905101 0.47569218 -0.39955145 -0.78362978 0.0020514308
0.057877809 0.026613237 -0.012178446 0.52363998 -0.43135974 -0.73466319 0.0015248216
-0.024562171 0.029621694 -0.014697459 0.1878662 0.42197877 -0.88692743 0.0025498979
-0.022250295 0.029096335 -0.014471034 0.19737945 0.47412434 -0.85804868 0.0021765847
-0.01948976 0.028719302 -0.014038751 0.18995173 0.51852411 -0.83369726 0.0013450504
-0.016527753 0.028511385 -0.01348883 0.17916168 0.5340122 -0.826276 0.0010369921
-0.013608958 0.028252684 -0.013007142 0.17267343 0.59270525 -0.78669202 0.0020906769
-0.010631122 0.027859502 -0.012696247 0.1465923 0.62065971 -0.77025461 0.0015287168
-0.0075444635 0.027485816 -0.012473254 0.11624298 0.6419341 -0.7578972 0.001716766
-0.004450426 0.02724364 -0.012272697 0.093239017 0.64058524 -0.76220536 0.0024444882
-0.0018824867 0.027196925 -0.012058776 0.069298379 0.64312822 -0.76261652 0.003314256
0.0084987236 0.027058337 -0.012039982 -0.059826244 0.6687668 -0.74106133 0.0031497597
0.010138299 0.027207239 -0.012068069 -0.077489749 0.67704326 -0.73185229 0.0019354306
0.013577966 0.027362518 -0.01236756 -0.11115259 0.65218675 -0.749865 0.0014915168
0.016684573 0.027766192 -0.012561593 -0.14904809 0.66381276 -0.73289651 0.0013403952
0.01952257 0.028074345 -0.012920674 -0.17993359 0.62733752 -0.75767511 0.0021663471
0.022435114 0.028344985 -0.013408093 -0.17912772 0.60315675 -0.77724844 0.0020836014
0.025492528 0.028521935 -0.014020686 -0.1849844 0.55042338 -0.81413442 0.0011095325
0.028263249 0.029171165 -0.014268024 -0.21325016 0.54361296 -0.81179392 0.0022504264
0.030993743 0.02944061 -0.014761055 -0.19220711 0.51690847 -0.83418345 0.0023045968
0.053564895 0.027299857 -0.0147662 0.34615952 -0.2249791 -0.91080076 0.0029072498
0.055801518 0.028726228 -0.014183385 0.40940863 -0.24744776 -0.8781538 0.002660312
0.058325469 0.028709695 -0.012839451 0.50576067 -0.34011093 -0.79279923 0.0025230243
0.060089946 0.029795941 -0.012224086 0.55337846 -0.34328979 -0.75889683 0.001297259
-0.031038746 0.032438688 -0.01470744 0.21608512 0.43907467 -0.87207836 0.0025044854
-0.028315572 0.031886909 -0.014293641 0.22108665 0.49805793 -0.83848614 0.0014605105
-0.025696898 0.031848609 -0.013577797 0.23454048 0.57453543 -0.78415555 0.00086534536
-0.022943547 0.031553078 -0.01295846 0.24556635 0.63577402 -0.73177081 0.0010309306
-0.019977605 0.03111952 -0.012421479 0.22667789 0.67745125 -0.69976914 0.0013455177
-0.017138753 0.030382346 -0.012197746 0.20008689 0.66677421 -0.71789789 0.0014475319
0.023303995 0.030025806 -0.012217583 -0.20873685 0.6788134 -0.704018 0.0012212117
0.026103575 0.030690666 -0.012448498 -0.20953698 0.66728693 -0.7147184 0.0016310778
0.028873097 0.031022996 -0.012986526 -0.22211482 0.65231645 -0.72467119 0.0016145223
0.031332344 0.031401064 -0.013385469 -0.23338264 0.61159021 -0.75596958 0.0018486287
0.034211837 0.031708661 -0.014011713 -0.21993676 0.55660969 -0.80113256 0.00097923062
0.037275277 0.032320037 -0.01447514 -0.22645178 0.51084799 -0.82930928 0.0019466029
0.039220884 0.032458607 -0.014940254 -0.17733155 0.46520323 -0.8672598 0.0024661319
0.056059159 0.031566791 -0.014699649 0.34735116 -0.12640044 -0.92917711 0.0035282224
0.058791015 0.031523403 -0.013480379 0.46390507 -0.22532642 -0.85674971 0.0018627845
0.060779866 0.031861443 -0.01244963 0.53014398 -0.2674998 -0.80460632 0.0022248039
-0.039553367 0.035761449 -0.014925696 0.16799799 0.41150403 -0.89579082 0.0016842366
-0.037237056 0.035255805 -0.014698651 0.20645227 0.4539229 -0.86679381 0.0020191011
-0.034081444 0.035004299 -0.01400249 0.25772905 0.55508 -0.79086149 0.00089972839
-0.031253584 0.034734432 -0.013267609 0.28266943 0.59417236 -0.75303209 0.0017055073
-0.028462788 0.034127451 -0.012752983 0.27898851 0.63454896 -0.72077256 0.0015523843
-0.02560693 0.033321049 -0.012422313 0.26184109 0.66402686 -0.7003625 0.0011579286
0.03260031 0.033088136 -0.012357675 -0.2437955 0.65240288 -0.7175892 0.0011913232
0.034849927 0.033745594 -0.012559712 -0.26663506 0.62402898 -0.73450226 0.0012639975
0.037646811 0.034498923 -0.012946518 -0.26801208 0.57256603 -0.77481467 0.0012742376
0.040641569 0.034277357 -0.014152654 -0.23647964 0.51627707 -0.82312536 0.0015522935
0.043313578 0.03509409 -0.014434448 -0.22815433 0.48666477 -0.84326923 0.0016934511
0.0462128 0.035696201 -0.014775679 -0.16101311 0.44336498 -0.8817609 0.0017204579
0.055989541 0.034547314 -0.014839726 0.24107811 0.035327107 -0.96986252 0.0046084672
0.05850628 0.03447292 -0.014028343 0.35906747 -0.03595515 -0.9326188 0.0042267209
0.061589886 0.034602284 -0.012588696 0.50544673 -0.15811646 -0.84824693 0.0021850306
-0.051835321 0.038137645 -0.014774007 -0.04012588 0.26370847 -0.96376747 0.0014990858
-0.049132276 0.038512733 -0.014895393 0.0052375416 0.31325632 -0.94965416 0.0045206905
-0.046144344 0.038677782 -0.014635395 0.10423698 0.37943986 -0.91932583 0.0029069649
-0.043242902 0.038048893 -0.014498875 0.15589811 0.44262177 -0.88305253 0.0024117441
-0.040375844 0.037869744 -0.013964665 0.2282591 0.54143006 -0.80916697 0.0010860534
-0.037361935 0.037601411 -0.013249082 0.27941316 0.58561593 -0.7609089 0.0012641265
-0.034721266 0.037116896 -0.012689997 0.29873443 0.6275835 -0.71895528 0.0014896073
-0.032358628 0.036399737 -0.012372821 0.30556402 0.6539216 -0.69211072 0.001134059
0.040937409 0.036694869 -0.012495605 -0.28015825 0.56896889 -0.77316606 0.00096167083
0.043733776 0.037222736 -0.013166331 -0.25093517 0.54443222 -0.8003906 0.0011630157
0.046469156 0.037347347 -0.013896747 -0.19854121 0.50628531 -0.83919996 0.0013479069
0.049485601 0.037775137 -0.014283314 -0.13366197 0.43663597 -0.88965362 0.0013233126
0.052574284 0.037556846 -0.014649898 -0.010642488 0.32797924 -0.94462496 0.0048767808
0.055477016 0.037509091 -0.014522346 0.11793266 0.2018328 -0.97229391 0.0069172485
0.058397118 0.037377987 -0.01399745 0.26921797 0.11742949 -0.95589328 0.0049219821
0.061444841 0.037432827 -0.012881894 0.39852548 0.0019706201 -0.91715515 0.0037441987
0.063287303 0.038181778 -0.012015816 0.51977283 -0.060481317 -0.85216087 0.0024495404
-0.054858446 0.040398419 -0.013997672 -0.02387917 0.33163038 -0.94310719 0.00059283659
-0.052270524 0.040851839 -0.014092933 0.059882723 0.39819583 -0.91534376 0.0012762193
-0.049266599 0.040491536 -0.014161482 0.083342277 0.40660113 -0.90979642 0.0021245184
-0.046357166 0.040645935 -0.013678197 0.13820904 0.47434375 -0.86942297 0.0025727313
-0.043494467 0.040792298 -0.012903579 0.24773669 0.57759064 -0.77782744 0.0015190039
-0.04062514 0.03998353 -0.012581171 0.27787754 0.61661911 -0.73658997 0.0017695198
-0.038068723 0.039241403 -0.012243868 0.28911459 0.64558566 -0.70684648 0.0014560489
0.046729237 0.039331943 -0.012708791 -0.23182279 0.53486753 -0.81251144 0.001592949
0.049712356 0.040195569 -0.012991743 -0.19015868 0.50642365 -0.84105569 0.0025474441
0.052496582 0.04046376 -0.013364842 -0.11289237 0.43784752 -0.8919332 0.0034588366
0.055496052 0.040501341 -0.013579933 0.014939139 0.35748351 -0.93379998 0.0038349908
0.058630563 0.040361106 -0.013389658 0.1593516 0.25362617 -0.95408636 0.0051629506
0.061511755 0.040443216 -0.0126495 0.29843953 0.16173066 -0.94062591 0.0034333742
0.063354969 0.039672669 -0.012013555 0.48870459 0.054211747 -0.87076342 0.0050345534
-0.057954375 0.044439726 -0.012571007 0.017980065 0.43245348 -0.90147692 0.00097927451
-0.055207774 0.043847561 -0.012972088 0.053330701 0.44189939 -0.89547801 0.0019936231
-0.052362531 0.043650597 -0.012946593 0.085169531 0.46147093 -0.88305759 0.0028621359
-0.049543276 0.043225858 -0.012813799 0.15250002 0.52402031 -0.83794177 0.0035498114
-0.047011852 0.042891841 -0.012470615 0.24287222 0.59611171 -0.7652868 0.0018923072
-0.044724874 0.042365529 -0.012193655 0.28212258 0.63169986 -0.72205406 0.0010474387
0.052786063 0.042445876 -0.012318039 -0.1834686 0.52928233 -0.82837158 0.0024527693
0.055674456 0.042962998 -0.01246951 -0.069594629 0.44579557 -0.89242536 0.0030787601
0.058467541 0.043137342 -0.012495739 0.062401593 0.3602542 -0.93076473 0.0040696189
0.060961612 0.042732552 -0.012340946 0.25275609 0.24807633 -0.93518579 0.0050783232
-0.057942495 0.045755118 -0.012086721 0.030999068 0.48552224 -0.87367451 0.0012223292
-0.055334892 0.045408249 -0.012305863 0.03842295 0.48659965 -0.87277973 0.0023512344
-0.053147271 0.045400262 -0.012168073 0.13380511 0.54113322 -0.83022356 0.0024661582
0.0047676959 0.0059800432 -0.011791362 -0.0079602422 -0.60337698 -0.79741639 0.00087944837
0.0099344021 0.0051012388 -0.010792851 0.030885136 -0.67083102 -0.74096686 0.0022524456
0.013780267 0.0052403579 -0.010686226 0.06533353 -0.74291468 -0.66619021 0.00117038
0.016796561 0.0051706042 -0.010187219 0.098001927 -0.771617 -0.62849259 0.0010222133
0.01956108 0.0055705244 -0.010199985 0.13601126 -0.76697111 -0.62710148 0.002123124
0.022150354 0.0055618957 -0.0095192818 0.1630619 -0.77581394 -0.60952735 0.0014764734
0.014481589 0.0061994526 -0.011632879 0.065330654 -0.74291462 -0.66619045 0.0011697732
0.017661504 0.0064388867 -0.011589634 0.09565457 -0.74045467 -0.66526467 0.0018165088
0.019777322 0.0066757612 -0.011485288 0.12262238 -0.74971974 -0.65029544 0.0012871628
0.022630816 0.0070836595 -0.011366724 0.1526563 -0.74300474 -0.65164417 0.0028015713
0.025746888 0.0072316094 -0.010658763 0.18316111 -0.75200802 -0.63319504 0.0017250918
0.028589895 0.0078143254 -0.010468528 0.20710076 -0.77929008 -0.59145272 0.0018971127
0.031346735 0.0082929926 -0.010056929 0.25543708 -0.76865631 -0.58644652 0.0012788584
0.034350161 0.0086949393 -0.0092081754 0.29148164 -0.77423304 -0.56178445 0.0010946922
0.029618919 0.0091944225 -0.011795567 0.20067906 -0.71135455 -0.67357451 0.0021228862
0.031864643 0.0094391676 -0.011290996 0.23350042 -0.74471277 -0.62520438 0.0014669927
0.034384634 0.0099883275 -0.010882244 0.27346137 -0.75503045 -0.59594285 0.0012256611
0.037366055 0.010820679 -0.010479221 0.29464507 -0.75093454 -0.5910005 0.0016657148
0.040136948 0.011460514 -0.009783675 0.35208559 -0.74919587 -0.56101805 0.0012948021
0.042088646 0.011857403 -0.0090803849 0.38092291 -0.74700254 -0.54487163 0.0013295419
0.03820591 0.012069688 -0.011600764 0.2915791 -0.69880623 -0.65318573 0.0021893287
0.040607039 0.012757068 -0.011129031 0.32555541 -0.72722882 -0.60427803 0.0015586187
0.043386072 0.013646479 -0.010542919 0.36442244 -0.6968562 -0.61772794 0.00095950247
0.046349484 0.014505465 -0.0095628779 0.43970057 -0.75330693 -0.48907271 0.0013074835
0.044249699 0.015274405 -0.01186891 0.35553437 -0.62825102 -0.6920231 0.0013712485
0.046754435 0.016030025 -0.011126506 0.4078131 -0.64783758 -0.64342439 0.0014942619
0.049215555 0.016841901 -0.010261325 0.46480867 -0.68709397 -0.55843955 0.0022801976
0.051526118 0.01761312 -0.0093856985 0.4871864 -0.66758466 -0.56300992 0.0013125641
0.050085574 0.018616132 -0.011549262 0.42248556 -0.60928386 -0.67102844 0.00054721622
0.052698016 0.019356916 -0.010311765 0.47994602 -0.64046282 -0.59954911 0.0017396683
0.055011623 0.020403063 -0.0095069222 0.52261007 -0.60841 -0.59725708 0.0014131622
0.053506386 0.021452485 -0.011710997 0.4897196 -0.57992524 -0.65104645 0.00086713926
0.055663962 0.022141596 -0.010626334 0.50626731 -0.55329537 -0.66148138 0.0016231521
0.057839967 0.023308821 -0.009865433 0.554842 -0.55142301 -0.62296307 0.001778545
0.056626529 0.024151659 -0.011528542 0.52644205 -0.52116603 -0.67174757 0.00095751963
0.058719717 0.025323741 -0.010703761 0.54960692 -0.46495155 -0.69408381 0.0015532121
0.060576122 0.026184911 -0.0097298659 0.60189915 -0.49660191 -0.62538308 0.0017004131
-0.015296013 0.029999841 -0.01197461 0.21572991 0.65088469 -0.72788036 0.0033759784
-0.013139702 0.02961232 -0.011777567 0.18870862 0.6825192 -0.70608538 0.0011111653
-0.010298876 0.029285673 -0.011412275 0.1612218 0.64890391 -0.74359345 0.0017338538
-0.0075035766 0.029052924 -0.011018582 0.13299426 0.70538193 -0.69623911 0.0015343651
-0.0044630514 0.028867584 -0.010701708 0.11977497 0.72883439 -0.67413235 0.0023037782
-0.0015197073 0.028660962 -0.010533182 0.086632013 0.72417575 -0.68415236 0.002193141
0.0014505055 0.028478373 -0.010506338 0.025641259 0.73464811 -0.67796367 0.0021218732
0.0044504907 0.028419238 -0.010522822 -0.0046922308 0.72681701 -0.68681508 0.0021557123
0.0075271777 0.028575417 -0.01043003 -0.041862916 0.74883926 -0.66142815 0.002529013
0.010633901 0.02873702 -0.010552526 -0.087000497 0.74519128 -0.66115111 0.0019072022
0.013500746 0.028945431 -0.010735986 -0.12368852 0.75916749 -0.63903517 0.0013075697
0.016282883 0.029142078 -0.011116251 -0.16374706 0.74681133 -0.64456177 0.0015093206
0.019240566 0.029566202 -0.011458367 -0.1947697 0.70361602 -0.68336606 0.001406319
0.059529752 0.027736282 -0.011620019 0.55663568 -0.38388556 -0.7367419 0.0018202806
0.061661378 0.028580191 -0.010345903 0.59773195 -0.40035599 -0.69457299 0.0012810678
0.063316323 0.029421132 -0.0093854368 0.64599925 -0.42849299 -0.6317268 0.0017447701
-0.022198962 0.03274643 -0.011686816 0.25673094 0.70945269 -0.65632778 0.0014419156
-0.019287637 0.032335721 -0.011019446 0.25112572 0.7285412 -0.63730967 0.0010625304
-0.016360279 0.031987708 -0.010290929 0.22220743 0.77274686 -0.59454703 0.0015660977
-0.013693475 0.031166803 -0.010320388 0.20060991 0.74249142 -0.63911045 0.0027524768
-0.010678284 0.030701686 -0.0099838767 0.17808968 0.74306011 -0.64509356 0.0016005882
-0.0077319862 0.030422317 -0.009554876 0.14386572 0.75681126 -0.63760436 0.0016046244
-0.005094382 0.030173481 -0.0093309563 0.10997612 0.7610777 -0.63926989 0.0012741765
-0.002722865 0.030103261 -0.0090205483 0.079678677 0.75999987 -0.64502054 0.001211652
0.011489793 0.030048884 -0.0090626264 -0.085577562 0.77899235 -0.62116617 0.0011559229
0.014092903 0.030188097 -0.0093617383 -0.12861226 0.77626324 -0.61715007 0.0013636113
0.016822267 0.030424289 -0.0097634289 -0.17293772 0.76863408 -0.61586869 0.001370343
0.01981378 0.030936504 -0.010076983 -0.20513964 0.76338941 -0.6124984 0.0018198662
0.022862557 0.031256389 -0.010740011 -0.23247772 0.73350179 -0.63869339 0.0015035723
0.02605788 0.03214328 -0.01088865 -0.24400727 0.74705768 -0.61835694 0.0010494828
0.028377183 0.032461539 -0.011423673 -0.24758546 0.70691055 -0.66255492 0.00044822422
0.031144533 0.032984484 -0.011932768 -0.25430262 0.68411148 -0.68360925 0.00068026729
0.062123369 0.031110069 -0.011254143 0.56804943 -0.30943274 -0.76260817 0.0018874402
0.064126328 0.03174964 -0.0098483702 0.6592198 -0.34459931 -0.66834158 0.0013391506
-0.027936026 0.03555274 -0.011233315 0.3016412 0.69367194 -0.65408856 0.0021897925
-0.025243303 0.034940902 -0.010622025 0.29435027 0.72838074 -0.61872399 0.0016086207
-0.022648357 0.034201488 -0.010272902 0.26888308 0.74297225 -0.612939 0.0021937115
-0.019803459 0.033591792 -0.0097702118 0.26191708 0.75739717 -0.59812123 0.0013795965
-0.01762319 0.033157177 -0.009338446 0.25137711 0.75374216 -0.60719216 0.0014904556
0.026037991 0.033193234 -0.0096058743 -0.25458121 0.7661016 -0.59014976 0.00079764612
0.029115051 0.033987448 -0.0099004935 -0.26478398 0.73938447 -0.61903149 0.0011631373
0.031050345 0.033992082 -0.010736328 -0.26060483 0.73375505 -0.62744617 0.0011734953
0.034255419 0.035084467 -0.010918923 -0.29770538 0.73442918 -0.60990602 0.0015787391
0.036798052 0.035458319 -0.011767559 -0.31710789 0.64017135 -0.69973081 0.0017634493
0.06271296 0.033649009 -0.011707832 0.57646 -0.20547669 -0.79086858 0.0017027884
0.064595982 0.034455985 -0.010446869 0.62015957 -0.22379728 -0.75187558 0.0016360251
0.066281937 0.035258144 -0.0092487307 0.69325775 -0.25889844 -0.67258108 0.0017627012
-0.03627098 0.038927391 -0.011745404 0.31651503 0.67654437 -0.6649105 0.0011802376
-0.034382921 0.03845216 -0.011342456 0.31897679 0.66449928 -0.67579168 0.00074126123
-0.031417556 0.037750166 -0.010559648 0.33436242 0.70661497 -0.62361616 0.0019727778
-0.02863962 0.036981598 -0.0099744545 0.33327556 0.73679167 -0.58827323 0.0021736771
-0.026223222 0.036339682 -0.0094257733 0.3166303 0.74765033 -0.58375013 0.0013191648
0.03473103 0.036564313 -0.0093419272 -0.32468584 0.7812233 -0.53316921 0.0015261429
0.037380841 0.037099704 -0.010249663 -0.35176513 0.71227294 -0.60739499 0.001894064
0.040299546 0.037909601 -0.011072592 -0.3455238 0.6661579 -0.66094404 0.0024149753
0.043191545 0.038711742 -0.011794448 -0.32492939 0.64407414 -0.69252396 0.0021676589
0.064773768 0.037320256 -0.010949287 0.59786355 -0.12578088 -0.79166806 0.0015722172
0.066594638 0.037667554 -0.0095608989 0.67031324 -0.13997045 -0.72875816 0.0025227682
-0.042347178 0.041753683 -0.011782367 0.28913718 0.65119135 -0.70167619 0.0016014182
-0.04005241 0.041265864 -0.011228128 0.30723649 0.65923101 -0.6863091 0.0012417636
-0.037379902 0.040751204 -0.010393081 0.32879275 0.70628661 -0.62694067 0.0010611163
-0.034655858 0.03983058 -0.009948004 0.35026959 0.72333193 -0.59506482 0.0016388331
-0.032180179 0.039200842 -0.0092489384 0.35456181 0.74503756 -0.5649823 0.0011626517
0.040559255 0.039291695 -0.0097185969 -0.39608446 0.69708359 -0.59765512 0.0011059522
0.043491378 0.040351301 -0.010352937 -0.37430459 0.6721561 -0.63882887 0.0018946427
0.046521146 0.040691338 -0.011559481 -0.26212806 0.57054394 -0.77831131 0.00078411109
0.048856042 0.04161495 -0.011748988 -0.24946536 0.5670535 -0.78499508 0.0014575555
0.06298475 0.041596599 -0.01195354 0.39736301 0.10548574 -0.91157854 0.003920598
0.064591371 0.040463168 -0.011239062 0.53511006 0.010346679 -0.84471899 0.0037785422
0.066803843 0.040552352 -0.0097089447 0.63392645 -0.035537001 -0.77257639 0.0026069519
-0.049125582 0.044702362 -0.011739314 0.24465801 0.6251893 -0.74113488 0.0012823968
-0.046235781 0.044136018 -0.011232506 0.27809066 0.62568086 -0.72882718 0.0012205369
-0.043485224 0.043613058 -0.010504241 0.31738228 0.6682362 -0.67285126 0.0015616651
-0.04073469 0.042815894 -0.0099407379 0.34048346 0.70045471 -0.62724346 0.0015090735
-0.038462091 0.042307492 -0.0092119174 0.36468044 0.71537554 -0.59602517 0.0018352509
0.04494134 0.042188611 -0.0092655197 -0.36064973 0.70037901 -0.61595535 0.0027170067
0.046851691 0.042681217 -0.0098842783 -0.36567408 0.68600422 -0.6290316 0.0017548894
0.049964853 0.043534003 -0.010529655 -0.26645756 0.60022902 -0.75413895 0.0013625358
0.052442074 0.04363453 -0.011405579 -0.20591927 0.55141056 -0.80842048 0.0018782852
0.055296548 0.044471946 -0.011564298 -0.14644034 0.51719695 -0.84324521 0.0020492629
0.058494508 0.044598453 -0.011841979 -0.010576896 0.4148097 -0.90984666 0.0033751123
0.061924234 0.043902859 -0.011759177 0.22314851 0.25463584 -0.94093853 0.0060538487
0.064700089 0.043510705 -0.010874459 0.46157259 0.13666624 -0.87651193 0.0041294671
0.066903353 0.043416787 -0.0095863612 0.58811742 0.069438778 -0.80578923 0.0028997678
-0.060648523 0.047388077 -0.011136716 0.017863486 0.49844387 -0.8667379 0.0014988892
-0.058353968 0.047015034 -0.011490064 0.031396955 0.48946619 -0.87145686 0.0013278682
-0.055430084 0.046970952 -0.011398932 0.080834314 0.52103001 -0.84970206 0.003341367
-0.052808393 0.046956737 -0.010994208 0.21814524 0.61188143 -0.7602722 0.0017218579
-0.049478125 0.046565343 -0.010266286 0.28653279 0.66435838 -0.69030923 0.0016545649
-0.046768498 0.045841869 -0.0098326392 0.32246619 0.6766451 -0.66194183 0.0019468279
-0.044537541 0.045302153 -0.0092686834 0.35380027 0.69500238 -0.62593699 0.0019016537
0.052821711 0.045609936 -0.0099322759 -0.2589882 0.60462576 -0.75322825 0.0015698671
0.055869676 0.046414755 -0.010370935 -0.20554926 0.55495995 -0.80608249 0.0033142399
0.058715899 0.046395812 -0.010908099 -0.069337651 0.4736684 -0.87796956 0.0021929331
0.061581269 0.046498921 -0.010866681 0.11338975 0.38255194 -0.91694969 0.0053791311
0.064876966 0.046486307 -0.010115543 0.41269004 0.2298063 -0.88140571 0.0044127838
0.066630378 0.046051014 -0.0093908701 0.53827202 0.1653007 -0.82640117 0.0034078311
-0.063204139 0.050351355 -0.0094265863 0.063435934 0.60091114 -0.79679465 0.0010458981
-0.06118561 0.049756847 -0.0099332817 0.044269234 0.55776334 -0.82881862 0.0019769105
-0.058385368 0.049548797 -0.010035791 0.06855794 0.56397992 -0.82293767 0.0031198454
-0.055560548 0.049415499 -0.0097003169 0.19966666 0.65448594 -0.72923338 0.0028583277
-0.052646071 0.04855315 -0.0096172066 0.25394368 0.66414469 -0.70315319 0.0019217177
-0.050590642 0.048101876 -0.0092846323 0.3077794 0.68456089 -0.66079372 0.0018501324
0.056906063 0.048171572 -0.0093993321 -0.25968665 0.60255516 -0.75464576 0.001310038
0.058963194 0.048696779 -0.0095066195 -0.15790235 0.55306238 -0.81803966 0.0031077017
0.061592184 0.048941474 -0.0096560623 -0.012073406 0.47772035 -0.878429 0.0054150708
0.064407535 0.048907295 -0.0094165299 0.22862732 0.35075045 -0.90813202 0.0068487823
0.066391781 0.048232965 -0.0090382155 0.53077084 0.2187428 -0.81880033 0.0035866522
-0.060717233 0.051177233 -0.0090768486 0.080136195 0.59336537 -0.80093431 0.006736028
0.018854631 0.0029245266 -0.0060502873 0.14922105 -0.88258022 -0.44585335 0.0020523514
0.013069717 0.003713964 -0.0087405145 0.087663114 -0.78020614 -0.61934936 0.0034225979
0.016106557 0.0036488718 -0.0081712445 0.11155885 -0.81313109 -0.57129014 0.001071734
0.019510537 0.0042079161 -0.0082234284 0.15511048 -0.83213854 -0.53243428 0.0016689515
0.02271476 0.0044291681 -0.0075441794 0.18677306 -0.86470389 -0.46626505 0.0028750324
0.025853023 0.005173461 -0.0076036318 0.21300933 -0.85078388 -0.48041004 0.0011283468
0.028857926 0.0055347574 -0.0067504756 0.25754184 -0.85297412 -0.45399055 0.0012640599
0.028834507 0.0064108805 -0.0084330011 0.24413858 -0.82866371 -0.50369912 0.0019122025
0.031501103 0.0069373446 -0.0078890119 0.26517913 -0.83473724 -0.48259079 0.0017183487
0.03443465 0.007777072 -0.0075661298 0.30745906 -0.83495563 -0.45641875 0.0015303113
0.037087437 0.0084732305 -0.0069917403 0.34980083 -0.83509964 -0.4245562 0.001203785
0.037864435 0.0094376206 -0.0081915464 0.32965851 -0.8091957 -0.48634115 0.0019477375
0.041094322 0.010418089 -0.0073648179 0.3991642 -0.84129274 -0.3645471 0.0011629516
0.043357939 0.011496542 -0.0073096594 0.40577152 -0.81819105 -0.40732414 0.0012509343
0.045276307 0.011939214 -0.0063827606 0.43036699 -0.80538481 -0.40760225 0.0010751289
0.044237211 0.012445204 -0.0082978541 0.40000927 -0.79333878 -0.45891854 0.001261231
0.046531513 0.013174102 -0.0073312283 0.44773597 -0.80069274 -0.39802468 0.00063664012
0.048978057 0.014299875 -0.0067896042 0.48065081 -0.76810229 -0.42307648 0.0012864711
0.049971532 0.015539026 -0.0078875571 0.47758824 -0.75720352 -0.44559205 0.0013199812
0.05232539 0.016890503 -0.0074922536 0.50991344 -0.73286647 -0.45043874 0.0017236397
0.054327447 0.017590292 -0.0063268268 0.53621203 -0.72113287 -0.43868449 0.0011677828
0.053475048 0.018436579 -0.0086619249 0.49490568 -0.66646177 -0.55758148 0.0010729677
0.055550143 0.019317655 -0.007556566 0.53764212 -0.69785482 -0.4732227 0.0017438426
0.057607502 0.020472538 -0.0067827217 0.58403766 -0.67694747 -0.44793105 0.0010152407
0.05682876 0.021349184 -0.0088342186 0.53771359 -0.60592085 -0.58627981 0.0011461606
0.058855433 0.022242088 -0.0076462198 0.60638529 -0.6350742 -0.47851616 0.0018628307
0.060609497 0.023337334 -0.0068664853 0.62677002 -0.60215235 -0.49454215 0.00099139579
0.059695136 0.024181163 -0.0089548696 0.58016127 -0.5349682 -0.61418396 0.0012132869
0.061976131 0.025589094 -0.0076684165 0.65389609 -0.54026318 -0.52965611 0.0025070177
0.063354999 0.02614937 -0.006486027 0.68500471 -0.54920751 -0.47868538 0.0021984053
0.0018533915 0.029898878 -0.0087860813 0.025860611 0.83772701 -0.5454765 0.0024603764
0.0046282858 0.029874327 -0.0087682586 -0.00063351914 0.84000057 -0.54258519 0.0025135805
0.007116735 0.02988795 -0.0087790359 -0.030912494 0.83307737 -0.55229205 0.0033202888
0.06273704 0.027685633 -0.0087580532 0.64148861 -0.45313466 -0.61900032 0.0012412773
0.064471669 0.028576821 -0.0073751737 0.71942699 -0.463222 -0.5175423 0.0015759181
0.066053823 0.029771784 -0.0063489638 0.72970551 -0.44811502 -0.51645201 0.0020246233
-0.0157563 0.032905113 -0.0089176176 0.24246742 0.7698912 -0.59031957 0.00097856205
-0.013353925 0.032580156 -0.0083913989 0.21093492 0.84401798 -0.49309224 0.0016495888
-0.010537324 0.032349411 -0.0076541784 0.1888334 0.85626787 -0.48077771 0.0010795336
-0.0078750076 0.032008044 -0.0072695226 0.16273002 0.87085128 -0.46382859 0.0011451719
-0.0045345593 0.03134425 -0.0074766576 0.12871163 0.84822667 -0.51375568 0.0022977502
-0.0014797193 0.030924242 -0.0075716549 0.078780927 0.85286736 -0.51615006 0.0021009352
0.0014709235 0.030836601 -0.0073722848 0.031655926 0.85877275 -0.51137787 0.0022548526
0.0045338166 0.030788973 -0.007334562 0.0047190865 0.86529952 -0.50123298 0.0022448068
0.0074700858 0.030850489 -0.0072953813 -0.040914413 0.86855388 -0.49390307 0.0020829255
0.010532541 0.030982174 -0.0074551539 -0.08112777 0.86647117 -0.49259111 0.0018438378
0.013543585 0.031243358 -0.007593676 -0.1384806 0.84658468 -0.5139237 0.0019407844
0.016548738 0.031684235 -0.0077779172 -0.19578363 0.84971052 -0.48955157 0.0021613475
0.019332571 0.032318428 -0.007896211 -0.22106709 0.82825232 -0.51490539 0.0015811791
0.021916553 0.032616664 -0.0085885702 -0.25111651 0.81633162 -0.52013767 0.0013441804
0.065334134 0.031129742 -0.0082643954 0.68361539 -0.35458788 -0.63791645 0.0010360397
0.06675455 0.031854637 -0.006930293 0.7457822 -0.38887018 -0.54091489 0.0020933391
-0.022148864 0.035559494 -0.0081736436 0.3050673 0.81563979 -0.49159497 0.0016534426
-0.019425355 0.034928381 -0.0075839846 0.29733148 0.82951027 -0.47276488 0.0017182516
-0.016550029 0.034025695 -0.0075061359 0.24718614 0.84226012 -0.4790583 0.0018088872
-0.013591421 0.033510897 -0.0069513451 0.21418792 0.85746986 -0.46783432 0.0015752058
-0.010763635 0.033114243 -0.0063772872 0.18726376 0.88879794 -0.41829473 0.0015247739
0.020252412 0.033370569 -0.0064575048 -0.23720528 0.85202765 -0.46667185 0.0011427356
0.022657018 0.033537053 -0.0073836576 -0.25428039 0.82810885 -0.49957705 0.0012022904
0.025122143 0.034043461 -0.007794376 -0.26111856 0.81066686 -0.52405757 0.00068486459
0.027931072 0.034700532 -0.00822266 -0.27688605 0.78814983 -0.54968542 0.00072462345
0.03057296 0.035574526 -0.0083509758 -0.30989403 0.81048185 -0.49707642 0.00072086748
0.065878063 0.033151403 -0.0088731321 0.66920865 -0.33126336 -0.66514999 0.0023238484
0.067501575 0.034586534 -0.0075556398 0.75476015 -0.2819556 -0.59231597 0.0019449661
0.069122478 0.035711233 -0.0060561923 0.79258168 -0.31305763 -0.52326792 0.0018884161
-0.030517668 0.038833611 -0.0086703515 0.37041429 0.77698791 -0.50900185 0.0012828279
-0.028152214 0.038326036 -0.0077360249 0.36906096 0.8059361 -0.46288335 0.0016224701
-0.025522707 0.037340462 -0.0074310857 0.34330171 0.81337148 -0.46964955 0.0019554789
-0.022899434 0.036579628 -0.0069201738 0.31737736 0.83160895 -0.45573914 0.0015977927
-0.020835314 0.036116935 -0.0063291639 0.32038209 0.83472729 -0.44786793 0.0017358954
0.029510435 0.036152527 -0.0066415519 -0.29201058 0.82832336 -0.47813207 0.00049925939
0.031681195 0.036593232 -0.0072575225 -0.3113912 0.81445199 -0.48959532 0.00076573674
0.034385569 0.037564006 -0.0075286552 -0.35711393 0.78662229 -0.50368148 0.00090047007
0.036844026 0.038524695 -0.0079266299 -0.41347939 0.77089763 -0.48451173 0.00096568512
0.068115272 0.037415922 -0.0079324739 0.75995052 -0.1858407 -0.62284702 0.0024289747
0.069368862 0.037807025 -0.0065071383 0.79612774 -0.21492274 -0.56567556 0.0021443649
-0.03648442 0.041790981 -0.0085625295 0.39694649 0.74728668 -0.53291291 0.0019540677
-0.03429668 0.041252118 -0.0076939389 0.39537796 0.7929585 -0.46356568 0.0014942068
-0.031565916 0.040155601 -0.0072975717 0.37623563 0.79924053 -0.46868053 0.0019469467
-0.029114729 0.039312094 -0.0067588384 0.37871799 0.82004744 -0.42906278 0.0014463909
0.038115643 0.039613131 -0.0072892681 -0.41688427 0.76572579 -0.48976678 0.00083966652
0.040663406 0.040914319 -0.0075757056 -0.43146324 0.75250441 -0.49757075 0.0010927375
0.042523608 0.041435249 -0.0084309578 -0.43796688 0.72316474 -0.5340578 0.0023980185
0.068351567 0.040333856 -0.008282613 0.72404182 -0.076641388 -0.68548495 0.002396221
0.069629103 0.040634956 -0.0068643265 0.78559887 -0.10530393 -0.60970944 0.0022432955
-0.042392075 0.044739049 -0.0086244438 0.38497442 0.72358024 -0.57291043 0.0017755649
-0.04022767 0.044223424 -0.0077449922 0.40222454 0.77859986 -0.48166138 0.0021193493
-0.03755736 0.043111335 -0.007336671 0.38906384 0.78913313 -0.4752875 0.0018118828
-0.035216231 0.042400986 -0.0064938627 0.41266638 0.80058098 -0.43448424 0.0015068003
0.043682545 0.042889856 -0.0073135057 -0.43771571 0.73562902 -0.51696706 0.0011195167
0.046345942 0.0441126 -0.0078481212 -0.41620445 0.72699565 -0.54612386 0.0018060547
0.068383455 0.043528546 -0.008397351 0.63986939 0.026671104 -0.76802063 0.0023742863
0.069761753 0.043510761 -0.0069486573 0.76221091 -0.012388075 -0.64721018 0.002872223
-0.048469093 0.04771005 -0.0086686332 0.31666967 0.69279236 -0.64788824 0.0014160943
-0.046170816 0.047268141 -0.0077741761 0.37936854 0.76066387 -0.5267542 0.0028515209
-0.043593943 0.046189666 -0.0074237189 0.38270503 0.77096856 -0.50906217 0.0020060202
-0.041342404 0.045506489 -0.006650235 0.41998982 0.77822083 -0.4668842 0.0020870941
0.046776347 0.045415867 -0.0063426197 -0.44139257 0.7337451 -0.516518 0.00059620541
0.04947428 0.046241138 -0.0073899254 -0.41259626 0.70497811 -0.57686239 0.0012544027
0.052644957 0.047367394 -0.008194129 -0.36491629 0.68838805 -0.62686372 0.0020844331
0.054837 0.047927566 -0.0087746773 -0.24163488 0.5990231 -0.76340288 0.0020549828
0.068077885 0.046761259 -0.0082906513 0.576814 0.12458263 -0.80731946 0.0036106489
0.069739193 0.04638603 -0.0068423836 0.71322227 0.065707393 -0.6978513 0.0035747963
-0.057509847 0.050981443 -0.0088221002 0.11295372 0.65969795 -0.74299401 0.0034414101
-0.054943424 0.050588656 -0.0084826471 0.2484199 0.68386215 -0.68601757 0.0025654885
-0.052279919 0.050123617 -0.0077932072 0.31328607 0.73414552 -0.60239714 0.0027558065
-0.049605902 0.049265999 -0.0073511098 0.33864906 0.75321853 -0.56389606 0.0018931922
-0.047098711 0.04854684 -0.0066135637 0.40437046 0.76866156 -0.49562475 0.0015574103
0.052682489 0.048784021 -0.0065976628 -0.40961856 0.69453961 -0.59146208 0.0011044351
0.055832524 0.04916773 -0.0080261212 -0.29054362 0.64035344 -0.71100765 0.00072040514
0.058462579 0.050124329 -0.0082426211 -0.21488608 0.60260344 -0.76856554 0.0014595266
0.061503373 0.050462797 -0.008723855 -0.082166798 0.51763624 -0.85164624 0.0037665828
0.064888082 0.050287426 -0.0087446868 0.13700019 0.40349457 -0.90466738 0.0070905038
0.067707539 0.049568549 -0.0079192044 0.51330423 0.18937705 -0.83705145 0.0050529721
0.069647968 0.049348686 -0.0065633073 0.68717438 0.11647812 -0.71709442 0.0040504616
-0.066653803 0.053001329 -0.00760683 0.081066616 0.56887364 -0.81841981 0.001872172
-0.064195305 0.052819595 -0.0078628678 0.10761132 0.63177431 -0.76764637 0.0042288839
-0.061257452 0.05279094 -0.0076793036 0.11706461 0.66646463 -0.73628849 0.0036688223
-0.058409743 0.052496657 -0.0074767722 0.18739021 0.73833925 -0.64787352 0.0032069753
-0.055536378 0.052085798 -0.0070198961 0.28109825 0.75460219 -0.59292436 0.0021602216
-0.052870911 0.051458791 -0.0064465259 0.34673247 0.75912303 -0.55091631 0.0021086328
0.059303708 0.051465064 -0.00735851 -0.21536745 0.59811312 -0.77193105 0.0022044932
0.061838008 0.052259795 -0.0075264387 -0.18118608 0.55885988 -0.80922627 0.0033523147
0.064686358 0.052408807 -0.0077950153 0.068800852 0.42008597 -0.90487254 0.0085649602
0.06782309 0.052419204 -0.0070802863 0.49067503 0.22069559 -0.84293026 0.0085489517
0.069334365 0.05215187 -0.0063054156 0.65667504 0.13778549 -0.74148023 0.0050587342
-0.06727764 0.055155978 -0.0065158671 0.13837111 0.57500798 -0.80636173 0.0024858506
-0.064434245 0.054800346 -0.0065178787 0.13776043 0.62104803 -0.77157068 0.0053959824
-0.062204972 0.054482359 -0.0063053002 0.24935204 0.74620545 -0.61725283 0.0043783449
0.062828489 0.054486196 -0.0062181447 -0.14009984 0.47868252 -0.86673814 0.0061459448
0.064941242 0.054846354 -0.0065467814 -0.01871719 0.39056957 -0.9203831 0.0079904795
0.067482263 0.055015538 -0.0063698664 0.23708536 0.31442639 -0.91919887 0.012810018
0.069018848 0.05411727 -0.0061458452 0.44560042 0.23982735 -0.86250979 0.016634822
0.022832792 0.0033138236 -0.0050840825 0.19882642 -0.89528435 -0.39866525 0.0012158626
0.026050551 0.0040826169 -0.0051285094 0.24541935 -0.90993005 -0.33436 0.0014818717
0.028769946 0.0047039236 -0.004785182 0.25552166 -0.91027802 -0.32573402 0.0013471078
0.031449053 0.0054848935 -0.0046035047 0.27587429 -0.90955728 -0.31080362 0.0021652051
0.033023436 0.0056027449 -0.0032698938 0.32920155 -0.91161907 -0.24612421 0.0039747115
0.032488246 0.0061123557 -0.0055024903 0.30045706 -0.89113975 -0.33999342 0.0018467285
0.034384195 0.0064877216 -0.0045691971 0.35054371 -0.91953844 -0.17767461 0.0018754759
0.038082115 0.0077437786 -0.0039819153 0.36158538 -0.91116214 -0.19758442 0.0012657146
0.040165596 0.0086350087 -0.0040191617 0.39451078 -0.88589793 -0.24402072 0.001920131
0.041484158 0.0094171911 -0.0046165539 0.40399379 -0.86735821 -0.29065228 0.0018274694
0.043452397 0.010356709 -0.0045789354 0.43076748 -0.85337168 -0.29359168 0.0013703823
0.045742042 0.011346967 -0.0040417043 0.44980416 -0.85057974 -0.27237892 0.0012786225
0.047249697 0.012376275 -0.0046629617 0.46336597 -0.83806121 -0.28800252 0.001545317
0.049518839 0.013670357 -0.004577239 0.49763554 -0.81634378 -0.29315826 0.0014194413
0.051448084 0.014545331 -0.0037023299 0.51638037 -0.80467337 -0.29300532 0.0016292665
0.052791003 0.015791073 -0.004671013 0.52605641 -0.79620343 -0.29887253 0.0015385785
0.055169381 0.01727777 -0.0042026462 0.55851609 -0.77580148 -0.29358467 0.0018178822
0.056342833 0.018502111 -0.0050904532 0.59048307 -0.75363868 -0.28871888 0.0016013697
0.058300093 0.019788275 -0.0043656742 0.61269456 -0.72904086 -0.30513087 0.0017657325
0.060073696 0.020827411 -0.0032083923 0.64734572 -0.70533645 -0.28886697 0.0018497022
0.059678964 0.021392236 -0.0053011114 0.64448559 -0.69029438 -0.32883433 0.0018681826
0.061388902 0.022621542 -0.0044004312 0.68192846 -0.66530997 -0.3038688 0.0018998249
0.062763557 0.024529124 -0.0052221077 0.69703507 -0.61793691 -0.36372524 0.0025554975
0.064433396 0.025943099 -0.0042400248 0.73751134 -0.58440703 -0.33844572 0.0022329844
0.065467 0.027754925 -0.0049357419 0.76752216 -0.54998642 -0.32927898 0.0019232741
0.06670244 0.029046675 -0.0041873567 0.79082423 -0.5064972 -0.34359518 0.0024797854
-0.0093106125 0.032984242 -0.0059034005 0.19995253 0.91348398 -0.35435307 0.0025750408
-0.0070189093 0.032760303 -0.0055506937 0.1584637 0.91885042 -0.36139071 0.0015074089
-0.0043936069 0.032651659 -0.0048488202 0.12948392 0.93305212 -0.33563012 0.0015964374
-0.0014491947 0.032526124 -0.004195895 0.083739758 0.9572069 -0.2770246 0.0020982909
0.0014442108 0.032176148 -0.0045646909 0.045970201 0.94270527 -0.33044457 0.0026277243
0.0044504497 0.03208366 -0.0045852428 0.0099962801 0.92856956 -0.37102374 0.0025400368
0.0074581509 0.032118171 -0.0045629041 -0.036586493 0.94426656 -0.32714239 0.0022495389
0.010435934 0.032318868 -0.0045837178 -0.10316207 0.93889481 -0.32838109 0.0023135622
0.013276476 0.032520808 -0.0048398487 -0.14926314 0.92694664 -0.34422442 0.0022307956
0.01640819 0.032770075 -0.0056375554 -0.20628659 0.89186817 -0.40251327 0.0018675626
0.067974463 0.031473204 -0.0045104553 0.82270837 -0.44869167 -0.34903696 0.0021344812
0.069111496 0.03260291 -0.0033439426 0.84846491 -0.42988735 -0.30871364 0.0040487396
-0.018772984 0.035804708 -0.0054084063 0.31024277 0.89166445 -0.3296724 0.0024547458
-0.016417092 0.035308067 -0.0046619098 0.28460321 0.90541786 -0.31499109 0.0022604745
-0.013510678 0.034544647 -0.0045500291 0.23649937 0.91433603 -0.32872123 0.002209167
-0.010553345 0.033822868 -0.004573686 0.19545265 0.92758018 -0.31842288 0.0021439069
-0.0077033415 0.033395145 -0.0041876514 0.15495488 0.93879855 -0.30764642 0.0019653733
-0.0048356894 0.033192918 -0.0034798433 0.11790483 0.95319533 -0.27841875 0.0027912722
0.014173284 0.033119693 -0.0034866421 -0.15007876 0.92897981 -0.33833843 0.0021352095
0.016398989 0.033313043 -0.0041896589 -0.19329175 0.90955037 -0.367908 0.0018087169
0.020025807 0.033905603 -0.0050180582 -0.24418299 0.88121665 -0.40476149 0.0014424874
0.022334933 0.034677602 -0.0046491558 -0.28330198 0.88721293 -0.36413354 0.0015005141
0.025498709 0.035301801 -0.0055427863 -0.28029275 0.84834003 -0.44917172 0.00042885228
0.027269075 0.035662025 -0.0059828833 -0.29384977 0.82731754 -0.47874635 0.0005016473
0.068685785 0.033947241 -0.0054667317 0.83931965 -0.32825416 -0.4333494 0.002829944
0.069638461 0.034690097 -0.0041368469 0.85980403 -0.34074438 -0.38030276 0.0030003472
-0.025230631 0.038492937 -0.004669786 0.37032485 0.87791449 -0.30352199 0.0020453355
-0.022444539 0.037433986 -0.0045262785 0.32253554 0.89323694 -0.31320688 0.0024041475
-0.019823091 0.036526281 -0.0043610018 0.30377725 0.90357256 -0.30211923 0.0020367571
-0.017689211 0.036110882 -0.0034900203 0.28674912 0.91238254 -0.29211828 0.002121337
0.028945779 0.036257502 -0.0059596449 -0.29202381 0.82832563 -0.47812006 0.00049218995
0.031774856 0.037297904 -0.0059201145 -0.31953639 0.82592952 -0.46447498 0.00029242449
0.034236286 0.038325813 -0.0058846101 -0.36837855 0.81201905 -0.45268357 0.00087467668
0.07041768 0.037543152 -0.0045567057 0.87123311 -0.23870373 -0.42892116 0.0027308622
-0.033238642 0.041785803 -0.0056529171 0.43323734 0.83949393 -0.32795632 0.0028035827
-0.031286988 0.041295867 -0.0045296834 0.42720762 0.85753393 -0.28658211 0.0016957754
-0.028525768 0.040016968 -0.0044586412 0.38838655 0.87135702 -0.2998212 0.0018615656
-0.02641166 0.039324831 -0.0037274417 0.36407366 0.88190472 -0.29949042 0.0020946946
0.035706233 0.039066691 -0.0058622435 -0.38677126 0.79290766 -0.4708561 0.00079418666
0.037158582 0.04000029 -0.0055388487 -0.41906628 0.77602524 -0.47134733 0.0005043745
0.039521307 0.041373651 -0.0055777654 -0.44370252 0.76137459 -0.47269106 0.00044161384
0.07107652 0.040560056 -0.0045036748 0.89014804 -0.14271519 -0.43274564 0.0029436925
-0.039375965 0.044922702 -0.0057616085 0.43230522 0.80616629 -0.40399033 0.002098144
-0.037208069 0.04426435 -0.0045975363 0.45416385 0.8400383 -0.2967672 0.0018224263
-0.034552231 0.042966928 -0.0043762564 0.42752144 0.85442138 -0.29527855 0.0021422545
-0.032635126 0.042267848 -0.0036172885 0.42856136 0.86010629 -0.27668095 0.0030582717
0.041103262 0.042436671 -0.0053298003 -0.45550361 0.75201738 -0.47643074 0.0003109581
0.043518759 0.044027198 -0.0051828325 -0.4610278 0.74379194 -0.48397005 0.00024333037
0.045160513 0.044804838 -0.005709447 -0.45769012 0.74258351 -0.48896775 0.00020824582
0.071325131 0.043492664 -0.0046763229 0.86922914 -0.055510052 -0.49128327 0.0029613364
0.072047777 0.044392005 -0.0033562146 0.89931697 -0.084845185 -0.4289875 0.0041421843
-0.043085475 0.047379255 -0.004739068 0.45132834 0.82572073 -0.33836067 0.0023890287
-0.040525194 0.046132948 -0.0043720515 0.45219988 0.83163428 -0.32233489 0.0024048313
-0.038496945 0.045225829 -0.0038505562 0.44252172 0.84156483 -0.30974689 0.0019746206
0.046830758 0.046064831 -0.005243171 -0.44197127 0.73177218 -0.51881689 0.00048921828
0.049044907 0.047439743 -0.0052099056 -0.43678001 0.7326591 -0.52195203 0.0003086119
0.071286753 0.046516489 -0.0048360676 0.84695017 0.01770349 -0.53137743 0.0032200429
0.072114334 0.046600606 -0.0033757973 0.88872802 -0.015507312 -0.4581725 0.0038388793
-0.048952475 0.050476346 -0.0048562791 0.42302147 0.82285571 -0.37942228 0.0029422883
-0.046494607 0.049372256 -0.0044183186 0.43918583 0.82012045 -0.36676729 0.0026564579
-0.044321209 0.048390452 -0.0039250595 0.4307887 0.83008832 -0.35408258 0.0021585457
0.050739076 0.048532814 -0.0051841512 -0.42477036 0.69984555 -0.57427025 0.00074529136
0.052737698 0.049819387 -0.0051537268 -0.40953702 0.70176667 -0.58292627 0.00095745764
0.054942958 0.050720863 -0.0057648942 -0.36580005 0.69168073 -0.62271035 0.00072443666
0.071167342 0.049513686 -0.0048057381 0.81782061 0.062736027 -0.57204336 0.0041513802
0.072106995 0.049463253 -0.0033531468 0.86475271 0.023345519 -0.50165504 0.0040023769
-0.057696823 0.053710107 -0.005806142 0.24955982 0.79542321 -0.55228782 0.0023650627
-0.05510198 0.053415198 -0.0047833454 0.34117192 0.847853 -0.40589052 0.0031318872
-0.052451164 0.052458245 -0.0043957336 0.38572982 0.82735193 -0.40829054 0.0026198861
-0.050063912 0.051470499 -0.0039328691 0.42262253 0.82646048 -0.37195891 0.0032025948
0.055987563 0.051707651 -0.0051764422 -0.36953828 0.68577862 -0.62701607 0.00060830958
0.05855152 0.052966744 -0.0054220757 -0.34989762 0.66976231 -0.65497339 0.0007579716
0.070945255 0.052498817 -0.0047144224 0.76723224 0.079598412 -0.63641089 0.0087194936
0.072065644 0.052022204 -0.0032955974 0.82517165 0.039993107 -0.56346458 0.004944297
-0.069301546 0.056760762 -0.0056951675 0.17337771 0.59229594 -0.78684539 0.0023594841
-0.067532867 0.056542791 -0.0057620071 0.15494533 0.586501 -0.79498965 0.0016339247
-0.064111769 0.056317806 -0.0051461258 0.28712088 0.67357671 -0.68106973 0.00450532
-0.061464477 0.055753857 -0.0044532493 0.3443988 0.77956676 -0.52313012 0.0072587994
-0.05857398 0.054830287 -0.0043019718 0.29764518 0.84771097 -0.43908265 0.0032967795
-0.055939745 0.054304313 -0.0036737302 0.33909512 0.86268628 -0.37521574 0.0026763484
0.059482273 0.054138143 -0.0046302453 -0.34308901 0.66145778 -0.666906 0.00066421262
0.061627354 0.054853585 -0.0053232303 -0.29901183 0.53746247 -0.78849608 0.0044686268
0.065095067 0.0564631 -0.0056975465 0.0089659737 0.37169018 -0.92831349 0.013707384
0.068116121 0.056415953 -0.005794079 0.21686584 0.29817718 -0.92954803 0.012163918
0.070816942 0.055453558 -0.0044554849 0.70686203 0.095661983 -0.70085299 0.011113434
0.072019167 0.054678798 -0.0032879263 0.79140836 0.023193479 -0.61084771 0.0041192365
