# .PCD v0.7 - Point Cloud Data file format
VERSION 0.7
FIELDS x y z normal_x normal_y normal_z curvature
SIZE 4 4 4 4 4 4 4
TYPE F F F F F F F
COUNT 1 1 1 1 1 1 1
WIDTH 567
HEIGHT 1
VIEWPOINT 0 0 0 1 0 0 0
POINTS 567
DATA ascii
-0.066770211 0.060537565 -0.0015751808 0.47661906 0.86779124 -0.1406153 0.02208389
-0.065702215 0.060094833 -0.0013875071 0.46399376 0.87543213 -0.13538232 0.015590157
0.073337071 0.061542016 -0.0015727039 0.93389142 -0.073323824 -0.34995782 0.027461311
0.073828183 0.064487547 -0.0015051216 0.87678891 -0.21844541 -0.42839566 0.026067585
0.074353188 0.067310467 -0.0017140066 0.88091266 -0.26577657 -0.39160648 0.02677664
0.075193331 0.068333633 -0.00059878983 0.93025714 -0.28640607 -0.22933216 0.041528106
0.07464353 0.069904499 -0.0025022801 0.75562382 -0.3249625 -0.56871086 0.018453576
0.075674869 0.070682049 -0.001271231 0.89719242 -0.26048133 -0.35664448 0.018259687
0.076574743 0.073211052 -0.001531343 0.92413718 -0.20450768 -0.32271826 0.043119568
-0.018038101 0.0029128811 0.0019339398 -0.26646638 -0.96369362 -0.017039711 0.004240403
-0.01655315 0.0025972063 0.0015966408 -0.22171231 -0.97511214 -2.2913084e-05 0.0037010894
-0.013480254 0.0019130281 0.0014369697 -0.18641253 -0.98245788 0.0051867533 0.0010346905
-0.010316489 0.0013265908 0.0014282567 -0.16157925 -0.98363978 0.079654947 0.0043841926
-0.0071755811 0.00087396894 0.0012416844 -0.092982642 -0.98197311 0.16456923 0.0040899008
-0.0038508743 0.00055308203 0.0014403258 -0.061193831 -0.99490792 0.080084026 0.0037683526
-0.0021629974 0.00039426191 0.00075638574 -0.038439479 -0.99859905 0.03636267 0.0050894772
0.0018293021 0.00036016959 0.0020663377 -0.013165202 -0.9941662 0.1070524 0.0046047275
0.0043504424 0.00025642695 0.0012722946 0.0029750522 -0.99919683 0.039960887 0.0071852063
0.0074225254 0.00035081129 0.0013420945 0.060530234 -0.99373442 0.093956828 0.0030173019
0.010476199 0.00055850804 0.0014734805 0.071608752 -0.99244553 0.099619798 0.0028732109
0.013592857 0.00085745379 0.0013920708 0.11242379 -0.97921103 0.16883904 0.0061258287
0.016526319 0.0012530298 0.0015174598 0.13112003 -0.97829872 0.16043423 0.0056111985
0.019398076 0.001717477 0.0015153625 0.17123935 -0.97722626 0.1253231 0.0033565231
0.022477055 0.0023064276 0.0014344092 0.1908983 -0.97590005 0.10572062 0.0028446794
0.024833972 0.0028292898 0.001283452 0.22473244 -0.97064507 0.085694313 0.0026742381
-0.02762467 0.0057306075 0.0027129948 -0.34513527 -0.93850368 -0.0096204896 0.0093945647
-0.025274104 0.0052822689 0.0017408858 -0.28652623 -0.94979036 -0.12570243 0.0042784498
-0.02243012 0.0043926514 0.0014639741 -0.32067379 -0.9452132 -0.061157852 0.0015594218
-0.019509751 0.0034438123 0.00145529 -0.29438064 -0.95493042 -0.038051352 0.0015448418
0.02628809 0.0032260288 0.0016417629 0.26742458 -0.95894361 0.094398834 0.0024430382
0.028538475 0.0038231027 0.0014342987 0.27771834 -0.95552921 0.099178761 0.002291692
0.031541478 0.0047439788 0.0014618738 0.28777847 -0.95396328 0.084484339 0.0016993744
0.034084428 0.0055956952 0.0013592126 0.31616944 -0.94502383 0.083467662 0.0024531155
-0.034413457 0.0085199522 0.0020031184 -0.37656048 -0.92105252 -0.099320002 0.0079426616
-0.0316654 0.007826928 0.001455397 -0.36043814 -0.92126203 -0.14615324 0.0033546013
-0.028782487 0.0066426881 0.0015395524 -0.38209435 -0.91231531 -0.14725743 0.0041091121
-0.026845872 0.0063790553 0.00049324584 -0.33712351 -0.93190706 -0.13377984 0.0056505916
0.035638396 0.0061873333 0.001711656 0.3673147 -0.92601925 0.086995676 0.0023455659
0.037533399 0.0069088168 0.001430848 0.37595561 -0.92208713 0.091720812 0.0021963848
0.040461231 0.0081408648 0.0014164676 0.39130667 -0.91458404 0.10205399 0.0025027019
0.042173255 0.008874095 0.001046586 0.41660029 -0.90403688 0.095716164 0.0029394359
-0.03948544 0.010840867 0.0020260985 -0.43422467 -0.88154709 -0.18526658 0.0073144645
-0.037041485 0.010215835 0.0012596697 -0.41970727 -0.89030814 -0.17662747 0.0060717156
-0.034718677 0.0096668443 0.00050198782 -0.40709046 -0.8970598 -0.17193361 0.0031842908
0.041965444 0.0090199504 0.0029879673 0.43952343 -0.88284838 0.16552338 0.0066317311
0.043710869 0.0096655516 0.0014921887 0.44599584 -0.88842124 0.10860703 0.0021299694
0.046479438 0.01108329 0.0014455462 0.45529193 -0.88501757 0.097227566 0.0022709428
0.048158422 0.011918847 0.00057665794 0.48607042 -0.86920857 0.09062054 0.0024297924
-0.045359887 0.01423058 0.002054967 -0.51147926 -0.85674047 -0.066217825 0.02131922
-0.043080762 0.012908025 0.0020428523 -0.47159663 -0.86702585 -0.16081886 0.0090621095
-0.039946608 0.012212095 0.00050803274 -0.4233287 -0.87380368 -0.23929065 0.0033805557
0.049565341 0.012821276 0.0014561113 0.5115903 -0.85242951 0.10788613 0.0020660933
0.052016336 0.014316388 0.0014038739 0.52585554 -0.84604359 0.08767122 0.0019982369
0.053548574 0.015324622 0.0014453739 0.55658501 -0.82610768 0.088086173 0.0019935328
0.055563267 0.016725674 0.0014462104 0.56529015 -0.81783247 0.10769025 0.0022121333
0.057287645 0.017905364 0.00080490997 0.60452306 -0.78969461 0.10456739 0.0025808916
0.058665484 0.01911168 0.0015150405 0.62661308 -0.77121174 0.11219861 0.0027065612
0.060460459 0.020590022 0.0012742776 0.66684955 -0.73905361 0.09545406 0.0030958138
0.061965987 0.022050994 0.0014964944 0.70093191 -0.70919234 0.075767212 0.0019212667
0.063426554 0.023503771 0.0013019261 0.73285484 -0.67317981 0.098755404 0.0033161866
0.064934857 0.025259009 0.0014987594 0.76912463 -0.63069195 0.10331918 0.0028520084
0.066164143 0.026739374 0.0010335845 0.79684013 -0.59345293 0.11339917 0.0030716008
0.067338221 0.028460987 0.0014262563 0.8327139 -0.54448593 0.10061129 0.0026342829
0.068656601 0.030616069 0.0015790256 0.85700488 -0.5051614 0.10175795 0.0028959922
0.069492854 0.032081276 0.0013712449 0.89389318 -0.43374035 0.11324495 0.0042581824
-0.014296732 0.035399854 0.0028271379 0.23701715 0.91958523 0.3133463 0.00096265698
0.070577852 0.034511361 0.0014202059 0.92821473 -0.35651034 0.10638475 0.0028463502
-0.024132868 0.03872117 0.0028709641 0.33840445 0.92554855 0.16983047 0.0051380452
-0.022864351 0.038485743 0.00078390323 0.35146332 0.93599349 -0.019739987 0.0011093525
-0.019235903 0.037019596 0.001987647 0.308956 0.92076093 0.2382133 0.00082668685
-0.017836485 0.03660636 0.0017841049 0.29017797 0.9294458 0.22787575 0.00050122128
0.07158453 0.037358705 0.00152139 0.94611514 -0.29393452 0.1358998 0.0040320731
0.072053112 0.038657378 0.00060844718 0.9699533 -0.23072422 0.077181488 0.0072213751
-0.030339757 0.041588843 0.0025033702 0.43275326 0.89815962 0.077678263 0.0024943296
-0.028739017 0.040978439 0.0012201271 0.40935224 0.91220415 0.017729847 0.0027170507
-0.025918778 0.03971532 0.0012130087 0.37783873 0.92582935 -0.0088265073 0.0015394099
0.071886912 0.039551161 0.0026812502 0.96109498 -0.19066411 0.19985937 0.0029470031
0.072324239 0.040602308 0.001353603 0.97866678 -0.15269969 0.13745601 0.003090373
-0.036448896 0.044859245 0.0010880807 0.48548183 0.87053692 0.080454551 0.0021061923
-0.034275923 0.043665364 0.0015375575 0.45315015 0.88797325 0.078476235 0.0019203172
-0.031781517 0.042403948 0.0015487084 0.42909002 0.90159351 0.054871947 0.0018799844
0.072734296 0.043520391 0.0013609057 0.98897511 -0.087343462 0.11957975 0.0047102044
-0.042001046 0.047738552 0.0028179984 0.44285467 0.8780176 0.18156222 0.0041135717
-0.040343013 0.046959512 0.0014923676 0.47018412 0.87845302 0.085130543 0.0027062776
-0.037977695 0.045627031 0.0016739658 0.45659199 0.88562745 0.084780738 0.0023214465
0.072925054 0.046495426 0.0014156796 0.99006951 -0.036044642 0.13587919 0.0054898984
-0.046258427 0.050301343 0.0014118091 0.47048566 0.87551546 0.1100729 0.002215385
-0.043272316 0.048612334 0.0014870476 0.48994973 0.86709577 0.089967996 0.0025314409
0.073000461 0.04949826 0.0013770121 0.98852402 -0.011376743 0.15063486 0.0067728427
-0.051774699 0.053290632 0.0015698329 0.44678012 0.88496995 0.13120876 0.0034858612
-0.049181338 0.051911179 0.0015276264 0.46467179 0.87752295 0.11846395 0.0029681129
0.073045142 0.052545186 0.0013803188 0.98625696 -0.0054984405 0.16512778 0.008800908
-0.060231492 0.056701779 0.0021269885 0.42812079 0.89278007 0.14020112 0.012748037
-0.05887498 0.056210242 0.0014666631 0.38279817 0.91870344 0.097208917 0.0069312118
-0.055925496 0.05508874 0.0014785416 0.36712015 0.9210397 0.13003343 0.0042642062
-0.053511251 0.054228537 0.00097808172 0.37497374 0.92303461 0.08603318 0.0092463838
0.073127188 0.055545047 0.0014068583 0.97660333 -0.018669104 0.21423666 0.015010904
-0.064251229 0.059366174 0.0014101291 0.52069604 0.84958929 0.084104672 0.0071734097
-0.061837517 0.057821304 0.0013868962 0.49113539 0.86344874 0.11507539 0.010412984
0.07327047 0.058569532 0.0014210766 0.96869427 -0.040720813 0.24489434 0.021046534
-0.066559345 0.060641274 0.0014415975 0.52075505 0.85366529 0.0083490079 0.020062208
-0.065311201 0.060138837 0.0013760248 0.54059684 0.8409124 0.024926933 0.005655786
0.073540114 0.0615221 0.0014299721 0.95058393 -0.071839496 0.30204174 0.040868174
0.074039906 0.064503789 0.0014030738 0.92304844 -0.22146976 0.31453574 0.032480966
0.074465081 0.067207493 0.0017915722 0.90054959 -0.28628507 0.32718679 0.034325376
0.075209655 0.068206169 0.0007172628 0.94613951 -0.2857818 0.15214753 0.042960137
0.074756794 0.069726847 0.0026199433 0.81857401 -0.31802374 0.47832784 0.028296597
0.07576669 0.070634149 0.0013238316 0.91843933 -0.27603704 0.28332469 0.019265803
0.076762445 0.073206864 0.0014377789 0.96752506 -0.1173974 0.22385938 0.050154969
-0.01808838 0.0029501375 0.0038682148 -0.27182952 -0.93258113 0.23748936 0.0076250476
-0.016264472 0.0026145461 0.0041432097 -0.18702374 -0.95680696 0.22258177 0.0055748615
-0.014180776 0.0023909304 0.004720022 -0.16131468 -0.9198963 0.35744712 0.0025614598
-0.010439957 0.0017706827 0.0047206171 -0.11900511 -0.94812 0.29479879 0.0039957929
-0.007253971 0.0013696927 0.0046600066 -0.071988635 -0.95114297 0.30024108 0.0043049464
-0.0043818792 0.0011232893 0.0045436108 -0.058471262 -0.95267475 0.29831517 0.0043350467
-0.0014093808 0.00095872662 0.0043867975 -0.040721308 -0.9554708 0.29226232 0.0036299136
0.0011312239 0.0010812095 0.0048389602 0.0056290072 -0.962363 0.27170888 0.0021177356
0.0049151774 0.00087628519 0.0040434599 0.043378558 -0.95550334 0.29177335 0.004128865
0.0076715634 0.0010394225 0.0042079147 0.058616009 -0.94996274 0.30681419 0.0032645874
0.010472982 0.001330941 0.0044961791 0.080655016 -0.93135023 0.35507944 0.0025426578
0.013497286 0.0015391811 0.0043388992 0.09268342 -0.93826813 0.33326069 0.0045162812
0.016584737 0.0019892855 0.0044908817 0.12575319 -0.92216408 0.36578611 0.0034500433
0.019591456 0.0023920359 0.0043317121 0.15282345 -0.93286574 0.32620022 0.0067942552
0.022358144 0.0027112861 0.0037357181 0.20091243 -0.92648071 0.3182258 0.0043619457
0.024073094 0.0029248369 0.0033683926 0.23104607 -0.91165847 0.33984801 0.0048818933
-0.027729977 0.0058074188 0.0034538731 -0.28412133 -0.95738047 0.051939528 0.011936563
-0.025549157 0.0054284846 0.0045563476 -0.30095643 -0.94305652 0.1416672 0.019607527
-0.022552492 0.0044859592 0.0046200575 -0.27286077 -0.9362992 0.22111285 0.0064999964
-0.019602546 0.0036545682 0.0047035692 -0.26114273 -0.92858815 0.2636826 0.0066933474
-0.017058009 0.0032649492 0.0054082619 -0.22988798 -0.9343403 0.27232292 0.0058634514
0.020056253 0.0031237463 0.0058623441 0.15294568 -0.86829805 0.47187504 0.0026218358
0.022775305 0.0033147724 0.0051514935 0.18710548 -0.90635937 0.37881947 0.0054680244
0.025536248 0.0036992095 0.0044854712 0.2468477 -0.91847306 0.30898783 0.0024802468
0.028528325 0.0044975239 0.0044894111 0.25919676 -0.90826946 0.328426 0.0035272751
0.03146315 0.0053358101 0.0043666339 0.28610501 -0.90779686 0.30667385 0.0032730114
0.033507586 0.005763357 0.003598369 0.3110573 -0.90335888 0.29527289 0.0029563012
-0.034103829 0.0084275771 0.0042176023 -0.3428131 -0.93539518 0.086689621 0.017945107
-0.031345498 0.0075232722 0.0047266022 -0.3400462 -0.92395377 0.17515168 0.0088699795
-0.028651705 0.0065470431 0.0047267452 -0.33683705 -0.90442318 0.26183885 0.0089996327
-0.026749991 0.0063088085 0.0059154108 -0.24944903 -0.92549223 0.28502533 0.0059773591
0.032714162 0.006229782 0.0056686425 0.30710393 -0.8767519 0.37012604 0.0052550114
0.034710195 0.0065499879 0.0046686474 0.34431615 -0.88947868 0.30045643 0.0024252101
0.037502114 0.007546958 0.0044608102 0.35335702 -0.88766074 0.29529169 0.0021791069
0.0400622 0.0085287895 0.0042129704 0.37336576 -0.88288581 0.28479934 0.0027873877
-0.042145569 0.011922765 0.0030568764 -0.47161239 -0.86701661 -0.16082282 0.009055227
-0.039943371 0.011118832 0.0044377074 -0.42566362 -0.90040451 0.089901142 0.022109907
-0.03751165 0.0099091735 0.0042234957 -0.40469047 -0.90193403 0.15080035 0.0089643318
-0.03531146 0.0091698607 0.0050191507 -0.44147056 -0.89472705 0.067582481 0.016053403
0.04133597 0.009351816 0.0049628182 0.40738457 -0.86635017 0.28892091 0.0028173856
0.043525111 0.010219992 0.0044580647 0.41878101 -0.85703886 0.30017829 0.0023144896
0.046092797 0.011440192 0.0041881311 0.44970244 -0.84979892 0.27497178 0.0027208216
-0.045395229 0.014255951 0.0046238527 -0.52063429 -0.80103129 0.29544681 0.010250822
-0.043216538 0.012900796 0.0044299192 -0.50827837 -0.83208013 0.22202638 0.0069417097
-0.041832309 0.01232255 0.005094938 -0.46262941 -0.85634547 0.22944815 0.0063358066
0.047248069 0.012358119 0.0049962341 0.46450305 -0.83223325 0.30269581 0.0024004485
0.049547326 0.013485265 0.004429623 0.49618837 -0.81811303 0.29066855 0.001973544
0.051619735 0.014604133 0.0040343064 0.50716066 -0.81053507 0.29295212 0.0023077028
0.052946914 0.01570639 0.0046184845 0.53413481 -0.79354292 0.29152989 0.0023460435
0.055231258 0.017160494 0.0042621195 0.5596903 -0.77810723 0.28512439 0.0025333867
0.056514669 0.018454729 0.0051251859 0.58664656 -0.75655872 0.28890267 0.0019520846
0.05842955 0.019683713 0.004357839 0.61764807 -0.73733842 0.27357438 0.0016903247
0.060167622 0.020742038 0.0033816348 0.64196116 -0.71060908 0.28795937 0.0021592395
0.059748385 0.021367257 0.0055431179 0.62564397 -0.68664318 0.37025759 0.0018016574
0.061493501 0.022483632 0.0044094133 0.67487836 -0.68467093 0.27525437 0.0017728185
0.063227393 0.023756981 0.0033180304 0.7147212 -0.64551407 0.2692306 0.0030337062
0.06274879 0.024328252 0.0054339189 0.68974501 -0.60701984 0.39468816 0.0024402635
0.064340547 0.0255663 0.0043584448 0.73610193 -0.60345167 0.3065944 0.0024236436
0.066030622 0.026893949 0.0030223057 0.76878893 -0.57122618 0.28751382 0.0022467761
0.06558273 0.027547097 0.0049825502 0.76334304 -0.56045371 0.32124615 0.0027205721
0.066786341 0.028781349 0.0042434912 0.78904194 -0.52129471 0.32506087 0.003109568
-0.0073372633 0.032992531 0.0056498544 0.15102752 0.86023468 0.48701844 0.00095955661
0.068135701 0.031281676 0.0045663905 0.82206792 -0.4692919 0.32244298 0.0020789173
0.069202639 0.032510519 0.0036262607 0.84369665 -0.41374955 0.34203398 0.0031755306
-0.018255977 0.035980854 0.0050863964 0.30885801 0.9031623 0.29816878 0.0017931138
-0.016187061 0.035498772 0.0044823242 0.26621807 0.91476279 0.30386999 0.0014005236
-0.0133958 0.034612183 0.0049187746 0.21498176 0.90470672 0.36781606 0.0010355567
-0.01057864 0.033945803 0.0048726518 0.18647721 0.90466183 0.38316214 0.00069771684
-0.0087056002 0.03322782 0.0057647428 0.19281128 0.8670283 0.45944068 0.0014224651
0.068806946 0.033536959 0.0055348468 0.8315627 -0.36705977 0.4168582 0.0045709475
0.069826327 0.034606222 0.0042887074 0.86332983 -0.34844992 0.36502627 0.0035959221
-0.025032133 0.03863734 0.004594747 0.38876528 0.87968582 0.27388772 0.0013522194
-0.02249248 0.037632417 0.0045810388 0.34782243 0.88861412 0.29897264 0.0019246869
-0.019762617 0.036651965 0.0045041195 0.29219159 0.91000158 0.29414487 0.0023602874
0.070769794 0.037447859 0.0044361483 0.89311278 -0.25571465 0.37008047 0.0033028761
-0.031191273 0.041365396 0.0048093693 0.42027932 0.86378008 0.27793756 0.0019703617
-0.028581988 0.040224958 0.004551088 0.39651608 0.87385142 0.28135172 0.0020754833
-0.026696196 0.039354455 0.0045441343 0.38294241 0.87838072 0.28601143 0.0018648063
0.071371138 0.040400829 0.0045722877 0.90248132 -0.17211735 0.39484558 0.0032968111
0.072105594 0.041571766 0.003207285 0.94923967 -0.16440792 0.268168 0.0031063573
-0.037238751 0.044588149 0.0044976352 0.45413837 0.85381287 0.2544837 0.0014504563
-0.034561865 0.043259643 0.0042941379 0.43448299 0.86875767 0.23766491 0.0011909796
-0.032097057 0.042193711 0.0037210772 0.42153919 0.89233088 0.16140117 0.0014343503
0.071533851 0.043418463 0.0050736559 0.89011788 -0.072681874 0.44989714 0.0033510586
0.072245471 0.043688852 0.003538359 0.94208628 -0.086421221 0.32404467 0.0021277184
-0.042726874 0.04745169 0.0048461314 0.4594827 0.83443242 0.30429944 0.0019971265
-0.040484264 0.046303794 0.0046153683 0.45794839 0.83759493 0.29785565 0.001966072
-0.038496628 0.045437388 0.003925127 0.46470645 0.84270859 0.27182737 0.0020782349
0.071599007 0.046517845 0.0052094962 0.88304919 -0.010786929 0.46915644 0.0035911279
0.072342873 0.04659155 0.0036600346 0.92097956 -0.02752509 0.38863739 0.0037445116
-0.048744921 0.050711561 0.0048820181 0.4376885 0.83419228 0.33548775 0.002406582
-0.046421032 0.049684115 0.0043027634 0.45081419 0.83453625 0.31672671 0.0022070259
-0.044088919 0.048457727 0.0041533802 0.43689349 0.83979297 0.32229173 0.0026123044
0.071548454 0.049477953 0.0052111722 0.86947346 0.03334026 0.49285313 0.0045162006
0.072354279 0.049507659 0.0036550991 0.90937018 0.0064496272 0.41593793 0.0039535356
-0.05492758 0.053620003 0.0049635656 0.36647722 0.88055313 0.30053389 0.0044079167
-0.052356657 0.052649438 0.0045881337 0.40489176 0.84859961 0.3405017 0.0024312804
-0.050126232 0.051634379 0.0042990688 0.42986166 0.8351711 0.34308615 0.0021961548
0.071461029 0.052565601 0.0050561475 0.81402266 0.070031181 0.5765959 0.0048493622
0.072351553 0.052456524 0.0035564974 0.8864764 0.021479174 0.46227512 0.0049036015
-0.066054747 0.056965366 0.0059156269 0.25115517 0.66061628 0.70746541 0.0049039181
-0.063952811 0.056365401 0.0056914128 0.26084548 0.65797174 0.70642257 0.0047416352
-0.061465818 0.056414492 0.0041436679 0.46088839 0.82333761 0.33120546 0.0078995125
-0.058769181 0.055009212 0.0046641566 0.33193183 0.82686049 0.45400777 0.0058614407
-0.055169754 0.054293126 0.00366884 0.38753703 0.89289111 0.22926074 0.0041543767
0.071169727 0.055475459 0.0049926578 0.78824407 0.05657265 0.61275673 0.007889173
0.072328232 0.055490609 0.0034723524 0.84533888 0.021581016 0.53379434 0.0065804627
-0.069524139 0.058260653 0.0056062713 0.22121225 0.69695824 0.68213958 0.0075446474
-0.067496851 0.058998473 0.0045326408 0.29478616 0.69704986 0.65362269 0.010757274
-0.063806832 0.058041066 0.0036398228 0.44746199 0.81164223 0.37551916 0.0068299109
-0.062457792 0.057467736 0.0034026445 0.46853256 0.82752252 0.30932796 0.0062873149
0.068394914 0.058827333 0.0056133694 0.46483135 0.2129586 0.85940707 0.0053058513
0.071193516 0.058283094 0.0044730585 0.76495534 0.044609852 0.64253664 0.0073874178
0.072358064 0.058333296 0.0033107342 0.87049371 0.012571896 0.49201891 0.019995326
-0.067598544 0.060313836 0.0032300549 0.28096703 0.79532701 0.53713357 0.024828028
0.06834197 0.061415594 0.0047953087 0.40224206 0.14631154 0.90376669 0.0079586739
0.071150698 0.061337639 0.0039988542 0.70312905 0.023697201 0.71066719 0.0081447205
0.072271116 0.061179459 0.0033136045 0.84961021 -0.044641625 0.52551842 0.024939582
0.068524934 0.064418897 0.0040296339 0.22412947 0.14654882 0.96347785 0.009067242
0.071025789 0.064060435 0.0036838755 0.52111799 0.018612742 0.85328168 0.014415307
0.072612211 0.064415798 0.0031738076 0.68914258 -0.077008307 0.72052211 0.029177021
0.068635069 0.068064027 0.0033206996 0.24566437 -0.13900483 0.95933664 0.020610107
0.071248934 0.067241117 0.003587293 0.50856745 -0.19974184 0.83753347 0.01840998
0.073028266 0.067264892 0.0032937389 0.75399268 -0.24837919 0.60811412 0.017900599
0.071441106 0.07006152 0.0039557773 0.3414745 -0.30818835 0.88792741 0.026964379
0.073865049 0.070507057 0.0035777667 0.68346953 -0.3067264 0.66241091 0.012395835
0.075129531 0.071634337 0.0031908005 0.838516 -0.3078422 0.44958234 0.030727347
0.071726829 0.072941944 0.0046183909 0.53673017 -0.23101507 0.81151265 0.018248471
0.073995925 0.073335797 0.0044559403 0.74469149 -0.26809341 0.61119598 0.014932265
0.075568035 0.073490515 0.0035636399 0.86229563 -0.23510782 0.44852045 0.038836543
0.073750257 0.075436585 0.004545196 0.71647561 -0.25310984 0.65007544 0.061248735
-0.013526053 0.0028958903 0.0062962384 -0.16028814 -0.87209928 0.46233168 0.00092870696
-0.010111766 0.0025932982 0.0067540444 -0.11221681 -0.86951816 0.48098394 0.0014118707
-0.007201721 0.0024342416 0.0070948517 -0.08206296 -0.87655586 0.47425246 0.0016286029
-0.0044111521 0.002268261 0.0071646972 -0.033863656 -0.87524635 0.48249051 0.0019161946
-0.0015157731 0.0022334815 0.007311522 -0.027385194 -0.87503392 0.48328635 0.0019613751
0.0014802944 0.0022186819 0.0073236441 -0.0040011527 -0.87457079 0.48488137 0.0019732437
0.004455287 0.0022442525 0.0072349478 0.035558864 -0.8749786 0.48285398 0.00161068
0.0074507794 0.0023971624 0.0071717538 0.05930081 -0.87128198 0.487187 0.0013548632
0.010218515 0.0025158443 0.0068917773 0.078858204 -0.88243681 0.46377423 0.0018612904
0.01361531 0.002676374 0.0065227188 0.11579252 -0.87091219 0.47760236 0.0016637151
0.015971346 0.002849421 0.006354908 0.12088154 -0.84666127 0.51822037 0.0006699193
-0.024308207 0.0057321414 0.006377168 -0.30041713 -0.85694414 0.41880339 0.0012238027
-0.022024825 0.0054115322 0.0071435347 -0.25605279 -0.85927153 0.44281986 0.0010961622
-0.018966697 0.0048655793 0.0077316798 -0.21937923 -0.8487705 0.48110434 0.0011029837
-0.016160298 0.0041192789 0.0076157749 -0.1813851 -0.85815686 0.48027727 0.0010888092
-0.013777005 0.0037772916 0.0078327954 -0.15256561 -0.84880811 0.50620991 0.0013290119
-0.01077609 0.0035011282 0.0082075261 -0.11582167 -0.85003799 0.51382947 0.0012131894
-0.0075916518 0.0032714147 0.0084685087 -0.078469448 -0.84900606 0.522524 0.0015368322
-0.0044433735 0.0032260166 0.0087702293 -0.047745045 -0.85309094 0.51957315 0.0021092501
-0.0014852033 0.0031924625 0.008932624 -0.021648185 -0.85007876 0.52621043 0.002114096
0.0013594562 0.0031046318 0.0088252658 0.0065470831 -0.84648752 0.5323683 0.0018645896
0.0047360095 0.0031546475 0.0087422244 0.03719284 -0.8467381 0.53070825 0.0019482274
0.0079405522 0.0032955541 0.0086320573 0.064707577 -0.82481617 0.5616861 0.001314322
0.010566105 0.0034015151 0.008389689 0.092661165 -0.82332116 0.5599609 0.00084339798
0.013065192 0.0035226252 0.0080260634 0.11033086 -0.84773391 0.51882011 0.00076068379
0.016388863 0.0039761974 0.0079308124 0.13031006 -0.83605713 0.53294265 0.00039747587
0.019376963 0.0043541752 0.0077223256 0.15139493 -0.82646012 0.54225749 0.00058119063
0.022436952 0.0047131293 0.007465051 0.16528109 -0.80482793 0.57002991 0.0016730571
0.025374582 0.0049033207 0.006933365 0.19722475 -0.8198092 0.53760147 0.0048690271
0.028350474 0.0055266232 0.0068072849 0.21485899 -0.81467175 0.53865147 0.0034959044
0.030356525 0.0057601687 0.0062265918 0.27432317 -0.85141325 0.44703719 0.0030131855
-0.033574276 0.0088358764 0.006003581 -0.35215119 -0.88781816 0.29625762 0.0043046521
-0.031097157 0.0085261231 0.0073282346 -0.31004336 -0.84956032 0.42675561 0.0010944934
-0.02849232 0.0077688894 0.0076297433 -0.29395375 -0.84096694 0.45427516 0.0011317377
-0.0257478 0.0069021415 0.0077467295 -0.29325017 -0.84818488 0.44111985 0.00078839442
-0.023037866 0.0063127172 0.008246663 -0.25826755 -0.84495211 0.46835229 0.00075659523
0.023221422 0.0060422719 0.0088262316 0.16731879 -0.75140095 0.6382798 0.00026032911
0.025815422 0.0063321032 0.0085847033 0.18125007 -0.74777853 0.63872969 0.0011743751
0.028699547 0.0067187417 0.0082614394 0.19571133 -0.75493014 0.62592131 0.0019414834
0.031650096 0.006970983 0.0074862912 0.26306769 -0.80122328 0.53743517 0.0038609731
0.034518961 0.0078599518 0.0074121915 0.27486026 -0.79360491 0.5428102 0.0035075091
0.037204325 0.0084795132 0.0068415147 0.3217169 -0.81464267 0.48255101 0.0024615685
0.039264753 0.0088830926 0.0061726198 0.33752704 -0.81713939 0.4672887 0.0016620597
-0.037606869 0.011037963 0.0069878078 -0.38012299 -0.82423961 0.41968518 0.0011545473
-0.034678478 0.0099807214 0.0074188933 -0.35992438 -0.83973694 0.40656656 0.00077040144
-0.031868581 0.0094413655 0.0084880218 -0.30260727 -0.83219433 0.46463045 0.00087700586
0.035433944 0.0092208181 0.0088534802 0.25334188 -0.694978 0.6729216 0.0028075066
0.037806358 0.0095756548 0.0081520537 0.31074187 -0.76556098 0.56334347 0.0040448303
0.040548682 0.010302193 0.0075021344 0.34353462 -0.80201381 0.48862845 0.0022249904
0.043288801 0.011278123 0.0070303702 0.3870804 -0.78419912 0.48497468 0.0027243614
0.045314904 0.011783716 0.0062781349 0.39785871 -0.78450853 0.47566259 0.0027837341
-0.045404334 0.014892978 0.0061705783 -0.52063376 -0.80103141 0.29544765 0.010250453
-0.043413103 0.014298429 0.0073421821 -0.43673846 -0.79501814 0.42095807 0.00222131
-0.040617436 0.01282232 0.0075316979 -0.42109022 -0.80263513 0.42244524 0.00096461421
-0.038184665 0.012183554 0.0086090043 -0.36111492 -0.78015286 0.51084006 0.00062028761
0.044041019 0.012463566 0.00829734 0.36475369 -0.76008505 0.53779685 0.0044367043
0.046602886 0.013305497 0.0075005493 0.41718575 -0.77441639 0.47564214 0.0020384821
0.049066678 0.014355517 0.0069258721 0.46138164 -0.75557351 0.46501139 0.0018823982
0.051032066 0.014989937 0.0060983971 0.46995893 -0.75236529 0.46161145 0.0025095651
0.049980078 0.015641896 0.008021391 0.44872683 -0.7443012 0.49463108 0.0028978896
0.052395973 0.016744858 0.0073124543 0.48219818 -0.73300719 0.47977638 0.0025774762
0.054400589 0.017591199 0.0064851828 0.51972818 -0.71654242 0.4652414 0.0014441577
0.053446934 0.018371532 0.0085405326 0.48235789 -0.63961959 0.59851283 0.0021660833
0.055630375 0.019263798 0.0075388402 0.52739346 -0.69582254 0.48753157 0.0020068863
0.057743978 0.020416679 0.0067839758 0.56613928 -0.66439539 0.48791918 0.0016663451
0.056661513 0.021203918 0.0088149626 0.49976516 -0.59041709 0.6337527 0.0014578197
0.058822189 0.022131613 0.0077364868 0.58994687 -0.6280387 0.50747412 0.0028448387
0.060732409 0.023244778 0.0068724086 0.61178523 -0.59931225 0.51627874 0.0012364829
0.059502918 0.024022581 0.0089303292 0.54905909 -0.57069916 0.61060345 0.0034367815
0.061829746 0.025209727 0.0077250204 0.64490032 -0.54420227 0.53660738 0.0034100227
0.063531972 0.026213685 0.0067080357 0.67051953 -0.54177368 0.50683802 0.0016989997
0.062729128 0.02729632 0.0086818784 0.60229391 -0.49184826 0.62875056 0.0037242782
0.064574122 0.028456232 0.0074828006 0.70565283 -0.4545199 0.5435676 0.002293763
0.066213638 0.02959854 0.0063859113 0.72441828 -0.46253249 0.51115733 0.0021780289
-0.012694336 0.032767303 0.0084906984 0.2180367 0.84790194 0.48324147 0.0017093231
-0.0099349795 0.032490913 0.0078134062 0.20658194 0.85452139 0.47656816 0.0013349178
-0.0073846332 0.031870861 0.0079450198 0.15126559 0.83903635 0.52262491 0.0016331964
-0.0040732156 0.031151632 0.0082607977 0.10396826 0.82769614 0.55146146 0.001166185
-0.001517639 0.031099256 0.0078616012 0.086132936 0.77230597 0.62938428 0.00070046773
0.0015922622 0.030259397 0.008769121 0.046346709 0.75904942 0.64938122 0.0005449318
0.065478705 0.030972363 0.0083438726 0.66566968 -0.35984579 0.65375447 0.0012912393
0.066900462 0.031720202 0.007061102 0.73844892 -0.39571822 0.54598564 0.0023569483
-0.021546651 0.035610009 0.0083649624 0.3170853 0.83486289 0.44995669 0.0020951952
-0.019320451 0.035163868 0.0077591217 0.29272807 0.84697545 0.44378254 0.0018068328
-0.016455047 0.034329716 0.007515905 0.24925084 0.85568941 0.45350814 0.0020235712
-0.013473174 0.033623252 0.0072721546 0.22089608 0.86682957 0.4470028 0.0017828768
-0.011158836 0.033361878 0.0066019055 0.19281502 0.86702353 0.45944819 0.0014360913
0.065974742 0.033071782 0.0088659832 0.67403591 -0.32888058 0.66144776 0.0041957898
0.067793004 0.034392808 0.0075399093 0.75501168 -0.29792622 0.58412093 0.0020373778
0.069215178 0.035581503 0.0062629073 0.78194118 -0.31279343 0.53919226 0.0033180986
-0.028238406 0.038489878 0.0081968131 0.36871642 0.82098764 0.43592158 0.001990401
-0.025583431 0.037676468 0.0075169243 0.36672109 0.82180929 0.43605646 0.0019973472
-0.022959596 0.036628582 0.0075065996 0.30249423 0.84168214 0.44729018 0.001965014
-0.02060448 0.036334772 0.0062608002 0.32316032 0.87304956 0.36517382 0.0040415479
0.068319283 0.037298072 0.0081761209 0.76059532 -0.20094953 0.61734438 0.0025192273
0.069571771 0.037674796 0.0067307404 0.80007887 -0.22565106 0.55583757 0.0025774892
-0.034094945 0.041496601 0.0077283881 0.40255982 0.80775428 0.43067238 0.0022993803
-0.031652179 0.040392909 0.0075952741 0.39347842 0.80133933 0.45058852 0.0018448607
-0.028904025 0.039515812 0.0067957612 0.38176009 0.82794857 0.41080463 0.0012254113
0.068654396 0.040272653 0.0085526099 0.69520551 -0.10831175 0.71060389 0.0031701978
0.069902353 0.040524144 0.0071111694 0.7943874 -0.13046207 0.59323549 0.0026732336
-0.040242217 0.044303916 0.0082751662 0.39301816 0.7705009 0.50186169 0.002065253
-0.037812226 0.04393816 0.0067724576 0.43488792 0.83362198 0.34050971 0.0018223454
-0.035439909 0.042448044 0.007246858 0.40350804 0.80650192 0.43212959 0.0022006349
0.068785325 0.043518052 0.0087454729 0.69090146 -0.013131708 0.7228297 0.0034920471
0.070094138 0.043437466 0.0072648772 0.78195351 -0.046275537 0.62161672 0.0028390537
-0.04632882 0.047517497 0.0082090404 0.4039959 0.7807557 0.4766632 0.0015283788
-0.043421231 0.046691164 0.0071567446 0.41364485 0.79995799 0.43470117 0.0014606796
-0.041076988 0.045574002 0.0069599291 0.42716986 0.80862051 0.40454757 0.0011201131
0.068727404 0.046613533 0.0087046232 0.67020029 0.059517108 0.73979002 0.0036146145
0.070184618 0.046410087 0.0072239167 0.76614934 0.027812274 0.6420604 0.0037547245
-0.054323118 0.050513297 0.0089028915 0.22238362 0.687868 0.69092923 0.0017041583
-0.052248858 0.050312959 0.0081615904 0.30264482 0.73703307 0.60430819 0.0031155697
-0.049198963 0.049521424 0.0073542316 0.39752963 0.79673529 0.4551737 0.0018335194
-0.046743657 0.048695695 0.0067162551 0.41686073 0.79955012 0.43237349 0.002691505
0.068309195 0.049318831 0.0085793873 0.60872525 0.10459877 0.78645575 0.0050178617
0.070163243 0.049404677 0.0070225615 0.72274047 0.069223464 0.68764406 0.0045629819
-0.064522661 0.053104617 0.0082815513 0.22915623 0.66460127 0.71119094 0.0026230081
-0.062281769 0.053246122 0.0080019981 0.18905754 0.70861268 0.67979801 0.0046615037
-0.058478661 0.052662797 0.0079242662 0.1862012 0.73203582 0.65532643 0.0030625376
-0.055482268 0.052257147 0.0073657981 0.26474407 0.77578706 0.5727697 0.0026595057
-0.052631021 0.051614929 0.006644249 0.36420283 0.77077568 0.52274394 0.0015480119
0.065056249 0.052578185 0.0084529715 0.26926169 0.31357551 0.91058695 0.0038712793
0.068201721 0.052123703 0.0079036709 0.54660934 0.17588867 0.81870717 0.0057855411
0.070050158 0.05221276 0.0066879136 0.73515761 0.092026435 0.67162085 0.0045028599
-0.069087349 0.056982134 0.0062857531 0.20046607 0.63295627 0.74778324 0.0016614852
-0.066887282 0.055744331 0.0068402304 0.20100972 0.61029285 0.76624918 0.0015728653
-0.064592846 0.055190843 0.0068525658 0.2339666 0.64813131 0.72469682 0.0031936138
-0.061370298 0.054567162 0.0065401569 0.22781092 0.74811411 0.62323952 0.0090271123
0.065557301 0.054494824 0.0074952617 0.29827136 0.27828747 0.91301167 0.0023471364
0.067924246 0.055448424 0.0068720146 0.35495043 0.25488347 0.89946914 0.0046434742
0.069773018 0.054901551 0.0063270964 0.70279896 0.12333431 0.70061558 0.0029358545
-0.067966394 0.057346605 0.0060004382 0.20047027 0.63297105 0.74776959 0.0016518873
0.068115771 0.057422914 0.0061318912 0.42682543 0.2085648 0.87995499 0.0071692616
-0.018894874 0.0058217822 0.0093677463 -0.18948276 -0.79100919 0.5817222 0.00069858169
-0.016059624 0.0053626988 0.0096157547 -0.16381955 -0.79764587 0.58045179 0.0013221755
-0.013348127 0.005239021 0.010139933 -0.13772112 -0.78559095 0.60322458 0.00094928569
-0.01032069 0.004922119 0.010313918 -0.10107509 -0.77877861 0.61910236 0.0015526947
-0.0074982718 0.0048087994 0.010534706 -0.073188394 -0.77370429 0.62930536 0.0016852012
-0.0045734248 0.0046033845 0.010536434 -0.033746172 -0.76481187 0.64336926 0.0018732081
-0.001456199 0.0045753131 0.010627704 -0.008184867 -0.74720812 0.66453969 0.0022344571
0.0015764973 0.0045040227 0.0105461 0.015737372 -0.74216962 0.67002732 0.0023110134
0.0044671735 0.0045879791 0.010547517 0.041422356 -0.74313331 0.66786003 0.0023888266
0.0074796746 0.0046614464 0.010416871 0.061806787 -0.74998403 0.658562 0.0021339578
0.010410497 0.0048094969 0.010274252 0.091904305 -0.75526726 0.6489414 0.0015639769
0.013310007 0.0048132152 0.0098174652 0.11391919 -0.79503751 0.59576654 0.0013100606
0.016416293 0.00531362 0.0098267309 0.13769823 -0.75564438 0.64034426 0.001133753
0.019298032 0.0056088571 0.0094371289 0.15808403 -0.75933975 0.63119942 0.00053422328
0.021374594 0.005838993 0.0090966998 0.15432532 -0.75502068 0.6372813 0.00088135595
-0.027733376 0.0088660344 0.0099106357 -0.2764307 -0.79171121 0.54477465 0.0007525715
-0.025229888 0.0082408441 0.010169148 -0.24806072 -0.79522699 0.55324489 0.001666504
-0.022320822 0.0074200118 0.010255336 -0.2072919 -0.75859737 0.61770552 0.0012217092
-0.020077815 0.0073928512 0.011013746 -0.19719227 -0.7501229 0.63121384 0.0013729766
-0.016972709 0.0066294521 0.010995608 -0.16559935 -0.77357334 0.61168724 0.00091354165
-0.013473975 0.0063478057 0.01148035 -0.12294443 -0.71478891 0.68844867 0.00082281837
-0.010530397 0.006273997 0.011843923 -0.085438848 -0.71901244 0.68972546 0.0013441565
-0.0084694019 0.0060978988 0.011880729 -0.042554919 -0.70552778 0.70740342 0.0022442755
0.0074019893 0.0060439883 0.011858863 0.052662332 -0.66876549 0.741606 0.0031864799
0.010912064 0.0061525973 0.011653734 0.082248956 -0.71698087 0.69222361 0.0016510917
0.013641628 0.0065399981 0.011670266 0.10244148 -0.68205917 0.72408634 0.0020039256
0.016683405 0.0067358236 0.011354925 0.13111484 -0.6924839 0.70941877 0.0019130356
0.019615168 0.0069850301 0.010972301 0.16174656 -0.69863838 0.69695228 0.0011238423
0.022578448 0.0073071038 0.010499351 0.17623776 -0.71748793 0.67390746 0.00072781392
0.02540203 0.0078737894 0.010277827 0.19017582 -0.70324481 0.68504012 0.0005588475
0.028391853 0.008235055 0.0098627694 0.19842741 -0.69465292 0.69143617 0.00044062303
0.031298295 0.0085670296 0.0094680274 0.20654632 -0.68308127 0.70052743 0.00083787844
0.033290219 0.0087975711 0.009120686 0.24718587 -0.71420676 0.65483427 0.0041353418
-0.036891896 0.011866893 0.009092398 -0.36109424 -0.78016806 0.51083148 0.00062290637
-0.03435858 0.011365141 0.0099701434 -0.32262844 -0.77248651 0.54696935 0.00062945473
-0.031416792 0.010569752 0.010449623 -0.29516354 -0.77010638 0.56552166 0.0012529778
-0.028640827 0.0099753523 0.01100652 -0.27028394 -0.74983841 0.60389477 0.0018429633
-0.025612976 0.0095442384 0.011702439 -0.20254163 -0.71447831 0.66969967 0.0014672201
0.023910264 0.0090470118 0.011903092 0.18228246 -0.6801427 0.71005565 0.00093136693
0.026157536 0.0093169203 0.011573918 0.19018224 -0.68206728 0.70612675 0.00063444657
0.029008733 0.010055711 0.011382487 0.19859762 -0.67312849 0.71236014 0.00042831394
0.031985525 0.010103147 0.010622535 0.19816963 -0.66712165 0.71810687 0.0010929261
0.034292508 0.0099958992 0.0099269226 0.20945786 -0.67878568 0.70383048 0.0016963807
0.037257176 0.01089184 0.009857066 0.25733843 -0.69155443 0.67492914 0.0020535029
0.039871525 0.011536874 0.0095115313 0.30508566 -0.69053662 0.6558063 0.0018036574
-0.040456366 0.014042119 0.0096821561 -0.40635526 -0.75863224 0.50926667 0.00053086178
-0.037498977 0.013244911 0.010638555 -0.35102648 -0.74034011 0.57330358 0.00030120244
-0.034923285 0.012608401 0.011340894 -0.31646731 -0.72524559 0.61144686 0.0013877717
0.034760162 0.012314109 0.011671843 0.2087701 -0.61062598 0.76390505 0.00026985686
0.037790447 0.012710287 0.011202401 0.23258558 -0.60965765 0.75777406 0.0011812776
0.040780429 0.01329841 0.010695691 0.26852846 -0.623761 0.7340399 0.00068765582
0.043515727 0.013760253 0.010033458 0.34157971 -0.66381061 0.66534114 0.0022945774
0.046021771 0.014525977 0.0095272437 0.37639785 -0.6603862 0.64978057 0.0027251223
-0.043612979 0.016124807 0.010015048 -0.48230442 -0.71666026 0.50376636 0.0029491733
-0.040535413 0.015461985 0.011488833 -0.39754602 -0.70734298 0.58448541 0.001497595
0.041619569 0.015118334 0.011866987 0.24454951 -0.56540704 0.78772479 0.00043005781
0.043647885 0.015656987 0.011523115 0.28600532 -0.56840634 0.77143717 0.0022428457
0.046636295 0.016266672 0.0107736 0.33195466 -0.58846778 0.73723245 0.0011344573
0.049257476 0.016877413 0.0099515757 0.40456042 -0.64609993 0.64721394 0.0024431695
0.051623266 0.017692013 0.009241973 0.44831136 -0.6450454 0.61881602 0.0025055911
0.047568485 0.018209206 0.011866209 0.31893599 -0.54938251 0.7723074 0.00060130464
0.049765933 0.018928779 0.011373117 0.3681266 -0.53804278 0.75828272 0.0013988359
0.052457735 0.019497583 0.010328843 0.42000094 -0.58736056 0.69181412 0.0032156722
0.054860253 0.020409508 0.009554741 0.48330998 -0.58812088 0.64847922 0.0018175921
0.053182751 0.021615326 0.011519779 0.39004403 -0.49054754 0.77924889 0.0011471264
0.055593941 0.022383371 0.010620902 0.45314172 -0.5022186 0.73650461 0.0015033648
0.057847083 0.023110325 0.0096338829 0.53229421 -0.54078567 0.65131688 0.0025637094
0.056291763 0.024575708 0.011655004 0.42569461 -0.43153509 0.79533738 0.002146292
0.058620978 0.025368387 0.010649935 0.48598266 -0.44056359 0.75480098 0.001303757
0.060764935 0.026091151 0.0095623853 0.57689983 -0.49828058 0.64722717 0.0016217417
-0.010303523 0.029659858 0.011723857 0.17360088 0.67953664 0.71280628 0.0012910088
-0.0074182767 0.029446665 0.011250633 0.1416515 0.75024688 0.64580524 0.0015538057
-0.0041982052 0.029269511 0.010836674 0.12982327 0.75756532 0.63971931 0.00093592837
-0.0013338753 0.028776053 0.010941599 0.089794368 0.75789142 0.64617151 0.00087075698
0.0017079045 0.028398776 0.011056605 0.047589615 0.70514512 0.70746422 0.0022563539
0.0051798299 0.02829239 0.011058402 -0.003345191 0.68485129 0.72867525 0.0013166406
0.059360567 0.027867043 0.011570326 0.47088951 -0.35824722 0.8061775 0.0014416556
0.06158261 0.028476134 0.010365356 0.54796207 -0.38421211 0.74304688 0.0019605246
0.063431889 0.029339606 0.0093673086 0.6297341 -0.42405155 0.65085727 0.0019689996
-0.019275343 0.032464486 0.01159607 0.2557326 0.699076 0.66775262 0.0012368256
-0.016344257 0.031993978 0.010991626 0.24263917 0.74304026 0.6237126 0.0030377537
-0.013330225 0.031480335 0.010491718 0.20917168 0.76446366 0.60978889 0.002299052
-0.010426503 0.031021966 0.010155539 0.17253092 0.78145438 0.59963495 0.0029374214
-0.0077661625 0.030482242 0.010135401 0.14244677 0.77583605 0.61464417 0.0013734417
-0.0050067184 0.030366752 0.009645164 0.11791041 0.7693823 0.62781215 0.0011543388
-6.6474029e-05 0.030027132 0.009293125 0.09102381 0.76637077 0.63591707 0.00093571143
0.062025458 0.031217327 0.011320923 0.51006103 -0.29787159 0.80691403 0.00097525958
0.064223737 0.031623248 0.0098717911 0.62204295 -0.34437564 0.70318413 0.0017545158
-0.027802827 0.035750657 0.011681329 0.30791584 0.68275028 0.66260087 0.0010002919
-0.025128897 0.035217114 0.010967711 0.31307012 0.75776595 0.57251889 0.0016105346
-0.022386849 0.03446747 0.010516211 0.29310149 0.77290183 0.56277382 0.00085801689
-0.01957909 0.033704843 0.010184577 0.27225727 0.76998538 0.57706034 0.0012616139
-0.017147828 0.033498988 0.0093193473 0.24412283 0.78518832 0.56910747 0.0011055662
0.062614806 0.033768229 0.011799651 0.50022185 -0.21060786 0.83989429 0.0022424599
0.064636789 0.034409452 0.010582708 0.58216107 -0.25510892 0.77201551 0.001627569
0.066443138 0.034999166 0.009326959 0.6749565 -0.2681565 0.68740517 0.0019706679
-0.033524621 0.038525879 0.011512324 0.33175775 0.69860429 0.63394701 0.003128293
-0.031225098 0.03792277 0.010950646 0.33595517 0.74542218 0.5757429 0.0011048845
-0.028506178 0.037199147 0.010295447 0.34074286 0.7392118 0.58091331 0.0013490809
-0.025919203 0.036576658 0.00959667 0.32357579 0.76487517 0.55701405 0.00094088545
0.064722739 0.037367418 0.011229374 0.5318256 -0.12983772 0.83684152 0.0012933637
0.066857457 0.037576836 0.0096985707 0.65560484 -0.177976 0.73383027 0.0023279374
-0.039934821 0.041641541 0.011471021 0.31643206 0.69211102 0.64873201 0.0015366571
-0.037269529 0.041036349 0.010664513 0.3620818 0.73103154 0.5783509 0.0018940753
-0.034676086 0.039963245 0.010430951 0.34417403 0.74753487 0.56809855 0.0013351698
-0.031850539 0.039324813 0.0094968472 0.3608157 0.76053733 0.53981024 0.00092505896
0.064978905 0.040356573 0.011400282 0.51315331 -0.035374418 0.85756761 0.0029786343
0.067236729 0.040489938 0.0098618018 0.62761611 -0.077780798 0.7746278 0.002573669
-0.046339467 0.044625249 0.011473124 0.279576 0.67515326 0.68264592 0.0016607646
-0.043443002 0.043946277 0.010768263 0.33144978 0.70852464 0.6230039 0.0014901513
-0.040593248 0.043044377 0.010219715 0.34448531 0.73416704 0.58508855 0.0017606877
-0.038337037 0.042536125 0.0094529213 0.37189043 0.74333292 0.55601591 0.0010257029
0.062534072 0.044645756 0.01188034 0.17121431 0.24377169 0.95459998 0.0036224951
0.064777426 0.042900667 0.011425582 0.48226452 0.030649154 0.87548941 0.0025380279
0.0674349 0.04342876 0.0098451432 0.60242832 0.00018402716 0.79817301 0.0030406646
-0.058310114 0.047767818 0.01178952 0.12393509 0.56385696 0.81652039 0.0019507009
-0.055161823 0.047454588 0.011740112 0.12482171 0.59459186 0.79427958 0.0023400551
-0.052454975 0.047244418 0.011310746 0.20415755 0.60285318 0.77128971 0.0010876041
-0.049183365 0.046663299 0.010671473 0.28277975 0.67750692 0.67898458 0.0022298959
-0.046458308 0.04599886 0.010106972 0.30804479 0.71153831 0.63152331 0.0017771021
-0.04408684 0.045405518 0.0094999084 0.36707345 0.72071528 0.58807027 0.0012096445
0.05919414 0.045782831 0.011669392 0.10083251 0.28853098 0.95214641 0.0013846696
0.061763752 0.046189141 0.011477649 0.19658682 0.27807629 0.94022721 0.0038301172
0.065390967 0.045902461 0.010722545 0.48830396 0.10699303 0.86608994 0.0028435502
0.067545749 0.046192851 0.0095889876 0.59553087 0.062944755 0.80086261 0.0043252981
-0.060750045 0.050571017 0.010072183 0.07477136 0.60389054 0.79355246 0.0016113364
-0.058221102 0.049685877 0.010517567 0.13906798 0.61294329 0.77779222 0.0034576349
-0.055152193 0.04936 0.010236538 0.17973711 0.62901145 0.75633276 0.0021798355
-0.052445769 0.048876647 0.0098222364 0.25871286 0.69300491 0.67291296 0.002229786
-0.050506361 0.048351899 0.0095957629 0.32000631 0.66537446 0.67444259 0.0025174846
0.062192686 0.048889067 0.01029799 0.19782829 0.30163229 0.93267465 0.0031147145
0.064740248 0.049401119 0.0098595023 0.25232941 0.28949499 0.92332149 0.0020984979
0.066974208 0.04905989 0.0093526235 0.50737709 0.18545036 0.84153235 0.0035581724
-0.058306463 0.051265404 0.0092894547 0.13851054 0.65543991 0.74243748 0.0012800981
0.064979345 0.051234782 0.0091042994 0.24835689 0.31144971 0.91723382 0.0027421247
-0.019842947 0.0085600261 0.012403948 -0.17680404 -0.69816512 0.69376206 0.0015454944
-0.016541522 0.0082182791 0.012799993 -0.13970849 -0.66619992 0.73257029 0.0010118235
-0.013456165 0.0077521848 0.012881175 -0.10160696 -0.66303432 0.74166131 0.0015340946
-0.010479854 0.007758453 0.013231194 -0.066191025 -0.6450147 0.76129806 0.0010929138
-0.0076439013 0.007618621 0.01331529 -0.030396681 -0.62922996 0.7766245 0.001773342
-0.0046225372 0.0074524833 0.013292756 -0.019616328 -0.6327759 0.77408648 0.0019574477
-0.0014453507 0.0073695835 0.013255479 0.0015858421 -0.62697893 0.77903461 0.0018887367
0.0015889059 0.0074278284 0.013254228 0.023118874 -0.60864055 0.79310924 0.0020518082
0.0045116795 0.0074396939 0.013154062 0.031223252 -0.60280997 0.79727358 0.0022461542
0.0074076499 0.0075248685 0.013051117 0.057542488 -0.58303267 0.81040835 0.0026053456
0.010493311 0.0075347358 0.012835109 0.074608028 -0.60278404 0.79440862 0.0018555415
0.01358448 0.0080468971 0.012907233 0.091674991 -0.5991376 0.79538029 0.0016728307
0.016524866 0.0082172938 0.01266138 0.11238878 -0.61494929 0.78051656 0.0019896938
0.019406855 0.0085268952 0.012447835 0.14101715 -0.61053717 0.7793321 0.0022948766
0.021570096 0.0087428493 0.012210079 0.16221945 -0.67157644 0.72295916 0.0019320215
-0.028479284 0.011513695 0.012848605 -0.24195781 -0.69499004 0.67708588 0.0012233711
-0.025464084 0.010889369 0.013179405 -0.17970306 -0.65762174 0.7316013 0.001472601
-0.022306854 0.010662261 0.01378425 -0.1665771 -0.64949387 0.74189609 0.0017111354
-0.01960488 0.010174583 0.01395351 -0.16005316 -0.63727671 0.75383109 0.0023090169
-0.016738119 0.0099681979 0.01428242 -0.11858171 -0.59174937 0.79735255 0.0013372288
-0.01355705 0.0095518846 0.014389321 -0.07939548 -0.61576247 0.78392154 0.0010756749
-0.010599869 0.0097088944 0.014716368 -0.049190607 -0.5654968 0.82328218 0.0014789959
-0.0076095462 0.0095569976 0.014730243 -0.024305901 -0.54249215 0.8397091 0.0015117631
-0.0043038875 0.0095725851 0.014773672 -0.0037327411 -0.49480125 0.86899817 0.0021373958
-0.001509296 0.0094785951 0.014689151 0.013767221 -0.4903588 0.87141192 0.0017802996
0.001287281 0.0095649157 0.014669079 0.029607484 -0.47611317 0.87888551 0.0018551155
0.0045755468 0.0096558332 0.014588906 0.044382073 -0.46589252 0.88372755 0.0018595492
0.0077475258 0.0099770324 0.014573348 0.062391169 -0.45992848 0.88576138 0.0016994831
0.010555619 0.010048385 0.014418211 0.066303536 -0.45315439 0.88896286 0.0015347665
0.013500022 0.010344472 0.014326591 0.084257476 -0.46166733 0.88304245 0.0017931331
0.016479658 0.010422211 0.014061578 0.10219737 -0.47901282 0.87183857 0.001918345
0.019533169 0.010402812 0.013679439 0.1184653 -0.50218707 0.85660619 0.0018559174
0.022524232 0.010460443 0.013248963 0.14519726 -0.55900544 0.81635207 0.002367212
0.025436614 0.01070867 0.012881465 0.16559765 -0.57584554 0.80061191 0.0020398474
0.028669164 0.011217146 0.012513976 0.188348 -0.62919807 0.75407887 0.001274835
0.031044681 0.011682563 0.012225784 0.19809352 -0.60525453 0.77099025 0.00052395667
-0.036136173 0.013810963 0.012141161 -0.33650568 -0.71616292 0.61145288 0.0014984102
-0.03458178 0.013793135 0.012817542 -0.2847527 -0.67731601 0.67835021 0.0015831128
-0.031296518 0.013825187 0.014081834 -0.21492869 -0.58088088 0.78510064 0.0012700292
-0.028318688 0.01297782 0.014274618 -0.20743899 -0.62638831 0.75140315 0.0016732879
-0.025189521 0.012520745 0.014715788 -0.17716481 -0.61325008 0.76976424 0.0022956321
-0.023997743 0.012357278 0.014865987 -0.18078527 -0.59655035 0.7819491 0.0025966016
0.014798009 0.012026129 0.014990838 0.064583063 -0.42444047 0.90314972 0.0015716893
0.017233346 0.01231292 0.014890105 0.088825047 -0.3912169 0.91600186 0.0004740681
0.019616673 0.012505218 0.014745152 0.094546072 -0.37323049 0.92290843 0.0018551269
0.022631411 0.012854807 0.014552683 0.12122232 -0.40482882 0.90632159 0.0018035267
0.025546312 0.013202749 0.014322478 0.13267128 -0.42232123 0.89668453 0.0019803236
0.028479498 0.013390761 0.013943123 0.15604906 -0.45084473 0.87885594 0.0014171796
0.03181475 0.012980793 0.012945293 0.19760525 -0.56759584 0.7992416 0.0016338011
0.034365743 0.013713157 0.01283652 0.19615933 -0.54526925 0.81498647 0.00079969165
0.03727166 0.014289153 0.012454586 0.21107197 -0.55573356 0.80411994 0.00050349685
0.039511763 0.014654612 0.012126256 0.23749514 -0.57208681 0.78505588 0.00069914956
-0.039063014 0.015330245 0.012224145 -0.34429723 -0.69021904 0.63644093 0.002087218
-0.037697803 0.016216729 0.013739173 -0.31926528 -0.62778199 0.70990109 0.0016278181
-0.033955455 0.015319703 0.014493154 -0.22153114 -0.56524283 0.7946223 0.00094013009
0.026220329 0.015014561 0.014979871 0.10249296 -0.32753167 0.93926477 0.00074337178
0.028948698 0.015688322 0.014899456 0.13141438 -0.3742601 0.91796494 0.00078456453
0.031661488 0.01593044 0.014648562 0.14558081 -0.38828537 0.90996742 0.0021535337
