# .PCD v0.7 - Point Cloud Data file format
VERSION 0.7
FIELDS x y z normal_x normal_y normal_z curvature
SIZE 4 4 4 4 4 4 4
TYPE F F F F F F F
COUNT 1 1 1 1 1 1 1
WIDTH 572
HEIGHT 1
VIEWPOINT 0 0 0 1 0 0 0
POINTS 572
DATA ascii
-0.019265581 0.032309629 0.011354458 0.24862473 0.7447328 0.61932117 0.0014577338
-0.016423112 0.031840652 0.010789681 0.23597467 0.75898087 0.60684764 0.00092579494
-0.013562728 0.031261865 0.010450933 0.20040657 0.77350396 0.6012727 0.001481666
-0.010801743 0.030804649 0.010209932 0.17854775 0.72075486 0.66980082 0.0012793915
-0.0076946146 0.030426443 0.0097965579 0.1492786 0.76857871 0.62209541 0.0014332111
-0.0049064634 0.030183939 0.0095162969 0.11359751 0.77284652 0.62434268 0.0012772176
-0.0016006093 0.030037243 0.0091173537 0.10006582 0.78942299 0.60563856 0.0021709674
0.011557535 0.030032163 0.00900607 -0.081840478 0.79776776 0.59738499 0.0036475842
0.014216085 0.030245215 0.0092567327 -0.12303314 0.77111781 0.62469208 0.002905285
0.01630996 0.030359851 0.0095617343 -0.14882453 0.72776043 0.66948932 0.0013115723
0.01946824 0.030606085 0.010173644 -0.17754869 0.70067513 0.69103605 0.0010725223
0.02272296 0.031043878 0.010657885 -0.19550137 0.68549699 0.70133662 0.001791726
0.025345342 0.031622 0.010878539 -0.21758738 0.67076522 0.70903438 0.0019205794
0.028191689 0.03198906 0.011431131 -0.22458923 0.6543563 0.72206467 0.0018358254
0.031017767 0.032681573 0.011696955 -0.23394117 0.65187478 0.72133952 0.0020027801
0.059958655 0.030370921 0.011807704 0.49480966 -0.31354555 0.81046444 0.0014481551
0.06147356 0.031381913 0.011246497 0.50027806 -0.28773844 0.81665677 0.0017651068
0.063674241 0.031677119 0.0098234871 0.58049238 -0.3366009 0.74143672 0.0019897295
-0.063615665 0.034919679 0.0095764799 -0.66117966 -0.36249727 0.65683883 0.0016622151
-0.061829004 0.034325253 0.010920633 -0.60066378 -0.31486017 0.73489195 0.0014863905
-0.05993893 0.033140134 0.011838269 -0.59584558 -0.33846888 0.72829032 0.0020668262
-0.027894355 0.035584681 0.011471478 0.30702648 0.71323508 0.63010359 0.0014536418
-0.025275173 0.034983329 0.010882424 0.30479434 0.7451539 0.59316617 0.0013301312
-0.0226584 0.034180693 0.010572337 0.28165755 0.74538743 0.60420746 0.0015734417
-0.019922992 0.03367066 0.0099808797 0.26700363 0.76176465 0.59027433 0.001131617
-0.01736474 0.033278134 0.0093130656 0.248445 0.77135831 0.58590221 0.00099603075
0.026374709 0.033229511 0.0094803749 -0.23167884 0.71379876 0.66092074 0.0011166102
0.02876302 0.03352337 0.010082565 -0.23876186 0.70152205 0.67146075 0.0012466954
0.031545755 0.034067303 0.010545019 -0.25451401 0.69043612 0.67714149 0.0019668601
0.03431873 0.034805458 0.010897595 -0.2779187 0.65873271 0.69916552 0.0028858839
0.036895871 0.035419829 0.011440321 -0.30121937 0.63240743 0.71367204 0.0027020699
0.039206993 0.035728239 0.011958566 -0.28982595 0.57774317 0.7630294 0.00085907261
0.06229021 0.034171589 0.011624712 0.47362724 -0.18789722 0.86044866 0.0019070669
0.064365663 0.03474145 0.010398389 0.54839301 -0.21821888 0.80724579 0.0021536248
0.066198885 0.035366017 0.0092528956 0.65257424 -0.26970613 0.70809984 0.0024158319
-0.064265884 0.037588835 0.010108723 -0.64635497 -0.25862676 0.71787012 0.0020653708
-0.062379103 0.037242029 0.011550558 -0.58960038 -0.20023587 0.78248119 0.0020582415
-0.03416257 0.038572125 0.011347007 0.31942815 0.7072162 0.63072252 0.0015850086
-0.031452902 0.037662771 0.010925616 0.32522026 0.71425211 0.6197384 0.0020885398
-0.028757419 0.037057474 0.010174331 0.32862827 0.75109375 0.57259196 0.00097181188
-0.026157007 0.036442026 0.0094632423 0.31898671 0.75152105 0.57746303 0.0012612536
0.035436463 0.036342554 0.0098238066 -0.32572964 0.68013859 0.65674323 0.0017771341
0.03787161 0.03717554 0.010238784 -0.34391588 0.66182727 0.66611302 0.0019068387
0.04035791 0.037613843 0.011134149 -0.32787475 0.58586043 0.74112463 0.0022235482
0.043085121 0.038492333 0.011610456 -0.30644467 0.57140243 0.76130867 0.0026469799
0.045357116 0.038932007 0.011991515 -0.2533887 0.50361234 0.82593513 0.0025091704
0.062784143 0.037004218 0.01188631 0.48883176 -0.099240072 0.86671501 0.0032021056
0.064106897 0.037483674 0.011182268 0.50259596 -0.12674779 0.85517973 0.0020411687
0.066492572 0.037908148 0.0095751835 0.59073716 -0.15131514 0.79254866 0.0040737037
-0.066329658 0.040984508 0.0092632547 -0.66600466 -0.18689024 0.72215641 0.0022532647
-0.064563103 0.040427264 0.010575101 -0.58556575 -0.12657528 0.80068189 0.0032295261
-0.062735505 0.040223561 0.011812184 -0.53466856 -0.065403126 0.84252715 0.0025595119
-0.042709425 0.041917294 0.011939804 0.2908878 0.61470205 0.73316151 0.0012889697
-0.039978955 0.041080218 0.011644398 0.29508999 0.65113878 0.69924259 0.00092732674
-0.037412278 0.0406055 0.010790935 0.33784264 0.71462131 0.61251837 0.0010806727
-0.034846473 0.039806113 0.010286428 0.34634781 0.71880275 0.60279828 0.0010154517
-0.032304637 0.039249361 0.009428191 0.34690195 0.74350005 0.57172251 0.0011008533
0.040792115 0.039517783 0.0095217293 -0.38144845 0.67229599 0.6344409 0.0027870173
0.043546997 0.04030912 0.010282164 -0.35346547 0.63292867 0.68881315 0.0018831552
0.046241459 0.040760718 0.011192207 -0.29322273 0.5586586 0.77583569 0.0020035226
0.048860684 0.0414536 0.01167172 -0.24394062 0.50650334 0.82701105 0.0022321581
0.062796637 0.040448703 0.01195291 0.3995786 0.052225184 0.91521007 0.0031162831
0.064566083 0.0404277 0.011175434 0.43830311 -0.0011315109 0.89882654 0.0039632199
0.066806868 0.04074404 0.0097938348 0.58619523 -0.055195544 0.8082875 0.0034099543
-0.066568762 0.043500539 0.0094529688 -0.61897838 -0.067414321 0.78250951 0.0034533127
-0.064561322 0.043418396 0.010806086 -0.49678621 0.026075628 0.86748111 0.0039142044
-0.062587216 0.043817189 0.011839548 -0.42448255 0.07452333 0.90236402 0.0037282223
-0.048742145 0.044808488 0.011801307 0.22786368 0.60723609 0.76114559 0.0012103778
-0.046120349 0.044093966 0.011449214 0.26772025 0.64413583 0.71652979 0.0011889287
-0.043637201 0.043502945 0.010905881 0.29900157 0.6598258 0.68936789 0.00079522369
-0.040760875 0.042833932 0.01010409 0.3383258 0.71183652 0.61548716 0.0010756031
-0.038391963 0.042271778 0.0093468996 0.35466322 0.71783787 0.5991016 0.00084895961
0.04687706 0.04280363 0.0097295623 -0.36115816 0.64033782 0.6778881 0.0019713452
0.049629912 0.043355402 0.010524128 -0.31047192 0.58585507 0.74858612 0.0022052412
0.052387632 0.043753531 0.011230122 -0.22994046 0.51836967 0.8236627 0.0013722952
0.055325296 0.044336308 0.011626716 -0.15798078 0.45310897 0.87734509 0.0026111566
0.058064733 0.044688638 0.011799306 -0.046299689 0.41382161 0.90917987 0.0038143501
0.061970193 0.044063974 0.011794566 0.15161812 0.23832378 0.95927775 0.0073954444
0.064211294 0.043665901 0.011190604 0.33428869 0.14742121 0.93086946 0.0050387792
0.066540629 0.043072052 0.010025216 0.46685314 0.06475766 0.88196063 0.0027442956
-0.066662408 0.046393838 0.0094124256 -0.55006957 0.047126137 0.8337881 0.0039397846
-0.064689748 0.046405241 0.010458478 -0.42437971 0.14562067 0.89369822 0.0057707671
-0.0618269 0.046444595 0.011527403 -0.30796057 0.25843483 0.91562641 0.0060376865
-0.058819015 0.047184721 0.011667791 -0.057881296 0.42075449 0.90532613 0.0033678662
-0.055438712 0.047126286 0.011576175 0.038630612 0.48226887 0.87517112 0.001972632
-0.053170614 0.046707276 0.01145847 0.11361397 0.53714561 0.83580285 0.00089483196
-0.049773611 0.046167746 0.010972057 0.19972779 0.59259963 0.78034264 0.0011667919
-0.046799887 0.045628529 0.010232442 0.29755059 0.66271049 0.68722522 0.0010756227
-0.044326171 0.045245215 0.0093486197 0.35285649 0.70657444 0.61338806 0.0010476757
0.050640471 0.045336008 0.0092888838 -0.36364076 0.648619 0.66862452 0.0027058192
0.052692428 0.045856901 0.0097778644 -0.29890439 0.59434134 0.74660194 0.0032920954
0.055550259 0.046471935 0.010358904 -0.22516559 0.53581101 0.813761 0.0021853049
0.058428049 0.046428308 0.011002471 -0.081130035 0.44037294 0.89414185 0.0028931915
0.06136914 0.046528563 0.011082751 0.051190738 0.37150371 0.92701912 0.0045191925
0.064457968 0.046534847 0.010546778 0.28074163 0.24846879 0.92706388 0.0066008321
0.066901147 0.0468476 0.009467097 0.37475532 0.20886713 0.90329009 0.0047966987
-0.066506468 0.04887069 0.0091763418 -0.42261428 0.19985811 0.88399887 0.0078241555
-0.064665899 0.049293999 0.0097168377 -0.30280599 0.27260375 0.9132337 0.0060808384
-0.061567467 0.04936444 0.010332181 -0.1686087 0.41122022 0.89580637 0.0033619287
-0.058684442 0.048937336 0.010679127 -0.009208763 0.4843592 0.87482071 0.0024994875
-0.055602126 0.049143057 0.010114416 0.11808006 0.59903967 0.79196501 0.0019969465
-0.052677304 0.048490148 0.0098652653 0.22619493 0.64185905 0.73270249 0.0013887718
-0.050849188 0.048316482 0.0094035761 0.31708717 0.66204923 0.67907768 0.0030210349
0.056520086 0.048219856 0.0093914801 -0.26952335 0.58559686 0.76448244 0.0022094115
0.058761735 0.04882006 0.0096391253 -0.17253707 0.54248655 0.82215524 0.0038358895
0.061480328 0.049317498 0.009761584 -0.048369177 0.46817592 0.88231045 0.0048056613
0.064353004 0.049463522 0.0096056219 0.092141666 0.39728463 0.91305798 0.0078877043
0.066559754 0.048912175 0.0092507116 0.38422146 0.26928538 0.8830964 0.0062844232
-0.064417258 0.051099628 0.0091130482 -0.19904295 0.40920573 0.89046764 0.0085025029
-0.061795026 0.051146805 0.0092070205 -0.070810542 0.50419801 0.8606801 0.0041664294
-0.059576452 0.05125273 0.0091102943 0.11535773 0.65733254 0.74471909 0.0028355671
0.064093009 0.051117919 0.0090836883 0.11519624 0.40722322 0.90603483 0.0076631289
-0.0039206175 0.0059781009 0.012062961 -0.027433207 -0.71280771 0.70082283 0.0010270324
-0.0014036471 0.005960125 0.012078917 -0.0041221585 -0.70066279 0.71348071 0.0010589982
0.0015704889 0.0059744827 0.012066173 0.017589735 -0.69541389 0.71839416 0.0010755011
0.0031720484 0.0059881546 0.012054037 0.019816408 -0.70230097 0.7116043 0.00093590427
-0.021524373 0.0088703651 0.012114199 -0.18622802 -0.71636748 0.6724112 0.0011497552
-0.019272437 0.0086236568 0.012411539 -0.16259763 -0.68682545 0.70840162 0.0010625323
-0.016370216 0.0082882987 0.012675066 -0.13342546 -0.68718541 0.71412444 0.0011065282
-0.013467789 0.0080124186 0.012867391 -0.098416761 -0.66758323 0.73800188 0.0010807096
-0.010502167 0.0078206873 0.013016582 -0.064386107 -0.64859366 0.7584067 0.0010545537
-0.007508948 0.0076820012 0.013098332 -0.034027994 -0.63188201 0.77431726 0.0012782598
-0.0045373081 0.0075919027 0.013120073 -0.012077915 -0.61457509 0.78876585 0.0014941808
-0.0015113894 0.0075159166 0.01307702 0.0070139207 -0.59730721 0.80198181 0.0013828356
0.001487072 0.0076078693 0.013091479 0.025464745 -0.58393443 0.81140131 0.0015654485
0.0044790176 0.0076139518 0.012977933 0.041040998 -0.5824607 0.81182212 0.0015395599
0.0074899844 0.0077436096 0.012896438 0.058474082 -0.57977843 0.81267315 0.0016384647
0.010431497 0.007913311 0.012797173 0.073067926 -0.58115852 0.81050342 0.001698417
0.013436206 0.0081490064 0.012666307 0.090123631 -0.59123528 0.80144775 0.0017900727
0.016401595 0.008355883 0.012443173 0.11311132 -0.6086964 0.785299 0.0018738183
0.019181313 0.0086348681 0.012225213 0.13783966 -0.63131249 0.76318073 0.0016537296
0.021559982 0.0088650733 0.012107588 0.16214535 -0.65577185 0.73734123 0.0016261182
-0.030533837 0.011797831 0.012220929 -0.25945124 -0.70145559 0.66381097 0.0010552882
-0.028292948 0.011397104 0.012614108 -0.23164225 -0.69822532 0.67736495 0.00094074657
-0.025406996 0.010919704 0.013015325 -0.20168917 -0.68195605 0.7030344 0.0013585762
-0.022481753 0.010532712 0.013403208 -0.1744055 -0.64299291 0.74574983 0.0010786353
-0.019566476 0.010360507 0.013862324 -0.13542853 -0.6052916 0.78439856 0.00089764973
-0.016596274 0.010116637 0.01415282 -0.10798772 -0.57957685 0.80773091 0.0012194776
-0.013554852 0.0099315792 0.014365538 -0.07400661 -0.5524714 0.83023995 0.0014629619
-0.010588709 0.0098041007 0.014484609 -0.043814391 -0.5339399 0.84438646 0.001613766
-0.0075642685 0.0097419647 0.014547206 -0.017993692 -0.50705069 0.86172843 0.0018275442
-0.0045252251 0.0097850282 0.014594185 0.0028361969 -0.4863795 0.87374312 0.0019980369
-0.0015189694 0.009791201 0.014555885 0.018283626 -0.47465485 0.87998211 0.0018719252
0.0015117935 0.0099120447 0.01452894 0.033262808 -0.46378216 0.88532466 0.0018046835
0.0045317919 0.010022648 0.014453407 0.047090132 -0.45455423 0.8894735 0.0016620769
0.0075302799 0.0102351 0.014383106 0.059145391 -0.44490892 0.89362061 0.0015124674
0.010495327 0.010405752 0.014268625 0.065932475 -0.4493039 0.89094275 0.0013081188
0.013502281 0.0104585 0.014046092 0.081996813 -0.45288509 0.88779032 0.0012556281
0.016488118 0.010423772 0.013727129 0.099140264 -0.45824394 0.8832801 0.0013761813
0.019458676 0.010472353 0.013383294 0.12330113 -0.50156933 0.85628563 0.0020927603
0.022429375 0.010571063 0.012990349 0.13962622 -0.53586286 0.83267975 0.0023980895
0.025352886 0.010959599 0.012718494 0.16285244 -0.56477505 0.80901688 0.0027455939
0.02811797 0.011421413 0.012440325 0.18348198 -0.58810538 0.7876969 0.0020181639
0.030424599 0.011784356 0.012145229 0.19723879 -0.60884339 0.76837921 0.00070503645
-0.036852509 0.014591788 0.012475536 -0.32566413 -0.67396903 0.66310525 0.0011775278
-0.034341384 0.014009046 0.012979858 -0.2879439 -0.67113203 0.68313253 0.0012067222
-0.031500537 0.013479589 0.013516773 -0.23602597 -0.63586634 0.73482364 0.0011451972
-0.028629312 0.013133795 0.014100932 -0.20166121 -0.60453939 0.77062631 0.0011110599
-0.025668288 0.012670773 0.014476915 -0.17388383 -0.61329788 0.77047396 0.0012345862
-0.022926606 0.012372147 0.014800188 -0.14444382 -0.5965842 0.78944498 0.0012632755
-0.020311756 0.012155021 0.014954431 -0.11411856 -0.55882114 0.82139879 0.0010470186
0.0080994321 0.012028982 0.014993778 0.052483078 -0.34475023 0.93722612 0.00041736616
0.011438317 0.012215792 0.01494367 0.067536086 -0.30992961 0.94835782 0.0017391643
0.013722027 0.012375632 0.014861539 0.07099916 -0.31887236 0.9451347 0.0020869924
0.016640715 0.012628307 0.014739803 0.085266739 -0.34308407 0.93542659 0.0020140784
0.019575868 0.013029081 0.014612314 0.10573684 -0.36714444 0.92413461 0.0018512773
0.022570724 0.013383187 0.014424153 0.11427205 -0.39132747 0.91312909 0.0017452515
0.025533527 0.013440926 0.014074031 0.12797551 -0.4133845 0.90151852 0.0019490836
0.028516024 0.013530936 0.013648346 0.14754488 -0.44565094 0.88296419 0.001913231
0.031439334 0.013538581 0.013077707 0.18320408 -0.51144791 0.83955783 0.0022620389
0.034420632 0.014068965 0.012702425 0.19114864 -0.53384793 0.82369208 0.0011586541
0.037183717 0.014565092 0.012289896 0.21281217 -0.55322099 0.80539274 0.00043900617
0.039583206 0.014959438 0.012123121 0.23511463 -0.56580263 0.79030913 0.0005506149
-0.04262523 0.017625749 0.012405243 -0.39906961 -0.64262778 0.65404356 0.0014982098
-0.040308934 0.016926771 0.013003292 -0.36121449 -0.63131964 0.68626499 0.0013779042
-0.037625305 0.016351048 0.013740147 -0.29709688 -0.59706831 0.74514621 0.00082895969
-0.034751948 0.015755273 0.01438156 -0.25363261 -0.58228427 0.77240896 0.0015420825
-0.032259632 0.015279319 0.014821768 -0.21544296 -0.59877115 0.77139974 0.0012967394
0.023714643 0.015196957 0.014915301 0.080984376 -0.2186833 0.97242951 0.0020157772
0.02591888 0.015546563 0.014855285 0.1014937 -0.29421437 0.9503352 0.0017005759
0.02869142 0.016035024 0.014702725 0.1258329 -0.33136043 0.93507564 0.0023930795
0.031601816 0.016338052 0.014456786 0.13583685 -0.37902451 0.91536266 0.0022013392
0.034499045 0.016435862 0.014056422 0.15779425 -0.40984648 0.89840233 0.0021321385
0.037519861 0.016514529 0.013434987 0.19577564 -0.46714908 0.86223179 0.0014285558
0.040392023 0.016720196 0.012785117 0.22207063 -0.49340343 0.84097427 0.00073354814
0.043131985 0.017271584 0.012369773 0.25568441 -0.51042855 0.82102871 0.00088114123
0.04544108 0.017840447 0.012156847 0.30220205 -0.53988153 0.78562194 0.0015326459
-0.048101544 0.020904738 0.012096214 -0.44275862 -0.61040777 0.65678549 0.0015048035
-0.04605991 0.020205704 0.012694113 -0.43276078 -0.61014593 0.66365653 0.0010275525
-0.043486595 0.0194747 0.013528458 -0.37216678 -0.56613606 0.7355147 0.0007525133
-0.040816147 0.018839234 0.014364157 -0.32749516 -0.54968643 0.76849961 0.0013882573
-0.038663402 0.018247705 0.014830773 -0.30532992 -0.57890356 0.75607169 0.00090331829
0.03229674 0.018187473 0.014946416 0.080990493 -0.19834836 0.97677964 0.0025453973
0.034856115 0.018540371 0.014832344 0.12557881 -0.28698027 0.94966954 0.0029543536
0.03766562 0.019173235 0.014654924 0.16725762 -0.3468366 0.9228918 0.0024074435
0.040463116 0.019392926 0.014199722 0.1940178 -0.38495275 0.90231287 0.0020844191
0.043417092 0.019434838 0.013446743 0.23884153 -0.4299747 0.87067586 0.0008207346
0.046227951 0.019588618 0.012689975 0.26943022 -0.45487127 0.84882236 0.0014037037
0.048787784 0.02040136 0.012317011 0.32687187 -0.47950137 0.81439131 0.0016675867
-0.051309526 0.023696965 0.012278345 -0.48110551 -0.57894343 0.65830243 0.0010689314
-0.049203768 0.022849241 0.012947648 -0.44824594 -0.56655824 0.69143862 0.0013274321
-0.046647131 0.022239992 0.013965477 -0.39244664 -0.51845598 0.75972956 0.0012166445
-0.04430823 0.021466458 0.014645315 -0.35934505 -0.53070027 0.76761216 0.0011230884
-0.0063786246 0.023907468 0.014985073 0.11298294 0.41495317 0.9028005 0.0013585613
-0.0037049449 0.023729775 0.014774595 0.092417791 0.43402073 0.89615005 0.0020153099
-0.0012377813 0.023362359 0.014774983 0.070640095 0.42516372 0.90235579 0.0018368973
0.001644402 0.023170702 0.01466912 0.048115574 0.42431283 0.90423644 0.0018803688
0.0044634584 0.023155186 0.014560944 0.022336498 0.42345181 0.90564322 0.0018317383
0.0076646339 0.023068782 0.014573074 -0.0063765859 0.41361523 0.91042936 0.0019722662
0.010476645 0.023164012 0.014579412 -0.027988156 0.40468553 0.91402751 0.0020654041
0.013490782 0.023194455 0.014694987 -0.051738337 0.38097274 0.92313743 0.0025318847
0.016389677 0.023353528 0.01479343 -0.064777106 0.33196729 0.94106406 0.0027860866
0.019019403 0.023713898 0.014901757 -0.083111867 0.31730121 0.9446758 0.0026706741
0.021527559 0.023832254 0.014947636 -0.069841512 0.22254464 0.97241765 0.0029953206
0.04116194 0.021481885 0.014866374 0.14287561 -0.25035131 0.95755464 0.0035768612
0.043722279 0.022260467 0.014611733 0.20549676 -0.31661567 0.92602676 0.0024516366
0.046544477 0.022436505 0.013933295 0.23930295 -0.33693787 0.91060805 0.0012545533
0.049477704 0.022464624 0.013055855 0.29603839 -0.39623582 0.86911362 0.00091993331
0.052059274 0.023133373 0.012459747 0.34933424 -0.42694309 0.83407742 0.0015298009
0.054165669 0.023711905 0.012100018 0.41735512 -0.46227178 0.7823807 0.0018317173
-0.054423392 0.026592972 0.012326761 -0.51679307 -0.51692283 0.68243366 0.0013613323
-0.052345842 0.025674628 0.013072814 -0.47286022 -0.51119429 0.71769327 0.0016217699
-0.049812745 0.025191108 0.014244604 -0.41115221 -0.45555013 0.78957456 0.0013840063
-0.047628272 0.024256088 0.014802322 -0.39410776 -0.47824872 0.78482944 0.0011141875
-0.015647203 0.026875146 0.014881215 0.17296617 0.46459696 0.86846554 0.00094881299
-0.01348111 0.026372984 0.014733023 0.15540572 0.46309334 0.87257868 0.001117749
-0.010379617 0.025927877 0.014458304 0.15133947 0.51715368 0.84240639 0.0015354662
-0.0074505755 0.025484437 0.014214072 0.12054209 0.4591409 0.88014728 0.00133678
-0.0044091591 0.025234181 0.01397022 0.09338709 0.48643935 0.86870927 0.0010324027
-0.0014654673 0.025249962 0.013644943 0.076527461 0.49372569 0.86624384 0.0014110319
0.0014799349 0.025237476 0.013413161 0.059055001 0.53761083 0.84112257 0.0016558322
0.0045506041 0.025117727 0.013380899 0.018948548 0.53181958 0.84664559 0.0017772601
0.0074332571 0.025098171 0.013401134 -0.019043922 0.52428132 0.85133207 0.0019197706
0.01052584 0.025399245 0.0132819 -0.045510173 0.55077308 0.83341336 0.0021741164
0.013520047 0.025407635 0.013511719 -0.072363719 0.51900774 0.8517009 0.0024231179
0.016549444 0.025422638 0.013794269 -0.093619741 0.47211966 0.87654912 0.0014008909
0.01948655 0.025443193 0.014166615 -0.11209145 0.44848788 0.88673222 0.0018134165
0.022383137 0.02562606 0.014451859 -0.11038399 0.39104515 0.91372812 0.0021740445
0.025467237 0.026013577 0.014664566 -0.11615689 0.34967688 0.92964172 0.0027525472
0.028262889 0.02641793 0.01484278 -0.10139201 0.28646719 0.95270997 0.0036463621
0.0308818 0.02682499 0.014913917 -0.078275368 0.2122574 0.97407383 0.0028698689
0.04471042 0.024267524 0.014961424 0.13552116 -0.15731698 0.9782052 0.0038772007
0.046928469 0.02497099 0.014736632 0.20481345 -0.2246408 0.95267403 0.0029806455
0.04954591 0.025408303 0.014190217 0.25743377 -0.28344676 0.92378879 0.0013708507
0.052494965 0.025488365 0.013261902 0.31370911 -0.33428186 0.8887307 0.0010405423
0.054940969 0.025919273 0.012515239 0.38082752 -0.36983645 0.84746176 0.0016751053
0.057286508 0.02673527 0.012038222 0.45769814 -0.40717348 0.79039365 0.001936359
-0.05728073 0.029651335 0.012199518 -0.55567014 -0.43964958 0.70564783 0.0015522471
-0.055310931 0.028672092 0.013020962 -0.50919771 -0.4344137 0.74296862 0.0017940983
-0.052784037 0.028200455 0.014306563 -0.43380219 -0.37917474 0.81733853 0.0015849877
-0.050735205 0.027369183 0.01490855 -0.41107649 -0.39512053 0.82152051 0.0021136419
-0.024583716 0.029971534 0.014978248 0.21339571 0.51204336 0.83203 0.00087863102
-0.021752836 0.029607439 0.014611369 0.20503725 0.51959699 0.82944477 0.00076976768
-0.019069077 0.028577222 0.014568439 0.18904713 0.47531632 0.85926455 0.0010338788
-0.016741781 0.027954901 0.01440379 0.18160209 0.49816248 0.84785306 0.00094471721
-0.013588367 0.028300989 0.013413945 0.17999284 0.5807417 0.79394066 0.0013660562
-0.010204332 0.028076086 0.012845876 0.16152552 0.60834426 0.77706289 0.0014694257
-0.007448962 0.027745809 0.01254844 0.13024254 0.63175011 0.76415229 0.0013356681
-0.0046014693 0.027420156 0.012382047 0.10088633 0.63892233 0.76262712 0.0012763684
-0.0014243254 0.027172092 0.01220296 0.08501064 0.63081431 0.77126294 0.0016928226
0.00044584117 0.027257314 0.012058333 0.033240981 0.67952758 0.73289657 0.0012135785
0.0050186403 0.027034862 0.012032033 0.025677113 0.65142995 0.75827414 0.0032494112
0.011290906 0.027169622 0.012048567 -0.058541026 0.62414074 0.77911568 0.0014376728
0.014019047 0.027249359 0.012259014 -0.086007625 0.60696828 0.79005837 0.002531911
0.016789658 0.027582619 0.012424883 -0.11440866 0.59887916 0.79262507 0.002177614
0.019577365 0.027840383 0.012717916 -0.13942173 0.56691587 0.81189167 0.0019892945
0.022561304 0.028251886 0.012996847 -0.15508784 0.53610021 0.82978576 0.0016815485
0.025517546 0.028418873 0.013462957 -0.16252102 0.50039196 0.85040861 0.0027970998
0.028636873 0.028297663 0.014073661 -0.12841955 0.41178378 0.90218759 0.001997638
0.031496406 0.028548321 0.014408478 -0.12948233 0.39271843 0.9104979 0.0026625474
0.03434119 0.028738881 0.014707515 -0.11768768 0.30560496 0.9448573 0.0027601982
0.037246712 0.029401029 0.014834839 -0.10695493 0.26187137 0.95915794 0.00258307
0.039934661 0.029693028 0.014906831 -0.073477231 0.18601529 0.97979558 0.0026504099
0.047799423 0.027046697 0.01493114 0.14699157 -0.10684545 0.98335016 0.0027118414
0.049846362 0.028091796 0.014790186 0.1982666 -0.14733657 0.96901095 0.0033158697
0.052468479 0.028414879 0.014203483 0.25763756 -0.1980495 0.94572687 0.0023337868
0.055555504 0.028500792 0.013161669 0.34831649 -0.28267658 0.89373916 0.0014097488
0.057796843 0.029001469 0.01241027 0.41790918 -0.31466344 0.85225517 0.001997123
-0.058051575 0.03176209 0.012715335 -0.53797132 -0.34431019 0.7694397 0.0021912514
-0.055638388 0.031406097 0.01406791 -0.46146592 -0.28082845 0.84153706 0.0017701503
-0.053667475 0.03052175 0.014833164 -0.41575715 -0.25921035 0.87175453 0.0036372959
-0.030457864 0.032849815 0.014808141 0.23476024 0.54591739 0.80427724 0.00089883845
-0.028891036 0.03238282 0.014660344 0.19804586 0.4682273 0.86112779 0.0016231863
-0.025552386 0.031598493 0.014245522 0.21467131 0.51640809 0.82899868 0.00068255828
-0.022659678 0.031086091 0.013693133 0.22720578 0.56367457 0.79413384 0.00097565202
-0.019642422 0.030950656 0.012886143 0.22703992 0.62549603 0.74646342 0.0010266281
-0.016751612 0.030367199 0.012508801 0.21317574 0.61995536 0.75512344 0.00078739331
-0.014846316 0.030318633 0.012032002 0.21499325 0.68487966 0.69621682 0.0035209074
0.026117362 0.030310512 0.012292325 -0.18321623 0.61238354 0.76903719 0.0016931948
0.028836356 0.03075939 0.01263888 -0.18137127 0.5662899 0.80400264 0.0021713173
0.031623743 0.031142525 0.013054119 -0.18287838 0.53625882 0.8240037 0.0026704301
0.034494847 0.031377722 0.013546044 -0.17618035 0.46894547 0.86547709 0.0031711285
0.037669979 0.031322453 0.01417961 -0.14719959 0.36659181 0.9186635 0.0026607905
0.040540837 0.031550754 0.014553552 -0.12930626 0.31196496 0.9412533 0.0029067718
0.043367255 0.031915728 0.014784656 -0.10960276 0.25097415 0.96176881 0.0025627413
0.046098575 0.032427181 0.014903331 -0.049582332 0.18189923 0.98206639 0.0022546526
0.050008856 0.031927884 0.014925306 0.088434823 0.015381146 0.99596322 0.003041087
0.052569546 0.031464387 0.014647803 0.17162037 -0.051400859 0.98382127 0.003422661
0.055447061 0.031331949 0.013921099 0.28524062 -0.1497058 0.94669211 0.0029112019
0.058398437 0.031644791 0.012910324 0.37869856 -0.2181692 0.89943856 0.0013595324
0.060414929 0.03249187 0.012211306 0.45655334 -0.24064872 0.85653216 0.0023485187
-0.060476374 0.035082351 0.012299615 -0.56393504 -0.27034602 0.78031421 0.0024443774
-0.058527693 0.034478348 0.013358779 -0.49228448 -0.22411898 0.84108669 0.0029960293
-0.056131721 0.034300864 0.014596832 -0.41261601 -0.15405856 0.89778286 0.002859405
-0.036584683 0.035669968 0.014751558 0.22012548 0.51354873 0.82934463 0.0010758954
-0.034844566 0.035364505 0.014464072 0.21077873 0.46498764 0.85985976 0.0014578919
-0.031249005 0.034166973 0.014156705 0.24069621 0.54718035 0.80166018 0.00081039139
-0.028897099 0.034434244 0.013051563 0.26466864 0.59476185 0.75908422 0.0011805349
-0.026013596 0.033605073 0.012700036 0.27800858 0.66151619 0.69649667 0.0020819907
-0.023682564 0.033162907 0.012273092 0.27059969 0.66386175 0.69718242 0.00097943435
0.03507565 0.033447362 0.012385948 -0.22588415 0.5778659 0.78424948 0.0022352638
0.037752543 0.03412874 0.012739629 -0.2379241 0.515845 0.82297999 0.0035552792
0.040514469 0.034355752 0.01337079 -0.20483637 0.43029261 0.87914181 0.0027156114
0.043524992 0.034397803 0.014001423 -0.15880498 0.34827343 0.92384344 0.0018196944
0.046578787 0.034464512 0.014415734 -0.097562477 0.26999065 0.95790738 0.0030071666
0.049511291 0.03455665 0.014627255 -0.027546892 0.19972296 0.97946513 0.0035190787
0.052645829 0.034384873 0.0145913 0.099845916 0.082131393 0.99160737 0.0038018031
0.055395037 0.034415387 0.014233351 0.20208757 -0.019726513 0.97916883 0.0046164412
0.058202993 0.034480963 0.013472177 0.31352311 -0.087868676 0.94550639 0.0028787002
0.060977776 0.034608863 0.012401725 0.42073381 -0.14955989 0.89477086 0.0023155068
-0.060952291 0.037611861 0.012592592 -0.51579589 -0.13907841 0.84534711 0.0035339326
-0.058579568 0.037441414 0.0138358 -0.40413335 -0.048276857 0.91342521 0.0034675498
-0.056287188 0.037439752 0.014750729 -0.32577565 -0.00042967848 0.94544703 0.0039805681
-0.045548286 0.038716577 0.014968977 0.12412278 0.44327861 0.88774866 0.00217899
-0.04350863 0.038691066 0.014697094 0.14505471 0.45481357 0.8786943 0.00096849666
-0.040460177 0.038034387 0.014335891 0.2150168 0.51595348 0.82919222 0.0010327047
-0.037675411 0.037245184 0.014014753 0.23133279 0.53479934 0.81269598 0.0006246714
-0.034730908 0.036953665 0.013175552 0.27376792 0.60712248 0.74595809 0.0011494943
-0.032228719 0.036428809 0.012642544 0.28761724 0.63725477 0.71497047 0.0007430354
0.041133087 0.036483135 0.012333896 -0.26825997 0.5439195 0.7951026 0.0028577466
0.043639854 0.037096221 0.012743279 -0.22981775 0.47820458 0.84764624 0.0033336584
0.046521291 0.037508652 0.013247661 -0.18858631 0.41102466 0.89190465 0.0026119791
0.049559452 0.037379902 0.013822734 -0.0960593 0.3199541 0.94255084 0.0027237812
0.05247895 0.037502531 0.014036243 -0.024590636 0.25584951 0.96640384 0.0031303253
0.055418629 0.037581682 0.013971223 0.069578178 0.19127409 0.97906744 0.0057297247
0.05837306 0.037379082 0.013543721 0.24925113 0.034113724 0.96783781 0.0062423507
0.061113019 0.037441362 0.012664898 0.3771401 -0.060496002 0.92417836 0.0033616766
0.063187651 0.038068991 0.012039752 0.49465653 -0.1028457 0.86298192 0.002071871
-0.063018106 0.041915745 0.012063454 -0.49602085 0.056473807 0.86647218 0.0068053482
-0.061313391 0.040481675 0.012641977 -0.45006928 -0.0035578655 0.89298654 0.0036057597
-0.058587257 0.040370394 0.013786361 -0.3390643 0.082608841 0.93712926 0.0046323882
-0.05567994 0.040336128 0.014532557 -0.21827109 0.19857797 0.95547086 0.0055770199
-0.052814879 0.040820509 0.0146784 -0.024798363 0.3327536 0.94268769 0.002555843
-0.049608987 0.040898453 0.014491881 0.056968603 0.39858255 0.9153614 0.0020512326
-0.046493292 0.040433407 0.014261823 0.13027361 0.46545628 0.87543088 0.00094800268
-0.044008102 0.039864726 0.014032571 0.16089846 0.48018229 0.86228573 0.00098400586
-0.041044161 0.039771333 0.013173415 0.24197006 0.57600927 0.7808097 0.0010745333
-0.038105462 0.039405633 0.01240448 0.28731573 0.61449397 0.7347427 0.00098584476
0.047102664 0.039511297 0.012362381 -0.24200171 0.50987142 0.82550973 0.0027196142
0.049638286 0.040115979 0.012660044 -0.18561575 0.45077261 0.87312704 0.0026875448
0.05244749 0.040509168 0.012983144 -0.11905199 0.37453786 0.91953689 0.0028630923
0.055525452 0.040602438 0.013226608 0.007648549 0.27079964 0.96260536 0.0040700687
0.058422063 0.040557683 0.013132092 0.10985424 0.21199328 0.9710772 0.0043258793
0.061318234 0.040537547 0.012557415 0.27488238 0.095550381 0.95671833 0.0039534871
0.063108303 0.041134801 0.012036473 0.40556785 0.040778283 0.9131549 0.0051111556
-0.061287269 0.043221306 0.01246139 -0.37608141 0.12388775 0.91826719 0.0034865548
-0.058587648 0.043359987 0.01321876 -0.21110092 0.2407804 0.9473443 0.005094721
-0.055639483 0.043331701 0.013595209 -0.082944207 0.34793615 0.93384194 0.004050375
-0.052637517 0.043341383 0.013528513 0.039295793 0.4398056 0.89723289 0.0017200741
-0.050014164 0.04292316 0.013430072 0.1000724 0.46802479 0.8780309 0.0019097871
-0.047039874 0.042871617 0.012799038 0.2003106 0.55968022 0.80413532 0.0013596946
-0.044409096 0.042344466 0.01233532 0.25618613 0.61173403 0.7484318 0.0012208527
0.053243022 0.042450801 0.012220982 -0.18812394 0.47834456 0.8577854 0.0023933589
0.055579714 0.042882461 0.012382908 -0.092728406 0.4046526 0.9097569 0.0031827677
0.058450505 0.043173216 0.012425739 0.026721098 0.322234 0.94628286 0.0032429055
0.060964946 0.043149348 0.012228234 0.19622195 0.23342414 0.95237076 0.0087212063
-0.060602043 0.045544073 0.012158013 -0.22086397 0.32689697 0.91888928 0.0043524345
-0.058443442 0.045729045 0.012415475 -0.097407974 0.39199683 0.91479516 0.0039167502
-0.0558686 0.045816261 0.0124316 0.0040276209 0.45077631 0.89262784 0.002346254
-0.05297925 0.045481719 0.01233206 0.084897555 0.49449378 0.86502504 0.0017906134
-0.050757919 0.045259479 0.012033593 0.18747224 0.59060711 0.78488058 0.0011093634
-0.018592291 0.011813592 0.01509614 -0.11169785 -0.57011479 0.81393659 0.0011365267
-0.01636775 0.01163967 0.015214079 -0.080813177 -0.53188294 0.84295303 0.0013659588
-0.013470479 0.011435129 0.015330003 -0.049166266 -0.50287437 0.86296004 0.0017605716
-0.010483813 0.011298553 0.015381414 -0.021784471 -0.48004633 0.87697256 0.0018756032
-0.0074914712 0.011227203 0.015386395 0.00038107368 -0.45548213 0.89024484 0.0020171066
-0.004543188 0.011263787 0.015377711 0.015936194 -0.43657035 0.89952892 0.0020759553
-0.0014916634 0.011264839 0.015303164 0.027888954 -0.42318422 0.90561438 0.0021245698
0.0015110142 0.011378229 0.015234956 0.039740331 -0.41088575 0.91082036 0.0019622317
0.0043644472 0.011580226 0.015165658 0.048211344 -0.40250525 0.91414726 0.0018053123
0.0072872271 0.011769482 0.015109912 0.0535517 -0.36794263 0.92830515 0.0020957959
0.010135519 0.011727144 0.015062388 0.06746909 -0.39192656 0.91751927 0.0026483492
-0.030152235 0.014887181 0.015134461 -0.19894144 -0.60332382 0.77228403 0.0012907672
-0.028084075 0.014555458 0.015297178 -0.17342249 -0.56058961 0.80973077 0.0015455716
-0.025359353 0.014146025 0.01554846 -0.13546023 -0.52880698 0.83786255 0.0022042308
-0.022421071 0.013741798 0.015749687 -0.10131172 -0.48576865 0.86819625 0.0024631403
-0.019500274 0.013458822 0.015920872 -0.077289879 -0.4398486 0.89473987 0.002435667
-0.016505359 0.013450947 0.016146082 -0.04417013 -0.39452842 0.91782153 0.0025369406
-0.013536558 0.013444026 0.016250649 -0.0142152 -0.35545665 0.93458468 0.0026095931
-0.010536551 0.013417051 0.016264725 0.007523308 -0.32222888 0.94663191 0.0025965886
-0.0075447871 0.013406914 0.016217364 0.022019053 -0.29527989 0.95515704 0.0026160215
-0.0045369496 0.013456474 0.01614207 0.032972377 -0.27320185 0.96139145 0.0023986304
-0.0014990823 0.013398605 0.016007315 0.039184179 -0.25553676 0.96600497 0.002258624
0.0014483192 0.013389639 0.015871782 0.045383144 -0.24643646 0.96809572 0.0020357128
0.0044986685 0.013423932 0.015727639 0.04391364 -0.23915175 0.9699887 0.001808085
0.0074906759 0.013490648 0.015590836 0.047234084 -0.24224024 0.96906585 0.0015444699
0.010483234 0.013554429 0.015450935 0.052681085 -0.24981464 0.96685952 0.001446294
0.013504327 0.013770196 0.015329584 0.054028466 -0.26663074 0.96228325 0.0016497326
0.016541485 0.014127488 0.015230258 0.064669982 -0.28675354 0.95581907 0.0017685451
0.019317456 0.014508534 0.015144316 0.073841371 -0.2838271 0.95602804 0.0017016378
0.021883572 0.01480442 0.015049275 0.086241484 -0.30851534 0.94730181 0.0011275008
-0.036679436 0.017682904 0.015172021 -0.27353692 -0.56366616 0.77939588 0.0017298055
-0.034302838 0.017193049 0.015530626 -0.21790946 -0.52797562 0.82082725 0.0025307245
-0.031435084 0.016620984 0.015873058 -0.18695097 -0.4991065 0.84613353 0.0019135355
-0.028532086 0.016435046 0.016315449 -0.13440436 -0.44099727 0.88738769 0.0025283915
-0.025524659 0.016427808 0.016712042 -0.08477959 -0.38386852 0.9194876 0.0032588968
-0.022508129 0.016389662 0.016943855 -0.054806411 -0.33977723 0.93890768 0.0035176778
-0.019501088 0.016422076 0.017077763 -0.02388617 -0.29212826 0.95608079 0.0038273521
-0.016568609 0.016482852 0.017110715 0.00019221725 -0.25508347 0.96691906 0.0041238
-0.013464426 0.016299373 0.01701607 0.020365311 -0.21298501 0.97684318 0.0041312999
-0.010560804 0.016330706 0.016912887 0.038054485 -0.17387059 0.98403299 0.0042609847
-0.0074403747 0.016406208 0.016777521 0.051976938 -0.1266714 0.99058205 0.0046920101
-0.0044404701 0.016403224 0.016607519 0.053178776 -0.10161961 0.99340099 0.0044993642
-0.0015372151 0.01641603 0.016453601 0.051442098 -0.08690127 0.99488789 0.0042319391
0.0014965519 0.016456988 0.016301284 0.048152316 -0.053673316 0.99739689 0.0040975804
0.004505984 0.016435353 0.01616513 0.042435557 -0.067056976 0.99684632 0.0037943474
0.0075119655 0.016400127 0.016051264 0.036763251 -0.075270236 0.99648529 0.0033142911
0.010454442 0.016419791 0.015941985 0.038354557 -0.084320664 0.99570024 0.0029583136
0.013521526 0.016325353 0.015800791 0.03744084 -0.11923267 0.99216014 0.0024228506
0.016437979 0.016415061 0.015694221 0.036079258 -0.12020367 0.99209344 0.0021110701
0.019480765 0.016382886 0.01551145 0.053912573 -0.16661072 0.98454779 0.0016638744
0.022387208 0.016526794 0.015362967 0.058388412 -0.19055706 0.97993815 0.0015202905
0.025356716 0.016889654 0.015254143 0.063264802 -0.21065061 0.97551209 0.0019010312
0.028263388 0.017428752 0.015150421 0.076568715 -0.25709793 0.9633472 0.0021587235
0.030688049 0.017712308 0.015072512 0.091479689 -0.2694695 0.95865405 0.0015199381
0.033419199 0.017964993 0.015107357 0.12509003 -0.32826403 0.93626666 0.0017213782
-0.042300455 0.020749316 0.015096977 -0.34224391 -0.52875108 0.77671838 0.0016132578
-0.040221941 0.020150656 0.015504505 -0.28766024 -0.49330866 0.82091302 0.0030017134
-0.037490323 0.019494846 0.01599385 -0.25129637 -0.46463588 0.84909576 0.0019400776
-0.034533035 0.019424373 0.016673854 -0.16815969 -0.39572787 0.90284091 0.0028247526
-0.031532366 0.019407241 0.017158853 -0.11479477 -0.33788884 0.93415916 0.0039852932
-0.028520748 0.019379878 0.017447149 -0.076289423 -0.27836922 0.95743954 0.0048109009
-0.025565 0.019353008 0.017579556 -0.033135209 -0.22717486 0.97329009 0.0047075516
-0.022553869 0.019352769 0.017597087 0.0069228122 -0.13359484 0.9910118 0.0031055443
-0.019536119 0.019331802 0.017526863 0.036646716 -0.035574459 0.99869484 0.0042975126
-0.016469123 0.019310497 0.017360752 0.05215136 0.010051431 0.99858862 0.0037165629
-0.013436355 0.019389953 0.017136948 0.074113429 0.082496971 0.99383169 0.0043519065
-0.010532292 0.019368764 0.016898345 0.079521194 0.14027987 0.98691332 0.0040865955
-0.0075335088 0.019251592 0.016656475 0.081411853 0.13087699 0.98805022 0.0031939321
-0.0044879057 0.019476058 0.016382739 0.075587608 0.18487808 0.97985023 0.0032594253
-0.0014719197 0.019421579 0.016179984 0.056066241 0.18763505 0.98063731 0.0025344812
0.0014695933 0.019385833 0.016019246 0.045219451 0.18850859 0.98102993 0.0024639554
0.0045255083 0.019423697 0.01588681 0.032079998 0.18381819 0.98243666 0.0026831904
0.0076278481 0.019304559 0.015828568 0.023390565 0.14083879 0.98975617 0.0024725685
0.01057568 0.019374838 0.015777387 0.012105301 0.12516117 0.99206251 0.0027504566
0.013572992 0.019371754 0.015762635 0.014341089 0.1023154 0.99464864 0.0029015541
0.016460074 0.019359104 0.015765665 0.012998896 0.072112471 0.99731177 0.003061322
0.019455554 0.019471707 0.015740765 0.0086035384 0.042140551 0.99907464 0.0031340765
0.022486048 0.019470092 0.01569172 0.018003663 -0.018582426 0.9996652 0.0026128988
0.025525777 0.019486494 0.015598693 0.027090933 -0.074533872 0.99685043 0.0019363802
0.028499873 0.019496853 0.015472033 0.037436448 -0.10884759 0.99335325 0.0016162299
0.031496543 0.019498093 0.015309121 0.06059337 -0.16567516 0.98431718 0.0017452402
0.034391642 0.019967912 0.015215165 0.070356861 -0.20667298 0.97587711 0.0024463965
0.037117928 0.020451525 0.015125489 0.10480226 -0.26238593 0.95925498 0.0027856347
0.039910011 0.020673182 0.015090375 0.15790321 -0.29520559 0.94229519 0.0021664801
-0.045653045 0.023485644 0.015280663 -0.35800728 -0.47287041 0.80512387 0.0026592065
-0.043358147 0.022672294 0.015739433 -0.3212736 -0.44352841 0.83669937 0.0020706181
-0.040537491 0.022452665 0.016533015 -0.23546928 -0.36641189 0.90016478 0.0028836129
-0.037533186 0.022431433 0.017204983 -0.17314482 -0.30448806 0.93664718 0.0039766915
-0.034589116 0.022346007 0.017603485 -0.10813389 -0.22959009 0.96726179 0.0048064836
-0.031594586 0.022162421 0.017799348 -0.057043429 -0.12987044 0.98988879 0.0054013128
-0.028699609 0.022181541 0.017848199 -0.010832584 -0.071745425 0.99736416 0.0030288275
-0.025483795 0.022406369 0.017775662 0.038038328 0.030832779 0.99880046 0.003950614
-0.022485195 0.022336852 0.017580697 0.073866822 0.10553279 0.99166858 0.0030476958
-0.019507235 0.022258215 0.017312577 0.094264105 0.16759348 0.98133928 0.0029890581
-0.016616052 0.022329293 0.016962245 0.11287875 0.23077393 0.9664377 0.0035404973
-0.013504907 0.022376252 0.016565923 0.11458545 0.28408587 0.95192719 0.0030141366
-0.010518251 0.022336757 0.016202295 0.11558813 0.31248724 0.94286323 0.0026648559
-0.0075546303 0.022318173 0.015850361 0.10031403 0.34419772 0.93352288 0.0018725353
-0.0046619531 0.022311045 0.015525077 0.084329598 0.36809352 0.92595661 0.001707447
-0.0015536672 0.021981338 0.015391482 0.062057767 0.37424058 0.9252528 0.0018291577
0.0015172173 0.021726565 0.015306817 0.046293732 0.37789157 0.92469174 0.0018378957
0.0045060865 0.021647073 0.01523295 0.025712755 0.38165855 0.92394567 0.0021156743
0.0074112425 0.021558922 0.015233438 0.0037604165 0.37056458 0.92879909 0.0021836723
0.010577086 0.021683283 0.01521891 -0.013634671 0.35514742 0.93471092 0.002534986
0.01355473 0.021718582 0.015278452 -0.024493761 0.32566106 0.94516927 0.0029152248
0.016633432 0.0219524 0.015312036 -0.029336033 0.26656935 0.96336913 0.0030419964
0.019555664 0.022264477 0.015362139 -0.038619444 0.22020046 0.97468984 0.0026832004
0.022486025 0.022376167 0.015465116 -0.03231436 0.16801715 0.98525423 0.0024967676
0.025474142 0.022404127 0.015550726 -0.006139975 0.091881454 0.99575102 0.0025155358
0.028537881 0.022434486 0.01556487 0.003362129 0.050737474 0.99870634 0.0021018509
0.031534124 0.022487925 0.01555393 0.010969011 0.0048332256 0.99992818 0.0020883975
0.034522429 0.022469463 0.015508947 0.023372427 -0.061436452 0.99783736 0.0020078237
0.037496481 0.022448793 0.015402035 0.046649188 -0.10073215 0.99381936 0.0021172175
0.040287007 0.022748979 0.01525652 0.081338748 -0.16409425 0.98308545 0.0026801114
0.042856712 0.023438362 0.015121056 0.1474915 -0.22417839 0.96332258 0.0030985407
0.045253493 0.023836914 0.01506483 0.1659251 -0.20917971 0.96369743 0.0013627459
-0.048796419 0.026276736 0.015349657 -0.36461118 -0.39759773 0.84200639 0.0029554397
-0.046450701 0.025536938 0.015925495 -0.3186979 -0.36611921 0.87429315 0.0024175916
-0.043536901 0.025454106 0.016794311 -0.22907671 -0.2827954 0.9314239 0.004216121
-0.040552501 0.025442868 0.017411195 -0.16802059 -0.21518818 0.96200997 0.0058825635
-0.037655257 0.025283618 0.017741039 -0.1008853 -0.11104111 0.98868203 0.004617576
-0.034423146 0.025585471 0.017878378 -0.012049848 0.023119701 0.99966007 0.0046942006
-0.031447697 0.025458423 0.017824413 0.034048934 0.079469413 0.99625564 0.003009177
-0.02863094 0.025295438 0.017646205 0.069448628 0.10908999 0.9916029 0.0040666433
-0.025552381 0.025369683 0.017314121 0.11462861 0.22613689 0.96732742 0.0044974899
-0.022591492 0.025386494 0.016896825 0.13999747 0.30740508 0.94122404 0.0027208226
-0.019572264 0.025194526 0.016481204 0.14209539 0.35181576 0.92522132 0.0022843676
-0.016562512 0.024985218 0.016062163 0.14008042 0.38074592 0.91400772 0.0014476898
-0.0135586 0.025002947 0.015531633 0.13569218 0.43566358 0.88982296 0.0014052991
-0.01082402 0.024465414 0.015356151 0.12452565 0.42098948 0.89847714 0.0017095238
-0.0084475074 0.024258349 0.015177952 0.12521347 0.49848005 0.85781068 0.0015970751
0.020719264 0.024094708 0.015016552 -0.072912917 0.31062955 0.94773048 0.0016590903
0.022950454 0.024202604 0.015092003 -0.077514417 0.3349691 0.93903524 0.0022285192
0.025535533 0.024572482 0.015160797 -0.064272307 0.28204647 0.95724547 0.0034085945
0.028613064 0.025050458 0.015244427 -0.046096858 0.21075459 0.97645152 0.0029705297
0.031543933 0.025405969 0.015313556 -0.039096162 0.15705976 0.98681492 0.0020687152
0.034534685 0.025364451 0.015420612 -0.012860953 0.079996876 0.99671215 0.0017478483
0.037458435 0.025390016 0.015488753 -0.0014913005 0.047985055 0.99884695 0.0019524758
0.040470969 0.025479577 0.015476819 0.030993657 -0.035539873 0.99888754 0.0021732599
0.043455645 0.025459327 0.01532337 0.069463953 -0.086540706 0.99382365 0.0027080448
0.04597082 0.026102396 0.015146005 0.14664911 -0.15545714 0.9768967 0.0039531882
0.048268657 0.026696226 0.015032017 0.19696189 -0.19211647 0.96140379 0.00363343
-0.051643342 0.029220844 0.015302953 -0.3876619 -0.32294109 0.86338133 0.0035276038
-0.049479578 0.028495206 0.015898898 -0.31042439 -0.26797301 0.91204566 0.003288826
-0.046566654 0.028455511 0.016765419 -0.23870841 -0.20312029 0.94961071 0.0049585919
-0.043677539 0.028360412 0.01731576 -0.17506562 -0.14107512 0.97439712 0.0076738745
-0.040634528 0.028321119 0.017634343 -0.09073887 -0.0056060473 0.99585891 0.0041535008
-0.037579309 0.028398223 0.017702792 -0.0025158224 0.087780185 0.99613672 0.003671506
-0.034513041 0.028340369 0.01755894 0.058665324 0.18328977 0.98130691 0.0035312138
-0.031576194 0.028202873 0.017272731 0.10253421 0.25760746 0.96079397 0.0035323973
-0.028588321 0.028324833 0.016787358 0.14201199 0.31905106 0.93703729 0.0033020016
-0.025713397 0.028273296 0.016277904 0.17100319 0.39702561 0.90173638 0.0022082038
-0.022737816 0.028293068 0.015624532 0.17809165 0.41719487 0.89119685 0.0014208311
-0.020057384 0.027928067 0.015216609 0.17511642 0.46855819 0.86590266 0.00088062265
-0.017620137 0.027291233 0.015106812 0.18806346 0.52169269 0.83214712 0.00095256529
0.032402501 0.027225329 0.015137776 -0.091162562 0.31159532 0.94583172 0.0020253912
0.034858532 0.027425688 0.015128528 -0.072981186 0.25545552 0.96406233 0.0028122331
0.037685215 0.027934913 0.015208388 -0.053238258 0.18467951 0.98135579 0.0021752305
0.040520549 0.028325712 0.015288935 -0.028502202 0.11028825 0.99349093 0.0020692979
0.043558147 0.028367238 0.015349993 -0.0041145468 0.051629916 0.99865782 0.0023305768
0.046522602 0.028456002 0.015259466 0.056593206 -0.026452325 0.99804682 0.0026108816
0.048654202 0.029071897 0.015117785 0.12487658 -0.061550662 0.99026126 0.0045972229
0.051153369 0.029777993 0.015065367 0.12866189 -0.0486212 0.99049592 0.0023916296
-0.054267395 0.032434143 0.015112348 -0.41985741 -0.23284516 0.87721318 0.0035749371
-0.05239379 0.031577051 0.015619534 -0.31658196 -0.18150415 0.9310382 0.0036630759
-0.049556643 0.031415857 0.016450325 -0.24340734 -0.092603087 0.96549338 0.003565083
-0.046541024 0.031312671 0.017019011 -0.17374991 -0.033523574 0.98421907 0.0053557144
-0.043597009 0.031320885 0.017292159 -0.057382271 0.10945588 0.99233395 0.0054840986
-0.04060638 0.031355403 0.017284054 0.019194176 0.19796669 0.98002076 0.0040777437
-0.037589099 0.031264476 0.017071148 0.083465248 0.28198868 0.95578033 0.0036396035
-0.034598086 0.031252425 0.016668223 0.14042571 0.34253287 0.92895204 0.0033877462
-0.031768847 0.031172944 0.016138194 0.16258489 0.38834801 0.90705681 0.0022087707
-0.028681368 0.030951798 0.01555903 0.19252731 0.47538084 0.85845578 0.0015681616
-0.025929768 0.030379806 0.015186067 0.20317768 0.50485593 0.83895129 0.00091867027
0.041076522 0.030295698 0.015060085 -0.088699847 0.26673782 0.95967877 0.0020110633
0.043714989 0.030534651 0.015126884 -0.037320681 0.16398418 0.9857567 0.0019994513
0.046553589 0.030888116 0.015155242 0.0050878092 0.098537408 0.99512035 0.00204343
0.04895819 0.03106245 0.015093431 0.046729673 0.064392924 0.99682993 0.0028146799
0.051424541 0.031672575 0.015041918 0.13845994 -0.0016941974 0.99036658 0.00468454
-0.054694563 0.03466111 0.015228762 -0.34660777 -0.082457468 0.9343788 0.0038451732
-0.052557975 0.034385879 0.015854053 -0.25238371 -0.024964266 0.96730524 0.0029899285
-0.049597606 0.034350995 0.016447112 -0.14982098 0.10129452 0.98351061 0.0045923181
-0.046653543 0.034292206 0.016699413 -0.054044589 0.1874925 0.98077816 0.0047543128
-0.043554492 0.034261815 0.016666997 0.024356406 0.27218449 0.96193671 0.0032733981
-0.040629812 0.034414455 0.016320271 0.11256126 0.35923743 0.92643321 0.0027458335
-0.037805587 0.034226689 0.015921347 0.16385183 0.40861583 0.89787847 0.0021292085
-0.034769561 0.033787142 0.015488157 0.19983846 0.48572659 0.85096085 0.0015604061
-0.032461822 0.033356242 0.01513946 0.22801712 0.51381207 0.82704622 0.0012904818
0.049371708 0.033282075 0.015037409 0.011295117 0.11117972 0.99373615 0.0028467237
0.051714443 0.033609524 0.015020676 0.080552615 0.091321506 0.99255818 0.0018242261
-0.054830257 0.037155721 0.015196379 -0.26768866 0.062013663 0.96150768 0.0035776964
-0.052501034 0.037157189 0.015651995 -0.16743883 0.1080142 0.97994763 0.0030071943
-0.04958849 0.03736674 0.015867867 -0.056805525 0.23833327 0.96952069 0.0037388685
-0.046644665 0.037280962 0.015827831 0.058342602 0.34330311 0.93741083 0.0026739582
-0.043611493 0.036916181 0.015638459 0.092871338 0.38125163 0.91979462 0.0020373752
-0.040877804 0.036549371 0.015380691 0.17486387 0.47240722 0.86386001 0.0016703295
-0.038910672 0.03616982 0.015113973 0.21865295 0.54033166 0.81254697 0.0015448369
-0.05433711 0.039172422 0.015089958 -0.16037521 0.16911905 0.97246003 0.004306668
-0.052305758 0.039463729 0.01517122 -0.068183891 0.29584023 0.95280087 0.003662698
-0.049547315 0.039392248 0.015191098 0.020846322 0.35979718 0.93279767 0.0024430284
-0.047353484 0.039258383 0.015105955 0.12140701 0.45916161 0.88001758 0.0019152757
