# .PCD v0.7 - Point Cloud Data file format
VERSION 0.7
FIELDS x y z normal_x normal_y normal_z curvature
SIZE 4 4 4 4 4 4 4
TYPE F F F F F F F
COUNT 1 1 1 1 1 1 1
WIDTH 558
HEIGHT 1
VIEWPOINT 0 0 0 1 0 0 0
POINTS 558
DATA ascii
-0.071390845 0.046338119 -0.0050664525 -0.82101655 -0.21492447 -0.5289039 0.0062142876
-0.042984113 0.047545575 -0.0047667874 0.42079103 0.79459441 -0.43766966 0.00073771045
-0.040262632 0.046242386 -0.0043273931 0.41462192 0.80335951 -0.4274368 0.00069406233
-0.037833631 0.045011785 -0.00410061 0.42175853 0.80039936 -0.42600536 0.0007338213
0.04449616 0.045313232 -0.003739472 -0.5110783 0.81215668 -0.28142589 0.0024485807
0.046420015 0.046275608 -0.0044619455 -0.51473439 0.79182613 -0.32872459 0.0026954846
0.048748735 0.047447167 -0.0052367887 -0.4982267 0.78481561 -0.36855739 0.0032300602
-0.07285548 0.049596842 -0.0041276482 -0.79169512 -0.23420195 -0.56424129 0.0074881329
-0.071628012 0.04933814 -0.0056358068 -0.69767779 -0.13118862 -0.70429766 0.0050761621
-0.049274761 0.050513312 -0.0056905788 0.35935271 0.76148325 -0.53945237 0.00078473357
-0.046581771 0.04960845 -0.0045303032 0.41643173 0.79065508 -0.44883099 0.00066150189
-0.044380683 0.048712652 -0.0037833378 0.42009765 0.79263532 -0.44186795 0.0007976573
0.049925469 0.048625283 -0.0042715361 -0.50535023 0.78787905 -0.35194844 0.0027870177
0.052369021 0.050036874 -0.0046105273 -0.50413144 0.78343201 -0.36343628 0.0034422183
0.054412127 0.050745819 -0.0056048818 -0.46894643 0.76039398 -0.4493219 0.003632911
-0.075128928 0.053671792 -0.0031455972 -0.86817193 -0.11605211 -0.48250324 0.023690017
-0.07349351 0.052558806 -0.0043817223 -0.72500843 -0.19474304 -0.66063446 0.0074055907
-0.07177493 0.051985692 -0.0057790149 -0.61548173 -0.057192329 -0.78607327 0.0072588921
-0.057596434 0.053770836 -0.0059776637 0.24037789 0.80181098 -0.54709929 0.0068623163
-0.055352718 0.053443085 -0.0052007558 0.29787651 0.81905973 -0.49031705 0.0011369528
-0.052776832 0.052511707 -0.0051221214 0.32976466 0.80772048 -0.48871556 0.0011778678
-0.050479084 0.051404215 -0.0050344104 0.3577179 0.789033 -0.4994646 0.00068883714
0.053566501 0.051244199 -0.003668983 -0.48304847 0.79059196 -0.37633565 0.0029917744
0.055476647 0.05205195 -0.004423202 -0.46095458 0.78116804 -0.42106703 0.0039585559
0.058041692 0.053342383 -0.0048953248 -0.46510655 0.75745463 -0.45819038 0.0050975536
0.060297221 0.053955775 -0.0058848895 -0.38516343 0.64408726 -0.660909 0.0032177239
-0.075251698 0.055477526 -0.0032976903 -0.85314471 0.064551853 -0.51766515 0.034185745
-0.073691003 0.055408183 -0.0046974826 -0.63628793 0.11519346 -0.76280284 0.016937215
-0.071388647 0.056118421 -0.0058274139 -0.43798324 0.14364094 -0.88743329 0.012518726
-0.066621132 0.056873899 -0.0058944179 -0.042294972 0.47166005 -0.88076562 0.0066025881
-0.064249411 0.056449965 -0.0055563785 0.22472009 0.67025918 -0.70728606 0.0054342239
-0.061548263 0.055621367 -0.005212307 0.23927952 0.70316499 -0.66955531 0.0042390483
-0.058706999 0.054617167 -0.005175991 0.22581947 0.75328666 -0.61770934 0.0019306774
-0.056397617 0.054256923 -0.0043490035 0.28632599 0.82188815 -0.49246043 0.00099500071
0.059071936 0.054620165 -0.0039897459 -0.50956702 0.73442167 -0.44829261 0.0046276408
0.061438493 0.055764746 -0.0046122922 -0.46600774 0.69156969 -0.5518769 0.0063401917
0.063808396 0.056454618 -0.0055723451 -0.35900304 0.57121843 -0.7381236 0.0073745036
0.070132568 0.055808265 -0.0055921115 0.13350919 0.25472468 -0.95775288 0.0056017432
-0.073425539 0.057785504 -0.0041722273 -0.60583937 0.45939729 -0.64954817 0.024680918
-0.070709825 0.058383886 -0.0049717701 -0.30169433 0.59291619 -0.74661297 0.027646272
-0.068026699 0.057895787 -0.005306514 -0.023618134 0.55004013 -0.83480418 0.0098024271
-0.064909287 0.057935104 -0.0043422445 0.28990078 0.67568535 -0.67779565 0.0055480963
-0.06240163 0.057274025 -0.0034993121 0.32722214 0.70783132 -0.6260196 0.0033245473
0.062557869 0.057568312 -0.0035406575 -0.57656163 0.59223813 -0.56287724 0.011355108
0.06448216 0.058493219 -0.0044344426 -0.53488648 0.50914115 -0.67429346 0.015471342
0.067175113 0.058955543 -0.0054390072 -0.33052245 0.38229516 -0.8629052 0.010004937
0.069767818 0.058976632 -0.0052341507 -0.16505298 0.30673745 -0.93737382 0.017124061
-0.069449849 0.060143769 -0.0033247748 -0.18846446 0.91783392 -0.34937376 0.03046833
-0.068349503 0.060190771 -0.0033817086 0.076315761 0.88667911 -0.4560439 0.039089371
0.065274522 0.061231691 -0.0035336078 -0.63207018 0.31500763 -0.70799536 0.011323387
0.067141764 0.06164407 -0.0045368606 -0.47581923 0.30183068 -0.82613212 0.013496533
0.069538519 0.062254589 -0.0048293448 -0.31864622 0.23072189 -0.91936499 0.012281111
0.072121561 0.060526941 -0.0038248973 0.0046075159 0.22271231 -0.97487336 0.024915995
0.065912709 0.063417748 -0.0033122275 -0.71133548 0.2242303 -0.66612512 0.019469792
0.067295827 0.064562038 -0.0038890715 -0.53843099 0.20537187 -0.81726032 0.014983853
0.070023544 0.064688742 -0.0045818691 -0.40424311 0.1750384 -0.89774668 0.017818969
0.072484575 0.065272801 -0.0037181375 -0.10912765 0.030666098 -0.99355453 0.016465601
0.06778045 0.067445308 -0.0037390341 -0.61762178 0.14472491 -0.77304471 0.014208118
0.070053034 0.067625843 -0.004549202 -0.35860565 0.081112891 -0.9299584 0.015258715
0.072685555 0.067947581 -0.0040219794 -0.063380778 -0.051079292 -0.99668139 0.011035966
0.068084188 0.070474051 -0.0035229593 -0.74764311 0.11105318 -0.65474957 0.023922194
0.070043102 0.070652783 -0.0045111403 -0.51472187 0.075288288 -0.85404509 0.019864911
0.072527088 0.07076557 -0.0045054993 -0.22847338 -0.041153491 -0.97267997 0.0089911139
0.068379678 0.073436141 -0.0035361846 -0.74701601 0.083954677 -0.65948373 0.025357094
0.07015571 0.073545508 -0.0046668747 -0.57838202 0.028013065 -0.81528497 0.030436605
0.072799087 0.073735096 -0.0050985534 -0.41835093 0.0052715596 -0.90827018 0.026603058
0.07580363 0.072901033 -0.0031144484 -0.016048845 -0.043471344 -0.99892581 0.043374468
0.068586744 0.075829417 -0.0034733848 -0.82048631 0.18195698 -0.54193527 0.062065512
0.070029221 0.0757441 -0.0045810891 -0.64411533 0.092073664 -0.75936675 0.034222953
0.072429433 0.075405575 -0.0053127068 -0.40576631 0.0028904227 -0.91397232 0.050425366
-0.015811184 0.0027500608 -0.0013705039 -0.24937372 -0.9571352 -0.14732583 0.00087209442
-0.013464727 0.0021377618 -0.0015793631 -0.211211 -0.96337146 -0.1652434 0.0015492372
-0.010427616 0.0015147113 -0.0014397849 -0.15429273 -0.97956377 -0.12902901 0.0028631992
-0.0073253205 0.0010761865 -0.0014727799 -0.13473709 -0.98027587 -0.14458653 0.0037147524
-0.0046768356 0.00072462892 -0.0016128112 -0.096051961 -0.98650813 -0.13257332 0.0031030998
-0.0014259147 0.00050163071 -0.001559293 -0.055587079 -0.99300593 -0.10415983 0.0029929471
0.0016018124 0.00038532401 -0.0015502409 -0.029949401 -0.99451154 -0.10024869 0.0045614215
0.0042348714 0.00036454323 -0.0019642322 0.014180151 -0.99017018 -0.13914689 0.003656165
0.0076807695 0.00044479698 -0.0011894488 0.038481724 -0.99509513 -0.091131203 0.0018223533
0.010299467 0.00065572461 -0.0019256709 0.058283206 -0.98383522 -0.16932634 0.0028785893
0.013018846 0.00089850422 -0.0018489569 0.10474565 -0.98292142 -0.15130687 0.0027615337
0.016778355 0.0013585662 -0.0013869727 0.13444194 -0.96942508 -0.20528096 0.0022738033
0.019443713 0.0017986482 -0.0017039464 0.17718406 -0.97592717 -0.12716882 0.0018885946
0.022839908 0.0024795625 -0.0013032485 0.20677742 -0.96925694 -0.1333569 0.0021493565
0.024533721 0.0028264516 -0.0011113554 0.2216811 -0.96863794 -0.11224107 0.0019157209
-0.024863889 0.0057325922 -0.0014605245 -0.35002932 -0.91907096 -0.18107505 0.00060437666
-0.022580221 0.0048830998 -0.0016240251 -0.32546389 -0.92642146 -0.18925242 0.00058038352
-0.019572265 0.0038151671 -0.0016267917 -0.29183182 -0.94098681 -0.17140009 0.00046766343
-0.017317332 0.0031928048 -0.0016684205 -0.27325261 -0.94829118 -0.16148347 0.0006185004
0.025785036 0.0032028712 -0.0019947249 0.24713767 -0.96064198 -0.12684597 0.0021413746
0.028548406 0.0039239335 -0.0013534749 0.27228355 -0.95318848 -0.13150479 0.001467993
0.031312659 0.0048283967 -0.0019827529 0.26591948 -0.95534533 -0.12884912 0.0043190103
0.033852339 0.005634536 -0.001638016 0.31916726 -0.94325751 -0.091638252 0.0017655182
-0.033125143 0.0089494539 -0.00022262424 -0.37389964 -0.90262014 -0.21325076 0.0027352318
-0.031446829 0.0083872797 -0.0014792033 -0.3818956 -0.89874798 -0.21542488 0.00081120769
-0.028530069 0.0071836873 -0.0016465145 -0.35455146 -0.91032898 -0.21352811 0.00089199468
-0.026299451 0.0062974053 -0.0016730665 -0.35434219 -0.9131341 -0.20156345 0.0010514152
0.035466447 0.0062704124 -0.0018127712 0.36186671 -0.927378 -0.094987296 0.0018256758
0.037570357 0.0070490651 -0.0015830479 0.37788302 -0.92273694 -0.075900495 0.0013043209
0.040520664 0.0083126305 -0.0016741486 0.4038662 -0.91174686 -0.074898899 0.0021631299
-0.039159611 0.011890365 -0.00097932573 -0.44743246 -0.85969436 -0.24643399 0.0025726298
-0.037537191 0.011141282 -0.0015485943 -0.43331423 -0.87319374 -0.2230953 0.0015539718
-0.034677263 0.0097657228 -0.0015876223 -0.39480248 -0.88989913 -0.22849627 0.0013267177
-0.032895528 0.0091327792 -0.0025404165 -0.39108622 -0.8917883 -0.22751957 0.0013071635
0.041861214 0.0090632439 -0.0026945947 0.4168579 -0.90436757 -0.09137176 0.0021301457
0.043747544 0.0098290183 -0.0015984112 0.44636172 -0.89117593 -0.081034988 0.0013891481
0.046586588 0.011247762 -0.001229285 0.47324103 -0.8777467 -0.074858218 0.0019516827
-0.043283511 0.014250764 -0.0014629518 -0.5167371 -0.83133644 -0.20460324 0.0023763692
-0.040599719 0.01275875 -0.0015354514 -0.46144149 -0.85476875 -0.23757552 0.0017017808
-0.03890397 0.01200401 -0.002715993 -0.4546344 -0.86257994 -0.22195362 0.0009295955
0.047708247 0.012050567 -0.00203367 0.47674975 -0.87453169 -0.088904984 0.0021515987
0.049490027 0.012949856 -0.0015453034 0.49275869 -0.86655349 -0.079208374 0.0019400076
0.051550504 0.01412823 -0.0013016034 0.52360797 -0.84833002 -0.078554571 0.0015328811
-0.048323289 0.017749507 -0.0015716987 -0.57306588 -0.78799814 -0.22506532 0.0017971173
-0.046522237 0.016491003 -0.0015076951 -0.55052084 -0.80450946 -0.22291563 0.001915022
-0.044708882 0.015260452 -0.0017928896 -0.55673522 -0.79607224 -0.23730764 0.0028748652
0.053458594 0.01551478 -0.0019123267 0.54737169 -0.83144474 -0.095309265 0.0021476436
0.055371474 0.016779255 -0.0020109627 0.57308936 -0.79308021 -0.20637916 0.00043574889
0.057020213 0.017736021 -0.00062734348 0.57305318 -0.79310346 -0.20639022 0.00045142058
-0.051854137 0.020352295 -0.0014850125 -0.59305459 -0.78081864 -0.19649029 0.0014295127
-0.0498458 0.01885741 -0.0015637248 -0.57536781 -0.78361869 -0.23429358 0.0018220384
0.057781503 0.018597882 -0.0019562179 0.55929685 -0.81041062 -0.17441811 0.0051459782
-0.055278048 0.022971224 -0.0015117485 -0.61054534 -0.76999003 -0.18533652 0.0011122298
-0.053319059 0.021469621 -0.0016511801 -0.59994924 -0.76745003 -0.22601184 0.0025945413
-0.060092986 0.026835676 -0.00077069423 -0.67058569 -0.72235584 -0.16886939 0.001130457
-0.058515951 0.02563753 -0.0015070933 -0.64088392 -0.7444762 -0.18714455 0.00082245824
-0.056742772 0.024198635 -0.0017305299 -0.62992984 -0.74934167 -0.20414563 0.0013836221
-0.063070744 0.02991147 -0.0011671924 -0.73529714 -0.6586929 -0.15956753 0.0010797814
-0.061499909 0.028489737 -0.0015269472 -0.70916331 -0.68188053 -0.17923832 0.00083543645
-0.059959859 0.02717901 -0.0029016614 -0.66749197 -0.69425994 -0.26917952 0.0018949207
-0.064329997 0.031572383 -0.0015142597 -0.75877845 -0.63118643 -0.1608071 0.0015684739
-0.06289053 0.030144863 -0.0024440391 -0.73804158 -0.65229589 -0.17264052 0.0012490465
-0.00056628301 0.032937996 -0.0027244834 0.10916758 0.96355551 -0.24421956 0.0020820918
0.0016906484 0.032883003 -0.0019530033 0.065181918 0.98084259 -0.18357316 0.0025048465
0.0045404765 0.032875344 -0.0014290567 0.013033868 0.98387867 -0.17836165 0.0025651744
0.0077705858 0.032836795 -0.0018755796 -0.037480485 0.9848873 -0.1690924 0.0032732692
0.010097444 0.032935761 -0.0023024979 -0.095972881 0.98219663 -0.16148999 0.002320285
0.012010912 0.03299797 -0.0027728891 -0.08271613 0.98887938 -0.12359501 0.0022922549
-0.066931315 0.034820214 -0.0014774569 -0.80690163 -0.5727247 -0.14455484 0.0024372155
-0.065750793 0.033364732 -0.0016857461 -0.78032058 -0.60856313 -0.14405079 0.0017035019
-0.015226034 0.035749622 -0.0025333876 0.26703593 0.94926411 -0.16610099 0.0027513593
-0.013475299 0.035390701 -0.0014421811 0.2620295 0.94428039 -0.19918633 0.0041687018
-0.010455358 0.034634527 -0.0011493621 0.24034557 0.94516718 -0.22111773 0.0014449627
-0.0074580521 0.033998154 -0.0015018126 0.17890157 0.96747881 -0.17882681 0.0016545893
-0.0045167496 0.03346312 -0.0021146561 0.13400112 0.95777637 -0.2543779 0.0018862297
-0.0013517482 0.033200048 -0.0013354551 0.10516005 0.98146081 -0.1602374 0.0013380387
0.0013521607 0.033088088 -0.00064943766 0.043878973 0.99624598 -0.074622594 0.0017400628
0.0049072225 0.033028815 -0.00021962015 0.010911281 0.99991226 -0.0075088525 0.0013504233
0.0078736106 0.033033378 -0.00051978126 -0.034832135 0.99924225 -0.017369464 0.0013750212
0.010761283 0.033132199 -0.0012015669 -0.082702741 0.99365729 -0.076193377 0.0028376319
0.0137081 0.033436716 -0.0015296163 -0.1392082 0.98286426 -0.12082627 0.0023532356
0.016619602 0.033936683 -0.0015963041 -0.20149398 0.97127944 -0.12655599 0.0023060662
0.01952398 0.034633711 -0.0015566736 -0.25307259 0.96137589 -0.10821563 0.0018437899
0.022440819 0.035434261 -0.0015752839 -0.27019492 0.95794427 -0.096631169 0.0015363247
0.024252763 0.035863589 -0.0023970224 -0.29395804 0.94922996 -0.11203248 0.0025810222
-0.069388174 0.038410753 -0.0013578977 -0.85118496 -0.50128073 -0.15556929 0.0049202028
-0.068394877 0.036957655 -0.0016690806 -0.81883383 -0.56013972 -0.12551779 0.0022359481
-0.024459209 0.038920883 -0.0028718614 0.38981152 0.87807041 -0.27755982 0.0017094819
-0.022563975 0.0383959 -0.0010284395 0.35474956 0.9053517 -0.23343338 0.0011176855
-0.01953291 0.037200391 -0.0012314109 0.3115944 0.9300878 -0.19453959 0.0033523983
-0.016640682 0.036254704 -0.0018772401 0.26703468 0.94926465 -0.16609982 0.0027517159
0.026166353 0.036529403 -0.0016691482 -0.29706284 0.94280523 -0.15123503 0.0018712407
0.028656423 0.037360575 -0.0016365283 -0.3219761 0.93364048 -0.15699291 0.0023474316
0.031537697 0.038396865 -0.0016674794 -0.35744843 0.92378116 -0.13732798 0.0017673408
-0.070554972 0.040463023 -0.0015613339 -0.88278776 -0.44666237 -0.14552835 0.0038869984
-0.026056457 0.03976848 -0.0015335878 0.39663154 0.87334394 -0.28276101 0.001867741
0.032812409 0.039072156 -0.00050928234 -0.3659375 0.92838347 -0.064760685 0.0033319509
0.034585986 0.03980495 -0.0014017045 -0.44071051 0.89410597 -0.07967934 0.0023660643
0.037254486 0.041164726 -0.0015624589 -0.48856196 0.86736453 -0.094794668 0.0019201208
-0.072272971 0.044278432 -0.0012722159 -0.93106794 -0.33461064 -0.14542437 0.006859954
-0.071608461 0.042894896 -0.0017564773 -0.90273941 -0.40511796 -0.14471002 0.0049033551
0.03876882 0.042103946 -0.0015215775 -0.52354866 0.84612888 -0.099813454 0.0026431866
0.040523827 0.043175548 -0.0014900778 -0.52075255 0.84884208 -0.091016226 0.0024724125
0.042555626 0.044471361 -0.0016301093 -0.54676646 0.83346975 -0.079840727 0.0024453723
-0.072999232 0.046497069 -0.0015625563 -0.93308347 -0.30068815 -0.1973369 0.0095763337
0.044158354 0.045553036 -0.0014201378 -0.54179883 0.8358466 -0.088399261 0.0027023563
0.046397895 0.047031537 -0.0015706556 -0.55530298 0.82220101 -0.12499637 0.0035952544
0.048079532 0.047832798 -0.0029624095 -0.53060025 0.80679339 -0.25989962 0.0016034724
-0.075062104 0.050796956 -0.00060406118 -0.91456968 -0.37531835 -0.15065967 0.025192233
-0.074087933 0.049496591 -0.0015755021 -0.91478097 -0.33929011 -0.2192214 0.01493257
0.047856733 0.048146307 -0.00062835612 -0.55690527 0.82514936 -0.094789766 0.004381462
0.04944035 0.049074303 -0.0015961869 -0.53016609 0.83703083 -0.13529024 0.0035709988
0.051566463 0.050504677 -0.0016001897 -0.55344194 0.82452846 -0.11770592 0.0037981102
-0.075549625 0.052718185 -0.0013804331 -0.93247783 -0.29059783 -0.21456465 0.017420955
-0.074738592 0.051611293 -0.0023843867 -0.88784456 -0.33661243 -0.31372619 0.016421672
-0.053263385 0.053733349 -0.0024976654 0.32806307 0.85181552 -0.40839309 0.0013087512
0.053154089 0.051581256 -0.0014530184 -0.53942615 0.83152634 -0.13260245 0.0049208924
0.055502743 0.053074855 -0.0016161083 -0.54307562 0.8235575 -0.16377448 0.0056584426
0.057038367 0.053994812 -0.0018248598 -0.59775978 0.79041821 -0.1338744 0.009946215
-0.076080233 0.05540695 -0.0015867677 -0.95868832 0.062377878 -0.27753505 0.036484476
-0.060706556 0.056740098 -0.0026360985 0.37008923 0.78537804 -0.49620086 0.0031020597
-0.058014069 0.055651143 -0.002148923 0.34384733 0.83624744 -0.4271526 0.0017538266
-0.055439718 0.054650139 -0.0020836929 0.32383227 0.85646135 -0.40200335 0.0013652075
0.056877833 0.05412085 -0.00063261989 -0.53882074 0.83690053 -0.096278973 0.0067812786
0.05851689 0.055160455 -0.0016464308 -0.57071215 0.7911126 -0.22006479 0.0087865833
0.060582101 0.056665652 -0.0017913099 -0.65652531 0.72324735 -0.21421434 0.010697609
-0.075492844 0.057267882 -0.0016166128 -0.90040874 0.35465059 -0.25196663 0.044479914
-0.073838063 0.058275159 -0.0016777836 -0.64712965 0.72158545 -0.24604385 0.025602918
-0.071049608 0.05969568 -0.0017684102 -0.42686266 0.87806696 -0.21630234 0.018639604
-0.066194721 0.059853144 -0.0026928105 0.28736794 0.89588225 -0.33884329 0.019868771
-0.065320686 0.059470203 -0.0026064939 0.31821331 0.80623031 -0.4987314 0.014279634
-0.062090006 0.057967257 -0.0016683928 0.39832777 0.76676655 -0.50339258 0.0026239965
0.0620296 0.058307994 -0.0014262731 -0.75072694 0.62049955 -0.2266926 0.020522494
0.063345045 0.059454985 -0.0024057128 -0.75584972 0.5741846 -0.31464791 0.021989627
-0.069867633 0.060261991 -0.0010631566 -0.4041999 0.91020423 -0.090281397 0.013762726
-0.068217531 0.060714465 -0.0015929505 -0.14595664 0.94586474 -0.28989062 0.037161235
0.062942021 0.060150716 -0.00038058535 -0.82689637 0.55807441 -0.069248512 0.020492658
0.064125791 0.061463546 -0.0015792235 -0.85205275 0.43612862 -0.28947863 0.028441478
0.065142617 0.064402714 -0.0015123498 -0.9159078 0.26017568 -0.30564943 0.026269624
0.066147223 0.06545981 -0.0027570578 -0.8601895 0.19371586 -0.4717502 0.031842075
0.065655962 0.06725505 -0.00099210953 -0.95308554 0.21939559 -0.20855118 0.038813092
0.066370636 0.067790933 -0.0022986098 -0.90253258 0.20956041 -0.37619057 0.02341919
0.065960139 0.069315292 -0.00056453043 -0.94383246 0.21544483 -0.25052723 0.046020966
0.066697732 0.070545144 -0.0015865214 -0.91214895 0.19630903 -0.35978749 0.021750486
0.067215174 0.073472366 -0.0016423415 -0.91870034 0.16905543 -0.35694525 0.029590648
0.067615427 0.076094098 -0.0015372497 -0.94995892 0.23880793 -0.20136739 0.072585598
0.06940873 0.077056438 -0.0027971403 -0.61964613 0.65327001 -0.43505979 0.072997347
-0.018459175 0.0029051513 0.0023070138 -0.2503756 -0.96803522 0.014825941 0.0081226295
-0.016426161 0.0025785018 0.001425902 -0.23111248 -0.972736 -0.019279255 0.0049282247
-0.013667184 0.0019660345 0.0013411441 -0.20432521 -0.97888052 -0.0066393716 0.0019178422
-0.010446036 0.0014208159 0.0014892778 -0.153401 -0.9846639 0.083096631 0.0044365698
-0.0073788515 0.0010352415 0.0012940721 -0.12338119 -0.98728186 0.10025788 0.0031918604
-0.0046587992 0.00070317317 0.0015472304 -0.090098575 -0.992984 0.076583683 0.0032404037
-0.0012561391 0.00050178939 0.0014477689 -0.057380382 -0.99648499 0.061034657 0.0031578254
0.0018456844 0.0003836047 0.0013060223 -0.021282097 -0.99935138 0.029048715 0.0049953377
0.0043947012 0.00035567369 0.001415289 0.023834387 -0.99156028 0.12743616 0.0052333083
0.0076421299 0.00047726533 0.0011292297 0.047698304 -0.99857676 0.023859654 0.0037917208
0.010361098 0.00063405646 0.0014420714 0.074272841 -0.97604883 0.20448057 0.0064915679
0.013504788 0.00094829296 0.0013745253 0.10269997 -0.98649174 0.12761979 0.0044221906
0.016429501 0.001343151 0.0014204825 0.14721896 -0.9814828 0.12254825 0.0042199702
0.019279839 0.001752011 0.001234056 0.17327225 -0.97242475 0.15609889 0.0035266543
0.022580335 0.0025107677 0.0015311157 0.19851613 -0.96934801 0.14476129 0.003035726
0.024613598 0.0028523349 0.00098307151 0.21855855 -0.96614635 0.13708854 0.0033908125
-0.027490061 0.0057291538 0.0021212366 -0.33559239 -0.93865913 -0.079351395 0.011095746
-0.025437741 0.005350831 0.0014224317 -0.31251121 -0.94185984 -0.12343702 0.0051255315
-0.022426402 0.0043585571 0.0013341658 -0.321071 -0.94502181 -0.062025607 0.0025780071
-0.019660104 0.0034438304 0.0013820652 -0.29731867 -0.9529177 -0.059576754 0.0024159362
-0.017828995 0.0031583861 0.00043359338 -0.25465822 -0.96452457 -0.069582261 0.0021617259
0.025789864 0.0032189309 0.0016852403 0.22673738 -0.9606548 0.16041332 0.0046736123
0.028534072 0.0039818818 0.0015130909 0.27586782 -0.95406967 0.116825 0.0025789281
0.031221205 0.0047715744 0.0014259869 0.29098013 -0.9502086 0.11150897 0.0019194025
0.033822294 0.005611836 0.00116221 0.32405645 -0.9405545 0.10170922 0.0023202635
-0.036078498 0.0089116879 0.0021837798 -0.39450738 -0.9107179 -0.12229819 0.015088528
-0.034230117 0.0085128704 0.0016529311 -0.37625566 -0.9166708 -0.13470861 0.0072026011
-0.031482484 0.0076214937 0.0014100517 -0.36063805 -0.92107505 -0.14683689 0.0035853155
-0.028761405 0.0066684992 0.0011685467 -0.36687368 -0.91711074 -0.15592152 0.0042157192
-0.026578706 0.0061728838 0.00056425057 -0.33306813 -0.93017274 -0.15441594 0.0038309097
0.035436098 0.0062391916 0.0011773104 0.35748145 -0.9278388 0.10640581 0.0023185541
0.03753221 0.0070794821 0.0014520895 0.36614081 -0.92541707 0.097693518 0.0020019496
0.040343758 0.0082382616 0.0013406717 0.40463316 -0.91204506 0.066676952 0.0021681944
0.042148046 0.0089787561 0.00075155613 0.43258655 -0.90128493 0.023543969 0.0010077991
-0.042178281 0.011922578 0.0023681335 -0.44882137 -0.88296026 -0.13762456 0.01572768
-0.040296186 0.011325171 0.0017902016 -0.44412318 -0.88305587 -0.15154852 0.0089863893
-0.03754092 0.010280648 0.0013143478 -0.44485027 -0.87477773 -0.19202121 0.0044742529
-0.03495048 0.00946532 0.00070939329 -0.40482333 -0.89615864 -0.18170783 0.0047590579
0.04190734 0.0090929922 0.0023091203 0.42721149 -0.90177804 0.065472998 0.0019824135
0.043852717 0.0098884022 0.0012283553 0.43538198 -0.89791024 0.064806335 0.0018662991
0.046425112 0.011182595 0.00099273259 0.47240061 -0.87774938 0.079960071 0.0017863601
0.048021652 0.011981502 0.0005217712 0.48346886 -0.87390083 -0.050548747 0.0013137758
-0.045767974 0.014418283 0.0020432922 -0.54379666 -0.81935203 -0.18151432 0.0076993406
-0.043526147 0.013426537 0.0013917527 -0.52276421 -0.82284313 -0.22281535 0.0072296499
-0.04091461 0.012532141 0.00067406293 -0.46350297 -0.85911196 -0.21700621 0.0055739619
0.047715254 0.012036074 0.0019213828 0.48479217 -0.87131214 0.076103166 0.0020222641
0.04946984 0.01298954 0.001445606 0.49708557 -0.86723071 0.028581185 0.0022848481
0.051247958 0.013962506 0.00051727478 0.52215159 -0.8499794 0.069947913 0.0018654153
-0.051152572 0.017894655 0.0027957002 -0.55003512 -0.83293104 -0.060723398 0.014203016
-0.049253251 0.017062023 0.0017982894 -0.55537081 -0.80970162 -0.18959591 0.007635701
-0.046805862 0.015918754 0.0011004775 -0.55377388 -0.80376279 -0.21748546 0.0055758171
-0.044847317 0.015137487 0.00038585271 -0.55087584 -0.80227494 -0.22997972 0.0059237387
0.053588409 0.015639279 0.0010370421 -0.58308953 0.78589642 -0.20584825 0.0037380387
-0.05440915 0.020584399 0.0024022774 -0.62260658 -0.75179565 -0.21717358 0.0064144698
-0.052378383 0.019643776 0.0016042189 -0.59452122 -0.76109576 -0.25937945 0.0064571034
-0.050134424 0.018641401 0.00076633127 -0.58448154 -0.77118558 -0.25229767 0.0048026075
-0.057572082 0.023491768 0.0023325991 -0.66492933 -0.7312597 -0.15207949 0.005746658
-0.055630174 0.022396814 0.0014612149 -0.62923336 -0.74206519 -0.23109438 0.0055067553
-0.053568646 0.021375049 0.0006829293 -0.59287918 -0.76298571 -0.25757903 0.0048057945
-0.060468588 0.026496399 0.0020275807 -0.72125947 -0.67793673 -0.14207977 0.0017697779
-0.058744442 0.025205875 0.0013815067 -0.66339886 -0.7249006 -0.18552905 0.0024087005
-0.056834277 0.024096908 0.00053450413 -0.61529708 -0.75709128 -0.2195956 0.0027492631
-0.063280374 0.029704792 0.0022092278 -0.76871675 -0.63338399 -0.088877499 0.00091726857
-0.061805204 0.028319819 0.0014328287 -0.74084121 -0.66054505 -0.12179726 0.0008602055
-0.064527579 0.03145615 0.0014988352 -0.79665816 -0.60313761 -0.039506879 0.0016441685
-0.00085345458 0.032963142 0.0027282084 0.10932947 0.99175286 0.066883512 0.0028004157
0.0025026782 0.032930695 0.0014173288 0.035057146 0.99749035 0.061514039 0.0010230045
0.0052996515 0.032918923 0.0012662674 -0.0029880356 0.99914569 0.041218419 0.0019046103
0.0078465017 0.032790001 0.0022606738 -0.053055897 0.99269253 0.1083822 0.0053464714
0.010361503 0.032879148 0.002708622 -0.086926915 0.97948146 0.18182328 0.0027014364
0.012278242 0.032976285 0.0029321185 -0.087502517 0.97470379 0.20565984 0.0065278052
-0.06694717 0.034675732 0.0014929604 -0.82607204 -0.56273043 0.030652378 0.001664972
-0.065845162 0.033205878 0.0014001722 -0.80970216 -0.58680171 -0.0067964881 0.0011482351
-0.0066216551 0.034056712 0.0012618202 0.1678955 0.98026013 -0.10440873 0.0018784204
-0.005040078 0.033845462 0.00038141222 0.15644474 0.98525012 -0.069334753 0.0017670032
-0.00066086877 0.033213697 0.0010495825 0.04973818 0.99785906 0.042467657 0.0032010691
0.0027198945 0.033017136 0.00043366541 0.031483486 0.99885648 -0.035979118 0.0032026009
0.005266482 0.033023015 0.00010183261 -0.0020040898 0.99994272 -0.010521787 0.0011768857
0.0085239885 0.033030488 0.0008383813 -0.068788543 0.99626327 0.052227605 0.0043210592
0.010554052 0.0331464 0.001066329 -0.077733628 0.99445862 0.070777565 0.0043042535
0.013515221 0.03344452 0.0013286583 -0.1296417 0.99033099 0.049371216 0.0033807298
0.0165509 0.033974763 0.0012698597 -0.19341761 0.9788146 0.067168511 0.0036329981
0.019606918 0.034712948 0.0011734377 -0.24429545 0.96658081 0.07772591 0.0033674478
0.02257121 0.035480246 0.0015773145 -0.2657114 0.96239686 0.056477223 0.0029117265
0.024578938 0.03595024 0.0025130401 -0.2872341 0.94323218 0.16676168 0.0049111447
-0.069400184 0.038375806 0.0013575024 -0.86498517 -0.49099594 0.10355525 0.0039557307
-0.068444267 0.03687872 0.0014960691 -0.84103507 -0.53833193 0.053467728 0.0016109505
-0.016338486 0.036292892 0.0013535171 0.26760396 0.95246637 -0.14558843 0.001411899
0.025738996 0.036451556 0.0013855661 -0.28720275 0.94950336 0.12632501 0.0029673753
0.028616851 0.03738112 0.0014060639 -0.30958143 0.94126928 0.13480154 0.0027517839
0.031855643 0.038607098 0.00092380762 -0.38446701 0.92299008 0.016564922 0.0025311883
0.033071596 0.038898516 0.0024899156 -0.3980428 0.90573531 0.145621 0.0053263749
-0.070546873 0.040476009 0.0014402174 -0.89526314 -0.43076423 0.1137812 0.0032853668
0.032764316 0.039032362 0.00054591597 -0.41466847 0.90156007 0.1234484 0.003967775
0.034646962 0.039885905 0.0009494992 -0.42944694 0.90252644 0.031957537 0.0029042708
0.037326604 0.041204736 0.0014132936 -0.48396429 0.87091833 0.085322268 0.0022824721
-0.072238445 0.044347163 0.0010394189 -0.93522835 -0.31823725 0.15515475 0.0073920074
-0.07162156 0.042980727 0.0016404931 -0.91411537 -0.3596341 0.18723343 0.0061495868
0.038808949 0.042160876 0.00080940127 -0.52149612 0.85128832 0.057880159 0.0025119365
0.04048565 0.043090031 0.0014857545 -0.51933056 0.84854382 0.10133658 0.0022611907
0.042659 0.044463828 0.0016982657 -0.54519665 0.83156598 0.10610735 0.0022346277
-0.072869949 0.04647943 0.001400063 -0.92951977 -0.29434144 0.22216241 0.0063912105
0.044144485 0.045486461 0.0013616873 -0.53851002 0.83624977 0.10340834 0.002616104
0.046389315 0.046969187 0.0014711613 -0.56127143 0.81862998 0.12173503 0.0027007828
0.048359439 0.04797136 0.0027864994 -0.53471398 0.81247497 0.23230466 0.0037363451
-0.075055569 0.050811619 0.00011281999 -0.96123236 -0.27563873 0.0074655223 0.013603806
-0.073964082 0.049499225 0.001417962 -0.90844464 -0.35940257 0.21344374 0.010329554
0.047911119 0.0481808 0.00040645027 -0.53525966 0.83541715 0.12480094 0.0038842915
0.049526248 0.04907997 0.0014207554 -0.54019773 0.83252275 0.12285105 0.0031093163
0.051734101 0.050528102 0.0015716309 -0.56116802 0.819368 0.11716082 0.0032659706
-0.075552873 0.052769426 0.0010686349 -0.94153899 -0.27009642 0.20137599 0.016003298
-0.074718758 0.051722299 0.0020704558 -0.90374339 -0.33066279 0.27186382 0.011853897
0.053204481 0.051593274 0.0010916926 -0.53189236 0.83851916 0.1182202 0.0040786094
0.055513117 0.053022422 0.0014455417 -0.55025893 0.8235516 0.13776018 0.0043933406
0.057230186 0.053838085 0.0024395364 -0.55823976 0.79183322 0.24772681 0.00898486
-0.076046295 0.055396069 0.0013170723 -0.97213829 0.058291964 0.22704437 0.031388551
-0.074972488 0.056923598 0.0029989495 -0.79194343 0.28213713 0.54150194 0.051140402
0.056875106 0.054215506 0.00026411403 -0.5602268 0.82391453 0.085503332 0.0087139895
0.058514968 0.055147745 0.0012918561 -0.57646507 0.80502123 0.14010262 0.0058268043
0.060605872 0.056628361 0.001515999 -0.6633634 0.72539693 0.183707 0.0099691954
-0.075492062 0.057291776 0.0011142981 -0.88559717 0.41542199 0.20770729 0.036121942
-0.073736846 0.058313314 0.001768392 -0.63794529 0.73364538 0.23407309 0.022382436
-0.07123749 0.059602182 0.0014296334 -0.45847765 0.87610734 0.14911145 0.014851613
0.06204107 0.058246203 0.0011537754 -0.77279413 0.61561579 0.15429303 0.019685324
0.063447602 0.059442323 0.0020339293 -0.76293933 0.59787571 0.24590255 0.018748654
-0.069704175 0.060348637 0.00087088777 -0.45273593 0.89157796 -0.010901466 0.0095121739
-0.068547986 0.060807113 0.00077830185 -0.33981356 0.93973935 -0.037638105 0.012395221
0.062961161 0.060117308 0.00018573678 -0.80181384 0.56838655 0.18447582 0.021997115
0.064271398 0.061565913 0.0012802206 -0.86011487 0.45656538 0.22748725 0.019414905
0.065137424 0.064364508 0.0010382115 -0.95380235 0.26091862 0.14893831 0.027303338
0.066390969 0.065250963 0.0023972213 -0.92286617 0.23877758 0.30216449 0.01830814
0.065671504 0.067134745 0.0006669219 -0.9770841 0.19601873 0.08296553 0.019362226
0.066537552 0.067842349 0.0016587358 -0.95097852 0.22125895 0.21606556 0.025075877
0.069837995 0.067960717 0.0029772602 -0.23392813 0.12352444 0.96437514 0.009535701
0.06595429 0.069343284 6.5027751e-05 -0.94318402 0.28467748 -0.17135543 0.050208524
0.066763006 0.070499673 0.00098656514 -0.93908268 0.25905374 0.2258644 0.027093073
0.069323204 0.071429625 0.0026609984 -0.62454498 0.061864868 0.77853477 0.019568224
0.067313768 0.073585287 0.00099910039 -0.94646627 0.15967035 0.28054765 0.027307957
0.069111928 0.073240139 0.0026409298 -0.77995872 0.10523517 0.61691982 0.033026677
0.067760482 0.076061122 0.0011657745 -0.99260944 0.099015407 0.070159294 0.052519284
0.069167688 0.076797456 0.0024942087 -0.91677749 0.19695948 0.34745646 0.046829306
-0.018220937 0.0029441435 0.0031940679 -0.23555282 -0.95837963 0.16131778 0.0074005569
-0.016332274 0.0026805559 0.0037717889 -0.21478926 -0.95360613 0.2109523 0.0078872377
-0.013434415 0.0023188519 0.0042967657 -0.15807541 -0.94878167 0.27354258 0.0036059637
-0.010378813 0.0018387663 0.0043091322 -0.144473 -0.94584262 0.290705 0.0032334693
-0.0073046642 0.0014922334 0.0043027964 -0.1189279 -0.95344317 0.27713215 0.003128805
-0.0046874257 0.001202449 0.0041691256 -0.094969101 -0.96672386 0.23754129 0.0041346983
-0.0021163099 0.00098653894 0.0038739722 -0.055376261 -0.96862841 0.24226539 0.003435571
0.0012932944 0.0010437202 0.0041915411 -0.011583155 -0.95335168 0.30163944 0.0023011321
0.0043600528 0.0011936505 0.0044229422 0.036043741 -0.92961544 0.36676413 0.0020538291
0.0074697416 0.0014724786 0.0045822794 0.058152854 -0.92151278 0.38396931 0.0020297011
0.010318026 0.0015321278 0.0043870755 0.075104222 -0.91974032 0.38527542 0.0019557695
0.013455525 0.0018389537 0.0043908618 0.10545666 -0.91712791 0.38438952 0.0038594864
0.016552243 0.0022378557 0.0044604316 0.11406262 -0.90305436 0.41410446 0.0027086269
0.019383423 0.002539929 0.0042299293 0.13081193 -0.905958 0.40265173 0.0043810843
0.02213205 0.0028122105 0.0035730731 0.21022919 -0.94672734 0.2439488 0.0032361648
-0.027509257 0.0058290483 0.0033855462 -0.32468307 -0.93121523 0.16558705 0.01599755
-0.025360923 0.0054387664 0.0041516656 -0.28192604 -0.93733275 0.20475617 0.012168465
-0.022521451 0.0046541481 0.0044225282 -0.27441278 -0.92331511 0.26867616 0.0053261565
-0.019562695 0.0037756688 0.0044939024 -0.27085656 -0.92451942 0.268143 0.0054233726
-0.016819431 0.0033974105 0.00524406 -0.22362073 -0.92430043 0.30929351 0.005021398
-0.014557633 0.0031089187 0.0057224557 -0.16848908 -0.90372622 0.39356112 0.0013833907
0.020127745 0.0034550831 0.005760252 0.15288126 -0.84784037 0.50773424 0.0038746353
0.022726715 0.0035468254 0.0050022136 0.18911068 -0.87937248 0.43696815 0.0034139091
0.025030222 0.0039398237 0.0047160769 0.21296896 -0.89360255 0.39511853 0.0031911493
0.02805726 0.0045536864 0.0042814198 0.25198787 -0.92260128 0.29207709 0.0036406768
0.031743407 0.0056137368 0.0043281084 0.2924684 -0.92462629 0.24398464 0.002287352
0.033199623 0.0059237583 0.003741876 0.30965188 -0.91905159 0.24384393 0.0026760343
-0.036046423 0.0089542074 0.0032952684 -0.29003656 -0.95424724 0.07273902 0.029875576
-0.034171805 0.0085026845 0.0038934983 -0.36396188 -0.92711216 0.089413382 0.013308168
-0.031653509 0.0077297441 0.00431119 -0.33344215 -0.92046982 0.20384204 0.0057373215
-0.028783053 0.0067141559 0.0044684508 -0.34348336 -0.91502368 0.21154392 0.0068781134
-0.026129311 0.0062136659 0.0054822098 -0.29834136 -0.89539516 0.33054495 0.0041693659
0.032180447 0.0063373111 0.0055459472 0.26755637 -0.87087035 0.41230875 0.0035740489
0.034691531 0.0066178562 0.0040546111 0.32960927 -0.91703427 0.22451262 0.0029052938
0.037287928 0.0078920051 0.0047616735 0.34311867 -0.88078749 0.32631737 0.002682968
0.039800514 0.0087042879 0.0041075544 0.36207291 -0.87074625 0.33272237 0.0025721805
-0.042135119 0.011929932 0.0032165281 -0.44083661 -0.89689881 0.035152689 0.020739751
-0.040349603 0.011404033 0.004017896 -0.43917543 -0.89187038 0.1081303 0.014560531
-0.03739237 0.010097531 0.0042891428 -0.42501801 -0.88870698 0.1719292 0.0053068986
-0.035061389 0.0093533872 0.0051941099 -0.36874717 -0.89198756 0.26150292 0.0082211457
0.041124925 0.0095814206 0.0048586782 0.38564032 -0.85914439 0.33638141 0.0028481525
0.043406684 0.010223063 0.0037621236 0.43538636 -0.87524235 0.21068837 0.0012957634
0.045858588 0.011344522 0.0033018398 0.46719396 -0.84656924 0.25504974 0.0041014859
-0.045720961 0.014481552 0.0039534746 -0.54102033 -0.83798492 0.071262166 0.019902743
-0.043591265 0.013288813 0.0043550031 -0.51857853 -0.83527517 0.18273385 0.0065013804
-0.041233335 0.012312048 0.0052799447 -0.44321617 -0.85075706 0.2824392 0.0066048782
0.04712965 0.012675743 0.0049269157 0.44538775 -0.83706957 0.31771746 0.003044615
0.050104059 0.014085256 0.0041060741 0.51867175 -0.80155736 0.29746509 0.0016604738
-0.0512072 0.017932206 0.0034732879 -0.53253114 -0.84641033 -0.00020901773 0.020986754
-0.049442414 0.017033933 0.004229066 -0.55879742 -0.82659864 0.066933878 0.020928701
-0.047049206 0.015575957 0.0045765946 -0.56475228 -0.81474817 0.13130218 0.011490891
-0.054449726 0.02061533 0.0039570816 -0.63046134 -0.77508533 0.041966338 0.022348948
-0.052587606 0.019373424 0.0042660688 -0.60882068 -0.78247291 0.13066553 0.0086287521
-0.050562963 0.018330632 0.005398625 -0.54228503 -0.80149329 0.25206253 0.0098331142
-0.057663634 0.023417939 0.0040959422 -0.65654331 -0.75421995 0.010152434 0.016667064
-0.055828873 0.021937251 0.0043754056 -0.6490109 -0.75486827 0.09465082 0.010182598
-0.053977344 0.021053221 0.0059468853 -0.58519453 -0.74321741 0.32430744 0.002438243
-0.060609594 0.026322939 0.0040922468 -0.7394861 -0.66951215 0.070097789 0.011118523
-0.059123076 0.024906177 0.0044380445 -0.70581311 -0.70477217 0.071581759 0.0094507476
-0.063372277 0.029576302 0.0040023979 -0.7908724 -0.58493406 0.17992467 0.011083255
-0.062056109 0.02815681 0.0044159484 -0.76434922 -0.62919462 0.14101176 0.0094655519
-0.066027567 0.032990567 0.0034543979 -0.80634189 -0.55241704 0.2113011 0.01201158
-0.06462349 0.031492211 0.0043177134 -0.80625963 -0.56193089 0.18487573 0.0076109278
-0.00060604716 0.03276471 0.0035322546 0.089111052 0.99185282 0.091034204 0.0019623698
0.0026591623 0.032502841 0.0036110643 0.054572951 0.98733133 0.14899208 0.00045397232
0.0050009647 0.032037444 0.0045399391 -0.0093021775 0.95551598 0.29479274 0.00097959233
0.0079498524 0.032145731 0.0043912865 -0.037514169 0.94100833 0.33629751 0.0031498945
0.010592937 0.032422613 0.0041890047 -0.092108287 0.95911419 0.26761162 0.002322458
0.013532358 0.032473411 0.0048628659 -0.12757136 0.93410677 0.33342177 0.0016658213
0.016766522 0.032754496 0.0055634528 -0.18634938 0.89583737 0.40342215 0.0014099163
0.018091269 0.032823734 0.0059877443 -0.21631196 0.84300721 0.49249172 0.001481409
-0.066766202 0.034767065 0.0042158971 -0.83261484 -0.50014234 0.23792875 0.0071909931
-0.065709241 0.033424065 0.0048893732 -0.81599009 -0.53694808 0.21411891 0.008091257
0.013955167 0.033135254 0.0034116639 -0.13009208 0.94104654 0.31226194 0.0019825441
0.016713889 0.033416338 0.0039379192 -0.1794194 0.93157935 0.31617808 0.0019955127
0.019644283 0.03390887 0.0045257765 -0.23154759 0.90037644 0.3683857 0.0016937779
0.022535905 0.034774426 0.0043801758 -0.26166236 0.90038991 0.3476074 0.0014113724
0.025403509 0.035423249 0.0047984216 -0.26505572 0.89470947 0.35950029 0.0021968554
0.027800098 0.035852067 0.0055439584 -0.29279986 0.87970287 0.37468809 0.0018790066
-0.069185808 0.03867992 0.0034844757 -0.84742844 -0.41821277 0.32705206 0.0063411519
-0.068117768 0.037354674 0.0044553028 -0.83871895 -0.46269894 0.28715891 0.0047698901
0.026289141 0.036157656 0.0036106524 -0.27949819 0.9098087 0.30680445 0.001510328
0.028353993 0.036632709 0.0041213995 -0.30146697 0.91464156 0.26934835 0.0019116063
0.031545352 0.03768798 0.0043588858 -0.3553347 0.87843257 0.31952071 0.0022409486
0.033743642 0.038586877 0.00448588 -0.39934915 0.87277675 0.28067967 0.0026401451
-0.069747716 0.040587671 0.0041863811 -0.85957503 -0.36202988 0.36064547 0.004757483
-0.068738624 0.039660767 0.0054676295 -0.82723826 -0.33790311 0.44888577 0.0052428511
0.035115331 0.039442606 0.0039478331 -0.40862808 0.8576656 0.31214216 0.0023329216
0.037982732 0.04097179 0.0039484627 -0.47723567 0.85300964 0.21123627 0.0027524629
0.039736677 0.041570574 0.0050382717 -0.49991578 0.80934978 0.30828118 0.003139745
-0.072057389 0.044956841 0.0030475515 -0.87015957 -0.30908051 0.38378584 0.014696094
-0.070740134 0.043466385 0.0043254313 -0.85254043 -0.29497144 0.4314703 0.0041118828
0.041070718 0.042815514 0.0039938763 -0.50563228 0.82728618 0.24481346 0.0019224291
0.043406472 0.044123046 0.0044465503 -0.51060438 0.80872494 0.29197109 0.0020200915
0.045485497 0.04481256 0.0057481872 -0.45704418 0.77471864 0.43694583 0.0027282643
-0.072293669 0.047082495 0.0034637814 -0.85673815 -0.27570719 0.43587297 0.0050275
-0.07136292 0.046303693 0.0046473979 -0.8522132 -0.25271666 0.45811236 0.0054827291
0.044766966 0.045219865 0.0039242911 -0.51137251 0.80070364 0.3120445 0.0016985394
0.046528697 0.046182826 0.004321197 -0.51120621 0.80128646 0.31081855 0.0026040005
0.04877517 0.047497299 0.0046079443 -0.50210953 0.80334836 0.32018352 0.00276353
-0.072769985 0.049560614 0.0039014355 -0.81336635 -0.27277657 0.51383668 0.0070957481
-0.07159587 0.049172204 0.0052746707 -0.71151704 -0.14981967 0.68651116 0.0076421811
0.050174817 0.048658956 0.0041158791 -0.52194542 0.78564936 0.33215672 0.0026802535
0.052477535 0.04990682 0.00449576 -0.49007991 0.78972495 0.36899361 0.0028838413
0.054615084 0.050680105 0.0054660449 -0.44226611 0.73432523 0.5149439 0.0021437374
-0.075005069 0.053504892 0.0030728388 -0.7749303 -0.22052859 0.59232605 0.014675915
-0.073683754 0.052552581 0.0039789095 -0.79204834 -0.19816458 0.57739967 0.010619605
-0.071669765 0.052335743 0.0057514608 -0.58109701 -0.070172928 0.81080329 0.0058031264
0.053645082 0.051198028 0.0034627351 -0.49320555 0.7926442 0.35841802 0.0023054506
0.055765528 0.052164774 0.0040830653 -0.5012148 0.78172427 0.37106708 0.0029512488
0.057996679 0.053250477 0.004552735 -0.49597189 0.76463139 0.41152236 0.0035742582
0.060391888 0.053806886 0.0057708374 -0.38190007 0.65912598 0.64784664 0.0032097532
-0.075121254 0.055591576 0.0032130864 -0.89782649 -0.024013823 0.43969402 0.026910136
-0.074121982 0.055279303 0.0040930617 -0.76583111 0.045411002 0.64143628 0.024194235
-0.071406655 0.055369306 0.005784811 -0.50341582 0.070783056 0.86114007 0.0057614069
0.059024055 0.054504674 0.0036818725 -0.54337621 0.74986017 0.37742826 0.0053264694
0.061439265 0.055784307 0.0041442947 -0.4956412 0.67557967 0.54583138 0.0073444219
0.063960038 0.055958327 0.0056210137 -0.46914315 0.62240005 0.62651646 0.0072063473
0.066923529 0.056742094 0.005928393 -0.35634291 0.51730323 0.77808553 0.0058573531
-0.073577374 0.057805479 0.0037972655 -0.67837334 0.53798461 0.50038218 0.041512314
-0.071159504 0.058999117 0.0040146438 -0.43368402 0.82275182 0.36742032 0.025225112
-0.068863206 0.057513952 0.0054577766 -0.21639757 0.46270344 0.85969627 0.022131657
0.062575303 0.05735293 0.0033519713 -0.60246229 0.62582332 0.49536285 0.015405339
0.064263694 0.058429983 0.0039114188 -0.63764685 0.54377252 0.54563528 0.0087198596
0.066705771 0.059022233 0.0048430986 -0.54033607 0.46819106 0.69916666 0.0069895829
-0.069721818 0.060101721 0.0030953393 -0.42775771 0.90370274 0.018567204 0.002391163
0.065282643 0.060748935 0.0033061344 -0.7345919 0.4377158 0.51843965 0.015903883
0.066609018 0.0617784 0.0036912204 -0.78750545 0.38302302 0.48283386 0.017025357
0.06706474 0.064047344 0.0031906583 -0.76185012 0.3148194 0.5661034 0.024371589
0.070830382 0.064817481 0.0032656789 -0.19089791 0.14276358 0.97117281 0.008625254
0.067512669 0.066013366 0.0030061537 -0.3462522 0.28445274 0.8939777 0.024565307
0.070812881 0.067356229 0.0031785415 -0.31754735 0.113098 0.9414736 0.0089703947
0.071040764 0.071430832 0.0036103898 -0.62974828 0.075959712 0.77307647 0.0271092
0.072239384 0.070552111 0.003620103 -0.44873241 -0.060767837 0.89159775 0.0049430504
0.070183657 0.073917761 0.003599264 -0.81446433 0.12955979 0.56556356 0.034660034
0.072506055 0.073704578 0.0044056326 -0.49059364 -0.060931668 0.8692556 0.013748163
0.069758214 0.075674422 0.0035859104 -0.8122682 0.12122753 0.57054734 0.043558501
0.072237708 0.076049104 0.0042960006 -0.55494034 -0.041462541 0.8308562 0.0095076542
-0.012274466 0.0029404371 0.0063600796 -0.13458054 -0.85712087 0.49722418 0.0014147701
-0.010503001 0.0028240944 0.0065198252 -0.14498015 -0.89061588 0.43102679 0.0034535851
-0.0075553851 0.0025798669 0.0067267655 -0.1084084 -0.90685868 0.40725297 0.0027265514
-0.0046251989 0.0024643117 0.00696838 -0.050392777 -0.86700648 0.4957422 0.0015083312
-0.001619617 0.0023652003 0.0069878022 -0.013986529 -0.85995877 0.51017183 0.0018197087
0.0015005823 0.0023496093 0.0069512231 0.0025471654 -0.86076802 0.50899112 0.0017831154
0.0044677481 0.0023850822 0.0068584671 0.044393387 -0.86697662 0.49636754 0.0012769677
0.00742363 0.0026118862 0.0068591647 0.06499619 -0.86179841 0.50306964 0.0012009706
0.010299516 0.0025850805 0.0064626918 0.085567527 -0.86463797 0.49505484 0.0011063765
0.013218537 0.0028548234 0.0062284102 0.11096879 -0.85114717 0.51306373 0.0013470566
-0.024078365 0.0058843391 0.0062574456 -0.27257931 -0.86758041 0.41593835 0.0019669479
-0.022249142 0.0055747535 0.0067448472 -0.2553843 -0.85566831 0.4501228 0.00093900115
-0.019462146 0.0050397776 0.0072535072 -0.22597983 -0.8471216 0.48095533 0.0011233096
-0.016483231 0.0044040801 0.0074129142 -0.18653043 -0.85908169 0.47663927 0.0012379487
-0.01349152 0.003750368 0.0073249852 -0.1605754 -0.8675977 0.47062701 0.0014320947
-0.010769809 0.0034985591 0.0077298544 -0.12221663 -0.85054344 0.51150662 0.0015558155
-0.007762413 0.0034468821 0.0081939911 -0.079044841 -0.83530188 0.54407972 0.0013312943
-0.0046101217 0.0034435084 0.0085234428 -0.040487178 -0.8231535 0.56637365 0.0013643333
-0.0015564923 0.0034280259 0.0086086476 -0.010038015 -0.80694455 0.59054196 0.0011100182
0.0013715748 0.0033055132 0.0085112443 0.0065948744 -0.81820703 0.57488585 0.0014077816
0.0043220706 0.0032827104 0.0084100505 0.038434561 -0.82074594 0.5699991 0.0014294693
0.007304559 0.0034756265 0.00827986 0.06222152 -0.84267229 0.53481954 0.001226912
0.010163718 0.0035008849 0.0079596825 0.087362714 -0.83701068 0.54016739 0.00095702719
0.013704082 0.0037619011 0.0076075476 0.11754423 -0.83925456 0.53088146 0.00093374262
0.016563993 0.0040404578 0.0074224719 0.11590836 -0.84102857 0.52842802 0.00068559748
0.019247986 0.0046002357 0.0075651295 0.14692377 -0.79390991 0.59001726 0.0010355412
0.022379957 0.004823938 0.0071084495 0.17847942 -0.80304497 0.56856292 0.0028838424
0.024807557 0.0053815744 0.0072161746 0.1810665 -0.79497373 0.57899195 0.0012680123
0.028025908 0.005821554 0.0067289015 0.2096992 -0.7860474 0.58151156 0.0014811299
-0.03118721 0.0085665155 0.0067854207 -0.31280378 -0.84113932 0.44117856 0.0010311271
-0.028435379 0.0078841262 0.0073387874 -0.28514028 -0.84159112 0.45871493 0.00095226523
-0.025617702 0.0069579273 0.00737618 -0.27425385 -0.84724122 0.45493639 0.0011436135
-0.022851996 0.0066746906 0.0082725249 -0.24259321 -0.82907206 0.50377381 0.0013545101
-0.020694546 0.0061693466 0.0085271206 -0.23186231 -0.81671625 0.52840745 0.0008494939
0.02095579 0.0060332608 0.0088405358 0.14946848 -0.74316937 0.6521951 0.00073802529
0.023147179 0.0063087302 0.0086825686 0.16357884 -0.76152921 0.62714851 0.00067847967
0.026282266 0.0065890769 0.008199621 0.18011579 -0.73294741 0.65600801 0.0010317743
0.028325699 0.0068687298 0.0078959065 0.18665116 -0.7908054 0.58291352 0.0033121963
0.031051358 0.0077260099 0.0080840234 0.20621137 -0.72217858 0.66025364 0.0019924901
0.034507737 0.008196055 0.007256161 0.26753119 -0.77819449 0.56819046 0.0029901699
0.036870062 0.0085431142 0.0064782309 0.32774323 -0.7952857 0.51000488 0.0020926371
-0.039322954 0.011876665 0.0064017186 -0.41752195 -0.82494205 0.38098046 0.0034805262
-0.037237126 0.011251222 0.0071164551 -0.37558734 -0.82027715 0.43136927 0.0022501592
-0.034627609 0.010187989 0.0073429286 -0.35092565 -0.8237803 0.44523835 0.0010222255
-0.031765096 0.0095555317 0.0081420736 -0.30997083 -0.8259052 0.4709551 0.0010990526
-0.029605735 0.0091366721 0.0087391678 -0.28506169 -0.79856437 0.53012705 0.00074113818
0.034878746 0.0095428964 0.0087859547 0.23886332 -0.68887949 0.68438983 0.0016561046
0.037586473 0.0096812714 0.0077446103 0.30462551 -0.77999967 0.54662949 0.0043538553
0.040399466 0.010601236 0.0072883726 0.33323231 -0.79130638 0.51263094 0.0017892127
0.042856615 0.011249159 0.0065665846 0.39207456 -0.78674638 0.47676805 0.0022621674
-0.045109939 0.01490997 0.0060708034 -0.51105833 -0.78688061 0.34588757 0.0050875284
-0.043134637 0.014252661 0.0070482492 -0.46157384 -0.77070189 0.43928146 0.0011722459
-0.040679332 0.013010394 0.0073295259 -0.42478329 -0.79624593 0.43075705 0.00095143542
-0.038183954 0.012383305 0.008291251 -0.37642485 -0.78026509 0.49949041 0.00073541462
0.041902136 0.012213791 0.0085840784 0.28811342 -0.72541535 0.62511063 0.005301991
0.043647457 0.012653993 0.0081077525 0.39435235 -0.71701878 0.5747785 0.0051814164
0.046431251 0.013507006 0.007135178 0.41800058 -0.75442004 0.50608897 0.0027201003
0.049601443 0.014667415 0.0061565 0.4242231 -0.79857361 0.42698359 0.007627063
-0.048569921 0.0175716 0.0067883171 -0.51578647 -0.74130028 0.42946276 0.0014401604
-0.046458907 0.016523745 0.0073713427 -0.49192637 -0.75481731 0.43388858 0.0012162873
-0.044227555 0.015506597 0.0080089848 -0.47233561 -0.75286412 0.45836082 0.0012589978
0.048898455 0.016051233 0.0087269805 0.3660824 -0.70964003 0.60199225 0.0081678312
