# .PCD v0.7 - Point Cloud Data file format
VERSION 0.7
FIELDS x y z normal_x normal_y normal_z curvature
SIZE 4 4 4 4 4 4 4
TYPE F F F F F F F
COUNT 1 1 1 1 1 1 1
WIDTH 553
HEIGHT 1
VIEWPOINT 0 0 0 1 0 0 0
POINTS 553
DATA ascii
0.047718052 0.060695898 -0.017237449 0.89229155 -0.34564203 -0.29042602 0.0035796817
0.0484359 0.061821397 -0.016256645 0.93153453 -0.27728033 -0.23528518 0.0041413694
0.002927965 0.063478082 -0.015209937 -0.63040453 0.44213954 -0.63804615 0.0027320548
0.0048429319 0.064393528 -0.016370442 -0.62466449 0.42441511 -0.65548921 0.003495889
0.0066209692 0.06506189 -0.017541388 -0.60187685 0.40405035 -0.68883061 0.003100178
0.048923235 0.064529486 -0.016586257 0.97262168 -0.10645288 -0.20657907 0.0045787217
0.0059726271 0.0664066 -0.015791273 -0.58071506 0.54840952 -0.60167861 0.00092549261
0.00774947 0.067452379 -0.016373022 -0.55171347 0.58409417 -0.59535384 0.0015499945
0.010073471 0.068581976 -0.017292656 -0.50849825 0.65642184 -0.55726105 0.00013897104
0.048891962 0.067415901 -0.016585117 0.97121292 0.15025844 -0.18484572 0.0056940201
0.010915848 0.070545867 -0.01559421 -0.48282883 0.6838873 -0.54696846 0.00027465407
0.012793043 0.071499988 -0.016068889 -0.46719903 0.70059139 -0.53934848 0.00018468576
0.047637399 0.071109176 -0.016827546 0.86720908 0.4540754 -0.20436209 0.0051123914
0.048362289 0.069785334 -0.016373785 0.91241163 0.3655183 -0.18412329 0.0068656732
0.013449119 0.072511613 -0.015330665 -0.45497382 0.71806246 -0.52667373 0.00013203573
0.017119588 0.073715761 -0.016734414 -0.42762232 0.73291063 -0.52913249 7.3588853e-05
0.019934699 0.074701987 -0.017565746 -0.39591655 0.74192441 -0.54110837 0.00013293017
0.044660833 0.074665129 -0.016975692 0.67401713 0.68335629 -0.28057992 0.0037812586
0.046172708 0.073317848 -0.016451135 0.75177807 0.61281002 -0.24350268 0.0050463858
0.020205883 0.075896196 -0.016026456 -0.39496958 0.75672674 -0.52092582 5.9990096e-05
0.022833951 0.076830536 -0.016612757 -0.36157599 0.76993006 -0.52580464 0.00014257646
0.025338696 0.077411912 -0.017409481 -0.29389542 0.7878722 -0.54118663 0.00068856525
0.027085347 0.077864498 -0.017730881 -0.18923706 0.81377888 -0.54950279 0.0012345426
0.03862226 0.077642083 -0.017672569 0.29910597 0.86178327 -0.40971351 0.0014890737
0.040713437 0.07722909 -0.016698906 0.40014413 0.85091954 -0.34032431 0.0017775244
0.043437321 0.075767249 -0.016526846 0.56880367 0.7679314 -0.29452285 0.0041341963
0.045021813 0.0750762 -0.015096425 0.67871219 0.70957404 -0.18935288 0.0077142306
0.025880355 0.078590229 -0.015956173 -0.26766068 0.82766926 -0.49327606 0.0012509236
0.028571874 0.078959614 -0.016458824 -0.15105765 0.85883057 -0.489481 0.0013626111
0.031461656 0.079089224 -0.01675649 -0.032128911 0.88998151 -0.45486331 0.0024053296
0.034642875 0.079009816 -0.016611397 0.12345089 0.90482402 -0.40749657 0.0018248151
0.037387401 0.078552723 -0.016401991 0.24858494 0.89759028 -0.36405668 0.0017723484
0.039323971 0.078365922 -0.015352951 0.34617591 0.8795597 -0.32639998 0.0037923241
0.023123626 -0.078364663 -0.013715673 -0.35635859 -0.81440234 -0.45799273 0.0010117198
0.025636479 -0.07931906 -0.013725664 -0.27553853 -0.84927422 -0.45034644 0.001989509
0.028586473 -0.079983518 -0.013561895 -0.11469556 -0.91240239 -0.39289546 0.0023167653
0.031588573 -0.080240808 -0.013174465 0.04746563 -0.93293959 -0.35689047 0.0025550453
0.034474649 -0.079779461 -0.013598887 0.17622559 -0.93006724 -0.3223654 0.0048318617
0.037364822 -0.07910049 -0.013548963 0.27834839 -0.92765272 -0.24896316 0.0025131805
0.039727673 -0.078392267 -0.012532116 0.38590229 -0.89667767 -0.21690698 0.0027089876
0.016772088 -0.075543456 -0.013094014 -0.41830361 -0.7561155 -0.50330061 7.663283e-05
0.019118663 -0.076635554 -0.013359696 -0.39458576 -0.77590734 -0.49220917 0.00025050918
0.021439765 -0.077365279 -0.014045352 -0.36632663 -0.79292148 -0.48690903 0.00040474528
0.040889826 -0.077611044 -0.013736689 0.43987527 -0.87128359 -0.21765709 0.0028143707
0.043543536 -0.075897507 -0.013698663 0.59121794 -0.79315788 -0.1461571 0.0063234218
0.011536245 -0.072800837 -0.012503552 -0.46611506 -0.72335935 -0.50939965 9.8784629e-05
0.014248662 -0.073942147 -0.013298776 -0.44221085 -0.73341525 -0.51628643 0.00020340961
0.015665209 -0.07405211 -0.014365701 -0.42848766 -0.74384111 -0.51293141 0.00014547084
0.044871815 -0.074751668 -0.013744875 0.73037308 -0.68295711 -0.01116493 0.0059775752
0.046132531 -0.073400386 -0.013525855 0.78249454 -0.61982805 -0.059291787 0.0045872722
0.0081447484 -0.069941401 -0.013099735 -0.51948112 -0.66582334 -0.53555453 8.8396475e-05
0.010307545 -0.071005635 -0.013791315 -0.48779032 -0.69400811 -0.52954078 9.0478919e-05
0.01217583 -0.071941212 -0.014313341 -0.47216338 -0.70757842 -0.5257324 0.00013354178
0.047606628 -0.071230114 -0.013650763 0.86850494 -0.49486756 -0.028377149 0.0060776114
0.04837577 -0.069616191 -0.013962951 0.93021011 -0.36431131 0.044569455 0.0082566272
0.0049452805 -0.066858582 -0.013632024 -0.5721373 -0.60129225 -0.5577693 0.00029104322
0.0070215263 -0.06810116 -0.014265665 -0.53953189 -0.63507211 -0.55280077 0.00019500144
0.048955973 -0.067433022 -0.013673122 0.98144698 -0.19062868 0.020552153 0.004914877
0.0018147484 -0.064084277 -0.013208037 -0.62524307 -0.48920506 -0.60807031 0.001629655
0.0039285421 -0.065336451 -0.014252129 -0.60331041 -0.5318898 -0.59423047 0.0023682425
0.04921471 -0.064476639 -0.013427773 0.99956936 0.029287316 0.0018035498 0.0054452661
-0.00065778819 -0.061234921 -0.012534548 -0.66115224 -0.3316679 -0.67295921 0.002447044
0.0010679205 -0.06177355 -0.013988971 -0.64755422 -0.31833342 -0.69234198 0.003115434
0.048845116 -0.061518673 -0.013601468 0.97788191 0.20532297 -0.039867416 0.0036307343
-0.0012592518 -0.058325261 -0.012836223 -0.64878821 -0.10696428 -0.75341398 0.0038949526
0.00046882621 -0.058800798 -0.014353555 -0.65623277 -0.080097727 -0.75029522 0.0031021601
0.047548037 -0.057911377 -0.013572407 0.88464445 0.4491899 -0.12503108 0.0030014685
0.048216585 -0.059387412 -0.013475995 0.92815989 0.36186069 -0.087040082 0.0041317926
-0.0012273395 -0.055675697 -0.012865581 -0.60851151 0.11206315 -0.7855925 0.0046367971
0.00055170612 -0.055223487 -0.014265358 -0.61917591 0.14172406 -0.77235717 0.0035267305
0.044881318 -0.054266702 -0.014597178 0.72609746 0.64378542 -0.24150108 0.0033002731
0.046144586 -0.055542927 -0.01347382 0.81363446 0.55091995 -0.18570469 0.0035562851
-0.00062185084 -0.05285421 -0.012506308 -0.5420081 0.40224597 -0.73785186 0.0031906096
0.0015432464 -0.05236043 -0.013894547 -0.50364769 0.4572292 -0.73299426 0.0032559002
0.0034890596 -0.051350098 -0.014692119 -0.45531753 0.51409775 -0.72690409 0.0034805748
0.041710753 -0.051259805 -0.014648006 0.58637822 0.72641844 -0.35843679 0.0024463895
0.043556791 -0.052477974 -0.013540656 0.70444077 0.67316538 -0.2249704 0.0015764879
0.045150336 -0.053809382 -0.012278638 0.76730525 0.63202882 -0.10854577 0.0047612209
0.0019587113 -0.050253183 -0.012751754 -0.45006457 0.56329364 -0.69292289 0.0027265525
0.0045106178 -0.049426392 -0.013554983 -0.35884997 0.6686359 -0.65127003 0.0025088419
0.0072680395 -0.048631728 -0.014078749 -0.25479567 0.76874965 -0.58660311 0.00089921086
0.010769661 -0.048157413 -0.014725134 -0.1756244 0.79495168 -0.58069605 0.00073498534
0.035848416 -0.048176609 -0.014856981 0.26945421 0.84242171 -0.4666048 0.0031787846
0.037912145 -0.048530027 -0.013812889 0.41189334 0.83362639 -0.36798212 0.0022776488
0.040425252 -0.049864452 -0.013497673 0.53846216 0.78183854 -0.31430387 0.002125751
0.042156845 -0.050750483 -0.012490372 0.62160057 0.73284191 -0.27668661 0.0029161552
0.0056359726 -0.047788553 -0.012256068 -0.29297805 0.75205135 -0.59040886 0.0015224551
0.0079081431 -0.047505483 -0.012772655 -0.23023033 0.78539461 -0.57458615 0.0010080027
0.01086579 -0.047040548 -0.01307113 -0.15736 0.82209277 -0.54717582 0.0001775641
0.013566812 -0.046785239 -0.013389863 -0.1186967 0.83653319 -0.5349049 0.00011059254
0.016507717 -0.046524581 -0.013537827 -0.080600165 0.84461635 -0.52927011 5.8072899e-05
0.019647311 -0.046242435 -0.013459173 -0.039260022 0.85351139 -0.519593 0.00010255766
0.022577053 -0.04616734 -0.013446451 -0.0055579273 0.85702729 -0.51524097 5.6082412e-05
0.025468685 -0.046252389 -0.013514623 0.02919849 0.86585736 -0.49943814 0.00017197909
0.028376833 -0.046390396 -0.013563868 0.060108729 0.8753221 -0.4797897 0.00062159164
0.031473655 -0.046692584 -0.013630788 0.12553191 0.88560826 -0.44714621 0.0016632616
0.034527004 -0.047222998 -0.013715307 0.22180872 0.88303077 -0.41359097 0.0023174416
0.036751118 -0.047534909 -0.012817276 0.36522126 0.85808539 -0.36097494 0.0034325996
0.0079834983 0.047720879 -0.012354944 -0.22662365 -0.79341304 -0.56492257 0.00062039401
0.010059902 0.047482122 -0.012690936 -0.15756737 -0.82640707 -0.54057729 0.00013909097
0.013501231 0.047470346 -0.013626737 -0.12191199 -0.83680171 -0.53376067 0.00012938306
0.016523493 0.046986014 -0.013442059 -0.083693318 -0.84566313 -0.52711409 7.1901442e-05
0.019645298 0.046834052 -0.01357133 -0.041918837 -0.85343426 -0.51951212 8.3581777e-05
0.022662288 0.046799492 -0.013639454 -0.0066122785 -0.85922211 -0.51155996 9.6718897e-05
0.025578462 0.046670917 -0.013388701 0.035928193 -0.87061739 -0.49064708 0.00037861292
0.028624192 0.046904292 -0.013573534 0.067424536 -0.87799048 -0.4739058 0.00073847634
0.031586483 0.047123943 -0.013503862 0.12014242 -0.89311171 -0.43349421 0.0013131271
0.034414966 0.047475222 -0.013293044 0.22246733 -0.89490908 -0.38684103 0.0027589912
0.036368661 0.047834083 -0.012836495 0.34898615 -0.8551439 -0.38332444 0.0026304014
0.0022544661 0.050300188 -0.012549369 -0.46267277 -0.58878291 -0.66277337 0.0017039727
0.0046477825 0.049676564 -0.013349926 -0.34410474 -0.68509102 -0.64206094 0.0030979321
0.007515504 0.048869144 -0.01379641 -0.25251243 -0.77342671 -0.58141953 0.00060925347
0.010389674 0.0484313 -0.014253701 -0.18882054 -0.80099261 -0.56811768 0.00050490443
0.013090088 0.048285715 -0.014802206 -0.13364682 -0.82777107 -0.54491609 0.00020021221
0.0154114 0.048035219 -0.014905456 -0.09457197 -0.84034604 -0.53373653 0.00011400044
0.035221715 0.048374623 -0.014658398 0.21984775 -0.85757703 -0.46500388 0.002026126
0.03764518 0.048804343 -0.013633306 0.38456687 -0.8408187 -0.38096225 0.0020959161
0.040199623 0.050153945 -0.013398792 0.51446182 -0.78518575 -0.34469163 0.002533338
0.042071179 0.050978854 -0.012076286 0.6083858 -0.77186984 -0.18461777 0.0045426493
-0.00045258948 0.052858192 -0.012403633 -0.52854216 -0.4231191 -0.73594391 0.0031009857
0.0015797873 0.052224055 -0.013519146 -0.49547538 -0.46096897 -0.73621452 0.003503534
0.0035760312 0.05182717 -0.014657307 -0.47348017 -0.50452727 -0.72198945 0.002960843
0.041550338 0.05138981 -0.014108595 0.60100007 -0.74447781 -0.29077783 0.00285019
0.043319304 0.05270778 -0.01349079 0.66915959 -0.69605654 -0.26025131 0.002241201
-0.00068049069 0.054823242 -0.01294868 -0.5751161 -0.27758813 -0.76953644 0.0034990788
0.00075753493 0.05539814 -0.014334535 -0.61353087 -0.17800161 -0.76934731 0.0033345078
0.044706542 0.054332469 -0.014054884 0.73006892 -0.6468178 -0.22051318 0.0023713449
0.045916926 0.055684302 -0.013463825 0.81059986 -0.55833572 -0.17660427 0.0033712282
-0.0013191116 0.058336589 -0.012840552 -0.65163183 0.061968524 -0.75599998 0.0039074142
0.00044118334 0.05866164 -0.014405299 -0.65575963 0.033781718 -0.75421363 0.002625576
0.047425985 0.058167979 -0.013629384 0.88151258 -0.45284551 -0.13366552 0.0030968711
0.048126359 0.059579555 -0.013408377 0.9215796 -0.37749371 -0.09049657 0.0045508388
-0.00069267664 0.061182756 -0.012764268 -0.66087621 0.29696876 -0.68924034 0.0027093678
0.00078755827 0.061501 -0.01406845 -0.66656369 0.24354465 -0.70454162 0.0022670235
0.048717279 0.06145823 -0.013530186 0.97026104 -0.23581032 -0.054653704 0.0040612905
0.001805382 0.064371876 -0.013371385 -0.63130206 0.46966165 -0.61715126 0.0027295502
0.0035123529 0.065139666 -0.014501549 -0.61031246 0.50695217 -0.60870206 0.0031617545
0.049190968 0.06436608 -0.013569795 0.99729204 -0.072797127 0.010453292 0.004093111
0.0045512193 0.067155637 -0.013487365 -0.5813238 0.59270203 -0.55746472 0.00043021445
0.0064669913 0.068354502 -0.014072748 -0.54138613 0.63853979 -0.5469625 0.00036984353
0.049016923 0.067549266 -0.013559067 0.98674709 0.16185117 0.01158879 0.0042612422
0.0078078965 0.07021495 -0.013104556 -0.51891071 0.66437042 -0.53790677 0.00015668319
0.0101777 0.070923053 -0.014452953 -0.48035419 0.69621801 -0.53342319 0.00015609674
0.047762115 0.071438543 -0.013514392 0.89166349 0.45268053 -0.0040628961 0.0059199762
0.048377659 0.070020728 -0.013705358 0.9356004 0.35299537 -0.0067981374 0.00546249
0.011251982 0.072563179 -0.013288546 -0.48264888 0.70479912 -0.51991177 0.00013043641
0.013160165 0.073670812 -0.013445337 -0.45048678 0.72763133 -0.51731449 0.0001189054
0.015851533 0.074415773 -0.01473176 -0.42642581 0.74440074 -0.5138371 0.00010890669
0.046543676 0.073357604 -0.013838007 0.79990476 0.59986764 -0.017637892 0.0048511545
0.014899717 0.075371519 -0.01250856 -0.43016839 0.74744999 -0.50623482 7.3533956e-05
0.017052321 0.075974859 -0.013427687 -0.414931 0.76408577 -0.49396878 0.00029975249
0.019684415 0.077184826 -0.013735654 -0.3970758 0.77347475 -0.49403206 0.00024136703
0.021450005 0.07747367 -0.014664719 -0.36770689 0.78965783 -0.49115404 0.00030032126
0.041377764 0.077725291 -0.014103745 0.4727425 0.85559958 -0.21086462 0.0032309717
0.04365607 0.076290436 -0.013724173 0.63631058 0.76368058 -0.10909034 0.0071944236
0.020853838 0.078350082 -0.0128603 -0.37545365 0.78705096 -0.48947462 0.00033341223
0.022640068 0.078831449 -0.013355413 -0.34846359 0.80946249 -0.47259244 0.0008509247
0.025489453 0.079720534 -0.01379023 -0.26953828 0.84593141 -0.46016222 0.0021892702
0.028505277 0.080372348 -0.013787275 -0.098248489 0.90996009 -0.40288931 0.0028401338
0.031497862 0.080346391 -0.014153048 0.011125905 0.92450798 -0.38100034 0.0018217866
0.034608305 0.080115534 -0.013930282 0.14447899 0.93096381 -0.33530921 0.0024838545
0.037476078 0.079514891 -0.013580583 0.28393719 0.9123674 -0.29489887 0.002801388
0.040033139 0.078514889 -0.013612404 0.40332779 0.88712019 -0.2243758 0.0036802772
0.028656999 -0.081213512 -0.0090849726 0.042923067 -0.99505228 -0.089602143 0.010384928
0.031258181 -0.081043229 -0.0099110585 0.11812284 -0.986278 -0.11533768 0.003593696
0.019966414 -0.078193769 -0.011404803 -0.37786379 -0.80603546 -0.45554987 0.0010316197
0.021999435 -0.079036281 -0.011346782 -0.35671934 -0.82116944 -0.44545719 0.00081208965
0.02860884 -0.080857724 -0.01107758 -0.070393562 -0.94303447 -0.32516259 0.0050636204
0.031628434 -0.080768391 -0.011260696 0.057297669 -0.97533971 -0.21314177 0.0018453192
0.034243975 -0.080394112 -0.011241908 0.19749112 -0.9616369 -0.19039878 0.0046616402
0.037682347 -0.079433464 -0.010496201 0.34925079 -0.93595225 -0.044913765 0.0029715681
0.039979912 -0.078384839 -0.010448245 0.47229066 -0.88136142 0.01198306 0.0041235406
0.013963055 -0.075610347 -0.010623184 -0.43484899 -0.75071782 -0.49732202 0.0001604532
0.01672798 -0.076979473 -0.010819172 -0.40102875 -0.7873584 -0.46823364 0.0011232231
0.018912749 -0.077839352 -0.011191091 -0.39090222 -0.7857303 -0.479399 0.00052140316
0.041307349 -0.077605709 -0.01046722 0.54468006 -0.83661634 0.0582822 0.0032252327
0.043722685 -0.075609356 -0.010384142 0.71547842 -0.6795736 0.16208129 0.0090078088
0.0080452878 -0.072376117 -0.0098465551 -0.49411866 -0.69551319 -0.52163994 0.00012004791
0.010342516 -0.073559105 -0.010327492 -0.46077871 -0.73064756 -0.50382257 9.6073454e-05
0.0130564 -0.074459463 -0.011502899 -0.44398651 -0.7418763 -0.50248933 1.0578834e-05
0.04467465 -0.074711673 -0.010372353 0.72263199 -0.67126524 0.16494241 0.0037506553
0.045846656 -0.073198102 -0.010710541 0.80866343 -0.55249649 0.20201778 0.0057948134
0.0051949592 -0.069619015 -0.010613015 -0.53697336 -0.65335798 -0.53365058 0.00010398801
0.0069531254 -0.070896968 -0.010752298 -0.51081234 -0.67910528 -0.52714974 0.00018194973
0.0096316114 -0.071952842 -0.011898932 -0.48120576 -0.70741332 -0.51769441 0.00017746194
0.047200233 -0.070575006 -0.010453231 0.87617958 -0.37666598 0.30071923 0.002620918
0.048114616 -0.069413878 -0.011614442 0.88829339 -0.35011473 0.29724485 0.0030445692
0.0020726186 -0.066798128 -0.010669313 -0.58531046 -0.60425252 -0.54063916 0.00014806994
0.0040424587 -0.06801378 -0.011351946 -0.56081814 -0.63111991 -0.53588307 0.00016358682
0.04780864 -0.067803718 -0.0095036626 0.91604322 -0.21254003 0.34013453 0.0024449995
0.048415907 -0.067310609 -0.010884658 0.94494689 -0.19782531 0.26065397 0.0032596174
-0.00097754877 -0.064055294 -0.010201333 -0.62982827 -0.5109213 -0.58504337 0.0010236764
0.00068260927 -0.065293372 -0.010784751 -0.61353248 -0.53960896 -0.57654148 0.0014640489
0.048709959 -0.064487293 -0.010705491 0.97243792 -0.03331751 0.2307692 0.0037061262
-0.0037807277 -0.060807824 -0.0096766893 -0.61598033 -0.40195844 -0.67749369 0.004263144
-0.0021817151 -0.061544709 -0.010818537 -0.64743596 -0.3366721 -0.68372405 0.0024878555
0.048596818 -0.061355889 -0.010775444 0.97682488 0.18121807 0.11389951 0.0026406974
-0.0043606823 -0.05825733 -0.010115609 -0.62594396 -0.21565779 -0.74945706 0.0057543828
-0.0024459052 -0.059031948 -0.01162476 -0.67385799 -0.13128947 -0.72710282 0.0035802361
0.047596827 -0.057990793 -0.010378684 0.91950774 0.38619757 0.073191933 0.0047378256
0.048183903 -0.059372038 -0.011013143 0.93768072 0.33656982 0.086461715 0.0039312043
-0.051294226 -0.054209828 -0.0093249679 0.41483119 -0.49347109 -0.76446152 0.040413611
-0.050099529 -0.054228496 -0.0092286831 0.3328073 -0.61939305 -0.71104962 0.024882935
-0.037480693 -0.054576874 -0.0092884982 -0.069339246 -0.45544213 -0.88756102 0.012651909
-0.035249509 -0.054281846 -0.009189019 0.15547629 -0.4763121 -0.86542124 0.0057863537
-0.0063458686 -0.055220004 -0.009062212 -0.42220801 -0.0054519759 -0.90648258 0.0088331234
-0.0043205377 -0.054755583 -0.010237139 -0.54383647 0.17535581 -0.82066578 0.0066390205
-0.0023571476 -0.054970529 -0.01185364 -0.63854575 0.073473379 -0.76606858 0.0037040468
0.046338469 -0.055423606 -0.010561547 0.86405861 0.50315177 0.015523768 0.0022748632
-0.051696122 -0.052191928 -0.01077082 0.45695785 -0.26113608 -0.85029256 0.026358778
-0.049684316 -0.052266702 -0.010038341 0.43509313 -0.30475533 -0.84724146 0.017660139
-0.043058142 -0.051567148 -0.0091702044 -0.1515978 -0.1720939 -0.97334564 0.013137058
-0.0408126 -0.051947255 -0.0093193296 -0.1908273 -0.19778211 -0.96149224 0.012782883
-0.037231971 -0.052439827 -0.010093864 -0.064739488 -0.24892806 -0.96635586 0.011375136
-0.034454845 -0.052472595 -0.0095797991 0.16445439 -0.2334916 -0.9583509 0.0046753045
-0.031958584 -0.051818699 -0.0092137884 0.18550488 -0.15660879 -0.9700833 0.006231999
-0.0046074791 -0.05254643 -0.0095912144 -0.46204898 0.27774894 -0.84223884 0.0051436382
-0.0022037076 -0.052447677 -0.011133941 -0.53157502 0.34565759 -0.7732715 0.0040621543
0.043931544 -0.05213815 -0.010608888 0.75366765 0.65528208 -0.050896212 0.0022799575
0.045218397 -0.053682376 -0.010554436 0.8029024 0.5945549 -0.043037798 0.0036928931
-0.051820073 -0.049460035 -0.011117701 0.4725574 0.07949964 -0.87770689 0.038455602
-0.049528182 -0.049497545 -0.010215214 0.46677125 0.083540082 -0.88042349 0.021324473
-0.043202952 -0.049563851 -0.0092886547 -0.16758451 0.083490372 -0.98231602 0.017804055
-0.040728498 -0.049298879 -0.0095358063 -0.1952409 0.11841791 -0.97358012 0.015250664
-0.037200466 -0.049495544 -0.010433864 -0.051672608 0.087290026 -0.99484187 0.012609801
-0.034476206 -0.049465846 -0.0098967003 0.18706436 0.11760496 -0.97528249 0.0097334636
-0.031736799 -0.049560677 -0.009279903 0.2019475 0.06239317 -0.97740692 0.0086923186
-0.0034685154 -0.050395235 -0.0093698427 -0.37392539 0.44774899 -0.81221956 0.0059315073
-0.0012479771 -0.049625549 -0.010175731 -0.42082641 0.53644884 -0.73152429 0.0041899919
0.0012750931 -0.048870787 -0.011087339 -0.36305326 0.67370266 -0.64367461 0.0021527051
0.0034821439 -0.048240475 -0.011707418 -0.33112723 0.71783507 -0.61242753 0.0017476771
0.038700998 -0.04803808 -0.01147541 0.44776303 0.86389261 -0.23064667 0.0035100451
0.040630773 -0.04910953 -0.010616452 0.59470588 0.79257983 -0.13469246 0.0030336345
0.0424494 -0.050576072 -0.010442319 0.680969 0.72448373 -0.10679176 0.0031194503
-0.051837776 -0.047012527 -0.0099961581 0.40410784 0.38733378 -0.82865524 0.044415217
-0.049729358 -0.047147226 -0.0097933626 0.34881446 0.48847163 -0.7998274 0.035399187
-0.043002144 -0.047829416 -0.0090574576 -0.1807389 0.25352135 -0.95029497 0.01742932
-0.040807355 -0.047632936 -0.0091857063 -0.17059542 0.2465879 -0.95398724 0.0095843934
-0.03733696 -0.046672326 -0.0097940369 -0.032865174 0.42406246 -0.90503645 0.013442046
-0.034728281 -0.047160041 -0.0094480878 0.20071404 0.41922593 -0.8854171 0.010029277
-0.032575805 -0.047787923 -0.0091865901 0.25421321 0.35998765 -0.89765501 0.020487942
0.0016567289 -0.047392659 -0.0097327158 -0.32044896 0.72438073 -0.6103974 0.0021575135
0.0045999475 -0.046821978 -0.010401586 -0.27988002 0.76708126 -0.57728112 0.00086320459
0.0075386511 -0.046107203 -0.010554962 -0.1965159 0.8140738 -0.54650283 0.00011899843
0.010334169 -0.045507725 -0.010570579 -0.14415812 0.83179027 -0.53604418 0.00012583485
0.013210315 -0.045382518 -0.011112578 -0.11051163 0.84048659 -0.53044271 0.0001104499
0.016832044 -0.045241192 -0.011514877 -0.070358679 0.85051179 -0.52122873 0.00013355988
0.019512586 -0.045121893 -0.011595423 -0.035202954 0.85936219 -0.51015419 0.00011915137
0.022311982 -0.045236129 -0.011825234 0.0030250195 0.87250209 -0.48860106 0.00041328519
0.025358411 -0.045184787 -0.011728191 0.041748364 0.8934719 -0.44717449 0.0010475578
0.028607816 -0.045274612 -0.011421668 0.099091686 0.91361374 -0.39432326 0.0021362717
0.031343516 -0.045581073 -0.011086474 0.18482092 0.92850751 -0.3220481 0.0044190842
0.034654025 -0.046184305 -0.010774774 0.27218133 0.93478835 -0.22822826 0.0033178534
0.037546542 -0.047186151 -0.010532732 0.3987529 0.89580297 -0.19629891 0.0031879619
0.039127931 -0.047915746 -0.0098999441 0.53973138 0.82486159 -0.1682063 0.0041129678
0.010973547 -0.044681467 -0.0094727594 -0.14440499 0.83322835 -0.53373933 0.00012574627
0.013831951 -0.044612478 -0.010006615 -0.10260772 0.84578657 -0.52356166 0.00013678179
0.016241908 -0.044266041 -0.0098132938 -0.061210193 0.85843331 -0.50925994 0.00021195349
0.019657167 -0.04432686 -0.01024261 -0.015773941 0.87181288 -0.4895851 0.00037598304
0.022407696 -0.044301461 -0.010245784 0.035573609 0.89270109 -0.44924301 0.0011558757
0.025584629 -0.044455409 -0.010211118 0.078906745 0.90825152 -0.41091707 0.0021457288
0.02847895 -0.044641864 -0.0097629922 0.16433038 0.93528497 -0.31342867 0.0032769151
0.030387819 -0.044836912 -0.0092411963 0.19665298 0.95173162 -0.2356578 0.0028000996
0.014050731 0.044676308 -0.0093223415 -0.10485563 -0.84513062 -0.52417517 0.00013044756
0.016883895 0.044675779 -0.0097382693 -0.058845486 -0.8610658 -0.50507718 0.00032957466
0.019610783 0.044567719 -0.0097846361 -0.013540929 -0.87535274 -0.48329532 0.00069143082
0.022452228 0.044490378 -0.0096482709 0.043191705 -0.8940419 -0.44589651 0.0017387616
0.025524201 0.04469743 -0.0096324058 0.1121139 -0.91912025 -0.37768829 0.0025506977
0.027890665 0.04486353 -0.0092535559 0.1794211 -0.93153101 -0.31631956 0.0027196314
-0.05169322 0.047297373 -0.0097970022 0.39721605 -0.39132193 -0.8301124 0.045602262
-0.04970029 0.047420446 -0.0096720532 0.37475297 -0.40502384 -0.83397597 0.024378166
-0.040387604 0.04779458 -0.009053709 -0.23158337 -0.40943953 -0.88245595 0.01684168
-0.037393972 0.04694223 -0.0096667483 -0.039363794 -0.47913748 -0.87685674 0.014800209
-0.034903761 0.047402043 -0.0093518728 0.19154549 -0.50466371 -0.8417986 0.010187712
-0.032509115 0.047942784 -0.0091247428 0.25017545 -0.38872579 -0.88673812 0.020602426
0.0019616378 0.047613788 -0.0095405728 -0.31343785 -0.72338229 -0.61520308 0.0016683794
0.0046776673 0.047221918 -0.010269612 -0.25905526 -0.77486706 -0.57660341 0.00071736559
0.0079209358 0.046458099 -0.010416193 -0.18639968 -0.81739384 -0.54508954 0.00016492377
0.010419759 0.045980547 -0.010508244 -0.15312238 -0.83037645 -0.53575045 0.00011682289
0.013385597 0.04589187 -0.011115604 -0.11529823 -0.83993554 -0.53029674 0.00015887126
0.016255993 0.045579951 -0.011125471 -0.074659415 -0.84933102 -0.52255416 0.00010914911
0.019277925 0.045517892 -0.011374873 -0.034756742 -0.85992044 -0.50924331 0.00015069936
0.022465728 0.045391928 -0.011280174 0.0074392571 -0.87813002 -0.47836438 0.00056167692
0.025525132 0.045376241 -0.011117768 0.061787177 -0.90055776 -0.43032324 0.0021316123
0.028519064 0.045512792 -0.010727833 0.14566709 -0.92226702 -0.35805666 0.0036968796
0.031510949 0.045858834 -0.010308757 0.18853952 -0.9447853 -0.26801789 0.0034883122
0.034914166 0.046796445 -0.010972578 0.26573393 -0.93592936 -0.23113135 0.0033319585
0.037176192 0.047466967 -0.010393154 0.41835961 -0.8931061 -0.16533799 0.004668735
-0.051873956 0.049505573 -0.011016211 0.47634071 -0.16000728 -0.8645792 0.043009903
-0.049558863 0.049542308 -0.010196666 0.45348066 -0.14167078 -0.87993449 0.024156993
-0.043212991 0.04980028 -0.0092719598 -0.1041081 -0.12619297 -0.98652774 0.016076338
-0.040746197 0.049372312 -0.0094764428 -0.22490489 -0.16159482 -0.96088761 0.011473362
-0.037233811 0.049558517 -0.01042705 -0.046920821 -0.15272947 -0.98715353 0.015905241
-0.034526069 0.049520761 -0.0098697441 0.1889801 -0.16115524 -0.96866685 0.010107496
-0.031859271 0.049685914 -0.0092741586 0.19564369 -0.15845883 -0.9677884 0.011374039
-0.0035308036 0.050698623 -0.0091966558 -0.40575814 -0.47928455 -0.77823305 0.0043571936
-0.0013636082 0.04983522 -0.009867291 -0.38477793 -0.56076121 -0.73313898 0.0030267108
0.0013322283 0.049038954 -0.010752807 -0.38151294 -0.65700555 -0.65022427 0.0033094799
0.0040557636 0.048410777 -0.011593251 -0.29637814 -0.74071574 -0.6029098 0.0016621242
0.038384169 0.048266251 -0.011218452 0.47227722 -0.85824656 -0.20091543 0.0047078901
0.040581446 0.049562309 -0.010552297 0.59103262 -0.79373854 -0.14373426 0.0020690341
0.042237088 0.050771169 -0.0099997073 0.66702986 -0.73574287 -0.11727609 0.0030842801
-0.051834803 0.052304462 -0.010960448 0.46885744 0.16650273 -0.86743855 0.033692796
-0.049657326 0.052336946 -0.01011622 0.46737233 0.17142425 -0.86728132 0.016814964
-0.04316473 0.051828276 -0.0091987215 -0.14014059 0.14824399 -0.97897106 0.0096584102
-0.040871177 0.05217449 -0.0093836887 -0.20237316 0.17158057 -0.96416032 0.010286096
-0.03721137 0.052453771 -0.010240264 -0.050855529 0.20450692 -0.97754318 0.01170646
-0.034509111 0.052456338 -0.0097148092 0.1786357 0.17996952 -0.96731603 0.0043182205
-0.031919654 0.052153718 -0.0092305196 0.18373297 0.14766817 -0.97182113 0.0052475226
-0.0045459364 0.052675754 -0.0095215254 -0.46195251 -0.32207683 -0.82635725 0.005216579
-0.0018080199 0.052074105 -0.011012559 -0.53219831 -0.36344925 -0.76463693 0.0034556305
1.6335756e-05 0.051255219 -0.011825828 -0.52163702 -0.46018848 -0.71841592 0.0034286031
0.043721501 0.052410424 -0.010541079 0.73475307 -0.67200577 -0.092445657 0.0033727947
0.045065135 0.053955927 -0.010382669 0.78789163 -0.61477542 -0.035748985 0.0030563152
-0.05148413 0.054512322 -0.0095529258 0.34880385 0.37010667 -0.86102086 0.025082171
-0.04977883 0.054403182 -0.0094827497 0.41951782 0.33391207 -0.84410155 0.018673917
-0.037392024 0.054735128 -0.0094958572 -0.070421942 0.39360517 -0.91657829 0.011685812
-0.034816686 0.05434525 -0.0092595844 0.14654213 0.3866539 -0.91050762 0.0070900838
-0.032537326 0.054040641 -0.009063324 0.15522675 0.31074715 -0.9377318 0.014134034
-0.0063517885 0.055616539 -0.0090472307 -0.40760618 -0.024580587 -0.91282696 0.0088709155
-0.0043087974 0.054962754 -0.010232322 -0.54300803 -0.18714651 -0.81860769 0.006102358
-0.0021997115 0.05461847 -0.011720767 -0.59005356 -0.23856495 -0.77131289 0.0028007305
0.046026617 0.055403184 -0.010694171 0.84999859 -0.52675277 -0.0058215987 0.0038081405
-0.0044527189 0.058399178 -0.010111399 -0.61955684 0.18206973 -0.76354438 0.005398395
-0.0024256147 0.059420928 -0.011677063 -0.65224135 0.12429941 -0.74775058 0.0031828065
0.047485251 0.058145195 -0.010563615 0.9162243 -0.39638272 0.058427982 0.0038023617
0.048166886 0.059737664 -0.011139381 0.9351787 -0.34595862 0.07585118 0.0049070809
-0.0038499206 0.061133038 -0.0097115552 -0.62112796 0.373153 -0.6891712 0.004125847
-0.002159375 0.061760042 -0.011042666 -0.64147431 0.33439004 -0.69043034 0.0032068843
0.047924846 0.060580444 -0.0090211872 0.96741736 -0.13400783 0.21481526 0.0060039256
0.048541743 0.06152539 -0.010728111 0.9765445 -0.19091766 0.099556305 0.003929012
-0.0011536424 0.06405288 -0.010495868 -0.6305002 0.48715848 -0.60427326 0.0013216562
0.00060406455 0.065215111 -0.011332169 -0.62004572 0.5452702 -0.56411332 0.00094453269
0.048716061 0.064429462 -0.010667743 0.97237653 0.0035169325 0.23339148 0.0035922811
-0.00054128829 0.066135243 -0.0090771262 -0.59416252 0.58318996 -0.55394977 0.00024045323
0.0016501284 0.06724894 -0.010308829 -0.58813679 0.59373283 -0.54915977 0.00031902015
0.0038257446 0.068218231 -0.011536002 -0.56450224 0.62072688 -0.54409146 0.00029397802
0.04782841 0.06807135 -0.0093915593 0.90879518 0.190493 0.37121922 0.0027527069
0.048467997 0.067268245 -0.010718837 0.95150894 0.1505315 0.26827419 0.0033989532
0.0047898721 0.070089966 -0.010287852 -0.54013139 0.64926344 -0.53545785 0.00013116444
0.0067901998 0.071052656 -0.011085218 -0.51382881 0.67581099 -0.52845007 0.00014387407
0.047409389 0.07061471 -0.010499695 0.88245314 0.36687791 0.29440975 0.0024472312
0.048150435 0.069489181 -0.01139138 0.90047061 0.32011002 0.29441857 0.0034339202
0.0077300956 0.072752818 -0.0097617013 -0.48951349 0.69965005 -0.52044827 0.00023087107
0.011066597 0.074202597 -0.010767804 -0.45637143 0.72724706 -0.51267612 0.00024201829
0.012154287 0.074604422 -0.011188732 -0.4401513 0.74403024 -0.50267875 0.0003556509
0.044797231 0.074805193 -0.0097637307 0.77753168 0.59583187 0.20106944 0.0057833856
0.046053398 0.073295467 -0.010605222 0.8339209 0.48757565 0.25854594 0.0027080555
0.011332488 0.075293496 -0.0095271319 -0.44797537 0.74659675 -0.49184492 0.00050837721
0.012838734 0.075754181 -0.010162759 -0.42636371 0.76090086 -0.4891257 0.0004419504
0.016207565 0.076978937 -0.011208313 -0.41650915 0.77391148 -0.47705469 0.00038071332
0.018499102 0.07793045 -0.011617549 -0.40237632 0.78553027 -0.47014424 0.00029241192
0.041711058 0.077693976 -0.010225273 0.60599786 0.7931025 0.061278265 0.0035950344
0.043889351 0.076011971 -0.010734696 0.73004061 0.67720956 0.091803752 0.0079778079
0.016745653 0.078250051 -0.0092572775 -0.41183594 0.78212452 -0.4676241 0.00022594782
0.018961422 0.078568883 -0.010646009 -0.3896763 0.79668456 -0.46200225 0.00043076318
0.025437823 0.080558226 -0.011818239 -0.20469116 0.87070078 -0.44719321 0.0044834632
0.027435591 0.080997415 -0.011829967 -0.14604975 0.91568655 -0.37441635 0.0058060181
0.035225715 0.080662265 -0.0106854 0.23638418 0.96457511 -0.11712163 0.004813937
0.03745766 0.07993827 -0.010666491 0.35838103 0.93196136 -0.054872885 0.0030367216
0.040196277 0.078662679 -0.01071065 0.49245775 0.87030184 0.0077502844 0.0035629086
0.028728832 0.081351876 -0.010840553 -0.032641485 0.98248625 -0.18345402 0.0060359999
0.031554516 0.081346139 -0.010776222 0.056776755 0.96441817 -0.25821319 0.0039654723
0.033820778 0.081038505 -0.010408713 0.2286707 0.96729422 -0.10978033 0.0050823786
0.029297749 -0.081206329 -0.0081447894 0.062064473 -0.9960053 -0.064198464 0.010404529
0.032254577 -0.081038743 -0.0085414723 0.16182101 -0.98445439 0.068290681 0.0043006893
0.021377118 -0.079526886 -0.0089783892 -0.2932401 -0.90282351 -0.31451547 0.0030840393
0.03225575 -0.080924302 -0.0069874679 0.16179834 -0.98445892 0.068278417 0.0043049636
0.034545861 -0.080420136 -0.0075305821 0.28425488 -0.95097351 0.12185461 0.0033567003
0.037477564 -0.079335138 -0.0076439492 0.40331683 -0.89709002 0.18045795 0.004623001
0.039565958 -0.078266695 -0.0077020936 0.51350993 -0.82585388 0.23296562 0.0038663154
0.010325572 -0.075476058 -0.0074724839 -0.46248159 -0.73780274 -0.49168885 5.8098034e-05
0.012547166 -0.076344356 -0.0080211097 -0.41766936 -0.77188545 -0.47931746 0.0012123029
0.040936314 -0.077185653 -0.0073411213 0.57018155 -0.7799859 0.25790527 0.002233889
0.042741876 -0.075821571 -0.0078979796 0.66578829 -0.6745519 0.31891334 0.0043287119
0.0051276139 -0.072481133 -0.0069143903 -0.50121367 -0.69822407 -0.5111438 0.00052843429
0.0076286597 -0.073669516 -0.0076685804 -0.47772202 -0.72090834 -0.50206852 0.00018985565
0.0097183269 -0.074685171 -0.0081670154 -0.46430695 -0.73283947 -0.49735847 0.00018888127
0.044416517 -0.073633343 -0.0078124199 0.76798373 -0.54866743 0.33040145 0.0070614754
0.045334909 -0.07258907 -0.0083213542 0.78966004 -0.45281336 0.41400144 0.003034652
0.0023646359 -0.069704801 -0.0076075029 -0.55545121 -0.63677025 -0.53478754 0.00024469124
0.0042005582 -0.070806563 -0.0081320563 -0.53016442 -0.66554332 -0.52533585 0.00028682486
0.044967331 -0.071233496 -0.0064365845 0.78196305 -0.31694537 0.53673023 0.0016722957
0.04611858 -0.070349418 -0.0078054983 0.81887311 -0.32931718 0.47010329 0.0019632378
-0.00096437131 -0.066933967 -0.0072049312 -0.57745737 -0.59452546 -0.55953789 0.00025875695
0.0010993447 -0.068132065 -0.0080774147 -0.56566012 -0.62075967 -0.54285002 0.00011155969
0.046968304 -0.067423597 -0.0076550506 0.85616249 -0.21584621 0.46946371 0.0015893246
-0.0038940709 -0.064083055 -0.0070309988 -0.57130677 -0.54045361 -0.61767191 0.0014457961
-0.0023894205 -0.06513574 -0.0075727315 -0.59434938 -0.5663119 -0.57099891 0.00054120988
0.047301248 -0.06445922 -0.0072749108 0.87359881 -0.10999666 0.47405258 0.0013926229
0.048074387 -0.063879326 -0.0086979605 0.9093827 -0.078679658 0.4084515 0.0027443147
-0.009274411 -0.060355585 -0.0061120982 -0.35875458 -0.5375458 -0.76311183 0.0034882051
-0.0072593349 -0.060898002 -0.0068861991 -0.42174402 -0.51980925 -0.74292016 0.0046411585
-0.0049467077 -0.061736681 -0.0080278898 -0.56879824 -0.45873454 -0.68266475 0.0052882819
0.047463402 -0.061341483 -0.007367094 0.91120851 0.062799439 0.40713054 0.0048795817
0.048085652 -0.062013745 -0.0087089017 0.93019629 0.11875907 0.34732011 0.0043500573
-0.039919268 -0.057118114 -0.0062649059 -0.22855765 -0.75314158 -0.61687863 0.0093043754
-0.037454881 -0.057229966 -0.0064116493 -0.072843358 -0.80201918 -0.5928399 0.0055199801
-0.034414325 -0.057243139 -0.0066260668 -0.0061178878 -0.77623409 -0.63041514 0.0067318631
-0.03153513 -0.057444524 -0.0063062645 0.019059837 -0.77851403 -0.62733781 0.0060710213
-0.028432818 -0.057389665 -0.0062046126 0.061141063 -0.62517536 -0.77808589 0.0049209148
-0.0257154 -0.057240114 -0.0061863437 0.046488389 -0.58905435 -0.80675513 0.0090429205
-0.022652488 -0.05710198 -0.0060523199 0.049023483 -0.54465514 -0.83722603 0.0093471687
-0.019999279 -0.057037581 -0.0060267835 -0.0057416079 -0.56347865 -0.82611066 0.0065901247
-0.015204418 -0.057358045 -0.0060757855 -0.13716945 -0.46464327 -0.87480927 0.0073916363
-0.013224944 -0.057667416 -0.0061789062 -0.15415286 -0.36066529 -0.91986823 0.0056771073
-0.010790989 -0.058041703 -0.0066231489 -0.22722419 -0.32685629 -0.91735172 0.006193941
-0.0075733177 -0.058436923 -0.0078818463 -0.45659438 -0.27326089 -0.84667003 0.006432578
-0.0056880252 -0.059291195 -0.0087608146 -0.59493655 -0.22503416 -0.77162826 0.0058269324
0.047060676 -0.058465764 -0.0075403107 0.9145661 0.25639856 0.31277561 0.0053543486
-0.051372334 -0.05490867 -0.0079760812 0.28930429 -0.76445788 -0.57611388 0.030034292
-0.048997521 -0.054742292 -0.0077449381 0.30293921 -0.64379102 -0.70268118 0.03575553
-0.046913177 -0.05455992 -0.0069223023 0.044744551 -0.67170376 -0.73946744 0.032985568
-0.043413714 -0.054684322 -0.0071703317 -0.16226934 -0.6251927 -0.7634151 0.0099231247
-0.040246859 -0.055488326 -0.0076986575 -0.26991668 -0.65914148 -0.70190978 0.010344035
-0.037446212 -0.055875916 -0.0082677156 -0.074494101 -0.602507 -0.79462945 0.012575276
-0.034329262 -0.055451423 -0.0082692569 0.13304581 -0.50450557 -0.85309607 0.0085187154
-0.031484105 -0.055521082 -0.0078375405 0.12417185 -0.47897518 -0.86900181 0.0078547588
-0.02852382 -0.055450026 -0.0074693528 0.11708044 -0.45819473 -0.88110709 0.0083439806
-0.025503961 -0.055528224 -0.0070152022 0.099823952 -0.40033659 -0.91091478 0.0066015092
-0.022500401 -0.055371914 -0.0067731296 0.090174444 -0.34113902 -0.93567765 0.0046734754
-0.019520748 -0.055385768 -0.0065323464 0.044261903 -0.30131117 -0.95249802 0.004426409
-0.016537981 -0.05541499 -0.0065063387 -0.038928322 -0.23792322 -0.97050351 0.0040789978
-0.013543651 -0.055495638 -0.0067327111 -0.12080266 -0.20751114 -0.97074497 0.0050899293
-0.010815111 -0.055442747 -0.0072664409 -0.19681659 -0.18759502 -0.96232605 0.0057770661
-0.0079548992 -0.055428237 -0.0082223136 -0.36442089 -0.07383699 -0.92830253 0.0083744721
0.044794265 -0.054059073 -0.0062301327 0.83885002 0.46472183 0.28348595 0.0071140695
0.045981314 -0.055445608 -0.0077418 0.8780421 0.44818342 0.16784982 0.0037211033
-0.04850265 -0.052761544 -0.0085745556 0.39217249 -0.35337442 -0.84930992 0.029899517
-0.04683901 -0.052513633 -0.0081827668 0.090025045 -0.33042711 -0.93952829 0.041693639
-0.043716367 -0.052847762 -0.0085734418 -0.18293782 -0.39067751 -0.90216678 0.013602241
-0.041304138 -0.053564832 -0.0085377162 -0.20252429 -0.33266544 -0.92104161 0.011020017
-0.031096056 -0.053011999 -0.0087785162 0.19053525 -0.22150512 -0.95636386 0.004738953
-0.028441584 -0.052444328 -0.0083963042 0.18849675 -0.16986026 -0.96727264 0.0043202662
-0.025466887 -0.052617908 -0.0078233248 0.15562336 -0.19065808 -0.96924245 0.0065979944
-0.022529667 -0.052472945 -0.0074161547 0.12754296 -0.1042526 -0.98633885 0.0061199386
-0.019544102 -0.052497935 -0.0070531629 0.094239399 -0.065146044 -0.99341577 0.0054961815
-0.016611943 -0.052398663 -0.006901857 0.0080958437 0.016274897 -0.99983484 0.0065216389
-0.013678518 -0.05250372 -0.0069797174 -0.077107444 0.046625685 -0.99593198 0.0058395476
-0.010631405 -0.052462373 -0.0073809908 -0.14472795 0.12836242 -0.98111004 0.0058883596
-0.0075554522 -0.052365653 -0.0082118865 -0.3398481 0.18492036 -0.92212135 0.0069027469
-0.0053384462 -0.051399067 -0.0088631436 -0.43381056 0.29206777 -0.85235256 0.0045615621
0.043952238 -0.052277286 -0.0077699409 0.78626269 0.60676849 0.11671739 0.0030613288
0.045097977 -0.053833794 -0.0078032925 0.82132077 0.55373323 0.13715571 0.0038052767
-0.048243716 -0.049671382 -0.0088764671 0.44130886 0.069923379 -0.89462692 0.029308429
-0.046772245 -0.049534168 -0.0086584045 0.046177376 0.012512479 -0.99885488 0.047922011
-0.044447381 -0.048744559 -0.0089633688 -0.14920992 0.14615148 -0.97794479 0.013559949
-0.030365998 -0.049107954 -0.0089139687 0.27232361 0.12901106 -0.95351762 0.0082272552
-0.028393915 -0.049456213 -0.008514042 0.24033539 0.15182249 -0.95874333 0.0065884837
-0.025395108 -0.04948226 -0.0078606 0.18635853 0.19409326 -0.96311903 0.0082672527
-0.022457981 -0.049523961 -0.0073380326 0.14453258 0.20942122 -0.96708483 0.0080035208
-0.019578302 -0.049434941 -0.0068564867 0.11161986 0.21927842 -0.9692564 0.0068932413
-0.016534878 -0.049459606 -0.0065675192 0.063160613 0.24766959 -0.96678358 0.0054921187
-0.013535704 -0.049542543 -0.0065279766 -0.024437711 0.29559967 -0.95499933 0.0053661806
-0.010453035 -0.049518391 -0.0067463755 -0.12150298 0.3427141 -0.93154925 0.0060859188
-0.0076895468 -0.049325068 -0.0071959109 -0.20702744 0.45140591 -0.86797029 0.0081269154
-0.004597825 -0.049132865 -0.0080970787 -0.32140583 0.47341576 -0.82010722 0.0069064079
-0.0020477877 -0.048407767 -0.0087813158 -0.37123042 0.61497569 -0.695696 0.0052028997
0.040789645 -0.049039632 -0.0076734051 0.60835761 0.79324174 0.025858689 0.0034570631
0.042424608 -0.050534558 -0.0075878589 0.70604336 0.704059 0.076182678 0.0035310965
-0.051384531 -0.045565862 -0.0080369385 0.11391982 0.79746497 -0.5925132 0.023229528
-0.048875976 -0.046295572 -0.0082861595 0.30471075 0.61895025 -0.72391438 0.041051421
-0.046613514 -0.046436977 -0.0076828133 0.075516514 0.61847115 -0.78217053 0.047790777
-0.043396592 -0.046333879 -0.007946305 -0.17091413 0.52381635 -0.83450872 0.017509423
-0.041180287 -0.046554308 -0.0084547801 -0.20498599 0.45129889 -0.86851031 0.0070046857
-0.037100766 -0.045251127 -0.0087489123 -0.022166407 0.55841011 -0.82926881 0.017641997
-0.034238543 -0.045745771 -0.0084280754 0.19287685 0.53533435 -0.82232332 0.009707544
-0.031420778 -0.046444982 -0.0081599029 0.22100806 0.48741427 -0.8447383 0.0076295626
-0.028537104 -0.046443414 -0.0074290535 0.19801082 0.52609271 -0.8270539 0.0098116174
-0.025559708 -0.0467082 -0.0069119856 0.1794969 0.51033729 -0.8410331 0.007837031
-0.022519862 -0.047181401 -0.0065867174 0.14957 0.49034873 -0.85859591 0.0070144371
-0.019769782 -0.047474552 -0.0062459349 0.12277632 0.49429142 -0.86058229 0.0060153115
-0.017298846 -0.047802571 -0.006079731 0.084577695 0.47431552 -0.87628275 0.0034952245
-0.013439124 -0.047951896 -0.0060395757 0.012501068 0.51385987 -0.85778308 0.0040051425
-0.010417607 -0.047854953 -0.0060758404 -0.084063463 0.5021348 -0.86069387 0.0077122743
-0.0076980651 -0.047561612 -0.0062451423 -0.13294299 0.56350315 -0.81534678 0.0061800461
-0.0043937694 -0.047199704 -0.0068040462 -0.23138672 0.62615329 -0.74457514 0.0038450994
-0.001493052 -0.046724334 -0.00739899 -0.29110593 0.68799043 -0.66477561 0.0031492941
0.0013461192 -0.045907505 -0.0076384968 -0.26710302 0.76395035 -0.58739752 0.00087538688
0.0042232675 -0.045514565 -0.0083821565 -0.23741968 0.78880697 -0.56693524 0.00023594787
0.0062882253 -0.045269024 -0.008922766 -0.19484136 0.8115356 -0.55086011 0.00011182966
0.032511182 -0.045175977 -0.0076902695 0.28987306 0.95478588 -0.066011526 0.0020599002
0.034621526 -0.045824099 -0.0076057557 0.3167704 0.94515401 -0.079626299 0.0018537884
0.037633289 -0.046987295 -0.0077230465 0.44808337 0.89389575 0.013100672 0.0058045737
0.039134491 -0.047767397 -0.008160864 0.5493384 0.83559793 -0.0018691535 0.0054507535
-0.051206559 -0.044891786 -0.006272058 0.092982396 0.87217653 -0.48027328 0.0034498658
-0.049585387 -0.044887237 -0.0061758319 0.086326949 0.88611931 -0.45534629 0.0044419579
-0.047595941 -0.044924397 -0.0062002582 0.013455219 0.88617021 -0.4631646 0.0050162468
-0.04365043 -0.044992827 -0.0062671583 -0.15219845 0.77139306 -0.61789024 0.020825975
-0.039628241 -0.043883413 -0.0073956945 -0.19406177 0.73548186 -0.6491583 0.015280039
-0.037566233 -0.044201031 -0.0074887625 -0.0019402649 0.7905941 -0.61233741 0.016844727
-0.034655463 -0.044419419 -0.0071081598 0.16159253 0.75778073 -0.63218367 0.0072443993
-0.03157628 -0.044642251 -0.0066343402 0.15160632 0.74499595 -0.64961267 0.004834441
-0.029085843 -0.04477974 -0.0061729364 0.14793073 0.71928161 -0.67878598 0.0020802657
0.0023178617 -0.044656053 -0.0063472856 -0.23601933 0.78165877 -0.57732528 0.00031417681
0.0045528496 -0.044397034 -0.0069097942 -0.2182669 0.80332071 -0.55410784 0.00016033312
0.0079601305 -0.043899138 -0.0073722885 -0.15157707 0.83083099 -0.53548509 0.00017074775
0.010792007 -0.043527815 -0.007604429 -0.11838797 0.84368765 -0.52361768 0.00011296573
0.013526323 -0.043033261 -0.0073510078 -0.085713848 0.85532868 -0.51094615 0.00023520128
0.0167286 -0.042891305 -0.0075228862 -0.022142742 0.87895054 -0.47639862 0.0010587443
0.019671759 -0.042897996 -0.0076209283 0.040027793 0.90720111 -0.41878861 0.0021501498
0.022764975 -0.043104667 -0.0075428742 0.10059005 0.93103158 -0.35080162 0.003106165
0.025173286 -0.043463435 -0.0076235845 0.15293376 0.94219279 -0.29813424 0.0032864977
0.02845579 -0.044061139 -0.0074093221 0.20702118 0.96100092 -0.18335603 0.0034779238
0.030967856 -0.044716612 -0.0075450265 0.24184819 0.9591378 -0.14684726 0.0027521055
-0.036382079 -0.01531769 -0.0060439254 -0.30542782 -0.11018471 -0.94581884 0.025386568
-0.035149239 -0.015431306 -0.0061396095 0.052601393 -0.21876708 -0.97435826 0.010030911
-0.036357906 -0.013809425 -0.0062610381 -0.071970277 -0.19014707 -0.97911406 0.01047552
-0.03443455 -0.013358996 -0.0063969386 0.081805386 -0.19406632 -0.97757155 0.0066955183
-0.032232489 -0.012618731 -0.0061120079 0.20586826 -0.21384536 -0.95492846 0.00043438305
-0.036642611 -0.010318009 -0.0067282827 -0.10045383 -0.17824475 -0.97884512 0.0048737433
-0.034357622 -0.010481134 -0.0069748317 0.051022742 -0.17955583 -0.98242372 0.0075365738
-0.031544868 -0.010387423 -0.0064312904 0.21745232 -0.18858317 -0.95767999 0.00016284808
-0.02942872 -0.0095361657 -0.0061311629 0.24349071 -0.18654329 -0.9517951 5.8996939e-05
-0.036449406 -0.0075210207 -0.0072064549 -0.02104163 -0.15249811 -0.98807979 0.0065758899
-0.034393769 -0.0074517149 -0.0074922238 0.055272531 -0.15761855 -0.98595196 0.0072971079
-0.031510483 -0.0074856509 -0.0069752722 0.21520895 -0.15068971 -0.96487182 0.00035010953
-0.0288688 -0.0073157228 -0.0063057509 0.25692153 -0.15247443 -0.95432848 0.00012044339
-0.036657128 -0.0050971587 -0.0072869263 -0.065602928 -0.10666275 -0.99212867 0.0052915514
-0.034320161 -0.0044871508 -0.0078673782 0.051045969 -0.13356034 -0.98972517 0.006399889
-0.031430904 -0.0045549464 -0.0073856525 0.22211112 -0.10821506 -0.96899748 0.00047521255
-0.028529903 -0.0045459326 -0.0065876567 0.26762494 -0.10967456 -0.95726091 0.00012977149
-0.026638454 -0.0040724934 -0.0060950597 0.26754603 -0.10817086 -0.95745403 0.00011681602
-0.037023254 -0.0013405611 -0.0073040212 -0.14462906 -0.0090440894 -0.98944467 0.0057447311
-0.034219813 -0.0015360474 -0.0081253247 0.070140786 -0.05387659 -0.99608105 0.0039416519
-0.031434488 -0.001517411 -0.0076482282 0.19339237 -0.048286039 -0.97993261 0.0036216006
-0.028398728 -0.0015327298 -0.0068102614 0.26135105 -0.049601406 -0.96396852 0.00025506536
-0.026169373 -0.00132003 -0.0061986367 0.26066765 -0.050395459 -0.9641124 0.00028424646
-0.037029132 0.0014483404 -0.0072914753 -0.1498214 0.0027252426 -0.98870933 0.0061998419
-0.034204636 0.0015233251 -0.0081578484 0.077382289 0.031620912 -0.99649996 0.0039782957
-0.031422768 0.0014511653 -0.007665874 0.1930801 0.026421931 -0.98082721 0.0037397805
-0.028384544 0.0014977269 -0.0068425853 0.25622603 0.024662254 -0.96630222 0.00022779747
-0.026111318 0.0013485579 -0.006235892 0.25401184 0.018242 -0.96702904 0.00029510653
-0.037099849 0.0045178193 -0.0071406853 -0.2228779 0.074761763 -0.97197539 0.0090003908
-0.034270491 0.0045115682 -0.0079852296 0.047776666 0.10370205 -0.99346024 0.0062346314
-0.031431224 0.0044673798 -0.0074640624 0.2225967 0.086393185 -0.97107518 0.00032316503
-0.028468452 0.0044958158 -0.0066798013 0.25124231 0.080990635 -0.96452987 0.00012724918
-0.026331583 0.004415466 -0.0061252154 0.24470672 0.074542463 -0.9667275 0.00013842393
-0.036563613 0.0071206084 -0.0072598569 -0.10090548 0.12925199 -0.98646438 0.0092973011
-0.034339678 0.0076245 -0.0076512266 0.043974146 0.14620462 -0.98827654 0.007506521
-0.031560373 0.0075256363 -0.007152705 0.21609275 0.12071948 -0.96888119 0.0002509068
-0.02863496 0.0074380431 -0.0064026299 0.24361581 0.1145685 -0.96308118 7.131118e-05
-0.026767813 0.006634892 -0.0060801385 0.23744714 0.10834616 -0.9653393 6.5530621e-05
-0.036590919 0.010694944 -0.0068184957 -0.12255368 0.15321991 -0.98056328 0.0034446057
-0.03433682 0.010461888 -0.0072279773 0.024394603 0.16387077 -0.98618013 0.0083738752
-0.031480893 0.010454838 -0.0066978349 0.20748335 0.15667006 -0.96561128 0.00024457928
-0.029134197 0.010075149 -0.0061947592 0.2295882 0.14540458 -0.96236521 0.00015412476
-0.036541775 0.013353889 -0.0064251912 -0.12131117 0.18045518 -0.9760735 0.005223481
-0.034324225 0.0135144 -0.0066514476 0.055863388 0.17705183 -0.98261482 0.0042327126
-0.03175208 0.013088405 -0.0062863003 0.19834624 0.18124281 -0.96322882 0.00016845891
-0.029638289 0.012284448 -0.006074978 0.21241698 0.17866015 -0.9607079 9.8247649e-05
-0.036310092 0.015485091 -0.0061859805 -0.18363082 0.20350669 -0.96169889 0.016157122
-0.034527838 0.015866959 -0.0061856681 0.055126883 0.18655641 -0.98089647 0.0037941085
