# .PCD v0.7 - Point Cloud Data file format
VERSION 0.7
FIELDS x y z normal_x normal_y normal_z curvature
SIZE 4 4 4 4 4 4 4
TYPE F F F F F F F
COUNT 1 1 1 1 1 1 1
WIDTH 568
HEIGHT 1
VIEWPOINT 0 0 0 1 0 0 0
POINTS 568
DATA ascii
0.07025484 0.037511967 0.0048472863 0.83007693 -0.26487136 0.49072948 0.004406468
-0.069937505 0.040537272 0.0043761167 -0.84840894 -0.33721477 0.40803 0.0040687704
-0.068860769 0.039680712 0.005695329 -0.79434985 -0.31488985 0.51947355 0.0048786448
0.035640731 0.039973035 0.0036286956 -0.49612769 0.82941169 0.25677532 0.0043962169
0.037502438 0.040654924 0.0046344902 -0.46570614 0.82709271 0.31469908 0.0024759129
0.03973338 0.041736927 0.0052974029 -0.46589482 0.77291358 0.43075126 0.0023196614
0.071038581 0.040450703 0.0046513444 0.87170953 -0.17037287 0.45945144 0.0033845799
-0.07214196 0.04476966 0.0032303424 -0.869739 -0.31636176 0.37877357 0.012848119
-0.070938602 0.043430895 0.0044946573 -0.84184301 -0.27495867 0.46443322 0.0038560068
0.040637266 0.042609721 0.0045559471 -0.48425636 0.77537388 0.40532827 0.0015171253
0.043958932 0.044385269 0.0052804435 -0.47764364 0.77280235 0.41789123 0.0023178039
0.07131207 0.042981099 0.0047935015 0.82994288 -0.10791267 0.54731137 0.001076736
-0.072446369 0.046894412 0.0037031074 -0.83430594 -0.25102699 0.49083498 0.0043636141
-0.071392156 0.046298038 0.0050657396 -0.81272137 -0.19436179 0.54927903 0.0052607288
0.04462897 0.045216456 0.0043958318 -0.46755168 0.77847636 0.41877192 0.0022354512
0.046204127 0.046365809 0.0039674109 -0.48682976 0.77104032 0.41047978 0.0019037712
0.049132064 0.047554519 0.0054023936 -0.47957402 0.74341053 0.46620753 0.0028579505
0.071392201 0.045428626 0.0049774293 0.79909039 -0.01539568 0.60101384 0.0030933092
-0.072950952 0.049660008 0.0041156993 -0.78522795 -0.24231784 0.56982386 0.0070566437
-0.071689717 0.049132824 0.00546984 -0.68785352 -0.15650716 0.70877582 0.0049125659
0.049760707 0.048603527 0.0040910216 -0.46783179 0.75417823 0.46081296 0.0020338008
0.052885249 0.050401311 0.0046771276 -0.45261106 0.7374391 0.50132513 0.0013947192
0.054411996 0.050909251 0.0053567365 -0.45204428 0.73253036 0.50897461 0.0027693771
0.070829548 0.050773349 0.0057510678 0.77628899 0.039284356 0.62915194 0.0016974469
-0.075207017 0.053480253 0.0031940821 -0.79560071 -0.23054793 0.56023854 0.014733682
-0.073633753 0.052432042 0.004345532 -0.71399271 -0.1988059 0.67133492 0.0059162588
-0.071839429 0.051932421 0.0058145039 -0.58291239 -0.058527887 0.81042433 0.0067193089
0.053800881 0.051613048 0.0033592447 -0.473643 0.77752399 0.41366497 0.0045024501
0.055431973 0.051659703 0.0051213219 -0.41822812 0.73306984 0.53637093 0.0025826646
0.058180779 0.053329475 0.0050675366 -0.41586512 0.70762837 0.57124275 0.0025571557
0.060051162 0.053983845 0.0055489638 -0.45600685 0.69778275 0.55241019 0.0064889435
0.070805401 0.053058654 0.0052649309 0.49893981 0.21783836 0.83881199 0.0021944335
-0.075308956 0.055262309 0.0033854139 -0.80822515 -0.075237721 0.58404738 0.026147079
-0.073804922 0.055182073 0.0046249037 -0.69641542 -0.076410979 0.71355933 0.010182319
-0.071456432 0.055837091 0.0058277547 -0.44557893 0.090251386 0.89068174 0.008938673
-0.067473009 0.056697451 0.0058964873 -0.15597579 0.33470768 0.92932361 0.0088232802
-0.064074323 0.055832397 0.0058357064 0.023136718 0.5123632 0.85845715 0.0027841511
0.059202593 0.05463912 0.0040884237 -0.44893497 0.67780304 0.58227181 0.0030148895
0.061422247 0.055701137 0.0046622991 -0.4467085 0.64990133 0.61488181 0.0062403972
0.063637547 0.056413561 0.0055384045 -0.31775978 0.58758658 0.74415767 0.0073029078
0.068661615 0.056717437 0.0058556716 -0.11044005 0.40907761 0.90579164 0.0051085227
0.07021191 0.055721518 0.0053824689 0.33044133 0.25397176 0.90901423 0.013191937
-0.075179197 0.057220284 0.0030973658 -0.74740833 0.085438155 0.6588484 0.043576263
-0.073734745 0.057308894 0.0043487074 -0.62332517 0.019588603 0.78171736 0.016231079
-0.07073465 0.057967525 0.0053001898 -0.25857985 0.33312705 0.90673196 0.021894025
-0.067884378 0.058051627 0.0050173062 -0.10802627 0.39548764 0.91209638 0.0064552128
-0.065483719 0.057194989 0.0051662205 0.038263574 0.499156 0.86566693 0.0031885779
0.062436085 0.05757238 0.0035593053 -0.59147435 0.59384668 0.54543954 0.01096385
0.064518578 0.058448654 0.0044903294 -0.47078958 0.49615875 0.72950923 0.015112908
0.067285359 0.058579668 0.0053903996 -0.13222766 0.44522008 0.88560432 0.012951966
0.070550464 0.059281524 0.0043142061 0.23970655 0.22589669 0.94419885 0.0099297287
0.072209708 0.05991454 0.0030950326 0.46568269 0.063282505 0.88268626 0.01643832
0.065271638 0.061158463 0.0035377648 -0.5693897 0.31869173 0.75778031 0.011014893
0.067347959 0.06146279 0.0043533053 -0.23478059 0.31827822 0.91846448 0.025732601
0.070307471 0.061667811 0.0039757276 0.05645347 0.22068971 0.97370893 0.014347706
0.072050489 0.062609687 0.003250059 0.46577871 0.063236944 0.88263887 0.016423725
0.06583894 0.063678905 0.0031090244 -0.75173843 0.23543972 0.61600131 0.022132847
0.067465633 0.064383179 0.0035515481 -0.24653582 0.23742633 0.93960041 0.024546577
0.07076107 0.064616777 0.003427498 0.092260323 0.10960326 0.98968434 0.010776643
0.072438315 0.065470815 0.0031199921 0.26867974 -0.018829415 0.96304554 0.019298881
0.068291813 0.06680131 0.0033026102 -0.24441241 0.1021138 0.96427971 0.017519169
0.070592292 0.067546278 0.0033529301 -0.03271113 0.0081909308 0.99943125 0.014792996
0.072624028 0.068052545 0.0032669497 0.12417027 -0.051048096 0.99094689 0.01434254
0.068675548 0.06964878 0.0030868445 -0.25456315 0.030339805 0.96658015 0.02082913
0.070606202 0.070546232 0.0036004949 -0.14755964 -0.10689425 0.9832598 0.020172134
0.072925441 0.070701875 0.0036960156 0.12742358 -0.17588699 0.97612858 0.019340245
0.068846285 0.074288055 0.0031706407 -0.5454275 -0.059744392 0.83602595 0.017695028
0.070471764 0.0735083 0.0041148905 -0.39339089 -0.15031873 0.90699935 0.018299663
0.073277399 0.073483698 0.0044112392 0.037100922 -0.18267141 0.98247373 0.030525485
0.075370714 0.073492356 0.003462381 0.50006038 -0.24755435 0.82985324 0.055579375
0.068742432 0.075683206 0.0033399118 -0.59556562 -0.031405363 0.80269259 0.055971473
0.070165157 0.075489983 0.0043782471 -0.40645874 -0.10527813 0.90758353 0.029167276
0.072521269 0.075284719 0.0049061389 -0.23681048 -0.22034593 0.94623911 0.035856336
-0.015308774 0.0029410205 0.0060710283 -0.21260451 -0.87528104 0.43437603 0.0013223136
-0.01284379 0.0028573861 0.0063235476 -0.16053733 -0.8751719 0.45640114 0.00093432347
-0.010382858 0.0026593732 0.0066290884 -0.11758803 -0.87118322 0.47666848 0.0014029052
-0.0074790218 0.0024832229 0.0069234124 -0.080534689 -0.87181789 0.48316419 0.0015271986
-0.0045161289 0.0023517816 0.0070859604 -0.047137976 -0.8711797 0.48869616 0.0016883997
-0.0014934625 0.0022980573 0.0071891863 -0.017286761 -0.87088186 0.49118835 0.0017702127
0.0014909444 0.0022885201 0.0071839467 0.0095592989 -0.8701275 0.49273396 0.0017641183
0.0044558109 0.002329991 0.0071022515 0.036480766 -0.86723322 0.49656385 0.0016819336
0.0074121859 0.0024521223 0.0069801477 0.063226931 -0.86353225 0.50031418 0.0013244835
0.010371913 0.0025888495 0.0067013954 0.088074639 -0.85669023 0.50825638 0.00092034176
0.013198178 0.0027499546 0.006404174 0.10773939 -0.8471235 0.52035946 0.00062341953
0.01566615 0.0028751122 0.0061637927 0.12624827 -0.83841139 0.53021479 0.00057107967
0.018455304 0.0029186271 0.0060798042 0.15579562 -0.83781117 0.52325922 0.001754044
-0.024534004 0.0058431034 0.006401394 -0.28507558 -0.85487252 0.433503 0.0011454012
-0.022320399 0.0054554041 0.0069703381 -0.25105274 -0.8574574 0.44915408 0.0010407078
-0.019475585 0.0049323803 0.0074582701 -0.21183322 -0.84693098 0.48768288 0.00098061888
-0.016498121 0.0042444323 0.0075085517 -0.18491356 -0.85755253 0.48001114 0.0010764183
-0.013587882 0.0037609467 0.0076715816 -0.15211366 -0.85054231 0.50342751 0.0010015337
-0.010620281 0.0035501479 0.0081133572 -0.110536 -0.84542066 0.52253771 0.0012958198
-0.0076142531 0.003392502 0.0084045269 -0.075681277 -0.83414292 0.54633135 0.0013863178
-0.0045696166 0.0033013199 0.0086034471 -0.044567227 -0.80848008 0.58683366 0.0010554654
-0.0014814999 0.0032368468 0.0086817788 -0.016682016 -0.80392063 0.59450251 0.0012017153
0.0015505397 0.0032451937 0.0087174745 0.012473669 -0.79271698 0.60946226 0.0011311438
0.004603717 0.003267359 0.0086123878 0.039894618 -0.7973178 0.60223979 0.0011881462
0.0076558529 0.0033760436 0.0084619569 0.068492942 -0.79904699 0.59735465 0.0012749186
0.010581032 0.0034857828 0.0081760706 0.093819357 -0.82744581 0.55365288 0.00094115111
0.013568065 0.0037045572 0.0078692036 0.11577021 -0.82706988 0.55004793 0.00061170873
0.016527688 0.0039878045 0.0075720851 0.13043737 -0.81936395 0.55823725 0.00046833689
0.019485787 0.0044534761 0.0074879476 0.15817635 -0.80516112 0.57157314 0.00080276356
0.022430867 0.0048398501 0.0072894073 0.16921152 -0.79734427 0.57931811 0.0014358754
0.025448687 0.0052604196 0.0070497352 0.18761729 -0.79895031 0.57138264 0.0025158182
0.028163845 0.0055941385 0.0065977667 0.21755499 -0.8099274 0.54469007 0.0029088771
0.030233227 0.0058412119 0.0061197425 0.27210605 -0.80518347 0.52691352 0.0033930547
-0.03337916 0.0088738147 0.0063021556 -0.36090964 -0.85270607 0.37767258 0.0035858653
-0.031249372 0.0084562656 0.0070486371 -0.30949005 -0.84384161 0.438346 0.0010790847
-0.028492333 0.0077282037 0.0074951332 -0.28274891 -0.84096903 0.46132872 0.0011085293
-0.025610358 0.0068597854 0.0076607452 -0.27450728 -0.84348267 0.46171713 0.00090186269
-0.022825867 0.0063892049 0.0083606718 -0.24089664 -0.82061321 0.51823032 0.00066859741
-0.020690568 0.0061236825 0.0088733397 -0.22607361 -0.78788924 0.5728187 0.0011474733
0.023020005 0.0062413183 0.0087735299 0.1710213 -0.73999125 0.65051109 0.00050635182
0.025483003 0.0064859223 0.0084555419 0.17534482 -0.72786713 0.66292053 0.00046323251
0.028623659 0.0068259281 0.0080219693 0.20077334 -0.75803387 0.6205439 0.0025690645
0.031495813 0.007288612 0.0075815367 0.23913318 -0.77432299 0.58586621 0.0034220091
0.034340788 0.0080082119 0.0073167337 0.27180547 -0.78658098 0.55444765 0.0034583965
0.037021864 0.0085578682 0.0066636936 0.32780004 -0.80241174 0.49868083 0.0022624368
0.039235838 0.0089617493 0.0061941808 0.36536056 -0.8079288 0.46234488 0.0016115489
-0.039559513 0.011713692 0.0065328553 -0.41493258 -0.81170171 0.41106111 0.001237832
-0.03736544 0.011095613 0.0073348559 -0.362587 -0.81440604 0.45307112 0.00092202931
-0.034580931 0.010034707 0.0075851544 -0.34599969 -0.83215934 0.43335316 0.00077405822
-0.031997804 0.0094013354 0.0082662264 -0.30432495 -0.82294011 0.47974569 0.0011128234
-0.029766584 0.0090728886 0.0089095635 -0.28938615 -0.78178978 0.5523228 0.0010220589
0.035190132 0.0093097435 0.0086446777 0.24059428 -0.68575668 0.68691504 0.0017877562
0.037701081 0.0097125629 0.0079515735 0.3030065 -0.77210861 0.5586012 0.003481176
0.040461753 0.010562926 0.0074881632 0.33812696 -0.78131872 0.52460587 0.00283348
0.043174312 0.01143761 0.0069011669 0.38390142 -0.77752739 0.49806705 0.0021226837
0.045232467 0.011905089 0.0061501237 0.44583622 -0.78010917 0.43893024 0.0031766533
-0.045317691 0.014842763 0.0063416311 -0.49938959 -0.78144485 0.37410432 0.0031525688
-0.043264303 0.014111334 0.0072488678 -0.46235734 -0.77328253 0.43388909 0.0010852655
-0.040682513 0.012913459 0.0076850657 -0.41903648 -0.79540008 0.43788946 0.00085585675
-0.038424011 0.012287092 0.0085724136 -0.3780559 -0.78080559 0.49740961 0.0010031894
0.041582461 0.012163186 0.008898654 0.31312412 -0.68802267 0.65465873 0.0032041357
0.043766771 0.012594827 0.0081618298 0.36363721 -0.74706161 0.55647725 0.0033598247
0.046312269 0.013487497 0.0074878843 0.40887997 -0.75230145 0.51658463 0.002236184
0.048868015 0.014459115 0.0067436253 0.46170574 -0.75085956 0.47226873 0.0023587581
-0.048731145 0.01745625 0.0069103003 -0.53140813 -0.73643363 0.41865373 0.0012472245
-0.046545368 0.016339472 0.0075444845 -0.50369149 -0.7550565 0.41974336 0.00073879957
-0.044327933 0.01537091 0.0083282487 -0.46520728 -0.7474376 0.47425655 0.0012523877
0.0478255 0.015305214 0.0087898998 0.40651292 -0.67309439 0.61781156 0.0044141728
0.049518991 0.015686406 0.0079301484 0.44284135 -0.72627962 0.52574646 0.002776772
0.052140951 0.016901202 0.0072569083 0.49346447 -0.71415466 0.49646342 0.0022061882
0.054214995 0.017689807 0.0062848856 0.51790684 -0.71313965 0.47244519 0.0012295922
-0.054107081 0.020917436 0.0062414017 -0.57383871 -0.72946185 0.3722828 0.0039541023
-0.052124273 0.02012757 0.0072155055 -0.54464847 -0.71683627 0.43532035 0.0013203542
-0.049897317 0.018849906 0.0078028603 -0.53418183 -0.72913176 0.42780447 0.00093939394
-0.047908355 0.018083891 0.008778885 -0.49970832 -0.71287507 0.49203736 0.00081481895
0.053165998 0.018551329 0.008468274 0.46615222 -0.64630705 0.60414344 0.0019099296
0.055376783 0.019475717 0.0075133331 0.52051032 -0.68727261 0.50668085 0.0022670538
0.057626981 0.020577718 0.0065545877 0.56449056 -0.65513468 0.50214434 0.0012623749
-0.057301071 0.023747981 0.0063539124 -0.6273067 -0.684825 0.3708114 0.0062161167
-0.055344701 0.022714199 0.0073426291 -0.58301932 -0.69681704 0.41777322 0.0010691433
-0.053270806 0.021567531 0.0081638675 -0.55129695 -0.70260799 0.44990405 0.0014907792
0.056441247 0.021429969 0.0087499516 0.4965845 -0.56504458 0.65888429 0.0018609778
0.058504757 0.022274222 0.0076540983 0.56000549 -0.62796092 0.54042476 0.0026563327
0.060714077 0.023481341 0.006572511 0.61943513 -0.59272522 0.51475912 0.0012918522
-0.0602316 0.026654355 0.0063266191 -0.66767842 -0.60659468 0.43156514 0.0028228667
-0.058405388 0.025577277 0.0074236267 -0.63994646 -0.63646632 0.43055683 0.001063065
-0.056513101 0.024490541 0.0084157698 -0.58123296 -0.62346452 0.52293432 0.0011566392
0.059685927 0.024428725 0.0086734081 0.57808322 -0.54645282 0.60597771 0.0019591819
0.061361749 0.025272608 0.0077004237 0.62569702 -0.54744214 0.55570704 0.0025401267
0.06338378 0.026307542 0.0064166738 0.66340399 -0.52541256 0.53276342 0.0020211765
-0.063061669 0.029880529 0.0061326376 -0.74195236 -0.57181853 0.35004321 0.0078888675
-0.06123212 0.028631419 0.0073205712 -0.69537365 -0.55814487 0.45269164 0.0013639339
-0.059499752 0.027562777 0.0084182732 -0.63176787 -0.5624885 0.53336293 0.001055664
0.0073929741 0.029828278 0.0088958815 -0.00072848122 0.78039646 0.62528467 0.0014017468
0.062542863 0.02739517 0.0083437124 0.61824548 -0.47868198 0.62340689 0.0025998959
0.063868731 0.029138116 0.0081456853 0.64120239 -0.43603116 0.63145566 0.0051545505
0.066128053 0.029850842 0.0060404292 0.74102724 -0.48480636 0.46458733 0.0032522182
-0.063813008 0.03184868 0.0070529128 -0.71860635 -0.48566982 0.49772462 0.0023735536
-0.062350702 0.03089503 0.0081430888 -0.71026248 -0.48461938 0.51055974 0.002353322
0.0048213294 0.030366428 0.0080885291 -0.00073249597 0.78040129 0.62527853 0.0013930654
0.0081375837 0.030776808 0.0074579967 -0.034290697 0.7814247 0.62305665 0.001874872
0.011062493 0.030745801 0.0078558968 -0.074644573 0.81047463 0.58099836 0.0013735562
0.013477303 0.031151559 0.0076812804 -0.12654006 0.80999047 0.5726282 0.0018060432
0.016573051 0.031733193 0.0077034384 -0.17779355 0.83531755 0.52022511 0.00080577133
0.019465059 0.032411311 0.0077720471 -0.22919996 0.8222481 0.52093709 0.00070547231
0.02195438 0.032455221 0.0087484736 -0.21750864 0.73292571 0.64460051 0.00084284425
0.065159127 0.031154893 0.0082467813 0.66377133 -0.35830134 0.6565271 0.0019779014
0.066631548 0.031824756 0.0069408044 0.72842479 -0.3862679 0.56585729 0.002577018
-0.066335507 0.035338864 0.0065150899 -0.75551343 -0.42511073 0.49847806 0.0024709736
-0.064883135 0.03432747 0.0076837945 -0.7327922 -0.40885252 0.5439257 0.0031073226
-0.062969044 0.0330071 0.008759913 -0.69984257 -0.39102289 0.59776384 0.0012856188
0.020973951 0.033112917 0.0073195277 -0.23242402 0.82379341 0.51705277 0.0025031101
0.022985527 0.033821754 0.0070248567 -0.23043917 0.83801782 0.49459478 0.0025320116
0.025434302 0.034217104 0.0075987522 -0.24850371 0.83023936 0.49894729 0.0029490215
0.028021133 0.034545969 0.0084991325 -0.23955517 0.7231375 0.64783144 0.0014734549
0.030677214 0.035577316 0.0082728965 -0.29214311 0.80163544 0.52156782 0.0025332829
0.065812357 0.033578224 0.0089274701 0.68391657 -0.30439511 0.66302466 0.0046545677
0.067132629 0.034062568 0.0076000029 0.71016383 -0.3066676 0.63373679 0.0026539452
-0.0669652 0.037632991 0.0071808533 -0.75036055 -0.34492907 0.56389982 0.0031415236
-0.065581046 0.036941644 0.0084964996 -0.6856119 -0.28931513 0.66800684 0.0016186392
0.029665833 0.036458448 0.0061650933 -0.29950705 0.85853648 0.41618589 0.0037410567
0.032531336 0.036259349 0.008329724 -0.29516804 0.74054134 0.60371709 0.0012451467
0.03462166 0.037366848 0.0080642607 -0.31630799 0.71672684 0.62149167 0.0022724506
0.037566595 0.038526323 0.0085477838 -0.37102246 0.71327758 0.59462374 0.002012358
0.067959212 0.037172504 0.008108777 0.7622717 -0.21726787 0.60970199 0.0024920795
0.069399387 0.037956424 0.0065495865 0.78247786 -0.22851717 0.57923079 0.002562722
-0.069230512 0.041428853 0.0062720748 -0.76418132 -0.2984772 0.57178527 0.0034066983
-0.067732833 0.040373418 0.0075546373 -0.73687297 -0.24072725 0.63171881 0.0024954688
-0.065991364 0.039208397 0.0088129118 -0.7128371 -0.23994093 0.65900809 0.0023376537
0.037472479 0.039460309 0.0071082283 -0.399084 0.73752356 0.54478526 0.0015852232
0.040609859 0.040955372 0.0075834221 -0.41931427 0.72425973 0.54737872 0.0016293932
0.042509481 0.041642435 0.0081738969 -0.42309555 0.72381049 0.54505819 0.0028297449
0.068194725 0.040172182 0.0085963765 0.7179293 -0.11020285 0.68733752 0.002415682
0.069388077 0.040412962 0.0072745653 0.77707118 -0.12136113 0.61760169 0.0024503293
-0.069573112 0.043663453 0.0065814168 -0.75474495 -0.20435834 0.62337601 0.0029790588
-0.068126671 0.043353278 0.0080158152 -0.68383777 -0.14536312 0.71500736 0.0025807191
0.041842379 0.042373404 0.0066858879 -0.41142237 0.70316952 0.57990021 0.00021240697
0.043902356 0.042819332 0.0077452618 -0.4192422 0.70626575 0.57045996 0.0019332068
0.046146136 0.044174749 0.0077479905 -0.41276681 0.71062851 0.56976366 0.0026802802
0.048538867 0.044958506 0.0084305611 -0.42212522 0.70315683 0.57217211 0.0027814957
0.068397075 0.043957561 0.0087334896 0.68698639 -0.021561053 0.72635037 0.0025415127
0.069453374 0.043439731 0.0076045422 0.74263287 -0.045319151 0.6681636 0.003373222
-0.069986008 0.04649426 0.0067422916 -0.72072595 -0.12094122 0.68258876 0.0045868591
-0.068229496 0.046428323 0.0082800649 -0.61749917 -0.044573858 0.78530759 0.0028202832
0.047177613 0.045408461 0.00694281 -0.43332773 0.71200806 0.55251396 0.0022579615
0.049702972 0.046382058 0.0076061576 -0.4115628 0.70631588 0.5759635 0.0015480119
0.052499432 0.047200665 0.0085112331 -0.35534239 0.63650906 0.68453491 0.0028055925
0.068347469 0.046664741 0.0085447328 0.55991799 0.086659119 0.8240037 0.0032978114
0.070055805 0.04639291 0.0069138831 0.69412374 0.045832727 0.71839517 0.0019169848
-0.070364572 0.049504131 0.0067064292 -0.65197468 -0.070420735 0.75496352 0.0063295406
-0.067983113 0.049326874 0.0083138142 -0.53274345 0.04963797 0.84481978 0.0040489645
-0.065754198 0.050599735 0.0088978307 -0.27333659 0.32047167 0.90696472 0.0052034152
-0.056548212 0.050829541 0.008832504 0.073159456 0.57430291 0.81536728 0.00055570022
0.050634928 0.048029184 0.0063234665 -0.40402842 0.69929332 0.58970332 0.00047820786
0.052627016 0.048571974 0.007088548 -0.42358434 0.69524813 0.58069468 0.0016008118
0.055437218 0.049357738 0.0079296948 -0.33779296 0.66187459 0.66919202 0.0020250448
0.058190685 0.050302099 0.0083163446 -0.28573483 0.620839 0.73000997 0.0037545229
0.060478091 0.050823886 0.0086525269 -0.18272847 0.57191354 0.79970318 0.0060898941
0.065934598 0.050898701 0.0087851714 0.16785125 0.35275066 0.92053944 0.0061867307
0.06739337 0.049795557 0.0085575869 0.3266331 0.27668151 0.90374678 0.005665869
0.069568612 0.048866324 0.0073268255 0.66146314 0.090067185 0.74454987 0.0026579814
-0.072284587 0.053056899 0.0060247961 -0.60995299 -0.088609025 0.78746802 0.010495454
-0.070493929 0.05235688 0.0066854013 -0.53687435 0.010399339 0.84359813 0.0059823664
-0.067951739 0.052116096 0.0077848295 -0.44395679 0.12212621 0.88768661 0.0047582528
-0.064633794 0.05227397 0.0083366493 -0.16768311 0.39096612 0.90500158 0.0050494666
-0.061805099 0.052611575 0.0081005041 -0.012611137 0.52950794 0.84821123 0.0028215395
-0.058850609 0.051809929 0.0084618274 0.020774031 0.5625698 0.82648873 0.0016115897
0.056402933 0.051310856 0.00639913 -0.39041221 0.68627477 0.61368179 0.0027987862
0.058800329 0.052153956 0.0068442207 -0.35804203 0.65450627 0.66590339 0.0019379972
0.06158039 0.05262332 0.0075750253 -0.2758936 0.60921508 0.74346465 0.0035934467
0.06427788 0.052529495 0.0081635583 -0.0084031764 0.44368544 0.8961432 0.0063826344
0.067201078 0.052956417 0.007619821 0.088062972 0.4042556 0.91039675 0.007448629
0.069662198 0.05235466 0.0065462911 0.49089816 0.22499323 0.84166324 0.0022872766
-0.070495166 0.054697171 0.0064117089 -0.43075091 0.10946624 0.89580733 0.0064191469
-0.068163589 0.05469143 0.0068901838 -0.29390714 0.22591203 0.92875314 0.0050997958
-0.065245964 0.054605272 0.0069500147 -0.077461496 0.44272122 0.89330709 0.0023647062
0.062373966 0.054571811 0.0063920575 -0.33355486 0.60297894 0.72467762 0.006062509
0.064694494 0.055168867 0.0067259818 -0.18871836 0.51938879 0.83343899 0.010787625
0.067044757 0.055699643 0.0066025783 -0.066598065 0.43436304 0.89827245 0.01668161
0.06931781 0.054882597 0.0062457235 0.33043584 0.2539686 0.90901715 0.013196201
0.067869097 0.057196241 0.00608896 0.043357655 0.33536786 0.94108903 0.020708425
-0.018734841 0.0057954188 0.0092057465 -0.20842853 -0.79134351 0.57474601 0.00098704419
-0.016323859 0.0055380538 0.0095791211 -0.16606726 -0.78517669 0.59658962 0.001058458
-0.013436802 0.0052565695 0.0099181803 -0.13504583 -0.77873689 0.61264294 0.0010835147
-0.010502458 0.0050307275 0.010170606 -0.10207258 -0.76885915 0.63121843 0.001145802
-0.0075243744 0.0048252563 0.01029248 -0.06548883 -0.75645453 0.65075934 0.001116356
-0.0044783154 0.0047214678 0.010400544 -0.036128134 -0.7458818 0.66509777 0.0011090679
-0.0014370219 0.0046528983 0.010423414 -0.010359403 -0.7384485 0.6742304 0.0013175448
0.0015198649 0.0046348474 0.010394177 0.013683993 -0.73865312 0.67394686 0.0013670642
0.0044899462 0.004721574 0.010380805 0.038189542 -0.72781241 0.68471199 0.0013152055
0.007500404 0.0047872118 0.010235834 0.064732753 -0.73358184 0.67651117 0.0014875703
0.010528558 0.0049528419 0.01009925 0.090951063 -0.74279237 0.66331547 0.0014903364
0.013410281 0.0051960642 0.0099427914 0.11621627 -0.74585575 0.65589094 0.0014492543
0.016153116 0.0054104221 0.009649355 0.1385781 -0.75034434 0.64635867 0.0012507512
0.019044427 0.0057683168 0.009363546 0.15908428 -0.74717534 0.645307 0.00072064041
0.021265887 0.0059478497 0.0093203448 0.15393209 -0.75106782 0.64202964 0.00099291955
-0.030024879 0.008928068 0.0091724955 -0.30238849 -0.78466266 0.54117078 0.001539362
-0.027865326 0.0087073632 0.0094892783 -0.27201051 -0.78633416 0.55469698 0.00086599152
-0.025359133 0.008272456 0.0099968864 -0.24794257 -0.77613646 0.57977301 0.0010965777
-0.022468157 0.0077449842 0.010423386 -0.20850495 -0.7615425 0.6136601 0.00089563424
-0.019594176 0.0071331318 0.010620977 -0.19476524 -0.77183753 0.60525477 0.00084881933
-0.01664377 0.0068196305 0.011066694 -0.14939822 -0.74676538 0.64809072 0.0010374089
-0.013642043 0.0065686568 0.011421236 -0.11675363 -0.70439506 0.70014006 0.0011057561
-0.010740149 0.0063584168 0.011629962 -0.081243902 -0.69974953 0.70975345 0.0011977019
-0.0076657534 0.0062370598 0.011766973 -0.051463667 -0.71913648 0.69296038 0.0011080141
-0.0045978269 0.0061384798 0.011851614 -0.025169006 -0.70804983 0.70571375 0.0010432736
-0.0017351859 0.006120583 0.011875201 -0.0013828987 -0.69513619 0.71887678 0.00095359102
0.0015930625 0.0061436649 0.011873867 0.015751651 -0.68391019 0.72939616 0.0012611421
0.0046053673 0.0062178061 0.011835518 0.037426624 -0.68686897 0.72581697 0.0011521608
0.0075578317 0.0062806578 0.011711258 0.058253616 -0.68445253 0.72672641 0.0012526808
0.010559205 0.0064255041 0.011593401 0.079331137 -0.6806134 0.72833502 0.0017420274
0.013573229 0.0066302693 0.011403795 0.10404693 -0.67652059 0.72903651 0.0017136335
0.016693382 0.0068849926 0.011126055 0.13272539 -0.67456919 0.7261821 0.0017435519
0.019503513 0.0071288981 0.010755169 0.162977 -0.68700004 0.70814508 0.0013900874
0.022352293 0.0074459389 0.01032945 0.17407905 -0.69893533 0.6936757 0.00092310272
0.025430221 0.0080213612 0.010064484 0.18648535 -0.68882376 0.7005319 0.00044998553
0.028355157 0.008316881 0.0095794965 0.19626489 -0.69402266 0.69268513 0.00041856978
0.03098237 0.0087002134 0.0092995232 0.2067699 -0.68652982 0.69708174 0.00078676344
0.033372022 0.0088402908 0.009205699 0.22596692 -0.66886753 0.7082057 0.0014999659
-0.036432397 0.011807957 0.0092748916 -0.3533743 -0.76626974 0.5366165 0.001133788
-0.034231279 0.011335815 0.0099105733 -0.32150424 -0.76449192 0.55873704 0.0010656308
-0.031460512 0.01068133 0.0104489 -0.27320412 -0.76574957 0.58222604 0.0010404821
-0.028629033 0.00992266 0.010763162 -0.25522536 -0.76747483 0.58808368 0.0010650879
-0.025747202 0.0094873076 0.011384621 -0.2226793 -0.73246276 0.64336008 0.00078468421
-0.023375275 0.0091807274 0.011787236 -0.19769681 -0.70370638 0.68243194 0.0014263671
0.023064509 0.0091205658 0.011806754 0.16837408 -0.65906936 0.73299229 0.0013313886
0.025737382 0.0094943335 0.011474303 0.18669042 -0.65967065 0.7279982 0.00070262834
0.028597422 0.0099525191 0.011033019 0.19502421 -0.64093214 0.74240935 0.0007143484
0.031499363 0.010442445 0.010652938 0.20417936 -0.63168144 0.74785644 0.0004119316
0.03439315 0.010611864 0.010058179 0.22134234 -0.65689605 0.72076005 0.001070966
0.037342839 0.011186711 0.0097026536 0.25214314 -0.67488742 0.69350618 0.0023659843
0.039595775 0.011639755 0.0093535287 0.29720813 -0.67495048 0.67535853 0.0020024488
-0.042289954 0.014799948 0.0093009984 -0.43459997 -0.72748351 0.53093362 0.0010245416
-0.040223323 0.014193643 0.010013177 -0.39388531 -0.72802019 0.56110692 0.0011029701
-0.037555903 0.01332406 0.010596936 -0.34505674 -0.74303561 0.57344037 0.00084293657
-0.034848597 0.012623533 0.011236847 -0.29786056 -0.72761184 0.61794829 0.00099332642
-0.032589775 0.012191691 0.011810862 -0.27822375 -0.71089554 0.64592499 0.0015683905
0.032473464 0.012241154 0.01187968 0.20015055 -0.59683859 0.77699643 0.00047201215
0.03458545 0.012645278 0.011583642 0.21028644 -0.59668386 0.77443397 0.00025060202
0.037679359 0.013093152 0.01112562 0.22317715 -0.58615011 0.77885818 0.00053597201
0.04058769 0.013445396 0.010494187 0.27275822 -0.61153126 0.74271965 0.0014970643
0.04331049 0.013926798 0.0098659806 0.32918569 -0.66216135 0.67318583 0.0024792426
0.045718674 0.014615276 0.0093695829 0.37558523 -0.6694321 0.64093405 0.0018676304
-0.045920055 0.017410861 0.0097603351 -0.47168723 -0.69405437 0.54387474 0.00099537952
-0.043500826 0.016462917 0.010491092 -0.42234549 -0.70806277 0.56592524 0.00086762191
-0.040931683 0.015619367 0.011298099 -0.37325379 -0.68075985 0.63027591 0.0006535782
-0.038791344 0.015135528 0.011848133 -0.35910717 -0.68249929 0.63658214 0.0012829066
0.041070722 0.015365568 0.011791431 0.24366927 -0.55636024 0.79441077 0.0006030557
0.043742426 0.015934829 0.011290463 0.27727681 -0.54092753 0.79404968 0.00091980275
0.046500798 0.01641188 0.010521621 0.33854148 -0.58596903 0.73622686 0.0020353645
0.049205102 0.017126309 0.0097741112 0.4025237 -0.62578964 0.66810322 0.0023987831
0.051185399 0.017806102 0.0092188641 0.43676573 -0.65316981 0.61855066 0.0023064034
-0.051254682 0.020776059 0.0092785852 -0.50854081 -0.665649 0.54616642 0.00097938289
-0.049170684 0.019982891 0.010125467 -0.48584491 -0.66810042 0.56355709 0.0014270319
-0.046795864 0.018975159 0.010911755 -0.45155248 -0.666457 0.59324139 0.001169196
-0.044557594 0.018209176 0.011692456 -0.42466182 -0.65191483 0.62822717 0.0015048538
0.047301617 0.018414635 0.011679401 0.32027829 -0.54757112 0.77303797 0.0017957153
0.049648643 0.019144194 0.011145871 0.35916126 -0.51962382 0.77523822 0.0012878485
0.052253589 0.019727845 0.010183901 0.43467197 -0.56753701 0.69925827 0.002704066
0.054502107 0.020585405 0.0094825095 0.47937247 -0.59194523 0.64792198 0.0017203115
-0.054491967 0.023563959 0.0094640804 -0.54945713 -0.6236335 0.55603784 0.0013035497
-0.052353188 0.022632724 0.010373005 -0.50212038 -0.63744611 0.58441216 0.0018121618
-0.050097436 0.021686519 0.011256686 -0.47632408 -0.62524593 0.61820942 0.00095462688
0.050742112 0.021197375 0.011866171 0.3560614 -0.47973675 0.80191833 0.0010970428
0.052977357 0.021856559 0.011327186 0.40108469 -0.47659224 0.78229839 0.0021775798
0.055499569 0.022622583 0.010377075 0.45697775 -0.50412077 0.73282582 0.0018134239
0.057781544 0.023408052 0.0094279172 0.53187305 -0.55485338 0.63972557 0.0024641082
-0.057520192 0.026465228 0.0095258551 -0.59334129 -0.56849617 0.56987566 0.0014284495
-0.055484548 0.025495991 0.010495595 -0.54192603 -0.56392264 0.6231432 0.0018566999
-0.053358391 0.024596823 0.01149783 -0.50726324 -0.56961006 0.64670581 0.00085828523
0.0067786193 0.026860664 0.011990122 -0.028534088 0.62673545 0.77870959 0.0031203874
0.055967364 0.024914056 0.011541575 0.42590389 -0.42849424 0.79686809 0.0021352652
0.058414221 0.02544607 0.010356103 0.49913874 -0.46313283 0.73237181 0.0019680883
0.06053916 0.026531775 0.0096076019 0.5699026 -0.47388589 0.67129958 0.001976328
-0.060305011 0.029527998 0.0093712406 -0.6303519 -0.50925714 0.58592969 0.0016446477
-0.058421347 0.02854638 0.010412921 -0.59633434 -0.47404367 0.64781785 0.0014527842
-0.056400787 0.027645132 0.011540261 -0.5608539 -0.50504178 0.6560303 0.0010612712
-0.010289214 0.029831249 0.011074491 0.16754872 0.610906 0.77377081 0.00057354721
-0.0075486419 0.029412746 0.010917276 0.12137049 0.63623667 0.76188725 0.00049456127
-0.0049167899 0.0285563 0.011361084 0.1043827 0.62534094 0.77333891 0.00085288589
-0.0016766109 0.028449863 0.010976282 0.093837902 0.62274557 0.77677697 0.00056767929
0.0015998136 0.028106729 0.011021039 0.043182667 0.64565748 0.76240522 0.0012055576
0.0042233276 0.02772213 0.011287659 0.02934557 0.61468172 0.78822923 0.0012561223
0.0077059157 0.027838988 0.011192496 -0.021801284 0.62403798 0.78108984 0.0014050793
0.010608017 0.028225956 0.010987905 -0.061302729 0.64782524 0.75931841 0.0014441175
0.013269108 0.028199831 0.011312526 -0.097404741 0.63972282 0.76240873 0.002005466
0.016534215 0.02906885 0.011043814 -0.13120581 0.65314859 0.74577612 0.0015028421
0.019140644 0.029093966 0.011562554 -0.17227837 0.61969674 0.7656998 0.0021251123
0.021596968 0.02951692 0.011803156 -0.17767754 0.66687125 0.72368044 0.0012515803
0.059026867 0.028165735 0.011424919 0.46181956 -0.35670519 0.81208634 0.0016796498
0.061291713 0.02839851 0.010034872 0.54165632 -0.40505502 0.73657244 0.0016816594
0.063344575 0.029571796 0.0091489954 0.61297685 -0.41050473 0.67508906 0.0018130009
-0.063134961 0.032956991 0.0090562459 -0.67122209 -0.39274025 0.62866217 0.0025522942
-0.0611251 0.031691533 0.010078284 -0.63940406 -0.41721091 0.64583093 0.0016330424
-0.059251513 0.031030886 0.011376026 -0.57980043 -0.38184947 0.71973783 0.0013748581
-0.011333297 0.030724647 0.010521356 0.1717747 0.63919288 0.74961716 0.0010740106
0.014710101 0.030228572 0.0093168719 -0.12964539 0.76103526 0.63562363 0.0034218021
0.016281646 0.030383918 0.009517136 -0.15300648 0.73866451 0.65647829 0.0014625216
0.019469498 0.030512445 0.010306067 -0.16784702 0.67372221 0.71967071 0.00085279922
0.022726124 0.031023493 0.01071183 -0.19336295 0.66756469 0.71900499 0.0018777521
0.025422767 0.031568836 0.010988124 -0.20987535 0.66054779 0.72085291 0.0020586476
0.028187811 0.031904377 0.011536111 -0.22796634 0.64681202 0.72778136 0.0021264681
0.031245476 0.032763202 0.011687952 -0.23660867 0.65377253 0.71874744 0.0020718996
0.059963986 0.030222967 0.011803176 0.50706571 -0.33239678 0.79523385 0.0013393101
0.061376523 0.031416014 0.011313951 0.49594846 -0.28541672 0.82010514 0.0032872017
0.063588701 0.031321917 0.0097373873 0.5604881 -0.35689878 0.74731272 0.0024724577
-0.063572921 0.034924518 0.009567 -0.66269076 -0.3622227 0.6554659 0.0017123913
-0.061814878 0.034285475 0.010859795 -0.60068452 -0.3125695 0.73585218 0.0014398923
-0.059908327 0.033117741 0.01188735 -0.5890044 -0.3363969 0.73478627 0.0022736625
0.026526306 0.033356361 0.0093721021 -0.2325608 0.71268684 0.6618104 0.0010565051
0.028709568 0.033574268 0.010028698 -0.23769067 0.69040072 0.6832642 0.0011380697
0.031616926 0.033974133 0.010701618 -0.24789833 0.68328333 0.68678254 0.0016940999
0.034319386 0.034868758 0.01086035 -0.28322321 0.65487427 0.70066005 0.0033618535
0.03685819 0.03538923 0.011479328 -0.30187374 0.61830986 0.72564811 0.0026243774
0.062273525 0.034152828 0.011665374 0.47092766 -0.18613322 0.86231166 0.0023466041
0.0643107 0.03468075 0.010452931 0.55534059 -0.22010095 0.8019678 0.0023702388
0.066173196 0.03511928 0.0092664314 0.67319375 -0.27153546 0.68780714 0.0022415814
-0.064231567 0.037508722 0.010053189 -0.65035003 -0.26111242 0.71334779 0.0020126917
-0.062358022 0.037231643 0.011501533 -0.59329027 -0.21434058 0.77592838 0.0018705385
0.035684343 0.036378786 0.0099030547 -0.32676801 0.67020923 0.66636491 0.0019918031
0.037834369 0.037180759 0.010243862 -0.33963704 0.66861796 0.661511 0.0021039152
0.040457841 0.037713703 0.011099308 -0.34521979 0.59858602 0.72285408 0.0022614261
0.043096378 0.038582858 0.011576161 -0.30969223 0.57956064 0.7537905 0.0029801996
0.062587708 0.036083739 0.011933281 0.47569978 -0.10150676 0.87373114 0.0040859589
0.064251415 0.037470382 0.011169319 0.51271439 -0.12948312 0.84873909 0.0020931119
0.066568002 0.037996527 0.0095846606 0.62170982 -0.16741359 0.76514673 0.0044617485
-0.066290885 0.040989608 0.0092623951 -0.66672701 -0.18975458 0.72074139 0.0020788892
-0.064634755 0.040324628 0.010440622 -0.60088676 -0.14711872 0.7856788 0.0030116143
-0.0627134 0.040103804 0.011769539 -0.5351395 -0.080424003 0.84092665 0.0024666355
-0.039347246 0.040560506 0.011912197 0.25641063 0.59214693 0.76394743 0.00031436034
0.040873427 0.039479379 0.0096425451 -0.37634224 0.66060752 0.64958775 0.0031549316
0.043591451 0.04037888 0.01027087 -0.35624063 0.63276529 0.68753225 0.0019194876
0.046222996 0.040720761 0.011216231 -0.29373553 0.55904424 0.77536374 0.001676577
0.04873478 0.041308902 0.011733581 -0.24143019 0.49718016 0.83338064 0.0023169273
0.064704664 0.040454589 0.011152767 0.46020815 -0.022132546 0.8875351 0.0035377224
0.067001112 0.040642515 0.0097368117 0.61899537 -0.071278997 0.78215349 0.0031050015
-0.066560991 0.043468408 0.0094184419 -0.62975562 -0.084175795 0.772219 0.0029990564
-0.064592734 0.043356694 0.0107775 -0.50650936 0.011823836 0.86215341 0.0031241761
-0.062558562 0.043788936 0.011802238 -0.44309688 0.057598379 0.89462143 0.0029558488
-0.048819803 0.044874527 0.01181197 0.21019161 0.57592106 0.79002184 0.00087234931
-0.045810293 0.043671109 0.011747036 0.24545062 0.59490502 0.76540321 0.0003784388
-0.043926764 0.04342597 0.011188423 0.25743723 0.60011154 0.75735879 0.00027965382
0.046975803 0.042834569 0.0097826598 -0.36184651 0.64098305 0.67691052 0.0019228816
0.049583506 0.043320522 0.010535702 -0.31635764 0.59919661 0.73544633 0.0024348469
0.052348614 0.043798465 0.011188124 -0.23792247 0.52659243 0.81614542 0.0014980152
0.055322599 0.044280693 0.011656788 -0.16732058 0.45997506 0.87202454 0.0026811075
0.058140676 0.044724271 0.011816102 -0.034888703 0.39956689 0.91603994 0.0037898391
0.062003564 0.044063728 0.011777044 0.16020413 0.23722216 0.95815468 0.0080040274
0.064309075 0.043664813 0.011187345 0.3502292 0.13598754 0.92673993 0.0046944921
0.066579834 0.043048114 0.010045975 0.48212278 0.064897954 0.87369668 0.0031330215
-0.066689447 0.046329722 0.0093873953 -0.56949037 0.019245025 0.82177269 0.002654766
-0.064833477 0.046252865 0.010403091 -0.47079009 0.087092027 0.87793595 0.0030922543
-0.06188814 0.046188541 0.011550922 -0.38549042 0.17033018 0.90685433 0.0040937327
-0.058872327 0.04722612 0.011666388 -0.045864526 0.434288 0.89960563 0.0034168388
-0.055581104 0.047084976 0.011609573 0.046746437 0.48278236 0.87449187 0.0021166326
-0.053131122 0.046747949 0.011426821 0.10884874 0.53257954 0.83935153 0.00068669935
-0.049968764 0.046085306 0.011084536 0.16790013 0.54887658 0.81886756 0.00089471217
-0.047114011 0.045161441 0.010893321 0.24548823 0.59445655 0.76573956 0.00039464346
0.05060026 0.045215435 0.0094244508 -0.33655712 0.64128208 0.68955535 0.0024897039
0.052741934 0.045945052 0.0097552333 -0.29895115 0.60464805 0.73826069 0.0036202196
0.055514555 0.046457469 0.01035329 -0.23574863 0.54365754 0.80551785 0.0021008269
0.058412161 0.04652049 0.01094634 -0.08493074 0.44181237 0.89307815 0.0023857814
0.061440472 0.046522219 0.01107763 0.069669582 0.35555744 0.93205416 0.0047792806
0.064484671 0.046300918 0.010642793 0.32188463 0.2090703 0.92340666 0.0050994982
0.067023925 0.046496987 0.0095167113 0.45090765 0.15894662 0.87830418 0.0042950832
-0.066516295 0.048697989 0.0091562485 -0.48321584 0.12926918 0.86590528 0.0048203594
-0.065096207 0.048905157 0.0096563166 -0.38248676 0.18448353 0.90535617 0.0040890384
-0.061608773 0.049374614 0.010310458 -0.15454534 0.42701989 0.89093751 0.0039004013
-0.058722328 0.049031343 0.010612116 -0.0073169125 0.49045476 0.87143594 0.0028215041
-0.05567389 0.049098328 0.010160429 0.084187232 0.56354725 0.82178283 0.0012163706
-0.052470692 0.048089013 0.010219945 0.16801885 0.57285386 0.80225188 0.00057818007
0.056576982 0.048271645 0.0093654487 -0.27025753 0.58088714 0.76780921 0.0019356143
0.058826577 0.048860062 0.0096251769 -0.19004864 0.55910408 0.8070218 0.0043518529
0.061516833 0.049282957 0.0097835064 -0.046442963 0.4623287 0.88549155 0.0051882062
0.064295419 0.049469024 0.0095973806 0.085444771 0.40694284 0.9094485 0.0068158782
0.066475026 0.048802759 0.0093262754 0.38548681 0.26391947 0.88416427 0.007080053
-0.064746022 0.051242292 0.0090154679 -0.15957598 0.42996371 0.888632 0.0089569865
-0.061607964 0.051234085 0.0091830166 -0.068992026 0.48584989 0.87131512 0.0041585462
-0.02162829 0.0088406811 0.012081533 -0.18664628 -0.7195735 0.66886252 0.0011601185
-0.019232528 0.0086096833 0.012386855 -0.16399835 -0.69022286 0.70476735 0.0008897623
-0.016333388 0.0082722316 0.012646626 -0.13312583 -0.68945259 0.71199203 0.0011312395
-0.013440274 0.0080160676 0.01285119 -0.097932413 -0.66645795 0.73908263 0.0011046517
-0.010522272 0.0077990429 0.012973413 -0.063238434 -0.64495891 0.76159626 0.0011560487
-0.0075284517 0.0076474589 0.013046745 -0.035134528 -0.63110054 0.77490497 0.0013323984
-0.0045379363 0.007536761 0.013056 -0.013270234 -0.61525244 0.78821838 0.0014742602
-0.0014975019 0.0074698031 0.013021775 0.0061676088 -0.60267848 0.79796028 0.0014743929
0.0014888929 0.0075483457 0.013025279 0.025100987 -0.59253156 0.80515599 0.0015877029
0.0044513638 0.0075977184 0.012944018 0.041614033 -0.5835802 0.81098849 0.0015275892
0.0075139888 0.007690547 0.012832855 0.053451017 -0.58352965 0.81033087 0.0017836614
0.010398124 0.0078344615 0.012722517 0.072155528 -0.58662051 0.8066411 0.0017055441
0.013490587 0.0081177671 0.012616022 0.091564938 -0.6020242 0.79321039 0.0016757377
0.016283741 0.0083517171 0.012433023 0.11148699 -0.61114216 0.78362995 0.0017365855
0.019292539 0.0086531406 0.012229095 0.13709515 -0.63112503 0.76346976 0.0016813378
0.02163668 0.0088848164 0.012138966 0.16388817 -0.6523934 0.73994827 0.0014548562
-0.030537792 0.011784248 0.012181889 -0.26044723 -0.70177573 0.6630823 0.0010849908
-0.028275229 0.01138541 0.012585782 -0.23142542 -0.70136708 0.67418581 0.00086023606
-0.025403395 0.010905214 0.01297839 -0.20320238 -0.68071318 0.7038027 0.0014060064
-0.022503963 0.010487042 0.013332952 -0.17723097 -0.65042788 0.73860186 0.0010901622
-0.019575538 0.010329585 0.013807037 -0.13565326 -0.60494262 0.78462893 0.00089383655
-0.016582167 0.010050662 0.014075932 -0.10855006 -0.58189952 0.80598378 0.0012197625
-0.013587293 0.0099577047 0.014351907 -0.075975217 -0.56297302 0.82297581 0.0012202013
-0.010569853 0.0098031787 0.014456554 -0.044915896 -0.54133326 0.8396076 0.0015031155
-0.0075095329 0.0097975098 0.014552172 -0.016053876 -0.51351476 0.8579306 0.0017156642
-0.0044254512 0.0097761983 0.014559246 0.0022511221 -0.49441159 0.86922503 0.0017065163
-0.0014831367 0.0097459285 0.014499518 0.015790308 -0.48850739 0.87241691 0.0016049817
0.0014886878 0.0098607978 0.014471475 0.032299131 -0.47542131 0.87916511 0.0015587428
0.0045762635 0.01008073 0.014448199 0.045613453 -0.46640906 0.88339239 0.0014993824
0.0076267165 0.010097305 0.014275517 0.056915604 -0.46383113 0.88409352 0.00156209
0.010582384 0.010317451 0.014206034 0.062744305 -0.45559645 0.88797241 0.0014129531
0.013464686 0.010321027 0.013962847 0.083918922 -0.46438503 0.88164854 0.00162167
0.016507942 0.010416291 0.013721141 0.098857537 -0.46161553 0.88155448 0.001318821
0.019489616 0.01048761 0.013363752 0.12752239 -0.52443081 0.84184939 0.0019050641
0.022370661 0.010405156 0.012874073 0.14975767 -0.56130201 0.81394881 0.0023074003
0.02536279 0.010966041 0.012711854 0.16280137 -0.57211822 0.80385101 0.0023863683
0.028099239 0.011438188 0.012450404 0.18258397 -0.59298992 0.78423595 0.0015823002
0.030583339 0.011833632 0.012140304 0.19840324 -0.6042065 0.77173221 0.0006434361
-0.036787238 0.014592275 0.012482523 -0.32190087 -0.67888367 0.65992182 0.0011946495
-0.034353781 0.01403406 0.012974042 -0.28795823 -0.67103988 0.68321711 0.0011069701
-0.031491715 0.013456007 0.013471115 -0.24130327 -0.64275008 0.72707987 0.0014294215
-0.028633147 0.01312521 0.014063901 -0.20127308 -0.6054436 0.77001768 0.001036984
-0.025712982 0.012663406 0.014429621 -0.17349182 -0.61060804 0.77269554 0.0011374179
-0.022836203 0.012384244 0.014791809 -0.14498949 -0.5815497 0.80048609 0.0013015243
-0.020293137 0.012104395 0.014949924 -0.11534981 -0.54694909 0.82918096 0.00093955104
0.011177494 0.012134289 0.014908621 0.065249726 -0.35737219 0.93168002 0.0013964593
0.013488697 0.012369285 0.014845136 0.068819992 -0.36118329 0.92995179 0.0022771601
0.016506933 0.012622796 0.014742534 0.086469449 -0.34994486 0.93277097 0.001676101
0.019460257 0.012984259 0.014600689 0.10634721 -0.37829271 0.91955692 0.0016534688
0.022454618 0.013237054 0.014375679 0.11675171 -0.40514344 0.90676779 0.0015988771
0.025505712 0.013454162 0.014081268 0.12759121 -0.41949227 0.89874732 0.0021324418
0.028527956 0.013472674 0.013616076 0.15763687 -0.46631357 0.87046099 0.002528518
0.03145615 0.013499103 0.013054647 0.18401685 -0.51130897 0.83946466 0.0022100557
0.03460636 0.014056371 0.012637141 0.19388407 -0.5439871 0.81638658 0.00096271659
0.037298858 0.014601074 0.012279753 0.21317001 -0.5531739 0.8053304 0.00043861632
0.039345697 0.014789313 0.012117674 0.23642026 -0.57051963 0.78651947 0.00062197977
-0.042564049 0.01759672 0.01238215 -0.3999992 -0.64292508 0.65318292 0.0014682863
-0.040331602 0.016919648 0.012955725 -0.36097792 -0.63605201 0.68200648 0.0013739358
-0.037626181 0.016335325 0.013693542 -0.2987743 -0.59667164 0.74479318 0.00081384793
-0.034760788 0.015767528 0.014357784 -0.25448501 -0.57983476 0.77396965 0.0014794451
-0.032200959 0.015250852 0.014749768 -0.21521218 -0.60129422 0.76949924 0.0013913795
0.023723157 0.015165291 0.014915079 0.077397801 -0.22361085 0.97160059 0.0018880974
0.025842123 0.01558607 0.014845707 0.10161185 -0.29423103 0.95031738 0.0018987487
0.028641725 0.0160005 0.014689593 0.12697402 -0.35399714 0.9265871 0.0023501483
0.031638939 0.016274903 0.014425032 0.14230584 -0.38911375 0.91013163 0.0020751918
0.034518074 0.016356921 0.014014132 0.16480157 -0.42210519 0.89144129 0.0019841236
0.037532091 0.016475882 0.013414073 0.20095178 -0.47447193 0.85702664 0.0011353164
0.040352713 0.016674157 0.012770995 0.22380398 -0.49668124 0.8385818 0.00071160868
0.043155707 0.017279271 0.012354095 0.25499609 -0.5118559 0.82035387 0.00090151775
0.045463357 0.017829373 0.012221347 0.30124676 -0.53985208 0.78600901 0.0015261511
-0.04808889 0.020902202 0.012187082 -0.44079134 -0.60703099 0.66122347 0.0012823242
-0.046069309 0.02022583 0.012671693 -0.42962074 -0.60389227 0.67137182 0.0012768428
-0.043504771 0.019450167 0.013462069 -0.37972894 -0.56939763 0.72910374 0.0010337376
-0.040798683 0.018857116 0.014349368 -0.32669213 -0.54389596 0.77294856 0.0014936031
-0.038592678 0.018225452 0.014786909 -0.30184239 -0.56810582 0.76560229 0.00091023353
0.032255191 0.018258924 0.014972282 0.084919952 -0.19736919 0.97664422 0.0025082873
0.034720171 0.018545926 0.014818531 0.12640134 -0.29100424 0.94833493 0.0030083184
0.037659146 0.019161487 0.014662597 0.16627316 -0.3508659 0.92154562 0.0024466787
0.040511582 0.019385181 0.014176975 0.20058663 -0.39404547 0.89693534 0.0015903327
0.043352164 0.019443991 0.013454774 0.23548679 -0.43039504 0.8713817 0.00090369396
0.046214856 0.019581532 0.012689856 0.27519962 -0.46521407 0.84133285 0.0012632785
0.048750669 0.020279871 0.012268704 0.32549128 -0.48326299 0.81271911 0.0016765487
-0.051338695 0.023727842 0.012265756 -0.48131549 -0.58044708 0.65682316 0.0011518926
-0.049228247 0.022834567 0.012883467 -0.44812736 -0.56303668 0.69438583 0.0014277649
-0.046673283 0.022256687 0.013924733 -0.39311188 -0.51540571 0.76145911 0.0011635149
-0.044280175 0.021494411 0.014638246 -0.35703188 -0.51825756 0.777134 0.0013519729
-0.0063414942 0.02389797 0.014996692 0.1113083 0.38666564 0.91547817 0.0012959455
-0.0038708032 0.023728052 0.014809816 0.096075632 0.43832278 0.89366806 0.0017999638
-0.0013303555 0.02340591 0.014750232 0.074806564 0.45176691 0.88899416 0.0017892442
0.0015713366 0.023191789 0.014658839 0.048076954 0.43134725 0.90090406 0.0020515395
0.004556539 0.023033561 0.014617972 0.020564888 0.43018764 0.90250528 0.0020231609
0.0075382367 0.023050407 0.014576759 -0.0045292978 0.42318884 0.90603024 0.0021016023
0.01046035 0.023090551 0.014608006 -0.029195363 0.40926182 0.91194981 0.0022216754
0.013516505 0.023198202 0.014691765 -0.052926298 0.38403499 0.92180037 0.0025447765
0.016326936 0.023230359 0.014822391 -0.036231156 0.25964904 0.96502322 0.0023117266
0.019218547 0.023741933 0.014907081 -0.081321537 0.30670998 0.94832259 0.0023983072
0.041170411 0.021506524 0.014847009 0.14670128 -0.2445474 0.95847553 0.0031550478
0.043816827 0.022134418 0.014543693 0.21062875 -0.33232448 0.91934538 0.0020750463
0.046491116 0.022347853 0.013913304 0.24109273 -0.35040304 0.90503699 0.0013329932
0.049428903 0.022384895 0.013020062 0.30087751 -0.40230632 0.86465168 0.0011406937
0.052073412 0.023075853 0.012411796 0.35110477 -0.42949414 0.83202177 0.0014384816
0.054498129 0.023929166 0.012132893 0.41583419 -0.46357048 0.78242213 0.0021018435
-0.054405179 0.026607437 0.01230722 -0.51542121 -0.51331824 0.68618178 0.0014255516
-0.052334774 0.02568092 0.013043742 -0.46992639 -0.50374061 0.72485483 0.0019719421
-0.049807888 0.025160829 0.01418562 -0.41097769 -0.45689052 0.7888906 0.0014608647
-0.047626641 0.024312383 0.014784017 -0.37438929 -0.45501044 0.8079592 0.0016637519
-0.015742287 0.026861968 0.014857123 0.156102 0.4131144 0.89720047 0.00066590303
-0.013498467 0.026396757 0.014698179 0.15532534 0.45902425 0.87474036 0.0012997044
-0.010487666 0.025886828 0.014461327 0.15397364 0.5172106 0.84189391 0.0015401344
-0.0075148023 0.025517633 0.014190208 0.12567414 0.48101547 0.86765784 0.0012238297
-0.0043969261 0.025302552 0.013914657 0.094825767 0.52583724 0.84528291 0.0013636643
-0.0014410034 0.025295019 0.013601922 0.079146452 0.53252387 0.8427065 0.0017897194
0.0014989137 0.025306592 0.01337766 0.061706752 0.54783058 0.83431041 0.0017373957
0.004432186 0.025240058 0.013297691 0.013122479 0.55441672 0.83213574 0.0019051047
0.0075577651 0.025229856 0.013310574 -0.022931047 0.54493362 0.83816558 0.0020442165
0.01050584 0.025398174 0.013301104 -0.044555988 0.55549145 0.83032769 0.0021083404
0.013483229 0.025364548 0.013531141 -0.075093098 0.52165616 0.84984463 0.0025515857
