# .PCD v0.7 - Point Cloud Data file format
VERSION 0.7
FIELDS x y z normal_x normal_y normal_z curvature
SIZE 4 4 4 4 4 4 4
TYPE F F F F F F F
COUNT 1 1 1 1 1 1 1
WIDTH 566
HEIGHT 1
VIEWPOINT 0 0 0 1 0 0 0
POINTS 566
DATA ascii
-0.041906279 0.026078653 0.0063815536 -0.92698711 0.042794734 -0.37264407 0.0022133391
0.0054061799 0.025470125 0.006943814 0.7610516 0.010119279 -0.64861244 0.0018564127
0.0065333787 0.024720589 0.0083730146 0.62359649 0.07144209 -0.77847511 0.044842657
-0.042404983 0.02783493 0.0076799355 -0.92259175 0.078092769 -0.37779096 0.0027746079
-0.041804332 0.027552187 0.0061131008 -0.92699516 0.042788789 -0.37262467 0.0021903452
0.0049835932 0.027758561 0.0064085205 0.86420804 -0.0087255193 -0.50305903 0.0082183136
-0.051177524 0.05877877 0.0062659592 -0.46492052 0.86061698 -0.20781586 0.012622546
-0.049946025 0.059044674 0.0072789625 -0.42041731 0.88585269 -0.19625036 0.0070264172
0.032480739 0.057593163 0.0060754172 0.50698948 0.10645473 0.85535318 2.3148235e-05
-0.048432171 0.060510974 0.0075520193 -0.44655421 0.86664402 -0.22252518 0.0062797735
-0.046528615 0.061097272 0.0074714203 -0.3307758 0.90451425 -0.2691493 0.0024320753
-0.043524072 0.062020265 0.0074573616 -0.27691227 0.91109687 -0.305323 0.00019469774
-0.04083604 0.062659979 0.0069657043 -0.26226109 0.90581506 -0.33274344 0.0003972612
-0.038684312 0.062949434 0.0061196727 -0.24350262 0.8941108 -0.37586215 0.00020171987
-0.040126119 0.063338727 0.008205574 -0.28009102 0.90215534 -0.32812303 0.00025001005
-0.03746289 0.063841119 0.0074913637 -0.25198889 0.89762068 -0.36163342 0.00012855482
-0.034462206 0.064674281 0.007469736 -0.24294759 0.89627218 -0.37104273 0.0002662008
-0.031557847 0.065404765 0.007301657 -0.24260631 0.88831317 -0.38992545 0.00046442909
-0.029074727 0.065761611 0.0065314304 -0.24014956 0.87262458 -0.42526999 0.00060142542
0.026857188 0.063262329 0.0087149581 0.48469412 0.15658782 0.86055326 1.0948753e-05
0.028556688 0.064022548 0.0076192939 0.48643151 0.16115431 0.85872799 6.9667003e-06
0.030486841 0.064886443 0.0063749086 0.48762199 0.16232742 0.85783136 5.412996e-06
-0.03054316 0.066196308 0.0084847175 -0.25042564 0.90286565 -0.34945768 0.00014989803
-0.028191421 0.066555604 0.0077498723 -0.24919786 0.88816082 -0.38609678 0.00050827384
-0.025370659 0.067264616 0.0074737249 -0.25247967 0.87433982 -0.41446823 0.00097320124
-0.022506941 0.068114124 0.0074076848 -0.28072929 0.87114847 -0.40285408 0.0012208702
-0.019940212 0.06863562 0.0067098658 -0.28671807 0.85565829 -0.43086153 0.0021713628
0.026193198 0.067188188 0.0083701899 0.48251039 0.18473478 0.85618734 0.00023150652
0.028548745 0.068054408 0.0068638083 0.47578669 0.19915387 0.85671741 0.00045798445
-0.021123353 0.069133826 0.0086853541 -0.28935188 0.88462549 -0.36566821 0.0011937176
-0.019181792 0.069498412 0.0080104051 -0.28683308 0.87858492 -0.38185766 0.002238662
-0.016544085 0.070182383 0.007495332 -0.28778017 0.88394856 -0.36853421 0.0034999149
-0.013573851 0.071228459 0.0073757721 -0.34308717 0.88418519 -0.3170296 0.0036408007
-0.011311673 0.071780801 0.0065277098 -0.32854173 0.89562607 -0.29985699 0.0063049891
0.023025649 0.071256123 0.0088469936 0.37525898 0.42584065 0.82331067 0.0032326584
0.025430074 0.070758849 0.0078184586 0.43796155 0.34359968 0.83073997 0.0036555273
0.027727555 0.070564955 0.006698302 0.43115813 0.3189989 0.8440038 0.003135555
-0.012158767 0.072136015 0.0084273741 -0.32742253 0.9167248 -0.22893272 0.012744082
-0.010217202 0.072563976 0.0075994655 -0.27823848 0.93489099 -0.22036846 0.0080381986
-0.0074216826 0.073497996 0.0074607618 -0.29756454 0.94552761 -0.13203409 0.0064379955
-0.004475032 0.07440801 0.0073979516 -0.29665357 0.95449752 -0.030514838 0.0066495379
-0.0026622512 0.074913293 0.0076567866 -0.30323696 0.952887 0.0073321015 0.0047511565
0.017238712 0.074721619 0.0087467479 0.23552293 0.72631645 0.64575028 0.0030122274
0.019722141 0.074300684 0.0082261628 0.26457596 0.63209248 0.72832596 0.0032984682
0.022527717 0.07365606 0.0075829504 0.31297085 0.56398094 0.76418245 0.0029350987
0.025032125 0.073239066 0.0067812931 0.3567701 0.51348025 0.78041863 0.0031672942
0.027512204 0.072177351 0.0062058009 0.41822267 0.38060391 0.82476091 0.0041775783
-0.0012245036 0.075318933 0.0073997704 -0.24343216 0.96852756 0.051914085 0.003912156
0.0015172085 0.076019503 0.0074336198 -0.18719083 0.97571528 0.11375121 0.0028425325
0.0044349409 0.076424941 0.0074409698 -0.10716233 0.97367597 0.20117494 0.0044979537
0.0074442755 0.076606229 0.0074543236 -0.033133633 0.95632166 0.29043248 0.0046233158
0.010457689 0.076625928 0.0073564481 0.034790087 0.92850608 0.36968377 0.0045828009
0.013506921 0.076505974 0.0071968301 0.066916421 0.89509815 0.4408192 0.0031695385
0.016191041 0.07607758 0.0073150098 0.11162132 0.86448699 0.49010503 0.002551842
0.019207524 0.075890526 0.0066845068 0.13256133 0.83761084 0.52993917 0.0025192709
0.022069754 0.075402513 0.0062446999 0.25187695 0.69118464 0.67736387 0.0025501794
-0.051821068 -0.052244067 0.010207428 -0.98728317 -0.034331653 -0.15522 0.0029904426
-0.051882435 -0.049643572 0.010389001 -0.98621523 -0.037507482 -0.16116081 0.0031125492
-0.051722474 -0.046330471 0.010715812 -0.98096514 0.136025 -0.13858105 0.0088806842
0.02054129 -0.04518332 0.010583734 0.53408432 0.70329148 0.4691855 0.0011344695
0.022486847 -0.045892723 0.0093267374 0.53808415 0.67881113 0.49968091 0.0036565135
0.024188563 -0.047864281 0.0092392629 0.54565144 0.56979895 0.61448652 0.0016689346
-0.051319916 -0.043536309 0.010409642 -0.95702779 0.26644516 -0.11447618 0.010305052
0.017703945 -0.042710215 0.010596419 0.52159345 0.73489267 0.43344328 0.0015400479
0.019076029 -0.04342483 0.010001314 0.53158557 0.72639418 0.43562406 0.0018925352
0.021044696 -0.044190828 0.0090624867 0.52936643 0.71762377 0.45253444 0.0014406524
-0.051026177 -0.04178771 0.010688473 -0.89228433 0.39628345 -0.21630563 0.011335632
-0.04986807 -0.039833885 0.01006003 -0.73243326 0.6518805 -0.19645202 0.019094486
0.013665467 -0.039899983 0.010471529 0.56019789 0.77528268 0.29174504 0.0067884428
0.016217882 -0.04130533 0.010022349 0.49930558 0.78077197 0.37561837 0.0015198106
-0.048708923 -0.038455337 0.010852823 -0.50194263 0.84223247 -0.19671823 0.016462013
-0.046483442 -0.037862375 0.010466182 -0.30251044 0.93753541 -0.17179877 0.0072037401
-0.044005536 -0.03743986 0.010281473 -0.68955696 0.67529273 -0.26170769 0.04390052
0.008133268 -0.036499675 0.0097805448 0.56120634 0.68642449 -0.46245959 0.060538933
0.01078989 -0.037514124 0.010404429 0.69370252 0.71386695 0.095764257 0.040812504
0.012399161 -0.038870517 0.0095346691 0.58056349 0.79491013 0.17624983 0.013860488
-0.043487579 -0.034401175 0.010554178 -0.90648484 0.23141244 -0.35317636 0.034933046
0.008093073 -0.034648068 0.010102217 0.666013 0.030066449 -0.74533397 0.05480095
0.0098973764 -0.034819935 0.010363897 0.75292671 0.17492773 -0.63443023 0.11521704
-0.043516167 -0.03149268 0.010623146 -0.93369579 -0.00065346889 -0.35806662 0
0.0079101687 -0.03112722 0.0097553385 0.42457777 -0.15792654 -0.89151162 0.042861465
0.010385945 -0.031522665 0.0098520899 0.28803626 -0.17673726 -0.94116902 0.021946387
0.012798456 -0.03151565 0.010985028 0.47168449 -0.20020071 -0.8587395 0.016178161
-0.043365441 -0.028742107 0.010225683 -0.93369722 -0.00061684742 -0.35806298 0
0.007989605 -0.028291631 0.009461645 0.13485914 -0.10669311 -0.98510391 0.024933875
0.010298121 -0.028872699 0.0094520561 0.23518628 -0.1911283 -0.95297295 0.019093717
0.013164693 -0.028273113 0.010298488 0.51906824 -0.15812972 -0.83997804 0.0064111534
0.01504227 -0.027162286 0.011683794 0.63069242 -0.065115325 -0.7732963 0.0087021086
-0.043479223 -0.026249532 0.010569332 -0.87750995 -0.11792993 -0.46483219 0.0044325986
0.0079523828 -0.025301203 0.0092775328 0.12217693 -0.010297649 -0.99245495 0.021626437
0.010956362 -0.025668701 0.0092924591 0.20627619 -0.10715896 -0.97260839 0.017210884
0.013707018 -0.02532113 0.010316864 0.57466245 -0.068261594 -0.81553876 0.0070975758
-0.045076005 -0.021880809 0.011321479 -0.94623613 -0.099113762 -0.30791819 0.008245144
-0.044484992 -0.022246294 0.0097816214 -0.89464962 -0.18505949 -0.40663865 0.011153933
0.007989021 -0.022489356 0.0093069272 0.2277821 0.038409755 -0.97295427 0.042995177
0.011557714 -0.022174632 0.0091682533 0.31800991 0.055829782 -0.94644219 0.017295055
0.01368963 -0.022504602 0.010367729 0.5766378 0.042917237 -0.81587189 0.0095203975
0.015498327 -0.023315499 0.011985317 0.70949441 0.10231055 -0.69724476 0.0053481404
-0.045197703 -0.019807519 0.011585976 -0.99590212 -0.035272252 -0.083275609 0.0070189442
-0.04465425 -0.019625824 0.010219595 -0.9389528 -0.025902722 -0.3430694 0.0066300221
0.0080408454 -0.019459147 0.009519171 0.35131294 0.12505279 -0.92786908 0.043999232
0.010807021 -0.019224798 0.0095107406 0.17651871 0.22330303 -0.95863283 0.017570414
0.013473647 -0.019534599 0.010712077 0.63276678 0.20817994 -0.74583328 0.0099346591
-0.045245543 -0.016072946 0.011755368 -0.97436225 0.00097673002 -0.22498271 0.0041463226
-0.044673961 -0.01650608 0.01026536 -0.94809961 -0.021327384 -0.31725734 0.0046433699
0.0082076425 -0.016484998 0.010077023 0.49308756 0.14668675 -0.85752416 0.027272455
0.010505273 -0.016406391 0.010130471 0.32474613 0.2685602 -0.90687126 0.014768965
0.012802113 -0.0166633 0.011152497 0.6315695 0.32731473 -0.70284069 0.012330802
-0.045159087 -0.013507372 0.011525632 -0.970236 0.0091798296 -0.24198715 0.0049226843
-0.044521376 -0.013602038 0.0098623922 -0.94755429 -0.014081482 -0.31928444 0.0048121735
0.0081375968 -0.013573366 0.010385003 0.64543855 0.1254483 -0.75344008 0.022946317
0.010518467 -0.014014027 0.011254365 0.47508138 0.36644483 -0.80000997 0.041604035
0.012261728 -0.014729291 0.011725309 0.56571972 0.49240655 -0.66143554 0.00914972
-0.045155328 -0.010332791 0.011458267 -0.99475676 0.016171711 -0.10098252 0.0084406966
-0.044565793 -0.010665448 0.009973228 -0.93755352 -0.0048879217 -0.34780657 0.00060486316
0.0080612833 -0.010773618 0.010300132 0.72494578 0.029314743 -0.68818194 0.01211265
0.0098033259 -0.010147418 0.011653856 0.73460972 0.032983355 -0.67768782 0.012400857
-0.045192011 -0.0068037254 0.011600024 -0.97794038 -0.0028135397 -0.20886526 0.0034188591
-0.044656448 -0.0074162008 0.010204014 -0.95716459 -0.01603313 -0.28910008 0.0043503013
0.0079724127 -0.0075252117 0.010188551 0.7239182 -0.0071676839 -0.6898486 0.0021334037
0.009716507 -0.0073166043 0.011514165 0.75530219 -0.018916594 -0.65510362 0.0045521613
-0.045171231 -0.004104529 0.01154083 -0.97521985 -0.0045018033 -0.22119208 0.0035934465
-0.044536144 -0.0045594173 0.0098851398 -0.95705944 -0.017436875 -0.28936675 0.0043908842
0.0078844614 -0.0043105409 0.010077947 0.7272656 -0.02071755 -0.68604344 0.0067599644
0.0096310666 -0.0045235092 0.011384677 0.74188024 -0.010563879 -0.6704492 0.0088792723
-0.045218013 -0.0013864648 0.01160528 -0.99215251 0.0035925941 -0.12498222 0.010651861
-0.044595227 -0.0015480591 0.010034014 -0.95406383 -0.010015199 -0.29943609 0.0045943367
0.0080201169 -0.0015023242 0.010254259 0.69925308 -0.031300489 -0.71418864 0.0098400759
0.009880757 -0.0016815534 0.011115545 0.75396591 -0.018347438 -0.65665734 0.017971499
-0.045243561 0.0019024194 0.01172002 -0.97051811 0.0036119067 -0.24100128 0.0062257191
-0.044615261 0.0013708582 0.010081526 -0.95037341 -0.00068297941 -0.31111073 0.0043980014
0.0080142505 0.0015701775 0.010244703 0.7013005 -0.0084943259 -0.71281517 0.017476829
0.01014298 0.0018381103 0.01113336 0.78085572 0.037866149 -0.62356281 0.034691148
-0.045140009 0.004487115 0.011444945 -0.9681586 -0.028320653 -0.24873051 0.0046395534
-0.04452676 0.0045405971 0.0098449541 -0.95134419 -0.0071562263 -0.30804718 0.0042736134
0.0079273535 0.0046884795 0.010134771 0.77476948 0.088184163 -0.62606382 0.028429212
0.010245745 0.0045227753 0.011293222 0.79623407 0.013140717 -0.60484594 0.040302869
-0.04523937 0.0076094232 0.011643745 -0.99040371 -0.0054834089 -0.13809609 0.012758105
-0.044703826 0.0075205946 0.010301683 -0.95551145 0.0044178683 -0.29492095 0.0047573699
0.0081407623 0.0073426208 0.01040596 0.71840787 0.020406686 -0.69532275 0.016813019
0.010102874 0.0081118234 0.01158935 0.92613184 -0.072133444 -0.3702386 0.05389826
-0.045265481 0.011155809 0.011761028 -0.97889012 -0.015584048 -0.20379208 0.0080887601
-0.044667348 0.010238627 0.010202063 -0.95900333 -0.033965301 -0.28135204 0.0075060101
0.0080540795 0.010398407 0.010296813 0.68820077 -0.0017849804 -0.72551817 0.0029488462
0.0097453455 0.010650857 0.011562708 0.69889897 -0.072568178 -0.71152943 0.0098104319
-0.045151912 0.013354221 0.011460908 -0.95885915 0.010001112 -0.28370619 0.0076626921
-0.044494238 0.013443765 0.009798646 -0.92665368 0.011037389 -0.37575409 0.00033932706
0.0079682367 0.013423898 0.010188135 0.64677358 -0.1079645 -0.75500178 0.017820392
0.0097509511 0.013344604 0.01137605 0.56585157 -0.21544422 -0.79586166 0.024445061
-0.044595435 0.016440878 0.010058262 -0.91336977 0.025667777 -0.40632111 0.00074742455
0.0080039194 0.016524808 0.0099528776 0.53464055 -0.14360368 -0.832789 0.026553763
0.010579169 0.016522612 0.010152515 0.31905332 -0.25580877 -0.91256064 0.015807629
0.012542555 0.017313067 0.010749825 0.17925037 -0.2555773 -0.95002609 0.0080792159
-0.045276638 0.020185705 0.011831288 -0.96796805 0.10384561 -0.22859134 0.014868598
-0.044657156 0.019923786 0.01021365 -0.9321785 0.090636909 -0.35046867 0.01380577
0.0080550844 0.019633867 0.0095536495 0.23943402 -0.1102214 -0.96463597 0.028729662
0.01061114 0.019339245 0.0095150014 0.18520322 -0.2427222 -0.95225298 0.010381843
0.012804211 0.019258562 0.010361445 0.18520322 -0.2427222 -0.95225298 0.010381843
-0.045121852 0.022232149 0.011422862 -0.94146502 0.21628046 -0.25858533 0.014785863
-0.044007823 0.023230037 0.010125594 -0.94594425 0.20306559 -0.25289127 0.013089606
0.0079088546 0.022399273 0.0093001146 0.3270036 0.014947363 -0.94490486 0.051065177
0.010308927 0.021591637 0.0094203837 0.13109578 -0.12309273 -0.98369819 0.02404323
0.012079844 0.021555716 0.0094536049 0.11659811 -0.21293424 -0.97008449 0.017616097
-0.043381661 0.025103422 0.010231944 -0.93350685 0.14442225 -0.32818776 0.0078367507
0.0070988182 0.02437095 0.0090661887 0.40902725 -0.07291574 -0.90960431 0.033655632
-0.043078352 0.02713662 0.0094377985 -0.92259502 0.078125089 -0.37777635 0.002772419
-0.049934864 0.059552141 0.010187637 -0.53858781 0.83288932 -0.12735215 0.0064472063
-0.048632354 0.061004054 0.010844633 -0.56451869 0.8069278 -0.17374167 0.0056041079
-0.046454962 0.062028721 0.010500214 -0.39597917 0.88982207 -0.22675346 0.0053500757
-0.044021845 0.062657535 0.0099559622 -0.30281001 0.91897619 -0.25256482 0.00055395963
0.02310475 0.061385799 0.011144273 0.47357237 0.13203524 0.87080187 5.4580763e-05
0.025142632 0.062494703 0.0098203542 0.47957313 0.14715983 0.86507434 4.5490015e-05
-0.042983361 0.063348696 0.011045523 -0.30760792 0.91610998 -0.25713781 0.00055537495
-0.04051799 0.064000219 0.010508874 -0.29762086 0.91160798 -0.28353634 0.00049207639
-0.037528448 0.064952165 0.010475347 -0.27645066 0.91459495 -0.29511207 0.00044305873
-0.034768671 0.065606326 0.010113386 -0.2615425 0.91440707 -0.30895838 0.00033495337
-0.032615088 0.065944895 0.0093975822 -0.24258594 0.91925907 -0.31002396 0.00073232263
0.020962104 0.064613737 0.011747962 0.46127105 0.16964108 0.87089092 7.0850387e-05
0.022300396 0.06551902 0.010871504 0.46813312 0.16801092 0.86753893 8.3425395e-05
0.026368689 0.063043281 0.0090298988 0.48468179 0.15664203 0.86055034 6.5342601e-06
-0.033870868 0.066239595 0.011241146 -0.25429508 0.92407197 -0.28535068 0.00048830692
-0.031401075 0.066678509 0.010548135 -0.24500197 0.92505074 -0.29026726 0.00063088734
-0.028445072 0.067509934 0.010489753 -0.24873684 0.92834622 -0.27623048 0.0015720925
-0.025478479 0.068365127 0.010396035 -0.29084912 0.92433679 -0.24699861 0.002668259
-0.023233958 0.068800651 0.0095987953 -0.30085406 0.9269191 -0.22429392 0.0053382907
0.020294484 0.067610107 0.011454272 0.45228699 0.22768807 0.86231935 0.00057863817
0.022350583 0.068015471 0.010270452 0.44893977 0.2444784 0.85946691 0.00032112721
0.024524212 0.066553354 0.0094385566 0.47984701 0.19468999 0.85547805 0.0004221967
-0.024137601 0.069082767 0.011454687 -0.2584689 0.94799095 -0.18576053 0.0056844838
-0.022221878 0.069431975 0.010680741 -0.23623417 0.95729905 -0.16664927 0.0070007099
-0.019382479 0.070229471 0.010451229 -0.23831977 0.96189898 -0.1339929 0.0099572111
-0.016378716 0.071120739 0.010434514 -0.27996856 0.95925301 -0.038097367 0.009925371
-0.014020704 0.071761273 0.010540601 -0.30590883 0.9518919 0.017931325 0.010512972
0.017055724 0.071290642 0.011620535 0.33899063 0.49893123 0.79759204 0.0030543811
0.019453218 0.070749804 0.010789498 0.41140613 0.35911793 0.83772272 0.0014333916
0.022279102 0.070474833 0.0095310081 0.4186292 0.34298185 0.84090012 0.0031385773
-0.012571448 0.072185919 0.010215092 -0.23830284 0.971183 0.0039261784 0.011139525
-0.010392122 0.072710693 0.010358788 -0.21600665 0.97258157 0.086175375 0.014274024
-0.0073809754 0.073403105 0.010449671 -0.2292344 0.9500916 0.21160705 0.0072067007
-0.0044034366 0.074088968 0.01040763 -0.23110722 0.94391394 0.23583062 0.00421861
-0.0016525798 0.074607238 0.010694671 -0.19867592 0.93286926 0.30047086 0.0037114003
0.0008590502 0.074805066 0.011533054 -0.13910758 0.92987084 0.34057197 0.0033726788
0.0055441014 0.07491567 0.0119256 0.022494934 0.84296209 0.53750253 0.0030701132
0.0081014801 0.07475017 0.011616896 0.10851616 0.88451642 0.45371249 0.0023712011
0.010889901 0.074499063 0.011167245 0.13072439 0.85477716 0.50226194 0.0021410936
0.013420405 0.074450299 0.010370811 0.1624568 0.81337142 0.55860072 0.0023317379
0.016397405 0.073509142 0.010212602 0.26278001 0.6491614 0.71381807 0.0031187865
0.019192336 0.072945453 0.0095825493 0.33082977 0.57278001 0.74998319 0.0029124632
0.021012008 0.072520636 0.0091177318 0.32509702 0.56630439 0.75737131 0.0031172875
-0.0007486128 0.075158037 0.0095123192 -0.23326707 0.94025683 0.24799891 0.0031050961
0.0016434803 0.075470835 0.010152263 -0.13746835 0.94379139 0.30059993 0.0032942872
0.0045129219 0.075697102 0.010270821 -0.0339293 0.94148016 0.33535644 0.0030985978
0.0073457835 0.075598314 0.010216946 0.06511841 0.91470063 0.39885125 0.0036280879
0.010015829 0.075443402 0.0099677835 0.096662141 0.87355417 0.47703201 0.0024100747
0.01279035 0.075377591 0.0093474593 0.12189794 0.84886444 0.51436371 0.0020978963
-0.050873619 -0.058428694 0.012220254 -0.98358077 -0.1318589 -0.12321586 0.0038136884
-0.05212066 -0.055125948 0.012705799 -0.9835878 -0.13176471 -0.12326036 0.0038740674
-0.0523468 -0.051884547 0.012733641 -0.98952973 -0.064991772 -0.12886834 0.0019560275
-0.052686766 -0.049136892 0.013020279 -0.988913 0.12694415 -0.077047907 0.0059039462
-0.052525416 -0.046540871 0.013008583 -0.96698749 0.18453221 -0.17573595 0.0081014549
-0.052149676 -0.043611355 0.013232833 -0.95411468 0.23052485 -0.19111085 0.0080464538
-0.050944533 -0.042919558 0.012022262 -0.94999671 0.233522 -0.20730105 0.011009024
0.015848026 -0.042729523 0.012525304 0.56359804 0.72615355 0.39377442 0.0017930053
-0.051518641 -0.04073476 0.013334619 -0.87613046 0.45895115 -0.14751022 0.035028629
-0.050655693 -0.039976612 0.012395481 -0.85528916 0.46233377 -0.23393996 0.030247085
0.011628563 -0.039460156 0.01381845 0.63874984 0.69809222 0.32352129 0.028306132
0.013272515 -0.040964685 0.01307391 0.59001201 0.71734732 0.37053835 0.0074627502
-0.051070504 -0.038743582 0.014258794 -0.71968728 0.68263423 -0.12673061 0.047242068
-0.049535997 -0.038520232 0.013526896 -0.54222029 0.83795881 -0.061824281 0.026631467
-0.046624556 -0.037372842 0.0134975 -0.55301422 0.79290062 -0.25589812 0.053950623
-0.044668771 -0.037254725 0.012901297 -0.63895911 0.72637653 -0.25319645 0.060900714
0.010315517 -0.037126549 0.012367114 0.72226793 0.68667811 0.08247605 0.037739862
-0.045033976 -0.034484394 0.014533217 -0.93501133 0.1701643 -0.31112376 0.019900817
-0.044512115 -0.034584556 0.013225788 -0.91154295 0.1663274 -0.37606463 0.01753062
-0.045140207 -0.03019586 0.014855869 -0.94965649 -0.00318772 -0.31327689 0.00038344259
-0.044497095 -0.031585142 0.013181911 -0.93545741 -0.0015305505 -0.35343626 4.9040627e-05
-0.045140766 -0.028045593 0.014798654 -0.94265646 -0.0062633734 -0.3337059 0.00031128712
-0.044473752 -0.028867554 0.01311526 -0.93746585 -0.0030347006 -0.34806418 0.00013642231
0.015420945 -0.028468382 0.012734849 0.57376164 -0.050962813 -0.81743526 0.010381229
-0.045102682 -0.025809716 0.014695256 -0.91822642 -0.033481918 -0.39463815 0.0027588902
-0.044676889 -0.025797276 0.013587252 -0.9583841 -0.080064729 -0.27402493 0.0087717185
0.015889926 -0.025183951 0.012745754 0.65620834 0.047657646 -0.75307333 0.013792765
-0.045046248 -0.022495959 0.014542 -0.95067543 -0.079992577 -0.29969558 0.014291059
-0.044762403 -0.022364326 0.013802844 -0.98065233 -0.068117537 -0.1835241 0.016813027
0.015877942 -0.022088332 0.013008974 0.8586396 0.12731381 -0.49651706 0.013358022
-0.045418311 -0.019628275 0.013048716 -0.96469891 -0.00091106561 -0.26335362 0.011144564
-0.044786245 -0.019578354 0.013860106 -0.9847703 -0.0066874679 -0.17373201 0.020881277
0.014747123 -0.018637704 0.012319978 0.83123064 0.26790237 -0.48711801 0.0092003737
0.015537549 -0.019452684 0.013669228 0.86680645 0.29441804 -0.4024483 0.016146062
-0.045313902 -0.017251728 0.013051478 -0.96543407 0.0095855519 -0.26047117 0.0096060764
-0.044845346 -0.016886868 0.014011558 -0.98017776 0.016070098 -0.19746721 0.019119924
0.014153329 -0.01633572 0.013335912 0.85392094 0.42793334 -0.29612854 0.011838444
-0.045308631 -0.01361148 0.013538046 -0.98031199 0.0016070255 -0.19744831 0.019496927
-0.0447913 -0.013693116 0.013865861 -0.98030519 0.0016064837 -0.19748208 0.019523121
0.010688135 -0.012738983 0.013059597 0.73574531 0.56952929 -0.36649057 0.063127548
0.012789547 -0.013990217 0.013595908 0.70821452 0.63547319 -0.30758092 0.013922233
-0.045448814 -0.010671773 0.012835159 -0.96538454 0.016908456 -0.26028231 0.0089932624
-0.04473801 -0.010536036 0.013721742 -0.98070508 0.033658791 -0.19257388 0.0177476
0.010624221 -0.01175217 0.013579531 0.77256501 0.58576745 -0.24498934 0.026213896
-0.045305826 -0.0080537014 0.013015548 -0.95358002 0.027522653 -0.2998794 0.0092818132
-0.04479067 -0.0075983801 0.013853726 -0.97772169 0.032669567 -0.20734775 0.018596986
0.010876203 -0.0062472974 0.013241186 0.77567405 -0.027780293 -0.63052207 0.006874098
-0.045222167 -0.004679454 0.013855583 -0.97706234 0.002917246 -0.21293367 0.020848818
-0.044842996 -0.0046934225 0.013984898 -0.97706234 0.002917246 -0.21293367 0.020848818
0.010434483 -0.0043918872 0.013155386 0.75786424 0.032630045 -0.65159589 0.0096777873
-0.045412876 -0.0010589231 0.013004553 -0.95590079 0.00030202363 -0.29368964 0.013601157
-0.044790566 -0.0016565921 0.013842778 -0.96471661 0.0025239007 -0.26327851 0.027007451
0.010149078 -0.0016710167 0.012685233 0.76080972 -0.012833354 -0.64884812 0.016579138
-0.045496743 0.0013334767 0.013104556 -0.93543535 -0.0047369399 -0.35346615 0.013982986
-0.044738729 0.0013456716 0.013702273 -0.96132517 0.0007911477 -0.27541485 0.028032087
0.009983412 0.0014357084 0.013042101 0.82466084 0.061609615 -0.56226218 0.03098499
-0.045676153 0.0043227328 0.013911609 -0.96065271 -0.0043429607 -0.27771854 0.029322755
-0.044790089 0.0041401433 0.013831126 -0.96039742 0.025375588 -0.27747595 0.028292809
0.0097475266 0.0044795102 0.013693711 0.93523318 0.06152017 -0.34864631 0.047841489
-0.045532361 0.0073260753 0.0133022 -0.94607216 -0.014212186 -0.32364395 0.011968852
-0.044824056 0.0078704199 0.013912905 -0.96406031 -0.031732451 -0.26378176 0.02555293
0.009468453 0.0069915066 0.012777276 0.92613095 -0.072136082 -0.37024036 0.053899057
-0.045605719 0.010315117 0.012993263 -0.95834732 0.0021592183 -0.28559709 0.014473892
-0.04477299 0.010752222 0.013774842 -0.97400033 0.013279205 -0.22615719 0.030245958
0.010879392 0.011003539 0.012742603 0.84069306 -0.13503905 -0.52440405 0.0451959
-0.045946218 0.013296392 0.014540685 -0.9382621 0.035222031 -0.3441273 0.016627721
-0.044761758 0.013227795 0.013740922 -0.92767066 0.077011637 -0.36537161 0.032974288
-0.045591004 0.016319407 0.013161117 -0.92880511 0.015629657 -0.37023881 0.014189603
-0.044973403 0.015935304 0.014286662 -0.90897816 -0.075574793 -0.40993562 0.015174448
-0.045935586 0.01975242 0.013523937 -0.96976411 0.0076188324 -0.24392524 0.015122994
-0.044814799 0.020691877 0.01397769 -0.96195906 0.15650329 -0.22392297 0.013490422
-0.044701863 0.022211913 0.013680449 -0.94978988 0.22595537 -0.21643335 0.011699716
-0.052419581 0.052849956 0.012664443 -0.93421513 0.33090237 -0.13321307 0.016229449
-0.05200683 0.055701926 0.012899786 -0.91012847 0.36724588 -0.19182466 0.024996681
-0.051466033 0.058979347 0.013103242 -0.68338132 0.7232362 -0.09959542 0.026558094
-0.050591663 0.059452727 0.012499241 -0.68349117 0.7231304 -0.099610843 0.026526995
0.020158837 0.057921994 0.013153542 0.46570814 0.12846686 0.87556398 2.4291296e-05
0.021535518 0.059676293 0.012207634 0.46820235 0.13205425 0.87369806 3.5870893e-05
-0.051146187 0.060327198 0.01445335 -0.57736677 0.81488413 -0.051102508 0.024395162
-0.049602218 0.060733803 0.013548654 -0.56569099 0.81550777 -0.12223263 0.013750466
-0.046693992 0.062529013 0.013417201 -0.43681103 0.89611214 -0.078607678 0.0041752541
0.016950252 0.061340224 0.014403239 0.46065778 0.14019828 0.87643534 8.8526089e-05
0.018436566 0.062661305 0.013414092 0.46035635 0.15139002 0.87473035 7.2850227e-05
-0.045209933 0.063097194 0.013542987 -0.33772925 0.93926257 -0.061031241 0.0065678852
-0.043440625 0.063734062 0.013524167 -0.32147291 0.94137836 -0.10228395 0.00438654
-0.040531721 0.064760223 0.013381573 -0.33658898 0.93386936 -0.12081379 0.0025933404
-0.037833888 0.065670162 0.013269931 -0.31129146 0.93710762 -0.15788259 0.0031770454
0.014959198 0.064292111 0.01492603 0.44872263 0.17522459 0.87632436 0.00021828015
0.016588069 0.065342933 0.013864243 0.45206934 0.18883608 0.87176502 0.00015326864
0.019857008 0.063794442 0.012475262 0.46047652 0.1562148 0.87381828 0.00013193738
-0.036594428 0.066175267 0.013989854 -0.27074713 0.95404714 -0.12841378 0.0033647045
-0.034478039 0.066661432 0.013473858 -0.23284692 0.96039271 -0.15306263 0.0020354879
-0.031449132 0.067409143 0.013452762 -0.23769657 0.95974821 -0.14961185 0.0024660558
-0.028450996 0.068122298 0.013449598 -0.24064478 0.9656772 -0.097763263 0.0020361585
-0.025805574 0.068735451 0.013575707 -0.22363564 0.97430265 -0.026857849 0.0027278685
0.013951833 0.067812428 0.014594004 0.42478746 0.27469724 0.86261064 0.0013588134
0.016587241 0.068301976 0.013161428 0.41319156 0.29843849 0.86035299 0.0010992738
0.018713729 0.066639401 0.012482268 0.44675648 0.19249144 0.87370229 9.4703777e-05
-0.02433065 0.069067091 0.01318517 -0.21712333 0.97589779 -0.021933006 0.0034261004
-0.02245979 0.069435284 0.013510444 -0.15002346 0.98768616 0.044374563 0.0037788937
-0.019503713 0.070007518 0.013400077 -0.14915602 0.97092181 0.18725194 0.0065837204
-0.016448211 0.070473433 0.013476321 -0.14727199 0.9394021 0.3095718 0.0071590124
-0.013566021 0.071087867 0.013288219 -0.19089507 0.89925629 0.39356983 0.0059739947
-0.010637803 0.071343087 0.013819124 -0.210531 0.87457079 0.43680969 0.0047726789
-0.0076812571 0.071629897 0.014357851 -0.17618883 0.86596644 0.46803811 0.0034254519
-0.0057338742 0.071629032 0.014971817 -0.15735728 0.73944402 0.65456957 0.0015351695
0.010746533 0.071119413 0.014471376 0.32369745 0.51584399 0.79317403 0.0051280065
0.013507697 0.070744917 0.013500039 0.35015735 0.44970366 0.82167912 0.0029256989
0.015967313 0.070414551 0.012580575 0.33643258 0.48893949 0.80483001 0.0032119455
0.018335463 0.069082484 0.012040839 0.42300978 0.32437006 0.84607732 0.00216964
-0.010097696 0.072229035 0.012455911 -0.23182148 0.90041929 0.36810851 0.007395356
-0.0073127644 0.072593652 0.012894805 -0.21253578 0.90069109 0.37892506 0.006259094
-0.0043743844 0.072939306 0.013327663 -0.17658712 0.88695723 0.42675987 0.0021153397
-0.0013112326 0.073502958 0.013324277 -0.16047366 0.88002622 0.44699231 0.0027536624
0.0015704064 0.073961772 0.013281196 -0.086742818 0.87634856 0.4738026 0.0035671864
0.004563136 0.074406847 0.012876006 0.0073680379 0.87908143 0.47661471 0.0030071144
0.0073894756 0.073820129 0.01312699 0.11846317 0.83660293 0.53484774 0.0025920849
0.010255539 0.073045701 0.013023728 0.23917472 0.68303859 0.6901114 0.0034635335
0.013093416 0.072554022 0.012413213 0.29705101 0.6393615 0.70920908 0.0021038079
0.0043345634 0.075027488 0.01204271 -0.0036332414 0.92135876 0.38869643 0.0039751912
-0.052691065 -0.052516062 0.015438804 -0.99899203 -0.044062659 -0.0085700667 0.0081948135
-0.052624967 -0.049826272 0.016744308 -0.99891865 0.019674314 0.042124223 0.0079891495
-0.052502777 -0.046505984 0.016749304 -0.98338193 0.09666273 0.15367627 0.0027215222
-0.05208737 -0.043589614 0.016660705 -0.95991915 0.1950714 0.20125218 0.0083059687
-0.051448785 -0.040673412 0.016160285 -0.79806131 0.56728363 0.20319334 0.025183799
-0.049756538 -0.039411381 0.017277708 -0.52991414 0.80421603 0.26912376 0.017978687
0.012022072 -0.04117896 0.015166685 0.59000915 0.71734631 0.37054488 0.0074607241
-0.0511241 -0.038902823 0.015691007 -0.57928151 0.80363393 0.13640189 0.038169209
-0.049091749 -0.038524382 0.016194634 -0.45253786 0.87121302 0.19025607 0.01719315
-0.046646602 -0.037345544 0.01624601 -0.64645398 0.76274216 -0.017936047 0.049235575
-0.045479473 -0.034419388 0.015998736 -0.95596027 0.16481856 -0.24284746 0.020255767
-0.045372427 -0.031749193 0.015644938 -0.94172281 0.076194227 -0.32764703 0.0086201411
-0.045622006 -0.028831445 0.016615909 -0.95997864 -0.018357195 -0.27947101 0.00076966651
-0.045526598 -0.025755387 0.016074967 -0.89418149 -0.046636924 -0.44526902 0.003240586
-0.046600524 -0.022367883 0.016816808 -0.9222337 -0.07435099 -0.37941661 0.0021443556
-0.046678334 -0.019510387 0.016678039 -0.92652255 -0.016771574 -0.37586516 0.0025474273
0.015661886 -0.019033542 0.01595136 0.94321859 0.30946538 -0.12070598 0.019643927
-0.046698399 -0.016602475 0.016665619 -0.92942661 -0.019289121 -0.36850241 0.0020501758
0.014399517 -0.016185647 0.016498119 0.89220649 0.45161152 0.0038398674 0.0045589176
-0.046645336 -0.013476113 0.016675698 -0.93263584 0.0046510226 -0.36078912 0.0017109644
0.01085012 -0.012241808 0.016088264 0.83837479 0.53984398 -0.075473517 0.030746002
0.012816464 -0.013675595 0.016458238 0.74816674 0.66153157 0.051210668 0.013084195
-0.046645708 -0.01048856 0.016570667 -0.92817342 0.0082803145 -0.37205583 0.0034405054
0.011130844 -0.011678305 0.016371965 0.74700695 0.66246969 0.055807818 0.012052477
-0.046689332 -0.0074867923 0.016750813 -0.92896891 0.0018712573 -0.37015289 0.0016141975
-0.046733491 -0.004609379 0.016669746 -0.92679417 -0.012463186 -0.37536272 0.0024665468
-0.046995893 -0.0017081809 0.01680962 -0.93360436 -0.02049033 -0.35771921 0.0037854242
-0.046852887 0.001502346 0.016548552 -0.93234169 -0.0037016131 -0.36155942 0.0054378561
-0.046949238 0.0046137134 0.016511114 -0.92603791 0.02941318 -0.37628254 0.0044913567
-0.046830676 0.0075569972 0.01653957 -0.93913305 -0.0011270919 -0.34355187 0.0039299233
0.0099526914 0.0077240234 0.016079703 0.92613286 -0.072134256 -0.37023583 0.053898517
-0.046741322 0.010628354 0.016381685 0.25597796 0.00013383347 -0.96668255 0.019293007
-0.046954237 0.013482984 0.016592788 0.25898752 0.12411921 -0.95787257 0.019772559
-0.046836041 0.016355723 0.016452895 -0.93905413 0.011377135 -0.34358096 0.0079960302
-0.046759363 0.019357892 0.01646108 -0.97242743 0.027199458 -0.23161383 0.012208483
-0.046582669 0.021586739 0.015945397 -0.98104042 0.025349332 -0.19213854 0.018137574
0.01233092 0.056323934 0.017522795 0.44893968 0.12818293 0.88432026 8.2144921e-05
-0.051228482 0.059909154 0.016490793 -0.55513287 0.79649407 0.23963475 0.015969491
-0.050110385 0.059811488 0.016912539 -0.57933593 0.79786509 0.16667715 0.022781406
0.013763614 0.058095872 0.016544478 0.45451951 0.12854891 0.88141203 7.6961362e-05
0.015156728 0.059764851 0.015595883 0.45509925 0.13810083 0.87966633 5.62036e-05
-0.051112622 0.060166061 0.015498285 -0.57720107 0.80866146 0.1136026 0.026522782
-0.049249068 0.060845301 0.016049333 -0.53277218 0.82784736 0.17556317 0.01696896
-0.04659481 0.062316157 0.016505988 -0.42593193 0.88250238 0.19942808 0.0030182661
-0.044765897 0.062801808 0.017565969 -0.37937039 0.89511436 0.23419724 0.0080443863
0.010873631 0.061084285 0.017616903 0.44278941 0.14513059 0.8848021 0.00014416293
0.012370488 0.062323287 0.016627926 0.44926569 0.14862852 0.88094831 6.7771885e-05
0.015754828 0.060284588 0.015198442 0.46312115 0.14145677 0.8749336 9.0433539e-05
-0.045305319 0.063056052 0.015423676 -0.39404115 0.90209591 0.17593884 0.0043521039
-0.04344324 0.063643679 0.016309559 -0.35497499 0.91981637 0.16712438 0.0042192126
-0.040437076 0.064823642 0.016447259 -0.3572827 0.92782062 0.10722862 0.0026299583
-0.038077764 0.065704368 0.016570684 -0.36374688 0.92701977 0.091228075 0.0030023237
0.010457793 0.064769015 0.01712784 0.42152312 0.20651309 0.88298959 0.00020316782
0.013414212 0.064105079 0.015752347 0.45406088 0.17563948 0.87348694 0.00020978748
-0.036676638 0.066215888 0.016155705 -0.29826188 0.95229053 0.06467355 0.0029174932
-0.034566686 0.066802584 0.016457299 -0.27208352 0.9592185 0.07661856 0.0019720211
-0.031547599 0.067512602 0.016518533 -0.23118234 0.97253072 0.027179077 0.00061371282
-0.028521519 0.068132408 0.016465649 -0.20313235 0.97861588 0.032375447 0.00033559301
-0.025517326 0.06868799 0.016531475 -0.16870049 0.98410726 0.055435438 0.00021389296
-0.023664236 0.068959385 0.016985906 -0.11128111 0.99093086 0.075316846 0.0010265374
-0.018511649 0.068948939 0.017401997 0.064271487 0.9802599 0.18697511 0.0016693962
-0.016451832 0.068771221 0.017419215 0.080861308 0.95189244 0.295571 0.0035798624
-0.013855737 0.068526179 0.017588804 0.044651419 0.90119612 0.43110526 0.0059527392
-0.010620416 0.068507329 0.017427184 -0.011275896 0.79718375 0.60363144 0.006033259
-0.0075519923 0.068705253 0.017547557 -0.060561597 0.70910573 0.70249659 0.0037346343
-0.0052094827 0.068737283 0.017821981 -0.080833003 0.63505757 0.76822382 0.0021787863
0.0055341222 0.068955973 0.017723935 0.15131058 0.51182353 0.84566063 0.0019869721
0.0077374964 0.067830212 0.017540196 0.32240042 0.35987514 0.8755272 0.0042631929
0.010119308 0.067948915 0.016436435 0.3799606 0.35720119 0.85325104 0.001456609
0.012690118 0.067345016 0.015341593 0.40938541 0.29740652 0.86252707 0.0022310391
-0.024170822 0.069017656 0.015008104 -0.1890901 0.97973472 0.066066727 0.00071290502
-0.022230215 0.069164097 0.016475528 -0.088418059 0.99156588 0.09475942 0.0024269954
-0.019635573 0.069235317 0.016315531 0.0082495874 0.98663789 0.16271949 0.0030639933
-0.016629795 0.069287956 0.015940074 0.00076883618 0.94276601 0.33345404 0.0047621671
-0.013442693 0.069315836 0.016093463 -0.016485775 0.88251311 0.46999878 0.0050815628
-0.011019181 0.069864184 0.015713681 -0.10505121 0.81963295 0.56317496 0.0026874323
-0.007502526 0.07012479 0.016167946 -0.1319484 0.75022757 0.64787984 0.0018211792
-0.0045020669 0.070575863 0.01631967 -0.13490337 0.69685483 0.70441067 0.0022721207
-0.001591327 0.070652895 0.016741669 -0.093672998 0.6743263 0.73246801 0.0024960085
0.0016427455 0.070786655 0.016871847 0.0051463279 0.64162284 0.76700312 0.0041896803
0.0045311861 0.070684887 0.016784804 0.12161738 0.54824227 0.82742959 0.0030763464
0.0075213877 0.070683964 0.016101366 0.27230561 0.55292881 0.78747666 0.0033745302
0.010162712 0.070018381 0.015444098 0.36084551 0.47507057 0.80255747 0.0027051098
-0.0011068799 0.072215155 0.015283194 -0.092964567 0.72488612 0.68256706 0.0024463753
0.0016784881 0.07231424 0.015479983 -0.041129831 0.71769226 0.69514477 0.0024509334
0.0045931437 0.072407536 0.015365394 0.075716458 0.6860227 0.72362965 0.0043028151
0.0065377112 0.072172239 0.015294464 0.21806681 0.64186162 0.73516023 0.002925725
-0.051742997 -0.049790017 0.019812487 -0.92822236 -0.030473037 0.37077579 0.014750566
-0.051780611 -0.046735078 0.019425547 -0.88957411 0.13164957 0.43740866 0.0070986627
-0.051363517 -0.043949448 0.019488255 -0.85543233 0.25368044 0.45153272 0.0095323175
-0.049926341 -0.042557236 0.020554351 -0.68914366 0.35046974 0.63423336 0.0034604606
-0.051157158 -0.041389063 0.018394643 -0.77025747 0.51335096 0.3783837 0.011512878
-0.049330637 -0.040321901 0.019412391 -0.63239622 0.68384147 0.36391738 0.021258665
-0.047533747 -0.039424267 0.020399678 -0.70832044 0.55858535 0.43158376 0.027033692
-0.048244432 -0.038427085 0.018983519 -0.61008108 0.73159641 0.3042495 0.023348253
-0.046848148 -0.037861362 0.01936879 -0.70823872 0.61677992 0.34348285 0.030833652
-0.045681633 -0.034872036 0.019399721 -0.94821084 0.27716127 0.15517053 0.044597737
-0.045805998 -0.032074876 0.018090652 -0.98190945 0.067955077 -0.17673686 0.012015289
-0.047621232 -0.024207884 0.019189879 -0.96085614 -0.15536159 -0.22938685 0.021898763
-0.04755687 -0.022450183 0.01951894 -0.99471509 -0.10258197 -0.0043469444 0.034678891
-0.047569625 -0.019293606 0.019423835 -0.99765933 0.043292627 -0.052930575 0.016295755
0.014948601 -0.018348182 0.018965429 0.89456183 0.4274027 0.13071395 0.0032450748
-0.047522128 -0.016528882 0.019618489 -0.99895865 0.0022164111 0.045571543 0.025504827
0.013830408 -0.016267207 0.019517262 0.80063581 0.56183153 0.20815322 0.0062095271
-0.04757148 -0.013385727 0.019474315 -0.99875057 -0.026235308 0.042533599 0.027256113
0.010960195 -0.013153085 0.019170625 0.73971069 0.6462962 0.18742825 0.0051514651
0.012666713 -0.014375214 0.019446118 0.73971272 0.64629269 0.18743248 0.0051507112
-0.047616474 -0.010672564 0.019051937 -0.99726593 0.050456371 -0.053989518 0.015392176
-0.047563471 -0.0076650954 0.019534674 -0.99751168 -0.017867858 0.068199918 0.025871338
-0.047583375 -0.0046605542 0.019436177 -0.997563 -0.015396209 0.068051487 0.018530475
-0.047600262 -0.0017067723 0.019340983 -0.99636537 -0.045237809 0.07217788 0.014219811
-0.047534101 0.0012210439 0.019707367 -0.99945891 0.027993996 0.017269989 0.0072276169
-0.047608249 0.0045930101 0.019262062 -0.99625659 0.011462601 -0.085682482 0.017545432
-0.04762762 0.0074457312 0.019167546 -0.99592263 0.0022509433 -0.090183809 0.020538138
-0.047587186 0.010416976 0.019446224 -0.99645972 -0.011766228 0.083244495 0.017301705
-0.047568284 0.013488839 0.019643232 -0.99585277 -0.0021714335 -0.090953402 0.022031097
-0.047610052 0.016551152 0.019239038 -0.999569 -0.017860113 0.023299353 0.0083498666
-0.047590654 0.019453276 0.019550171 -0.99830443 -0.04591345 -0.03578122 0.01215472
-0.047604918 0.02182211 0.01942087 -0.99830425 -0.045930497 -0.035764921 0.012185934
0.015560387 0.023519011 0.019337257 0.97735524 0.064993799 0.20137663 0.0019768169
0.015498187 0.026008086 0.019412711 0.97363222 0.12002683 0.19399466 0.0050718747
0.014804171 0.029208785 0.019929422 0.92273808 0.29656911 0.24617325 0.0041854032
0.015263715 0.028238248 0.01895535 0.95101756 0.24992315 0.18194546 0.00666219
0.014060323 0.031363998 0.019740636 0.90063828 0.39797351 0.17455049 0.005737463
0.011461775 0.035393268 0.020258553 0.76561725 0.60272634 0.22483592 0.0051594945
0.012670388 0.033871058 0.019960389 0.83056861 0.52744091 0.17877893 0.0044408604
0.010207574 0.036644198 0.020553719 0.67037773 0.72050792 0.17737576 0.0039022604
0.01134984 0.054590017 0.018218691 0.41665912 0.11192199 0.9021467 0.00069259922
-0.051104888 0.058465403 0.019329822 -0.56295687 0.68437427 0.46336973 0.0088559845
-0.04996207 0.05901457 0.018811148 -0.55293471 0.76524794 0.32963431 0.018022541
-0.047360457 0.059875194 0.020741167 -0.44656277 0.65287566 0.61182934 0.0026047667
0.0028906809 0.059580434 0.020903943 0.25342438 0.21394075 0.94340104 0.0011095369
0.0094832033 0.05950439 0.018556325 0.43846086 0.13596876 0.88840568 0.00016734558
-0.048355311 0.060587175 0.018968742 -0.47249603 0.7974264 0.37531146 0.0036838572
-0.046390288 0.061296545 0.019223675 -0.4353461 0.80796289 0.39707658 0.0033580801
-0.043805294 0.062316023 0.019613411 -0.39538613 0.84297442 0.36477935 0.0016922846
-0.041692764 0.062843733 0.020636439 -0.3985295 0.82256842 0.40565431 0.0011651997
-1.6108232e-06 0.06263677 0.020828797 0.17526031 0.31451952 0.93293154 0.002331367
0.00082779228 0.061679151 0.020932481 0.20232022 0.25878873 0.94450778 0.0015828548
0.0078539271 0.062188528 0.018863646 0.36634633 0.16457474 0.91580868 0.00097956997
-0.042765316 0.063294902 0.018610697 -0.38623551 0.86392593 0.32319355 0.0021888579
-0.040475644 0.064011693 0.019363107 -0.37336251 0.86912435 0.32438138 0.0019830614
-0.0374844 0.065238953 0.019578092 -0.38873908 0.88885134 0.24253911 0.0012502974
-0.035446443 0.065902568 0.020208742 -0.35342166 0.91185713 0.20882945 0.0019144956
-0.0095154373 0.065975875 0.020809405 0.29001388 0.77721864 0.5584113 0.0073801102
-0.0073554935 0.065514468 0.020649092 0.1963854 0.66809887 0.71768844 0.0089217713
-0.0045478251 0.065247491 0.020370562 0.098984405 0.54921627 0.82979739 0.005722417
-0.0014165523 0.064586066 0.020332899 0.1022494 0.39179334 0.91435391 0.003393112
0.0020902862 0.064050369 0.020054752 0.13328782 0.31468254 0.93979216 0.0028137506
0.0049854843 0.064504035 0.019389644 0.22162127 0.26084632 0.93959743 0.0019157713
0.007492736 0.064334877 0.018606247 0.3587175 0.23368612 0.90372151 0.0021865221
-0.036279462 0.066061974 0.018245783 -0.31173727 0.93864983 0.14750031 0.0018200853
-0.03416045 0.066526242 0.019379072 -0.29366836 0.94328839 0.15480946 0.0011338198
-0.031490259 0.067278072 0.019475747 -0.25541762 0.96087545 0.10714579 0.00069732644
-0.028521944 0.067951567 0.019497517 -0.19745399 0.97723812 0.077573359 0.00039781752
-0.025486648 0.068488061 0.019510914 -0.15428519 0.98502618 0.07693851 0.0001823099
-0.022608683 0.06885317 0.019626221 -0.045526061 0.99415445 0.09789943 0.0015237908
-0.019403894 0.068747461 0.019555096 0.082788132 0.9873085 0.13552882 0.0010466552
-0.016478842 0.068335123 0.019482043 0.13796684 0.9620536 0.23541026 0.0030851457
-0.013399847 0.067758858 0.019492496 0.17678651 0.91062325 0.37351286 0.0090372972
-0.010568609 0.067271978 0.019376013 0.20637782 0.83935523 0.50288272 0.007564594
-0.0075038099 0.067171253 0.01906025 0.037532851 0.70375258 0.70945311 0.0050894837
-0.0045229667 0.067327052 0.018950539 0.032558151 0.59070337 0.80623168 0.0041126385
-0.0016296267 0.067679182 0.01884231 -0.04732123 0.55044925 0.83352643 0.0022565813
0.001374385 0.067627147 0.018857127 0.058420274 0.43824568 0.89695477 0.0045762016
0.0043765195 0.067567691 0.018567527 0.17273372 0.35675895 0.91808832 0.0031317146
0.0064267246 0.06683138 0.018394776 0.31460372 0.35049087 0.88214552 0.0044585983
-0.022022303 0.069021851 0.01846952 -0.039220855 0.99571973 0.083690226 0.0017804911
-0.020208692 0.069002509 0.018391907 0.043774251 0.99168825 0.12098893 0.0023392139
0.001271939 0.069119453 0.018085254 0.011330755 0.58191663 0.8131696 0.0025099232
-0.048710246 -0.049483318 0.023147624 0.57480162 -0.012394646 -0.81819898 0.010828834
-0.050111044 -0.046359491 0.022027599 -0.79282629 0.14327608 0.59236693 0.0094806682
-0.049043681 -0.043724183 0.02199419 -0.68912572 0.35048437 0.63424486 0.0034631854
-0.047336899 -0.043156151 0.023612633 -0.70602226 0.47405681 0.52612048 0.023571566
-0.048332229 -0.040963352 0.021681257 -0.66633838 0.41995296 0.61614341 0.010007389
-0.046737961 -0.040367197 0.022850865 -0.7096737 0.50822204 0.48792782 0.0280261
-0.046443246 -0.037814368 0.022122562 -0.7284379 0.56645942 0.38535947 0.040585559
-0.044886202 -0.038845159 0.022637624 -0.67016047 0.45272285 0.58815563 0.012828323
-0.046727728 -0.024449103 0.022518693 -0.98194867 -0.1840989 0.043409452 0.025431465
-0.04677419 -0.022612775 0.022351293 -0.99689305 -0.040896028 0.067319088 0.02752199
-0.046699151 -0.019273859 0.022487715 -0.94197369 0.0063685575 0.33562642 0.0012491702
0.014176117 -0.01843641 0.022535155 0.83376694 0.5129987 0.20412032 0.001967415
-0.046688795 -0.015678771 0.022560045 -0.98593253 -0.02556872 0.16517666 0.017559655
0.012920463 -0.016072664 0.022844085 0.80696005 0.5602805 0.18681891 0.0052952585
-0.047011152 -0.013100643 0.0218229 -0.98637968 -0.044027146 0.15848258 0.017059032
0.011356746 -0.014153083 0.02183724 0.7730034 0.59715432 0.21417867 0.004003074
0.012549052 -0.014954097 0.021491451 0.80506247 0.56163645 0.19089012 0.0056363856
-0.046672024 -0.010820333 0.022534408 -0.93867916 -0.0026924817 0.34478155 0.001745386
-0.04665174 -0.0079662567 0.022658331 -0.98176908 0.042449728 0.18527691 0.016207755
-0.046803627 -0.005013695 0.022331627 -0.93252331 0.015429491 0.36078009 0.0016349865
-0.046804506 -0.0013733449 0.022309083 -0.97198981 -0.024194498 0.23377442 0.012707339
-0.046949767 0.0020134973 0.022017222 -0.96963048 -0.016175674 0.24403907 0.013895588
-0.046837673 0.0041357223 0.022246325 -0.973028 -0.011964943 0.23037659 0.014018134
-0.046753608 0.0072991848 0.022434333 -0.93113035 0.025878143 0.3637673 0.0021249691
-0.046771139 0.010407967 0.022429334 -0.93035418 0.0035389687 0.36664498 0.002423991
-0.046027765 0.012850446 0.022121813 0.10795367 -0.045817923 0.99309951 0.017023608
-0.046691734 0.016454538 0.022622941 -0.92823172 -0.012539038 0.37179124 0.0024252355
-0.046865206 0.019571621 0.022256298 -0.98894763 -0.017576151 0.14721978 0.01204068
-0.047253348 0.021406913 0.021234468 -0.99655074 -0.062376488 0.054733612 0.021979816
0.0145438 0.02179455 0.023208134 0.97627449 0.058590263 0.20845944 0.0017680544
0.014747278 0.025511993 0.023163201 0.97474134 0.073498026 0.21089679 0.0020414125
0.015096148 0.025357513 0.021394998 0.97735131 0.065012828 0.20138946 0.0019720504
0.014411794 0.028563671 0.022490514 0.95156932 0.22964266 0.20440203 0.0016879345
0.013296418 0.031638812 0.022519365 0.88251764 0.42501134 0.20131566 0.0020903465
0.011077789 0.0350658 0.022629607 0.77437937 0.59768879 0.2076167 0.0016147173
0.012309515 0.033552513 0.022278912 0.81474644 0.54815978 0.18896876 0.0013435595
0.0077309366 0.038060535 0.022843901 0.56097919 0.80163074 0.20661689 0.0033481941
0.0096370168 0.036695555 0.022287903 0.65837282 0.72665596 0.19625621 0.0033791673
0.0026684923 0.040205393 0.023720905 0.25093794 0.94850129 0.19332723 0.0027018001
0.0049990318 0.039460439 0.023323461 0.39366248 0.89667404 0.20249826 0.0023106015
0.0061499686 0.039190039 0.022216737 0.49869591 0.84922284 0.17355973 0.0033543322
-0.0012400306 0.052769881 0.023761548 0.60926718 0.1232527 0.78332776 0.019775769
0.0021967464 0.053988419 0.022168821 0.41046068 0.23026589 0.8823263 0.0075877095
-0.049739741 0.056432191 0.022046439 -0.49579132 0.67786098 0.54285866 0.0072592269
-0.0016860183 0.055588741 0.023442749 0.46353966 0.26857314 0.84439296 0.010216163
0.0011074543 0.056305654 0.022152387 0.34773666 0.21831056 0.9118222 0.0010936714
0.0034869362 0.056504603 0.021254774 0.30954805 0.22599338 0.92363793 0.0010798422
-0.0483834 0.058484223 0.021602953 -0.49577385 0.6778301 0.54291314 0.0072918595
-0.046428185 0.058943126 0.022147819 -0.44489962 0.64858711 0.61757517 0.0027158058
-0.043734252 0.059440605 0.023336131 -0.43146622 0.71232814 0.55355716 0.0017180617
-0.0039527919 0.058874369 0.023418229 0.55586833 0.41412634 0.7207703 0.0151667
-0.0018281393 0.058160428 0.022719136 0.40976498 0.33792374 0.84728992 0.012067957
0.00087439059 0.059074704 0.021592714 0.31777915 0.25205687 0.91404802 0.00099469593
-0.045296174 0.060490452 0.021317387 -0.37278321 0.7503227 0.54593825 0.0030385181
-0.043274287 0.06115349 0.021910151 -0.44053805 0.73669142 0.51304197 0.0025747132
-0.040430285 0.062304854 0.022666238 -0.4584513 0.77743542 0.43060032 0.0022548831
-0.0069944197 0.062096026 0.023334753 0.57976091 0.57983655 0.57242203 0.012382826
-0.0048864987 0.061209064 0.022695085 0.48854068 0.54861474 0.67849088 0.016658224
-0.0016702443 0.061245319 0.021625368 0.25942376 0.34102112 0.90355074 0.0018202487
-0.039809972 0.063389868 0.0214696 -0.43733186 0.80855244 0.39367977 0.0022078289
-0.037412047 0.064245678 0.022442117 -0.48371789 0.81117564 0.32865041 0.0027792922
