# .PCD v0.7 - Point Cloud Data file format
VERSION 0.7
FIELDS x y z normal_x normal_y normal_z curvature
SIZE 4 4 4 4 4 4 4
TYPE F F F F F F F
COUNT 1 1 1 1 1 1 1
WIDTH 566
HEIGHT 1
VIEWPOINT 0 0 0 1 0 0 0
POINTS 566
DATA ascii
0.013785919 -0.022377713 0.027915863 0.95502728 0.15999457 0.24964881 0.0042369626
-0.042320937 -0.019132433 0.027419388 -0.52872753 0.00070945936 0.84879136 0.0034225483
-0.039745457 -0.019102786 0.028691851 -0.17868678 0.0037576314 0.98389882 0.0023965952
-0.03723656 -0.019303285 0.028986059 -0.0618205 0.0045376765 0.99807698 0.0007027539
-0.034242645 -0.019397471 0.029006135 -0.0090195881 -0.0011047234 0.99995875 3.668007e-05
-0.03144956 -0.019357815 0.029005338 -0.00028282168 -0.00061002444 0.99999976 0
-0.028307039 -0.019622892 0.029002327 0.00038380057 -3.7615893e-05 0.99999994 4.9422561e-06
-0.025370914 -0.019137688 0.029004684 -2.0511396e-05 -0.00012035614 1 3.7259329e-06
-0.022654224 -0.019426195 0.029003944 0.02344642 0.0038923998 0.99971753 0.00065556442
-0.020589298 -0.020156454 0.028754868 0.092498742 0.003021254 0.99570823 0.0014634107
-0.015724353 -0.019585846 0.02789451 -0.49664605 0.27712002 0.82252491 0.015527424
-0.013524395 -0.019344192 0.029356519 -0.50454777 0.22731376 0.83292258 0.012337524
-0.011315216 -0.018361883 0.029978652 -0.27866489 0.16244487 0.94655037 0.004755625
0.012976416 -0.019138351 0.028378105 0.87977415 0.39718345 0.26123312 0.0067044622
-0.042406864 -0.016341545 0.02737323 -0.5231604 -0.0075728106 0.85220057 0.0033031839
-0.0406745 -0.016310437 0.028119098 -0.35131538 0.030551823 0.93575853 0.005635811
-0.037531894 -0.016454797 0.028972723 -0.080933049 -0.0012164171 0.99671882 0.0019682618
-0.034499258 -0.016371045 0.029006574 -0.007647377 -0.00062099053 0.99997056 4.6673151e-05
-0.031740792 -0.016416216 0.029006742 -0.0021258884 -0.00026073193 0.99999774 7.1004333e-06
-0.028861988 -0.016687339 0.029004609 0.00034709089 -0.00046086768 0.99999982 0
-0.025624186 -0.016563956 0.029001679 0.00013955023 -0.00026324493 1 1.303448e-05
-0.022541773 -0.016422164 0.029004693 0.022422738 0.0011749897 0.99974793 0.00081929564
-0.020521944 -0.016266042 0.028840311 0.1240328 0.012782568 0.99219584 0.0046711564
-0.016039049 -0.017502483 0.027350366 -0.31779915 0.15892301 0.93474448 0.053116813
-0.013736213 -0.016498931 0.028278887 -0.52565098 0.39214984 0.75492358 0.017884655
-0.010721751 -0.016108161 0.029620422 -0.40051222 0.35699347 0.84388721 0.0099777868
0.0059256973 -0.015022575 0.029906878 0.1190046 0.26844689 0.95591539 0.0047418592
0.011335185 -0.01594506 0.028255012 0.79776627 0.53274012 0.28241286 0.0080007277
0.012275782 -0.017374896 0.028159412 0.83138674 0.49100336 0.26021484 0.0066590984
-0.042491183 -0.013585276 0.02732796 -0.5375939 0.0082614673 0.84316349 0.0039627268
-0.040434696 -0.014212389 0.028535469 -0.18244283 0.0020992763 0.9832142 0.002567776
-0.037501615 -0.013791923 0.028968513 -0.096968278 0.0070562381 0.99526244 0.0021178245
-0.034352519 -0.013378087 0.02900229 -0.0045389049 -0.00051741011 0.99998957 9.7445377e-07
-0.031284846 -0.013477379 0.029007226 -0.00019013346 0.00035710115 0.99999994 0
-0.02877235 -0.013510296 0.029006924 0.00032802142 0.00014336863 0.99999994 0
-0.025362859 -0.013516591 0.029006368 0.01660491 -0.0001798984 0.99986213 0.00076047925
-0.022407459 -0.013279613 0.029003259 0.046556447 0.01210512 0.9988423 0.00096853799
-0.020536067 -0.013383403 0.028714981 0.12867944 0.021999141 0.9914422 0.0052493494
-0.017158136 -0.013679264 0.027238466 0.16744441 0.063734345 0.98381931 0.034510672
-0.012713059 -0.014422476 0.027895821 -0.4454177 0.30346778 0.84232444 0.044857729
-0.010743617 -0.01323882 0.028408827 -0.38002649 0.47371018 0.79446751 0.032010697
-0.0076219104 -0.013065872 0.029453471 -0.22546944 0.41609713 0.88092387 0.001607483
-0.0045010536 -0.012690631 0.029787041 -0.09774258 0.38316888 0.91849226 0.0057474086
-0.0012193352 -0.012477988 0.029874325 -0.0045439657 0.38288891 0.92378324 0.0051985858
0.0018694017 -0.012457197 0.029689634 0.08832258 0.4379532 0.89464861 0.0010816309
0.0047732657 -0.013079206 0.029500825 0.08653982 0.33881423 0.93686491 0.0065556373
0.0076545365 -0.013177891 0.02881976 0.51549339 0.57056642 0.63931257 0.0083432365
0.0098150698 -0.013938174 0.02806541 0.72435451 0.62346309 0.29428607 0.0057894597
-0.042293236 -0.010374369 0.027442798 -0.54591548 0.0016164436 0.83783871 0.0042495802
-0.040363036 -0.010624157 0.028539672 -0.18723069 -0.0019092436 0.98231411 0.0028419495
-0.037227474 -0.010706403 0.02898651 -0.092329033 7.8516932e-05 0.99572855 0.0019481959
-0.03421865 -0.010600512 0.028999038 -0.0067029083 -0.0001580776 0.99997753 2.3161781e-05
-0.031405874 -0.010432696 0.029008325 -0.0013816789 -0.00059547496 0.99999887 7.0065744e-06
-0.028541472 -0.010615349 0.029000467 0.00048704425 -5.8790911e-06 0.99999988 7.2150885e-07
-0.025280334 -0.010437463 0.029000785 0.021356115 -0.0004851397 0.99977183 0.0011416419
-0.022551123 -0.01036473 0.029004736 0.063861646 0.011086885 0.99789715 0.0013208573
-0.020525821 -0.010733827 0.028650165 0.17071149 0.021625955 0.9850837 0.0051726485
-0.0094255079 -0.011633539 0.02795526 -0.33289054 0.60498649 0.72330856 0.044545513
-0.007366498 -0.010672526 0.028077388 -0.2501007 0.67060316 0.69838458 0.020180237
-0.0042375289 -0.009762302 0.028516961 0.011286949 0.7719745 0.63555336 0.015829667
-0.0013899807 -0.0095432792 0.028447013 0.033193711 0.74350893 0.66790169 0.015577082
0.0015194321 -0.0097565679 0.028307155 0.12152627 0.72180432 0.68134421 0.01511101
0.0044178418 -0.010547429 0.028272972 0.23422994 0.67719048 0.69753087 0.013040448
0.0068342569 -0.011549819 0.028069668 0.45059383 0.74727005 0.48841858 0.021183912
-0.042468246 -0.0071366173 0.027346643 -0.5379526 -0.0055583236 0.84295678 0.0039940979
-0.039848801 -0.008087948 0.028636239 -0.18563318 -0.0011311471 0.98261845 0.003151299
-0.037526343 -0.007386337 0.028978065 -0.091989137 -0.0044540875 0.99575007 0.0020730295
-0.034534648 -0.0078607593 0.029008579 -0.0066988938 0.00036270352 0.99997753 2.0407793e-05
-0.031725522 -0.0074740192 0.029008862 -0.00063503446 -0.00065448391 0.99999958 4.1490948e-06
-0.028542433 -0.0074373861 0.029008508 0.00057223579 -0.00059282448 0.9999997 8.1406597e-06
-0.025629498 -0.0073767249 0.029003782 -0.00011224879 -0.00079725194 0.9999997 5.6684928e-07
-0.022322811 -0.00756092 0.029007327 0.085227393 0.0047572409 0.99635017 0.0023258056
-0.019458372 -0.0077002966 0.028314594 0.20797245 0.0089778323 0.9780935 0.0027896184
-0.01796633 -0.0065679457 0.027796127 0.29121605 0.0087009771 0.95661777 0.00018212554
-0.001576224 -0.0089381207 0.027413432 0.25098521 0.82369149 0.50846708 0.018697841
-0.042366456 -0.0045169815 0.027406499 -0.55240917 2.5423415e-05 0.83357316 0.0043384805
-0.040101912 -0.0044212276 0.028625678 -0.18255831 -0.007872167 0.98316354 0.0028178804
-0.037366338 -0.0044760657 0.028969564 -0.084287338 -0.0015122767 0.99644029 0.0016652845
-0.034313627 -0.0046358523 0.029007109 -0.012189117 -0.00031203023 0.99992567 0.00011886199
-0.031347081 -0.0045163436 0.029003017 -0.0012981285 6.1619896e-05 0.99999917 1.2299199e-07
-0.028426044 -0.0043485984 0.029009435 -8.7757864e-05 -4.785405e-05 1 9.4858278e-06
-0.025609449 -0.0046739946 0.02900723 4.2219966e-05 -0.00024040819 1 2.2721645e-06
-0.022381734 -0.00447194 0.029008247 0.084632687 -0.0089969328 0.99637163 0.0020379361
-0.019839549 -0.0047089816 0.028484536 0.17817968 -0.019674946 0.98380125 0.0034253886
-0.016075835 -0.0047970926 0.027024116 0.25609618 -0.00056139193 0.96665114 0
-0.042266417 -0.0019275937 0.027465334 -0.54158747 0.00097593101 0.84064388 0.0041174861
-0.039970949 -0.0013422573 0.028621549 -0.18504615 -0.0010169543 0.98272932 0.0028764894
-0.03746967 -0.001501009 0.028983928 -0.087663978 0.00032619076 0.99615008 0.001681564
-0.034549307 -0.0015098865 0.029004524 -0.0087538073 -0.0011304832 0.99996108 5.0170558e-05
-0.03136019 -0.0014208575 0.029010486 9.0773232e-05 -0.00031521003 0.99999994 6.3288353e-06
-0.028563917 -0.0014192268 0.029010117 -0.00025778171 -4.6015641e-05 1 0
-0.025663629 -0.0017921526 0.029009769 0.00020748832 0.00038145322 0.99999994 1.2022215e-05
-0.022548532 -0.0014145286 0.029003726 0.11964522 -0.0051756408 0.99280322 0.0043734526
-0.019928396 -0.0018023016 0.028530074 0.20607111 -0.009621664 0.9784897 0.0028148359
-0.016323892 -0.0013397433 0.027075604 0.28978401 -0.0037319439 0.95708483 0.00094654242
-0.04243869 0.0011966797 0.027370825 -0.54659921 0.0041402425 0.8373841 0.0035995706
-0.040317006 0.0019756285 0.028575862 -0.18702596 0.0030945286 0.98235005 0.0025531615
-0.037447684 0.0014281938 0.028973777 -0.091334254 -0.0011856755 0.99581963 0.0018438634
-0.034437373 0.0015121056 0.029011909 -0.0071156016 -0.00183427 0.999973 4.8149916e-05
-0.031361215 0.0015890899 0.02901144 0.00024730826 -0.00041442769 0.99999988 0
-0.028498713 0.0014296251 0.028998911 0.00059282896 0.00036757259 0.99999976 4.5290712e-06
-0.025575189 0.0015083612 0.029010538 0.021165982 0.0011174128 0.99977535 0.0010022181
-0.02260948 0.0013779771 0.029006561 0.057807233 0.0038405622 0.99832034 0.0010939008
-0.020225435 0.0014091094 0.0286538 0.16471709 -0.0048743016 0.98632878 0.0052235182
-0.016559221 0.0020400758 0.027121698 0.3109805 0.015360523 0.95029223 0.0013151619
-0.042246982 0.0042135743 0.027481774 -0.53834057 0.0044005658 0.84271586 0.0039355461
-0.040092446 0.0052111186 0.028606225 -0.19135375 -0.0016668963 0.9815197 0.0027910022
-0.03767078 0.0046209786 0.02897707 -0.094708569 -0.0057165734 0.99548858 0.0017474809
-0.034644507 0.0045596845 0.029011786 -0.0098201782 -2.1371177e-05 0.99995178 6.7802961e-05
-0.031218167 0.0043783006 0.029008452 0.0011664754 -0.00089120789 0.99999893 1.0666963e-06
-0.028286438 0.0046730759 0.029011589 0.00048643042 -0.00041085144 0.99999982 0
-0.025482289 0.0044055241 0.028999735 0.015059676 0.0014417054 0.99988556 0.00067305536
-0.022507899 0.0045878342 0.029010778 0.056088593 0.0047484869 0.99841452 0.0011899219
-0.020361759 0.0046763918 0.028735027 0.17415544 0.0031105294 0.98471326 0.005447167
-0.016722942 0.0042942455 0.027156472 0.32725355 0.005851517 0.94491851 0.0010007721
-0.042417143 0.0072560706 0.027388373 -0.5438695 0.0044868398 0.83915788 0.0035499188
-0.040249698 0.007723656 0.028561659 -0.18964306 -0.0043925145 0.98184329 0.0024361743
-0.037431069 0.007771356 0.02898623 -0.086494453 -0.0068044136 0.99622911 0.0019832957
-0.034625806 0.0075017055 0.029013697 -0.022454256 -0.0019080376 0.99974608 0.00049217883
-0.031690791 0.0074001607 0.029013511 0.00045634093 0.00038713496 0.99999982 3.302722e-06
-0.028741937 0.0075357081 0.02901135 0.00046914554 3.0763014e-05 0.99999988 1.6115255e-06
-0.025537955 0.0076191993 0.02901233 0.019436812 -0.0006535977 0.99981087 0.0010803618
-0.022576801 0.0072993841 0.029011451 0.054980088 -0.0064618951 0.99846655 0.0010347873
-0.020381756 0.007504357 0.02866767 0.17093873 0.0034313684 0.98527569 0.0058503891
-0.016943099 0.0075568473 0.02719688 0.31536841 0.010691912 0.9489091 0.0012569996
-0.042228136 0.010195835 0.027497834 -0.53578836 0.0047830171 0.84433877 0.003890055
-0.040671218 0.010712983 0.028146762 -0.32197133 0.00046552622 0.94674933 0.0050355648
-0.037438802 0.01059148 0.028976748 -0.083064467 -0.0069649401 0.9965198 0.0017621396
-0.034313068 0.010443644 0.029012866 -0.0044843559 -0.00083645241 0.99998963 8.5202691e-06
-0.031311065 0.010551402 0.029007066 0.00093278626 -0.00039042978 0.99999952 3.1850092e-07
-0.028127305 0.01036245 0.02900455 0.00025735245 -0.00010838095 1 0
-0.025237055 0.010511341 0.029005755 0.015939873 1.0678838e-05 0.99987298 0.00071689562
-0.022486992 0.010430606 0.029010799 0.10785005 0.0035295631 0.99416083 0.006290473
-0.020507403 0.010464586 0.02873056 0.16044174 -0.0081042387 0.98701203 0.0058586886
-0.017200502 0.010912175 0.027256658 0.31499845 0.016243782 0.94895321 0.0011836507
-0.042396154 0.013159371 0.027405471 -0.54010588 0.0018914719 0.84159499 0.0034227418
-0.039953262 0.01357585 0.028657891 -0.19239444 0.0014829121 0.98131657 0.002271103
-0.037565336 0.013447225 0.028982904 -0.084163621 0.0021480082 0.99644965 0.0018823708
-0.034680389 0.013614935 0.029015411 -0.023529597 -0.0017157648 0.99972171 0.00052340276
-0.031560816 0.013432942 0.029014857 0.00057624094 -0.00070382713 0.99999958 7.3884571e-06
-0.028609769 0.013435481 0.029010948 -9.412683e-05 -0.00075653155 0.9999997 2.1593733e-06
-0.025512077 0.013503861 0.029014086 -8.1967555e-05 -0.0011451986 0.99999934 3.8783674e-06
-0.022384027 0.013673764 0.02901274 0.10492113 0.0061648167 0.99446142 0.00456654
-0.020539295 0.013012897 0.028635483 0.15604387 0.011589666 0.9876821 0.0050751306
-0.042449802 0.016623428 0.027373528 -0.53187627 0.00034024351 0.84682208 0.0035143383
-0.040670551 0.016524414 0.028152743 -0.32735708 0.0020288383 0.94489855 0.004631035
-0.037739225 0.016582524 0.02898089 -0.092274494 0.00056511816 0.99573344 0.0020692714
-0.034660086 0.016437484 0.029016323 -0.0099713597 -0.0019904664 0.99994832 7.975175e-05
-0.031453427 0.016385432 0.029009225 0.00060390908 -0.00017987916 0.99999982 0
-0.028495491 0.016657634 0.029015103 0.000119391 0.00038691916 0.99999994 0
-0.025394516 0.016479976 0.029014811 0.013998597 -0.0004004701 0.99990195 0.00054474478
-0.022285042 0.016281009 0.02901119 0.10465185 0.020394586 0.99429977 0.0043324959
-0.020268079 0.01656943 0.028763393 0.13233611 0.0025762524 0.99120158 0.0016802652
-0.017564146 0.015393918 0.027348181 -0.16813371 0.18850264 -0.96757317 0.018739037
-0.0083639147 0.017928988 0.029988909 -0.26432875 -0.19773531 0.94394439 0.0012497924
0.011807852 0.017216207 0.028203271 0.94060791 -0.24320456 0.2368722 0.0030842931
-0.042539515 0.019855676 0.027321672 -0.53690368 -0.0042885076 0.8436327 0.003288293
-0.040312484 0.018821478 0.028581271 -0.19383474 0.0026245599 0.9810307 0.0024349734
-0.037395418 0.019415479 0.028981015 -0.092001736 0.0010591893 0.99575824 0.0021601385
-0.034256507 0.01944601 0.029016882 -0.004374946 -5.8795335e-06 0.99999046 7.9636193e-06
-0.031553335 0.019563271 0.029016607 0.00059951993 0.0088614998 0.9999606 0.000153667
-0.028489875 0.019522056 0.029011467 0.00024968214 0.00015708052 1 5.6305129e-07
-0.025267543 0.019384753 0.029010715 0.014450775 0.0011737454 0.99989492 0.00058574328
-0.022349402 0.01960619 0.029015187 0.053075887 0.0095479982 0.99854481 0.00082376169
-0.02023536 0.019481402 0.0287476 0.13011932 -0.0081872465 0.99146456 0.0017117837
-0.015408561 0.019932169 0.028434282 -0.23572214 -0.11690562 0.96476328 0.0084187863
-0.013200287 0.019221121 0.02943968 -0.27778795 -0.13807687 0.9506675 0.0026575725
0.011156116 0.019418765 0.029562287 0.63023335 -0.13178962 0.76513892 0.051885046
0.012858795 0.020020489 0.028080411 0.88242525 -0.19746831 0.42700359 0.012495202
-0.042531673 0.022679102 0.02733239 -0.53145635 0.04372349 0.84595656 0.0042623864
-0.040298309 0.0226542 0.028548151 -0.19145596 0.040982421 0.98064518 0.0029585648
-0.037689433 0.022577893 0.028983932 -0.094454467 0.046255328 0.99445403 0.0022126527
-0.034839649 0.022574265 0.02901097 -0.025842179 0.04704598 0.9985584 0.00084425556
-0.031638585 0.022480229 0.029016368 -0.0030175524 0.049857493 0.99875182 0.00038453151
-0.028495021 0.022554103 0.02900316 -0.003616445 0.042945888 0.99907082 0.00031022215
-0.025592521 0.022626847 0.02901651 0.00071585597 0.033942204 0.99942356 0.0003382756
-0.022656213 0.022551129 0.02901632 0.045910653 0.031158354 0.99845946 0.0011842607
-0.020051029 0.02270275 0.028625567 0.062692203 0.017311053 0.99788278 0.00095427508
-0.015972549 0.022914406 0.028667148 -0.21230003 -0.031816185 0.97668648 0.011898379
-0.013895725 0.022421028 0.029559884 -0.33658955 -0.093253203 0.93702263 0.0019300573
0.011565613 0.022566877 0.029742293 0.49093711 -0.066999972 0.86861491 0.011588883
0.013278866 0.022732012 0.028403495 0.88253027 -0.13232607 0.45125398 0.014218553
-0.042413622 0.025347866 0.027135674 -0.63124847 0.073206827 0.77211791 0.0052507883
-0.040528223 0.025512205 0.02813898 -0.35631672 0.075492546 0.93131047 0.0037831187
-0.03759215 0.025478365 0.028677138 -0.10719801 0.073680609 0.99150383 0.0029041755
-0.034504484 0.025420863 0.028728962 -0.030016236 0.077822343 0.99651527 0.0016990189
-0.031454489 0.025436541 0.028753009 -0.012390573 0.076267891 0.99701041 0.00038943213
-0.028576128 0.025397651 0.02879256 -0.0089467531 0.078177474 0.99689931 0.00019164928
-0.025469352 0.025234275 0.028835429 0.022225399 0.073218465 0.99706823 0.001200354
-0.022149457 0.024820469 0.028822016 0.044272579 0.042035658 0.99813473 0.00075165485
-0.019492395 0.02555483 0.028383896 -0.065584615 0.043088309 0.99691629 0.015690261
-0.016666524 0.02631028 0.028532494 -0.20572223 0.054711007 0.97707987 0.0096502993
-0.014290337 0.025770312 0.029772045 -0.32591116 0.020957587 0.94516808 0.002323322
0.0082990546 0.024892071 0.029924786 0.34308594 0.012151814 0.93922544 0.0066949497
0.011661231 0.025412368 0.029742485 0.45416033 0.057739086 0.88904703 0.0065777171
0.013553108 0.025410734 0.028271003 0.90550506 0.061698049 0.419826 0.020716242
-0.04143817 0.028928105 0.027886678 -0.36488652 0.00050031778 0.93105191 0.0024619417
-0.03509295 0.028867301 0.028670106 0.015067481 0.013836046 0.99979079 0.0022003758
-0.031942643 0.028322712 0.028418969 0.029543918 0.0087848958 0.99952489 0.0014354624
-0.028622095 0.028617581 0.028194556 0.0099913431 0.034888588 0.99934131 0.00062089256
-0.026267402 0.028279753 0.028193463 -0.031998679 0.044543024 0.99849486 0.00053881697
-0.019618744 0.028429111 0.028554633 -0.18045281 0.062398434 0.98160237 0.011261248
-0.01581344 0.02879825 0.028957885 -0.3016479 0.056454234 0.95174652 0.0058102538
-0.014226246 0.028352737 0.029601214 -0.33634692 0.077770397 0.93852144 0.0028100084
0.010844823 0.028646851 0.029676769 0.48409757 0.14224449 0.86337483 0.010480133
0.013079037 0.028475443 0.028245002 0.87640822 0.23297596 0.42146266 0.019895161
-0.04215112 0.031766966 0.027728178 -0.4861702 0.0076853815 0.87383038 0.0043238387
-0.040955722 0.031929132 0.028325344 -0.40594712 -0.025783679 0.91353273 0.0052829483
-0.037440803 0.031683352 0.028904926 -0.096045524 -0.012460358 0.99529892 0.0039891805
-0.034860048 0.031512134 0.02892065 0.046446718 0.022076791 0.99867678 0.0016334516
-0.03200341 0.031767003 0.028523991 0.069057457 -0.00069224671 0.99761242 0.0010203901
-0.02910771 0.031592555 0.028197479 -0.024338834 -0.092218064 0.99544138 0.0079905838
-0.026541188 0.031493351 0.028196519 -0.13167647 -0.10272118 0.98595625 0.0073197233
-0.018799657 0.031766742 0.028630009 -0.073747039 -0.089348547 0.99326646 0.028768413
-0.016451316 0.031552166 0.028577894 -0.18871801 0.098918736 0.97703665 0.0049013128
-0.013704794 0.031625733 0.029225055 -0.285382 0.15745832 0.94539094 0.00285435
-0.011565825 0.032459162 0.029806487 -0.27173516 0.23422492 0.93343383 0.0010172414
0.0084622269 0.032161046 0.029873403 0.33953744 0.2533069 0.90584213 0.0035681315
0.01120254 0.032050043 0.02859137 0.70227373 0.38717622 0.59741622 0.022200387
0.012435183 0.030624583 0.028012063 0.81938565 0.32043079 0.47532228 0.0248814
-0.040747106 0.034006793 0.028304875 -0.40759104 0.022731069 0.91288155 0.0046423762
-0.037649088 0.034499396 0.028657179 -0.066375464 0.061492734 0.99589807 0.0017973394
-0.034534477 0.034263209 0.028663702 0.030313538 0.072676741 0.99689478 0.00066024554
-0.031690665 0.03413523 0.028420564 0.042560585 0.031030925 0.99861187 0.00091853214
-0.029317491 0.034547601 0.028420206 -0.14337875 -0.066719942 0.98741627 0.0095583815
-0.025375508 0.034959115 0.029476393 -0.20847768 -0.14972502 0.96649855 0.0043307873
-0.022792229 0.034260407 0.029908283 0.064418472 0.17040424 -0.98326635 0.0070079607
-0.018145917 0.034636747 0.02863998 0.14297424 -0.11837581 0.98262179 0.021058561
-0.016260982 0.034261234 0.028418846 0.036611971 -0.031836979 0.99882233 0.02007593
-0.01309757 0.03411448 0.028799396 -0.19524908 0.19464576 0.9612444 0.0059382198
-0.010598797 0.034775712 0.029428501 -0.25624949 0.27929989 0.92537981 0.0010246797
-0.008164499 0.035518102 0.029787648 -0.19269104 0.30092803 0.93397677 0.0012337405
-0.0055021951 0.035751708 0.029925207 -0.10229428 0.35261193 0.93016165 0.00066716038
0.0028921687 0.035827406 0.029886102 0.16177592 0.45606068 0.8751213 0.0034021847
0.005159297 0.035473309 0.029782416 0.23632769 0.37837729 0.89497477 0.004130532
0.0081904996 0.035159819 0.02906627 0.50827795 0.57964939 0.63691455 0.024644192
0.010047994 0.034322273 0.028145144 0.62120885 0.55127561 0.5569514 0.023134505
-0.040715069 0.037512667 0.027496692 -0.3831971 0.044407763 0.92259848 0.0062326309
-0.038063187 0.037877046 0.028140793 -0.18370491 0.034685414 0.9823693 0.0039046297
-0.034893058 0.036588166 0.028421599 -0.011181672 0.037534211 0.99923277 0.0026090324
-0.031328101 0.037419867 0.02864027 -0.12577629 0.019590419 0.99186522 0.014152125
-0.028175537 0.038049418 0.028876701 -0.28145501 0.043221984 0.95860052 0.012059655
-0.025969882 0.037570573 0.02991581 -0.17108449 0.00054273283 0.98525625 0.006067696
-0.018948106 0.037337422 0.029937943 0.24831887 -0.053413603 0.96720457 0.0063613718
-0.017178401 0.037938304 0.02914777 0.29012716 0.001641185 0.95698667 0.0092477789
-0.013758396 0.03760897 0.028198183 0.08513198 0.073881418 0.99362677 0.014689918
-0.010184988 0.036665812 0.028820574 -0.22484323 0.31709722 0.92135489 0.0024067864
-0.0068919575 0.038162656 0.029115818 -0.14972758 0.69550121 0.70275146 0.020447407
-0.0044821254 0.037984923 0.029558329 -0.020987978 0.5398823 0.84147888 0.012263972
-0.0013207229 0.038169514 0.029613443 0.021348687 0.55290735 0.83296925 0.0085894
0.0018907348 0.037885536 0.029546686 0.15220466 0.53198683 0.83296078 0.0064035361
0.0045879493 0.038189311 0.028442359 0.39203873 0.72906548 0.5610429 0.02257961
0.007203328 0.036959447 0.028105326 0.51060611 0.69860959 0.50122464 0.019237313
-0.04042289 0.040392257 0.027579734 -0.38155442 -0.021370292 0.92409933 0.0061577852
-0.037744358 0.040664341 0.028206382 -0.26160455 -0.035780177 0.96451169 0.0032785002
-0.031443328 0.040174864 0.02864033 -0.16261913 0.040866517 0.98584229 0.014411901
-0.027926294 0.040386438 0.028817724 -0.21390733 0.10805506 0.97085929 0.01492782
-0.026279747 0.041188613 0.029312275 -0.24612963 0.16708805 0.95472604 0.012337865
-0.022202648 0.04127308 0.029957339 -0.0078801885 0.23134054 0.97284096 0.0075790337
-0.018916126 0.0410599 0.029540965 0.21677411 0.20032951 0.955446 0.012456747
-0.017266575 0.039768089 0.029090982 0.2499516 0.067366332 0.96591204 0.015016496
-0.014160299 0.040804431 0.028200917 0.1273707 0.080210708 0.98860657 0.0050015883
-0.0065817777 0.039764263 0.028035259 0.46163034 0.83493495 -0.29963493 0.056043379
-0.0042458279 0.039536998 0.028306343 -0.037482716 0.78917366 0.61302519 0.034082755
-0.0014158525 0.039734028 0.028193435 0.0099121174 0.92717582 0.37449551 0.02891192
0.0014492322 0.039455961 0.028106118 0.1802016 0.86605328 0.4663465 0.01810839
0.0033547236 0.039119799 0.027558565 0.30538478 0.84759825 0.43395537 0.01572443
-0.04071784 0.043721627 0.027631462 -0.45579615 -0.040109891 0.88918006 0.0085470816
-0.038490854 0.043552641 0.028208954 -0.34681538 -0.063102588 0.9358083 0.0023158167
-0.030797757 0.043096881 0.028639656 0.065955222 -0.081066392 0.99452412 0.032961968
-0.028663985 0.043433502 0.028639425 -0.21879971 0.19699262 0.95567811 0.015274828
-0.025063487 0.042911097 0.028935712 -0.12566233 0.23739813 0.96325022 0.0092463885
-0.022470552 0.043215055 0.029103432 -0.0085234633 0.29904953 0.95419949 0.010073943
-0.01993956 0.042859972 0.02893566 0.14536886 0.23799089 0.96032715 0.010251878
-0.016328961 0.043445438 0.02820378 -0.0005766534 -0.014611141 0.99989313 0.027945051
-0.014321585 0.043404695 0.028203072 -0.079791375 -0.047192454 0.99569386 0.029729957
-0.0071271532 0.042868089 0.028638333 0.48106283 -0.11607458 0.86896795 0.034345783
-0.005056771 0.044125888 0.027975829 0.83600467 -0.21821569 -0.50346601 0.032619484
-0.040973939 0.046911217 0.02760982 -0.60416025 0.013416688 0.79674983 0.0038346802
-0.037673026 0.046760455 0.02900847 -0.34304327 -0.13101313 0.93013811 0.0037787559
-0.034179363 0.046214283 0.029954204 -0.11824127 -0.14117819 0.98289764 0.0073372968
-0.031556182 0.045548432 0.029849341 0.17781633 -0.061874297 0.98211658 0.009589714
-0.027877633 0.045913778 0.028424002 0.16164604 -0.015014361 0.98673457 0.010828985
-0.025041275 0.046250671 0.028423198 -0.0086466474 0.17506498 0.98451889 0.0074580042
-0.022486625 0.046351358 0.028422698 -0.0025513417 0.17803824 0.98402029 0.0075797988
-0.019564534 0.04609251 0.02842232 0.022193972 0.12120228 0.99237972 0.01660841
-0.016921004 0.046727031 0.028421547 -0.17034528 -0.073639512 0.98262894 0.017047495
-0.013416011 0.046579108 0.02989275 -0.19922633 -0.19920944 0.95949179 0.0072781201
-0.010495445 0.046425544 0.029947856 0.0021282937 -0.020292949 0.9997918 0.00027696061
-0.0074802213 0.046158426 0.029280994 0.32933712 -0.15275103 0.93177474 0.022156432
-0.0043825591 0.046681035 0.028194157 0.7851851 -0.053274438 0.61696529 0.0078056795
-0.040655967 0.049526412 0.028006738 -0.53272682 0.069539614 0.84342539 0.0067776367
-0.038515545 0.049725633 0.029597435 -0.53243822 0.073029138 0.84331268 0.0052974485
-0.03038037 0.04974065 0.029945832 0.2016972 0.05579704 0.97785735 0.0083840396
-0.028780436 0.049603797 0.029161334 0.26533335 0.0044056564 0.96414667 0.011612381
-0.025494408 0.049381644 0.028210679 0.23931125 0.050150339 0.96964693 0.007357453
-0.021841714 0.048734382 0.028637694 -0.014176122 0.062666036 0.99793386 0.0013745343
-0.019739216 0.04933225 0.028637484 -0.20324884 0.016887521 0.97898149 0.022579379
-0.016481355 0.049662419 0.029003859 -0.25531137 -0.023941722 0.96656239 0.017886754
-0.014067944 0.049610544 0.029954769 -0.12651831 0.055196717 0.99042743 0.0035727893
-0.00672122 0.049772959 0.029506395 0.40989897 0.035117101 0.91145474 0.019052316
-0.0042742221 0.049564198 0.028004492 0.70050001 0.076447487 0.70954603 0.0088311089
-0.040560354 0.052481294 0.028115174 -0.53908682 0.13684461 0.83105892 0.0069402494
-0.037901804 0.052485 0.02938951 -0.4149684 0.17838125 0.89217788 0.0091964062
-0.034532417 0.053082399 0.029937778 -0.058126193 0.26018748 0.96380699 0.0080160247
-0.030968288 0.053274341 0.02944234 0.16973671 0.25006357 0.95323539 0.011480643
-0.029185558 0.052122235 0.028998468 0.21354671 0.13345888 0.96777397 0.011995892
-0.026084207 0.052338734 0.028212931 0.27681938 0.048325185 0.95970607 0.0063273213
-0.019412855 0.05241717 0.0286365 -0.23699805 0.071124308 0.96890312 0.021979088
-0.015869815 0.052020468 0.029057726 -0.21368535 0.15170023 0.96505213 0.015582805
-0.014182783 0.053293519 0.029240133 -0.17124914 0.2808719 0.94434351 0.013578425
-0.010993011 0.053168662 0.029933274 0.037395209 0.27369905 0.96108818 0.0074990075
-0.0070554051 0.052455574 0.029494723 0.44032744 0.19475514 0.87646002 0.016278064
-0.0044612014 0.052605778 0.027999653 0.69896919 0.17343844 0.69380194 0.01645962
-0.039873283 0.055440705 0.028043738 -0.51171082 0.24127571 0.82458359 0.012179007
-0.036851384 0.055026103 0.028736025 -0.20438863 0.22684582 0.95224273 0.0077404962
-0.034407616 0.05481698 0.029063798 -0.061507363 0.25025758 0.96622354 0.013969462
-0.032048486 0.054715708 0.028941676 0.14960125 0.24172375 0.95874351 0.010805461
-0.028588885 0.055544041 0.028215786 0.076610461 0.05906355 0.99531019 0.027439496
-0.026352404 0.055471543 0.028215112 -0.095611729 -0.065805741 0.99324119 0.021124147
-0.01984896 0.055897798 0.029253934 0.014560077 -0.050988857 0.99859303 0.027973305
-0.015745737 0.056261398 0.02842465 -0.00067242916 0.14154507 0.98993158 0.010715822
-0.01289192 0.054743174 0.028897949 -0.11251302 0.25817332 0.95952451 0.0098131336
-0.0104338 0.054818906 0.029038504 0.079688676 0.28910059 0.95397615 0.014877933
-0.0077180425 0.055080183 0.028648794 0.24231823 0.25189435 0.93692642 0.0095833819
-0.0050582574 0.055643704 0.027975291 0.74456066 0.26317579 0.61348838 0.020986483
-0.039420698 0.058007766 0.027626531 -0.55715227 0.34767696 0.75412339 0.016468709
-0.03797175 0.05874826 0.028105529 -0.47977221 0.34692296 0.80589277 0.020590527
-0.034478754 0.058546357 0.028428081 -0.094291955 0.14114997 0.98548758 0.0077067921
-0.031571317 0.058540002 0.028427929 -0.0090878867 0.11050212 0.99383432 0.0065437029
-0.029199464 0.058755375 0.02842747 -0.19514617 -0.016333044 0.98063815 0.012509134
-0.025559375 0.058669969 0.029557986 -0.24867895 -0.12432889 0.96057332 0.0065104389
-0.023029065 0.057753555 0.029970095 -0.12460297 -0.16380034 0.97859263 0.007413283
-0.019070502 0.057730481 0.029061491 0.2842921 -0.10476597 0.95299637 0.013682373
-0.016203359 0.058834553 0.028425533 0.22531851 -0.060613647 0.9723978 0.015737778
-0.01355329 0.058482539 0.02842487 -0.012117233 0.065754943 0.99776226 0.016365051
-0.010469712 0.058371879 0.028424431 0.1009108 0.13886507 0.9851566 0.0060739624
-0.0067415247 0.058984179 0.02814826 0.70198101 0.52446228 0.48183203 0.02026289
-0.0057557598 0.057576034 0.027620986 0.77776122 0.39331067 0.49030015 0.0172951
-0.036920786 0.061694898 0.027615089 -0.56371164 0.59519607 0.57268733 0.016100112
-0.035344601 0.062376048 0.02819442 -0.51751077 0.64909452 0.55754727 0.018224595
-0.031497627 0.061480317 0.028428581 -0.13746361 0.065022871 0.9883703 0.010651723
-0.028305616 0.061691374 0.028685335 -0.26139906 0.063283809 0.96315402 0.0093034627
-0.02600375 0.06172723 0.029932493 -0.26632473 0.022368543 0.96362382 0.0077070552
-0.018883033 0.061418038 0.029952001 0.26315385 0.081170335 0.96133316 0.010252832
-0.017034736 0.062029272 0.029043332 0.27300894 0.14735663 0.9506588 0.015612148
-0.013617724 0.061555959 0.028425664 0.15919679 0.10801648 0.9813199 0.022618486
-0.0095984098 0.062376041 0.027943399 0.60916501 0.6157642 0.49975225 0.022853939
-0.0080038412 0.061116286 0.027910307 0.67023391 0.60013658 0.43660352 0.019297041
-0.034162745 0.064140141 0.027807435 -0.50538766 0.72843355 0.46256667 0.016484169
-0.032156762 0.065382175 0.027899027 -0.44175074 0.79913449 0.40772578 0.015666539
-0.028824555 0.064622439 0.028428905 -0.26560244 0.40356231 0.87555289 0.04516986
-0.02522661 0.065232523 0.029486867 -0.14543648 0.62059957 0.77052212 0.012795619
-0.022611776 0.065741941 0.02952374 0.012634176 0.54221505 0.84014475 0.020671986
-0.019796995 0.065320596 0.029572893 0.18323171 0.60780227 0.77265942 0.011333682
-0.016423024 0.064327784 0.028543923 0.29737046 0.33050075 0.89573443 0.038503088
-0.012862504 0.06541913 0.027976796 0.46988565 0.82820582 0.30542195 0.015562485
-0.010956204 0.06418661 0.027859874 0.53577679 0.79059893 0.29647359 0.013707546
-0.03064579 0.066389501 0.027673502 -0.37577814 0.85121071 0.36637554 0.018828647
-0.028473863 0.067188144 0.027821889 -0.2534894 0.90751535 0.33490142 0.014402496
-0.02544263 0.067895249 0.027907386 -0.12874959 0.93542427 0.32924917 0.016763056
-0.022503909 0.067797668 0.028120898 0.008778668 0.91861695 0.39505163 0.019211663
-0.019551679 0.06791985 0.027832175 0.15127876 0.90984082 0.38639921 0.015596258
-0.016540861 0.06719669 0.027837582 0.27832669 0.88370264 0.37630302 0.020376295
-0.014336335 0.066330314 0.027760508 0.43344852 0.85115564 0.2960684 0.022757476
-0.025519559 -0.060770929 0.030484587 -0.044406988 0.089469366 0.99499911 0.0028958581
-0.022674313 -0.061014842 0.030504325 -0.037266705 0.096419752 0.99464291 0.0031210068
-0.020028101 -0.060997784 0.030520581 0.16851342 -0.0011042295 0.98569876 0.021008058
-0.025526881 -0.058534622 0.03029881 -0.065717272 0.12772456 0.9896301 0.0038388013
-0.022533286 -0.058130194 0.030257052 -0.0035272331 0.096662372 0.99531096 0.00033841687
-0.01979937 -0.058568805 0.030321289 0.19550624 0.029036658 0.98027253 0.02134176
-0.025625873 -0.055991858 0.03008979 -0.063093536 0.15787475 0.98544145 0.004654991
-0.022577621 -0.056182995 0.030093364 0.0054071033 0.18348645 0.98300737 0.0018871909
-0.019349009 -0.055737477 0.030100668 -0.10526943 0.15157837 0.98282367 0.0040347665
-0.034148611 -0.051598139 0.030791245 -0.39399073 -0.0095918151 0.91906434 0.023218744
-0.031587455 -0.05176663 0.030332884 0.073880829 0.27545372 -0.95847118 0.038662508
-0.028791832 -0.051756661 0.030097533 0.11983822 0.021918003 0.99255151 0.0024040362
-0.016049881 -0.052141253 0.030094344 -0.14206481 0.011739374 0.98978776 0.001009079
-0.013360771 -0.052308273 0.030316824 -0.13316782 0.018998049 0.99091142 0.0011370893
-0.011208307 -0.052421443 0.03049789 -0.21051686 0.224225 -0.95152819 0.032926541
-0.034545474 -0.049597181 0.030761989 -0.39229146 -0.0088432403 0.91979843 0.027739448
-0.030903243 -0.049372923 0.03024777 -0.040634144 0.10178214 0.99397647 0.016765563
-0.028775398 -0.049529616 0.030051218 0.19790347 0.12021193 0.97282237 0.013793745
-0.015581798 -0.04912154 0.030083667 -0.17420202 0.058706287 0.98295844 0.0070541319
-0.013445647 -0.049583346 0.030273553 -0.10362905 0.0014530333 0.99461502 0.00058457354
-0.010598737 -0.049807876 0.030522125 0.34279206 0.032969907 0.93883264 0.018907018
-0.034537867 -0.046029195 0.030542396 -0.35107884 0.24084999 0.90483975 0.03383407
-0.031335536 -0.045606285 0.030239722 0.023442434 0.72820747 0.68495572 0.036710765
-0.029044483 -0.046121422 0.030154774 0.20686656 0.30238065 0.9304688 0.029685367
-0.015823945 -0.046138652 0.030132055 -0.2038193 0.28084743 0.93786055 0.025712093
-0.013549805 -0.045795131 0.030205438 -0.094696566 0.72197795 0.68540531 0.012900206
-0.010887786 -0.045940481 0.030426718 0.22644779 0.3703289 0.90087622 0.04577804
-0.033776116 -0.044941213 0.030136168 -0.30184811 0.43277326 0.84946752 0.057843309
-0.03238919 -0.044981878 0.030013658 0.02347884 0.72843671 0.68471062 0.03669646
-0.024338825 -0.042662084 0.030116379 -0.27239573 -0.031097159 0.96168268 0.025919322
-0.020852523 -0.042100415 0.030151406 -0.11185311 0.11062694 -0.98754776 0.029381685
-0.011055099 -0.044907205 0.030131811 0.22388296 0.33894995 0.91377753 0.051281881
-0.026623627 -0.040269744 0.030019075 -0.42755103 -0.029219123 0.90351886 0.026913656
-0.023618525 -0.040018592 0.030331144 -0.20817596 0.0016080728 0.97809005 0.044645667
-0.025790468 -0.037164126 0.030275628 -0.27427164 0.20463763 0.93962681 0.040450048
-0.022576302 -0.03659771 0.030330639 -0.0074742278 0.45088118 0.89255267 0.026526276
-0.019750854 -0.03721761 0.030349344 0.15525538 0.24459264 0.95711559 0.024966866
-0.0074789207 -0.032000553 0.030336769 -0.20859382 -0.17783996 0.96169722 0.0019675598
-0.012160085 -0.02747274 0.030135686 -0.30982661 -0.12781747 0.94216257 0.0066211708
-0.010060215 -0.028940313 0.030336404 -0.21798031 -0.17087035 0.96087873 0.0028925864
-0.012444267 -0.024616418 0.03019657 -0.38879704 0.016218314 0.92118067 0.0025089975
-0.01094009 -0.02501796 0.030467473 -0.28742939 -0.036183488 0.95711815 0.0014399064
-0.0072920322 -0.025190366 0.031643357 -0.49274459 0.011493326 0.87009811 0.031572428
-0.012426312 -0.021916147 0.030086707 -0.36864728 0.06239837 0.92747271 0.0024232604
-0.010742951 -0.022299677 0.030472642 -0.23851345 0.077848487 0.96801394 0.0014983771
-0.0075538661 -0.022432385 0.031331435 -0.51190621 0.34814399 0.78533298 0.035188567
-0.0053278953 -0.021900387 0.032385897 -0.55533326 0.46393314 0.69019645 0.061383031
0.0026302228 -0.021722615 0.032532129 0.083020724 0.90349525 0.42048052 0.11693773
0.0031554243 -0.021312822 0.03186696 0.083025187 0.90350318 0.4204627 0.11693224
-0.010895043 -0.019547621 0.030339578 -0.23918752 0.11434624 0.96421695 0.001471752
-0.0071321055 -0.019820796 0.030893961 -0.29214263 0.28221735 0.91378665 0.029790984
-0.0044620838 -0.019506704 0.031767324 -0.44056588 0.59967077 0.66805446 0.035330508
-0.0014967971 -0.019251389 0.032130819 -0.13141546 0.65622216 0.74303597 0.049748063
0.001280239 -0.019542446 0.031959299 0.38769734 0.67451006 0.62827295 0.041927822
0.0033209147 -0.019797858 0.031345602 -0.50812829 0.5184437 0.68776578 0.16022767
-0.0097323386 -0.017061096 0.03017869 -0.27488494 0.23825862 0.93148869 0.0051064487
-0.0078708492 -0.016141379 0.030414764 -0.18598735 0.22728133 0.95590371 0.0044174939
-0.0042367345 -0.01702892 0.030758504 -0.11400219 0.23724042 0.96473861 0.0043119648
-0.0014434254 -0.017000716 0.030903865 -0.0010368846 0.39359704 0.9192825 0.033912234
0.0015014912 -0.01730025 0.03075782 0.11871548 0.34260562 0.93194854 0.037378665
0.0041808644 -0.015531518 0.030841958 0.21897435 0.44634286 0.86765677 0.033949539
0.0061772778 -0.016596889 0.031047348 0.41665098 0.63091785 0.6544804 0.021335909
0.0092479913 -0.016270621 0.030029628 0.51770014 0.47531712 0.71137911 0.030451659
-0.0066797049 -0.014449946 0.030131429 -0.18846987 0.34123218 0.92089075 0.0058122249
-0.0046329675 -0.014094517 0.030310225 -0.069121301 0.30024165 0.95135546 0.0048074522
-0.001698024 -0.013564939 0.030301441 -0.045602825 0.33148524 0.94235766 0.005514869
0.0010308619 -0.013206478 0.030447774 0.10908754 0.47527418 0.87304884 0.013872673
0.0039210278 -0.013654159 0.030234162 0.20081288 0.46158528 0.86406785 0.014216222
0.0026701041 -0.011715692 0.030086707 0.28971156 0.64153129 0.71028513 0.023510644
-0.0073077497 0.016841648 0.030257359 -0.22530612 -0.16403611 0.96037978 0.00097415742
-0.0058325739 0.015782623 0.03049493 0.77379215 0.45552275 -0.44016457 0.057438284
0.0025908351 0.015639612 0.0311244 0.84525895 -0.26262748 0.46536458 0.037298005
0.0044898763 0.017044257 0.030825531 -0.34649888 0.30304819 -0.88775021 0.013131129
-0.010211998 0.019458236 0.030169025 -0.26432917 -0.19773552 0.94394428 0.001249735
0.005424859 0.018206039 0.030224213 0.25179833 -0.17352344 0.95209628 0.0023613218
0.0074659842 0.020038366 0.030682324 0.29068321 -0.064776123 0.95462418 0.005376487
0.010426486 0.020819465 0.03002421 0.5294764 -0.20989794 0.82194752 0.032274414
-0.012351238 0.023157256 0.030228253 -0.29688123 -0.057714779 0.95316869 0.0024033962
-0.01086689 0.022259427 0.030695859 -0.32761928 -0.011329014 0.9447419 0.0083942134
-0.0072020767 0.022819879 0.031559184 -0.4398185 -0.17361698 0.88114518 0.025993558
0.004155755 0.022775894 0.032001927 0.56386125 -0.038581282 0.82496786 0.03740957
0.0079516517 0.022739846 0.030660298 0.3127529 -0.011923358 0.94975966 0.0036159907
0.010018364 0.022846732 0.030350309 0.32889521 -0.051491421 0.94296169 0.0026577068
-0.012472017 0.025791747 0.030190963 -0.29804742 0.011000552 0.95448768 0.0016207919
-0.010718917 0.025707718 0.030638147 -0.28322399 0.03579428 0.95838559 0.0029757172
-0.0077628973 0.025993869 0.031706531 -0.51182896 0.26695788 0.81655657 0.0336622
-0.0057247668 0.026296604 0.032515701 -0.5093978 0.37440196 0.77481425 0.070339799
0.0028514795 0.026170289 0.032828573 0.45209143 0.33328065 0.82736778 0.035139095
0.003929371 0.025984399 0.031983286 0.39581725 0.25314844 0.88274831 0.035166003
0.0080543011 0.025356401 0.030685809 0.30176076 0.024577919 0.95306677 0.0037976592
0.010040207 0.026159117 0.03022236 0.373099 0.041479331 0.92686385 0.0052006692
-0.012294466 0.028532514 0.030307956 -0.30241087 0.093934253 0.94853783 0.0019768355
-0.010986991 0.028211258 0.030712213 -0.24750289 0.094860718 0.96423221 0.0021678521
-0.0073217261 0.028684465 0.031322811 -0.32368049 0.31809759 0.89109194 0.03236372
-0.0046428991 0.028888915 0.032250047 -0.37975979 0.58413523 0.71733427 0.033769686
-0.0014484283 0.029372418 0.032654893 -0.055432864 0.82531941 0.5619387 0.075345121
0.0014322302 0.028809279 0.032450832 0.45621255 0.64863777 0.60921186 0.039690983
0.0043348549 0.028420113 0.031349469 0.34026232 0.30207112 0.89049119 0.032067604
0.0075934678 0.029313153 0.030831188 0.30713013 0.18090352 0.93431526 0.0020094488
0.0094271749 0.028653802 0.030540811 0.44754285 0.18315178 0.87530613 0.0046752719
-0.012787651 0.030349264 0.030149087 -0.31240469 0.17594658 0.93351281 0.0010494875
-0.010261718 0.031397507 0.030464008 -0.23634946 0.18927646 0.95305479 0.0016987526
-0.0073230849 0.031243699 0.030860782 -0.19006182 0.22016926 0.95676649 0.0038154097
-0.0043797372 0.031336166 0.03120216 -0.19262476 0.35320836 0.91549957 0.034387596
-0.0015894732 0.031078937 0.031785384 0.16898218 0.41673088 0.8931855 0.06956885
0.0013544868 0.031256136 0.031221204 0.23443253 0.3758972 0.89651698 0.03976294
0.0047186576 0.031837057 0.030907417 0.21800008 0.26306549 0.93982577 0.0032681739
0.0072535612 0.031719375 0.030526295 0.32217306 0.25458574 0.91180623 0.0029678608
0.0090009598 0.03083648 0.030164357 0.44707352 0.27717951 0.85046858 0.0039716046
-0.022438407 0.035443515 0.030212579 0.03990221 -0.086595528 0.99544418 0.0079264101
-0.01987502 0.035212457 0.030325323 0.24105342 -0.14475 0.9596566 0.0095886011
-0.009943434 0.033711173 0.030210564 -0.20656934 0.24711123 0.94671285 0.0025126941
-0.0074063791 0.034105226 0.030419588 -0.16205975 0.25322038 0.95373797 0.0019891127
-0.0046097208 0.034946717 0.030569788 -0.097866602 0.27486989 0.95648766 0.0020156344
-0.0016547445 0.035302889 0.030761162 0.013072186 0.35993165 0.93288708 0.0029079004
0.0015556403 0.03492609 0.030738376 0.099934883 0.30311218 0.94770038 0.0020951878
0.0043238108 0.034340065 0.030501796 0.19486512 0.3285118 0.92417943 0.0044279299
0.0063062585 0.034207463 0.030184809 0.37544644 0.44752631 0.81164038 0.0071614482
-0.024720699 0.03751678 0.030222574 -0.21771877 0.0017686854 0.97600991 0.0098040123
-0.022335481 0.037576333 0.030258283 0.040212087 0.012919675 0.9991076 0.0023849248
-0.019723993 0.037907824 0.030187916 0.20367621 -0.012824355 0.97895432 0.011717707
-0.0066655315 0.036158241 0.030095056 -0.17128763 0.35539827 0.9188866 0.00063444028
-0.0037189217 0.036474425 0.030228769 -0.053737372 0.49523163 0.86709738 0.0093671363
-0.0013131661 0.036674272 0.030224288 0.025415232 0.45834956 0.88840854 0.0045029172
0.0012206986 0.036541503 0.030326338 0.11293975 0.4600797 0.88066524 0.0052735624
0.0031665936 0.036236838 0.030365007 0.2443594 0.51838082 0.81949359 0.0093730586
-0.027357224 0.039421652 0.030269582 -0.276467 0.1576664 0.94800174 0.01887003
-0.024860438 0.040087514 0.030170953 -0.19705606 0.19914834 0.95995253 0.013127082
-0.022427691 0.040238492 0.030223092 -0.014459922 0.20578468 0.97849047 0.013634238
-0.019336555 0.040569577 0.030262642 0.21413639 0.21588404 0.95264876 0.017257551
-0.024645045 0.042759649 0.030086022 -0.13465945 0.29594842 0.94566453 0.01263593
-0.022392385 0.042837236 0.030180799 -0.0008409734 0.30986589 0.95077991 0.016214369
-0.020360081 0.042355001 0.030189209 0.15867154 0.21638699 0.96332759 0.014503736
-0.011238722 0.044864587 0.030273976 -0.15240727 0.20615846 -0.96657681 0.013244087
-0.037004441 0.047740899 0.030383736 -0.15539502 0.016470043 0.98771513 0.018088542
-0.034424324 0.047072373 0.030210253 0.008012942 -0.092214413 0.99570692 0.0076708067
-0.031435117 0.04709059 0.030340249 0.19645114 -0.17949216 0.96394479 0.0061109867
-0.01330235 0.047468465 0.03040419 0.24034296 0.11045123 -0.96438366 0.012738027
-0.010783692 0.047373362 0.030220866 0.08247757 -0.04702761 0.99548274 0.0077400692
-0.0079325438 0.047124431 0.030316656 0.32422709 -0.16223703 0.9319635 0.010287724
-0.036897413 0.049490139 0.030191878 -0.23112604 0.044861071 0.97188902 0.010340616
-0.034339361 0.04968445 0.030272892 -0.028910013 0.0097861905 0.99953413 0.0014675838
-0.031714395 0.04944893 0.03021859 0.13125491 0.028805088 0.99093008 0.0080719721
-0.029336482 0.049717963 0.030147629 0.23779298 -0.031967442 0.97078967 0.01777328
-0.01576128 0.050199352 0.030286511 -0.33047235 0.079993211 0.94041967 0.023869244
-0.013335109 0.049147177 0.030215612 -0.15651898 0.033352308 0.98711163 0.015104735
-0.010697973 0.049706835 0.030269682 0.043929726 0.009589958 0.99898863 0.0044173151
-0.0073692277 0.050038207 0.030244529 0.4114399 0.08445701 0.90751535 0.013382594
-0.0059100767 0.04978615 0.030165339 0.81884462 0.052709337 0.57159013 0.0056412946
-0.037393026 0.052567024 0.030270237 -0.20905058 0.2227253 0.95220339 0.01431262
-0.03462005 0.052134313 0.030203579 -0.069102429 0.20317376 0.9767012 0.015065452
-0.032169811 0.052022055 0.030177608 0.15963247 0.24633771 0.95594734 0.01395687
-0.029954078 0.051765062 0.030222088 0.19253494 0.12892684 0.97278374 0.016472209
-0.015683129 0.051653292 0.030244598 -0.28835881 0.21576388 0.9328962 0.02755353
-0.013219935 0.052017815 0.03014842 -0.19003531 0.22184697 0.95638406 0.012572869
-0.010433327 0.052046113 0.030206554 0.041161887 0.18145967 0.98253655 0.016546564
-0.0072712265 0.05252276 0.030256987 0.59931481 0.18794931 0.77813673 0.015203743
-0.034529068 0.054395482 0.030183066 -0.0430809 0.42146361 0.9058215 0.023016704
-0.032757342 0.054379087 0.030169142 0.10010343 0.38203722 0.91870934 0.024623664
-0.025094831 0.056997716 0.03027142 -0.17823003 -0.042064499 0.98308933 0.01519619
-0.022025051 0.056867961 0.030308863 0.18832552 -0.18442714 0.96463478 0.013691757
-0.012479976 0.054410171 0.03019977 -0.10757439 0.37665966 0.92008442 0.013940091
-0.009927785 0.054338552 0.03030253 0.36152831 0.35246322 0.86317259 0.019902728
-0.0088112997 0.054056231 0.030042011 0.15991177 0.48255476 0.86114407 0.018650219
-0.025222674 0.058724884 0.030359067 -0.17822874 -0.042061884 0.98308969 0.015196828
-0.022413177 0.059140071 0.030236855 0.052986164 -0.1026095 0.9933095 0.011167112
-0.019665416 0.059167176 0.030359084 0.30451611 -0.19869077 0.93155348 0.017841984
-0.027434971 0.062271629 0.030257888 -0.26427922 0.077625617 0.96131724 0.015304853
-0.024887778 0.061417423 0.030218925 -0.17457345 0.049025778 0.98342288 0.011270341
-0.022293812 0.061771043 0.030265896 0.0042374185 0.021839837 0.99975252 0.00077557296
-0.019893326 0.061308939 0.030199379 0.13253224 -0.0035748773 0.99117225 0.0094221542
-0.017810153 0.061402336 0.030139156 0.28314006 0.039575163 0.95826173 0.018144011
-0.025218088 0.064722702 0.030289792 -0.09860602 0.60460997 0.7903946 0.019899555
-0.022267073 0.064767309 0.030238574 0.0088880667 0.40609115 0.91378933 0.014124346
-0.019796761 0.064437352 0.0301817 0.19565471 0.45515722 0.86864901 0.013427059
-0.01797084 0.063463405 0.030127231 0.23210692 0.44657829 0.86411476 0.0051167281
-0.022591352 0.066150159 0.030132033 0.024673874 0.70712161 0.7066614 0.014590529
-0.0060386853 -0.024613012 0.034292143 -0.59386957 0.77610391 0.21208903 0.073243096
0.0031881232 -0.024873236 0.034845475 0.36140463 -0.14355756 -0.92129147 0.052321654
-0.0060005533 -0.023583958 0.033198372 -0.55037481 0.32709399 0.76817781 0.044436365
-0.0053901002 -0.02209786 0.034123447 -0.61769021 0.37387148 0.69186634 0.03334539
0.0023766677 -0.021547476 0.034563635 0.33404207 0.64824277 -0.6842494 0.067753926
0.0031395007 -0.023295533 0.034821678 0.46954295 0.10134748 -0.87707365 0.071718007
-0.0082854293 -0.018779885 0.035954192 -0.77733302 0.59467745 0.20521246 0.013089945
-0.0038291337 -0.020312484 0.034599982 -0.20628873 0.40607846 -0.89025003 0.093598321
-0.0014678331 -0.019698108 0.03445337 -0.24744423 0.96296823 0.10706837 0.12546962
0.00096411293 -0.020291796 0.034428783 0.43639496 0.89259946 -0.11325064 0.045065448
0.0050446503 -0.01806167 0.035983931 0.48688164 0.49707177 -0.71823812 0.076785028
0.0065536085 -0.020081425 0.035938889 -0.90619135 -0.011573683 0.42270947 0.085958049
-0.0067269779 -0.017220093 0.03597445 -0.62988549 0.7422179 0.22881646 0.0098467963
-0.0055980468 -0.016490545 0.035951186 -0.47878221 0.85073733 0.21682636 0.0163089
-0.0010419311 -0.015421255 0.035940412 -0.040296506 0.90965337 -0.41340914 0.10066731
0.0012689747 -0.015800938 0.035977174 0.1165529 0.73172629 -0.67155939 0.086911067
0.0028185518 0.023114197 0.035018478 0.6728074 0.55867749 -0.48498407 0.094886601
0.0031637871 0.023729926 0.035309479 0.47973067 -0.14179099 -0.86588329 0.044914894
-0.006070978 0.025657807 0.03419802 -0.45875233 0.86430591 0.20620733 0.14361832
-0.0058383457 0.026520057 0.034235146 -0.79232049 0.60156542 0.10172192 0.041996632
0.0027891789 0.026408806 0.034534145 0.66945958 0.27573884 -0.68977678 0.10040615
0.0031742365 0.025336649 0.034548126 0.87941474 0.20518044 -0.4295705 0.054822776
-0.0040774527 0.028507773 0.034520712 -0.65694124 0.74988431 -0.078112684 0.047294218
-0.0014549763 0.029272968 0.034470107 -0.026517941 0.977045 0.21137612 0.058428887
