# .PCD v0.7 - Point Cloud Data file format
VERSION 0.7
FIELDS x y z normal_x normal_y normal_z curvature
SIZE 4 4 4 4 4 4 4
TYPE F F F F F F F
COUNT 1 1 1 1 1 1 1
WIDTH 573
HEIGHT 1
VIEWPOINT 0 0 0 1 0 0 0
POINTS 573
DATA ascii
-0.042344909 0.044844039 0.008792907 0.37418026 0.73917139 0.56001329 0.0011037356
-0.040162142 0.044344317 0.0078931591 0.40564948 0.78565359 0.46711549 0.0021036426
-0.03754076 0.043290004 0.0073878258 0.39960936 0.79862493 0.45001179 0.0015889233
-0.035169955 0.042429592 0.0067448947 0.41310936 0.81218457 0.41194278 0.0014753003
0.041297168 0.042170424 0.0063698753 -0.45890677 0.753313 0.47108826 0.0012706622
0.043642763 0.043045647 0.0072723688 -0.441549 0.73565704 0.51365674 0.0018677766
0.04621277 0.04416357 0.0079029584 -0.42719677 0.72758955 0.53676474 0.0022990876
0.048270226 0.044699367 0.0087409243 -0.38832057 0.69383657 0.60646349 0.0021727148
0.068639308 0.043350141 0.0086383084 0.6937179 -0.020182071 0.71996397 0.0036437896
0.069973566 0.043614287 0.0071428334 0.78551525 -0.043094058 0.61734009 0.0032380093
-0.048452795 0.047903955 0.0087616527 0.33978525 0.72223592 0.60242951 0.00099756802
-0.046154901 0.047375735 0.0080054561 0.37519082 0.76801252 0.51902652 0.0023516258
-0.043557774 0.046391409 0.0074488688 0.39568314 0.78713965 0.47312367 0.0016569082
-0.041120712 0.04549545 0.0067971959 0.42645496 0.79250312 0.43597594 0.0016178811
0.047189403 0.045548744 0.0067923828 -0.4515017 0.73444289 0.50669503 0.0017597973
0.049558952 0.046501726 0.0074156662 -0.41968995 0.73228341 0.5363034 0.0016883046
0.052145489 0.047406323 0.0081803696 -0.37649715 0.69420075 0.61346173 0.0032716997
0.054228678 0.047783624 0.0089340899 -0.31106493 0.63981825 0.70275974 0.0035670702
0.068543315 0.04674159 0.008599801 0.63125205 0.075391009 0.77190483 0.0041429349
0.069983989 0.046468507 0.0071782386 0.75237799 0.031151162 0.65799463 0.0037207948
-0.069315813 0.048430935 0.0077517163 -0.33963063 0.22422116 0.91344184 0.0074499324
-0.067508943 0.050455734 0.0085475575 -0.2130681 0.35433787 0.91052002 0.0040453379
-0.065909334 0.05087553 0.0089534521 -0.17039514 0.37585592 0.91087753 0.0027457483
-0.057077248 0.05095217 0.0089153554 0.19034751 0.71870339 0.66875499 0.0025230048
-0.054627579 0.050743159 0.0086239399 0.24101378 0.71166569 0.65988207 0.0021446354
-0.052236717 0.050274622 0.0079962099 0.31378514 0.75233787 0.57924652 0.0024727427
-0.049508657 0.049439166 0.0074230265 0.35729539 0.7734403 0.52357441 0.0017581629
-0.046954751 0.048552334 0.0068355482 0.40918797 0.77836943 0.47613671 0.001781772
-0.044954624 0.048068628 0.0060748612 0.42329562 0.79296046 0.43821746 0.0015995916
0.050734181 0.048219021 0.0060910471 -0.43997669 0.70605552 0.55489284 0.0016222075
0.052761622 0.048954159 0.0067712376 -0.44357178 0.7200554 0.53363317 0.0019012113
0.055432875 0.049674384 0.0076996177 -0.34855285 0.68291569 0.64197904 0.0021313189
0.058227345 0.050305016 0.0084579531 -0.26525891 0.63430172 0.72615361 0.0033237683
0.060425404 0.050694618 0.0088681653 -0.19162464 0.61349899 0.76609343 0.0043594139
0.065833732 0.050739974 0.0089599416 0.27157709 0.27963725 0.9208957 0.010923628
0.068048179 0.049775518 0.0084458673 0.47295082 0.18673386 0.86107373 0.0083476845
0.06993065 0.04945986 0.0070025143 0.68753791 0.10001542 0.71922761 0.0063058697
-0.069498353 0.052505821 0.0073813736 -0.11856271 0.35550782 0.92712301 0.0057407576
-0.066862077 0.053221904 0.0079413317 0.026624408 0.51691687 0.85562146 0.0027490957
-0.064242825 0.052921236 0.0082345866 0.084281452 0.58987212 0.80308628 0.0042429902
-0.061331619 0.053085472 0.0078639314 0.12570596 0.66946983 0.73212576 0.0035947745
-0.058328658 0.052897912 0.0074298601 0.19290437 0.75150949 0.63088936 0.0027427245
-0.055558383 0.052173674 0.0073055322 0.26630872 0.76310903 0.58884984 0.0022620165
-0.052853059 0.051547378 0.006672943 0.36026189 0.77620685 0.51741111 0.001747334
-0.050918765 0.051131688 0.0061175688 0.36591032 0.77755713 0.51138496 0.0016637297
0.056623437 0.051504292 0.0063784881 -0.38753125 0.69947666 0.60045981 0.0021512103
0.058819331 0.05197661 0.0071283304 -0.36281088 0.67593652 0.6414656 0.0020537458
0.061536364 0.052378394 0.0078934059 -0.2037483 0.58087355 0.78808159 0.0033287401
0.064612031 0.052615169 0.008305666 0.020733736 0.44242311 0.89656669 0.0070428941
0.067661136 0.052538142 0.0078558149 0.37937957 0.26741505 0.88575411 0.010459268
0.069762096 0.052443184 0.0066751759 0.67386419 0.14757931 0.72396654 0.0082038157
-0.069655858 0.056159783 0.0064704865 -0.024078136 0.54028815 0.8411355 0.0090787541
-0.067251585 0.055764955 0.006721226 0.1376297 0.5759173 0.80583948 0.0042148852
-0.064514257 0.055063594 0.0067707426 0.18680067 0.65316373 0.7338137 0.0068612895
-0.061886709 0.054649826 0.0064501897 0.23288132 0.73553395 0.63620448 0.0057544298
-0.059358153 0.054133143 0.0062095742 0.23976113 0.76914668 0.59239173 0.0036271526
0.062024686 0.054403491 0.0064723855 -0.33932823 0.60795426 0.71780777 0.0058879186
0.064571746 0.055162489 0.0068460479 -0.13948758 0.47604188 0.86828983 0.0094112344
0.06765525 0.055343531 0.0068561523 0.25972998 0.311975 0.9138993 0.016058104
0.069491394 0.055081084 0.0062698554 0.58059794 0.20038341 0.78914666 0.0095586488
-0.069840856 0.057271395 0.0060377284 0.0060177143 0.65872341 0.75236112 0.015753785
-0.068269752 0.057235315 0.0060518081 0.21651621 0.66812187 0.71185243 0.003561035
0.067358471 0.057273477 0.0061363899 0.14593382 0.30262825 0.94187021 0.02281897
0.0008912771 0.0053374851 0.011438174 0.042012837 -0.57819241 0.81481808 0.0010445316
0.0054109315 0.005074623 0.010974792 0.054996401 -0.62478572 0.77885705 0.0010570657
0.0079304185 0.0043376666 0.0099564958 0.076984763 -0.71973592 0.68996644 0.0017110583
0.010346008 0.0051833647 0.010616051 0.090757452 -0.71878833 0.68927962 0.0017401215
0.014025041 0.0049928832 0.0098522408 0.11674674 -0.76432627 0.63417321 0.002278147
0.016724071 0.0054516909 0.0098368814 0.15399286 -0.73505986 0.66028267 0.0012224524
0.019521523 0.0057478179 0.0094527351 0.16249007 -0.75026119 0.64086282 0.00057843176
0.0049130595 0.0060854307 0.011908928 0.050689433 -0.51285094 0.85697991 0.00077758293
0.013976427 0.0068505751 0.011755634 0.10376171 -0.63210481 0.76790434 0.0012994963
0.015993526 0.0067755282 0.011375075 0.11962502 -0.64043713 0.75863707 0.00088855042
0.019219793 0.0073894532 0.011313275 0.15104525 -0.64636892 0.7479254 0.0019113157
0.022510227 0.0075382069 0.010600401 0.18063879 -0.67072976 0.71936864 0.00096910476
0.025997296 0.0079717608 0.010060322 0.18607417 -0.68103725 0.70821232 0.00041720169
0.028643316 0.0084153805 0.0098135471 0.19845743 -0.6692555 0.71603894 0.00031049835
0.031277299 0.0086232349 0.009437318 0.20846871 -0.68023509 0.70272398 0.0010296432
0.033492088 0.0089602079 0.0091761723 0.23929645 -0.71635038 0.65542299 0.0017548203
0.02343205 0.0091800382 0.01194899 0.17745882 -0.5860725 0.79058683 0.0023674509
0.026274633 0.0095811114 0.011624595 0.18139718 -0.64330614 0.74380928 0.0014572791
0.02897778 0.0098287268 0.011015175 0.19963187 -0.64671355 0.73614448 0.00065472606
0.031587474 0.010496883 0.010894734 0.19980459 -0.63050628 0.7500267 0.00036756136
0.034449659 0.010704579 0.010342019 0.21979693 -0.64383316 0.73291755 0.0008681888
0.037318338 0.011205127 0.0099525647 0.23805925 -0.65136325 0.72045392 0.0014219029
0.039528452 0.011350786 0.0092751123 0.27602762 -0.6477468 0.71009356 0.0012627292
0.034936614 0.012546064 0.011649366 0.2066863 -0.5946086 0.77699512 0.00062404625
0.037875921 0.013049749 0.011272034 0.22256128 -0.58215672 0.78202301 0.00046559566
0.040656909 0.013455959 0.010713087 0.25104293 -0.59184033 0.76596504 0.00068663759
0.043428555 0.013979398 0.010073332 0.29735658 -0.6202184 0.72588444 0.0017262842
0.045673124 0.014558323 0.009542427 0.34699428 -0.64018959 0.68538469 0.0020441725
0.041674454 0.015273288 0.011784578 0.2496177 -0.58035737 0.77516216 0.00089666928
0.043745693 0.01586483 0.011469197 0.28001446 -0.5578925 0.78124762 0.00093579106
0.046557203 0.016413089 0.010728646 0.32983625 -0.5837006 0.74195796 0.0019509532
0.049259823 0.017046638 0.0098751597 0.39970088 -0.60826612 0.68574882 0.0018335376
0.05129756 0.017765556 0.0092877196 0.43444607 -0.6399523 0.63381207 0.0044351402
0.047502909 0.018209238 0.011704235 0.320887 -0.54111314 0.7773211 0.0011685963
0.049799763 0.019139946 0.011303738 0.35592577 -0.52130497 0.77560169 0.0013414007
0.052235648 0.019338807 0.010166029 0.4495866 -0.61129564 0.65129834 0.0019234555
0.054794643 0.020430928 0.0094473558 0.5021314 -0.60738456 0.61558759 0.0014814949
0.053059075 0.021872133 0.01153229 0.37813479 -0.46867734 0.79834557 0.0014109209
0.055612888 0.0224905 0.010519382 0.47199965 -0.52614778 0.7073788 0.0022512877
0.057782758 0.023286907 0.0096439943 0.52857572 -0.54270011 0.65275139 0.0026467775
0.056440342 0.024827892 0.011528068 0.44544941 -0.43800199 0.78085154 0.0021646218
0.059223182 0.025738686 0.010328582 0.52293885 -0.42276913 0.74013597 0.0030711971
0.060737409 0.026126098 0.0093777981 0.57120401 -0.4850764 0.6621381 0.0020552492
-0.012381259 0.029879935 0.011875636 0.19583511 0.71259964 0.67368418 0.002945014
-0.010259917 0.02960648 0.011624939 0.17645976 0.71185219 0.67980021 0.00064762123
-0.0073782173 0.029260689 0.01131425 0.14395441 0.73531824 0.66225684 0.0014514573
-0.0044179293 0.029123487 0.010903551 0.11338376 0.76621312 0.63250428 0.001234743
-0.0015069497 0.028907789 0.010696805 0.085734062 0.75776213 0.64687419 0.0019889057
0.00145947 0.028814353 0.010496799 0.054181393 0.75976515 0.64793622 0.0018946256
0.0044808281 0.028757667 0.010434119 0.014040858 0.75647461 0.65387243 0.0025051653
0.0073646493 0.02873902 0.010454808 -0.029618392 0.76142597 0.64757478 0.0026187073
0.01050127 0.028796013 0.010575186 -0.068988681 0.74055785 0.66844195 0.0025070247
0.013527836 0.028940095 0.010807669 -0.10880433 0.72776133 0.67714477 0.0019166523
0.016403168 0.029172219 0.011106261 -0.14984283 0.6823405 0.71551281 0.0018575378
0.019271327 0.029475544 0.01149541 -0.17257454 0.68718863 0.70568389 0.0017716433
0.021805067 0.029868321 0.011771778 -0.18684731 0.68337941 0.70574826 0.0019454209
0.059194673 0.028124873 0.01163563 0.47808504 -0.37817618 0.79272783 0.0020619531
0.061779208 0.028990982 0.010315509 0.56438279 -0.38973862 0.72771966 0.0021636062
0.063257083 0.029123804 0.0091844602 0.63223797 -0.42317703 0.64899641 0.0020205833
-0.021617109 0.032830641 0.011826202 0.27093989 0.68813205 0.6731016 0.0015906435
-0.019247172 0.032536607 0.011365603 0.25642368 0.73792201 0.62427402 0.0010584568
-0.01645094 0.032090914 0.010760575 0.24010822 0.77075684 0.59015423 0.0011512991
-0.013624366 0.031498827 0.010436691 0.21079294 0.77541822 0.59522504 0.001774226
-0.010608301 0.030920481 0.010198975 0.18376794 0.77075082 0.61005944 0.0015762738
-0.0076261354 0.030551743 0.0098432312 0.14879236 0.77981389 0.60807174 0.0014976776
-0.0047488036 0.030342905 0.0094767949 0.11501661 0.79007763 0.60212004 0.0013445308
-0.0017423145 0.030121354 0.0092267552 0.086626321 0.788876 0.60841638 0.0012886446
0.00099741132 0.030101925 0.0090041617 0.049897041 0.7862922 0.61583674 0.0011886936
0.011075445 0.03009139 0.0091216182 -0.082134448 0.79285496 0.60385007 0.0024858685
0.013710512 0.030301576 0.0092746075 -0.11608942 0.7863183 0.60681689 0.0017749792
0.01660303 0.030505396 0.0096743274 -0.16478531 0.75720674 0.63204718 0.001829009
0.019468898 0.030975401 0.009951381 -0.19924322 0.75768006 0.62146854 0.0019087738
0.022576079 0.031391516 0.010430407 -0.20790154 0.73175639 0.64908361 0.0025229184
0.025528485 0.031971704 0.010789899 -0.22902781 0.71333319 0.66234583 0.002024611
0.028434582 0.032430623 0.011295538 -0.22905584 0.66618884 0.70973653 0.0023186323
0.030723762 0.032650035 0.011851421 -0.2351688 0.63259763 0.73791313 0.0021710093
0.059654836 0.030010067 0.011991637 0.47453418 -0.35643914 0.80484068 0.0020371296
0.061942704 0.031486101 0.011311168 0.52292985 -0.30144489 0.79729247 0.001149285
0.064280055 0.031895015 0.0097559514 0.62764406 -0.34329218 0.69872266 0.0016120368
-0.027746646 0.035656266 0.011586735 0.30962873 0.69830567 0.64536762 0.0013718753
-0.025246719 0.035220288 0.010865645 0.31039599 0.75404811 0.57884854 0.0013594227
-0.022513641 0.03448369 0.010390771 0.28563622 0.76913989 0.57169563 0.0014281957
-0.01963941 0.033746913 0.010002284 0.26903376 0.77604485 0.57041663 0.0013790136
-0.017087528 0.0333005 0.0094095049 0.24587134 0.79400444 0.5559715 0.0010641725
-0.014988426 0.033033244 0.0090219751 0.24660499 0.79777294 0.5502221 0.0026829201
0.026082169 0.033331726 0.0094347792 -0.23677105 0.75150543 0.61577523 0.0013408038
0.028786395 0.033898119 0.0098296367 -0.25721872 0.73631763 0.62583929 0.0017505611
0.031519208 0.03430343 0.010455539 -0.26189682 0.71413845 0.64916581 0.0026276277
0.034365125 0.034898762 0.011019902 -0.29057962 0.66011357 0.69268578 0.0030816833
0.036965862 0.035580795 0.011524222 -0.30873802 0.63570011 0.70750707 0.0023391389
0.062711008 0.0337779 0.011577265 0.52773577 -0.22844218 0.81811309 0.0016328105
0.064601451 0.034657527 0.010489945 0.58355552 -0.22823124 0.77934176 0.0018522351
0.066261306 0.034851436 0.0092051439 0.65187132 -0.25655964 0.71361119 0.001876569
-0.03394087 0.03858849 0.011497469 0.32734263 0.68348604 0.65245205 0.00096796546
-0.031295847 0.037998833 0.010712181 0.34093937 0.74423593 0.57434589 0.0012608931
-0.028585052 0.037124034 0.010254415 0.32742414 0.75821656 0.56382722 0.0017679246
-0.025926575 0.036456496 0.009583273 0.32335722 0.76860046 0.55199045 0.0012091262
-0.023802437 0.036001753 0.0090301856 0.32794338 0.78011042 0.53280461 0.00093803933
0.034835283 0.036509275 0.0094770035 -0.32485369 0.73597938 0.59397346 0.0020349382
0.03761005 0.037161771 0.010265568 -0.35077408 0.68862623 0.63462698 0.0026191126
0.040410675 0.037872516 0.011084424 -0.34002882 0.61711675 0.7096107 0.0024611719
0.042529009 0.038486525 0.011570527 -0.324913 0.61069441 0.7221384 0.0022719407
0.062711254 0.036213182 0.011933781 0.5084964 -0.11285218 0.85363686 0.0028353634
0.064707488 0.037484661 0.011068936 0.54471302 -0.13257495 0.82807708 0.0018527796
0.066752359 0.037832934 0.0096210977 0.65947133 -0.16867754 0.73256093 0.002164359
-0.042166241 0.041840553 0.011907905 0.30762613 0.65105146 0.69390064 0.0023648883
-0.039942876 0.04151506 0.011442418 0.32257053 0.68176579 0.65661532 0.0012520129
-0.037343305 0.040880948 0.010712444 0.3439047 0.7240116 0.59794372 0.0013531898
-0.034652881 0.040035676 0.010148232 0.35167608 0.74309367 0.56932926 0.0014427948
-0.032285985 0.039403055 0.0094791325 0.36322507 0.75837493 0.54123461 0.0011036854
0.040887251 0.039568581 0.0096708816 -0.3972213 0.69438803 0.60003376 0.0016726588
0.043600373 0.040480576 0.010303549 -0.37559193 0.64511049 0.66540444 0.0020334104
0.04621461 0.040914807 0.011219483 -0.3152698 0.57784957 0.7527914 0.0013769702
0.048737571 0.041484226 0.011781226 -0.25764361 0.5587523 0.7882992 0.0019587236
0.064629182 0.040584344 0.01141173 0.4720082 -0.0029214188 0.88158929 0.0034218077
0.066984169 0.04063097 0.0098580495 0.62033468 -0.070545211 0.78115833 0.0031666618
-0.06651219 0.044501364 0.0097466698 -0.41337475 0.16235682 0.89596969 0.0015949969
-0.063389525 0.044055708 0.011614403 -0.27922976 0.26568046 0.9227376 0.0029054028
-0.0629256 0.044001415 0.011878797 -0.21063986 0.31101125 0.92677015 0.0020472463
-0.048372831 0.044861276 0.011832709 0.22752909 0.64153087 0.73257673 0.0021855501
-0.046097752 0.044406682 0.011420702 0.29446062 0.6621508 0.68909299 0.0012129402
-0.043319106 0.043821096 0.01067079 0.32979608 0.7066139 0.62604421 0.001511178
-0.040654752 0.042994302 0.010134052 0.35590866 0.72294033 0.5921877 0.0016061096
-0.038239878 0.042375263 0.009399225 0.37625384 0.73957998 0.55808103 0.0014032866
0.044689752 0.042163529 0.0092268009 -0.40437075 0.67627305 0.61574274 0.0015026673
0.046685223 0.042837009 0.0097481571 -0.38043866 0.65545744 0.65241241 0.002280242
0.049367342 0.043453932 0.010466754 -0.31781277 0.60915184 0.72658736 0.0020307763
0.052315414 0.04394798 0.011245359 -0.24160734 0.52747691 0.81449008 0.00157398
0.054987129 0.044529445 0.011625079 -0.18720569 0.48554105 0.85393441 0.0027112043
0.058159005 0.04485707 0.011876629 -0.042627163 0.40819225 0.91190022 0.0041817767
0.062165089 0.044391729 0.011887016 0.1883768 0.23282552 0.95409977 0.0082550803
0.064446889 0.043822512 0.011316293 0.36696711 0.15416802 0.91736978 0.005301794
0.067139529 0.043642256 0.0098705692 0.58152044 0.038568318 0.812617 0.0046620122
-0.066076785 0.046729293 0.0099109495 -0.37322682 0.22037351 0.90118659 0.004817599
-0.064362235 0.046939876 0.010719863 -0.25050828 0.32794273 0.91087824 0.002439741
-0.061237562 0.047036644 0.011693568 -0.1255507 0.4060311 0.90519381 0.0031813178
-0.057998709 0.047502428 0.011813812 0.038624965 0.52058303 0.85293692 0.0019004848
-0.055336107 0.047432464 0.01163895 0.12248976 0.56374168 0.816818 0.0023076576
-0.052258436 0.047188338 0.011159557 0.22006176 0.62628883 0.74788707 0.0013529618
-0.049425811 0.046731818 0.010547314 0.27395457 0.65838432 0.70105565 0.0010750532
-0.046705037 0.046019781 0.010036129 0.33582175 0.70836616 0.62083906 0.0013656672
-0.044231266 0.045377642 0.0094276117 0.36736459 0.7178672 0.59136283 0.0015912722
0.050519347 0.045444183 0.009275049 -0.36236003 0.66003275 0.65806681 0.002389193
0.052773807 0.046073511 0.0097965468 -0.30567202 0.61339772 0.72822237 0.0022423216
0.05549892 0.046502359 0.010471456 -0.24571374 0.54981732 0.79832679 0.0020499052
0.058547374 0.046483915 0.011167431 -0.084752172 0.44140273 0.89329767 0.003547396
0.061486945 0.046532214 0.01128349 0.064739898 0.36807567 0.92753923 0.0054135816
0.064628966 0.04652527 0.010732111 0.32697847 0.24353153 0.91311419 0.0069057434
0.067127906 0.046488453 0.0096379668 0.52105618 0.13210954 0.84323627 0.005627227
-0.066369854 0.049339194 0.0092920978 -0.2451039 0.34718853 0.90519845 0.0041132909
-0.063778169 0.049862608 0.0099830981 -0.062151659 0.51639628 0.85409129 0.0020249074
-0.061454006 0.049804553 0.010348568 -0.023314249 0.54178464 0.84019387 0.002540214
-0.058452241 0.049631137 0.010442339 0.097618289 0.60318631 0.79160404 0.0021542618
-0.055396568 0.049423266 0.010115202 0.20296098 0.66310918 0.7204811 0.0019924052
-0.052633796 0.048801411 0.0098080207 0.26792982 0.69043738 0.6719448 0.0019263016
-0.050214544 0.048304752 0.0093315048 0.32315508 0.70247585 0.6341123 0.0018117394
0.056443516 0.048418544 0.0093953088 -0.27503577 0.60239303 0.7493183 0.0022941327
0.058718029 0.048883896 0.0097438069 -0.18814903 0.55725235 0.8087458 0.0043112435
0.061563794 0.049432505 0.0098801926 -0.061078589 0.46468097 0.88336909 0.0056287278
0.064429969 0.049502559 0.0097975228 0.15463705 0.35258827 0.92291319 0.0083410749
0.066670872 0.049110521 0.0093241641 0.42525268 0.25391492 0.86872751 0.0064819832
-0.063932247 0.051221024 0.009274357 -0.022243483 0.54710829 0.83676624 0.0041977949
-0.061481349 0.051406659 0.0093138469 0.048916269 0.63087136 0.77434391 0.0028358679
-0.058763348 0.051255912 0.0092306603 0.1223032 0.67545921 0.72718412 0.0025820187
-0.056710467 0.051093243 0.0090757012 0.19240043 0.68658519 0.70112967 0.0025816259
0.062797114 0.051188797 0.0090449806 -0.13161318 0.48543042 0.86431205 0.0087739266
0.064046763 0.051087908 0.009155767 0.058429357 0.42637789 0.90265602 0.0085986955
-0.010056426 0.0089528821 0.014230975 -0.010752195 -0.45134345 0.89228553 0.00064584037
-0.0071272207 0.008257146 0.013781864 -0.0058087893 -0.50037152 0.86579126 0.00045308392
-0.0044112047 0.008141432 0.01374276 0.0020625291 -0.49358115 0.86969733 0.00069046736
-0.001721553 0.007806988 0.013509748 0.021372199 -0.52885354 0.84844398 0.00087088754
0.0013965892 0.0077159898 0.013366964 0.041118845 -0.54218948 0.83924949 0.001105282
0.0049019195 0.0077634989 0.013262687 0.053722229 -0.55365109 0.83101404 0.001459202
0.0077144392 0.0078914165 0.013181401 0.058580253 -0.54026866 0.83945107 0.0016527965
0.010561815 0.0078410683 0.0129358 0.066300534 -0.55173135 0.83138245 0.0017212213
0.013308084 0.0080554336 0.01281278 0.090741903 -0.55036521 0.82997835 0.0021003378
0.016283058 0.0085087493 0.012782251 0.10705416 -0.57263392 0.81279135 0.0014348688
0.018743433 0.0083506582 0.012288468 0.13911979 -0.61430538 0.77670747 0.0016004731
0.02136318 0.0087665068 0.012198231 0.16917044 -0.66962326 0.72317779 0.0015518294
-0.018777523 0.010910209 0.014606277 -0.056842197 -0.41482565 0.90812373 0.0016813424
-0.014648188 0.010340612 0.014696373 -0.054755226 -0.46354493 0.88437998 0.00042459546
-0.01087064 0.0099843796 0.014713098 -0.010575853 -0.46131045 0.8871758 0.001146437
-0.0075220927 0.0093807131 0.0144757 -0.0089211268 -0.46983302 0.88271028 0.0014631579
-0.0044367108 0.0098588858 0.01483704 0.002231668 -0.4617047 0.8870309 0.0016408303
-0.0016255442 0.0093544163 0.014524022 0.024721744 -0.4572989 0.88896942 0.0018613767
0.0013139038 0.0097962199 0.014684662 0.02179179 -0.43784398 0.89878684 0.0017933792
0.0044943583 0.0099516064 0.014629497 0.043899033 -0.44985938 0.89201987 0.0018483568
0.0076889601 0.010192584 0.014565201 0.056899238 -0.45223638 0.89008129 0.0017273566
0.010487197 0.010174979 0.014377418 0.06582129 -0.44662377 0.89229751 0.0017776173
0.01349211 0.010578835 0.014322193 0.079716437 -0.45875028 0.88498217 0.0011509813
0.016471226 0.010696186 0.014089447 0.095498592 -0.47467771 0.87496346 0.0014090212
0.019418672 0.010436091 0.013584989 0.12140856 -0.49307284 0.86147499 0.00093263248
0.022421304 0.010616172 0.013238562 0.14160235 -0.53702569 0.83159614 0.0025977017
0.025329657 0.010870105 0.012867114 0.17228052 -0.54029524 0.82365072 0.0019349698
0.028284896 0.011326918 0.012548099 0.18081069 -0.59765112 0.78110218 0.0018135428
0.030696588 0.011822662 0.012360167 0.19927372 -0.60597849 0.77011698 0.00053547503
0.014836556 0.012051982 0.014830442 0.082380228 -0.40585575 0.91021681 0.0012506759
0.017006988 0.012440057 0.014859742 0.085998125 -0.33138517 0.9395681 0.0019418354
0.019597761 0.012690003 0.014698751 0.10385287 -0.36333296 0.92585301 0.0020911787
0.022505606 0.013161854 0.014564596 0.11720651 -0.39677149 0.91040379 0.0017097229
0.025109841 0.013808093 0.014504775 0.11436863 -0.34745237 0.93069685 0.0012157537
0.028378807 0.01385839 0.014053638 0.12849972 -0.38068536 0.9157328 0.0020320704
0.031593174 0.013624083 0.013316719 0.18220718 -0.51184863 0.83953053 0.0019579586
0.034313507 0.013890536 0.012824898 0.19437745 -0.54579061 0.81506443 0.00095727399
0.037131436 0.014374932 0.012387033 0.21217218 -0.55221611 0.80625081 0.00043891516
0.039663088 0.01472376 0.012055919 0.23651607 -0.57363951 0.78421807 0.00076792436
0.026244009 0.0153055 0.014897184 0.10011544 -0.26661405 0.95858949 0.0021115076
0.028673811 0.015605503 0.014787236 0.12223522 -0.32285625 0.93852139 0.0026016762
0.03149844 0.016146677 0.014627679 0.14077298 -0.37957698 0.9143874 0.0026185701
0.034141514 0.016538726 0.014396532 0.13440733 -0.35851049 0.92379922 0.0016066144
0.037540227 0.016483381 0.013643082 0.19939385 -0.46051219 0.8649686 0.001273674
0.040433004 0.016703624 0.012993839 0.2234509 -0.50087142 0.83618033 0.00058366638
0.043306246 0.017211612 0.012500683 0.25724217 -0.51335883 0.81871188 0.0012100162
0.045408688 0.017774317 0.012199758 0.29592165 -0.53714842 0.78987461 0.0013675551
0.035184737 0.018228723 0.014928676 0.099404044 -0.25301605 0.96234179 0.0018947363
0.03769204 0.018731888 0.01472629 0.17067736 -0.3397018 0.92491728 0.0034614988
0.040661536 0.019432137 0.01440684 0.20375168 -0.39854822 0.89422852 0.0014236043
0.043541387 0.019516364 0.013673513 0.23555495 -0.42195329 0.87548232 0.00080071174
0.046462268 0.019619528 0.012866072 0.27559948 -0.45659542 0.84591109 0.0011134779
0.048920535 0.020196285 0.01236173 0.32966626 -0.47925577 0.81340891 0.0017585452
-0.0038226871 0.02384178 0.014916847 0.095650911 0.49447235 0.86391437 0.0015494497
-0.0010855132 0.023761492 0.014786679 0.071813054 0.4721238 0.87860239 0.0020883242
0.0014615961 0.023640253 0.014692141 0.048924387 0.4629595 0.88502818 0.0018543138
0.004336339 0.023514489 0.014650534 0.020706547 0.4602336 0.88755643 0.0019469301
0.0073905471 0.023462465 0.014632964 -0.0073152436 0.47464466 0.8801471 0.0018739554
0.0103233 0.023380782 0.014714728 -0.033745833 0.44642457 0.89418477 0.0019754509
0.013371956 0.023429137 0.014807871 -0.052358568 0.40973988 0.91069853 0.0022287203
0.016070236 0.023778034 0.014835523 -0.07770513 0.39117715 0.91702908 0.0017525301
0.018441176 0.023858294 0.014930937 -0.085497655 0.31909257 0.94385916 0.0024446792
0.041481316 0.021233588 0.014885156 0.15448859 -0.23690766 0.95917052 0.0043118983
0.043708038 0.021918019 0.014725782 0.20278406 -0.2905646 0.93512082 0.0024373333
0.04604521 0.022197945 0.014210239 0.23641743 -0.33284849 0.9128629 0.00078430976
0.049399976 0.022610685 0.013355374 0.29120696 -0.37735972 0.87908936 0.00060782023
0.052248001 0.023139603 0.012607497 0.33599862 -0.39242536 0.85621685 0.0011764419
0.054127537 0.02371243 0.0121154 0.38627136 -0.40128604 0.83052033 0.001761368
-0.015346481 0.02674016 0.014962295 0.19856308 0.54299945 0.81591934 0.0019544016
-0.012945835 0.02653067 0.014767298 0.17129405 0.50935245 0.84333766 0.0019257726
-0.010345067 0.026156653 0.014522163 0.1509358 0.53595531 0.83064455 0.0013890334
-0.0074323146 0.025812101 0.014253721 0.13151659 0.53844255 0.83233595 0.0011696059
-0.0045098169 0.025642881 0.01395723 0.10188304 0.54511929 0.83214468 0.0010636722
-0.0015744921 0.025615871 0.013642522 0.075973079 0.56936526 0.81856662 0.0017739242
0.0014565473 0.025668243 0.013374038 0.048964862 0.56884825 0.82098359 0.0013985017
0.0045377845 0.025581058 0.013299878 0.022688609 0.57290256 0.81930941 0.0017765164
0.0075070127 0.025613856 0.013274278 -0.0061665154 0.57348096 0.81919569 0.0017906058
0.010499266 0.02565041 0.013352017 -0.043644261 0.56505477 0.82389826 0.0019457756
0.013396586 0.025591306 0.013609677 -0.077891745 0.53568602 0.84081703 0.0018951235
0.016543845 0.025679918 0.013868128 -0.099825956 0.50045234 0.8599897 0.0014257474
0.019355796 0.025758978 0.014214771 -0.11693761 0.48807621 0.86493194 0.0017410687
0.022400258 0.026171835 0.014431989 -0.12871666 0.43738952 0.89001262 0.0019376689
0.025231622 0.026279306 0.014764022 -0.13012627 0.40637144 0.90439451 0.0021401346
0.027916372 0.026800942 0.014895475 -0.10861606 0.35323444 0.92920828 0.0040876251
0.047176436 0.024580337 0.014799055 0.20380919 -0.24141499 0.94877845 0.0026078068
0.049547572 0.025559686 0.014449373 0.25898525 -0.2848956 0.92290902 0.001780257
0.05250727 0.025513357 0.013477738 0.32249853 -0.33652994 0.88472724 0.00064178783
0.055689748 0.026002046 0.012476324 0.40635341 -0.38482168 0.82872748 0.0016120173
0.05728218 0.026941892 0.012200168 0.45278439 -0.40366751 0.79500872 0.002029473
-0.021683833 0.029779971 0.014710821 0.21944256 0.57904369 0.78520912 0.0013412284
-0.019290954 0.029245932 0.014414894 0.21241587 0.55647707 0.80325145 0.0014607164
-0.016440757 0.028830823 0.013949076 0.20351884 0.58936435 0.78181177 0.0014824489
-0.013521085 0.028515484 0.013434729 0.19197576 0.60539603 0.77242541 0.0010801966
-0.010464349 0.028255904 0.012969763 0.16242576 0.663432 0.7303943 0.0014523976
-0.0077334065 0.027932076 0.012690798 0.13956435 0.67787182 0.72181129 0.0013801621
-0.0046311007 0.027578328 0.012494055 0.1074233 0.67687315 0.72821903 0.0014652961
-0.0015613958 0.027376141 0.012278534 0.077769727 0.68851304 0.7210421 0.0014907361
0.0014572568 0.027227452 0.012146557 0.047058411 0.66407537 0.74618322 0.0015573349
0.004427311 0.027127817 0.01210533 0.013055113 0.66260314 0.74885684 0.0018319387
0.0077053518 0.027175618 0.012071527 -0.017080385 0.66725934 0.74462956 0.0014246628
0.010262976 0.027262181 0.012099748 -0.055349737 0.67492092 0.73581129 0.0018670652
0.013688063 0.027323462 0.01238355 -0.08702594 0.64497256 0.75923443 0.0017082575
0.016721956 0.027724847 0.012494842 -0.12571365 0.63726902 0.76031846 0.0019488854
0.019691888 0.028097404 0.012755009 -0.15519248 0.61016154 0.77692872 0.0018766642
0.022581587 0.028499074 0.013033931 -0.16720082 0.58286071 0.79518372 0.0020140023
0.025442071 0.02864348 0.013512009 -0.15795384 0.51411575 0.84305131 0.0015104283
0.028364573 0.028802037 0.013981274 -0.15619461 0.48612571 0.85981691 0.0020285307
0.031400967 0.028874032 0.01447346 -0.15125746 0.4242405 0.89282763 0.0024062945
0.034187466 0.029321056 0.014698127 -0.14189012 0.35531944 0.92391306 0.0031490955
0.036870196 0.029736424 0.014891739 -0.12906615 0.31587189 0.93998235 0.0024078696
0.050456598 0.02772853 0.014814608 0.20891532 -0.16371626 0.96413243 0.0028738386
0.052937016 0.028323406 0.014313877 0.27295476 -0.15752378 0.94904268 0.0045819175
0.055339035 0.028677538 0.013567337 0.34642446 -0.24328575 0.90598136 0.004594347
0.057709891 0.028975619 0.012742884 0.42715889 -0.32562253 0.84350765 0.0018534278
-0.055268761 0.032448996 0.014815375 -0.27781647 -0.022929141 0.96036047 0.0012521138
-0.030213326 0.032713618 0.014938821 0.24226427 0.54800898 0.80062109 0.0014750131
-0.027978374 0.032498542 0.01459797 0.25449806 0.60552204 0.75403833 0.0012553991
-0.025335832 0.031990621 0.014101496 0.24452811 0.5928272 0.76730818 0.0011598677
-0.022427186 0.031688992 0.013376392 0.25057754 0.64936757 0.71800607 0.0012001341
-0.019631939 0.031167196 0.012910714 0.24163157 0.68266135 0.68962866 0.0011820766
-0.016752053 0.030561047 0.012571243 0.22434154 0.68768853 0.69047475 0.0011930744
-0.014496827 0.030143885 0.012283978 0.18825647 0.69182879 0.69708854 0.0012673426
0.023993604 0.030162364 0.012136497 -0.20662853 0.63510239 0.74427795 0.0021001825
0.025942815 0.030543854 0.012281922 -0.193848 0.64074415 0.74287945 0.0018372559
0.028559288 0.030949639 0.012615507 -0.20058127 0.61279804 0.76435965 0.002245107
0.031544667 0.031488001 0.012990586 -0.20842059 0.57839549 0.7886821 0.001990838
0.034316789 0.031652521 0.013540318 -0.20316969 0.51272911 0.8341648 0.0023819334
0.037267078 0.031640418 0.014193266 -0.16585594 0.41528144 0.89444572 0.0022138134
0.040071946 0.031843144 0.014612696 -0.16322713 0.36623436 0.9160946 0.0021465928
0.042876102 0.032368239 0.01484335 -0.14581184 0.3262243 0.93397886 0.0020725138
0.04599911 0.032902945 0.014949503 -0.064158015 0.19863932 0.97797048 0.002026605
0.052852537 0.031653751 0.014813315 0.14671309 -0.026558254 0.98882246 0.0031842676
0.055412848 0.031834099 0.014262944 0.25670129 -0.11083023 0.96011519 0.0029814239
0.058844741 0.031718403 0.012992213 0.37922966 -0.20609008 0.90205967 0.0017398215
0.060627826 0.032268416 0.012319878 0.46990117 -0.24109781 0.84915531 0.0019211748
-0.056253076 0.034714058 0.014798183 -0.27249306 -0.0038505991 0.9621501 0.0021132983
-0.036546439 0.035837241 0.014852107 0.2390143 0.5520978 0.7987867 0.00082184328
-0.034108583 0.035445213 0.014442057 0.25927275 0.57423794 0.77654898 0.0011839968
-0.031305674 0.034774181 0.013964356 0.27926809 0.60344934 0.74689901 0.0010977517
-0.028592542 0.034458026 0.013174907 0.2860693 0.65018463 0.70386386 0.001777193
-0.025668666 0.033777084 0.012670037 0.28018337 0.68912786 0.66828144 0.0010819129
-0.023400925 0.033205848 0.012310226 0.26675206 0.7039566 0.65824652 0.00080623757
0.03221152 0.033066131 0.012013787 -0.24505046 0.69299138 0.67802161 0.0011891342
0.034999855 0.03352192 0.012483158 -0.24195105 0.61032939 0.75429285 0.0024005806
0.037792206 0.034345344 0.01278986 -0.26026636 0.55558944 0.78967196 0.0028980633
0.040449727 0.034545626 0.013459589 -0.23781413 0.47554529 0.84693629 0.0025950745
0.043299519 0.0345015 0.014134673 -0.17163144 0.39451 0.90272057 0.0020584033
0.046283279 0.03476971 0.014511845 -0.13773347 0.33894193 0.93067062 0.0019877404
0.049180474 0.035144366 0.014677232 -0.047901969 0.24306674 0.96882606 0.0024445902
0.052555114 0.034273643 0.014856143 0.043845091 0.13694219 0.98960823 0.0041488097
0.055682044 0.03479423 0.014421867 0.2022085 0.0059395079 0.97932446 0.005455099
0.058486786 0.03451426 0.013631814 0.31531155 -0.07960397 0.94564354 0.0028188319
0.061350077 0.034806579 0.012518928 0.44594538 -0.14442998 0.88333046 0.0018496377
-0.058125854 0.037879627 0.014245676 -0.27802911 0.071691461 0.95789361 0.0013687948
-0.056517132 0.03762231 0.014867885 -0.1784268 0.1610416 0.97068506 0.0023336231
-0.04514141 0.038918797 0.014980813 0.14733997 0.50478792 0.85057634 0.0038708358
-0.042941492 0.038647965 0.014837369 0.19396617 0.502487 0.84254616 0.0018304661
-0.040306389 0.038214661 0.014405644 0.24312852 0.55008161 0.79893595 0.0013669736
-0.037490543 0.037774105 0.013807212 0.27071032 0.59712005 0.75509185 0.00087263616
-0.034581766 0.037336156 0.013051145 0.30232093 0.65010691 0.69711047 0.0014007088
-0.031829871 0.036552794 0.012616206 0.3110266 0.67502546 0.66903144 0.0013869995
-0.029758459 0.036086138 0.012184971 0.30878273 0.67728746 0.66778356 0.0014608316
0.040888939 0.036452178 0.012429541 -0.28370085 0.56852663 0.77219898 0.0028531235
0.0434062 0.037332077 0.01270632 -0.25361314 0.51256269 0.82034135 0.0026021702
0.046464223 0.037723236 0.013324825 -0.20534636 0.42881471 0.87974477 0.0019602529
0.049503531 0.037466921 0.013999392 -0.12551312 0.34924898 0.92858583 0.0020579465
0.052495245 0.037654262 0.014222253 -0.047988318 0.28014195 0.95875835 0.003215784
0.055373933 0.03721806 0.014259848 0.093454123 0.15596452 0.9833318 0.0065207728
0.058399234 0.03756674 0.013739151 0.24908006 0.043708201 0.9674961 0.0047537601
0.06159234 0.037741408 0.012737461 0.39459831 -0.056076672 0.91714096 0.0030958946
0.063328944 0.037803285 0.012023381 0.50851804 -0.11084884 0.85388637 0.0030178658
-0.060529873 0.041295059 0.013181523 -0.23054735 0.22673589 0.94627625 0.0011979432
-0.058216162 0.040812373 0.014075898 -0.16787006 0.26188105 0.95038831 0.0011642276
-0.055120528 0.041191887 0.014645474 -0.050285675 0.35082689 0.93508917 0.0025416452
-0.052309498 0.041414458 0.014707127 0.051206097 0.41888109 0.90659612 0.0023232279
-0.049237959 0.041317813 0.014506114 0.13258339 0.48675144 0.86342037 0.0019179772
-0.046299983 0.040877111 0.014206424 0.18276052 0.52359706 0.83213264 0.0011869801
-0.043325979 0.040746141 0.013470783 0.25587377 0.58724183 0.76790345 0.0011814237
-0.040612478 0.040216044 0.012957972 0.29391479 0.64057779 0.70941824 0.0011453993
-0.037857901 0.039516468 0.012464945 0.3095811 0.6714142 0.67332202 0.0011733179
0.044748697 0.039038386 0.012101738 -0.33493757 0.59313738 0.73212361 0.0016090405
0.047080986 0.039626211 0.012460567 -0.24694689 0.51341474 0.82184088 0.0027516212
0.049613666 0.040222704 0.012777493 -0.19239493 0.46289018 0.86528426 0.00284378
0.052402627 0.040644191 0.013104813 -0.15640692 0.41582468 0.89589435 0.0024575209
0.055555493 0.040406894 0.013502426 -0.032412667 0.32373154 0.9455936 0.0032503619
0.058704112 0.040531788 0.013319341 0.12839961 0.19862792 0.97162777 0.0045252815
0.061618686 0.04049072 0.012673247 0.27768907 0.10017342 0.95543402 0.0041297125
0.063296512 0.040549852 0.012059391 0.43216154 0.011334261 0.90172499 0.0033304882
-0.061146174 0.043434888 0.012661266 -0.21161392 0.28677896 0.93433261 0.002466606
-0.058060974 0.044237107 0.013291392 -0.049007941 0.40541953 0.91281611 0.001942059
-0.055220257 0.043806821 0.013680195 0.03456872 0.45592436 0.88934696 0.0014170439
-0.052344181 0.043654401 0.013595542 0.10380983 0.49655819 0.86177343 0.0015233053
-0.049456492 0.043642309 0.013109776 0.1966455 0.56322503 0.80256343 0.0021039734
-0.046691157 0.043034624 0.01280819 0.24995373 0.60855877 0.75311321 0.0017856178
-0.044049535 0.042432427 0.012380575 0.29086071 0.64778322 0.70411438 0.001634175
0.052968655 0.042591952 0.012268361 -0.19165739 0.48846105 0.85127741 0.0027640203
0.055623475 0.043084759 0.012484582 -0.10780873 0.42165035 0.90032673 0.0032486741
0.058462679 0.043400217 0.012547517 0.013620103 0.33495229 0.94213665 0.0041547995
0.061206006 0.0431372 0.012401757 0.16370153 0.25604823 0.95270199 0.0068175197
0.063339785 0.042425994 0.012017739 0.31581184 0.1285006 0.94008005 0.0044955979
-0.060618617 0.045803867 0.01227375 -0.13731463 0.39901331 0.90660518 0.003126292
-0.058319524 0.046316341 0.012397756 -0.011350155 0.48056149 0.87688756 0.0025655469
-0.055413812 0.045899726 0.012612936 0.081678934 0.51721591 0.85194844 0.0020030502
-0.052538395 0.045586266 0.012446388 0.16752401 0.58171308 0.79595584 0.0022318012
-0.050522815 0.045209207 0.012242248 0.20530012 0.60512418 0.76920515 0.001979318
0.060068477 0.045070425 0.012061166 -0.053648945 0.46185815 0.88532984 0.0030762278
-0.018983506 0.011665718 0.015062084 -0.056844182 -0.41482642 0.90812325 0.0016812175
-0.017122805 0.01166213 0.015410016 -0.023503622 -0.35102525 0.93607098 0.00082858437
-0.013358698 0.011424674 0.015511174 -0.041291703 -0.3950595 0.91772705 0.0017934487
-0.010347591 0.011287522 0.01557607 -0.0044888495 -0.42212337 0.90652722 0.0018689409
-0.007382975 0.011089041 0.015507771 -0.00099411921 -0.44319659 0.89642388 0.0014127649
-0.0044446406 0.011194932 0.015553724 0.013976057 -0.42051372 0.90717852 0.0015113065
-0.0016414057 0.011118809 0.015445625 0.029925503 -0.40991578 0.91163236 0.0017953316
0.0015455462 0.01136422 0.01543665 0.035123002 -0.40306199 0.91449845 0.0019127429
0.004359541 0.011327215 0.0152956 0.044197392 -0.32569891 0.94443995 0.0015746419
0.0072874902 0.01157321 0.01523139 0.051664777 -0.39857611 0.91567886 0.0018814742
0.010344183 0.011693305 0.015089029 0.062512323 -0.4089649 0.91040641 0.0017563644
0.012739592 0.011876115 0.015048173 0.07390216 -0.41958016 0.90470493 0.0015315341
-0.027425898 0.01430292 0.015410049 -0.081227981 -0.33931616 0.93715882 0.0014709348
-0.021768451 0.014737794 0.016580187 -0.028746057 -0.30104598 0.95317632 0.0018410871
-0.019081064 0.013907539 0.016393282 -0.040562421 -0.32263798 0.9456529 0.0037046764
-0.016213983 0.013797546 0.016529717 -0.037596356 -0.34125471 0.9392187 0.0032476899
-0.013667251 0.014180246 0.016736461 0.012094369 -0.25321418 0.96733469 0.0018328228
-0.010611653 0.01377875 0.01660634 0.026230277 -0.23533037 0.97156143 0.0026252277
-0.0074172243 0.013948131 0.016582221 0.039589543 -0.20221123 0.97854137 0.0023281241
-0.0044478588 0.013557528 0.016385198 0.039421402 -0.18231151 0.98245031 0.0021593913
-0.0014998039 0.013694731 0.01630147 0.047463257 -0.19817658 0.97901648 0.0031194307
0.0018685695 0.013938605 0.016196076 0.044195883 -0.10991072 0.99295837 0.0026054368
0.0043994454 0.013825055 0.01605222 0.040841188 -0.17470224 0.98377395 0.0031341512
0.0075110346 0.01380467 0.015889218 0.040420581 -0.17913206 0.98299438 0.0025045914
0.010536608 0.013832041 0.015735151 0.049111571 -0.18734324 0.98106605 0.0018431597
0.013270859 0.013675474 0.015535064 0.056173783 -0.19079389 0.98002154 0.0015032535
0.016416783 0.014063042 0.015432227 0.056983445 -0.20839861 0.97638261 0.0013026642
0.019205632 0.014360413 0.015315351 0.07279522 -0.24356687 0.96714842 0.0017902973
0.021923875 0.014645748 0.015174922 0.081072979 -0.27674925 0.95751607 0.0016459199
0.024579473 0.014896486 0.015065575 0.10292754 -0.26977786 0.95740581 0.0020784903
-0.028125873 0.016501848 0.016569972 -0.084284067 -0.28675324 0.95428967 0.0041616596
-0.0251779 0.017241821 0.017288562 -0.03973018 -0.22846904 0.97274017 0.0033426916
-0.022590961 0.01663004 0.017233882 -0.0323589 -0.25646868 0.96601069 0.0023685577
-0.019264 0.017018989 0.017442191 0.024226032 -0.15830888 0.98709244 0.0029535713
-0.016465032 0.017012266 0.017411873 0.038761094 -0.070714459 0.9967432 0.0029514176
-0.013418186 0.016856896 0.017301213 0.058502786 -0.03936087 0.99751097 0.0029358999
-0.010494635 0.016789217 0.017156152 0.058512408 -0.025725091 0.99795514 0.0025333299
-0.0075409352 0.016666019 0.016991582 0.065987542 0.017315961 0.99767017 0.0035173532
-0.0045966292 0.017040713 0.016884938 0.074384607 0.14062575 0.98726451 0.0031268706
-0.0015553816 0.016796034 0.01667444 0.058230847 0.080330439 0.99506593 0.0040588388
0.0015447106 0.016619314 0.016493939 0.049625423 0.011436 0.99870247 0.0032703218
0.0045770532 0.016643135 0.016356913 0.035511844 0.018627854 0.99919564 0.0046075056
0.0075052259 0.016757835 0.016255811 0.027306374 0.016375562 0.999493 0.0032130103
0.010502901 0.016643381 0.016144149 0.027539341 0.0075485692 0.99959224 0.0031232098
0.013481108 0.016791247 0.016052959 0.026835002 -0.016179409 0.99950892 0.0028363361
0.016660176 0.016689062 0.015920112 0.021217881 -0.033727407 0.99920583 0.0023531921
0.0195427 0.01653412 0.015753394 0.046972174 -0.14014079 0.98901677 0.0018405508
0.022532567 0.016624352 0.015591624 0.070416711 -0.18252243 0.98067689 0.0017291681
0.02553024 0.016743569 0.015407335 0.065136887 -0.20262912 0.97708684 0.0013413936
0.028215496 0.017066661 0.015270002 0.073268026 -0.22734927 0.97105318 0.0022398438
0.031098753 0.017448477 0.015124917 0.084516831 -0.2533462 0.96367657 0.0015650099
0.034042895 0.017842002 0.015019861 0.12253806 -0.32615685 0.93733996 0.0017779912
-0.036435157 0.019615153 0.016540984 -0.12688538 -0.23356876 0.9640258 0.00087732443
-0.034277145 0.01987588 0.017074132 -0.10926889 -0.18624595 0.97640812 0.0031758219
-0.031469274 0.019879261 0.017547838 -0.033685621 -0.11611366 0.99266458 0.0013685644
-0.028271258 0.019741595 0.017781548 -0.002797917 -0.086070433 0.99628508 0.0017889431
-0.025453547 0.019649908 0.017830061 0.024044547 -0.034844417 0.99910349 0.0020191295
-0.022265876 0.019808438 0.01783867 0.055494841 0.0065921452 0.99843717 0.0026743785
-0.018956052 0.020025428 0.01776414 0.10198774 0.15681611 0.98234779 0.0028870048
-0.017076928 0.019596562 0.017647104 0.10047078 0.16073951 0.98186988 0.0022412804
-0.013520328 0.019636562 0.017308613 0.083698206 0.097114719 0.99174756 0.0044743419
-0.010466729 0.02000377 0.017056614 0.10929892 0.27661327 0.95474541 0.0025981891
-0.0075684921 0.019465646 0.01689109 0.08536391 0.25108412 0.96419382 0.0024092905
-0.0044408427 0.019696474 0.016584404 0.085732616 0.27279252 0.9582454 0.0019934105
-0.0015051836 0.020041168 0.016303357 0.055097006 0.29761812 0.95309377 0.0024019575
0.0015186059 0.019821115 0.016188132 0.043850631 0.3079119 0.95040381 0.0015080557
0.004561964 0.019745085 0.016087014 0.022908203 0.31334731 0.94936228 0.0014305788
0.0074913446 0.01973231 0.016003478 0.0096787624 0.28914464 0.95723647 0.0016181155
0.010509258 0.0198608 0.015949955 -0.0092838602 0.27884945 0.96028996 0.0016007621
0.013469113 0.019927194 0.015924122 -0.015732974 0.25621426 0.96649194 0.002459411
0.01597267 0.0200925 0.015902644 -0.022792781 0.23577672 0.97153997 0.0023221199
0.019461725 0.019575246 0.015924145 -0.0094911288 0.098518528 0.99508995 0.0033149342
0.022315368 0.019555861 0.015885297 0.0074929586 0.044132832 0.99899757 0.0030203087
0.025371827 0.01972826 0.01581357 0.016040552 -0.010314045 0.99981809 0.0023080877
0.028314792 0.019540573 0.015678454 0.02876379 -0.07022807 0.99711615 0.0020132305
0.031478412 0.019968927 0.01558092 0.040519413 -0.10421099 0.99372947 0.0013512137
0.033999301 0.019832298 0.015417334 0.044004984 -0.12154532 0.99160999 0.0019975619
0.037277829 0.020089466 0.015208504 0.092312716 -0.22544025 0.96987373 0.0030353854
0.039592508 0.020734737 0.015111011 0.14188546 -0.26657975 0.95331204 0.0025331166
-0.043083135 0.023727298 0.016514909 -0.17727934 -0.18399693 0.96680772 0.00087855558
-0.03972153 0.022674685 0.016986432 -0.15184473 -0.22973682 0.96133459 0.00095361233
-0.037386611 0.02266481 0.017446367 -0.11803896 -0.21005769 0.9705373 0.0016312989
-0.034504399 0.022500413 0.017877094 -0.039237451 -0.066170648 0.99703652 0.0018424764
-0.031349495 0.021398507 0.017937794 -0.027461803 -0.11631675 0.99283242 0.0015407412
-0.02777883 0.023095775 0.017971924 0.069074467 0.069591552 0.99518126 0.002011246
-0.024885315 0.023340957 0.017896155 0.11561757 0.20630719 0.9716326 0.0016456915
-0.022492863 0.022816978 0.017795866 0.12364332 0.23297109 0.9645915 0.0021113942
-0.019558458 0.02249931 0.017531522 0.13569196 0.26725036 0.95402569 0.0029583322
-0.016488858 0.022780277 0.017122477 0.13322377 0.33015069 0.93447948 0.0029516839
-0.013462237 0.022534097 0.016768914 0.12431072 0.35362259 0.92709112 0.0022606472
-0.010464979 0.02286401 0.016268587 0.12525362 0.39579865 0.90975553 0.0016974108
-0.0074238637 0.022544587 0.016009433 0.1185094 0.38600099 0.91485453 0.0017223718
-0.0045877616 0.022519609 0.015692104 0.083004646 0.39661762 0.91422361 0.001753388
-0.001591237 0.022403246 0.01547621 0.06057458 0.41653696 0.90709847 0.0016919788
0.0014784634 0.022035787 0.015432875 0.047774274 0.42284915 0.90493989 0.0017813215
0.0046740538 0.022003766 0.015326388 0.023117276 0.42515901 0.90482336 0.001959282
0.0075148968 0.021930011 0.015327305 0.0023297295 0.42337298 0.90595239 0.0021069846
0.010424991 0.021885118 0.015381096 -0.020105153 0.39984551 0.91636199 0.0023465464
0.013513789 0.022255071 0.015328469 -0.040722135 0.38804185 0.92074174 0.0019962015
0.016651522 0.022307185 0.015438374 -0.056868099 0.35365561 0.93364543 0.0019962334
0.01959224 0.022701975 0.01548313 -0.071579836 0.31088522 0.94774824 0.0016621379
0.022425797 0.022831703 0.015607418 -0.069055513 0.28468737 0.95612991 0.0020453776
0.024786754 0.023107873 0.015641963 -0.056774139 0.22795723 0.97201449 0.0016278281
0.028382005 0.022479717 0.015751645 -0.007875408 0.088515066 0.99604374 0.0025412852
0.030914603 0.022886407 0.015797144 -0.033157524 0.14714547 0.98855901 0.0019620084
0.034503132 0.02268826 0.015710482 0.0072711953 -0.030226737 0.99951661 0.0024342258
0.037463181 0.02266678 0.015620207 0.022975398 -0.067805305 0.99743396 0.0018293499
0.040573578 0.022805016 0.015428104 0.068835273 -0.10392173 0.99220055 0.0022713081
0.043062601 0.023299387 0.015250646 0.14095087 -0.21473885 0.96644711 0.0033436783
0.04506018 0.023771882 0.015117962 0.18411779 -0.28874463 0.93953562 0.0013538057
-0.046695512 0.026150603 0.01624272 -0.1792689 -0.12857649 0.97536188 0.0019730614
-0.043499287 0.025606267 0.017020535 -0.16976212 -0.13563755 0.97610623 0.0022890598
-0.04042184 0.025875458 0.017738873 -0.066913933 -0.0099975076 0.99770862 0.0021076892
-0.037253082 0.024672344 0.017944099 -0.034501467 -0.0029533282 0.99940026 0.0013568632
-0.033849515 0.02661675 0.017971039 0.036880873 0.12665239 0.99126136 0.0020700675
-0.030863779 0.026282078 0.017931253 0.11551464 0.25084484 0.96111041 0.0020334553
-0.028205343 0.025940951 0.017750092 0.13120836 0.29630503 0.94603795 0.0019765198
-0.025386963 0.025793245 0.017440807 0.1549174 0.33938786 0.92780203 0.0018976383
-0.022433173 0.025722068 0.017024549 0.16679157 0.3717843 0.91321242 0.0022711321
-0.019440748 0.025635937 0.016546557 0.15675226 0.40135592 0.90240908 0.0021997686
-0.016442506 0.025586132 0.016008381 0.1695125 0.4477185 0.87795997 0.0018208155
-0.01361194 0.025288772 0.015634093 0.1466856 0.46696165 0.87202644 0.002007015
-0.010690585 0.024740852 0.015441892 0.13466059 0.49389887 0.85902882 0.0018293742
-0.007921068 0.024265196 0.015286115 0.11667659 0.4924891 0.86246222 0.0023649184
-0.0049306205 0.024082845 0.015068357 0.10104726 0.51119125 0.85350627 0.00094441121
0.019895859 0.024190078 0.015017343 -0.10099775 0.42589813 0.89911634 0.001725002
0.022436252 0.024605544 0.015122117 -0.10773293 0.39438722 0.91260749 0.0018504541
0.025443371 0.02494343 0.015272194 -0.098272197 0.36096466 0.92738724 0.0021948875
0.02841424 0.02553877 0.015350402 -0.082133614 0.30251691 0.94959867 0.0027753529
0.031357922 0.025745405 0.015451834 -0.072167352 0.21566606 0.97379673 0.0021924519
0.034655027 0.02578086 0.015619262 -0.067617282 0.20231323 0.97698373 0.0020184556
0.037578307 0.025571581 0.015667697 -0.008869417 0.074071296 0.99721348 0.002371422
0.040607493 0.025612669 0.015665734 0.0051647997 0.022908328 0.99972421 0.0021753362
0.043606825 0.025670832 0.015518246 0.050604742 -0.042730413 0.99780422 0.0023129545
0.046301976 0.025826812 0.015251327 0.13213438 -0.15393066 0.9792068 0.0033247236
0.048446536 0.026835021 0.015082459 0.18212394 -0.16746581 0.9689098 0.0032097744
-0.049156912 0.028813962 0.016273418 -0.17699961 -0.050421208 0.98291856 0.0031824894
