# .PCD v0.7 - Point Cloud Data file format
VERSION 0.7
FIELDS x y z normal_x normal_y normal_z curvature
SIZE 4 4 4 4 4 4 4
TYPE F F F F F F F
COUNT 1 1 1 1 1 1 1
WIDTH 569
HEIGHT 1
VIEWPOINT 0 0 0 1 0 0 0
POINTS 569
DATA ascii
-0.07281664 0.049625069 0.0042799935 -0.77016586 -0.22353336 0.5973922 0.0068663075
-0.071624376 0.049436171 0.005651528 -0.70625156 -0.13422246 0.69512093 0.0064540207
-0.051209025 0.050987381 0.0058870213 0.37654749 0.77330303 0.51011205 0.0035806587
-0.049095012 0.050463356 0.0049145464 0.40830919 0.80149579 0.43690753 0.0014795945
-0.046570178 0.049249958 0.0046274695 0.42835808 0.80390334 0.41261205 0.001183931
-0.044373758 0.048387632 0.0038752332 0.43035927 0.8135637 0.3910307 0.0010557947
0.049963441 0.048608031 0.0043788003 -0.49161798 0.77053607 0.40569201 0.002599935
0.05235206 0.049936417 0.0047807065 -0.47038326 0.76028329 0.44800553 0.0028582683
0.054319877 0.05065456 0.0055834339 -0.47761935 0.74192262 0.47056407 0.0047062943
0.071220331 0.049467154 0.0048738518 0.78956181 0.058351062 0.61089051 0.003186221
0.072007157 0.049469493 0.0034932387 0.87914193 -0.0093854209 0.47646764 0.0035260217
-0.075176768 0.053718932 0.0031433296 -0.81783921 -0.15207094 0.55498964 0.019971633
-0.073396958 0.052594606 0.0046048108 -0.68239748 -0.14100711 0.71725219 0.0070619113
-0.071803279 0.052162439 0.0058657802 -0.61306149 -0.036886297 0.78917366 0.0087435581
-0.057724513 0.053721327 0.0056793708 0.26856804 0.80442572 0.52987778 0.0025209158
-0.055414278 0.053338557 0.0049886191 0.31724507 0.83101386 0.45691535 0.001650515
-0.052593224 0.05225886 0.0048522423 0.35924926 0.8101567 0.46323428 0.0015486244
-0.050225127 0.051393986 0.0041483752 0.40410769 0.8123638 0.4204306 0.0018459097
0.053510793 0.051242173 0.0036457633 -0.47904769 0.78377706 0.39523023 0.0019087727
0.055616293 0.052051798 0.0045718611 -0.44422558 0.76186299 0.47141105 0.0036402652
0.058133747 0.053206101 0.0051332838 -0.42601982 0.72553599 0.54046696 0.0056544044
0.060256232 0.053907052 0.0058301357 -0.39440474 0.65098667 0.64858413 0.0044507077
0.070659816 0.053035937 0.0053259977 0.59691197 0.17232488 0.78358167 0.0056324727
0.072116151 0.052521423 0.0032406717 0.81078178 0.056577232 0.58260787 0.0046982672
-0.075296916 0.055660237 0.0033370808 -0.78031898 0.074718781 0.62090212 0.037013542
-0.073556021 0.055495884 0.0048287339 -0.59485924 0.11880565 0.79500163 0.012275538
-0.071311034 0.056100655 0.0058421106 -0.30390868 0.23656487 0.92286325 0.014620785
-0.067093447 0.056711361 0.0058470187 0.081630297 0.56383699 0.82184201 0.008184663
-0.064298391 0.05626063 0.0054122736 0.23518221 0.68279445 0.69172329 0.0068351864
-0.061514955 0.055661976 0.0047202213 0.3056784 0.76326954 0.56919259 0.0053623281
-0.058742113 0.054699212 0.0045927563 0.27699241 0.81523705 0.50858992 0.0026531077
-0.056356873 0.054245755 0.0038223241 0.32347062 0.84246927 0.43082744 0.0017116095
0.059143782 0.054568704 0.0041101733 -0.47448304 0.72030354 0.50599271 0.0048878728
0.061518755 0.055649806 0.0047119404 -0.44607615 0.6591357 0.60543883 0.0060721156
0.063943826 0.056431565 0.0055316598 -0.28806183 0.56878179 0.77039456 0.0088756196
0.068192646 0.056773372 0.0059119835 0.10805368 0.35415545 0.92892313 0.015447447
0.070203841 0.055802461 0.0052158819 0.40355644 0.25480241 0.87875926 0.010537094
0.07215859 0.05549638 0.0031515146 0.80597091 0.053650375 0.58951896 0.0054677674
-0.073214374 0.057785168 0.004413336 -0.53782284 0.43951178 0.71942759 0.022626767
-0.070509516 0.058382858 0.0049621253 -0.19548154 0.60250086 0.7738086 0.021627285
-0.067683294 0.058346093 0.0046835025 0.14479133 0.6475727 0.74812108 0.0079660909
-0.064886048 0.057749391 0.0041839881 0.30448052 0.6838575 0.66304636 0.0047540837
-0.062776409 0.057240408 0.0033497363 0.39588735 0.74072367 0.54277223 0.0077363974
0.06248213 0.057486981 0.0035378865 -0.5457775 0.59923905 0.58569574 0.0069143525
0.064560518 0.058441531 0.0044541354 -0.4519076 0.50287992 0.73681158 0.015590139
0.06740848 0.058590289 0.0053265416 -0.013267365 0.36647964 0.93033147 0.015062193
0.070216045 0.058715139 0.0045482051 0.28658536 0.29031363 0.9130097 0.0097358106
0.072032213 0.057303041 0.0031796233 0.72567743 0.055338658 0.68580604 0.0050634719
-0.069528006 0.060098518 0.0032939322 -0.15527271 0.90183437 0.40321842 0.026247621
-0.068284236 0.060081039 0.0032915424 0.06611675 0.84115797 0.53673249 0.024827344
0.065363325 0.061163336 0.0035231793 -0.56753963 0.31843296 0.75927544 0.013595265
0.067400068 0.061546504 0.0042585372 -0.19555283 0.28182524 0.93932617 0.028035352
0.070320413 0.061549976 0.0038829576 0.18500683 0.20355691 0.96142447 0.017419683
0.07204996 0.062111676 0.0031197462 0.4008638 0.048831157 0.91483533 0.030838188
0.065829799 0.06339103 0.0031156342 -0.60037553 0.27679282 0.75028992 0.010069422
0.067567773 0.064369634 0.003516526 -0.24002093 0.20820899 0.94817668 0.021296607
0.070420958 0.064480551 0.0034287609 0.10536593 0.059969086 0.99262369 0.017665431
0.072190769 0.065057896 0.0030933605 0.25393307 0.0043084323 0.9672122 0.017021623
0.068178996 0.066869818 0.0031611 -0.31184599 0.14939736 0.93831366 0.019767946
0.070516266 0.067470089 0.0032911219 -0.0028536189 -0.017580606 0.99984139 0.017249094
0.07242056 0.067762099 0.0032289026 0.14193837 -0.060882121 0.98800147 0.014505543
0.068749219 0.069257647 0.0030647554 -0.22227962 0.074870281 0.97210401 0.01228622
0.070613436 0.070513554 0.0035126589 -0.14377892 -0.11459371 0.98295265 0.022936739
0.072993807 0.070686117 0.0035893668 0.10963743 -0.17138197 0.97908521 0.019895202
0.068878815 0.074512787 0.0031314846 -0.58059239 0.01936239 0.81396413 0.032128975
0.07045681 0.073513292 0.0040033995 -0.36584669 -0.13150327 0.92133766 0.015454522
0.073281944 0.073498607 0.0042964551 0.1080717 -0.1223145 0.98658985 0.034898657
0.075442612 0.073847063 0.0032887727 0.38230449 -0.1706025 0.90815091 0.036877129
0.06881398 0.075798891 0.0032561866 -0.63557142 0.13464992 0.76020944 0.050707098
0.070308901 0.075701706 0.0041789566 -0.34062684 0.092953362 0.93559235 0.045220673
0.072851829 0.075390987 0.0046295919 -0.014197553 0.11010943 0.99381804 0.044361621
0.075086072 0.075110883 0.0031974423 0.48178464 0.83019841 0.28045353 0.068185113
-0.012687293 0.0028677238 0.0061557852 -0.157565 -0.87862009 0.45077705 0.00091700564
-0.010253721 0.0026686657 0.0064722439 -0.12424161 -0.86814004 0.48051733 0.0011508683
-0.0073737926 0.0025460427 0.0068917344 -0.081327043 -0.86724508 0.49119434 0.0013479689
-0.0043141125 0.0023199907 0.0068901456 -0.042431597 -0.87284178 0.48615506 0.0014042922
-0.0014641655 0.0024671974 0.0073110373 -0.014976975 -0.86192888 0.50680798 0.0017549157
0.0015169282 0.0022934857 0.0069971802 0.0075495876 -0.85937947 0.51128262 0.0017204707
0.0044276458 0.0023839143 0.0069877892 0.045296479 -0.85920107 0.50962907 0.0014935989
0.0073840516 0.002537129 0.00687839 0.064789779 -0.85408717 0.51607889 0.0012899978
0.010393856 0.0026383249 0.0066803917 0.085730106 -0.8584193 0.50573379 0.00072464877
0.013237157 0.002771097 0.0062137404 0.10764466 -0.86476684 0.49050066 0.0014912407
0.015788823 0.002957541 0.006122672 0.1292332 -0.85376388 0.50436693 0.0018087726
-0.024296859 0.0058324146 0.0062857457 -0.27198499 -0.87940681 0.39072731 0.0022808909
-0.022185108 0.0055112434 0.0068882941 -0.25538975 -0.85307962 0.45500693 0.0011507713
-0.019513272 0.0051266747 0.0076095625 -0.2166279 -0.84261245 0.49302799 0.0010147375
-0.016560934 0.0044680578 0.0077075963 -0.18526429 -0.84970236 0.49364278 0.0011588268
-0.01350471 0.0039127301 0.0077901306 -0.15265745 -0.84829658 0.50703907 0.0010203429
-0.010559448 0.0036263065 0.008115273 -0.11453303 -0.84005618 0.53027153 0.0014510535
-0.0075871111 0.0034328552 0.0083532678 -0.075460933 -0.83610076 0.54336107 0.0014576404
-0.0045615379 0.0033100471 0.0085099703 -0.03745557 -0.81694406 0.57549936 0.001172048
-0.0016468912 0.0033272081 0.0086301574 -0.015876655 -0.8060469 0.59163862 0.00096617849
0.0015684739 0.0033300905 0.0087036835 0.010292614 -0.80483264 0.59341252 0.0012671254
0.0044912524 0.0033467654 0.0086057829 0.043625109 -0.80643606 0.58970982 0.0013024403
0.0075382749 0.0034514926 0.0083352327 0.065657154 -0.82312983 0.56404471 0.0012999468
0.010530082 0.0035947778 0.0081827864 0.088928096 -0.82788867 0.55379796 0.0007839211
0.01360066 0.0038110712 0.007833438 0.11604293 -0.82460314 0.55368203 0.00054690469
0.016582564 0.0040773083 0.0075912969 0.12648746 -0.8169145 0.56271797 0.00051721698
0.019519556 0.0045758057 0.0075960555 0.15297534 -0.79555893 0.58624613 0.00094257033
0.022429135 0.0049947682 0.0074491217 0.16752079 -0.78993565 0.58986306 0.001314561
0.025338601 0.0053092195 0.0070773968 0.18553077 -0.79132479 0.58256626 0.0018503934
0.028089484 0.0056947568 0.0066350037 0.22040121 -0.79610074 0.56360185 0.0019301012
0.030203026 0.0058902437 0.0060234508 0.26410723 -0.79691964 0.54329234 0.0029877019
-0.033128325 0.0089326371 0.0064685806 -0.34784442 -0.85200202 0.39127588 0.0024253668
-0.031060077 0.0085685169 0.0071441736 -0.30626819 -0.84079146 0.44639614 0.00098012935
-0.028410165 0.007880467 0.0076181907 -0.28202409 -0.8342489 0.47380486 0.00079972151
-0.025503218 0.0069552506 0.0076726843 -0.26727462 -0.84071571 0.47091535 0.0009535182
-0.022733372 0.0064569865 0.0082375975 -0.24525972 -0.82919312 0.50228125 0.0010716718
-0.020447614 0.0061293631 0.0087902835 -0.2214276 -0.80843538 0.54534578 0.00052468304
0.020958308 0.0060409885 0.0088972747 0.13674121 -0.74894285 0.64837223 0.00075817056
0.023116011 0.0062861159 0.0088141067 0.16703533 -0.73635554 0.65565211 0.00038976016
0.025746582 0.0065384628 0.0084135467 0.18244845 -0.73932153 0.64816386 0.00087472406
0.02857328 0.0069118189 0.0080542937 0.20120797 -0.7622419 0.61522567 0.0022271797
0.031424988 0.0075522582 0.0078452844 0.23336641 -0.75452417 0.6133787 0.0030368394
0.034336679 0.0081373341 0.0073402128 0.27240133 -0.77721089 0.56722188 0.0023864366
0.037095666 0.008728195 0.0067302152 0.31827611 -0.79533786 0.51588547 0.0019638613
-0.03955806 0.011815319 0.0063629383 -0.4045544 -0.82901555 0.38609451 0.0011113152
-0.037202779 0.011283123 0.0074909972 -0.36935505 -0.80669457 0.46132496 0.00093904085
-0.034546729 0.010193939 0.0076941494 -0.34469607 -0.82022643 0.456523 0.00088616798
-0.031828847 0.0094764372 0.0082384348 -0.30215654 -0.8238191 0.47960773 0.00091127772
-0.029716529 0.0091140438 0.0088006128 -0.28841677 -0.80404449 0.51993102 0.0012956255
0.034908619 0.0092928391 0.0085996445 0.24518949 -0.72971344 0.63827926 0.002420505
0.037636649 0.0098772747 0.0080737509 0.30277944 -0.76453549 0.56904322 0.0025790541
0.040403582 0.01082287 0.007702081 0.33471438 -0.76901096 0.54459924 0.0018350678
0.043070797 0.011496004 0.0068995827 0.37996918 -0.76954812 0.51324373 0.001791073
-0.045141608 0.014841486 0.0062039094 -0.48528463 -0.79235816 0.36968556 0.0021727639
-0.043087807 0.014271292 0.0074716811 -0.45226252 -0.76172578 0.46393147 0.00099602726
-0.040611908 0.013091307 0.0078384448 -0.40939248 -0.79171246 0.45341945 0.00087862497
-0.038210947 0.012321693 0.0084509458 -0.36861554 -0.7918821 0.48687291 0.00068255322
0.041751724 0.01223287 0.0087971743 0.31683311 -0.70068944 0.63925821 0.0026136804
0.043757331 0.012781536 0.0082993461 0.35724518 -0.73431432 0.57719868 0.0025006698
0.04657314 0.013854275 0.0075988756 0.39759478 -0.74554449 0.53486603 0.0015286589
0.048897557 0.014519461 0.0066285892 0.43801439 -0.7443583 0.50405771 0.0018219356
-0.048651002 0.017483246 0.0068970122 -0.515338 -0.74081928 0.43082887 0.0012882646
-0.046634525 0.016652886 0.0077401339 -0.4826549 -0.74428374 0.46161237 0.0010236045
-0.044301078 0.015513656 0.0082861586 -0.46154112 -0.75246489 0.46986851 0.0011607509
0.047557805 0.015278999 0.0088328179 0.39420795 -0.65752006 0.64208055 0.0018559345
0.049568318 0.015934108 0.0080711553 0.43066958 -0.68928963 0.58258349 0.0026500572
0.052141402 0.017135143 0.0073470334 0.49106503 -0.70400745 0.51305825 0.0019527018
0.054198835 0.017800419 0.0063163154 0.4943004 -0.70352149 0.51061201 0.0014240304
-0.052035663 0.020268189 0.0074108811 -0.53613955 -0.70930499 0.45764697 0.0011035419
-0.049795721 0.018945536 0.0079325642 -0.51921815 -0.71533304 0.46766567 0.0009896725
-0.04785908 0.018150914 0.008771156 -0.49313283 -0.71785766 0.49142694 0.00078531628
0.053263906 0.018662868 0.008326388 0.49217829 -0.66652101 0.55991989 0.002761889
0.055384669 0.019667577 0.0075907386 0.50369298 -0.652026 0.5667057 0.0023666818
0.057443764 0.020615552 0.0067098043 0.55187458 -0.65755123 0.51289457 0.0019370874
-0.057189483 0.023679882 0.006226392 -0.61366361 -0.68045235 0.40050179 0.0031856145
-0.05515166 0.022826143 0.0076088868 -0.56829566 -0.67704147 0.46760553 0.0010822531
-0.053250145 0.021701152 0.0082642147 -0.54027015 -0.69069237 0.48067889 0.0014334327
0.056404456 0.021251945 0.0085036764 0.51553756 -0.61674511 0.59485 0.002077492
0.058356971 0.022441387 0.0078562852 0.54388887 -0.57277191 0.61328399 0.001763066
0.060521509 0.023410862 0.0066303862 0.60292763 -0.58127981 0.54643571 0.0013399663
-0.060209721 0.026781399 0.0063759326 -0.65856647 -0.60001075 0.45417753 0.0016522777
-0.058316413 0.025706701 0.0075812684 -0.62317729 -0.62648845 0.46814784 0.0011668798
-0.056414664 0.024526358 0.0084720915 -0.5888592 -0.6303764 0.50583631 0.001108965
0.059499186 0.024345525 0.0087145912 0.54481727 -0.53590167 0.64496779 0.0021083774
0.061475135 0.025457168 0.0076576984 0.62309301 -0.52467924 0.58005762 0.0021713816
0.063342735 0.026324162 0.0063549113 0.65571213 -0.51056457 0.55620629 0.0012991143
-0.063112363 0.029968215 0.0060825627 -0.70225531 -0.54034048 0.46354041 0.00068732689
-0.061208908 0.028810168 0.0074544367 -0.68062389 -0.53732985 0.49802387 0.0015377939
-0.059445079 0.027581878 0.0084227724 -0.63418984 -0.57581043 0.51599002 0.0016829151
-0.00037503047 0.029961661 0.0089446427 0.076529451 0.77734572 0.62440127 0.0012361609
0.0022803897 0.029838288 0.0089117261 0.039361969 0.77280152 0.63342589 0.0010586614
0.0041461084 0.029865736 0.0088285338 0.0092352089 0.790025 0.61300504 0.0016802952
0.0073582409 0.029898662 0.0087660234 -0.019187776 0.77959418 0.62599105 0.0013734518
0.010331227 0.029909836 0.0089158397 -0.069927871 0.79495507 0.60262465 0.0016248123
0.062450297 0.027619507 0.008572924 0.62265629 -0.44711781 0.64217198 0.0014563195
0.06406869 0.028719667 0.0075662434 0.65784371 -0.43772209 0.61289549 0.001843587
0.066103369 0.029895522 0.0061454196 0.73697823 -0.4477663 0.5063284 0.0018552565
-0.063779175 0.031977814 0.0071446351 -0.70804417 -0.47447506 0.52301717 0.001654955
-0.062332291 0.031055806 0.0082556773 -0.69589055 -0.47313038 0.54026276 0.0023300056
-0.015148809 0.032883368 0.0088055208 0.25755066 0.79248017 0.55284971 0.0023057617
-0.013237232 0.032655358 0.0084247272 0.22400081 0.83582222 0.50122321 0.0019629956
-0.010400983 0.032287743 0.0078104869 0.19368148 0.85268277 0.48520055 0.0013743881
-0.0074769994 0.031739194 0.0077034621 0.15545802 0.85839444 0.48886785 0.0020797888
-0.0045281062 0.03127123 0.0077049634 0.12385702 0.85615873 0.50164884 0.0021383124
-0.001456693 0.03092508 0.0076851971 0.088059478 0.85530341 0.51058948 0.0023336671
0.0014501356 0.030719379 0.0076427436 0.049108956 0.85782111 0.51159668 0.0023917602
0.004567042 0.030620188 0.0076741697 0.016539909 0.85165882 0.5238356 0.0022468453
0.0076133851 0.030641152 0.0076773656 -0.037822954 0.84305608 0.53649414 0.0024850529
0.010515324 0.030835861 0.0076734144 -0.072989911 0.84589887 0.52832526 0.0021485025
0.01355144 0.03112191 0.0077568386 -0.1262859 0.83946306 0.52853918 0.0026683069
0.01659519 0.031701948 0.0077100191 -0.18412112 0.84117126 0.50845885 0.002354973
0.019339306 0.03224311 0.0079103401 -0.21485612 0.81837976 0.53300232 0.0020361876
0.022100197 0.032632682 0.0084110936 -0.23093981 0.79051882 0.5672273 0.0018176291
0.024171509 0.032913752 0.008849402 -0.25479689 0.73215544 0.63168579 0.0016048326
0.065103464 0.031298779 0.0082504489 0.6664871 -0.35256639 0.65688038 0.0016101762
0.066699423 0.031909034 0.0067116451 0.70817816 -0.37971234 0.59523296 0.0017240228
-0.066368602 0.035461862 0.006509243 -0.74402887 -0.41410545 0.52434498 0.0017338485
-0.064822778 0.034393203 0.0077650887 -0.7234624 -0.41734055 0.54993552 0.0021867829
-0.022093389 0.035550725 0.0083042514 0.3147046 0.82424307 0.47072747 0.0015095324
-0.019464809 0.034886446 0.0077428492 0.28723291 0.84223229 0.45622575 0.0012030795
-0.016551774 0.034015566 0.0076051974 0.25291961 0.84624469 0.46893683 0.0012990599
-0.013659771 0.033464178 0.0070564733 0.2341966 0.85252756 0.46727797 0.0014413254
-0.011529686 0.033249415 0.0062769162 0.19781771 0.88655823 0.41818959 0.00095507404
0.020152969 0.033297271 0.0065048123 -0.22486337 0.8532517 0.47052935 0.0012272535
0.022697002 0.033640716 0.0071865814 -0.23517013 0.83862907 0.49132097 0.001600381
0.025537359 0.034189921 0.0076516089 -0.25126618 0.8188175 0.51614267 0.0025550022
0.028369645 0.035018452 0.0078179715 -0.28007445 0.80724752 0.51952845 0.0020714193
0.031052737 0.035589043 0.0083852559 -0.30198649 0.78265351 0.54429555 0.0026294226
0.033340171 0.035996519 0.0088866698 -0.32421842 0.70416063 0.63169628 0.0017416489
0.065756962 0.033527609 0.0087678777 0.68278646 -0.30817595 0.66244262 0.0016158035
0.067144081 0.034521945 0.0077083409 0.72512901 -0.29270265 0.62330818 0.0018185936
-0.066949718 0.03775759 0.0072471057 -0.74296242 -0.3377929 0.57784319 0.0027081061
-0.065561719 0.037028957 0.008544988 -0.69622928 -0.29726309 0.65337545 0.0020153762
-0.030449631 0.038830459 0.0087642753 0.37620375 0.7915023 0.48165852 0.0014784026
-0.028233036 0.038284007 0.0079242215 0.36578247 0.81237614 0.45414543 0.0013428432
-0.02540943 0.03716201 0.0077160886 0.33733648 0.81926602 0.46368879 0.0013036868
-0.022783332 0.036465 0.0069769644 0.32154578 0.83421457 0.44798908 0.0010042659
-0.020823043 0.036214054 0.0060365903 0.29129952 0.86669463 0.40495071 0.00022282262
0.029512355 0.036282733 0.0063587702 -0.31272843 0.83508474 0.45258644 0.0017364075
0.031798329 0.036643509 0.0072018844 -0.32102862 0.80532545 0.49838895 0.0021407509
0.034386951 0.037497636 0.0076520466 -0.35550475 0.78066725 0.51397949 0.0026177352
0.036992937 0.038403716 0.0081555033 -0.39051792 0.74724424 0.53770047 0.002956165
0.039076474 0.038939845 0.0088744108 -0.42686418 0.71174932 0.55785292 0.0023850531
0.06790027 0.037303593 0.0079641119 0.73524958 -0.20262691 0.64680004 0.0019371113
0.069247648 0.038224325 0.0066370694 0.75916207 -0.21138228 0.6156221 0.0019172827
-0.069159888 0.041461233 0.0063198986 -0.76227182 -0.27269384 0.58700907 0.0037482763
-0.067651562 0.040475346 0.0076795421 -0.73158592 -0.23369052 0.64044577 0.0027051058
-0.065890148 0.039231494 0.0089501198 -0.69350851 -0.22703704 0.68373984 0.0031341817
-0.036513288 0.041793432 0.0086913956 0.38577136 0.77213436 0.50496429 0.0013195693
-0.034231767 0.041108031 0.0079422724 0.40389645 0.795627 0.45149225 0.001083794
-0.031569351 0.039937079 0.0077020423 0.37440398 0.80236077 0.46479973 0.0014795798
-0.029477097 0.039305709 0.006954622 0.38381845 0.81040651 0.44263384 0.0010462294
0.035905432 0.039145663 0.0060878969 -0.46651575 0.79232198 0.3931779 0.0032373646
0.037939429 0.039649773 0.0071025207 -0.42021796 0.75591552 0.50200462 0.0020631659
0.040474791 0.040775608 0.0076201069 -0.43062282 0.7453832 0.50888878 0.0018623457
0.042878013 0.041623365 0.0084464038 -0.41344854 0.69289637 0.59072405 0.0020641645
0.068178058 0.040377803 0.0084371176 0.70761025 -0.10455292 0.698825 0.0026920671
0.069568977 0.040745236 0.0069190701 0.75507152 -0.1207501 0.64442718 0.0025736913
-0.069547251 0.04369447 0.0066160411 -0.7332496 -0.18631296 0.65393609 0.0032202937
-0.068045951 0.043475483 0.008121334 -0.6776613 -0.11594041 0.72617698 0.00288475
-0.042548634 0.04471413 0.008715461 0.37317637 0.72740006 0.57587194 0.00077804259
-0.040294934 0.044076122 0.0080194008 0.3901245 0.77658749 0.49468637 0.0017546456
-0.037568692 0.042891391 0.0077544982 0.38115847 0.79192317 0.47704905 0.00161804
-0.035244755 0.042229578 0.0068119401 0.409953 0.80016118 0.43781352 0.0010025896
0.041716311 0.042328585 0.0064349798 -0.45382613 0.74160254 0.49403185 0.001208912
0.04376043 0.042983208 0.0073056999 -0.43911472 0.72349864 0.53266138 0.0022867599
0.046293471 0.044094849 0.0078802314 -0.41205785 0.71137702 0.56934267 0.0023482342
0.048534654 0.044763748 0.008628943 -0.39338243 0.67647153 0.62260461 0.0023321961
0.068220899 0.04340696 0.00868819 0.63625985 -0.015010186 0.77132881 0.0032852003
0.069497772 0.043536738 0.0073692417 0.733715 -0.040008366 0.67827851 0.0025090687
-0.069903255 0.046644408 0.0068672653 -0.69483703 -0.096514679 0.7126615 0.0062552053
-0.068072058 0.046525914 0.0083599081 -0.57447356 -0.019288959 0.81829584 0.0031565365
-0.048512943 0.047706131 0.0087123094 0.33400711 0.71705896 0.61177266 0.0017611204
-0.046235055 0.047162693 0.007925408 0.37371895 0.75382757 0.54044247 0.0021044
-0.04360918 0.046061955 0.0076087965 0.38756803 0.7696014 0.50744915 0.0016346537
-0.041351151 0.045422226 0.0067752986 0.41226894 0.77624321 0.47694957 0.0011659322
0.047275867 0.045567144 0.0067224097 -0.45167342 0.71933299 0.52777946 0.002046525
0.049602348 0.046359841 0.0075040157 -0.40063727 0.71537703 0.57247305 0.0016937581
0.05221507 0.047254492 0.0082043055 -0.36365408 0.67757541 0.63925523 0.002432104
0.054309145 0.047816548 0.0087749017 -0.32161501 0.65003413 0.68849063 0.0021782741
0.068191662 0.046644781 0.0085666347 0.55246335 0.10692661 0.8266505 0.0036963553
0.069543064 0.046461809 0.007282963 0.66562903 0.076850407 0.74231529 0.0034497338
-0.070162378 0.04955956 0.0068995138 -0.58948272 -0.01065274 0.80771071 0.0095644072
-0.067728013 0.049642179 0.0083709108 -0.43914592 0.14174046 0.88716424 0.0091290697
-0.065537535 0.050757833 0.0089161173 -0.18633245 0.32300782 0.92787182 0.0078013577
-0.057686996 0.050931107 0.008902886 0.12430223 0.69247031 0.71065736 0.0032954295
-0.055151638 0.050633356 0.008543306 0.21413526 0.70182109 0.67940646 0.0019253596
-0.052530225 0.05007118 0.0080233598 0.29194939 0.73758501 0.60887921 0.0023332136
-0.049660228 0.049213316 0.0074432977 0.34691066 0.76666343 0.54025948 0.0017805027
-0.04729091 0.048479557 0.0068675773 0.39620462 0.76739973 0.50410277 0.0014536051
0.050778791 0.048082888 0.0062657441 -0.40611756 0.70932573 0.57612979 0.00096102501
0.052847147 0.048749831 0.0069511854 -0.42352435 0.6974346 0.57811075 0.0019719403
0.055443775 0.049543902 0.0076784086 -0.33856064 0.6680432 0.66264248 0.0020894359
0.058284327 0.050250303 0.0083397049 -0.26805356 0.61506194 0.74151611 0.0031939636
0.060902759 0.050696149 0.0088059101 -0.14346112 0.55014259 0.8226555 0.0051357173
0.065218836 0.050706595 0.0088979825 0.16972508 0.3602218 0.91729695 0.011004965
0.067574657 0.049712326 0.0083571365 0.4334915 0.21445979 0.87526691 0.0050147721
0.069689699 0.049444273 0.0068319459 0.61352229 0.12730345 0.77934849 0.0042616781
-0.072013028 0.053505544 0.0060544079 -0.57418525 0.0020360146 0.8187229 0.006639896
-0.070332825 0.05252235 0.0067385738 -0.44193023 0.10543218 0.89083201 0.010612984
-0.067542352 0.052516818 0.0077718855 -0.23530181 0.29838392 0.92498654 0.013476919
-0.064556696 0.05253537 0.0081720436 -0.088312425 0.46956328 0.87847096 0.009774887
-0.061540563 0.052611355 0.0079920925 0.071887113 0.61075586 0.78854901 0.0041082152
-0.058612149 0.052265506 0.007777486 0.14947796 0.71031171 0.68783253 0.0023368488
-0.055611335 0.051886097 0.0073134061 0.25370279 0.74670464 0.61487162 0.0020489164
-0.053008936 0.051431458 0.0065424158 0.34166852 0.7640509 0.54725564 0.0017445327
0.05646421 0.051265482 0.0064250841 -0.39910275 0.68967134 0.60421056 0.0027122481
0.058784675 0.051969349 0.0069836308 -0.3428373 0.67128807 0.65714151 0.0026262954
0.061526183 0.052510574 0.007633301 -0.24622074 0.59320801 0.76647216 0.0033470774
0.064483665 0.052524451 0.0081431828 0.01655552 0.45057824 0.89258343 0.0078641213
0.067355908 0.052484289 0.0076882932 0.27166954 0.33414289 0.90252107 0.010418403
0.069593765 0.052463979 0.0064842319 0.53460634 0.18781827 0.82396621 0.006087671
-0.072061464 0.05431439 0.0060305791 -0.42171341 0.087687276 0.90247923 0.013072012
-0.070196882 0.055219356 0.0063695405 -0.24245463 0.29798543 0.92326617 0.012877344
-0.067570575 0.055303056 0.0066828406 -0.04551895 0.42990401 0.90172648 0.010680621
-0.064730264 0.054843586 0.0066886246 0.092903771 0.57106566 0.81563038 0.0085744383
-0.06185659 0.054384552 0.0064253444 0.19402601 0.68624949 0.70101041 0.0048527317
-0.059927072 0.054086093 0.0061263344 0.27454376 0.75467199 0.59589922 0.0055923248
0.062168755 0.054362282 0.0063829292 -0.3330369 0.60934216 0.71957523 0.0053775138
0.064629875 0.055133019 0.0066768057 -0.15565272 0.50927931 0.84640819 0.010808381
0.067312546 0.05545095 0.0066156816 0.1070496 0.35420713 0.92901975 0.018388672
0.069309622 0.054778159 0.0061712544 0.36075956 0.27622581 0.89081526 0.0090802936
-0.069571219 0.057073932 0.0060342848 -0.074828677 0.50042105 0.86254245 0.016878642
0.067412704 0.057176542 0.0060689729 0.07215438 0.37563711 0.92395377 0.023637226
-0.018493183 0.0058352887 0.0091375913 -0.21521573 -0.79479921 0.5674296 0.00067564129
-0.016122796 0.0055889012 0.0095251342 -0.16972978 -0.79414749 0.58354235 0.00091104023
-0.013392214 0.0053545292 0.0099132294 -0.13604727 -0.78003216 0.6107707 0.00093449367
-0.010504135 0.0052044983 0.010276436 -0.10025474 -0.7614845 0.64038295 0.0009304476
-0.007546091 0.004992038 0.010381182 -0.064681597 -0.75341618 0.65435493 0.0011187455
-0.0045572035 0.0049056713 0.010509445 -0.029589096 -0.74216229 0.66956675 0.0012395445
-0.0014241427 0.00481355 0.010443781 -0.0092255604 -0.75367016 0.65718812 0.0012301459
0.0015672428 0.0049206656 0.010558754 0.0059456108 -0.72941941 0.6840409 0.0012640018
0.0044923886 0.0048178295 0.010352636 0.045134164 -0.74242377 0.66840851 0.0015077594
0.0074680806 0.0049313335 0.010214049 0.064063407 -0.74229282 0.66700613 0.0013760246
0.010409019 0.0051189051 0.010182972 0.083501734 -0.7329672 0.67511976 0.0013693427
0.013325886 0.0053162291 0.0099794501 0.11424518 -0.73696828 0.66620249 0.0013522353
0.016272711 0.0054905755 0.0096022878 0.1370873 -0.74978375 0.64732629 0.0010493329
0.019050734 0.0058499891 0.0093233837 0.15141661 -0.74035317 0.65494287 0.00065248209
-0.027628059 0.0087040979 0.0093558636 -0.27856097 -0.78996807 0.54621816 0.00052497361
-0.025363473 0.0083147474 0.0098693306 -0.24708861 -0.78530985 0.56765801 0.00073645951
-0.022332298 0.0079953605 0.010603211 -0.21041015 -0.76239622 0.61194742 0.0010492117
-0.019520735 0.0072855302 0.010719936 -0.1906738 -0.76526988 0.61482143 0.00074493984
-0.016645735 0.0068487301 0.011051127 -0.15563981 -0.75505912 0.63691592 0.00095036317
-0.013545104 0.0066163619 0.011444026 -0.11853144 -0.71014094 0.6940102 0.0012668533
-0.010716184 0.0063732588 0.011625353 -0.082045734 -0.70346224 0.70598114 0.0012364367
-0.007739387 0.0061959196 0.01172495 -0.050110113 -0.71810997 0.69412327 0.0012084369
-0.0047443407 0.0060842158 0.011777283 -0.021020746 -0.70111692 0.71273649 0.0014776919
-0.0017904354 0.0060909456 0.01183188 0.00086684449 -0.69860655 0.71550554 0.0011042122
0.0018505999 0.0061548906 0.011906066 0.013978527 -0.67733443 0.73554248 0.0017908062
0.004793182 0.0062486441 0.011843027 0.040270824 -0.66996902 0.74129599 0.0018624339
0.0074552032 0.0063280794 0.011714379 0.05678127 -0.69074279 0.72086775 0.0016863536
0.0106243 0.0064944481 0.011578464 0.078648344 -0.7023102 0.70751315 0.0013305
0.013658992 0.0067286887 0.01137229 0.10458989 -0.66706586 0.73762059 0.0018181725
0.016660115 0.007004892 0.011152282 0.12887938 -0.65738428 0.74245274 0.0018570771
0.019615632 0.0074182288 0.010921586 0.15852337 -0.66901296 0.72614878 0.0017565819
0.022375863 0.0077886088 0.010608399 0.16756818 -0.67852521 0.71520936 0.00097767345
0.0255346 0.0080333408 0.0099897906 0.18663299 -0.69350958 0.69585389 0.00034647944
0.028385868 0.0083832834 0.009631414 0.19242635 -0.69302469 0.6947583 0.00049220212
0.031063484 0.0086801723 0.0092316475 0.20864259 -0.6912117 0.69187754 0.0010113909
-0.036286041 0.011907797 0.0092173275 -0.36546659 -0.76779121 0.52624214 0.00069420791
-0.034175515 0.011398601 0.0098314462 -0.33095777 -0.76575291 0.55144298 0.00076382724
-0.031462256 0.010864217 0.010527807 -0.27351406 -0.77044713 0.57584834 0.0011044778
-0.028535923 0.010080002 0.0108524 -0.25775602 -0.76556259 0.58947074 0.00068871601
-0.025812618 0.009575001 0.0114064 -0.2225152 -0.73263818 0.64321709 0.0012094536
-0.023268588 0.0092217289 0.011840337 -0.20385878 -0.71344012 0.6704064 0.0019943225
0.023395473 0.0092803938 0.011838779 0.16196239 -0.64458108 0.74718356 0.0010916244
0.02576012 0.0096149677 0.011506866 0.1816377 -0.65982181 0.72913843 0.00081998901
0.028566984 0.01004156 0.011077405 0.19321154 -0.63588071 0.74721152 0.00088777894
0.031533428 0.010420664 0.01060439 0.20340052 -0.62963009 0.74979609 0.00038786139
0.034473281 0.01071655 0.010089635 0.21656215 -0.64421326 0.7335462 0.0012530227
0.037279885 0.011217819 0.0097096507 0.25397637 -0.65116298 0.71518016 0.0019675996
0.039604772 0.011791205 0.0093409289 0.292445 -0.67931533 0.67305768 0.0022840134
-0.042242091 0.014885919 0.0092118327 -0.44015622 -0.73699373 0.51293552 0.0011372366
-0.040172651 0.014332435 0.010043592 -0.39266509 -0.73325807 0.55510968 0.0008160416
-0.037568543 0.013595286 0.010705818 -0.34237036 -0.74246061 0.57579058 0.00071583857
-0.034754556 0.0126795 0.011227846 -0.31443784 -0.72875679 0.60831112 0.0012069687
-0.032497749 0.012184007 0.011809966 -0.28269443 -0.72456503 0.62856138 0.001606344
0.032393549 0.012226921 0.011838991 0.19701511 -0.6000638 0.77531189 0.00041371543
0.034740951 0.012624987 0.011539848 0.20757154 -0.60047591 0.77223241 0.00037565295
0.03765047 0.013297838 0.011235808 0.22081544 -0.57325941 0.78905904 0.00065994583
0.040379208 0.013725434 0.010725163 0.25525206 -0.59392267 0.76295626 0.0012425847
0.043274488 0.014196625 0.010038464 0.32349297 -0.63109559 0.70503241 0.0020036472
0.04558843 0.014720172 0.0093663484 0.36664277 -0.66312528 0.65256256 0.0022182523
-0.045784593 0.017491641 0.0097302618 -0.46245739 -0.69834393 0.5463047 0.00073367654
-0.043423679 0.016617475 0.010505673 -0.42476887 -0.7104919 0.56104612 0.00074518588
-0.040950023 0.0157148 0.011301242 -0.37869373 -0.69393826 0.61240566 0.001230673
-0.038909689 0.015181242 0.011916661 -0.36432329 -0.68028188 0.63599145 0.0018446677
0.041097552 0.015312218 0.011724 0.23969258 -0.56467587 0.78973955 0.0010286429
0.043660168 0.016154481 0.011406001 0.2767407 -0.53727728 0.79671055 0.0012135684
0.046415411 0.016689284 0.010682368 0.32846105 -0.57566941 0.74881119 0.0013680644
0.049101479 0.017153153 0.0097450549 0.40856707 -0.6263805 0.66386777 0.0024905559
0.051175974 0.017844824 0.0091370465 0.42454675 -0.64419699 0.63621563 0.0023606648
-0.051265221 0.020831838 0.0091311084 -0.50595379 -0.67533374 0.53659576 0.00070572639
-0.049184427 0.020152917 0.010119757 -0.48918921 -0.66623718 0.56286949 0.00091506104
-0.046820551 0.019084098 0.010901935 -0.45683146 -0.67495215 0.57943481 0.0011561979
-0.044501286 0.018229388 0.011703287 -0.4301613 -0.66180176 0.61398667 0.0013909024
0.047182191 0.018459342 0.011701963 0.30756348 -0.52803546 0.79157013 0.001706031
0.049615037 0.019326743 0.011171833 0.35410115 -0.51506364 0.78059077 0.0010222766
0.052221581 0.01983466 0.01014189 0.41408449 -0.55456513 0.72179747 0.0021538124
0.054530114 0.020582475 0.0093980124 0.4625071 -0.58843422 0.66319847 0.0017619114
-0.054425579 0.023529582 0.0093349824 -0.55088013 -0.62277728 0.55558944 0.00094185048
-0.052306298 0.022763886 0.010431394 -0.50093597 -0.63707244 0.58583432 0.0015509119
-0.05001821 0.021735197 0.011256352 -0.47447532 -0.64030975 0.60405016 0.0011405727
0.050802197 0.02124317 0.011869094 0.38007209 -0.4947274 0.78153056 0.0012583351
0.052804042 0.022062071 0.011464167 0.38699967 -0.46356609 0.79708081 0.0010943976
0.055285361 0.022751629 0.01043807 0.45237046 -0.50790691 0.73306996 0.0020165944
0.05768751 0.023386898 0.0093722213 0.50482589 -0.53451407 0.6778242 0.0018825291
-0.057451457 0.026556773 0.0095445188 -0.58403903 -0.55389702 0.59337705 0.00094358181
-0.055417646 0.025552303 0.01051743 -0.53853226 -0.56538224 0.62476075 0.0015351925
-0.053302336 0.024545774 0.011468068 -0.51962519 -0.5906508 0.61735022 0.0010689253
0.001641009 0.026934678 0.011978818 0.047675416 0.68674117 0.72533685 0.0012854196
0.0043584676 0.026904989 0.011916546 0.013933727 0.68771183 0.72585011 0.0012873398
0.0075253113 0.026919773 0.011924236 -0.013027133 0.66121602 0.75008243 0.0029818558
0.055901434 0.025035132 0.011506355 0.4244113 -0.41733485 0.80355871 0.0009885066
0.058239285 0.025699859 0.01051948 0.482568 -0.44174519 0.75629979 0.0018009486
0.060402222 0.026350107 0.0094393129 0.5646081 -0.47880638 0.67228127 0.0020890604
-0.060322464 0.029654445 0.0093405452 -0.62438327 -0.50753236 0.5937646 0.0013991022
-0.058397472 0.028672988 0.010463532 -0.59047049 -0.47049433 0.65572834 0.0013507745
-0.056427285 0.02765236 0.01151139 -0.56864578 -0.51474476 0.64162278 0.0012724296
-0.012571323 0.029704565 0.011881068 0.20063849 0.68423849 0.70111471 0.0018151816
-0.010290535 0.029507993 0.011491187 0.16903216 0.67912799 0.71429217 0.0012173635
-0.0073944647 0.029226961 0.011092275 0.14118357 0.72473156 0.67441183 0.001533508
-0.0045171799 0.028845811 0.010970399 0.1146117 0.72864068 0.67523843 0.0012551555
-0.001518071 0.028609982 0.010777292 0.093354411 0.72087163 0.68675256 0.0020410512
0.0015169727 0.02840334 0.010699461 0.055654913 0.72246557 0.68916327 0.0019395486
0.0045226547 0.028339745 0.01066298 0.01535872 0.71926218 0.69456887 0.0018735324
0.0075324904 0.028349852 0.010661006 -0.024519797 0.71750194 0.69612479 0.002326377
0.010414486 0.028481035 0.010716368 -0.075775541 0.71271485 0.69734895 0.0020323419
0.013466176 0.028668342 0.010852147 -0.10937874 0.70658112 0.69912761 0.0029910905
0.016373483 0.028995795 0.01109675 -0.14100033 0.69155979 0.70842355 0.00191819
0.019428235 0.029253697 0.011462933 -0.16135705 0.66798651 0.72646946 0.0018895726
0.022183955 0.029609809 0.011755054 -0.18374634 0.66138858 0.72718805 0.0014233306
0.024244541 0.029938212 0.011943209 -0.21316898 0.6632545 0.71739286 0.0013150052
0.056763593 0.027030008 0.011971707 0.46672487 -0.37798896 0.79955757 0.002434057
0.058933996 0.028187605 0.011436555 0.45360905 -0.35274479 0.81841916 0.0012153599
0.061266217 0.028591854 0.010088865 0.54030174 -0.38836309 0.74649054 0.0018254808
0.063422993 0.029791944 0.0091065001 0.61851388 -0.40047765 0.67606086 0.002563192
-0.061103959 0.031792417 0.010104579 -0.63583326 -0.42287034 0.64567536 0.0017517996
-0.059240505 0.031085784 0.011389029 -0.59387553 -0.37910876 0.70963955 0.0018963519
-0.021661993 0.032818459 0.011714585 0.27325991 0.71402216 0.64459395 0.0017568951
-0.019290578 0.032311432 0.011339585 0.24859072 0.7293601 0.63736689 0.001653426
-0.016391577 0.031885054 0.010699768 0.23576868 0.75992149 0.60574937 0.0012736247
-0.013544816 0.031198848 0.010498893 0.20410281 0.76184708 0.61476105 0.0024835349
-0.010585348 0.03078348 0.010113792 0.18184042 0.76162022 0.62198764 0.0015909316
-0.0076441122 0.030479828 0.0096950484 0.14645307 0.77229196 0.61815584 0.001654122
-0.0047281226 0.030191649 0.0094432263 0.11654644 0.77294838 0.62367272 0.0014072809
-0.0021019401 0.030050594 0.0091365185 0.093656026 0.77673185 0.62282914 0.0014838012
0.013978486 0.030100618 0.0092422832 -0.11309304 0.75740916 0.64307183 0.0010291958
0.016648343 0.030343436 0.0095928563 -0.15808396 0.74409336 0.64910293 0.0012816768
0.019603105 0.030717729 0.010023043 -0.18159892 0.72728461 0.66187537 0.0014461572
0.022610098 0.031151868 0.010441507 -0.20015082 0.70764083 0.67763126 0.0021217202
0.025468441 0.031661291 0.010813021 -0.21707931 0.68146729 0.69891268 0.0016062519
0.028401526 0.032137331 0.011259243 -0.22733696 0.66876304 0.70786572 0.0020521039
0.030950943 0.032598216 0.011687479 -0.23407389 0.6484558 0.72437173 0.0022501769
0.033124618 0.03297314 0.011964928 -0.25164336 0.61744535 0.74527645 0.0013322486
0.059721317 0.030509768 0.011865998 0.45642775 -0.27559632 0.84600252 0.0019249648
0.061558947 0.031399563 0.011134534 0.50037509 -0.29501712 0.81399608 0.001585754
0.063703582 0.031752929 0.0097868377 0.58755851 -0.33171499 0.73806512 0.0018405545
-0.063570909 0.034971565 0.0095397048 -0.66059333 -0.36184448 0.65778792 0.0016417498
-0.061760683 0.034401767 0.010945232 -0.60356861 -0.31353372 0.73307675 0.0020315966
-0.059909653 0.033209413 0.011920349 -0.58782148 -0.32074115 0.74269176 0.0026190465
-0.028041672 0.035582192 0.011526593 0.30170506 0.68667728 0.66139877 0.0013889784
-0.025318649 0.034976795 0.010892473 0.30174783 0.74693143 0.59248769 0.0012681268
-0.022588234 0.034215432 0.010481591 0.28158033 0.76586771 0.57806504 0.0019812987
-0.019746594 0.033644412 0.0099112913 0.27085999 0.76326549 0.58656675 0.0015179368
-0.01743404 0.033270948 0.0093270671 0.25291103 0.78395391 0.56696761 0.0012282974
0.026263289 0.033233803 0.0093562426 -0.23913805 0.73048609 0.63968986 0.0014184644
0.028751329 0.033689652 0.0098393401 -0.25090542 0.71806496 0.64917582 0.0015676739
0.031603035 0.034188405 0.010381487 -0.27183002 0.70168418 0.65859532 0.0028359403
0.034364063 0.034813002 0.010877249 -0.28823504 0.64506805 0.70767778 0.0024046623
0.037069835 0.035440724 0.011479373 -0.29821438 0.6414386 0.70684135 0.0025262437
0.062321641 0.034352936 0.011603222 0.47808984 -0.19044589 0.85741496 0.0019957914
0.064404018 0.034628823 0.010290248 0.56451619 -0.22491215 0.79418892 0.0017833165
0.066151813 0.035651054 0.0092276484 0.64847201 -0.26134187 0.7149716 0.0030949647
-0.064199477 0.037686501 0.010132852 -0.63913095 -0.25266364 0.72641087 0.0024578774
-0.062333584 0.037322056 0.011532626 -0.57066453 -0.19487104 0.79772639 0.0021146014
-0.036360305 0.03896236 0.011913311 0.30993479 0.66039354 0.68397433 0.002641428
-0.034158863 0.038477879 0.011430871 0.32008263 0.69496828 0.64386821 0.0014207796
-0.031440251 0.037760966 0.01077825 0.33220786 0.73146254 0.59548336 0.001427373
-0.028661704 0.036939494 0.010246109 0.32818142 0.74640417 0.57894534 0.001789942
-0.026137333 0.036333553 0.0095874164 0.32360905 0.76571876 0.55583447 0.0012632937
0.034958482 0.036417898 0.0095436936 -0.3203558 0.70535225 0.63233715 0.0016127491
0.037722353 0.037122328 0.010160752 -0.33829072 0.68118685 0.64926404 0.0025840614
0.040333379 0.037767198 0.010903687 -0.33942294 0.6041705 0.72095084 0.0023367053
0.043077607 0.038427066 0.011606451 -0.30375198 0.56026268 0.77061045 0.0022588694
0.045071475 0.038782679 0.011915669 -0.290279 0.5624882 0.7741738 0.0011472539
0.062725954 0.037219044 0.011873703 0.46120068 -0.084839918 0.88323051 0.0031631177
0.064437605 0.03744287 0.010913957 0.52001327 -0.12030336 0.8456437 0.0016846905
0.066518098 0.037744798 0.0094836149 0.63551641 -0.16057988 0.75520396 0.0024880066
-0.066294543 0.040965114 0.0092327734 -0.6597662 -0.18249068 0.72897583 0.0023827201
-0.064486906 0.040529449 0.010572008 -0.58067036 -0.12527843 0.80444217 0.0034595963
-0.062634371 0.040363763 0.0118079 -0.51936632 -0.054043058 0.85284108 0.0028494457
-0.042358693 0.041868638 0.01184764 0.31102443 0.66617709 0.67784351 0.0021897149
-0.040340416 0.041411337 0.011431839 0.30847806 0.6863417 0.65861702 0.0015577278
-0.037407406 0.040634759 0.010722278 0.32928795 0.72257149 0.60783207 0.0010013083
-0.034748245 0.039849974 0.010152572 0.35318428 0.73213369 0.58244419 0.001560219
-0.032427371 0.039325409 0.0093837185 0.36912867 0.75328273 0.54434282 0.0015636429
0.041081123 0.039565675 0.0095797256 -0.3893047 0.67109764 0.63092768 0.0020328837
0.043652181 0.040315729 0.01027052 -0.36266157 0.62649965 0.68990922 0.0022075521
0.046290811 0.040816929 0.011096454 -0.30702674 0.56795126 0.7636531 0.0019364759
0.049042191 0.041466776 0.011671945 -0.25144434 0.52343076 0.81412274 0.0022857704
0.051290549 0.041951232 0.011909133 -0.18187155 0.4933058 0.85063046 0.0027685335
0.062793337 0.0408445 0.011928193 0.36275634 0.049592074 0.93056357 0.0040766229
0.064488567 0.040470343 0.011168763 0.4358905 0.0099093299 0.89994514 0.0037559504
0.06672629 0.040565506 0.0097366776 0.59231871 -0.065859742 0.80300748 0.002919029
-0.066538878 0.043583285 0.0094135804 -0.60885918 -0.054791901 0.79138386 0.0037486849
-0.064480394 0.04347305 0.010789013 -0.49408007 0.030753737 0.86887234 0.0036484795
-0.062452432 0.043728922 0.011809733 -0.40028065 0.096211798 0.91132796 0.0035904238
-0.048679903 0.044736072 0.01178409 0.23250777 0.6325292 0.73881447 0.0020256676
-0.046245776 0.044222549 0.011349756 0.28171244 0.65206861 0.70387822 0.0019228308
-0.043436397 0.043469805 0.010769307 0.31177106 0.68530321 0.65814769 0.00093814003
-0.040781766 0.042819697 0.009988239 0.35009748 0.7223199 0.59639388 0.00086490391
-0.038556017 0.042280458 0.0093430467 0.36806881 0.73297131 0.57208246 0.0010656692
0.044728074 0.042034067 0.0092137251 -0.3990525 0.66404557 0.63229781 0.0023097917
0.046875682 0.042753335 0.0097281747 -0.3662132 0.63944173 0.67601931 0.0020706467
0.049541667 0.043412197 0.010391989 -0.33366439 0.59343636 0.73246258 0.0021441097
0.052336764 0.043755561 0.011150699 -0.23154999 0.52782875 0.81717896 0.0014658426
0.055366416 0.044287909 0.011593151 -0.16266786 0.45971498 0.87304139 0.0026373023
0.058297575 0.044585701 0.011825225 -0.036889985 0.37999341 0.92425328 0.0036537191
0.061788019 0.044110358 0.011743825 0.15799792 0.24457026 0.95667243 0.005914066
0.0642666 0.043552507 0.011106565 0.35662663 0.13553862 0.92436284 0.0054791733
0.066720694 0.043326702 0.0098506799 0.53705668 0.039294548 0.84263051 0.0042713364
-0.06653288 0.046453297 0.0093640322 -0.52469379 0.073167168 0.8481409 0.0048065558
-0.064517491 0.046531275 0.010421908 -0.39117444 0.18979789 0.90053278 0.0068215528
-0.06164667 0.046667386 0.011440362 -0.23585352 0.32720691 0.91504574 0.0060165091
-0.058638979 0.047188323 0.011637229 -0.026725968 0.4615508 0.88671106 0.0026671153
-0.055477787 0.0471409 0.011515021 0.10127103 0.5403704 0.8353107 0.0027778202
-0.052481767 0.046864972 0.011115314 0.18457407 0.5936442 0.78327453 0.0013992783
-0.049628954 0.04645057 0.010554168 0.24469194 0.63812399 0.73001617 0.0010079985
-0.046776019 0.045752797 0.010038463 0.32515115 0.68237841 0.65470332 0.0012051483
-0.044559613 0.045242555 0.0093369978 0.36555073 0.70648438 0.60601366 0.0013003331
0.05059576 0.045328651 0.009269665 -0.36478493 0.64283413 0.6735698 0.0020012429
0.052761417 0.045892611 0.0097426353 -0.30403042 0.61012065 0.73165452 0.0026600331
0.055545777 0.046528533 0.010256615 -0.24479987 0.5424841 0.80360687 0.0029675504
0.058472861 0.046557683 0.010877505 -0.073240578 0.44748163 0.891289 0.0033002133
0.061458007 0.04654732 0.010975189 0.072348438 0.35951132 0.93033189 0.0053812955
0.064424053 0.046496585 0.010460892 0.28049609 0.25326136 0.9258405 0.0070416196
0.066789627 0.046401072 0.00953208 0.45700234 0.16239014 0.87451601 0.0046006474
-0.066387787 0.048849646 0.009160745 -0.36485395 0.23017091 0.90216571 0.0079665817
-0.064431183 0.049434509 0.0096391374 -0.2444641 0.31148389 0.91826749 0.0062512294
-0.061495852 0.049471539 0.010162555 -0.11704443 0.46181619 0.87921923 0.005803294
-0.058539063 0.049472984 0.010246344 0.049112823 0.56778812 0.82170826 0.0030073158
-0.055704799 0.049010959 0.010179824 0.15399536 0.62554973 0.76483524 0.0028963964
-0.052730147 0.048659351 0.0096008629 0.23463462 0.66189021 0.7119326 0.0019226839
-0.050545614 0.04822322 0.0092635667 0.30678287 0.68814856 0.6575225 0.0021586965
0.056373779 0.048368607 0.0092186294 -0.29141608 0.61280954 0.73453468 0.0028437779
0.058652993 0.048835263 0.0095340973 -0.18861999 0.54988551 0.81366354 0.0045753722
0.061567049 0.049290363 0.0097227711 -0.038084794 0.45799142 0.88814044 0.0053192638
0.06440901 0.049348574 0.0095819784 0.14092164 0.34496772 0.92797542 0.0071621123
0.066381663 0.048852488 0.0092084156 0.38839018 0.24743526 0.88765359 0.0058201631
-0.063798971 0.051147457 0.0090802563 -0.14236447 0.45829475 0.87732446 0.0086714756
-0.061594609 0.05115537 0.0091314353 -0.019872466 0.55233055 0.83338827 0.0052771433
-0.059726734 0.051188529 0.0090103913 0.10029861 0.65881294 0.74559087 0.0029932836
0.06243933 0.051034745 0.0090608811 -0.1294366 0.53654814 0.83388388 0.0058865352
0.06358707 0.05103831 0.009016511 0.063512273 0.46181935 0.8846972 0.009728536
-0.02126343 0.0089175478 0.012160392 -0.18479522 -0.71462297 0.67465895 0.0020458433
-0.01920663 0.008639235 0.012395374 -0.16803703 -0.70217526 0.69189119 0.0014757543
-0.016313152 0.0083402963 0.01266273 -0.13145818 -0.6806733 0.72069591 0.0013235918
-0.013404232 0.0080412561 0.012819151 -0.09884277 -0.66866577 0.73696417 0.001202914
-0.010471362 0.0078238854 0.012982215 -0.065569907 -0.65061319 0.75657326 0.0011064926
-0.00746415 0.0077125076 0.013057574 -0.033218637 -0.63056928 0.7754218 0.0012067918
-0.0044777202 0.0076944609 0.013161453 -0.012231099 -0.61211473 0.79067439 0.0015985533
-0.0014948206 0.0076283147 0.01311896 0.0083726272 -0.59130615 0.80640376 0.0020369927
0.0014636377 0.0076860026 0.013111153 0.025074856 -0.58002728 0.81421107 0.0022059039
0.00440398 0.0077192341 0.013029997 0.043861631 -0.57689333 0.81564099 0.0018620404
0.0074652471 0.0077984701 0.012901738 0.06282033 -0.58430916 0.80909598 0.0022100238
0.010440394 0.0079614185 0.012792521 0.0782438 -0.58500338 0.8072477 0.001752043
0.013414915 0.0082173804 0.012651346 0.094196975 -0.58518434 0.80541062 0.0019763436
0.016211569 0.0084503526 0.012476501 0.11027377 -0.60291833 0.79014504 0.0020212957
0.018984763 0.0086951191 0.01220584 0.13381352 -0.61666769 0.77576727 0.002004944
0.021216044 0.0088608749 0.012095935 0.15911286 -0.65499038 0.73869526 0.0013988778
-0.030629469 0.011857751 0.012205873 -0.26004389 -0.71184176 0.65242505 0.0014373119
-0.028238392 0.011424505 0.012575534 -0.23522763 -0.70117897 0.67306471 0.0012603995
-0.025364736 0.010918208 0.01297307 -0.20403704 -0.68451291 0.69986486 0.0013364247
-0.022494433 0.010590804 0.013380288 -0.17400327 -0.65762633 0.73297369 0.0015623473
-0.019505806 0.010454342 0.013893791 -0.13775706 -0.61194319 0.77881235 0.0014672956
-0.016537899 0.010210016 0.014180913 -0.10492989 -0.58100164 0.80711019 0.0012658879
-0.013531755 0.0099739227 0.014327706 -0.074296832 -0.55452311 0.82884502 0.0016079302
-0.01048818 0.0098226517 0.014471002 -0.044793423 -0.52630687 0.849114 0.0019328953
-0.0075504277 0.0097544035 0.014515464 -0.018573944 -0.50275147 0.86423147 0.0020298811
-0.0045231362 0.0098098041 0.014584217 -0.00055736798 -0.48452619 0.87477654 0.0020767734
-0.0015024027 0.0098609021 0.014573247 0.017994933 -0.46923983 0.88288736 0.0019596992
0.0015272402 0.0099796439 0.014546248 0.030289289 -0.45866427 0.88809329 0.0019470943
0.0045861923 0.010086917 0.014465091 0.04621616 -0.45218852 0.89072424 0.0017331722
0.0075409748 0.010316755 0.014404372 0.059923336 -0.44708815 0.89248049 0.0015077604
0.010501447 0.010448837 0.014250509 0.072824992 -0.4494901 0.89031184 0.0011720712
0.013517522 0.010516956 0.014000416 0.084233895 -0.45225126 0.88790393 0.0010150603
0.016475569 0.010494036 0.013687924 0.10326719 -0.46522394 0.87914878 0.0015031524
0.019479958 0.010565576 0.013360738 0.12150516 -0.49283525 0.8615973 0.002178015
0.02248889 0.01067473 0.012979896 0.13360184 -0.52156883 0.84268415 0.0021539412
0.025401087 0.011045096 0.012694646 0.15044723 -0.54976994 0.82165599 0.0029428592
0.028139593 0.011550774 0.012478855 0.17518359 -0.57074034 0.80222577 0.0016001727
0.030511877 0.01179514 0.012112811 0.19583485 -0.60486138 0.7718752 0.00058417756
-0.036894146 0.014654505 0.012368932 -0.32450914 -0.67906606 0.65845507 0.0012214865
-0.034267526 0.014057323 0.012951535 -0.29565704 -0.66220766 0.68852586 0.0013797715
-0.031461131 0.013579037 0.013558574 -0.23455809 -0.64303893 0.72902912 0.0013484787
-0.028580129 0.013211436 0.014088317 -0.20355164 -0.61588508 0.76108623 0.0018526221
