# .PCD v0.7 - Point Cloud Data file format
VERSION 0.7
FIELDS x y z normal_x normal_y normal_z curvature
SIZE 4 4 4 4 4 4 4
TYPE F F F F F F F
COUNT 1 1 1 1 1 1 1
WIDTH 560
HEIGHT 1
VIEWPOINT 0 0 0 1 0 0 0
POINTS 560
DATA ascii
-0.040326081 0.013063757 -0.0040352894 -0.50900584 -0.81596488 -0.27407011 0.00061175757
-0.048023943 0.017788574 -0.0034037796 -0.57223409 -0.79446107 -0.20342049 0.00012356503
-0.046103042 0.016822539 -0.0045543476 -0.55977064 -0.79857457 -0.22121367 5.8929141e-05
-0.044615459 0.015455015 -0.0035264671 -0.53475142 -0.79706985 -0.28057182 0.00073772157
-0.051631585 0.020542165 -0.0037249262 -0.59309411 -0.78190464 -0.19200139 5.83867e-05
-0.049757376 0.019376464 -0.004452154 -0.57963753 -0.78941351 -0.20210569 0.00014677992
-0.054835241 0.023258781 -0.0045795757 -0.61183774 -0.76754206 -0.19113825 0.00013323165
-0.052995998 0.021605521 -0.0038478561 -0.59905452 -0.77564013 -0.19878666 6.7303787e-05
-0.058168568 0.025962997 -0.0044112084 -0.64739531 -0.73486316 -0.20212753 0.00041526853
-0.056241028 0.024389848 -0.0044917325 -0.6240744 -0.75453752 -0.20298859 0.00014848464
-0.061425399 0.028859878 -0.0037780879 -0.70109671 -0.66526347 -0.25668642 0.0010648826
-0.059734218 0.02752541 -0.0048559923 -0.66562009 -0.69996506 -0.25884122 0.0013095576
-0.06389232 0.031728275 -0.0041565201 -0.72287101 -0.63721436 -0.26723668 0.0011003482
-0.062950589 0.030405791 -0.0035970025 -0.72017711 -0.64190483 -0.263255 0.0010972705
-0.0013263359 0.032861192 -0.0033967134 0.061987676 0.99667996 -0.052788101 0.0019588203
0.0014411258 0.032630213 -0.0036657203 0.036416095 0.99647117 -0.075624928 0.0018990892
0.004086066 0.03260937 -0.0032393704 -0.0076753814 0.99700153 -0.077000715 0.00161701
0.0095955189 0.032750361 -0.0034625158 -0.07638108 0.99368161 -0.082236148 0.00070328644
-0.066626422 0.035007045 -0.0037658189 -0.78345078 -0.57159495 -0.24389383 0.0022040918
-0.065086499 0.033375971 -0.004329598 -0.78179938 -0.57537633 -0.2402747 0.0022304996
-0.015770463 0.035661168 -0.0034258743 0.27837187 0.95705706 -0.080937847 0.00049832871
-0.013875435 0.035150748 -0.0030953197 0.26376367 0.96304184 -0.05458197 0.001127325
-0.011382701 0.034403298 -0.0034677652 0.234009 0.97061372 -0.056115303 0.0011878439
-0.0079723801 0.033739291 -0.0033733731 0.19440606 0.97948909 -0.052985821 0.00085825485
0.012847895 0.033064324 -0.0035230862 -0.13052438 0.98946643 -0.062606193 0.0012231352
0.016292218 0.033709139 -0.0032893112 -0.19361357 0.98031527 -0.038676061 0.00081481977
0.019564187 0.034519006 -0.0034032539 -0.26801407 0.96197397 -0.052673876 0.00046064795
0.022062 0.03522779 -0.0034272792 -0.2745018 0.96037626 -0.048230462 0.00053068384
-0.069085747 0.038699981 -0.003762013 -0.82040483 -0.50353837 -0.27089682 0.0015941698
-0.067901812 0.03704261 -0.0039968933 -0.79256809 -0.54053056 -0.28224561 0.0010464445
-0.022307087 0.037791986 -0.0033401963 0.35995254 0.93216068 -0.03886655 0.00068266352
-0.020176733 0.037004016 -0.0030713063 0.32557175 0.94412661 -0.051263645 0.00099336833
-0.017663857 0.036170859 -0.0037572898 0.28730127 0.9549942 -0.073783681 0.00062375847
0.026283786 0.036431305 -0.0034349342 -0.29363644 0.95442384 -0.053411793 0.00083812885
0.028459016 0.037122883 -0.0035727199 -0.31940237 0.94328105 -0.090570025 0.0018960305
0.032100853 0.038366005 -0.0038876636 -0.36458746 0.92558587 -0.10181694 0.0031198792
0.033589382 0.03885974 -0.0043907794 -0.3959665 0.8980546 -0.19159476 0.0016136371
-0.07024499 0.040775478 -0.0037185978 -0.84027237 -0.44842348 -0.30472746 0.0018890512
-0.029694954 0.04086085 -0.0035656805 0.41775867 0.90783632 -0.036208197 0.00068502431
0.035108209 0.039710619 -0.0039440775 -0.44836399 0.87201446 -0.19636823 0.0014587278
0.03756047 0.041011207 -0.0040237331 -0.48021099 0.85144496 -0.21080558 0.00097614678
0.039774351 0.041969962 -0.0050096912 -0.50810766 0.83395183 -0.21529281 0.00074750488
-0.071147464 0.043471109 -0.004150616 -0.90640688 -0.39683592 -0.14473385 0.0041493638
-0.037257314 0.044720333 -0.0035458324 0.46614456 0.88378268 -0.040464636 0.00070546824
-0.033053063 0.042628247 -0.0031832356 0.44287592 0.89500415 -0.05318385 0.00045288692
0.038740374 0.042018656 -0.0030395859 -0.50742215 0.84693247 -0.15883398 0.0043326668
0.040905833 0.043035746 -0.0040080799 -0.51925927 0.82891351 -0.20801984 0.00049966905
0.04340009 0.044344492 -0.0047715139 -0.53461665 0.81767327 -0.21353091 0.00036299031
-0.072487481 0.046320666 -0.0035167653 -0.91632944 -0.382761 -0.11761993 0.0031949498
0.044277787 0.045281168 -0.0038279283 -0.53581756 0.81445676 -0.22262032 0.00027459252
0.046293665 0.046480298 -0.0041105542 -0.55204046 0.81859612 -0.1585931 0.0011173643
0.048602331 0.047824569 -0.004543242 -0.55278629 0.81895483 -0.15407938 0.0014524752
0.049051072 0.048515156 -0.0035173916 -0.54260755 0.82412267 -0.16247715 0.0016581787
0.051959414 0.050151289 -0.0041617863 -0.53605205 0.82650244 -0.17187762 0.0019214263
0.053482093 0.051099628 -0.0042458884 -0.53733969 0.82356966 -0.1816567 0.0015986172
0.056336991 0.053239755 -0.0034366376 -0.56758994 0.81593031 -0.10999778 0.0032598171
0.057306997 0.053805534 -0.0036590539 -0.57447165 0.81045175 -0.1146748 0.0035472261
0.064613089 0.061189428 -0.0030687358 -0.87288553 0.46288654 -0.15429486 0.016132304
0.065807492 0.06416595 -0.003118712 -0.92317456 0.32919183 -0.1984479 0.010559399
0.072698057 0.075984761 -0.0034460577 0.098704875 0.9818539 0.1619267 0.070678271
-0.015916018 0.0026802991 -0.00074882968 -0.24677116 -0.96212113 -0.11587478 0.00024283052
-0.013202525 0.0019955214 -0.0012306439 -0.20472063 -0.97847497 -0.026003761 0.002052923
-0.010907469 0.0014908154 -0.00052593864 -0.14509983 -0.98243576 0.11732838 0.0015512224
-0.0072092405 0.0010175222 -0.0011064933 -0.13231882 -0.98825771 0.076410212 0.0014115025
-0.0045505236 0.00065833674 -0.0011465593 -0.080660082 -0.9941529 0.071791716 0.0017037524
-0.00076656556 0.00054994947 -0.0020371277 -0.057809614 -0.99362522 0.096783385 0.0019952371
0.0011939107 0.00035212954 -0.00083341385 -0.022671815 -0.99255258 0.11968881 0.0025943476
0.013672927 0.00098288734 -0.0011476583 0.13016282 -0.98101211 0.14378077 0.0031373259
0.016421678 0.001416332 -0.0017678118 0.16998975 -0.98003614 0.10311463 0.0019911174
0.019153928 0.0018021212 -0.0014913935 0.17527358 -0.98188293 0.072007798 0.0013914283
0.022141358 0.0024535444 -0.0015884759 0.19597958 -0.9802497 0.026504951 0.0012002855
0.024442852 0.0028742172 -0.00084686745 0.23769657 -0.97115093 0.019137029 0.0021398761
-0.024734538 0.0055841906 -0.0011424767 -0.33222237 -0.93229198 -0.14303841 0.0029821685
-0.022546062 0.004769437 -0.0013734028 -0.30501646 -0.93647367 -0.1731534 0.00049546227
-0.020024961 0.0039330395 -0.001921868 -0.26991892 -0.96009886 -0.073171347 0.0031872822
-0.017410573 0.0032211386 -0.0020445315 -0.2724652 -0.95289445 -0.13324778 0.00037110853
0.025540723 0.0032789223 -0.002324499 0.2601248 -0.96534425 -0.021110818 0.00043254803
0.028041054 0.003897856 -0.0013317368 0.28912553 -0.9569124 -0.026927326 0.00024091423
0.031073628 0.0048163147 -0.0014737641 0.31044269 -0.9500007 -0.033527508 0.0003652708
0.033423785 0.0057489234 -0.0028076645 0.32320836 -0.94594955 -0.026754098 0.00036383932
-0.031091638 0.0082211159 -0.0021413448 -0.33710495 -0.92545867 -0.17287706 0.0034490163
-0.028392931 0.0070808977 -0.0019551835 -0.33688197 -0.91950262 -0.20254733 0.0011970121
-0.026093595 0.0061696712 -0.0017841375 -0.3385593 -0.92031813 -0.1959395 0.0011122994
0.034986604 0.0063671889 -0.0029938081 0.34415382 -0.93817335 -0.037267897 0.00039103962
0.040810164 0.0084440308 -0.00018162599 0.42071801 -0.89132726 0.16891466 0.0010580164
0.044517893 0.010254979 -0.00069108949 0.45111176 -0.88171929 0.1380918 0.00047716999
-0.043046553 0.014087327 -0.0023486849 -0.51859415 -0.80675 -0.28322169 0.00033591641
-0.048555549 0.017829083 -0.0018754099 -0.56790459 -0.77298504 -0.28280464 0.00078076031
-0.046448566 0.016425267 -0.002357166 -0.55976319 -0.79857528 -0.22122969 6.9855254e-05
-0.04450573 0.015033705 -0.002129761 -0.53473729 -0.79707998 -0.28057 0.00074188877
-0.05184409 0.020220514 -0.0015487957 -0.58958071 -0.76154453 -0.26915532 0.00090447621
-0.049957093 0.0188755 -0.002107033 -0.57964468 -0.78940904 -0.20210281 0.00013721864
-0.055387132 0.022914922 -0.0014814116 -0.61185628 -0.76753294 -0.19111536 0.00011324481
-0.053384911 0.021401271 -0.0016719822 -0.59905541 -0.77564144 -0.19877878 6.785927e-05
-0.060150538 0.026873549 -0.0014788235 -0.67765027 -0.71306562 -0.17979859 0.00068901991
-0.057812631 0.024934001 -0.0018867438 -0.66629338 -0.72639173 -0.16854733 0.00073350646
-0.056879126 0.02419395 -0.0019860649 -0.62191826 -0.76088959 -0.18510751 9.6311094e-05
-0.063062266 0.029938672 -0.001708435 -0.75072867 -0.65150934 -0.10927989 0.00049917924
-0.061616771 0.028382204 -0.0014062829 -0.71309447 -0.6863656 -0.14282306 0.00080826401
-0.064418241 0.031388737 -0.0012450652 -0.76279998 -0.63748717 -0.10838051 0.00085447775
0.0054873554 0.032663949 -0.0027891421 -0.0043373038 0.99386972 -0.1104724 0.00042356076
0.0073094144 0.032803681 -0.0019686162 -0.044443622 0.9974671 -0.05553589 0.0014199307
0.010444864 0.032913312 -0.0027434132 -0.07637284 0.99368221 -0.082236975 0.00068734324
-0.06700398 0.034606509 -0.0012282541 -0.7998718 -0.59529984 -0.076309584 0.0014790648
-0.065791734 0.033167977 -0.001670323 -0.77655911 -0.6139701 -0.14140965 0.0015101648
-0.01515214 0.035820212 -0.0010194094 0.2854487 0.9570713 -0.050335567 0.0010323132
-0.013472172 0.035265643 -0.0014658039 0.26857272 0.96193999 -0.050400078 0.0010890347
-0.010561819 0.034530696 -0.0014322841 0.2311711 0.97105253 -0.060140669 0.0011522456
-0.0074677779 0.033978559 -0.0010772205 0.17045319 0.98523241 0.016210737 0.0031402463
-0.0044881091 0.033386379 -0.002196043 0.12693274 0.991853 -0.010758647 0.0020845449
-0.0011744299 0.033309739 -0.00011294593 0.092867851 0.99460745 -0.046169814 0.0015803451
0.0015770368 0.033076156 -0.00039073231 0.036635485 0.99818814 -0.047732104 0.0031215383
0.003736872 0.033041555 -0.00010221104 0.028849468 0.99883169 -0.038768794 0.0017025652
0.0088161146 0.033054192 -0.00082869455 -0.024511566 0.99926817 -0.029366264 0.0021674715
0.010688337 0.033130914 -0.0012563077 -0.075496383 0.99640793 -0.038361326 0.0023322352
0.013853316 0.03350196 -0.0016352565 -0.14244024 0.98953432 0.023079133 0.0027615298
0.01709367 0.034026995 -0.0021558043 -0.22286125 0.974576 0.023121279 0.0031854284
0.019678222 0.03478181 -0.0014304732 -0.25950697 0.96505362 -0.036437593 0.00067822041
0.022460002 0.035529554 -0.0016199283 -0.27449688 0.96037775 -0.048229475 0.00052017393
0.024023743 0.035910361 -0.0021483651 -0.26738784 0.9623158 -0.04951888 0.00088806351
-0.069623761 0.038376518 -0.00098581251 -0.85625625 -0.51540565 -0.034384537 0.0021447996
-0.068498164 0.036621265 -0.0009186471 -0.83416152 -0.5509674 -0.024686938 0.0017973208
-0.024513485 0.038763311 -0.0029706834 0.37973663 0.92435813 -0.036907155 0.00077288563
-0.022640418 0.038290713 -0.00077172852 0.36698341 0.92914265 -0.044911884 0.00075708702
-0.019532965 0.037043381 -0.0014144072 0.31563175 0.94703364 -0.059193298 0.0009291938
-0.016715586 0.036267869 -0.0010629364 0.27870661 0.95906085 -0.050248686 0.0010132812
0.023542644 0.036012389 -9.1843191e-05 -0.26741552 0.96230811 -0.049518175 0.00087883527
0.025458466 0.036424622 -0.0014412301 -0.28717294 0.95646948 -0.051940914 0.00067780935
0.028573442 0.037454873 -0.0013733611 -0.33679885 0.94011062 -0.052522298 0.0011263776
0.031361222 0.038447879 -0.0014508686 -0.37456846 0.92535073 -0.058519054 0.0015017658
-0.070610598 0.040090688 -0.0015819191 -0.88780105 -0.46001747 -0.013904378 0.0015595391
-0.030891389 0.041792028 -0.0013265572 0.44962579 0.89225602 -0.041422579 0.00061608909
-0.028504632 0.040631458 -0.0014920549 0.41532353 0.90879965 -0.039869357 0.00075676758
-0.02594999 0.039543491 -0.0016498994 0.38290334 0.92289084 -0.040713105 0.0004955451
0.032813162 0.039152283 -0.00089826999 -0.38669208 0.92002356 -0.063450098 0.0022368962
0.034502234 0.039876021 -0.0014233046 -0.42704406 0.90116292 -0.074422821 0.0016253472
0.037243791 0.041316699 -0.001515124 -0.49464697 0.86364102 -0.097203642 0.0027229278
-0.072499946 0.044237386 -0.0011189177 -0.9311586 -0.36403343 0.020573422 0.0048451889
-0.071632437 0.042527203 -0.0016968489 -0.91437095 -0.38706288 -0.1187776 0.0043313042
-0.036388375 0.044382114 -0.0028100284 0.46613637 0.88378698 -0.040466428 0.00071433862
-0.034653295 0.043699849 -0.0013721754 0.44896644 0.89252239 -0.042812373 0.00062843331
-0.032549042 0.042639401 -0.0012500209 0.44733423 0.89330024 -0.043666292 0.00057239452
0.038754631 0.042314723 -0.00093916303 -0.52560341 0.84526807 -0.096244209 0.0027368842
0.040619873 0.043398701 -0.0014961513 -0.52685934 0.84487969 -0.092722856 0.003082335
0.042575065 0.044647455 -0.0016530209 -0.53758019 0.83854622 -0.088588022 0.0025841654
-0.073397242 0.046671987 -0.00092979288 -0.92383689 -0.34753481 0.1604522 0.0041247825
-0.042542458 0.047898225 -0.0018239797 0.47974479 0.87732232 -0.012269113 5.4682689e-05
-0.040712144 0.046912264 -0.001511844 0.48835456 0.8721903 -0.028177276 0.0002772875
-0.037978128 0.045478251 -0.00087056495 0.46971479 0.8828007 -0.0055609602 0.0019201895
0.043981582 0.045622308 -0.0013125177 -0.5377323 0.83826834 -0.090278506 0.0026565557
0.046284545 0.047144309 -0.0014587282 -0.56139851 0.82353252 -0.081399553 0.0022976364
-0.075031206 0.050580695 -4.2767591e-05 -0.91365242 -0.37117442 0.16573754 0.0058054351
-0.074260198 0.049281619 -0.0012586034 -0.91074765 -0.41244051 -0.020776058 0.0034775906
-0.048007693 0.05081223 -0.0028915934 0.48980418 0.871387 -0.027865805 0.0004806768
-0.046193916 0.049863566 -0.0024540827 0.49436888 0.86892462 -0.023863478 0.00053280278
-0.043913133 0.048636343 -0.002058798 0.49186745 0.87024075 -0.027340367 0.00039482204
0.047801889 0.048240401 -0.00092641544 -0.56738192 0.81929237 -0.082690731 0.0024547784
0.049463995 0.049298529 -0.0013305667 -0.53308713 0.84137589 -0.088908762 0.003513888
0.051447712 0.050633021 -0.0013701988 -0.54153842 0.83566111 -0.091688275 0.0035023112
-0.075828642 0.052319184 -0.00058201764 -0.90454161 -0.31696719 0.28519523 0.0040985807
-0.074963339 0.051083818 -0.0017430005 -0.93207657 -0.35243371 0.083808042 0.004189176
-0.052400585 0.05339231 -0.0011961665 0.43312016 0.90130991 -0.0068863234 0.001457928
-0.049554691 0.052002888 -0.00043142613 0.48444971 0.87301016 0.05623024 0.0034086886
-0.047752555 0.05105586 -1.6251861e-05 0.48815858 0.86888224 0.082127057 0.0049530203
0.053027898 0.051692821 -0.0012694167 -0.53813422 0.84016865 -0.067291729 0.0056338054
0.055224836 0.053126857 -0.0012405455 -0.5715031 0.81594139 -0.087314419 0.0033313194
-0.076448292 0.055420589 -0.0011293297 -0.99711275 0.068162166 -0.033467706 0.048849396
-0.058952015 0.056165043 -0.00095142424 0.40130997 0.89231807 0.20668544 0.0040278817
-0.055685282 0.054784372 -0.0010653236 0.37890741 0.91939449 0.10556026 0.0016831741
0.056835685 0.054237306 -0.0012563923 -0.57246488 0.81978494 -0.015382078 0.0023725175
0.05852367 0.055434316 -0.0013210196 -0.62470597 0.78078103 0.011109615 0.0041217003
0.060186587 0.056713007 -0.0013028025 -0.67071354 0.73481804 0.10092416 0.008205371
-0.075504467 0.057516731 -0.00094518636 -0.81929672 0.57258767 0.029938256 0.069531776
-0.073532864 0.058614902 -0.0014686435 -0.53099322 0.84449661 0.069797121 0.014303922
-0.071383029 0.059668712 -0.0015674015 -0.40733436 0.91141516 0.058319073 0.00354103
-0.062056661 0.057889625 -0.00035172299 0.48433918 0.81547898 0.3168748 0.0051562907
0.061746456 0.058445357 -0.0010478508 -0.77918226 0.61395884 0.1262123 0.01252493
0.063316099 0.05927239 -0.0029160969 -0.78598201 0.61795729 -0.019003669 0.020885399
-0.069977313 0.060353849 -0.0011903011 -0.29774109 0.95338666 0.049032334 0.011171935
-0.068488345 0.060901254 -0.00072416465 -0.17249708 0.98110396 0.087634005 0.024026692
0.062898546 0.060117543 -0.0006169636 -0.81035519 0.57333678 0.12086928 0.014578395
0.06359762 0.061512101 -0.00078032707 -0.88613868 0.45457998 0.090084687 0.01293527
0.064585567 0.064216137 -0.00091026537 -0.92788792 0.27568126 0.25104538 0.019513909
0.065354399 0.067618959 -0.00049457204 -0.89107794 0.23480906 0.38838756 0.017284589
0.066269279 0.067870826 -0.0024618558 -0.97838974 0.17125009 0.11587453 0.03561477
0.065843269 0.069717214 -0.00035074522 -0.88631886 0.21554631 0.40985188 0.020956852
0.066317737 0.071073413 -0.00098119618 -0.87932318 0.21049748 0.42717856 0.01603549
0.06673564 0.073625281 -0.00093974639 -0.864097 0.17389366 0.47233179 0.015270658
0.067164086 0.076283686 -0.00079694338 -0.82434815 0.29332012 0.48416272 0.052083794
0.070522077 0.07665278 -0.0016124251 -0.036997572 0.99173951 -0.12281666 0.051738705
0.073725022 0.075668477 -0.0014614561 0.38107216 0.919985 0.09171509 0.014048962
0.075274661 0.075190939 -0.0019557034 -0.63409477 -0.7711665 -0.056798812 0.090287268
-0.018635247 0.002913944 0.0027838591 -0.2414995 -0.95259702 0.18503217 0.0045079445
-0.016095318 0.0023537949 0.0025441968 -0.19661471 -0.96386576 0.17973711 0.0034482409
-0.013170712 0.0018043916 0.0019922452 -0.16185816 -0.97870213 0.12627031 0.002862066
-0.010612508 0.0014098918 0.0015844965 -0.14169192 -0.98314011 0.11558129 0.0039691636
-0.0071573332 0.00099806953 0.0014730501 -0.11000147 -0.97601122 0.18788776 0.0036355429
-0.0052859993 0.00082527637 0.002209693 -0.075288363 -0.96708846 0.24304646 0.0040125544
-0.001481163 0.00046918684 0.0013235414 -0.045898881 -0.99292934 0.10947455 0.0018807021
0.002156449 0.00052315608 0.0023773201 -0.0011417423 -0.95391977 0.30005974 0.0029868595
0.0044517452 0.00046348403 0.0020410351 0.027045663 -0.94543582 0.32468376 0.0013787892
0.0080579231 0.00070139847 0.0022482823 0.058787324 -0.92879939 0.36589029 0.00075152615
0.010306715 0.00073346763 0.0019835697 0.086388692 -0.93727797 0.33770835 0.0023662068
0.01353103 0.0010065372 0.0018180619 0.11638243 -0.96678603 0.22755189 0.007288585
0.016564805 0.0013894903 0.001493086 0.15987819 -0.97513372 0.15347065 0.0036149896
0.019558202 0.0018799729 0.0015843739 0.16319628 -0.97708809 0.13662295 0.0040296526
0.022641832 0.0025391285 0.0015708884 0.21035007 -0.96646124 0.14732793 0.0031097739
0.0247376 0.0029268353 0.0010402404 0.23783697 -0.96790969 0.081144392 0.0030667305
-0.027476519 0.0056337258 0.0027159923 -0.30233848 -0.93784934 0.17038193 0.0072796508
-0.025404371 0.0049494519 0.0026970785 -0.28677925 -0.90920341 0.30183902 0.00047718658
-0.022440566 0.0040298402 0.0025441521 -0.31100196 -0.93447232 0.17331816 0.0050592963
-0.020344852 0.003465903 0.0021897282 -0.29586309 -0.9436667 0.14818311 0.0026165815
-0.017751779 0.0031052891 0.00034949498 -0.22988105 -0.96952462 -0.084715672 0.0021332146
0.025737882 0.0032752925 0.0018228532 0.26988244 -0.95634919 0.11207023 0.0030806256
0.028570622 0.0040823235 0.001740862 0.2876845 -0.95315325 0.093469843 0.0035270294
0.031401273 0.004904829 0.0015440867 0.27050608 -0.948255 0.1662498 0.0032287904
0.033665441 0.0056873863 0.0015355417 0.31888619 -0.94391906 0.085606389 0.0046688998
-0.036331419 0.0089591006 0.002456526 -0.38396907 -0.87850791 0.28423861 0.00046208053
-0.034596659 0.0082804132 0.0026366678 -0.36024967 -0.88250512 0.30233231 0.00063164451
-0.03126248 0.0070085283 0.0027462766 -0.32856783 -0.88938963 0.31785098 0.00046416454
-0.029106155 0.0061977552 0.0026606363 -0.32251012 -0.93334204 0.15766986 0.0083377371
0.035134982 0.0062795519 0.0018241184 0.33692896 -0.93687332 0.093527339 0.0047733248
0.03729989 0.0070819608 0.0016032533 0.35607943 -0.93016958 0.089398034 0.0027040238
0.040223856 0.008303103 0.0015068911 0.42073515 -0.89131844 0.16891854 0.0010529555
-0.04247351 0.01195747 0.0027036413 -0.4736498 -0.82926863 0.29659641 0.0013018496
-0.040525638 0.011029192 0.0027829665 -0.4278937 -0.85828322 0.28329661 0.00062844914
-0.037551612 0.0095993867 0.0026593015 -0.39833316 -0.86528379 0.3043265 0.00045909086
0.04187854 0.009077793 0.0014699354 0.42735875 -0.88972485 0.16048124 0.00077659136
0.043382592 0.0098246289 0.0017638558 0.4328256 -0.88667095 0.16271631 0.00081379898
0.046247717 0.011221315 0.0011840677 0.4652108 -0.8684997 0.17113522 0.00076203758
-0.045713834 0.014037102 0.0026037628 -0.51422453 -0.81602174 0.2639727 0.00040384001
-0.043851838 0.012803128 0.0027003558 -0.49060223 -0.8297773 0.2660436 0.00078375137
0.047840241 0.012234096 0.0020056474 0.47714633 -0.86368948 0.16239418 0.00069845055
0.049653437 0.01322715 0.0015702905 0.50310618 -0.83804733 0.21109448 0.00041916856
0.051561717 0.014373355 0.0015897717 0.52700794 -0.82109404 0.21924239 0.00059684028
-0.051440921 0.017978461 0.0029625662 -0.54693615 -0.77804935 0.30903086 0.00084218296
-0.049756519 0.016758054 0.0026844391 -0.53555083 -0.79398394 0.28770608 0.00079413748
-0.047541726 0.01522583 0.002851034 -0.5329262 -0.80463457 0.26182604 0.00052182225
0.053091783 0.015438534 0.0016715188 0.55539763 -0.79725981 0.23645356 0.00084194716
0.055340402 0.016961502 0.0013621466 0.57679194 -0.78827327 0.21432777 0.00013049407
0.05696575 0.018033402 0.00092636957 0.58335519 -0.77227885 0.25155953 0.00061429542
0.058602665 0.019466441 0.0015811679 0.61606085 -0.74541843 0.25459847 0.00081779074
-0.058142953 0.023535442 0.0029739193 -0.68457162 -0.71489006 0.14245652 0.006101198
0.061593283 0.022267798 0.0021609161 0.66961694 -0.67626202 0.30705509 0.0023918343
-0.060827121 0.026743725 0.0018563513 -0.74339569 -0.66154075 -0.098624721 0.0014709263
-0.059052825 0.025340764 0.0011912188 -0.69228846 -0.70484489 -0.15469484 0.0027444856
0.064660527 0.025469579 0.0013994139 0.71355504 -0.6000911 0.36156589 0.0029283585
-0.063251972 0.029789455 0.00075980014 -0.7665385 -0.63848859 -0.068928629 0.00084996584
-0.062274538 0.028796958 0.00065143238 -0.75055385 -0.65529221 -0.085211769 0.00075233472
-0.06497705 0.031790003 0.0013037195 -0.78226191 -0.62169421 -0.039531335 0.0012808139
-0.0003542373 0.032947045 0.0025280172 0.093601339 0.95671588 0.27556026 0.00147791
0.0017775132 0.032915249 0.0019044548 0.055462811 0.96309507 0.26338518 0.0017311451
0.0045759408 0.032905713 0.0014736587 -0.0031343603 0.9644165 0.26436892 0.0019136288
0.0075102914 0.032907508 0.0016218317 -0.057890315 0.9705112 0.23400164 0.0036020544
0.010588357 0.032971941 0.0025449544 -0.081438929 0.97065377 0.2262717 0.004200221
-0.067068458 0.034534059 0.0014325026 -0.80800706 -0.58787227 0.039125264 0.0019343318
-0.065860949 0.033006296 0.00040074866 -0.78933203 -0.61098427 -0.060441792 0.0006642323
-0.015607944 0.035860892 0.0020443946 0.31626275 0.94063497 0.12322234 0.00282354
-0.013615289 0.035329577 0.0015916695 0.26683715 0.9566409 0.11677384 0.0034294392
-0.0097430293 0.034418739 0.0018101875 0.18990138 0.94568104 0.26386517 0.0031960739
-0.0072503104 0.033947907 0.0020738933 0.14545834 0.95335215 0.26450232 0.0027369026
-0.004212785 0.033459913 0.0019726136 0.1283121 0.96423018 0.23193999 0.0026126965
-0.001736753 0.033190921 0.0016537205 0.097554483 0.97433561 0.20286262 0.0019465139
0.00079960976 0.033070847 0.0011574544 0.049152046 0.98187077 0.18306787 0.0019835883
0.0051755589 0.033021808 0.00010120383 0.0032016197 0.99866933 -0.051472124 0.0025682959
0.0078273984 0.033037577 0.00065381831 -0.037208609 0.99422294 0.10067915 0.005694475
0.010779985 0.033207364 0.0010047224 -0.078251764 0.99419266 0.073876388 0.0062840297
0.013601877 0.03349065 0.0016288101 -0.11293913 0.98503804 0.13017248 0.0039163614
0.016518254 0.034011513 0.0015270588 -0.20574391 0.97060263 0.12490019 0.0044517978
0.019550242 0.034758799 0.0015230676 -0.26780739 0.95757037 0.10648083 0.0032365448
0.022356583 0.035509944 0.0017231489 -0.276021 0.95277643 0.12660776 0.0039407592
0.069906548 0.034427524 0.0027155732 0.8288759 -0.31115285 0.46491784 0.0016944851
-0.069432631 0.038067393 0.0014892926 -0.86299151 -0.49211925 0.11429928 0.002956948
-0.068505242 0.036636986 0.001778692 -0.83768588 -0.54129452 0.072681457 0.001669355
-0.024362117 0.038864061 0.0020763141 0.37332156 0.91463 0.15518732 0.0041628839
-0.022488533 0.038154796 0.0016771307 0.37815872 0.91430217 0.14507766 0.0021825433
-0.019414747 0.037028473 0.0016211187 0.30113074 0.94215488 0.14718854 0.0045988178
-0.016913349 0.036311749 0.001495205 0.25836572 0.9592067 0.11475953 0.0029537282
0.023892827 0.036087569 0.00034269475 -0.25563383 0.96632063 0.029592678 0.0036749044
0.025443794 0.036414877 0.0017461834 -0.29374042 0.94742197 0.12691809 0.0041041817
0.028373756 0.037376173 0.0016388528 -0.31078333 0.94211423 0.12583546 0.0029397756
0.031280026 0.038406916 0.0016908271 -0.37741286 0.91631591 0.13388319 0.0035458275
0.071168557 0.037951495 0.0025187528 0.88193524 -0.22057378 0.41657829 0.0013662711
-0.070765801 0.040626343 0.0019876892 -0.88794959 -0.4052352 0.21755448 0.0023291111
-0.030668939 0.041682292 0.0016855398 0.46197325 0.88081443 0.10366675 0.0025491673
-0.028478151 0.040626828 0.0017230947 0.4156515 0.90365607 0.10314815 0.0030640764
-0.025690401 0.039512623 0.0013574455 0.36046186 0.9261331 0.11110714 0.0027901402
0.032799929 0.039157033 0.001037423 -0.38641804 0.91602468 0.10761008 0.0051178494
0.034503534 0.039853603 0.0017530313 -0.42482567 0.89450908 0.13920018 0.0032442389
0.037215315 0.041288741 0.0015463631 -0.49403647 0.85913134 0.13349679 0.0031688968
0.071915641 0.041215718 0.0022871678 0.88382357 -0.14892882 0.44348183 0.0019685864
-0.072286643 0.043989986 0.0014223657 -0.91551769 -0.30461684 0.26274693 0.0039505446
-0.071694203 0.042749044 0.0021118959 -0.89595431 -0.33596164 0.29050952 0.0028764533
-0.036679056 0.044714261 0.001663 0.49583709 0.86408156 0.086652361 0.0038172812
-0.03456879 0.043649927 0.0016841181 0.44526127 0.88688165 0.12322077 0.0027537344
-0.032027867 0.042381283 0.0014708776 0.42386204 0.89913881 0.10904346 0.0027207171
0.038768306 0.042252734 0.0011713435 -0.52998829 0.8393243 0.1210252 0.0036412873
0.040495969 0.043278851 0.0014962689 -0.52018708 0.84400308 0.13063008 0.0030647523
0.042678736 0.044674359 0.001645498 -0.56356984 0.81799138 0.1152352 0.0024074926
-0.073051341 0.04650278 0.0017635956 -0.9106788 -0.29087427 0.29335362 0.0055682533
-0.042384937 0.047840368 0.0016560932 0.50631398 0.85603195 0.10418983 0.0038885532
-0.040600441 0.046848986 0.0016910544 0.46981823 0.87527305 0.11475177 0.0035845838
-0.038073722 0.04548452 0.0014579762 0.4293097 0.88799292 0.16480829 0.0034779063
0.04418879 0.045673825 0.0015936722 -0.54775417 0.82730508 0.12462607 0.0029175188
0.046310283 0.047108337 0.001505726 -0.55413276 0.82074344 0.13898604 0.0030603288
-0.075062029 0.050734803 0.00026062975 -0.87456471 -0.36680746 0.31715751 0.0074403863
-0.074100465 0.04952617 0.0018583355 -0.86155975 -0.3366951 0.37993571 0.0069344859
-0.046427339 0.050126925 0.0015801472 0.46899128 0.87126839 0.14470184 0.0043752906
-0.043761615 0.048628118 0.0016276062 0.47819123 0.87188625 0.10558213 0.0043064193
0.047783364 0.048171166 0.0010493308 -0.53603739 0.83152896 0.14568281 0.0050644404
0.049245182 0.048993632 0.0020289263 -0.52754527 0.81027955 0.25523129 0.0026120553
0.051551834 0.050494064 0.0022158371 -0.52857447 0.81071043 0.25170925 0.003086989
0.072238892 0.050506953 0.0028592751 0.80427217 0.071190007 0.58998156 0.0012649539
-0.075660191 0.052850824 0.0015893645 -0.87743294 -0.23964344 0.41555086 0.01063301
-0.074798904 0.051669046 0.0024987292 -0.82111788 -0.28482547 0.49461088 0.0083391974
-0.054321568 0.053950887 0.0025438829 0.33145556 0.91731346 0.22061995 0.0072695557
-0.052419618 0.053305075 0.0017718559 0.42331669 0.88111824 0.21079312 0.0038505115
-0.049625169 0.051854607 0.0017290757 0.44669846 0.87266231 0.19728427 0.0022399791
0.053080134 0.051625479 0.0015205713 -0.52266824 0.83625954 0.16579486 0.0039215833
0.055076685 0.052836075 0.0019435495 -0.52600265 0.80933601 0.26133591 0.0037132024
0.072313651 0.053776778 0.0027977631 0.75999492 0.11650407 0.63940167 0.0036659467
-0.076135986 0.055441659 0.001835612 -0.87611139 0.0029017418 0.48209983 0.02983352
-0.060658224 0.056680959 0.0018826713 0.45936131 0.84094036 0.28601849 0.0053710304
-0.058490872 0.055733424 0.0017507594 0.40353358 0.87643623 0.26271686 0.0062628537
-0.05563863 0.054656263 0.0015109166 0.32239065 0.92086059 0.21927166 0.0034467459
-0.053765286 0.054039735 0.0011086998 0.38259438 0.9038685 0.19142473 0.0047884351
0.056768503 0.054126978 0.0012963576 -0.51853228 0.80033833 0.30096993 0.0040476518
0.058514748 0.055229753 0.0018612578 -0.52794272 0.78722489 0.31867462 0.0054638158
0.060529705 0.056650702 0.0020865311 -0.63326246 0.69195962 0.34665626 0.0079637989
0.072412893 0.054391384 0.0025867282 0.77956635 0.088662893 0.62001234 0.0009194662
-0.075463653 0.057446763 0.0014758902 -0.77480114 0.54569775 0.3192133 0.046439998
-0.073536828 0.058580741 0.0016195425 -0.56530404 0.80474323 0.18116204 0.016626667
-0.071326889 0.059690423 0.0014614898 -0.40124956 0.8987782 0.17662559 0.0090082213
-0.066349111 0.059659749 0.0026611602 0.26623127 0.85404283 0.4469136 0.022293976
-0.064687498 0.058863577 0.0024784801 0.3350274 0.72481847 0.60199237 0.0038860578
-0.062144067 0.057587102 0.0016864748 0.45924023 0.81063026 0.36328632 0.0097666094
0.061959874 0.058356855 0.0016044037 -0.70969981 0.55401647 0.43519181 0.012961852
0.063344598 0.059405904 0.0025887857 -0.70990783 0.54844278 0.44186133 0.01313094
0.072835639 0.059145518 0.0017024863 0.57938796 0.057161491 0.81304502 0.0085817333
-0.069731146 0.060406879 0.0015912678 -0.22350542 0.95956743 0.17110142 0.023948455
-0.067532048 0.06045109 0.0020880059 0.13773511 0.890854 0.43290669 0.025875678
-0.06565395 0.060155336 0.00048060031 0.40066135 0.8685872 0.29159358 0.011376531
0.062938295 0.060157821 0.00037242076 -0.75511414 0.65215957 0.067012131 0.033146434
0.064096414 0.061554391 0.0017337132 -0.72995371 0.41125751 0.5459258 0.015786706
0.072783694 0.061582781 0.0021122773 0.39796302 0.0070252046 0.91737455 0.017721131
0.06506265 0.064390831 0.0015745055 -0.7837404 0.28224504 0.55325288 0.013783489
0.066255383 0.06517262 0.0027150882 -0.63539869 0.28980681 0.7157377 0.026691264
0.07307864 0.065020651 0.0022489221 0.27173612 -0.020804301 0.96214688 0.014232091
0.065550618 0.067289181 0.0011182004 -0.80127895 0.23071189 0.55201823 0.026828915
0.066926323 0.067705713 0.0024900681 -0.55080056 0.27380913 0.78844613 0.023333266
0.069369681 0.068520546 0.0029523757 -0.22992915 0.013756971 0.9731102 0.023709156
0.073476091 0.06743484 0.00242355 0.20019065 -0.075361371 0.97685432 0.013231902
0.065859698 0.069568008 0.0005495802 -0.74210948 0.24088405 0.62549859 0.039552715
0.067412727 0.070543848 0.0020511714 -0.68415904 0.13926134 0.71591389 0.034938097
0.069342792 0.070554525 0.0029160869 -0.36244324 0.026476525 0.93162966 0.01305512
0.074435547 0.070208855 0.0025082347 0.37784103 -0.23289011 0.89610177 0.013571028
0.075182788 0.071176738 0.0021005704 0.62545413 -0.23378678 0.74441314 0.022176426
0.067555591 0.073504813 0.0017910126 -0.80374956 0.0612307 0.59180862 0.020986117
0.069249317 0.072581314 0.0029686284 -0.48751116 -0.082997277 0.86916298 0.011190722
0.075891055 0.073245734 0.0022979011 0.55630451 -0.11749915 0.82262945 0.052578483
0.067746103 0.076069623 0.0017198505 -0.76646495 0.29708973 0.56944638 0.064743318
0.070163496 0.076681875 0.0019226637 0.0086024655 0.93503183 0.35445949 0.057505589
0.073297717 0.07579796 0.001708083 0.39546165 0.8824358 0.25478861 0.034924466
0.075520515 0.075114407 0.00025760007 -0.82552981 -0.55800849 -0.084421985 0.090222225
-0.018189874 0.002896707 0.0031876098 -0.22507951 -0.95237887 0.20570305 0.0037167319
-0.016250174 0.0027290629 0.0041879085 -0.17784742 -0.92884636 0.32498416 0.0021432138
-0.013722223 0.0024575533 0.0047440664 -0.16484806 -0.91006982 0.38026029 0.0017525622
-0.010455862 0.0019207333 0.0047347229 -0.13127714 -0.93056297 0.34178764 0.0027258447
-0.0075225909 0.0016819293 0.0049963291 -0.095622249 -0.91740978 0.38628438 0.0027225902
-0.004537838 0.0013722796 0.0048000794 -0.060937788 -0.9115172 0.40672228 0.0030080893
-0.0018960241 0.0011913949 0.0046614599 -0.031427614 -0.90403533 0.42630088 0.0019022375
0.0015292757 0.001201188 0.0046857046 0.013371932 -0.92072934 0.3899726 0.0017324178
0.0045540482 0.0012962959 0.0047436375 0.04196227 -0.91963363 0.39052936 0.0012744302
0.0076492205 0.0015350232 0.0047687241 0.06278 -0.89540637 0.44080171 0.0012518005
0.010752699 0.0017517378 0.0049025216 0.073607594 -0.89524585 0.43945059 0.0010155767
0.013682514 0.0020981978 0.004929387 0.10917544 -0.87616044 0.46949297 0.0013746246
0.016435573 0.0024371874 0.0049817017 0.11849225 -0.86677396 0.4844197 0.0013493978
0.019090652 0.0024935736 0.0042833695 0.14043473 -0.88621175 0.44148239 0.0026197457
0.021818642 0.0028397716 0.0037499252 0.18982114 -0.88857871 0.41760719 0.0021145805
-0.027368132 0.0057851719 0.0037933509 -0.31037134 -0.88987213 0.33436093 0.0010633309
-0.025011184 0.0054141772 0.0046160189 -0.27871981 -0.88932794 0.36250672 0.00062022306
-0.022510625 0.0046345354 0.0046470077 -0.26115164 -0.89207494 0.3687847 0.00150542
-0.019880094 0.0038240512 0.0046645957 -0.26086968 -0.89705104 0.35671619 0.0013907981
-0.017118769 0.0033743579 0.0052520935 -0.20251751 -0.89272183 0.40253484 0.001017211
0.017716756 0.0030913055 0.0059078177 0.13074183 -0.83873826 0.52860641 0.001058811
0.019639626 0.0032361026 0.0056401007 0.14340024 -0.83609205 0.52951533 0.0022923027
0.022612305 0.0036277408 0.0052376613 0.17065498 -0.84184068 0.51203632 0.0018370602
0.025680671 0.0042623538 0.0051367749 0.19233443 -0.83670413 0.51277053 0.0017032732
0.028398477 0.0049948795 0.0050683375 0.22280532 -0.84865493 0.47973183 0.0026707666
0.031274118 0.0055052512 0.004348503 0.28640908 -0.90291399 0.32049373 0.0031223348
-0.033942048 0.008535468 0.0045234305 -0.34616542 -0.86558199 0.36185241 0.00081776996
-0.031308711 0.007648732 0.0047507691 -0.32016528 -0.87280446 0.3683838 0.00066786568
-0.028600568 0.0066568465 0.0047993832 -0.30893585 -0.87676257 0.36857304 0.00057357387
-0.026359469 0.0061253798 0.0053472952 -0.2924408 -0.87632179 0.38280344 0.00060127908
0.032219179 0.0062731993 0.0055281376 0.30944863 -0.88676882 0.34334043 0.003142586
0.034787662 0.0071301479 0.0051874295 0.29967833 -0.83269429 0.46563196 0.0024705313
0.037244562 0.0080169262 0.005162111 0.30561164 -0.80336726 0.51107985 0.0017219721
0.039889988 0.0086905416 0.0040175049 0.39134479 -0.88000095 0.26916102 0.0035277705
-0.042133167 0.011908652 0.0033507464 -0.46641594 -0.82786137 0.31161147 0.0011227902
-0.040238746 0.011469183 0.0047071916 -0.41262358 -0.83654523 0.36046338 0.00062442059
-0.037588816 0.010169868 0.0046369019 -0.3899475 -0.85130996 0.3510161 0.00054144446
-0.035196375 0.0092836944 0.0052213962 -0.36356735 -0.85633171 0.36676264 0.0007806939
0.040905926 0.0094718123 0.0048851171 0.40331075 -0.86104095 0.30975628 0.0020553216
0.043480389 0.010567141 0.0045615714 0.40714762 -0.84840614 0.33828688 0.0023285351
0.045854744 0.011602469 0.0040551051 0.43607628 -0.84016865 0.32241926 0.0024209425
-0.045574863 0.014527547 0.0047328351 -0.49452943 -0.79034621 0.36165386 0.0007554912
-0.043617133 0.013272124 0.0047254083 -0.47958216 -0.80565 0.34774855 0.00076383585
-0.041537445 0.012343363 0.0053466042 -0.44281587 -0.82212156 0.35781324 0.00086001027
0.047036909 0.012567551 0.0048315129 0.45713624 -0.82982862 0.32001716 0.0028074
0.049453612 0.013822409 0.0044600475 0.4986158 -0.81011236 0.30838338 0.0018874506
0.051456183 0.014733691 0.0036888244 0.50854081 -0.80064291 0.31679204 0.002140074
-0.051197968 0.017913012 0.0036832795 -0.546242 -0.77067631 0.32814291 0.0010133188
-0.049379598 0.016970145 0.0046946262 -0.52871597 -0.76641488 0.36478451 0.00089814054
-0.047084808 0.015593139 0.0050115827 -0.51537514 -0.78469533 0.34444422 0.00076637819
0.052626237 0.015948046 0.0046548103 0.53300738 -0.78606808 0.31304982 0.0023753759
0.054967929 0.017418742 0.004253312 0.55636632 -0.77461296 0.30071798 0.0023509762
-0.054474559 0.020532751 0.0042895935 -0.58296615 -0.73967582 0.33619955 0.0010147567
-0.052564722 0.0193986 0.0049246447 -0.5459764 -0.74284154 0.38742259 0.00070499367
-0.05066999 0.018182691 0.0053583561 -0.54220963 -0.76860708 0.3394877 0.001348201
0.056232087 0.018670453 0.0050409078 0.59526688 -0.73475415 0.32525942 0.0039714305
0.058352448 0.020036168 0.0042744121 0.60073215 -0.72994173 0.32604602 0.0026698911
-0.057704728 0.023427963 0.0048024426 -0.64093006 -0.68875104 0.33886677 0.0065925214
-0.05584396 0.021936059 0.0050019487 -0.59640038 -0.71043819 0.37360969 0.0013265136
0.059583999 0.021558203 0.0052016918 0.61338741 -0.70180887 0.36224338 0.0027060388
0.061160345 0.022811584 0.0046617719 0.64866328 -0.64042538 0.41120723 0.0020297498
-0.060684517 0.026345879 0.0048161112 -0.69526887 -0.64766753 0.31165373 0.0058614858
-0.05914415 0.024909876 0.0050866692 -0.66365808 -0.67337871 0.32575917 0.00717706
0.062530957 0.024491888 0.0051011248 0.70104605 -0.62537861 0.34268948 0.0019205334
0.064067446 0.026305776 0.005073003 0.68914998 -0.53630108 0.48729202 0.0020438791
-0.063480407 0.029617066 0.004702223 -0.77444112 -0.57293481 0.26830319 0.0098037999
-0.06216386 0.028183321 0.0050806128 -0.7278145 -0.602238 0.32801753 0.0032868783
0.065250441 0.027821211 0.0050193155 0.74121994 -0.52845562 0.41391757 0.0041291434
0.06637869 0.02885583 0.0042142076 0.77258676 -0.50305676 0.38735458 0.003533592
-0.066029347 0.032983355 0.0033811838 -0.82983309 -0.53350556 0.16355105 0.0082593849
-0.064719088 0.031546768 0.0050288937 -0.7639246 -0.54947382 0.338375 0.0076193437
-0.0072638853 0.032783616 0.0054399804 0.15459874 0.90074843 0.40589601 0.00090103858
-0.0045012706 0.032630712 0.004869509 0.13346286 0.90720588 0.39895508 0.00094717165
-0.001752556 0.032339521 0.0047440282 0.10218482 0.91355044 0.39367992 0.0010728327
0.0016375609 0.032133885 0.0046403646 0.053555399 0.91677994 0.39578584 0.0012337923
0.0045255297 0.032045454 0.0046260152 0.02057454 0.94061536 0.33885023 0.0021925936
0.0076187695 0.031916272 0.0050594197 -0.051505577 0.90764272 0.41657165 0.0021001566
0.010503544 0.032261886 0.0046975268 -0.10200805 0.92890078 0.35600239 0.0021080873
0.01368286 0.032660212 0.0047438345 -0.14593548 0.90447628 0.40078098 0.0018874239
0.015675535 0.032716502 0.0054394095 -0.19745536 0.89504075 0.39989176 0.002096717
0.067339405 0.031270083 0.005143038 0.7464627 -0.3936677 0.53648776 0.0015609545
-0.066869251 0.034827959 0.0048586214 -0.81505424 -0.44948977 0.36557567 0.0047659022
-0.06578175 0.033527106 0.0056677237 -0.78641742 -0.48454139 0.38310221 0.0069614165
-0.018739987 0.035613384 0.005662492 0.29541174 0.86632067 0.40276581 0.0011532138
-0.016366417 0.035190489 0.0050542634 0.2670739 0.87852883 0.39605361 0.00064892537
-0.013418165 0.034385692 0.0049018036 0.24268842 0.88695776 0.39294806 0.00079869479
-0.010488168 0.03366613 0.0048848931 0.19362737 0.90006453 0.39037457 0.0010565515
-0.007695742 0.033459615 0.0040613725 0.15834327 0.91174906 0.37900016 0.00097465079
-0.0053612161 0.033252977 0.0036206821 0.13465831 0.9261806 0.35221687 0.0013140631
0.013826722 0.033118989 0.0037289485 -0.14780131 0.911892 0.38289395 0.002089747
0.017042188 0.033529688 0.0041473345 -0.19843759 0.90660316 0.37241539 0.0017477106
0.019480824 0.033894237 0.0047685378 -0.22528653 0.89941829 0.37455666 0.0016567657
0.022626719 0.034826983 0.004640569 -0.26080099 0.88803494 0.37865132 0.0014771697
0.025187753 0.0354628 0.004871577 -0.28610349 0.87894708 0.38157153 0.001602132
0.027515573 0.035914186 0.005613606 -0.28712654 0.87162817 0.3972691 0.0014394955
0.068671592 0.034327909 0.0054091332 0.77742058 -0.30938569 0.54762924 0.0010813575
0.069568902 0.034991249 0.0041838447 0.8289234 -0.31109384 0.46487287 0.00163557
-0.069315858 0.038712114 0.0039276048 -0.83384252 -0.40156955 0.37874609 0.0056264414
-0.068248101 0.037402123 0.0049009882 -0.82117605 -0.38541794 0.42085969 0.0051002945
-0.027272657 0.038901255 0.0056644692 0.35631567 0.8723051 0.33484772 0.0014312898
-0.025474325 0.038408585 0.0051700822 0.3613399 0.84859908 0.38641056 0.00098358409
-0.022128688 0.037204701 0.0047684195 0.3308436 0.86002803 0.38845113 0.00077358616
-0.019323455 0.03633184 0.0045095622 0.2920379 0.87312263 0.39034706 0.00089544122
-0.017589459 0.036120187 0.0035552203 0.26252261 0.91740853 0.29907122 0.0015271996
0.02639097 0.036254525 0.0038183893 -0.29372463 0.89555824 0.33421728 0.0019125004
0.028500108 0.036669247 0.0045726392 -0.30104312 0.88482833 0.35560066 0.0014163568
0.03148425 0.037748944 0.0045583844 -0.34544656 0.87127078 0.34864578 0.0017630543
0.033866338 0.038612623 0.0050473157 -0.40105698 0.83868188 0.36846432 0.002097897
0.070026442 0.037524514 0.005024706 0.80744922 -0.24027318 0.53878987 0.0012709603
-0.069902048 0.040691424 0.0045505664 -0.83689237 -0.31041077 0.45083955 0.002862409
-0.068859942 0.039505284 0.0056612082 -0.82557738 -0.33001676 0.45772365 0.0064533227
-0.033289399 0.041766822 0.005688915 0.4001112 0.82576817 0.39751485 0.0011141516
-0.031467069 0.041168611 0.0049625607 0.40426129 0.82968742 0.3849566 0.00082391029
-0.028014436 0.039687406 0.0046865717 0.36990142 0.84185934 0.39299583 0.00082085858
-0.02652631 0.039233275 0.0042296001 0.36634678 0.85676807 0.36295795 0.0010181706
0.035011239 0.039502777 0.0041430662 -0.41506031 0.83857912 0.35285965 0.0020006166
0.037517417 0.040653545 0.0045958026 -0.45881188 0.8223415 0.33652061 0.0017760512
0.039567024 0.041610837 0.0052644215 -0.48679757 0.79785728 0.35560074 0.0018807392
0.070744976 0.040592708 0.0049523702 0.83366668 -0.11746412 0.53963143 0.0025972466
-0.072103269 0.044938628 0.0030955193 -0.87043113 -0.29141316 0.39677194 0.0094025228
-0.07087341 0.043554097 0.0046693156 -0.84770477 -0.2587164 0.46310097 0.0041139536
-0.039330643 0.04486458 0.0055567594 0.40696898 0.84432846 0.34854805 0.0026431731
-0.037319221 0.044201966 0.0047661299 0.42346936 0.81617457 0.39310661 0.00082185882
-0.034799658 0.042790685 0.0050626965 0.40859428 0.8335467 0.37182078 0.0012397054
-0.032730963 0.042263553 0.0038463473 0.43362322 0.84636778 0.3092452 0.0019286452
0.04085483 0.042775333 0.0043384233 -0.48460755 0.80125076 0.3509312 0.0018594768
0.043403115 0.044261169 0.0046808547 -0.50273925 0.78517967 0.36158833 0.0018441444
0.045233101 0.044887211 0.0057695089 -0.48747811 0.76816672 0.41507232 0.0046961405
0.071124464 0.043604244 0.0049629156 0.81563896 -0.044780049 0.57682574 0.0026703333
-0.072392218 0.047003735 0.003787881 -0.82754916 -0.24447574 0.50536519 0.0051785563
-0.071380548 0.046391964 0.0051348186 -0.81348884 -0.19560455 0.54769945 0.0056962776
-0.043485887 0.047500163 0.0047946461 0.42952988 0.80556989 0.40811914 0.0014895548
-0.040721677 0.046051562 0.0046688351 0.4282172 0.81780434 0.38448152 0.0012758031
-0.038525134 0.045332223 0.0034344136 0.43512574 0.87335747 0.21888892 0.0036127528
0.044516087 0.045395497 0.0036660426 -0.49474856 0.78500146 0.37282252 0.00211636
0.046522051 0.046332974 0.004526678 -0.50287712 0.77230304 0.38815287 0.0023128882
0.048755944 0.047423299 0.0052548535 -0.48482487 0.77165198 0.41170132 0.0032349888
0.071268782 0.046606429 0.0048378566 0.78252333 0.034149189 0.62168407 0.0015553272
-0.072845817 0.049662296 0.004258411 -0.77361411 -0.23171356 0.58977109 0.0068109804
-0.071624376 0.049522046 0.0056707687 -0.67583299 -0.12916715 0.72564834 0.0060863844
-0.04942885 0.050396495 0.0054101264 0.37656534 0.7840234 0.49346313 0.0016453562
-0.046584614 0.049234763 0.004682485 0.42242366 0.79709858 0.43149984 0.0014810003
-0.044499326 0.048413374 0.0039306874 0.4371455 0.82793856 0.3513141 0.0020012702
0.049936425 0.048594598 0.004400596 -0.49301794 0.77142602 0.40228757 0.0025785214
0.052366037 0.049959969 0.0047672135 -0.47826108 0.76661557 0.42844707 0.0025224916
0.054343875 0.050663546 0.0056415056 -0.46993628 0.74041015 0.48057541 0.0040353504
0.071182191 0.04957347 0.0048841364 0.76719463 0.071316592 0.6374374 0.0030764577
-0.075074367 0.053545415 0.0032066123 -0.85764533 -0.1970267 0.47500002 0.01641248
-0.073414236 0.052584115 0.004592746 -0.69937122 -0.17035922 0.69415969 0.0064432002
-0.071806692 0.052269001 0.0058737416 -0.59478474 -0.018670615 0.80366814 0.0070947283
-0.057916079 0.053721536 0.0057805297 0.24191864 0.77441245 0.58460307 0.0020031093
-0.055549603 0.053330135 0.0051151984 0.29953587 0.80666089 0.50948656 0.001530829
-0.052651506 0.052052472 0.0053129061 0.3443383 0.78808379 0.51024991 0.0015578587
-0.050157402 0.051238015 0.0044315336 0.39501193 0.80292511 0.44640431 0.0039251479
0.053413067 0.051263064 0.0035175055 -0.47407925 0.78123027 0.40611348 0.0016094368
0.055620525 0.052098323 0.0045141359 -0.44632119 0.7717303 0.45302287 0.0037244267
0.058085393 0.053189319 0.0051291622 -0.4257971 0.72480881 0.54161704 0.0060975137
0.060323287 0.053974524 0.0059914179 -0.42782354 0.65236169 0.62561268 0.0059453901
0.070670925 0.052821964 0.0052957851 0.57771266 0.19086881 0.79361022 0.0094591631
0.072089866 0.05195877 0.0032354009 0.74957842 0.10379134 0.65372729 0.0052101687
-0.075299561 0.055581149 0.0033222185 -0.79927129 0.070994034 0.59676224 0.036422584
-0.073493652 0.055545449 0.0048679598 -0.56339872 0.16642079 0.8092503 0.013574019
-0.071189083 0.056144934 0.0058472375 -0.23128979 0.27232665 0.93399322 0.014362688
-0.06721174 0.056678768 0.0058899191 0.078872807 0.57484758 0.81445032 0.0086141312
-0.06431561 0.056319248 0.0053625721 0.24771683 0.67573637 0.69427437 0.0065532625
-0.061567977 0.055618715 0.0048092999 0.28213036 0.72646862 0.62661457 0.0037324664
-0.058711842 0.054618139 0.0047320011 0.2489948 0.76907408 0.58866519 0.0026865408
-0.056484863 0.054146841 0.004122193 0.29812661 0.8236255 0.48245361 0.0013243982
0.059116226 0.054558452 0.0041064392 -0.47053006 0.73127908 0.49379396 0.0054783323
0.061496478 0.055650372 0.0047115139 -0.4495095 0.65170842 0.61091524 0.0063628913
0.06390328 0.056359183 0.0055731325 -0.27202666 0.57706082 0.77006638 0.0085991332
0.067999221 0.056811705 0.0059321257 0.098437965 0.36967683 0.9239313 0.020978672
0.070341326 0.055823714 0.0050896853 0.52000982 0.20364852 0.82952827 0.011882682
-0.073210292 0.05788992 0.0043364204 -0.51587844 0.52811855 0.67450738 0.025580594
-0.070502795 0.058461994 0.0049259011 -0.17859145 0.65091306 0.73784631 0.023221919
-0.067618035 0.058363479 0.0046539851 0.1755127 0.65336162 0.73641962 0.0091523305
-0.064897098 0.057800759 0.0041252789 0.28260642 0.67464912 0.68189597 0.0047490248
-0.062618002 0.05710759 0.0033682836 0.34806523 0.7329731 0.5844664 0.0080091376
0.062503248 0.057539333 0.0035164356 -0.57991636 0.57497066 0.57715303 0.005909007
0.064532824 0.058384702 0.0044801296 -0.43227652 0.51307666 0.74154526 0.018365288
0.06742087 0.05855478 0.0053345156 0.030799972 0.36368185 0.93101388 0.019498093
0.070205897 0.058663551 0.0045527383 0.29009986 0.30408654 0.9073993 0.014385919
-0.069576249 0.060104132 0.0033021187 -0.15868828 0.89422494 0.41854498 0.028412003
-0.068269245 0.060104568 0.0032329417 0.063754097 0.84964895 0.52348077 0.024304958
0.065336242 0.061094631 0.0035349068 -0.59494823 0.34035462 0.72814524 0.018103614
0.067396097 0.061493397 0.0042842645 -0.19818234 0.28881228 0.93664891 0.029042035
0.070325442 0.061519939 0.0038823672 0.27215827 0.15695484 0.94936556 0.019921092
0.072077125 0.061984513 0.0030380478 0.40413868 0.039781503 0.91383225 0.033848174
0.065800384 0.063413888 0.003083199 -0.58400333 0.23788241 0.77611351 0.0057167867
0.067598559 0.064379446 0.0035152857 -0.22010073 0.19319767 0.95615393 0.020644754
0.070505388 0.064484626 0.0034146439 0.13139424 0.039454911 0.99054474 0.017550385
0.07209184 0.064839169 0.0030671638 0.24684672 -0.0053312927 0.96903992 0.016500961
0.068150289 0.066853516 0.0031659417 -0.33842325 0.11543034 0.9338873 0.018034458
0.070486546 0.067441396 0.003288998 0.055525027 -0.050685279 0.99716997 0.018996421
0.072453372 0.067826256 0.0032204408 0.14313386 -0.076620393 0.98673296 0.01537151
0.070617057 0.070495524 0.0035206175 -0.14737737 -0.088432156 0.9851191 0.021841476
