# .PCD v0.7 - Point Cloud Data file format
VERSION 0.7
FIELDS x y z normal_x normal_y normal_z curvature
SIZE 4 4 4 4 4 4 4
TYPE F F F F F F F
COUNT 1 1 1 1 1 1 1
WIDTH 564
HEIGHT 1
VIEWPOINT 0 0 0 1 0 0 0
POINTS 564
DATA ascii
0.044732038 0.045545943 -0.003691735 -0.52461183 0.81824124 -0.23508239 0.0021614158
0.046511631 0.046447445 -0.0043536476 -0.52814537 0.81468546 -0.23947887 0.0018869177
0.04849913 0.047456708 -0.0049924627 -0.52007735 0.80960578 -0.27213615 0.0024231581
0.071286187 0.046468806 -0.0045530847 0.90816671 -0.011864904 -0.41844049 0.0023707068
0.072029464 0.046219032 -0.0031121436 0.93884671 -0.021181837 -0.3436833 0.0058316719
-0.051268272 0.050938219 -0.0059484593 0.37851802 0.78951871 -0.48309869 0.0014270486
-0.048915572 0.05048801 -0.0046937335 0.44367647 0.83186299 -0.33339953 0.0023635251
-0.046459962 0.049294572 -0.0044087796 0.45175311 0.83786529 -0.30643252 0.0021060482
-0.044216678 0.048314549 -0.0037863012 0.45038795 0.84303212 -0.29401979 0.0019848938
0.04966519 0.048642155 -0.0039852825 -0.53169221 0.80782044 -0.25442001 0.0022015281
0.052159123 0.050160963 -0.0041772644 -0.53030646 0.81058043 -0.24846432 0.0026652811
0.054230716 0.050587334 -0.0057394449 -0.41564214 0.74070919 -0.52781767 0.0014322954
0.071531139 0.049353521 -0.0040497915 0.91345978 -0.0043896474 -0.40690535 0.0042049992
0.072112069 0.049436286 -0.0030567767 0.97350466 -0.037077472 -0.22564097 0.0088359956
-0.057607956 0.053885944 -0.0053929738 0.3048836 0.83744007 -0.4535858 0.0042329631
-0.055144288 0.053451799 -0.0045667021 0.33908549 0.8648513 -0.37020698 0.0026154262
-0.052543472 0.05252362 -0.0042903717 0.40290746 0.85377938 -0.32973686 0.0021497116
-0.05006659 0.05142241 -0.0038897363 0.42317146 0.84066731 -0.33794141 0.0019975482
0.053426038 0.051187858 -0.0037301856 -0.52642953 0.81710744 -0.23496222 0.0028551945
0.0553932 0.052256078 -0.0040138955 -0.52531171 0.80980474 -0.26127362 0.0028623319
0.057898179 0.053366486 -0.0047870576 -0.50980365 0.75635374 -0.40991381 0.0044036349
0.060020316 0.053845096 -0.0058686603 -0.40763086 0.66262472 -0.62830383 0.006471632
0.071162745 0.052405 -0.0044024498 0.86131173 0.025829958 -0.50741988 0.011512909
0.072052784 0.052714981 -0.0030915029 0.90548837 0.046189804 -0.42184991 0.017515469
-0.066493101 0.05636704 -0.0058176457 0.22401711 0.64747047 -0.72842187 0.0071596159
-0.064059354 0.056301028 -0.0052834312 0.375763 0.74753517 -0.5477165 0.0052344031
-0.061358687 0.05588232 -0.004322113 0.39109948 0.82114917 -0.41563839 0.0043859784
-0.058629803 0.054895185 -0.004195739 0.33672681 0.85331398 -0.39808336 0.0046404237
-0.056233518 0.054334864 -0.0034923251 0.32953024 0.86988401 -0.36703092 0.0033458378
0.05893594 0.054697786 -0.0038179669 -0.54601157 0.74894077 -0.37544507 0.0054034707
0.06120725 0.055882689 -0.0043731672 -0.56691074 0.68981093 -0.45030335 0.0056433547
0.063823313 0.056404222 -0.0056221969 -0.4164457 0.57271302 -0.70609695 0.0047463062
0.071292184 0.055490449 -0.0040329015 0.93241137 -0.033127885 -0.35987726 0.0071541476
-0.073286779 0.058467533 -0.0035610048 -0.45328256 0.88895899 -0.065473497 0.0028214105
-0.071001723 0.059557714 -0.0035938045 -0.25232908 0.9493224 -0.18739522 0.020318907
-0.067265578 0.059314381 -0.0036179312 0.2366264 0.86208683 -0.44812304 0.018073885
-0.064649679 0.058045946 -0.0036906144 0.42914566 0.78373843 -0.44898567 0.0032919575
-0.062641919 0.057237636 -0.0032193419 0.46387774 0.82821882 -0.3144376 0.010273175
0.06249461 0.05759402 -0.0035332809 -0.63481796 0.60212648 -0.48420021 0.0083848508
0.063579291 0.058081955 -0.0041943602 -0.67406476 0.60596281 -0.42242837 0.011802246
0.066127017 0.059404843 -0.0050131273 -0.58495271 0.51398021 -0.62741905 0.0096935956
0.070449963 0.057586618 -0.0044025942 0.72255236 0.034976389 -0.69043094 0.0055138972
0.072028324 0.059448328 -0.0030829788 0.94603187 -0.14853105 -0.2880317 0.018412376
-0.069859155 0.060096778 -0.0031797041 -0.17484991 0.9513588 -0.25366119 0.025050353
-0.068561502 0.060233574 -0.0031366423 0.096284613 0.94365126 -0.31662521 0.02834259
0.064919397 0.060976204 -0.0035245435 -0.71762139 0.36977077 -0.59016025 0.0094287461
0.071991622 0.060282454 -0.0032525249 0.98813981 -0.14872248 -0.038227729 0.020858705
0.074611321 0.07479915 -0.0041116923 0.33140233 0.94138336 -0.06300693 0.0019621332
0.075398542 0.074799135 -0.003257683 0.46280217 0.88420248 -0.063245922 0.026585352
0.068682224 0.076481447 -0.0033522667 0.0079156812 0.99622732 0.086420029 0.074668266
0.070833199 0.076451384 -0.0036455956 0.20397411 0.97896993 0.003534802 0.022966493
0.073246069 0.075739808 -0.0036723434 0.27483407 0.96149105 -0.0010917879 0.0079633733
0.075155199 0.075108282 -0.0031308003 0.32442862 0.94521183 0.03634017 0.0043350467
0.051603731 0.014173466 -2.6403295e-06 0.5474509 -0.81860727 0.17372318 0.00066562841
0.053425264 0.015508798 -0.00079285377 0.56463611 -0.81913632 0.10100432 0.0026079733
0.055674568 0.017142612 -0.0012175693 0.60066956 -0.79333806 0.099049591 0.0019523075
0.058141548 0.01901277 -0.001401535 0.64470685 -0.76287597 0.048716974 0.0025434967
0.060181089 0.020664418 -0.0011352792 0.68058372 -0.73226798 0.024278026 0.0003776479
0.061884902 0.022453953 -0.0020640646 0.70924944 -0.70485175 0.012215754 0.0018071773
0.063153297 0.023587912 -0.0011453918 0.73996216 -0.6679731 -0.079170354 0.0014658356
0.064931959 0.025749646 -0.0016426775 0.7749033 -0.63066745 -0.042230934 0.0023887614
0.066000931 0.026845595 -0.00033273071 0.79539996 -0.60177696 -0.072134785 0.0038486032
0.065960854 0.027151659 -0.0021206513 0.80458683 -0.58185244 -0.11869208 0.0028998463
0.067046173 0.028553382 -0.0013461744 0.84345233 -0.5358817 -0.037669253 0.0022037239
-0.0030481196 0.032997478 -0.0026259748 0.0884808 0.98834366 -0.12388715 0.0020347794
-0.00089830812 0.0329221 -0.0023249593 0.097478054 0.98648208 -0.13172379 0.0017385725
0.0015978294 0.032816917 -0.0018062815 0.060877074 0.99207425 -0.10992102 0.0028027589
0.0045926454 0.032778952 -0.0016174588 0.013788548 0.99335724 -0.11424194 0.0018881201
0.007322086 0.0327975 -0.001644935 -0.043542825 0.99399257 -0.10041318 0.0023040762
0.010227521 0.032906935 -0.0022943562 -0.093121544 0.98943698 -0.11109836 0.0015193098
0.012253556 0.032980949 -0.0026976857 -0.11297483 0.97907722 -0.16924642 0.0037233289
0.068374351 0.030729402 -0.0014771592 0.86200094 -0.50413197 -0.05296582 0.0020106141
0.069335468 0.032494869 -0.0013672559 0.91453761 -0.40272015 -0.037914392 0.0054281056
-0.015635706 0.03581712 -0.0016550442 0.30147609 0.94967252 -0.085054807 0.0014980428
-0.013489451 0.035211533 -0.0014714507 0.26862982 0.95890087 -0.091362081 0.001592042
-0.010489281 0.034453083 -0.0014712926 0.2133587 0.9683882 -0.12923777 0.0029379583
-0.0074726623 0.033872601 -0.0014753706 0.16409792 0.9802177 -0.11065783 0.0026472483
-0.0044946778 0.033423487 -0.0015653681 0.12706308 0.98657531 -0.10258732 0.0017729208
-0.0016240883 0.03316788 -0.0010227617 0.081589043 0.99340212 -0.080594346 0.0026088452
0.0010410374 0.03305424 -0.00040059807 0.039029013 0.99905872 -0.018931689 0.0018677105
0.0039682663 0.033014763 -4.9100876e-05 0.016672712 0.99932194 -0.032827947 0.0015564475
0.0086532999 0.033024494 -0.00050864951 -0.054444224 0.99613512 -0.068925843 0.0036306866
0.01064777 0.033114046 -0.0009731935 -0.084561534 0.99528152 -0.047582328 0.0030775517
0.013619705 0.033444233 -0.0013390031 -0.13552916 0.98732287 -0.082615912 0.0020277472
0.016342701 0.033888344 -0.0016151711 -0.19655363 0.97573352 -0.096492171 0.0026037837
0.019545024 0.03468328 -0.0014732422 -0.26186606 0.9615314 -0.082967095 0.0012235306
0.022472177 0.035497181 -0.0014479951 -0.27402711 0.95818859 -0.082363255 0.0016279854
0.024293307 0.035936173 -0.0021196743 -0.3014437 0.94912481 -0.091070354 0.0019244748
0.070306256 0.034608968 -0.0010302783 0.94189382 -0.33533642 -0.019636955 0.005233401
-0.024439324 0.038813278 -0.0019934275 0.39583683 0.91469115 -0.08156772 0.0015904061
-0.022474254 0.038094353 -0.0013259359 0.36314481 0.92886919 -0.072993107 0.0018887124
-0.019523121 0.036978602 -0.0014824249 0.30302194 0.94800818 -0.097252712 0.0019848535
-0.017065281 0.036277536 -0.0013433869 0.27284771 0.95881635 -0.07890103 0.0015294097
0.023853052 0.036071204 -0.00011191112 -0.2616592 0.96462995 -0.031991772 0.0032088559
0.025596986 0.036413118 -0.0014127844 -0.28614244 0.95405722 -0.088867396 0.0018246742
0.028523615 0.037370674 -0.0014737623 -0.3194811 0.94398874 -0.082565561 0.00142412
0.031367358 0.038385265 -0.0015408447 -0.38047451 0.92009366 -0.093095347 0.0021140708
0.033108622 0.038962845 -0.0027505239 -0.38888776 0.91362852 -0.11852937 0.0022042375
0.071248047 0.037508398 -0.0013402991 0.95931613 -0.27353641 -0.069931477 0.0037574591
-0.030765088 0.041606318 -0.0017812913 0.45601854 0.88646764 -0.078880176 0.0013316264
-0.028541451 0.040594846 -0.0014461438 0.41056409 0.90814257 -0.081939749 0.0016289187
-0.025950214 0.039531589 -0.0013420437 0.37736326 0.92287487 -0.076805241 0.0016140309
0.032755394 0.039075937 -0.00087147142 -0.39159438 0.91566461 -0.09062095 0.0026612962
0.034548081 0.039834458 -0.0015004632 -0.42844799 0.89788187 -0.1011954 0.0023782819
0.037283611 0.041286103 -0.0015356174 -0.49871561 0.86145568 -0.095796034 0.0024185257
0.071837291 0.040182732 -0.0017653307 0.97267699 -0.21187258 -0.094918743 0.0038830356
0.072148077 0.04112868 -0.00074793544 0.9849515 -0.16850649 -0.038420409 0.0050830115
-0.036679644 0.044621184 -0.0017500914 0.47690281 0.87505817 -0.082685232 0.0015282979
-0.034631025 0.043602843 -0.0015836147 0.44899082 0.89053714 -0.073148727 0.0011870194
-0.0321825 0.042402636 -0.0012543143 0.43656561 0.89631152 -0.077693008 0.0015425691
0.038660508 0.042213771 -0.00085368828 -0.51391214 0.85380155 -0.083169878 0.0025579585
0.040466264 0.043248594 -0.0014856898 -0.52177411 0.84860253 -0.087324195 0.0024867612
0.042512108 0.044563156 -0.0015792751 -0.54719079 0.83347034 -0.076872669 0.0019682823
0.07196527 0.042723536 -0.0028244776 0.95818412 -0.095148236 -0.26987037 0.0030344457
0.072435208 0.043568324 -0.00079150638 0.9959957 -0.064199828 0.062217772 0.0026487552
-0.073793054 0.047501974 -0.00010226193 -0.8922931 -0.30373865 0.33399993 0.002269662
-0.042390633 0.04776204 -0.0017795675 0.49847892 0.86271918 -0.085055426 0.0018198417
-0.040476941 0.046719093 -0.0015326332 0.48412967 0.87103552 -0.083160378 0.0017837411
-0.0381159 0.045437858 -0.0012493198 0.46106791 0.88346696 -0.083080918 0.0020122002
0.043991659 0.045566268 -0.0013539754 -0.53726953 0.8406046 -0.068740986 0.0022221091
0.046323232 0.047106624 -0.0014929908 -0.55930829 0.82428157 -0.087943979 0.0023636962
0.048003215 0.047980115 -0.0027696346 -0.50347811 0.83772421 -0.21148993 0.0038281137
0.072585955 0.046743907 -0.00077132852 0.99811178 -0.041598365 0.0451927 0.0032014786
-0.048173055 0.050906684 -0.0023493697 0.48715097 0.86559528 -0.11588272 0.0038938771
-0.046388745 0.050036158 -0.0016044755 0.48791316 0.86752868 -0.096616291 0.0024494126
-0.043756139 0.04858163 -0.0014214539 0.47620907 0.87519342 -0.085213117 0.0021296656
0.047805659 0.048150092 -0.001103927 -0.5570004 0.82719535 -0.074151777 0.002752099
0.049523123 0.049285859 -0.0012830613 -0.5475235 0.83307534 -0.078762874 0.0032145556
0.051471282 0.050565585 -0.0014494827 -0.53952658 0.83793002 -0.082367599 0.0031616469
0.072729483 0.049767803 -0.00060686516 0.99610054 -0.029351687 0.083199345 0.0045213136
-0.054225907 0.053895295 -0.0025299573 0.37033272 0.90428174 -0.21243386 0.0052602282
-0.052406836 0.053319436 -0.0013608352 0.42469472 0.8993175 -0.10422318 0.0031609389
-0.049618408 0.051850628 -0.0013518319 0.46293142 0.88347679 -0.071855843 0.0036007343
-0.047891594 0.051073957 -0.00038534991 0.47626728 0.87828839 -0.042178236 0.0049555735
0.053016324 0.051619969 -0.001264059 -0.53617519 0.8419295 -0.060588107 0.0036248155
0.055371452 0.053144254 -0.0012943496 -0.56914282 0.82045925 -0.054065727 0.0035133478
0.057125039 0.05384165 -0.002814102 -0.57108366 0.79494518 -0.20475745 0.0049121422
0.072816417 0.053030182 -0.00087308744 0.99961722 -0.0014356968 0.027628064 0.0070956238
-0.076289907 0.056624722 -0.00095852278 -0.73833501 0.66185272 0.1296628 0.046840411
-0.060570657 0.056698646 -0.0016811314 0.487519 0.86992466 -0.074540488 0.0082184346
-0.058449019 0.055805076 -0.0013371647 0.40010411 0.91363192 -0.072065063 0.0067094578
-0.055483185 0.054612327 -0.0012784363 0.36571616 0.92632973 -0.090360098 0.0051228269
-0.053817309 0.05405955 -0.00035940792 0.34247887 0.93818611 -0.050151095 0.0065872204
0.056820244 0.054205667 -0.00079572655 -0.5754801 0.81607872 -0.053274449 0.0072497651
0.058427602 0.0553209 -0.0011863138 -0.59653318 0.80253935 0.0088820793 0.0046445779
0.060274448 0.056642681 -0.0014070758 -0.66031134 0.74882686 0.056985859 0.0097304359
0.072900616 0.055933401 -0.0010864801 0.99850678 -0.024948241 0.048597567 0.010761459
-0.075509652 0.05752844 -0.0011364815 -0.57929128 0.80666703 0.11708912 0.02573237
-0.073352255 0.058698773 -0.0015210845 -0.46327752 0.88605732 0.016625078 0.0059479964
-0.07130716 0.059694011 -0.0015164757 -0.33319739 0.94124854 -0.055051424 0.0080286479
-0.066598147 0.059849948 -0.0025303173 0.31575191 0.90045285 -0.29914108 0.015334751
-0.064294331 0.059085529 -0.0013126617 0.51407355 0.84648395 -0.13854007 0.007347113
-0.062016468 0.057676237 -0.0010501627 0.49042076 0.87049145 -0.041618384 0.0079061044
0.061314728 0.057906576 -0.00087391387 -0.75825566 0.64760691 0.075189531 0.012558678
0.063290179 0.059752196 -0.0022688932 -0.7705521 0.60320455 -0.20589736 0.026803015
0.073049337 0.058320235 -0.00093650469 0.99597484 -0.069897927 0.056110743 0.022290882
-0.0698402 0.060383242 -0.0013027021 -0.14837724 0.98688084 -0.063642159 0.014626431
-0.067440227 0.060687069 -0.0011036792 0.150059 0.98535335 -0.080999486 0.016879804
-0.06578017 0.060186692 -0.00053079624 0.39930895 0.91655356 -0.021949694 0.018725706
0.06291721 0.060087163 -0.00064024731 -0.82530457 0.56165296 0.058466047 0.020009127
0.063684538 0.061488681 -0.00093839451 -0.91031641 0.40912762 0.06275928 0.017969621
0.073426463 0.061478641 -0.00095416512 0.94910717 -0.11220863 0.29428717 0.021465896
0.064635552 0.064373694 -0.00084929646 -0.90218592 0.28509137 0.32370275 0.013805568
0.066020519 0.065743722 -0.0028094265 -0.95596969 0.22852927 -0.1841096 0.0098603005
0.073982179 0.064406417 -0.00060587813 0.92032075 -0.23708811 0.31112534 0.010877031
0.065354556 0.067437917 -0.00069765281 -0.90855712 0.228505 0.3497276 0.015180011
0.06636066 0.067978784 -0.0025847782 -0.9717415 0.19062194 0.13921846 0.041573547
0.074654482 0.067398302 -0.00078067882 0.89418066 -0.26855415 0.35821742 0.010093513
0.075052708 0.068614557 -0.00060732325 0.87683415 -0.31884184 0.3598634 0.018293837
0.065863207 0.06966725 -0.00046640396 -0.85403031 0.19613692 0.48183241 0.023668304
0.066263683 0.070909813 -0.00091066852 -0.8403191 0.21070576 0.49946654 0.021779601
0.074863873 0.069642849 -0.0018087437 0.95665258 -0.26360062 0.12381712 0.0071169161
0.075548612 0.07025481 -0.00051937229 0.94421029 -0.23106843 0.23467898 0.018848738
0.06671638 0.073728129 -0.0008016323 -0.91290176 0.27751556 0.2993252 0.020467563
0.076274894 0.074485488 -0.0010363269 0.75813031 0.64245492 0.11175933 0.059927568
0.068221025 0.077047735 -0.00098599796 -0.17571838 0.97326952 0.14788356 0.084677979
0.070519179 0.076595195 -0.0015013824 0.15571845 0.98751616 0.023742123 0.026376706
0.073531717 0.075668782 -0.0015064225 0.32558206 0.94551307 0.0011750731 0.0030772658
0.075305469 0.075121455 -0.0014686215 0.57245415 0.8198474 0.012101614 0.040439248
-0.006073683 0.00093772443 0.0027865686 -0.062786207 -0.92872465 0.36541557 0.0015224406
-0.00075551472 0.00054965349 0.002392184 -0.026948217 -0.92408413 0.38123789 0.0016293993
0.0079636872 0.00078017893 0.0029451842 0.072965443 -0.91831452 0.38906875 0.00083390618
0.010670226 0.00082494278 0.0026654769 0.092975482 -0.92136055 0.37742588 0.0011797359
0.012317223 0.00079817412 0.0015854397 0.092926294 -0.92934966 0.35731485 0.00081418169
0.016042219 0.0013884081 0.0020622502 0.11961108 -0.93670267 0.32906127 0.000518115
0.019593654 0.0019469718 0.0021197824 0.19074251 -0.91512048 0.35520676 0.0039510517
0.022085935 0.0024736398 0.0020662439 0.21993317 -0.91177386 0.34683999 0.0029663763
0.024823483 0.0029628761 0.001275285 0.2288707 -0.93914372 0.25617835 0.00016056535
0.02579564 0.0033506358 0.0022066294 0.23415509 -0.91683567 0.32339406 0.0013121348
0.02889891 0.0042407089 0.0023340671 0.2768935 -0.92445755 0.26212254 0.0011800295
0.031440068 0.0049383775 0.0017739317 0.28844532 -0.91861719 0.27007753 0.0010879106
0.033769988 0.0056561255 0.0010683775 0.32169968 -0.91744298 0.23411044 0.00027335467
0.035098303 0.0063291071 0.0025522641 0.34250021 -0.88642001 0.311373 0.0014930129
0.037780654 0.0072468459 0.0016156128 0.37342557 -0.89718133 0.23583698 0.0010590904
0.040282816 0.0083232224 0.0017316658 0.38603497 -0.86942589 0.30834347 0.0022477708
0.043684691 0.0098875649 0.0013752517 0.43650344 -0.86407155 0.25068954 0.00081038871
0.0465746 0.011410639 0.0015774693 0.47701812 -0.84524524 0.2408613 0.0014725234
0.047975533 0.012351826 0.0025395409 0.48716184 -0.84809113 0.20836246 0.00099170534
0.049383521 0.01302324 0.001564818 0.51465005 -0.83466804 0.19612396 0.0014136304
0.051831376 0.014477146 0.0014249781 0.55322194 -0.81957334 0.14914775 0.0016107919
0.053269655 0.015489334 0.0015606061 0.55998498 -0.81784737 0.13244829 0.0015809007
0.05540752 0.016987227 0.0016416018 0.58134848 -0.8033576 0.12903704 0.0025780618
0.057175424 0.017994922 0.00022804005 0.59555954 -0.79863936 0.086510301 0.0027227746
0.056614865 0.018014027 0.0027842827 0.59484512 -0.78531158 0.17159526 0.0033972554
0.058637083 0.019416768 0.0015461443 0.62769294 -0.76626617 0.13725074 0.0020791306
0.060229857 0.020773713 0.0015596364 0.66757226 -0.73648864 0.1092329 0.0036483
0.061742421 0.022219375 0.0015640645 0.71270645 -0.68950433 0.12897055 0.0033190355
0.063202627 0.023623873 0.0010658912 0.73715913 -0.66615713 0.11327441 0.003157909
0.065019138 0.02588059 0.0016765889 0.76817214 -0.61217517 0.18749149 0.0025023201
0.066083126 0.026962813 0.00021687265 0.79762048 -0.53928435 0.27013704 0.0013877858
0.065842241 0.027125694 0.0027332311 0.77559018 -0.59000421 0.22439894 0.0047629848
0.067159377 0.028736761 0.0014993217 0.82359129 -0.54203969 0.16700402 0.002485736
-0.00072294864 0.032920636 0.0026640862 0.09217485 0.98259139 0.16130067 0.0030245716
0.0017167283 0.032868635 0.0019449736 0.06668023 0.98571217 0.15467763 0.0039920448
0.004507293 0.032843888 0.0016444559 0.014401006 0.98614913 0.16523482 0.0035294041
0.0073485547 0.032846253 0.0017824586 -0.057706024 0.98736298 0.14759533 0.0041887313
0.01027125 0.032911364 0.0026126334 -0.098815151 0.97807461 0.18331844 0.0029279145
0.012325296 0.032957185 0.0027506622 -0.1469133 0.969598 0.19569412 0.0024423902
0.068592586 0.031180009 0.001773737 0.86556548 -0.44737762 0.22505453 0.0043432689
0.069306374 0.032433122 0.001451267 0.89732254 -0.4081907 0.16790691 0.00420528
-0.015618763 0.035850815 0.0018716473 0.30641177 0.94473058 0.11660163 0.0031493893
-0.013508804 0.035267036 0.001600203 0.26652637 0.95593929 0.1230602 0.0032002318
-0.010482739 0.034515563 0.001585112 0.20978302 0.96491361 0.15790121 0.0047627422
-0.007523919 0.034006547 0.0016610568 0.15948465 0.97695172 0.14188027 0.0045625865
-0.0044763498 0.033516075 0.0016487725 0.12305633 0.98536181 0.11798014 0.0040594228
-0.0017216977 0.033206582 0.0012712058 0.084291376 0.99143481 0.099759877 0.0045882156
0.00081720966 0.033056524 0.00081569696 0.043038193 0.99663544 0.069753118 0.0041792216
0.0042605731 0.033019073 0.00020887003 0.014509674 0.99841928 -0.054298978 0.0021349937
0.0083885444 0.033048816 0.00054822466 -0.044725437 0.99662137 0.068887644 0.005142157
0.010675005 0.033142239 0.0011917868 -0.08035972 0.99410409 0.07279636 0.0053072688
0.013489843 0.033444121 0.0016025039 -0.13406423 0.98075348 0.14194794 0.0034284119
0.016449468 0.033951391 0.0017117914 -0.20013891 0.96808034 0.1508804 0.0042015412
0.019533468 0.034704003 0.0016879421 -0.25458995 0.95548993 0.14907402 0.0023491823
0.022511447 0.035526399 0.0016862643 -0.27267411 0.95357615 0.12783322 0.0036212897
0.02432799 0.035931524 0.0025030735 -0.29554355 0.94229746 0.15725632 0.0032443872
0.070111871 0.034610569 0.0021649438 0.89488465 -0.33432606 0.29564762 0.0034495587
-0.024404569 0.038867228 0.0019955141 0.40334588 0.90933639 0.102075 0.0031466484
-0.022489684 0.038128491 0.0015936033 0.36658531 0.92367029 0.1115727 0.0032369515
-0.019519785 0.037031937 0.0015837665 0.30092686 0.94448024 0.13190936 0.004449408
-0.017024877 0.036319796 0.0013905293 0.26404673 0.95952946 0.09789037 0.0030400911
0.023878373 0.036049444 0.00052268297 -0.2700744 0.95897412 0.086188592 0.0039586606
0.025569253 0.036436651 0.0015961678 -0.29191288 0.94779533 0.12833886 0.0039208727
0.028476428 0.037385836 0.0015647967 -0.31571755 0.93973118 0.13125443 0.0030778015
0.031226752 0.038349852 0.0017757808 -0.37620741 0.91295898 0.1580313 0.0032812345
0.033082176 0.038920827 0.002675998 -0.43014857 0.89338118 0.12977807 0.0036460091
0.071214668 0.03751504 0.0015225408 0.93561155 -0.25944734 0.23941207 0.0023531527
-0.070733964 0.040833712 0.0026028641 -0.85410666 -0.307439 0.41950339 0.00078090176
-0.030691737 0.04164518 0.0016981474 0.46265256 0.88163847 0.093093045 0.0031003554
-0.028532179 0.040634863 0.0016007995 0.40970129 0.90688854 0.098479085 0.003094848
-0.025818897 0.039520279 0.0014588358 0.36899823 0.92394292 0.10084528 0.0032513768
0.032788798 0.039109983 0.0012025295 -0.38082108 0.91544163 0.13016151 0.0039373627
0.034589354 0.039871808 0.0016631092 -0.42155367 0.89496839 0.14602724 0.0031600557
0.037230361 0.041253753 0.001611103 -0.49657324 0.85854089 0.12775911 0.0032149251
0.071787067 0.040332932 0.0021380729 0.95107114 -0.19478564 0.23983808 0.0039111925
0.072136261 0.041273434 0.0009987962 0.96720505 -0.15141028 0.20393445 0.003901358
-0.072237305 0.044080578 0.0016932636 -0.86984378 -0.28056198 0.40577924 0.0012800444
-0.071647808 0.042856187 0.0023590394 -0.85670996 -0.28404433 0.4305425 0.00093702343
-0.036620867 0.044655547 0.0016827042 0.48120543 0.8715834 0.093721032 0.0031754978
-0.034493145 0.043590367 0.0015725709 0.45235422 0.88709712 0.091838889 0.0025145032
-0.032135431 0.042412743 0.0014332104 0.43135506 0.89751667 0.091633625 0.0032423215
0.038671006 0.04214697 0.0012806603 -0.52563423 0.84272307 0.11630385 0.0037175759
0.040510386 0.043257352 0.0014762266 -0.52790934 0.84043074 0.12242537 0.0031751178
0.04263502 0.044611439 0.0016531596 -0.56199843 0.81959766 0.11143346 0.0024203984
0.071959183 0.042545352 0.0028514646 0.96552896 -0.086732127 0.24542075 0.0030606748
0.072337106 0.043793995 0.0016255992 0.96551859 -0.065992922 0.25183079 0.0026100157
-0.07296747 0.046395771 0.0018043248 -0.87168372 -0.26187074 0.41423562 0.0018893547
-0.0423733 0.04777661 0.0018952306 0.49859488 0.85858572 0.11930463 0.0036674172
-0.040523995 0.046791468 0.0015668861 0.4810307 0.87090874 0.1006357 0.0034206221
-0.038115405 0.045466337 0.0014543035 0.44947022 0.88726354 0.1036337 0.003395817
0.044113226 0.045603283 0.0015058632 -0.52992928 0.83958721 0.11944974 0.0028147439
0.046425734 0.04711847 0.0017128412 -0.54480809 0.82048213 0.17318557 0.0033427635
0.048064101 0.047974296 0.0027252864 -0.54857296 0.81419021 0.19016343 0.0027548617
0.072439343 0.046439886 0.0016943098 0.97293431 -0.048561569 0.2259219 0.0035494361
-0.075072765 0.050677292 0.00010619471 -0.84854943 -0.30198303 0.43447673 0.0037506483
-0.073809274 0.049194753 0.0023872741 -0.80333573 -0.28050911 0.525325 0.0042906185
-0.048190538 0.050893895 0.0025416866 0.45774949 0.87499696 0.15762529 0.0048876721
-0.046448302 0.050114345 0.0015517572 0.48453936 0.86674052 0.11824758 0.0037463503
-0.04380985 0.048642348 0.0015096151 0.46954972 0.8759805 0.11036838 0.0038395182
0.047777958 0.048131462 0.0010323053 -0.54671639 0.82408249 0.14828731 0.0039434447
0.04951347 0.04918208 0.0017294898 -0.53322119 0.8241269 0.19102362 0.0033960037
0.051690828 0.05059668 0.0019154259 -0.54002887 0.82226813 0.17956586 0.0033875906
0.072511718 0.049643144 0.0018760475 0.95465779 -0.019709541 0.29705217 0.0038806137
-0.075549327 0.053099673 0.0021301559 -0.81875145 -0.16669449 0.5494169 0.015182912
-0.074656606 0.051497992 0.0026363083 -0.74526536 -0.22120865 0.62900418 0.00621795
-0.054290421 0.053871464 0.0026214975 0.35142088 0.91003096 0.2198796 0.0063576559
-0.052409012 0.053294059 0.0016522063 0.41431671 0.89197534 0.18089116 0.004388113
-0.049546342 0.051816035 0.0015167152 0.45257944 0.88114691 0.13693793 0.0045070108
-0.047920931 0.051034197 0.00087965705 0.46144137 0.88433611 0.070862189 0.0058106822
0.053052496 0.051561795 0.0015994732 -0.52352399 0.82750475 0.20287584 0.0047630505
0.055354983 0.053008106 0.0017867968 -0.54636061 0.80389994 0.23502131 0.0050681401
0.057112962 0.05392288 0.0026918794 -0.5270859 0.78648049 0.3219144 0.0070812637
0.072604761 0.052524474 0.0018229325 0.94325185 -0.0082469499 0.33197567 0.0048110494
-0.075916134 0.056024823 0.0021831139 -0.71352434 0.45071396 0.53641403 0.049730867
-0.060686301 0.05666336 0.0019521458 0.49282512 0.84922779 0.18956695 0.0083573489
-0.058530882 0.055771232 0.0015691295 0.38853455 0.90335047 0.18165591 0.007535134
-0.055583458 0.054611772 0.0015413176 0.33838776 0.92482477 0.17376111 0.0048061935
-0.053775143 0.0540516 0.00068399234 0.35731977 0.92863238 0.099822097 0.0074108792
0.056818448 0.054178126 0.00092354772 -0.55681694 0.80672461 0.19786437 0.007108151
0.058577623 0.055290245 0.0016495816 -0.53552997 0.80481756 0.25588346 0.006657715
0.060525421 0.056582201 0.0021546267 -0.66148901 0.69635087 0.27843794 0.010580069
0.072618872 0.055607587 0.00192547 0.88624203 0.028809857 0.46232563 0.010200096
-0.075450271 0.057520092 0.0012151449 -0.62591445 0.73167551 0.26996672 0.035101507
-0.073490478 0.058610488 0.0015985112 -0.52045703 0.8356725 0.17543077 0.012716286
-0.071325399 0.059686314 0.0014153691 -0.39986697 0.90241939 0.16045454 0.0089208204
-0.066465221 0.059706282 0.0026869932 0.31558219 0.85216868 0.41739255 0.014229226
-0.064394608 0.05900066 0.0016815773 0.51763833 0.82238758 0.23607047 0.0065892502
-0.062071111 0.057596013 0.001415463 0.46967494 0.85523027 0.21905854 0.010269762
0.061850548 0.058116827 0.0017143823 -0.71463341 0.57540953 0.39774737 0.016115591
0.063415594 0.059513889 0.0025367877 -0.70451427 0.52078271 0.48212555 0.01362119
0.072625615 0.058701638 0.0020231747 0.77272713 0.036727656 0.63367486 0.015447374
-0.069785312 0.060363494 0.0017148607 -0.18282333 0.96586567 0.18351854 0.0225497
-0.067446478 0.060570981 0.001556959 0.24087973 0.92782122 0.28482404 0.017286336
-0.065731585 0.060125649 0.00073100842 0.37827539 0.9032625 0.20254526 0.017912596
0.062904529 0.060118161 0.00021235486 -0.79016483 0.54849821 0.27347624 0.01949689
0.064168632 0.061492845 0.0019373125 -0.67172366 0.37779358 0.63722789 0.016297853
0.071945608 0.062475096 0.0029554875 0.31842929 0.056982335 0.94623244 0.01695225
0.072858661 0.06153436 0.0019649158 0.62427902 0.0052727759 0.78118366 0.014925328
0.065213896 0.064409658 0.0018135721 -0.68040246 0.2583335 0.68579608 0.011249691
0.066324435 0.065157771 0.0027812964 -0.41981095 0.24647431 0.87350392 0.020356227
0.071949258 0.064175889 0.0029649753 0.18561468 0.011350065 0.98255706 0.011295881
0.073098071 0.064514004 0.0021043096 0.51235133 -0.057747606 0.85683215 0.019856744
0.065596454 0.067318998 0.001180663 -0.60682404 0.20876293 0.76693064 0.018182673
0.066955872 0.067675784 0.0025482525 -0.41951799 0.18686692 0.88830483 0.013018989
0.069321804 0.068329856 0.0029298863 -0.21301807 0.047704101 0.97588301 0.016686302
0.073780224 0.067334481 0.0020818745 0.49305639 -0.1463532 0.85759902 0.015427493
0.07508789 0.068703294 0.00048606656 0.83540064 -0.25076061 0.48910612 0.015948974
0.065895133 0.069440618 0.00069315621 -0.61970723 0.18889603 0.76176196 0.024978884
0.067599125 0.070382841 0.0022938703 -0.4758755 0.055680763 0.87774837 0.019029988
0.069200754 0.070185535 0.0028973226 -0.34978193 0.043695651 0.93581152 0.016674776
0.074431352 0.069980919 0.0024453057 0.50247717 -0.26753986 0.82215512 0.026128761
0.075396888 0.07090348 0.0015198131 0.8496601 -0.25163284 0.46342063 0.0209947
0.06766922 0.073345058 0.001983563 -0.68272924 0.060493283 0.72816288 0.030230798
0.069145627 0.072638139 0.0029050687 -0.53533304 -0.046287619 0.84337181 0.0091094393
0.074936308 0.072120458 0.0029595448 0.70334101 -0.19162793 0.68453646 0.021448117
0.076170944 0.074024014 0.0016955693 0.87136704 0.21506369 0.44098437 0.074760236
0.068081014 0.076591715 0.0016011373 -0.42281577 0.79516989 0.43466267 0.088795274
0.07035812 0.076634236 0.0015643473 -0.062105291 0.8888185 0.45403153 0.075836271
0.073512539 0.075674005 0.0015594505 0.38198054 0.90204829 0.20099692 0.026052123
0.075353652 0.075102799 0.0013046799 0.52551621 0.81862742 0.23169348 0.051626805
-0.015752552 0.0027887442 0.004828142 -0.18071975 -0.88581669 0.42739815 0.00028082452
-0.013651863 0.0025051383 0.0049816393 -0.16149402 -0.86057246 0.4830474 0.0005956153
-0.010766419 0.0020791038 0.0051266025 -0.11027665 -0.88851953 0.44538981 0.0011612514
-0.0077023469 0.0017719055 0.0052711316 -0.089941263 -0.8764177 0.47307774 0.001079504
-0.0045743803 0.0015142574 0.0052444809 -0.036855947 -0.88087517 0.47191161 0.001345866
-0.0015082528 0.0013821811 0.0052663982 -0.028213067 -0.88141191 0.47150514 0.0011823968
0.0010437657 0.001292598 0.0050021531 -0.0037442383 -0.87668079 0.48105791 0.0012596668
0.0044359458 0.00098683767 0.0040487638 0.023634277 -0.9098559 0.41425076 0.0014680376
0.0075614438 0.0015798885 0.004961805 0.069218308 -0.87353218 0.48181987 0.00072403881
0.011130453 0.0018501127 0.0051877247 0.087613247 -0.8690185 0.48696086 0.00075969519
0.013735051 0.0022639316 0.0052866586 0.11390153 -0.85496485 0.5060252 0.00086627156
0.016469233 0.0025232318 0.0053050942 0.12189461 -0.84394014 0.52240485 0.00075677293
0.019375637 0.0024277312 0.0041606054 0.1424728 -0.90630013 0.3978965 0.0036825137
0.021238891 0.0025228523 0.0032632402 0.19788969 -0.94016367 0.2773661 0.00066620432
-0.027074516 0.0059822667 0.004609955 -0.28808084 -0.86152375 0.41807449 0.00032355031
-0.024815723 0.0054336903 0.0048875306 -0.2731325 -0.8685028 0.41364428 6.8420071e-05
-0.022364721 0.0046525486 0.0048606908 -0.26231733 -0.86904812 0.41945797 0.00017425096
-0.020025909 0.003809846 0.0045965621 -0.23895179 -0.87165928 0.42791608 0.00031257499
-0.016764069 0.003257287 0.0052218162 -0.19343963 -0.86367381 0.46545538 0.0005410036
0.019784613 0.0031083154 0.00547719 0.15402631 -0.8392154 0.52152979 0.0014895875
0.022004776 0.0035420207 0.0054343278 0.16882019 -0.82821524 0.5343774 0.001027063
0.025654437 0.004182166 0.0051289024 0.19440937 -0.8246963 0.53111291 0.0016768454
0.028393729 0.0049618594 0.0051753367 0.2325616 -0.83446115 0.49958947 0.002031551
0.030833984 0.00554117 0.0048941001 0.28351432 -0.84632254 0.45095211 0.0022260344
-0.033736482 0.0086531369 0.0050847093 -0.33638275 -0.84092021 0.42391017 0.00056590937
-0.031359382 0.0077114785 0.0049318178 -0.31318119 -0.85767496 0.40781268 0.00013341155
-0.028788026 0.0067827483 0.0050052106 -0.29609057 -0.8552475 0.42530239 0.00034280741
-0.02639683 0.0060682977 0.0052333847 -0.28128511 -0.85602903 0.4336969 0.00034643832
0.032294758 0.0062032775 0.0054070125 0.28200066 -0.83549738 0.47161412 0.0024069066
0.034394141 0.0067515555 0.0048016519 0.29901645 -0.84789455 0.43779433 0.001886169
0.037628967 0.0081917159 0.0053501572 0.32070917 -0.81833857 0.47693565 0.0013506238
0.039406732 0.008411346 0.0040288754 0.3719238 -0.86849463 0.32770395 0.0023656567
-0.039875273 0.011423567 0.0050948942 -0.40226093 -0.81476063 0.41755387 0.00044671894
-0.037671912 0.010279332 0.0048772804 -0.37817228 -0.82681119 0.41637596 0.00034165266
-0.035388909 0.0092884377 0.0051080398 -0.35340509 -0.83629376 0.41918689 0.000496138
0.04093843 0.0095840665 0.0052314796 0.376358 -0.82729417 0.4170599 0.002425899
0.043459933 0.010583076 0.0047284062 0.41752192 -0.83499485 0.35841176 0.0022193582
0.045722526 0.011689648 0.0045715733 0.44901332 -0.82168829 0.35102054 0.001888499
-0.04514936 0.014632272 0.0055812085 -0.48251227 -0.7672388 0.42252398 0.00054633472
-0.043663539 0.013355562 0.004945518 -0.45125628 -0.78632474 0.4219729 0.00066071964
-0.041473623 0.012239994 0.0052265711 -0.42302272 -0.80712032 0.41183552 0.00043572497
0.047110144 0.012452965 0.0045139906 0.46355295 -0.81313175 0.35204443 0.0017061019
0.049431641 0.013778116 0.0044841017 0.49009818 -0.79769176 0.35141373 0.0017568128
0.051296901 0.014775361 0.0041745882 0.50829655 -0.79383665 0.33385316 0.0022363991
-0.049225055 0.017035261 0.0052116467 -0.50818455 -0.74176115 0.43765166 0.00067108049
-0.046936464 0.015512217 0.0051356284 -0.48952517 -0.76058882 0.42646185 0.00041480886
0.052790191 0.015997417 0.0046111881 0.53162658 -0.77290112 0.34640601 0.001810802
0.054734495 0.01719759 0.0042421329 0.53712195 -0.76004601 0.36582801 0.001846698
-0.052259363 0.019293718 0.0053104553 -0.53808188 -0.72063845 0.43720481 0.00050728064
0.056014355 0.01841834 0.0049698357 0.56396723 -0.74333858 0.35970652 0.0017399006
0.058227714 0.019920705 0.0043852213 0.59549522 -0.69769055 0.39826292 0.0018745838
0.060001519 0.020895315 0.0034140409 0.65911627 -0.71684253 0.22738197 0.0058363052
-0.057731818 0.023459967 0.0049717077 -0.60853881 -0.65688026 0.44518411 0.00046197209
-0.055819742 0.022009064 0.0053309314 -0.57263368 -0.69709218 0.43145475 0.00048986939
0.059464872 0.021369975 0.0051904563 0.61597329 -0.67216969 0.41081005 0.0018206593
0.061366934 0.022839369 0.0044628549 0.66009605 -0.65636396 0.36532122 0.0012500568
-0.060649533 0.026405923 0.005129172 -0.66019285 -0.61619395 0.42947701 0.00060776668
-0.058797613 0.024735563 0.0055323667 -0.62194502 -0.63850141 0.45332155 0.00090495078
0.062590852 0.024396434 0.0049559358 0.68621898 -0.61110169 0.39453536 0.0017561333
0.064232707 0.026090218 0.0045107943 0.69608307 -0.5328036 0.48123658 0.0017981877
-0.063515507 0.029715594 0.0049543167 -0.69413078 -0.53812814 0.47812188 0.00045424167
-0.061939467 0.028206863 0.0055512832 -0.67680198 -0.54255772 0.49756423 0.00059310836
0.065244339 0.027689043 0.0049108649 0.74131274 -0.51332438 0.43238136 0.0019708751
0.066517383 0.029219279 0.0044841315 0.76714402 -0.48259255 0.42260429 0.0018514713
-0.064206891 0.031175911 0.0056589139 -0.70889133 -0.48258576 0.5143773 0.00064688193
-0.0093577504 0.032934316 0.005869397 0.1900802 0.89968675 0.3929801 0.00064149086
-0.0071927588 0.032760959 0.005417964 0.16010931 0.91773403 0.36349571 0.0014351142
-0.0043554925 0.032558244 0.0049273162 0.13174795 0.92174339 0.36473501 0.0013912925
-0.0014700977 0.032369856 0.0045483815 0.099532962 0.93483305 0.34085226 0.001950087
0.00150227 0.032152463 0.0045390851 0.050730556 0.93973237 0.33812642 0.0021156392
0.0044833967 0.032062624 0.0045686536 0.008528064 0.93962413 0.34210196 0.0023784307
0.0075148246 0.032096833 0.0045725 -0.042905666 0.94126409 0.33493444 0.002378847
0.010544694 0.03229171 0.0046097734 -0.098396614 0.93253011 0.34742728 0.0023187017
0.013366964 0.032517184 0.0048956755 -0.14460552 0.91884756 0.36716253 0.0020240068
0.016142605 0.03278162 0.0054242495 -0.19307239 0.90800619 0.3718169 0.002361919
0.018029543 0.032928336 0.0057045659 -0.21923894 0.89453906 0.3895306 0.0038418157
0.067762665 0.03166192 0.0048288452 0.79528409 -0.40967661 0.44686499 0.002670086
0.069050476 0.032818198 0.003341957 0.84766376 -0.41197687 0.33427706 0.0049088327
-0.066956557 0.035076488 0.0050854525 -0.75074309 -0.41182882 0.51650929 0.00096162863
-0.06564033 0.033300877 0.0057589877 -0.70558858 -0.43549007 0.55901086 0.0010710799
-0.018849734 0.035737138 0.0054308958 0.29680154 0.89417624 0.33519799 0.0021475733
-0.016420761 0.035350967 0.0046429462 0.28698814 0.90381217 0.31742933 0.0017590234
-0.013482537 0.034505483 0.0045763068 0.24790248 0.90991002 0.33257791 0.0017556978
-0.010520055 0.033783372 0.0045415522 0.19453505 0.9247548 0.32708502 0.0016279044
-0.0076615834 0.033419877 0.0040577655 0.15316753 0.93340784 0.32448354 0.0016990438
-0.0049820007 0.033198383 0.0035093555 0.13294917 0.93541962 0.32758918 0.0020172864
-0.0021272469 0.033032726 0.0030166265 0.096506871 0.96542776 0.24214804 0.0007836537
0.014022585 0.033180658 0.0034922773 -0.14352502 0.94081032 0.30704451 0.0024458929
0.016643485 0.033406496 0.0041615814 -0.19358549 0.92473716 0.32769805 0.0023308841
0.019513005 0.033966821 0.004564201 -0.23132393 0.91279876 0.33658224 0.002045817
0.022521356 0.034792375 0.004596272 -0.26476675 0.90146267 0.34243783 0.0019337159
0.025277942 0.0354877 0.0048201499 -0.29183036 0.89441228 0.33891261 0.0020592583
0.027504301 0.035841599 0.0056612366 -0.30755767 0.86800426 0.38984194 0.0017022345
0.068660036 0.034120403 0.0054222271 0.81662738 -0.33082247 0.47294411 0.0023566433
0.069551803 0.034935839 0.00424045 0.85825217 -0.31926945 0.40183362 0.0034480151
-0.069290847 0.038821857 0.004194987 -0.80625463 -0.33895972 0.48482969 0.0012841116
-0.068116173 0.037426837 0.0051334836 -0.76889938 -0.34535652 0.53807306 0.00061865512
-0.027267559 0.038845334 0.0057370854 0.37176374 0.8614552 0.34595758 0.0016599017
-0.025205886 0.038412195 0.004831274 0.37380931 0.87354803 0.31173792 0.0016971041
-0.022487862 0.037394553 0.0045581772 0.33491436 0.88609153 0.32042786 0.0017687964
-0.019722238 0.036496099 0.0042648683 0.29673865 0.90500081 0.30482733 0.0020939598
-0.017638378 0.036133137 0.003503687 0.27501157 0.92365098 0.26690361 0.0024318283
0.026186593 0.036223475 0.003642299 -0.28531012 0.92152524 0.26341841 0.0014855289
0.028575851 0.036716532 0.0044458876 -0.30031317 0.89627385 0.32635108 0.0020455329
0.031480741 0.037709855 0.0045806938 -0.3575227 0.88039422 0.31158242 0.0024451413
0.033835743 0.038617011 0.0049323183 -0.4200528 0.85164207 0.31346661 0.0021541507
0.070192024 0.037636094 0.0047590057 0.86035883 -0.22938447 0.45515436 0.0023185182
-0.069778897 0.040727384 0.0048271897 -0.7942521 -0.27081862 0.54389423 0.0015794138
-0.06874226 0.039466113 0.005732954 -0.79800951 -0.30691704 0.51863551 0.0026137577
-0.033317164 0.041836277 0.0055160574 0.40937626 0.85097998 0.32900485 0.0023454768
-0.031338017 0.041182153 0.0047016428 0.42689872 0.85332674 0.29931748 0.0018724833
-0.02854432 0.039938349 0.0045052026 0.37420171 0.87608129 0.30406365 0.0018785078
-0.026310073 0.039270695 0.0038243812 0.36107039 0.88477743 0.29461336 0.0015885915
0.035053764 0.039463364 0.0042166798 -0.41510871 0.85330999 0.31551042 0.0021283554
0.037500221 0.040598359 0.0046351925 -0.45012078 0.8302061 0.32886043 0.0026030755
0.039605036 0.041670796 0.0050863083 -0.51166272 0.79855746 0.31702879 0.0020558576
0.070894226 0.040585328 0.0047064414 0.88912868 -0.15066172 0.43214726 0.0029895669
-0.072164826 0.044905595 0.0030152649 -0.87325537 -0.26973328 0.40579438 0.0034128092
-0.070616387 0.04347863 0.0051037138 -0.77237707 -0.18828559 0.60661542 0.0021368668
-0.039367072 0.044827547 0.0056604822 0.43513259 0.82001907 0.37179065 0.0030790798
-0.037340049 0.044201657 0.0046991543 0.44330293 0.84365696 0.3028622 0.0017622695
-0.034593813 0.042918354 0.0044715563 0.42559096 0.85570586 0.29434648 0.0018526813
-0.03260478 0.04222602 0.0036653404 0.43094715 0.85694128 0.28272995 0.002445861
0.040766437 0.042716328 0.0042750211 -0.48902622 0.80811208 0.32834166 0.0022312487
0.043282587 0.044156726 0.0046730661 -0.50380528 0.79103464 0.34705114 0.0025232581
0.045192845 0.044843301 0.00569613 -0.46469805 0.78015798 0.41881895 0.0038050297
0.071277194 0.043577902 0.0047011394 0.8782692 -0.057349265 0.47471491 0.0024828468
0.072069563 0.044263326 0.0030714632 0.9553529 -0.082589947 0.28368953 0.0033555634
-0.072541066 0.047285058 0.0037036105 -0.78825396 -0.21099707 0.57804489 0.0025321862
-0.071331814 0.046417303 0.00523197 -0.74745518 -0.15517324 0.64593494 0.0037342056
-0.045077022 0.047830734 0.0058461269 0.42649984 0.78983486 0.44074786 0.0021542429
-0.043188367 0.047317412 0.0047593466 0.45928645 0.82627505 0.32607606 0.0018380033
-0.040587623 0.04602465 0.0044666431 0.45166939 0.83496153 0.31437904 0.0019502317
-0.038564771 0.045268994 0.0036401087 0.44680429 0.84664249 0.28907168 0.00204067
0.044562653 0.045344535 0.0037721209 -0.49837691 0.79566115 0.34430182 0.0022249469
0.046541274 0.046288732 0.004590238 -0.50556523 0.77755064 0.37392363 0.0028465427
0.048824668 0.047510851 0.0051125153 -0.51061195 0.76968509 0.38322347 0.0035791732
0.071182393 0.046503872 0.0049667642 0.84226358 0.0089036869 0.53899229 0.0027273369
0.072069518 0.046794377 0.003208993 0.93440706 -0.023470031 0.35543308 0.0023975139
-0.072632566 0.049856447 0.0046832771 -0.65687203 -0.10249751 0.7470029 0.0041903909
-0.071644969 0.049633302 0.0057106437 -0.6212126 -0.050535884 0.78201097 0.006321325
-0.051271636 0.050963931 0.0059434338 0.40085509 0.75971156 0.51200932 0.0033207037
-0.049068209 0.050428238 0.0049041263 0.43796909 0.82280463 0.36218169 0.0021512494
-0.046506133 0.049248125 0.0044770101 0.45085222 0.82076675 0.35081947 0.0022824442
-0.044305373 0.048342492 0.003813958 0.44632232 0.83231938 0.32869586 0.0016786073
0.050068151 0.048648614 0.004399573 -0.50385231 0.77530503 0.38083464 0.0029452338
0.052412093 0.049963113 0.0047473111 -0.48934326 0.76863092 0.41200694 0.0033725342
0.054417096 0.050718486 0.0055438839 -0.46864057 0.73698264 0.48706532 0.004332656
0.071208909 0.049521849 0.0048703332 0.82515943 0.042673212 0.56328583 0.0031831677
0.072109051 0.049347024 0.0032267922 0.91138774 -0.0087135369 0.41145635 0.0031262024
-0.075077266 0.05364275 0.003191839 -0.76993304 -0.040036693 0.63686752 0.021484381
-0.073023826 0.052941229 0.0050235838 -0.56984812 -0.021605838 0.82146603 0.0056234878
-0.071760684 0.051994201 0.0058812238 -0.52157873 0.018908544 0.85299361 0.0070947567
-0.057698715 0.053744297 0.005608683 0.26586857 0.78787142 0.555493 0.0033433887
-0.055256888 0.053335726 0.0048298235 0.33697942 0.85046542 0.40392244 0.0025053294
-0.052504465 0.052353572 0.0045223967 0.37138686 0.82973111 0.41667509 0.0022548607
-0.050173577 0.051410764 0.0039760433 0.41878977 0.83295029 0.36167517 0.0023374585
0.053622883 0.05127044 0.0037276938 -0.47866026 0.78223395 0.39874095 0.0020284036
0.055676371 0.052096505 0.0045201634 -0.45585671 0.77475959 0.4381122 0.0039871526
0.058154959 0.053262774 0.0050508003 -0.45790076 0.73993963 0.49276388 0.0050456761
0.06025501 0.053903479 0.0058565792 -0.39700431 0.66694099 0.63053745 0.0048384718
0.071062542 0.052588265 0.0048908987 0.76533061 0.090571173 0.63723296 0.0059214556
0.07212881 0.052319072 0.003236183 0.87679487 0.028484592 0.48002011 0.0052652713
-0.075302325 0.055892125 0.0033836141 -0.68375105 0.34184974 0.64468849 0.046874702
-0.073341265 0.055643819 0.0050013596 -0.51648122 0.24808292 0.81957424 0.021690307
-0.071164295 0.056331802 0.0058277417 -0.20920016 0.33240643 0.91964197 0.015721694
-0.067067795 0.056758162 0.0058305096 0.10539795 0.58518559 0.80402052 0.0066669658
-0.064235277 0.056335937 0.0053037759 0.25846294 0.70407754 0.66141641 0.0066875126
-0.061491162 0.055718858 0.0046092984 0.33246845 0.78091985 0.52879936 0.0078764893
-0.058654834 0.054767385 0.0043758363 0.294296 0.83866423 0.45829266 0.0038702681
-0.056294572 0.054246336 0.003706841 0.33612356 0.86706483 0.36772224 0.0026182858
0.05914415 0.054630991 0.0039835265 -0.49116999 0.72406131 0.48423892 0.0049482295
0.061492715 0.055593327 0.0047474303 -0.42571172 0.6702376 0.60790712 0.0061015333
0.063997269 0.056436449 0.0055556297 -0.27067566 0.56720537 0.77782571 0.0097834403
0.068451531 0.056713738 0.0058936225 0.30407208 0.34218594 0.88907194 0.018856194
0.070615895 0.055575401 0.004914959 0.62338471 0.16853547 0.76353604 0.012377759
0.072122917 0.055553608 0.0031674874 0.84128064 0.045304608 0.53869689 0.0079597831
-0.073006995 0.058031108 0.0043892474 -0.42527723 0.64834017 0.63150162 0.019264957
-0.070411153 0.058568325 0.004846971 -0.12681518 0.66082156 0.73975176 0.021765189
-0.067522489 0.058492076 0.0045234929 0.19517051 0.68779606 0.69917458 0.0083183544
-0.064773746 0.057838589 0.0039984332 0.36665359 0.72231692 0.58636457 0.0068972372
-0.062722571 0.057243373 0.0032717728 0.45903111 0.76162481 0.45740351 0.011271452
0.062531374 0.057479084 0.0035891058 -0.54991549 0.59420162 0.58695596 0.0093593625
0.064596795 0.058366526 0.0045403992 -0.43906376 0.48940989 0.75345927 0.015869653
0.067502335 0.058542177 0.0053707571 0.011694791 0.35907102 0.93323702 0.017959995
0.070474692 0.058495879 0.004449029 0.50311708 0.19628622 0.84163237 0.016342012
0.072076276 0.057851154 0.0031439173 0.83994931 0.01747234 0.54238349 0.021879112
-0.069558613 0.060126279 0.0033172385 -0.12123153 0.87635118 0.46616682 0.025170585
-0.068392269 0.06015363 0.0032161938 0.090047836 0.89730817 0.43212205 0.026852213
0.065369055 0.061141521 0.0035560548 -0.54543161 0.31017298 0.77865088 0.013755628
0.06752532 0.061458603 0.0043440014 -0.15688623 0.27488518 0.94859093 0.025560236
0.070415959 0.061461136 0.0038894762 0.37984827 0.12336978 0.91678518 0.019189406
0.072068252 0.061719861 0.003088949 0.57792383 0.014420529 0.81596327 0.020748032
0.065724626 0.06320297 0.0030452313 -0.44653222 0.28347734 0.84867519 0.010402444
0.067706123 0.064374156 0.0035725527 -0.19294912 0.18541662 0.9635306 0.016099824
0.070455357 0.064427592 0.0034641009 0.18778998 0.033730846 0.98162979 0.019047292
0.072174311 0.065004297 0.0031153532 0.43330088 -0.013407487 0.90114951 0.025483204
0.068222642 0.06700588 0.0031819933 -0.29091954 0.13473956 0.94721222 0.018506533
0.07050804 0.067387678 0.0033334272 0.01927698 -0.0051829005 0.9998008 0.021628017
0.072485432 0.067631535 0.0032325641 0.30336532 -0.087754928 0.94882488 0.021563174
0.068659931 0.069277763 0.0030230309 -0.2189195 0.021202942 0.9755125 0.013448025
0.070671938 0.070412748 0.0035690814 -0.067741558 -0.1075755 0.99188638 0.026608637
0.0730891 0.070566274 0.0035908017 0.27532527 -0.22242895 0.93526542 0.022789024
0.068911374 0.074668154 0.0031520065 -0.50690418 0.14439596 0.84982234 0.05002575
0.070668429 0.073444314 0.0041432404 -0.2819255 0.0094127199 0.95939016 0.037164439
0.073545553 0.073655002 0.0043038265 0.41575867 0.12143617 0.90133119 0.074532606
0.07539542 0.074073963 0.0033887825 0.7397278 0.10214282 0.66510868 0.072629988
0.068847097 0.076021641 0.0032331415 -0.33457205 0.68824834 0.64372027 0.080044322
0.07060454 0.075982578 0.0040705549 -0.10781229 0.51290673 0.85164738 0.082610495
0.073203526 0.075529963 0.0041694324 0.25937986 0.72676218 0.63603371 0.059483498
0.075128555 0.075076781 0.0033077407 0.55234653 0.66145313 0.5073393 0.082409278
-0.012949854 0.0029583164 0.0062326659 -0.15324718 -0.86518955 0.47745398 0.00075711752
-0.010313702 0.0026285434 0.0064712008 -0.12102176 -0.86598986 0.48519617 0.00087296177
-0.0069991443 0.0025554816 0.0070360918 -0.069284067 -0.87667072 0.4760758 0.0012982826
-0.0041285949 0.0022933823 0.0069254851 -0.045495663 -0.8664543 0.49717912 0.00075835915
-0.0013589406 0.0026004801 0.0075716022 -0.014598102 -0.84798932 0.52981216 0.0015638733
0.0016461586 0.0021575505 0.00677966 0.011691733 -0.84277636 0.5381369 0.001466812
0.0045235893 0.0024144948 0.00709124 0.042315941 -0.83035958 0.55561894 0.00099735055
0.0076221339 0.0025930174 0.0069806152 0.074066594 -0.83656734 0.54283434 0.00087142619
0.010262475 0.0026394948 0.0067308489 0.089557581 -0.83981782 0.53543019 0.00065379177
0.01274733 0.0025627194 0.0060445028 0.098492779 -0.84531087 0.52511781 0.00088995072
-0.021839507 0.0055295387 0.0071742139 -0.24592538 -0.84753954 0.47031638 0.0011143676
-0.019502841 0.0052694585 0.0079054832 -0.20215303 -0.83181459 0.51693183 0.0012789727
-0.016551774 0.0045262561 0.0078620538 -0.17500895 -0.83918738 0.51491398 0.00092408649
-0.01339494 0.0040955669 0.008166397 -0.14644942 -0.83737761 0.52664149 0.0010853022
