# .PCD v0.7 - Point Cloud Data file format
VERSION 0.7
FIELDS x y z normal_x normal_y normal_z curvature
SIZE 4 4 4 4 4 4 4
TYPE F F F F F F F
COUNT 1 1 1 1 1 1 1
WIDTH 555
HEIGHT 1
VIEWPOINT 0 0 0 1 0 0 0
POINTS 555
DATA ascii
0.058177024 0.028418256 -0.013305567 0.48781237 -0.33302554 -0.80692816 0.0017864561
0.060159832 0.028841257 -0.012199857 0.54115719 -0.35833877 -0.76075113 0.0019258684
-0.057188183 0.032579493 -0.012145199 -0.51815128 -0.41010642 -0.75055444 0.0020819979
-0.055295888 0.031651754 -0.012863535 -0.45714372 -0.3840687 -0.80219126 0.0027868757
-0.052558482 0.031365592 -0.014136507 -0.38835728 -0.31440413 -0.86621511 0.001678649
-0.050386768 0.030622644 -0.0147762 -0.3281022 -0.2761589 -0.90337431 0.0035344074
-0.030459799 0.032825023 -0.014794646 0.22201365 0.48369262 -0.84661174 0.00079223898
-0.02843979 0.032275781 -0.014544684 0.23114316 0.4852398 -0.8432765 0.0026168434
-0.025549311 0.031634822 -0.014135747 0.20593983 0.5078668 -0.83645689 0.0012625469
-0.022763312 0.030814892 -0.013925062 0.20778099 0.53823268 -0.81678188 0.001393686
-0.019819045 0.030741345 -0.013161066 0.20753595 0.58265775 -0.7857728 0.0016072063
-0.017215554 0.030443218 -0.012628074 0.2100009 0.59436041 -0.7762959 0.00068482489
0.023375675 0.030169033 -0.012536525 -0.20889004 0.66259515 -0.71925843 0.0012744295
0.025786713 0.030500919 -0.0129131 -0.22569749 0.66224194 -0.71449023 0.0019318729
0.028725188 0.031161856 -0.01317572 -0.23299441 0.64214498 -0.73031735 0.0018502653
0.03152775 0.031654723 -0.013630521 -0.22908399 0.63164687 -0.74063671 0.0021750967
0.034574576 0.032018013 -0.01428004 -0.23332509 0.57000202 -0.7878179 0.002105508
0.037320103 0.032714855 -0.014644474 -0.23327062 0.54151195 -0.80768162 0.0020127667
0.056641288 0.030689806 -0.014819175 0.39291909 -0.18632723 -0.90049803 0.0047715968
0.058424845 0.031435493 -0.014080514 0.43670273 -0.20041095 -0.87699842 0.0027048064
0.061226647 0.031776812 -0.012583789 0.48292604 -0.22302149 -0.84678435 0.0030651141
-0.058044296 0.034729194 -0.012592596 -0.48188904 -0.29941502 -0.82348865 0.0029306451
-0.055535156 0.034420311 -0.013758988 -0.39576799 -0.24342108 -0.8855021 0.0025526464
-0.053174201 0.03415215 -0.014689439 -0.34069419 -0.17869328 -0.9230364 0.0031157478
-0.037058584 0.035690121 -0.014929911 0.19742028 0.47906083 -0.85529292 0.0014729385
-0.03443215 0.035118416 -0.014507642 0.23220026 0.4851985 -0.84300977 0.0020927249
-0.031570636 0.034456536 -0.01404776 0.23137859 0.50998247 -0.82848161 0.0012999807
-0.02845411 0.033904094 -0.013424069 0.23456407 0.50325996 -0.83169055 0.0014938555
0.032021213 0.033265848 -0.012416477 -0.25543857 0.66912675 -0.69786859 0.0010410466
0.034869328 0.033978924 -0.012737893 -0.27265263 0.65616661 -0.70363766 0.0019228277
0.037580132 0.034584612 -0.013247503 -0.28651881 0.62385917 -0.72712219 0.0019780165
0.040354818 0.034690671 -0.014171869 -0.26326036 0.54506046 -0.79599184 0.0014815857
0.043358177 0.035421677 -0.014625834 -0.2336804 0.5024671 -0.83241832 0.0016694221
0.045529269 0.035853222 -0.014909931 -0.15959746 0.4804706 -0.86236697 0.002378583
0.058598235 0.03453856 -0.014416458 0.35488713 -0.0078654494 -0.93487602 0.0056989822
0.061592523 0.033764381 -0.012919637 0.46813935 -0.18888378 -0.86323142 0.0030999733
0.063543774 0.035329096 -0.012064713 0.56020898 -0.18902385 -0.80649608 0.0022583602
-0.060452893 0.038132105 -0.01222939 -0.50293148 -0.2356427 -0.83158427 0.0027778633
-0.058505148 0.037509527 -0.013088237 -0.40928343 -0.16352932 -0.89763314 0.0039700768
-0.055565815 0.037355911 -0.014304228 -0.31826439 -0.052077033 -0.94657052 0.004783316
-0.05353431 0.037349224 -0.01488449 -0.22094148 0.0067934603 -0.97526342 0.0035255568
-0.045030642 0.038894746 -0.014829978 0.15575437 0.48590654 -0.86002064 0.002031361
-0.043117948 0.038316078 -0.014778158 0.159044 0.41383231 -0.89635253 0.0028920295
-0.040493634 0.037664924 -0.014591444 0.18964791 0.47596055 -0.85877544 0.0014291776
-0.037754949 0.037257511 -0.014069516 0.21604854 0.52086353 -0.82584757 0.0015874987
-0.034868337 0.036780264 -0.013491316 0.23293866 0.54266447 -0.80700362 0.001004415
0.038887374 0.036532536 -0.012138748 -0.30609289 0.62841076 -0.71512735 0.0021458352
0.040776603 0.036864549 -0.01263159 -0.31585032 0.618523 -0.71949142 0.0017216222
0.043531485 0.037443388 -0.013293526 -0.29880926 0.57534361 -0.76137561 0.0016968749
0.046502516 0.037574109 -0.014162773 -0.21566311 0.51252401 -0.83114898 0.0015501272
0.049432144 0.038046628 -0.014569096 -0.15127988 0.44511536 -0.88260227 0.0023514058
0.052437108 0.038428802 -0.014720616 -0.055699434 0.36554813 -0.92912441 0.0032854336
0.055708721 0.038058989 -0.014773224 0.088613555 0.22723012 -0.96980107 0.006017114
0.058447182 0.037392952 -0.014423147 0.2442902 0.13004735 -0.96094227 0.0041200928
0.061873574 0.037682503 -0.013183975 0.37097341 0.034409497 -0.92800581 0.0032101306
0.063578345 0.037300874 -0.012331342 0.50778455 -0.052013792 -0.85991251 0.0037645071
-0.060842749 0.040545773 -0.012440976 -0.43961102 -0.077948309 -0.89479953 0.0040832665
-0.058530465 0.040470704 -0.013385062 -0.32978195 0.013064267 -0.94396669 0.0032044165
-0.055517241 0.0403326 -0.014230219 -0.23914191 0.093149535 -0.96650624 0.0046926388
-0.05288795 0.040182669 -0.014663893 -0.15745686 0.17385985 -0.97210085 0.0042335964
-0.049594793 0.040600479 -0.014576809 0.04173493 0.36758074 -0.92905474 0.0063442094
-0.046554193 0.040408313 -0.014296643 0.13768826 0.47139439 -0.87110811 0.002165864
-0.043602403 0.04012417 -0.013834689 0.17942984 0.50306416 -0.84541786 0.0015078231
-0.040622998 0.0398136 -0.013169566 0.21581741 0.52988321 -0.82015038 0.0012447403
-0.038283616 0.039396998 -0.012714452 0.22461003 0.52997106 -0.81772923 0.00030805703
0.044590779 0.039414041 -0.012144242 -0.32148457 0.60649562 -0.72719377 0.0015593913
0.046673987 0.039741866 -0.012740947 -0.2756319 0.5726378 -0.77208358 0.001998998
0.049567439 0.040469185 -0.013155471 -0.21727145 0.53997469 -0.81315464 0.002002879
0.052480444 0.040446416 -0.013774094 -0.11354779 0.44071406 -0.89043701 0.0031314211
0.055500679 0.040485136 -0.014009853 0.0064498186 0.34953398 -0.93690151 0.004067631
0.058521144 0.040597092 -0.013774179 0.15021566 0.25968155 -0.95393962 0.0055520367
0.061346013 0.040603053 -0.013145301 0.30167997 0.1426332 -0.94267964 0.0061462745
0.063558131 0.040275563 -0.012340784 0.37462348 0.10018154 -0.92174882 0.0054100887
-0.06099223 0.043322474 -0.012365851 -0.35449892 0.082801484 -0.93138307 0.003330034
-0.05854252 0.043312136 -0.013102226 -0.2498323 0.1430254 -0.95766777 0.0043032696
-0.055906881 0.043052759 -0.013601945 -0.1489688 0.24035406 -0.95918626 0.0040499191
-0.052617159 0.043308601 -0.013568938 0.030199844 0.41213709 -0.91062117 0.0044713565
-0.049582124 0.043373618 -0.013176085 0.11746906 0.47537872 -0.87190372 0.0033602724
-0.046755023 0.042895094 -0.012828834 0.16111499 0.51505053 -0.84188175 0.001539466
-0.044324066 0.042563923 -0.012315118 0.19354036 0.519517 -0.8322525 0.00068167155
0.050622806 0.042306393 -0.012263517 -0.27312285 0.60014147 -0.75182056 0.001879132
0.052728649 0.042673554 -0.012529879 -0.1933064 0.53929812 -0.81962806 0.0028900709
0.055540517 0.043266419 -0.012698631 -0.099398807 0.4696658 -0.87723082 0.0031606632
0.058501981 0.043540254 -0.012732844 0.015345446 0.37875876 -0.92536819 0.0047135279
0.061316658 0.043413587 -0.012513943 0.21321462 0.28971681 -0.93306142 0.0049805893
0.063532948 0.042334247 -0.01216796 0.42773905 0.14853342 -0.89161491 0.0032025913
-0.060671568 0.045334931 -0.012174711 -0.27377936 0.22787136 -0.93440861 0.0039900593
-0.058754519 0.045668494 -0.012419312 -0.182189 0.27586555 -0.9437719 0.0032103574
-0.05568172 0.045825973 -0.012498709 0.01420553 0.45070451 -0.89256018 0.0037117586
-0.052466057 0.045518868 -0.012380897 0.11604583 0.50072265 -0.85779381 0.0029023448
0.05924128 0.045166131 -0.012047429 -0.014583807 0.44225645 -0.89677 0.0060367356
-0.015741711 0.0058997069 -0.0092094624 -0.21436812 -0.77052873 -0.60027635 0.00098839437
-0.013318046 0.0055284984 -0.0095787952 -0.18747081 -0.76527351 -0.61580127 0.0011338303
-0.010435027 0.0052042655 -0.0099536451 -0.14494471 -0.76117957 -0.6321367 0.0012630797
-0.0074608326 0.0049704369 -0.010176799 -0.11166364 -0.756733 -0.64411676 0.0015679961
-0.0044661979 0.0047742929 -0.010429122 -0.085857719 -0.75586802 -0.64907002 0.0014642356
-0.0015105208 0.0046481709 -0.010559128 -0.054106031 -0.75713903 -0.65100932 0.0017791985
0.0014795213 0.0044861697 -0.010560215 -0.036682904 -0.7627663 -0.64563298 0.001519952
0.0045001362 0.0043692179 -0.010553166 -0.0061694472 -0.7710011 -0.63680393 0.0010587984
0.0075269672 0.0044185384 -0.010543195 0.017601207 -0.78486687 -0.61941439 0.00072558579
0.010535301 0.0045043915 -0.010547993 0.043780588 -0.78288567 -0.62062323 0.0010683115
0.013511798 0.0047747116 -0.010574315 0.074572593 -0.77578479 -0.62657553 0.0016976589
0.016489649 0.0049234829 -0.010385557 0.10616133 -0.79393375 -0.59866428 0.0018824092
0.019385772 0.0051677409 -0.010172722 0.13823098 -0.79684418 -0.58815944 0.0014760435
0.022277929 0.005424425 -0.0097578391 0.16258945 -0.80554765 -0.56978738 0.0013340608
0.025208006 0.0057257791 -0.0093428381 0.19957277 -0.81130069 -0.54951054 0.0011177344
-0.024484737 0.0087332362 -0.0092070745 -0.28988042 -0.76464593 -0.57557446 0.0014198312
-0.022275845 0.0083454754 -0.0097698718 -0.27717385 -0.74177504 -0.61069179 0.0012690068
-0.019412311 0.0078182751 -0.0103286 -0.23242414 -0.74105924 -0.62992871 0.001614559
-0.016578713 0.0072950586 -0.010629515 -0.20154727 -0.73726439 -0.64484107 0.001320128
-0.013631302 0.0069186464 -0.0110599 -0.17114486 -0.73893398 -0.6516794 0.0012886209
-0.010644483 0.006564416 -0.011415874 -0.1297923 -0.71111435 -0.6909923 0.0012721495
-0.007638684 0.0063153151 -0.011620854 -0.10034163 -0.72245246 -0.68410093 0.0012810979
-0.0048781722 0.0061628241 -0.011873414 -0.072654344 -0.69218493 -0.71805382 0.0021171207
0.013924137 0.0060694865 -0.011956781 0.05964268 -0.73646343 -0.67384309 0.0012185714
0.016516522 0.0061314926 -0.011822498 0.079118229 -0.70970279 -0.70004451 0.0014393441
0.01960101 0.0063870051 -0.01164087 0.11768057 -0.71291155 -0.69130921 0.0012781139
0.022596305 0.0066261534 -0.011287265 0.14823477 -0.745776 -0.64949572 0.0013059374
0.025604354 0.0069864108 -0.0109119 0.18846898 -0.78480512 -0.59038997 0.0011756908
0.028576842 0.0075363307 -0.010564372 0.21761683 -0.79042685 -0.5725978 0.0014394753
0.031346731 0.0080814483 -0.010232179 0.25295204 -0.79045755 -0.55784595 0.0012498755
0.033970144 0.0086165583 -0.009701374 0.29403192 -0.78993708 -0.53809351 0.0009866734
-0.033020929 0.011982964 -0.009165532 -0.34373754 -0.74341577 -0.57373995 0.0020416463
-0.031071058 0.011582295 -0.0095652314 -0.31795597 -0.74603158 -0.58509904 0.00094519934
-0.028355995 0.01096677 -0.010161878 -0.29531953 -0.74809647 -0.59425426 0.0014761841
-0.025572523 0.010275527 -0.010609026 -0.26635808 -0.73617852 -0.6221692 0.0011597479
-0.022639563 0.0097342087 -0.011181224 -0.24599844 -0.70645833 -0.66362745 0.0014833469
-0.020162588 0.0092820814 -0.011637892 -0.21367854 -0.69928163 -0.68216324 0.0011452399
0.032016028 0.0092983553 -0.011561058 0.23140045 -0.72395015 -0.64988464 0.0012342907
0.034717213 0.0098361867 -0.010967828 0.27855244 -0.76939583 -0.5748378 0.0014101894
0.037568215 0.010504124 -0.010423682 0.3057996 -0.77726734 -0.54985648 0.00094663934
0.040439498 0.011407696 -0.0099270856 0.35360175 -0.7556029 -0.55138916 0.0010687523
0.042504895 0.01178978 -0.0091154352 0.38072515 -0.76263332 -0.52291375 0.0011317494
-0.03705306 0.0144385 -0.0096920282 -0.38032952 -0.72144789 -0.57867289 0.0011266799
-0.034391169 0.013717074 -0.010416879 -0.32691666 -0.71633089 -0.61643779 0.001162115
-0.031661019 0.012959202 -0.010910212 -0.29397193 -0.72965527 -0.61740077 0.0014462367
-0.028982654 0.012416393 -0.011496089 -0.26767552 -0.68046409 -0.68214256 0.0010726269
-0.026994556 0.012038879 -0.011873104 -0.25396115 -0.65809786 -0.70880955 0.0029429249
0.038897958 0.012057882 -0.01168508 0.32040584 -0.71947348 -0.61619639 0.0025668561
0.040744875 0.01261159 -0.011288837 0.33369443 -0.72773546 -0.59920704 0.0015354924
0.043451134 0.013343967 -0.010570738 0.37083328 -0.73525077 -0.56735253 0.0013876023
0.046341602 0.014421214 -0.0099058691 0.42237544 -0.72044241 -0.55005622 0.0010899721
0.048289657 0.01490439 -0.0090290084 0.43451762 -0.72333229 -0.53664219 0.00060679304
-0.042636007 0.01753067 -0.0095988698 -0.46126375 -0.68020862 -0.5696947 0.001212079
-0.040371563 0.01674217 -0.010336203 -0.39345536 -0.68919367 -0.60844475 0.0018455948
-0.037712131 0.015934812 -0.011007383 -0.35456938 -0.70318633 -0.61628693 0.001463428
-0.035350505 0.015328083 -0.011637303 -0.32833132 -0.67121774 -0.66457909 0.0010705531
0.044761829 0.015153741 -0.011929808 0.38193622 -0.67901611 -0.62694639 0.0020765376
0.046934575 0.015742844 -0.011075675 0.4134295 -0.6934514 -0.59008569 0.0015714566
0.049420875 0.016729863 -0.010451178 0.44398695 -0.68729377 -0.57489383 0.0012923838
0.051775057 0.017737927 -0.009724997 0.48120153 -0.66328949 -0.57314229 0.0010342757
-0.046174556 0.020217502 -0.0098995464 -0.47318715 -0.66268402 -0.5804686 0.0013650181
-0.043656126 0.019277481 -0.010724105 -0.42724872 -0.64158422 -0.63704658 0.00096982595
-0.041276652 0.018484605 -0.011550424 -0.40398577 -0.63163012 -0.66169393 0.0012432312
0.050513621 0.018467177 -0.011571197 0.4637011 -0.64725745 -0.60501164 0.00091377751
0.052843567 0.019419746 -0.01068635 0.47039834 -0.62330449 -0.62467337 0.0019930704
0.054916501 0.020228058 -0.0098897973 0.50679511 -0.62765163 -0.59094179 0.0016944151
-0.051462848 0.023730827 -0.0094300602 -0.50701088 -0.63632715 -0.58140153 0.0012972428
-0.04927576 0.022796029 -0.010193153 -0.47968063 -0.63584358 -0.60465646 0.0018361848
-0.046886373 0.021926582 -0.011131939 -0.42415294 -0.5935334 -0.68396813 0.0014367471
-0.044742554 0.021120837 -0.011764738 -0.43175882 -0.62367415 -0.6516248 0.00099845708
0.053743534 0.021210037 -0.011821125 0.45512611 -0.58124822 -0.67454481 0.0017455511
0.055413987 0.022091871 -0.011294394 0.50804538 -0.54470712 -0.66722113 0.0019763683
0.057985276 0.02317325 -0.0099937618 0.55776668 -0.57374567 -0.59976017 0.0015927975
-0.054664169 0.026447663 -0.0095057907 -0.54306054 -0.62247664 -0.56356728 0.0014570947
-0.052493464 0.025579194 -0.010458373 -0.48862746 -0.59339499 -0.63962924 0.0020324804
-0.050160605 0.024678418 -0.011389726 -0.47169402 -0.59032756 -0.65499479 0.00062855036
0.05877924 0.025281727 -0.011107907 0.52628112 -0.49059057 -0.69451356 0.0018778035
0.060967542 0.026021317 -0.009779809 0.60797417 -0.52189571 -0.59832454 0.0017693511
-0.057705093 0.029344127 -0.0096021509 -0.58479226 -0.55840415 -0.58838993 0.0017510643
-0.055559058 0.028429598 -0.010603975 -0.5077787 -0.52539474 -0.68273067 0.0012052375
-0.053350005 0.027617266 -0.011600082 -0.49113065 -0.54628253 -0.67850274 0.00091905612
-0.011301178 0.029561466 -0.011798415 0.15303299 0.62743956 -0.76347923 0.00074520387
-0.0075554103 0.029415701 -0.011122707 0.12027607 0.63014752 -0.76710349 0.00065522658
-0.0041993991 0.028880144 -0.011096642 0.099839494 0.65680534 -0.74742144 0.00086517341
-0.0013139457 0.028355844 -0.011271734 0.062944576 0.6699546 -0.73972893 0.0012761593
0.0017513114 0.028363235 -0.011025591 0.035058379 0.68407768 -0.72856617 0.001118614
0.004469973 0.028311823 -0.011047814 -0.017028715 0.68721247 -0.72625679 0.0013634167
0.0076991301 0.028501891 -0.010931207 -0.044302054 0.70467103 -0.70814967 0.0014440673
0.010693222 0.028679535 -0.011050047 -0.07901635 0.71191001 -0.69781131 0.0010465567
0.013551697 0.029292684 -0.010783091 -0.11418011 0.71708864 -0.68756592 0.0011535258
0.016304197 0.029518209 -0.011173178 -0.16086993 0.75814891 -0.6319266 0.0016062307
0.018806938 0.029517371 -0.011719175 -0.16973002 0.66880137 -0.72380692 0.0018147188
0.059702568 0.02730586 -0.011812473 0.55490142 -0.37346587 -0.74337596 0.0026954643
0.061318394 0.02841465 -0.011042394 0.55237746 -0.37002805 -0.74696606 0.0024079215
0.063502744 0.029035056 -0.0095417816 0.65396816 -0.43128413 -0.62154627 0.0017667062
-0.060484421 0.032342818 -0.0094508082 -0.60939825 -0.50216538 -0.61356634 0.0017685035
-0.058495317 0.031506523 -0.010525573 -0.55533338 -0.45153829 -0.69836801 0.0013745702
-0.056466226 0.030733304 -0.011645471 -0.51772976 -0.43375978 -0.73743367 0.001990085
-0.017048277 0.031752348 -0.011278704 0.20037344 0.60648936 -0.76942915 0.00068126514
-0.012357503 0.03096818 -0.010636172 0.16832568 0.63791126 -0.75148898 0.0009913306
-0.011652094 0.030301802 -0.011144394 0.16372155 0.62496889 -0.76328832 0.00093066681
-0.00044470406 0.030181877 -0.0090059508 0.048707914 0.75766671 -0.65082157 0.0004306201
0.00116408 0.030075297 -0.0090007195 0.056764103 0.72909534 -0.6820541 0.0016339085
0.010004943 0.030176155 -0.0090974756 -0.071106441 0.78890699 -0.61038488 0.00067339261
0.013605535 0.030507568 -0.0092083402 -0.11533979 0.78766441 -0.60521203 0.0015551836
0.016276238 0.030487394 -0.01000756 -0.17229824 0.77960378 -0.60210568 0.0015174618
0.019747965 0.030893652 -0.010513156 -0.19342887 0.7507987 -0.63157469 0.0019639828
0.023090079 0.03211014 -0.010152975 -0.22786433 0.73065662 -0.64359832 0.0013712535
0.025407515 0.032218561 -0.010931902 -0.24362119 0.70493227 -0.66612256 0.0018835883
0.02805556 0.032496326 -0.011594752 -0.2400212 0.71046638 -0.66153407 0.0010107599
0.062320147 0.031063259 -0.011583182 0.55848378 -0.2920782 -0.77639306 0.0011385331
0.06386824 0.031398222 -0.010463825 0.62511963 -0.3660523 -0.68937016 0.0029926728
-0.063218623 0.035797771 -0.0091867922 -0.64679986 -0.43417311 -0.62701172 0.0017755994
-0.061337899 0.034635771 -0.010172495 -0.59412599 -0.41410804 -0.68958598 0.0019839921
-0.059275988 0.034016702 -0.01147829 -0.53088599 -0.35129252 -0.77120274 0.0017965916
-0.026283374 0.034657218 -0.011859631 0.26081008 0.57776648 -0.77341062 0.0010823368
-0.022084646 0.033579022 -0.01122777 0.22746396 0.58371133 -0.77944928 0.0013070968
0.025682559 0.033280455 -0.0097889462 -0.25567243 0.77032942 -0.584144 0.00083540624
0.028738515 0.033861112 -0.010285292 -0.25683767 0.7637732 -0.59218651 0.0012113772
0.031788662 0.034626115 -0.010657478 -0.27678332 0.72554928 -0.63005495 0.00080039678
0.034010313 0.034901656 -0.011350362 -0.29650083 0.69821978 -0.65159523 0.0019640971
0.036770277 0.035779543 -0.011733599 -0.30599141 0.64611351 -0.69921851 0.00093677867
0.064613625 0.034246203 -0.010994721 0.61673868 -0.23040044 -0.75269449 0.0016862697
0.066385329 0.034878775 -0.0096584819 0.68389577 -0.25448954 -0.68375564 0.0019608813
-0.063869596 0.037767809 -0.0096887806 -0.62485504 -0.34013209 -0.70275617 0.002857297
-0.06176452 0.037296049 -0.01110576 -0.53917748 -0.27768251 -0.79509753 0.0011130635
-0.032793276 0.037628636 -0.011864799 0.26163822 0.58103961 -0.77067399 0.00045781003
0.035081729 0.036533438 -0.0099730138 -0.33172214 0.7369172 -0.58899361 0.001311929
0.037794534 0.037312292 -0.010571149 -0.33902746 0.70977592 -0.61747754 0.0026641209
0.040419225 0.038224213 -0.011122116 -0.36583391 0.70474511 -0.6078651 0.0020339219
0.042002454 0.038381808 -0.011951704 -0.32387534 0.62525916 -0.71003932 0.0020546063
0.064526632 0.036909685 -0.011652876 0.479348 -0.061246306 -0.87548524 0.0028681438
0.066751137 0.037331153 -0.0099632479 0.64956385 -0.14927761 -0.74550855 0.0017605161
-0.066207916 0.041362759 -0.0091226837 -0.65280229 -0.25972855 -0.71161103 0.0028270313
-0.064443789 0.040499255 -0.010201918 -0.57622218 -0.22425649 -0.78592426 0.00437993
-0.062310904 0.040369265 -0.011627194 -0.49495518 -0.14569868 -0.85661614 0.0028407918
-0.038236678 0.040489994 -0.011611349 0.24682128 0.56086481 -0.79025942 0.00063624518
0.040351886 0.039499015 -0.0096301669 -0.39054003 0.71280164 -0.58257383 0.00103792
0.043453045 0.040351786 -0.010616554 -0.36744776 0.6742835 -0.64056534 0.0015426406
0.046324402 0.04121583 -0.011369876 -0.32913101 0.63464439 -0.69921333 0.0023949514
0.04874507 0.041876432 -0.011799152 -0.26899916 0.59941018 -0.75388783 0.0022081162
0.065145954 0.04112377 -0.011438357 0.41508493 0.086017452 -0.90570718 0.0053495062
0.06682875 0.040411115 -0.010295352 0.6277445 -0.055592254 -0.7764318 0.0019104806
-0.0665209 0.043555275 -0.0093815243 -0.59680146 -0.13065462 -0.7916801 0.0039632865
-0.06456954 0.043435264 -0.010655602 -0.49531928 -0.058244802 -0.86675626 0.0029491691
-0.062486049 0.043537125 -0.011744939 -0.41243792 0.017470865 -0.91081816 0.0044968356
-0.04629245 0.044096034 -0.01178738 0.18452147 0.52992499 -0.82772666 0.00094326591
-0.043814566 0.042929661 -0.011870123 0.21550022 0.54636544 -0.80934817 0.00020902384
0.044328529 0.042136356 -0.0092691211 -0.41859692 0.70840573 -0.56827629 0.0020989655
0.046695538 0.042925872 -0.0098138135 -0.3979407 0.68011028 -0.61570543 0.0015293739
0.049500972 0.043569691 -0.010686701 -0.32930002 0.64861399 -0.68619341 0.0020676251
0.052123487 0.044184331 -0.011257172 -0.26500157 0.61659002 -0.74134398 0.0020245926
0.054578304 0.044787839 -0.011590251 -0.19305997 0.53521657 -0.82235706 0.0032177151
0.062877499 0.044985343 -0.011689867 0.26551208 0.25030127 -0.93104917 0.0062279152
0.064116284 0.04373277 -0.011599299 0.32858184 0.21807814 -0.91895372 0.0039235512
0.067129761 0.043823648 -0.0099615138 0.55685782 0.089525335 -0.82576907 0.0035842464
-0.066682212 0.046526909 -0.0094419736 -0.54293549 0.010030995 -0.83971447 0.0040861196
-0.064592786 0.046459813 -0.010545922 -0.41346863 0.10798414 -0.90409237 0.0052873767
-0.061745886 0.046584576 -0.011561868 -0.28578004 0.2304776 -0.93016654 0.0050941738
-0.058696736 0.04735297 -0.011731278 -0.036272302 0.42376769 -0.90504438 0.0037971744
-0.055504747 0.047394283 -0.011588775 0.085114747 0.5328576 -0.84191346 0.0022492236
-0.052581258 0.046975479 -0.0113592 0.11428583 0.51982206 -0.84659535 0.00227595
-0.049870349 0.046350367 -0.011102849 0.16680887 0.55446362 -0.81531888 0.00058679871
-0.047667965 0.045335103 -0.011235242 0.19061778 0.53694028 -0.82180297 0.00056405429
0.049999081 0.045136981 -0.0093853474 -0.37946284 0.6834324 -0.62364101 0.0013525134
0.052768368 0.046117961 -0.0098578483 -0.32778993 0.64039254 -0.69458705 0.0015410114
0.055562615 0.046552457 -0.01054501 -0.26055095 0.60341656 -0.75365883 0.0025661124
0.058262601 0.046691179 -0.011098593 -0.099075928 0.50151747 -0.85945576 0.0020367121
0.061399102 0.046489816 -0.011303408 0.077136457 0.42432907 -0.90221661 0.0053086556
0.064439274 0.046705633 -0.010664339 0.23987162 0.315514 -0.91810268 0.0076595983
0.066861309 0.046780434 -0.0096643772 0.474592 0.18059391 -0.8614803 0.005367165
-0.066656411 0.049027696 -0.00923994 -0.44713682 0.16340785 -0.87941259 0.0067104008
-0.064753897 0.049093325 -0.0099210888 -0.31906453 0.23366295 -0.9184767 0.0054783397
-0.061563142 0.049410552 -0.010431027 -0.13448092 0.42421284 -0.89552128 0.0064121727
-0.058679171 0.049321949 -0.010608243 0.023156995 0.53022176 -0.8475427 0.0024464647
-0.055646189 0.049172651 -0.010332709 0.098526113 0.56945461 -0.81609684 0.0015480759
-0.052707091 0.048546299 -0.010116857 0.15606655 0.57461607 -0.80340505 0.00072841166
0.055867832 0.048275653 -0.0093492614 -0.30010548 0.63994706 -0.70739269 0.0020211516
0.058655284 0.048952587 -0.0096342824 -0.18399373 0.57487553 -0.79728568 0.0040806476
0.06166929 0.049270429 -0.0098943682 -0.045964893 0.48924816 -0.87093252 0.0051095281
0.064498141 0.049600117 -0.0096065421 0.030558364 0.43475536 -0.90003002 0.0067059062
0.066428691 0.049165569 -0.0092477519 0.38165069 0.29823357 -0.87487119 0.0078352122
-0.064175874 0.051327113 -0.0091592334 -0.18363829 0.39809445 -0.8987757 0.0073219957
-0.061581615 0.051399559 -0.0092613222 -0.022848403 0.54569137 -0.83767468 0.0040368671
-0.059041355 0.051203862 -0.0092625096 0.061561625 0.58673632 -0.80743468 0.0014248979
0.064304769 0.051013488 -0.0090673994 -0.04404876 0.47275358 -0.8800931 0.0050538145
-0.010046533 0.002846604 -0.0063485564 -0.16215353 -0.87523484 -0.45570853 0.0012328455
-0.0073592714 0.0026486386 -0.0067261159 -0.12270705 -0.87423056 -0.46974885 0.00179518
-0.0044666789 0.0024210485 -0.0070712441 -0.091239989 -0.8773855 -0.4710308 0.0019363639
-0.0014478684 0.0022919411 -0.0072277081 -0.051285893 -0.8785634 -0.47486427 0.0020539034
0.001539264 0.0022510786 -0.0073995958 -0.031225612 -0.881181 -0.47174686 0.0019646157
0.0044562914 0.002190571 -0.0074314754 0.002556545 -0.8855561 -0.46452543 0.0017550271
0.0074683954 0.0022492218 -0.0073650144 0.031490982 -0.88718665 -0.46033481 0.0018348243
0.010459664 0.0023439813 -0.0073215454 0.058256127 -0.89103895 -0.45017308 0.0017646793
0.013398376 0.002488429 -0.0070616729 0.094591416 -0.88991094 -0.44621849 0.0020122586
0.016333712 0.0026503038 -0.0066622975 0.11960918 -0.8924942 -0.43491113 0.0018002206
0.019063696 0.0028582318 -0.0063288813 0.16809256 -0.8943727 -0.41453871 0.001589598
-0.021370679 0.0057809949 -0.0062414464 -0.32369736 -0.83891976 -0.4375312 0.001576475
-0.019258516 0.0054541528 -0.0070081092 -0.26370233 -0.84765327 -0.46037498 0.0018148203
-0.016456628 0.0049897735 -0.0075176037 -0.22276305 -0.83961141 -0.49540824 0.0016224552
-0.013475525 0.0042058169 -0.0075380653 -0.20776349 -0.85495323 -0.47527814 0.0011257754
-0.010567057 0.0037061272 -0.0077886372 -0.15855208 -0.84921324 -0.50368452 0.001274255
-0.0075603896 0.0035182803 -0.0082080485 -0.11784355 -0.84802783 -0.51668334 0.0018371702
-0.0046450174 0.0033351884 -0.0085501522 -0.091212675 -0.80317146 -0.58872396 0.00090768276
-0.0016811588 0.0031990388 -0.0087060984 -0.051756412 -0.83185244 -0.55257839 0.0017539965
0.0010756402 0.0031258883 -0.0088005075 -0.034482028 -0.7997278 -0.59937173 0.0007823084
0.004225472 0.0030677489 -0.0088877352 -0.0022980468 -0.80370891 -0.59501821 0.00080371113
0.007512087 0.0030978611 -0.008815527 0.024489831 -0.80606061 -0.59132606 0.00085724023
0.010618657 0.0031688064 -0.0087656742 0.052209903 -0.8150602 -0.5770191 0.00092600891
0.013683987 0.0033277448 -0.0085821217 0.087519228 -0.86326677 -0.4971025 0.0019689433
0.016655499 0.0034387049 -0.008161881 0.10967918 -0.86669451 -0.48663241 0.0018325681
0.019586476 0.0036641841 -0.0077289944 0.16021439 -0.87205273 -0.46244496 0.0015562387
0.022479365 0.0041032191 -0.0074391104 0.18554266 -0.8850292 -0.42696282 0.0014543454
0.02540127 0.0047168666 -0.0074138786 0.21490319 -0.87504923 -0.43371114 0.0015734773
0.028293811 0.0054017194 -0.0071828463 0.24524613 -0.87590176 -0.41551208 0.0016161265
0.030745277 0.0058255061 -0.0066122245 0.28377667 -0.87621421 -0.38951179 0.0012921666
-0.027992265 0.0085881548 -0.0068411357 -0.33448717 -0.83163226 -0.44329 0.0014548558
-0.025493277 0.0079643419 -0.0074247406 -0.30642703 -0.82097077 -0.4817774 0.0015727753
-0.022591466 0.0070148092 -0.0076492163 -0.30191728 -0.82633179 -0.47541749 0.0013544988
-0.019876795 0.0064444486 -0.0083366781 -0.2510646 -0.81267101 -0.52586359 0.0013493508
-0.017553538 0.0061604688 -0.0088318931 -0.22645037 -0.77793276 -0.5861237 0.0010503852
0.029005816 0.0063145384 -0.0085785976 0.23990247 -0.84809583 -0.47241959 0.0013277233
0.031605404 0.006630484 -0.0076960716 0.27890646 -0.85423964 -0.43873209 0.0015818906
0.034548465 0.0076375213 -0.0076128091 0.31264195 -0.84646028 -0.43099889 0.0014727326
0.037222672 0.0084285783 -0.0072031915 0.33348167 -0.84702307 -0.41393459 0.0013447668
0.039454915 0.008846594 -0.0062510427 0.38283443 -0.84044403 -0.38352537 0.0011442306
-0.036202773 0.011814638 -0.0062343911 -0.40846595 -0.81655699 -0.4079096 0.0019761224
-0.034236986 0.011368237 -0.0071643959 -0.3628976 -0.81281823 -0.45566633 0.0015271002
-0.031487156 0.010434359 -0.0075311637 -0.33746633 -0.81808299 -0.46567878 0.0018930538
-0.028839836 0.0095852092 -0.007968084 -0.32576963 -0.80924922 -0.48886588 0.0021942565
-0.02658611 0.0092286542 -0.0088143153 -0.29660976 -0.75428343 -0.5857296 0.0011286834
0.038084082 0.0093599865 -0.0083548566 0.33826479 -0.82364714 -0.45517293 0.0016474505
0.040471043 0.0100366 -0.0076014004 0.36767653 -0.81964844 -0.43930674 0.0016964414
0.043126877 0.011228611 -0.0074921376 0.39603412 -0.80537707 -0.44104958 0.0011296686
0.045389634 0.011861496 -0.0065991133 0.43133557 -0.79609424 -0.42448044 0.0012173193
-0.04221357 0.014922877 -0.0061285682 -0.47343332 -0.77437592 -0.41976508 0.0012270404
-0.040105775 0.014333324 -0.0071343766 -0.42853621 -0.78378707 -0.44948259 0.0015397515
-0.037554178 0.013269697 -0.0075847018 -0.40821898 -0.79629147 -0.44640473 0.0013385752
-0.035047282 0.012431185 -0.008335107 -0.35410228 -0.78112853 -0.51424682 0.0014723334
0.04428919 0.012304452 -0.0084570684 0.3931787 -0.77600992 -0.49317238 0.0010552317
0.046773698 0.013343181 -0.0078017279 0.43230656 -0.77468348 -0.46149394 0.0013723163
0.049038276 0.014363757 -0.0073075825 0.46861765 -0.77668172 -0.42090735 0.001490737
-0.045555666 0.017550932 -0.0067181378 -0.51507735 -0.73712355 -0.43742913 0.001222424
-0.043456778 0.016576827 -0.0074933511 -0.49421814 -0.75363064 -0.43334669 0.00073267968
-0.041080657 0.0154909 -0.0082217595 -0.42618135 -0.76898009 -0.47648615 0.0018705629
0.050329316 0.01563918 -0.0081628291 0.47699443 -0.73253477 -0.48566362 0.001533901
0.052325994 0.016583849 -0.0074558416 0.51731515 -0.75621319 -0.40065777 0.0009330039
0.054376505 0.017636579 -0.0067800405 0.53646696 -0.73347414 -0.41739532 0.0010973249
-0.048995808 0.020249313 -0.0071594305 -0.53894711 -0.71623218 -0.44333664 0.0014253872
-0.046719473 0.018980114 -0.0077383299 -0.50790733 -0.72553569 -0.46435779 0.0019590536
-0.04469274 0.018242454 -0.0086936178 -0.49062562 -0.69119632 -0.53059793 0.0018221424
0.053788669 0.01831981 -0.0085367411 0.53512132 -0.6954422 -0.47958869 0.0017380491
0.055605076 0.019084545 -0.0076685343 0.54628032 -0.70914906 -0.44574144 0.0018253109
0.057644531 0.020389136 -0.0070692832 0.58504301 -0.67245114 -0.4533588 0.0010561005
-0.054295208 0.023878157 -0.0064766179 -0.56244338 -0.70356524 -0.43434244 0.0010228881
-0.052317053 0.022862801 -0.0073367483 -0.55053473 -0.70441657 -0.44800532 0.0020763904
-0.050117973 0.021665916 -0.0080280537 -0.53856391 -0.71137595 -0.45154521 0.0016448069
0.058742262 0.021994308 -0.0078695752 0.58669424 -0.654652 -0.47667673 0.001628093
0.06079229 0.023237512 -0.006976055 0.62790042 -0.61989468 -0.47060779 0.0011841721
-0.057468086 0.026642954 -0.0066467798 -0.59499162 -0.66261792 -0.45488718 0.0011431887
-0.055472206 0.025533063 -0.0074882396 -0.5841381 -0.68933797 -0.42848083 0.00094305625
-0.053417429 0.024469532 -0.0084189745 -0.5363096 -0.66188163 -0.52372199 0.0011196054
0.061279576 0.024672806 -0.008157555 0.6251111 -0.58718795 -0.51424354 0.0018534936
0.063468888 0.026085053 -0.0068541295 0.65641326 -0.56789786 -0.49660215 0.0018950708
-0.060415979 0.029558683 -0.0066297934 -0.6474508 -0.59725827 -0.47338146 0.0011252108
-0.058597457 0.028405568 -0.0076016043 -0.62864655 -0.63451892 -0.44965452 0.001134128
-0.056554526 0.0273109 -0.0086206449 -0.56702846 -0.61770266 -0.54490566 0.0010217795
0.062743783 0.027168576 -0.0089848218 0.63311905 -0.44973293 -0.63000047 0.0018395095
0.064589038 0.028322587 -0.0076978244 0.71594989 -0.48485053 -0.5023303 0.0031249672
0.066347569 0.029824611 -0.0066606565 0.72528642 -0.4610377 -0.51127672 0.0023792675
-0.063208438 0.032519843 -0.006378904 -0.68614691 -0.55122447 -0.47471464 0.0018570069
-0.061501432 0.031517919 -0.0075186021 -0.67076856 -0.55390507 -0.49321276 0.0022595108
-0.059643466 0.030409062 -0.008560691 -0.60578513 -0.55289584 -0.57212806 0.00099833834
0.0054626912 0.030507993 -0.0082202321 -0.011693354 0.7673291 -0.6411469 0.00056247303
0.0081197377 0.03067063 -0.0080737062 -0.061088346 0.78726459 -0.61358196 0.00065527356
0.010838751 0.030895894 -0.0081014941 -0.059975624 0.85131121 -0.52122188 0.0023847853
0.013852721 0.031585746 -0.007537351 -0.1303708 0.87434059 -0.46747401 0.0025780203
0.016614335 0.031894919 -0.0078751398 -0.17266119 0.84211969 -0.5109036 0.001482165
0.019324059 0.032330051 -0.0083017647 -0.22651444 0.82847857 -0.51216644 0.0018862666
0.065617226 0.030461181 -0.008217942 0.73134571 -0.42268884 -0.53522664 0.0019120802
0.066921212 0.031985577 -0.0074996827 0.74632031 -0.38702622 -0.54149485 0.0023973044
-0.066036776 0.035811279 -0.0060697733 -0.71523732 -0.46477607 -0.52193767 0.0018835383
-0.064137399 0.034673173 -0.0072680567 -0.70071477 -0.48578486 -0.52250552 0.0026873213
-0.062474936 0.033704232 -0.0084700473 -0.63625997 -0.4675746 -0.61363453 0.0011550685
0.020409819 0.033711284 -0.0062039588 -0.23765625 0.84996122 -0.47019732 0.0019146226
0.022939358 0.033406399 -0.0081920633 -0.22987057 0.78952098 -0.56904852 0.0013350863
0.025666341 0.034385577 -0.0079942672 -0.2480467 0.83790416 -0.48619908 0.0024759073
0.028298156 0.035064816 -0.0082089351 -0.27971008 0.82518679 -0.49074334 0.0023881074
0.030734075 0.035775747 -0.0084754145 -0.33164611 0.82878143 -0.45070201 0.0015944282
0.067726895 0.034502838 -0.0079383813 0.73855662 -0.31774709 -0.59461826 0.002599322
0.069186673 0.035522934 -0.0064555462 0.79933935 -0.31919879 -0.50908631 0.0026469496
-0.066626519 0.037931796 -0.0068512657 -0.71319586 -0.42888498 -0.55444509 0.0024562022
-0.065170251 0.037145201 -0.008054764 -0.69320315 -0.3881759 -0.6072799 0.0027235728
0.029273042 0.036325812 -0.0064308285 -0.28370664 0.84855688 -0.44661158 0.0016189797
0.031716954 0.03651052 -0.0078127356 -0.31851223 0.82537758 -0.46615648 0.0021755139
0.034480792 0.037891757 -0.007434417 -0.35916328 0.84055984 -0.40553799 0.0021278565
0.036714226 0.038447946 -0.0082763648 -0.40823051 0.78832531 -0.46031636 0.0022746879
0.068413116 0.037490178 -0.008321465 0.74700451 -0.17612958 -0.64106369 0.0017467255
0.06991718 0.038364723 -0.0066262302 0.77470207 -0.2297903 -0.58909523 0.0019369281
-0.069204234 0.041851878 -0.0061153076 -0.73354089 -0.34194201 -0.58736145 0.0052563944
-0.067490183 0.040535092 -0.0074529792 -0.72123808 -0.30243766 -0.62317514 0.0022031555
-0.065790892 0.039645657 -0.0087887319 -0.66947597 -0.27943519 -0.68827164 0.002665634
0.038142845 0.039635941 -0.0074847061 -0.39699599 0.75338709 -0.52421576 0.0014921839
0.040709771 0.040872805 -0.0078949537 -0.42913359 0.73581064 -0.52385789 0.0017189609
0.042400479 0.041723747 -0.0082210768 -0.46128047 0.76077831 -0.45654875 0.0023640399
0.068356797 0.040456917 -0.0089525348 0.68602234 -0.07402122 -0.72380537 0.0020743925
0.06963747 0.040475097 -0.0075473874 0.74076015 -0.093797192 -0.66518909 0.0036145577
-0.069486 0.043830965 -0.006592866 -0.73463082 -0.24247593 -0.63365835 0.0028764615
-0.068030253 0.043413412 -0.0080217374 -0.66952127 -0.17420708 -0.7220757 0.0026572375
0.041776691 0.042658363 -0.0060196756 -0.48749933 0.7788043 -0.39472556 0.0015342578
0.043515529 0.042866893 -0.0074142972 -0.42414302 0.74537128 -0.51431942 0.001049618
0.046356201 0.04416915 -0.0080524795 -0.40652353 0.71763259 -0.5654574 0.0016741734
0.048441436 0.04487456 -0.0087900683 -0.3670032 0.72123092 -0.58748156 0.0019325247
0.06868957 0.043153469 -0.0087712789 0.61517525 0.035764478 -0.78757882 0.0024595752
0.070000894 0.043774281 -0.0074165449 0.68231851 0.047773037 -0.72949243 0.0019217755
-0.069944479 0.046601925 -0.0068880511 -0.70939946 -0.13623931 -0.69151384 0.0052232421
-0.068172321 0.046398908 -0.0084151067 -0.58767229 -0.054075703 -0.80729002 0.0035169756
0.047402382 0.04570315 -0.0066836495 -0.43317887 0.73231518 -0.52542418 0.0013441455
0.049565986 0.046237323 -0.0077664275 -0.40155861 0.70721102 -0.58189619 0.0015858861
0.052103356 0.047355853 -0.0081944698 -0.37049797 0.67783195 -0.63503945 0.0016759021
0.068391412 0.046940826 -0.0086272499 0.63675076 0.13544326 -0.75908077 0.0026664149
0.069694817 0.046090983 -0.0075900974 0.65456778 0.10957007 -0.74802107 0.0014143368
-0.070175909 0.049505722 -0.006977459 -0.63337266 -0.025945818 -0.77341181 0.0072947163
-0.06804847 0.049551338 -0.0084315771 -0.47757515 0.085389733 -0.87443149 0.0066344575
-0.065865964 0.050908934 -0.0089941872 -0.15953775 0.27406469 -0.94838619 0.0097839879
-0.055171043 0.050767861 -0.0088993972 0.11428796 0.58270586 -0.80460685 0.00084484648
0.050893988 0.0481578 -0.0063133384 -0.42128596 0.72735143 -0.54173613 0.0018478096
0.052989505 0.048660837 -0.0072520813 -0.39350602 0.70493591 -0.59010029 0.0018981413
0.055525258 0.049635276 -0.0077498434 -0.36019194 0.68931454 -0.6285755 0.0023720765
0.058494821 0.050633073 -0.0082081221 -0.28044403 0.62652934 -0.72719467 0.0040233629
0.060727924 0.050849289 -0.0087456442 -0.17157479 0.59935099 -0.7818827 0.0062836818
0.065950178 0.050934069 -0.0088070948 0.37160069 0.29100651 -0.88160545 0.0079979515
0.067713909 0.049915876 -0.0083926003 0.47018492 0.23209502 -0.85150337 0.0047942712
0.069756329 0.049303733 -0.0070791706 0.60388482 0.14827561 -0.78315872 0.003989642
-0.070402227 0.052555501 -0.0067632012 -0.51562262 0.065158173 -0.85433471 0.0078158937
-0.067755729 0.052238699 -0.0080297953 -0.3566066 0.23600967 -0.90395308 0.0095005929
-0.065141313 0.052426424 -0.0084664347 -0.24402596 0.30946028 -0.9190678 0.0048939981
-0.061784901 0.052652039 -0.0083315019 -0.0057476861 0.51844895 -0.85508931 0.0038121389
-0.058473371 0.051954553 -0.008457222 0.061602026 0.58671963 -0.80744368 0.001434855
-0.055801984 0.051066272 -0.0087866215 0.10105514 0.58234107 -0.80663919 0.00079742866
0.056649722 0.051328339 -0.0065226685 -0.34769392 0.69119215 -0.63353163 0.0024017128
0.058705192 0.052096613 -0.0068762968 -0.34577867 0.67937142 -0.64721835 0.0033112322
0.061512455 0.05247885 -0.0077232737 -0.21458466 0.57251275 -0.79131699 0.0048735398
0.064375609 0.052701026 -0.008105725 -0.033945695 0.44802582 -0.89337593 0.0042448542
0.067116857 0.052659888 -0.0078114411 0.085123971 0.40715036 -0.9093858 0.0078985775
0.06971731 0.052446891 -0.0065765805 0.501831 0.18469925 -0.84501594 0.0041045141
-0.070366643 0.055126116 -0.0064032543 -0.35646561 0.18105032 -0.91659856 0.0090012411
-0.067604139 0.055336878 -0.0068243956 -0.13379389 0.39230162 -0.91005415 0.0065578399
-0.064847246 0.054986097 -0.0069303261 0.0072921519 0.50945872 -0.86046422 0.0043206089
-0.06090058 0.054135974 -0.0068060393 0.060237158 0.58245724 -0.81062633 0.0014292335
0.061979912 0.054466963 -0.0063688746 -0.33946222 0.62770075 -0.7005406 0.0067372727
0.064748079 0.055234943 -0.0067133 -0.23082949 0.51773709 -0.82381195 0.012411729
0.067428961 0.05565533 -0.0066682198 -0.05690372 0.40924492 -0.91064841 0.014484377
0.06947834 0.054913249 -0.0062657339 0.30530417 0.21388417 -0.92792404 0.015216327
0.067518808 0.05718546 -0.0061441911 -0.08922866 0.40660551 -0.90923607 0.012487116
-0.015342713 0.0028531798 -0.0031724842 -0.26029244 -0.93799871 -0.22892399 0.0017473311
-0.013168383 0.0026055865 -0.0042109489 -0.2097411 -0.93258321 -0.29376382 0.0023773641
-0.010500415 0.0021860921 -0.0045590042 -0.15625121 -0.94201297 -0.29698002 0.0017720181
-0.0075475895 0.0017558309 -0.0045271455 -0.12741932 -0.94093591 -0.31369382 0.0022743663
-0.0045531471 0.0013259975 -0.0044994052 -0.094162762 -0.94181383 -0.32267627 0.0024283503
-0.0015352598 0.0011292585 -0.0045328243 -0.04888403 -0.94305271 -0.32903171 0.0025395358
0.0014838289 0.0010124282 -0.0045593437 -0.031978693 -0.9430207 -0.33119366 0.0026152553
0.0044805612 0.00094482274 -0.0045644231 0.0044904952 -0.94500214 -0.32703343 0.0025654801
0.0075210822 0.0010520999 -0.0045218831 0.039529908 -0.94557565 -0.32299253 0.0024837058
0.010514223 0.0012000814 -0.0045387205 0.065149121 -0.94782621 -0.31205928 0.0022109002
0.013527311 0.0015112547 -0.0045734984 0.10296318 -0.94866657 -0.29904923 0.0021621101
0.016446477 0.0018723094 -0.0045190346 0.1251968 -0.95152253 -0.28094596 0.001802337
0.019458456 0.0023271732 -0.0045199911 0.1689332 -0.94825923 -0.26882359 0.001566959
0.022088274 0.0027380518 -0.0040639937 0.19801901 -0.94703788 -0.25279987 0.0018773923
0.024059996 0.0028911538 -0.0032719602 0.24059628 -0.94556814 -0.21912187 0.0061184084
-0.024357254 0.0059011108 -0.003546282 -0.36270481 -0.88780761 -0.28327161 0.0026603329
-0.022354579 0.0053972476 -0.0043645869 -0.32484636 -0.89729244 -0.29889992 0.0024014523
-0.019535391 0.0044582509 -0.0045363065 -0.28100568 -0.90555602 -0.31781158 0.0023562314
-0.016524464 0.0036471244 -0.0045913882 -0.25402513 -0.91324484 -0.31852016 0.0022732953
-0.014112874 0.0032513663 -0.0053486465 -0.22219823 -0.91099751 -0.34743541 0.0020994968
0.022928983 0.0032070037 -0.0050347317 0.21600309 -0.93515688 -0.28075659 0.0015150175
0.02553767 0.0036485863 -0.0045815073 0.22893 -0.93400151 -0.2742849 0.0016633369
0.028530279 0.0044679786 -0.0045223865 0.26204836 -0.92640734 -0.27037045 0.0016857241
0.031465109 0.0053326157 -0.0045071268 0.2807039 -0.92248857 -0.2649909 0.0019475814
0.033613779 0.0058258576 -0.0038274443 0.31992126 -0.91388291 -0.24993692 0.0017542141
-0.030865937 0.0086593917 -0.0040984447 -0.35281825 -0.88567835 -0.30181625 0.0021567398
-0.028495742 0.0078196935 -0.0045600324 -0.3480944 -0.88826752 -0.29968521 0.00200902
-0.025603339 0.0067119286 -0.0046097054 -0.36429107 -0.8878051 -0.28123677 0.0016614754
-0.023532167 0.0062585077 -0.0055325725 -0.3477909 -0.8788631 -0.32655954 0.0028604297
0.032443386 0.0060133934 -0.0058005955 0.28640762 -0.89120758 -0.35173824 0.00080610847
0.034685429 0.0065322928 -0.0047382512 0.32659352 -0.89740378 -0.29665321 0.001564171
0.037450004 0.0075361482 -0.0045929183 0.34592286 -0.88495719 -0.31175017 0.0013865441
0.040090837 0.0085164253 -0.0042539975 0.38823259 -0.89072418 -0.23640215 0.001865746
-0.036985453 0.011446044 -0.0042934674 -0.42423868 -0.86253285 -0.27578741 0.0019864629
-0.034517508 0.010342284 -0.0045350124 -0.39409941 -0.87311101 -0.28698912 0.0015140738
-0.032076176 0.0094402386 -0.0049191634 -0.37659332 -0.87659192 -0.29960641 0.0020675831
0.041269034 0.0093133766 -0.0050193854 0.42381835 -0.87302637 -0.24125308 0.0017161376
0.043554902 0.010257494 -0.0046000471 0.41875872 -0.87202078 -0.25341851 0.0014759479
0.046074659 0.01145253 -0.0043538506 0.45015645 -0.85742909 -0.24934821 0.0015241319
-0.042743921 0.014504843 -0.0042406316 -0.49898455 -0.82104689 -0.27730218 0.0021537321
-0.040510636 0.013382319 -0.0045307353 -0.45716071 -0.84801 -0.26811042 0.0016388748
-0.03831578 0.012364832 -0.0049448032 -0.4596436 -0.84341139 -0.27818164 0.0017197714
0.047415964 0.012426786 -0.0049696974 0.48345339 -0.83841813 -0.2516503 0.0018790142
0.049563855 0.013543587 -0.0045873132 0.50320762 -0.81879681 -0.27632216 0.0015041769
0.051603138 0.014609 -0.0041968571 0.51112533 -0.81542981 -0.27170789 0.0017480224
-0.0481392 0.017888607 -0.0035935948 -0.55496788 -0.78884518 -0.26407206 0.0016969774
-0.046292935 0.017021598 -0.004418924 -0.54204482 -0.79169816 -0.28178239 0.0020956579
-0.044083912 0.01560793 -0.0047549228 -0.54231077 -0.79466486 -0.27277607 0.0016314901
0.053022612 0.015810303 -0.0047323834 0.54071963 -0.79595518 -0.27217209 0.0017680784
0.055041946 0.017083503 -0.004366755 0.5593124 -0.78051925 -0.27921206 0.0021209633
-0.051548149 0.020661185 -0.0039585866 -0.56248212 -0.77249914 -0.29471833 0.0020192729
-0.049531072 0.019370286 -0.0045548459 -0.57379508 -0.76835799 -0.2835227 0.0022653907
-0.0476317 0.01826694 -0.0053048297 -0.55661148 -0.77731955 -0.2931858 0.0023841816
0.056503057 0.018379807 -0.0050525693 0.58687055 -0.75880313 -0.28249028 0.001946327
0.058371093 0.019606259 -0.0043179095 0.60911924 -0.74462318 -0.27296525 0.0021873428
0.060019162 0.020494793 -0.0034311775 0.64119375 -0.72987694 -0.23696069 0.0028814587
-0.054835659 0.023311237 -0.0043295771 -0.600797 -0.74612576 -0.28694826 0.0017998774
-0.052830666 0.021914236 -0.0047396561 -0.58062327 -0.76064134 -0.29034716 0.0022562745
0.059727482 0.021400105 -0.0055233701 0.6550625 -0.68463218 -0.31964326 0.0019792363
0.061518036 0.022525515 -0.0044175163 0.66896325 -0.67123681 -0.31926382 0.0020429292
-0.058127537 0.026074871 -0.0043996903 -0.62278146 -0.71829581 -0.31015229 0.0020149963
-0.056212962 0.0246427 -0.0048056724 -0.61913264 -0.73337913 -0.2807664 0.0015634549
0.063746989 0.025337178 -0.0053182086 0.69969869 -0.60863847 -0.37414035 0.004616647
-0.06106459 0.02891238 -0.0043444168 -0.69183284 -0.6449638 -0.32463652 0.0022229457
-0.05953579 0.027595794 -0.004998771 -0.66470218 -0.68524271 -0.29768014 0.0021316831
0.065820679 0.027427424 -0.0045385347 0.77299988 -0.5362134 -0.33903745 0.0030253797
0.066839337 0.028905578 -0.0045462782 0.78075105 -0.50420153 -0.36906463 0.0030036287
-0.063855432 0.032003675 -0.0043568779 -0.72761083 -0.60028881 -0.33201799 0.0024258716
-0.062434342 0.030643379 -0.0048759002 -0.71272945 -0.63239878 -0.30346081 0.0021929254
0.01307167 0.032777447 -0.0044793696 -0.14333592 0.89580697 -0.42069554 0.0012188646
0.068068244 0.031326756 -0.0050578266 0.79886985 -0.40836966 -0.44163468 0.0012358713
0.069486313 0.032537404 -0.0031296655 0.82076526 -0.44838724 -0.35396802 0.0037468253
-0.066528119 0.035300806 -0.004101017 -0.76650876 -0.54053146 -0.34682849 0.0019988758
-0.065220125 0.034024272 -0.0047940002 -0.7513321 -0.57848054 -0.31758517 0.0018273247
0.014614964 0.033243459 -0.0039678975 -0.18774444 0.8914305 -0.41243631 0.001036988
0.017318299 0.033066984 -0.0056665866 -0.22338937 0.86628872 -0.44681212 0.001012228
0.018748717 0.033374757 -0.0058623794 -0.20950212 0.86677933 -0.45255107 0.0017008983
0.022533622 0.035129037 -0.0040976624 -0.2446807 0.87493384 -0.41787809 0.00033720513
0.025534481 0.035734452 -0.004741448 -0.26733288 0.86833632 -0.41776207 0.00062771398
0.068826415 0.033473782 -0.0057016816 0.82011652 -0.36776793 -0.43835559 0.0014614431
0.069699086 0.034693632 -0.0049338029 0.82509571 -0.33193606 -0.4572041 0.002631326
-0.069137968 0.038795624 -0.0033095472 -0.82307744 -0.46960819 -0.31939244 0.0038057205
-0.067720369 0.037476357 -0.0046220343 -0.78490323 -0.48922724 -0.38024139 0.0044764322
0.02832309 0.036474101 -0.0050967536 -0.28172454 0.88570058 -0.36900651 0.0041384101
0.031486966 0.037668712 -0.0049140179 -0.35542196 0.88331622 -0.30565953 0.0025368654
0.034038093 0.038857091 -0.0047114505 -0.40922281 0.85946256 -0.30636725 0.0017891596
0.070510477 0.037796419 -0.0053620003 0.82065356 -0.25261918 -0.51255375 0.0052009979
-0.069710284 0.040661592 -0.0043439209 -0.82500887 -0.4016124 -0.39757732 0.0041340119
-0.068628065 0.039668966 -0.0053986944 -0.80437416 -0.4146615 -0.42548558 0.004851751
0.034913596 0.039670676 -0.003395864 -0.43937799 0.87336218 -0.2102036 0.0040473025
0.037510078 0.040602598 -0.0046805432 -0.4657594 0.82519382 -0.31956744 0.0030108292
0.039688915 0.041808538 -0.0049262685 -0.48929542 0.81028652 -0.32253021 0.0026464097
-0.07212092 0.044883247 -0.0032692885 -0.86637974 -0.3369019 -0.36862361 0.015110052
-0.070751242 0.043510288 -0.004554301 -0.84055978 -0.29866618 -0.45194891 0.0043962277
0.041065749 0.042887997 -0.004276535 -0.48469588 0.82738745 -0.28372496 0.0019525333
0.04318615 0.044105995 -0.0046420838 -0.52346313 0.81253207 -0.25647238 0.0019015825
-0.072401628 0.04689442 -0.0036781563 -0.84554553 -0.27934989 -0.45499048 0.0036608849
-0.071360566 0.046292838 -0.0050894506 -0.82837135 -0.22516444 -0.51293463 0.0069317059
0.044733465 0.045450311 -0.0037655383 -0.52034533 0.80762696 -0.27745166 0.0017752054
0.046486098 0.046299376 -0.0044888449 -0.51256603 0.78963172 -0.33728018 0.0033259008
0.04840916 0.0471518 -0.0054224855 -0.49994287 0.78435528 -0.36721113 0.0041635898
0.071366861 0.047673997 -0.0054248073 0.66913223 0.10237812 -0.73605764 0.001025642
-0.072839819 0.04967976 -0.0041681328 -0.79394346 -0.2157457 -0.56842548 0.0065528974
-0.07163012 0.049194712 -0.0056046951 -0.71145332 -0.12886271 -0.69081742 0.0055208751
0.049861223 0.048479006 -0.0044845766 -0.48994234 0.79520822 -0.35721207 0.0021606104
0.052362107 0.049872085 -0.0048684981 -0.44520462 0.75510108 -0.48126417 0.0016903616
0.054589741 0.050911628 -0.0055243014 -0.45885134 0.77727818 -0.43045801 0.0029932794
0.070742413 0.050306078 -0.0059897811 0.62304407 0.13694267 -0.77010578 0.0034479429
-0.075039193 0.053445231 -0.0033041334 -0.81584299 -0.29910102 -0.49491301 0.014571328
