# .PCD v0.7 - Point Cloud Data file format
VERSION 0.7
FIELDS x y z normal_x normal_y normal_z curvature
SIZE 4 4 4 4 4 4 4
TYPE F F F F F F F
COUNT 1 1 1 1 1 1 1
WIDTH 570
HEIGHT 1
VIEWPOINT 0 0 0 1 0 0 0
POINTS 570
DATA ascii
-0.060046248 0.026971973 0.006503161 -0.68669462 -0.6111322 0.39365974 0.0073299254
-0.058369517 0.02579738 0.0072432905 -0.63836986 -0.6144529 0.4636071 0.001718516
-0.056366701 0.024566283 0.0082069859 -0.59322 -0.64961696 0.47548681 0.0014410581
-0.061035164 0.02885578 0.0072841062 -0.66514289 -0.54544765 0.50997245 0.0026543816
-0.059363335 0.027689561 0.0082603926 -0.65101159 -0.57783622 0.49222884 0.0016684808
-0.0011123867 0.029930463 0.0088841775 0.086725071 0.78150135 0.61784667 0.001191673
0.0016205842 0.029871928 0.0087501062 0.048053976 0.81721646 0.57432395 0.0024801164
0.0044622486 0.029791856 0.0087384619 0.01382542 0.8165018 0.57717729 0.0021372805
0.0074917544 0.029803239 0.0087491563 -0.02322994 0.78757608 0.61577946 0.0014148953
0.010399126 0.029877402 0.0088387225 -0.057700276 0.80999327 0.58359367 0.0017962564
0.012620565 0.029934177 0.0088847456 -0.10610483 0.79721093 0.59430331 0.0015645857
-0.063627377 0.032380871 0.0072630695 -0.71313649 -0.46343964 0.52598482 0.0019772646
-0.062270824 0.031087192 0.0078970762 -0.69543988 -0.47716692 0.53728491 0.0022830851
-0.015337632 0.032858476 0.0088617178 0.25332823 0.77815926 0.57471126 0.0015696628
-0.013025898 0.032558858 0.0083625037 0.22972938 0.82378691 0.5182659 0.0014758636
-0.010390218 0.032286189 0.007699118 0.20668434 0.86054331 0.46556076 0.0010935295
-0.0074861385 0.03180144 0.0074598016 0.16291521 0.87068498 0.46407568 0.0011509011
-0.0044515925 0.031328361 0.0074307672 0.12790164 0.86029238 0.49349582 0.0020186971
-0.0014482131 0.030963277 0.0074066976 0.087548994 0.87013191 0.48497999 0.0020302024
0.0016145577 0.030779185 0.0073243217 0.040775735 0.86506867 0.49999353 0.0023378858
0.0044832523 0.030737462 0.0072348462 0.014079748 0.86616677 0.49955669 0.0022970757
0.007560249 0.030736804 0.0072765662 -0.027817244 0.86595166 0.4993535 0.0023793401
0.010559169 0.030902309 0.0073227119 -0.064593136 0.85851115 0.50871038 0.0024151639
0.013580975 0.031111239 0.0074728592 -0.11825571 0.84390444 0.52329803 0.0025275608
0.01651247 0.031645246 0.0074597527 -0.17602155 0.84952527 0.49731603 0.0022871487
0.01937132 0.032164533 0.0076857097 -0.22056706 0.8332656 0.50697011 0.0015190417
0.022294963 0.032484654 0.0083621973 -0.22471097 0.7879886 0.57321811 0.0011955862
0.024404868 0.032799743 0.0087775663 -0.25577548 0.7539053 0.60514933 0.0018466956
-0.066208467 0.03544366 0.0062960554 -0.75774062 -0.41180313 0.50620878 0.0031814368
-0.064590201 0.034487721 0.0076583871 -0.72317982 -0.38727736 0.571863 0.0020573789
-0.062949903 0.033415798 0.0089401053 -0.66697937 -0.38192686 0.63974243 0.0010981174
-0.022067133 0.035577405 0.0081934221 0.31575021 0.81657279 0.48322952 0.0016696225
-0.019314086 0.0348882 0.0075983652 0.29058009 0.83970064 0.4587658 0.0012029933
-0.016326841 0.033972535 0.0074937404 0.2503666 0.84502435 0.47249389 0.0012574836
-0.013596239 0.033460073 0.0069585964 0.23310696 0.86002314 0.45389578 0.0013953232
-0.011040755 0.033112101 0.0062810159 0.20424469 0.87814945 0.43259415 0.00054848468
0.020382678 0.033184867 0.0064690001 -0.22069608 0.84357893 0.48955879 0.001509759
0.022757879 0.033577006 0.0069434675 -0.23429292 0.84183037 0.48623908 0.0015721935
0.02554206 0.034129586 0.0073828939 -0.2489718 0.82187456 0.51238197 0.0019654168
0.028418459 0.034974147 0.0075022709 -0.29033524 0.82608175 0.48300558 0.0016876468
0.031202784 0.035509799 0.008196868 -0.29762974 0.78777438 0.53928477 0.0023598836
0.033170361 0.035827111 0.0087307068 -0.33062527 0.72255069 0.60713047 0.0024335566
-0.066796452 0.037812244 0.0070177717 -0.74154472 -0.34975836 0.57252121 0.0021096296
-0.065434165 0.037150685 0.0083063422 -0.72574139 -0.3091757 0.61458105 0.0032880146
-0.030522576 0.038799372 0.0088001918 0.3700566 0.76868129 0.52171558 0.0011146856
-0.02824465 0.038345303 0.0078159971 0.36592337 0.81701869 0.44562384 0.0013528097
-0.025555827 0.037349299 0.0074502565 0.33909452 0.82855821 0.44554034 0.0011646906
-0.022877626 0.036459763 0.0070902836 0.32837167 0.84064758 0.43067819 0.001043198
-0.02093346 0.03616862 0.0061352118 0.3181535 0.84064555 0.43828464 0.0010724696
0.02969672 0.036165144 0.0062864441 -0.30744272 0.83045518 0.46456772 0.0015661846
0.031799421 0.036594011 0.0068583512 -0.32063645 0.81743902 0.47852445 0.0022147938
0.034537863 0.037425622 0.0073997569 -0.35423818 0.80675703 0.47292539 0.0024351575
0.037186991 0.038326334 0.0079435399 -0.3919456 0.76593584 0.50962812 0.0031793721
0.039248355 0.038845446 0.0088190837 -0.39889705 0.69464487 0.59862316 0.002828717
-0.069075301 0.041797765 0.0062238825 -0.7377432 -0.28217173 0.61328143 0.0061465614
-0.067482553 0.040590983 0.0074825496 -0.7323643 -0.22891334 0.64128089 0.0026258377
-0.065814592 0.039587699 0.0089014694 -0.68525785 -0.21468097 0.69594085 0.0022416301
-0.036352891 0.04165164 0.0087402938 0.37183619 0.75801057 0.53587109 0.00089477014
-0.034184132 0.041202445 0.0077797631 0.39504728 0.80388665 0.44463918 0.0014129584
-0.03157175 0.040117726 0.0074074036 0.38527316 0.80973488 0.44259918 0.0012944771
-0.029292405 0.039364733 0.0067105824 0.38289264 0.82678753 0.41208702 0.00083486125
0.038018253 0.039562758 0.0067824102 -0.41953117 0.77312624 0.47567785 0.0021512052
0.040477891 0.040521935 0.0074783601 -0.42936823 0.75670445 0.4929921 0.0020605128
0.042902991 0.041446324 0.0082112597 -0.40815294 0.70787317 0.57647789 0.0028889272
-0.069417983 0.043854926 0.0063821259 -0.72562766 -0.18224856 0.6635133 0.0024814554
-0.067807049 0.043467987 0.0079336185 -0.65883434 -0.097067177 0.74599952 0.0030815888
-0.04260787 0.044822581 0.0085660173 0.37972328 0.73829335 0.55743438 0.0015315862
-0.040078368 0.044243202 0.007584976 0.41278088 0.78561473 0.46089196 0.0016745379
-0.037539765 0.043125354 0.0073528457 0.39332017 0.79765111 0.45722201 0.0014550398
-0.035386432 0.042446315 0.0066083837 0.41211393 0.80906975 0.41900864 0.0010307664
0.041793507 0.042196214 0.0062139882 -0.45772949 0.74776196 0.48097372 0.0016555518
0.043786839 0.042804871 0.0070688357 -0.4489513 0.73460937 0.50871587 0.002539628
0.046297759 0.043890942 0.0076662265 -0.41884086 0.71986032 0.55351013 0.0022719011
0.048762362 0.044550255 0.0085986489 -0.3780379 0.65076333 0.65847892 0.0018377732
-0.069670126 0.046608459 0.0066919313 -0.68927968 -0.094812267 0.7182647 0.0052331164
-0.067928061 0.046461448 0.0081137754 -0.59892815 -0.030407233 0.80022532 0.0040150951
-0.048434418 0.04780259 0.0085100373 0.3337338 0.71838307 0.61036676 0.0017174074
-0.046258446 0.047221757 0.007843378 0.36843321 0.75438344 0.54328865 0.002483994
-0.043682721 0.046284974 0.0073313653 0.39743176 0.77639031 0.48914832 0.001581895
-0.041349445 0.04541311 0.0068168361 0.41045189 0.78158635 0.46973613 0.0020668374
0.047391277 0.045387059 0.0065572239 -0.4603214 0.72810888 0.50789911 0.0025200346
0.04963975 0.046203095 0.007267836 -0.41209456 0.71449566 0.56539708 0.0023804468
0.052255828 0.047088254 0.0079928851 -0.38060713 0.68270797 0.6237371 0.0027954045
0.054651 0.047693945 0.0087038707 -0.30475071 0.6366818 0.70835257 0.0026710001
-0.070014074 0.049516495 0.0066644782 -0.59895623 -0.022502888 0.80046558 0.008202685
-0.067481294 0.049573228 0.0082032345 -0.40725946 0.14313483 0.90202671 0.0074127116
-0.065165244 0.050701212 0.0088007757 -0.15818658 0.36754632 0.91645336 0.009134206
-0.062159464 0.050940387 0.0089844372 -0.01550552 0.56749052 0.8232339 0.0043661669
-0.057735465 0.050898559 0.0088630235 0.11727352 0.67754114 0.72607505 0.0037428271
-0.055306405 0.050593849 0.008540242 0.20328073 0.6816327 0.70288956 0.0019829625
-0.05224568 0.049912266 0.008018475 0.2793861 0.71501261 0.64085901 0.001550134
-0.049624495 0.04920692 0.0073964465 0.33871943 0.75711197 0.55861491 0.0017605452
-0.047057997 0.048583914 0.0065402924 0.40210983 0.77296972 0.49073982 0.0015153795
0.052892175 0.048617426 0.006696308 -0.4283773 0.70672792 0.56305289 0.0021890905
0.055505421 0.049486514 0.0073823961 -0.35215706 0.66921353 0.65432304 0.0021039054
0.05821079 0.050050706 0.0081568751 -0.29137701 0.62166065 0.72707456 0.0020355335
0.061103459 0.050597452 0.0086354697 -0.19169278 0.56043589 0.80570811 0.0035305829
0.06421043 0.050700698 0.0088578071 -0.063500971 0.47440338 0.87801433 0.003120603
0.067067571 0.050071005 0.0083965594 0.17839211 0.37998417 0.90762782 0.0022878547
-0.070060104 0.052459922 0.0066026784 -0.47870564 0.082059652 0.87413222 0.0087161856
-0.067454241 0.052424945 0.0076081678 -0.25094879 0.29118007 0.92316782 0.011132088
-0.064450569 0.052534204 0.0079944665 -0.03717516 0.45727965 0.88854563 0.0099118678
-0.061479077 0.052585073 0.0078483969 0.072716035 0.61643338 0.7840423 0.0058673713
-0.058550537 0.05237785 0.0075085238 0.18607721 0.72906595 0.65866387 0.003060681
-0.055642836 0.051905788 0.0071927779 0.25380322 0.7546044 0.60510844 0.0022494597
-0.053082332 0.051368058 0.0066423966 0.33769581 0.76446784 0.5491361 0.0017576825
0.056644592 0.051182531 0.0062045958 -0.41681245 0.70386767 0.57518494 0.0028486943
0.058714021 0.051761348 0.00678023 -0.36015338 0.6797359 0.63894337 0.0030845897
0.061411861 0.052627306 0.0071989894 -0.29289442 0.60892326 0.73717391 0.0034707028
0.064318128 0.052753966 0.0078025847 -0.14393514 0.5201472 0.84186077 0.0028680693
0.066526525 0.0534366 0.0073947441 -0.07980229 0.47674909 0.87540954 0.0028870825
0.069336616 0.052696038 0.0065658381 0.19696771 0.36289018 0.91077685 0.0046042195
-0.069862895 0.055165842 0.0062519503 -0.27298012 0.32650238 0.90491885 0.011198748
-0.067429528 0.055184279 0.0065767374 -0.029537061 0.46430033 0.88518512 0.0086464034
-0.064566597 0.054831643 0.006544577 0.10946428 0.5746612 0.81103766 0.0093614794
-0.061831933 0.054351639 0.0063447542 0.19424625 0.68746197 0.69976026 0.0049464386
-0.059962895 0.054033302 0.0060126833 0.25424683 0.75372642 0.60601574 0.0023150328
0.06237625 0.054265212 0.0062271077 -0.35355705 0.63758266 0.68446016 0.0056999028
0.064395018 0.05491573 0.0064775255 -0.27172032 0.56681705 0.77774453 0.005697635
0.066926435 0.055486202 0.0064938245 -0.21385355 0.5143373 0.83049619 0.0080201598
-0.016051957 0.0057650465 0.0095665455 -0.17139404 -0.78479195 0.59558856 0.00055006187
-0.013522426 0.0054331254 0.0097766668 -0.1408006 -0.77547133 0.61548305 0.0012554274
-0.010766236 0.0053092465 0.010177793 -0.099857807 -0.76448697 0.63685805 0.0012818718
-0.0077425563 0.0051980871 0.010428064 -0.062553018 -0.7594288 0.64757627 0.0007339344
-0.0039421944 0.004714373 0.01013351 -0.034859043 -0.7091713 0.70417392 0.0035667412
-0.027397394 0.0088612298 0.009453062 -0.27662989 -0.77470827 0.56859744 0.00098562217
-0.025129413 0.008361211 0.009796381 -0.24631624 -0.7819438 0.57261872 0.00077873917
-0.022474967 0.0080552306 0.010426229 -0.22379364 -0.76967853 0.59792256 0.0012603966
-0.019636903 0.0072978628 0.010468937 -0.19708459 -0.77386391 0.60190725 0.00056186592
-0.016422508 0.0069116172 0.010977286 -0.15965179 -0.76586819 0.62286222 0.0011586928
-0.013100822 0.0066561638 0.011363062 -0.12235522 -0.70225185 0.70133561 0.001334318
-0.010948732 0.006412081 0.011459376 -0.084154524 -0.73446524 0.67340845 0.0011994269
-0.0078804921 0.0064647621 0.011785867 -0.050040517 -0.67214561 0.73872614 0.0011401944
-0.0039592045 0.0060548093 0.0116321 0.0095737735 -0.68345404 0.72993076 0.0035927782
0.0013322822 0.006241214 0.011812172 0.025367906 -0.52508551 0.85067135 0.00052732875
-0.034118216 0.011511301 0.0097631058 -0.33277637 -0.76633269 0.54953998 0.00062448252
-0.03151134 0.011044923 0.010507558 -0.27782103 -0.77472013 0.5680002 0.0012829476
-0.028681366 0.010058017 0.010513181 -0.27117708 -0.77666128 0.56855989 0.0011073186
-0.025615025 0.0096573904 0.011352978 -0.22716478 -0.72163188 0.65394461 0.0011241412
-0.023109334 0.0094631892 0.011952065 -0.19263846 -0.69762444 0.69008017 0.0014141806
-0.042141989 0.014930069 0.0090446724 -0.42696875 -0.70875376 0.56157446 0.00055860612
-0.040741976 0.014525245 0.0095936703 -0.41995353 -0.73588949 0.53113621 0.00075274665
-0.037734374 0.014043478 0.010973882 -0.35216537 -0.72634578 0.59025532 0.00087262783
-0.034513481 0.012914013 0.011399622 -0.30141646 -0.70300376 0.64415359 0.00073847442
-0.032434672 0.012512376 0.011972815 -0.26563272 -0.694094 0.66908354 0.00097864494
-0.045676637 0.017569713 0.0096417051 -0.46365243 -0.69784427 0.54593021 0.0006990605
-0.043233749 0.017035393 0.010864393 -0.43026528 -0.68955463 0.58256859 0.00096366106
-0.041041255 0.015806621 0.010995601 -0.41634271 -0.71409523 0.56278473 0.0010571628
-0.038724713 0.015259574 0.011900398 -0.35540345 -0.66883266 0.65295583 0.0016687341
-0.048936874 0.020093717 0.0099595888 -0.48982096 -0.67028552 0.55748785 0.00080844987
-0.046531785 0.019201411 0.011007375 -0.45767012 -0.67348558 0.58047837 0.0013635354
-0.044232219 0.018321332 0.011722779 -0.41135281 -0.65346938 0.6354264 0.0016543764
-0.054549076 0.023856195 0.0092877597 -0.54014832 -0.61540055 0.57404006 0.00065636117
-0.052262161 0.022723319 0.010115081 -0.51164615 -0.64176095 0.57128024 0.0010462477
-0.049545333 0.021819076 0.011430004 -0.47935632 -0.62108415 0.62005806 0.0014101132
-0.057295471 0.026420606 0.0092388811 -0.58126843 -0.56847173 0.58220863 0.0011080076
-0.055446424 0.025967048 0.010562463 -0.54411995 -0.53521454 0.64612603 0.0015269161
-0.053294402 0.024608672 0.01121933 -0.5253132 -0.59274697 0.61048913 0.0010647787
0.0020210715 0.026870357 0.011918778 0.046159107 0.68844038 0.72382259 0.001255838
0.0048499955 0.026841687 0.011870178 0.013052711 0.68665957 0.72686195 0.0011695835
0.0075204549 0.026921602 0.011816505 -0.013740445 0.66854185 0.7435475 0.0024290928
0.0099027697 0.02691691 0.011915378 -0.063974179 0.67742485 0.73280478 0.0016363983
-0.060215041 0.029757654 0.0091935331 -0.63820529 -0.48094571 0.60115319 0.0018791965
-0.058304243 0.028998192 0.010412392 -0.59715807 -0.45159054 0.66292399 0.0025321564
-0.056233138 0.027829731 0.011492521 -0.54274774 -0.4786469 0.69016093 0.002098212
-0.012718174 0.029821265 0.011664571 0.19303195 0.71210009 0.6750201 0.0016829877
-0.010246542 0.029397329 0.011467535 0.17637202 0.69194388 0.7000761 0.001251507
-0.0072926041 0.029115885 0.011042936 0.14867195 0.71885419 0.67907673 0.0016634786
-0.0044212718 0.028855894 0.010776079 0.11880922 0.72116572 0.68249875 0.0017798562
-0.0014505151 0.028846508 0.010340256 0.093180418 0.74845964 0.65660155 0.0024815819
0.0016173146 0.02844267 0.01046556 0.046905611 0.72950822 0.68236178 0.0025636381
0.0045828517 0.028404821 0.010403691 0.0030201622 0.73729193 0.67556751 0.0019665344
0.0074893902 0.028501963 0.010285956 -0.020705011 0.74458748 0.66720361 0.002162585
0.010518712 0.028496593 0.010484486 -0.045139652 0.73436207 0.67725521 0.0021849738
0.013534267 0.028731428 0.01052109 -0.10590828 0.71801203 0.68792599 0.0027957046
0.016430259 0.028956015 0.010870748 -0.14903259 0.70735723 0.69096684 0.0020101806
0.019468218 0.029176796 0.011264563 -0.16156696 0.66169566 0.73215777 0.0018402711
0.022326751 0.029549677 0.011559943 -0.18407261 0.66201812 0.7265324 0.0010213733
0.024559967 0.029844763 0.011856269 -0.20024893 0.64488107 0.7375831 0.0013700897
-0.060869653 0.031940095 0.010047753 -0.62748992 -0.41851312 0.65658438 0.0021495426
-0.059109598 0.031023026 0.01107353 -0.57866752 -0.38268822 0.72020382 0.001751257
-0.021573529 0.032781564 0.011613686 0.27240694 0.70265353 0.65732223 0.0010639485
-0.019254988 0.032385316 0.011153077 0.25279105 0.73738891 0.62638181 0.0013832464
-0.016508846 0.031898245 0.010623326 0.24140914 0.76029021 0.60305929 0.0012346419
-0.013586619 0.031225622 0.01038086 0.20801325 0.76478612 0.60978097 0.0025387413
-0.010540552 0.0307907 0.0099686347 0.18650894 0.76892143 0.61153436 0.0018869037
-0.0075580971 0.030485516 0.0095430128 0.15401955 0.78361928 0.60184604 0.0017000349
-0.0049728514 0.030243758 0.0092561599 0.11938829 0.78020489 0.61402506 0.0017831493
-0.0027083808 0.030030033 0.009102582 0.095386378 0.76706487 0.63443917 0.0016082071
0.014645058 0.030069951 0.0091489479 -0.1107175 0.75430989 0.64711541 0.0012255582
0.016734211 0.03026616 0.0094212601 -0.15638089 0.76014745 0.63065118 0.001010222
0.019630078 0.030644501 0.0098056141 -0.18658063 0.73761034 0.64893663 0.0015122768
0.022611069 0.031214073 0.010081564 -0.20669678 0.73816025 0.6421805 0.0023491054
0.025465677 0.031769533 0.010398151 -0.22409482 0.71076018 0.66678441 0.0012596241
0.028409578 0.032091089 0.01101016 -0.23186091 0.65906334 0.71545517 0.0012231396
0.031252358 0.032499071 0.01156396 -0.23799738 0.62403727 0.74426788 0.0016730283
0.033271585 0.032812271 0.011914626 -0.25381076 0.61729956 0.74466181 0.0043200287
-0.063579977 0.035506703 0.0094224559 -0.65506649 -0.34531948 0.67204344 0.0019074528
-0.061685678 0.034482919 0.010679945 -0.60955811 -0.31080195 0.72927427 0.002583801
-0.059844181 0.033409905 0.011833482 -0.60033154 -0.31314036 0.73589748 0.0024007487
-0.027954664 0.035581388 0.011426136 0.30553061 0.69454241 0.65135396 0.0013875397
-0.025313657 0.034888603 0.010926126 0.3084192 0.73052233 0.60927397 0.0017679227
-0.022492591 0.034184322 0.010405228 0.28191483 0.75319767 0.59432095 0.0021000917
-0.019777033 0.03368922 0.0097885588 0.27384523 0.75902367 0.59067059 0.0014844523
-0.017401015 0.033201512 0.0093208198 0.25385931 0.782309 0.56881291 0.0014190311
0.026425332 0.03322228 0.0091000246 -0.23774225 0.74964142 0.61767018 0.0013107578
0.028699784 0.033584595 0.0096026752 -0.25069582 0.73222792 0.63324082 0.0013963049
0.03155243 0.034165021 0.010067526 -0.27328679 0.71757883 0.64062077 0.0023332117
0.034413476 0.034729157 0.010632266 -0.28749472 0.65771204 0.69624835 0.002234875
0.037326667 0.035327997 0.011354803 -0.30204785 0.62353122 0.72109354 0.0021645087
0.039400049 0.035796158 0.011805519 -0.28898498 0.59022355 0.75373989 0.0022624445
0.062187411 0.034911595 0.011693873 0.33508137 -0.062933676 0.94008499 0.0012523048
-0.063949585 0.037717011 0.010002458 -0.63145798 -0.24960536 0.73413759 0.0031195581
-0.061912894 0.037234392 0.011464577 -0.55367917 -0.17386055 0.8143782 0.0014942737
-0.034172595 0.038471684 0.01139649 0.31746674 0.6845178 0.65623939 0.0008456842
-0.031381413 0.037826069 0.010620874 0.33341706 0.73611218 0.58904326 0.0013400796
-0.028684897 0.03700538 0.010126965 0.33160904 0.75044924 0.57171792 0.002169176
-0.026104042 0.036304269 0.0095610302 0.32502353 0.76307243 0.55864137 0.0011418809
0.035154317 0.036382508 0.0093159191 -0.32250971 0.71446687 0.62090629 0.0015915805
0.037703913 0.037001554 0.0099111758 -0.34451273 0.69290197 0.63340187 0.0023535055
0.040349804 0.037670888 0.010627154 -0.32752723 0.61443758 0.71776897 0.0015190415
0.043099076 0.038314868 0.011370801 -0.3169435 0.567577 0.75987053 0.0017297956
0.045323476 0.038845591 0.01182094 -0.27100176 0.52930146 0.80398881 0.0021827493
0.062484294 0.037575524 0.011894336 0.30772123 -0.005241523 0.95146215 0.0025769472
0.063414648 0.037566572 0.011446195 0.37809423 -0.019908244 0.92555302 0.0015455538
-0.066165403 0.041749805 0.0091703208 -0.63886136 -0.11947359 0.75998825 0.0022934652
-0.064504586 0.040571395 0.010227797 -0.59177685 -0.13533202 0.79466051 0.0030489857
-0.062353022 0.040582307 0.011666574 -0.50809699 -0.051845606 0.85973799 0.0026442057
-0.04225504 0.041792598 0.011802611 0.30986336 0.64391482 0.69954151 0.0021147088
-0.040142838 0.041355386 0.011321559 0.30573392 0.66550606 0.68090266 0.0010680199
-0.037490796 0.040568095 0.010788376 0.32114258 0.70456272 0.6328181 0.0011205
-0.034602042 0.039841354 0.01004772 0.34970909 0.72945189 0.58788049 0.0016079514
-0.032489114 0.039333861 0.0093917977 0.37107763 0.7440955 0.55553877 0.0017980587
0.041244924 0.039386962 0.0094662262 -0.38912833 0.67250961 0.62953156 0.0020810103
0.043640237 0.040187184 0.010013104 -0.37447879 0.64432776 0.66678882 0.0019689903
0.046298038 0.040754065 0.010807381 -0.31002319 0.57727808 0.75540429 0.0010464116
0.049170449 0.041340198 0.011490407 -0.26782838 0.52694207 0.80659777 0.0020485618
0.051412337 0.041764468 0.011865446 -0.19717593 0.490298 0.84895796 0.002886791
0.062657252 0.040766172 0.011878269 0.27410015 0.13122442 0.95270622 0.0024085366
0.063498527 0.040270973 0.011559824 0.23349927 0.17085958 0.95722777 0.0022305304
0.066241667 0.041712552 0.010067047 0.35980701 0.086523294 0.92900628 0.0012407083
-0.066322826 0.04375691 0.0092437947 -0.61699182 -0.051198632 0.78530234 0.0035479364
-0.06464918 0.043624058 0.010378458 -0.51834303 0.025097497 0.85480452 0.0031643605
-0.062157646 0.043615896 0.011662433 -0.41062289 0.085210577 0.90781498 0.0048662745
-0.048847519 0.044687834 0.011765443 0.2120692 0.61664581 0.75813895 0.0018940686
-0.046320841 0.044289775 0.011241469 0.2689546 0.65404165 0.70703107 0.0017175709
-0.043492615 0.043538705 0.010650696 0.31570029 0.68485409 0.65674061 0.0011754524
-0.040799256 0.042829052 0.0099576889 0.34673429 0.72103995 0.59989721 0.0010676468
-0.038466536 0.042177185 0.0093829129 0.36523429 0.73621935 0.56972355 0.0014374298
0.046954632 0.042563964 0.0095835505 -0.37311965 0.65019691 0.66183507 0.0020950621
0.049642097 0.043428507 0.010095441 -0.3460049 0.615583 0.7080524 0.0020041813
0.052356243 0.043679178 0.01090691 -0.24278978 0.5388459 0.80665869 0.0015801371
0.05525779 0.044004939 0.011461766 -0.17523172 0.46596265 0.86727881 0.0022935108
0.058234792 0.044202048 0.011763671 -0.10029829 0.43225032 0.8961584 0.0021785696
0.06138064 0.043999087 0.011660067 0.11342187 0.28870577 0.95067573 0.0035291906
0.064217418 0.04364397 0.010977845 0.24217948 0.20948632 0.94734609 0.0018230366
-0.066288456 0.04650538 0.0091823749 -0.53080052 0.081981897 0.84352225 0.0047853822
-0.064399496 0.046537247 0.010180724 -0.3657234 0.22281009 0.90366036 0.004900781
-0.061552033 0.046670653 0.011228061 -0.23311031 0.32287633 0.91728431 0.0052597979
-0.058517285 0.046999797 0.011552308 -0.050343592 0.44501913 0.89410484 0.0042100651
-0.05536053 0.047043912 0.011422012 0.08879301 0.53997463 0.83698463 0.0024693394
-0.052380398 0.046813771 0.011026485 0.1765161 0.59833252 0.78156269 0.0013534323
-0.049477872 0.046450958 0.010411864 0.25236994 0.64965153 0.71712083 0.0013403565
-0.046786822 0.045810234 0.0099164555 0.31818762 0.68194133 0.65856874 0.0012873049
-0.044597737 0.045269784 0.0092831934 0.3619374 0.70552284 0.6092937 0.0012437114
0.050831977 0.045162871 0.0091706729 -0.35786706 0.62248546 0.69601935 0.0031399077
0.05267084 0.045701358 0.0095328391 -0.32195687 0.62539113 0.71079516 0.0023050767
0.055454347 0.04652017 0.0099507011 -0.27079949 0.57229495 0.77404535 0.0028403243
0.058282755 0.046681095 0.010534827 -0.16622643 0.50482321 0.84706688 0.001908198
0.061144151 0.046833262 0.010685286 -0.078348882 0.45257628 0.88827711 0.0022375507
0.063988999 0.047008045 0.010322182 0.050374676 0.39181799 0.91866261 0.0024073611
0.066307366 0.046813928 0.009592263 0.22793373 0.2095156 0.95086771 0.0059327465
-0.066183239 0.048416242 0.0091059748 -0.38572854 0.20178933 0.90027475 0.0070683993
-0.064220555 0.049269453 0.0095131975 -0.28790066 0.32103911 0.90224564 0.0087580932
-0.061396137 0.049570143 0.009907756 -0.09356419 0.48067316 0.87189394 0.0075983233
-0.058545485 0.049443528 0.010099651 0.017366109 0.56252337 0.82659906 0.0041830186
-0.055629916 0.049176216 0.0099212294 0.15482673 0.62636924 0.76399618 0.0031153134
-0.052787866 0.048601147 0.0095781721 0.23916526 0.67216283 0.70071185 0.0019041689
-0.050662644 0.048144922 0.0092884786 0.28498489 0.68237722 0.67316037 0.0013714377
0.056402024 0.048162706 0.009100412 -0.29810861 0.62241691 0.72369081 0.0025165663
0.058658343 0.048613101 0.009409003 -0.21325406 0.56686068 0.79573351 0.0032689825
0.061440565 0.049186699 0.0095494566 -0.13048905 0.52412963 0.8415823 0.0029505976
0.063967191 0.04927627 0.0095412396 -0.063317031 0.48171186 0.87403917 0.0026221215
0.066560827 0.048229069 0.0091535123 0.1378022 0.34419492 0.92873061 0.0021121777
-0.063226983 0.051048078 0.0090204179 -0.071806356 0.48374474 0.87225842 0.010172107
-0.06187129 0.051103767 0.0090313787 -0.02249174 0.56387013 0.82555717 0.003993127
-0.059638798 0.051025286 0.0091085648 0.065954596 0.62904894 0.77456272 0.003751986
-0.019634865 0.0086815376 0.012103773 -0.1715721 -0.71771127 0.67487299 0.0016613863
-0.016039219 0.0083579393 0.012531781 -0.11615104 -0.62616545 0.77099013 0.00076862075
-0.01323387 0.008576123 0.013116467 -0.089123413 -0.59334528 0.799999 0.0018485787
-0.010762163 0.0085507901 0.013381559 -0.062179789 -0.58536863 0.80837941 0.00083357602
-0.0073957341 0.0077798585 0.012954181 -0.032767806 -0.56727397 0.82287699 0.0011721037
-0.0045638205 0.0077730464 0.013051691 0.0027592673 -0.56767863 0.82324564 0.0013903012
-0.0016972945 0.0079352101 0.013202177 0.018602731 -0.55020511 0.83482224 0.0022210388
0.0016593781 0.0080724629 0.013231365 0.030624732 -0.49477726 0.86848003 0.00073190872
0.0044328608 0.0082429936 0.013240278 0.026847409 -0.47860485 0.87761986 0.0009852919
0.0074577611 0.0082306089 0.013048639 0.050018284 -0.44471869 0.89427263 0.00054553209
0.010406696 0.0084123705 0.012948306 0.066344321 -0.45984074 0.88551962 0.00022701913
0.013845263 0.0086253574 0.012757396 0.078432247 -0.42171255 0.90333104 0.00059559126
-0.028741844 0.011730339 0.012501935 -0.2285796 -0.66428596 0.71167099 0.0012058846
-0.025665384 0.011225181 0.012974245 -0.19771332 -0.63735008 0.7447781 0.0015137183
-0.022305906 0.01087066 0.013470454 -0.15902528 -0.60808241 0.77778327 0.0011939121
-0.019550648 0.01048196 0.013716934 -0.12184532 -0.57957548 0.805758 0.00076976046
-0.016757585 0.01062982 0.01427325 -0.093496561 -0.55629957 0.82570529 0.0012164891
-0.013615005 0.010272954 0.014336118 -0.079808801 -0.53778803 0.83929414 0.0015475154
-0.010844108 0.010331155 0.014592845 -0.043535255 -0.50152194 0.86404884 0.0016331146
-0.0077380305 0.009810511 0.01437181 -0.014425767 -0.52096838 0.85345405 0.001093267
-0.0043026414 0.0098211858 0.014419802 -0.0025152557 -0.47522965 0.87985826 0.0019385492
-0.0015218729 0.010031991 0.014493771 0.014524519 -0.45070785 0.89255333 0.0021258735
0.0016560351 0.010106858 0.014434661 0.043747522 -0.42167601 0.90569067 0.001456645
0.0047906917 0.01056941 0.014508339 0.052793149 -0.42645359 0.90296745 0.0012635486
0.0073583117 0.010673197 0.014419876 0.05381389 -0.41414407 0.90861917 0.0010847391
0.010083186 0.010718342 0.014249722 0.06541536 -0.40835449 0.91047651 0.00093944027
0.013332832 0.010610076 0.013898117 0.069226064 -0.38633144 0.91975856 0.00065249857
0.01638834 0.010903306 0.01375898 0.082748763 -0.35704955 0.93041295 0.001115089
0.020354301 0.011321062 0.01352237 0.085523441 -0.34222052 0.93571949 0.00054791087
0.021508064 0.011868126 0.013660309 0.083555423 -0.33680779 0.93785876 0.0009362445
-0.036549382 0.014905174 0.012580751 -0.29136929 -0.63993919 0.7110427 0.0011408576
-0.034351327 0.014203556 0.012844465 -0.29148021 -0.65674603 0.69550264 0.00091177737
-0.031490982 0.01375906 0.01351638 -0.23972468 -0.62809622 0.74028856 0.0016488624
-0.028624959 0.013421179 0.014046047 -0.20083433 -0.59495413 0.77826422 0.00084205566
-0.025791438 0.012948271 0.014407516 -0.17551894 -0.59475917 0.78450912 0.0014488391
-0.022823259 0.0126561 0.014775692 -0.13915586 -0.56017822 0.81660026 0.0016831615
-0.019932084 0.012218894 0.014925308 -0.095661126 -0.49613589 0.86295891 0.0028068624
0.0085639805 0.012049775 0.014943541 0.051923167 -0.40263578 0.91388643 0.0016359231
0.010598254 0.012399987 0.01493481 0.064365625 -0.3299458 0.94180298 0.0018350992
0.013676828 0.012765314 0.014839217 0.078778461 -0.29681629 0.95167959 0.0020174906
0.016877204 0.012885852 0.014620104 0.085456178 -0.31851518 0.94405794 0.001704118
0.019671697 0.013963949 0.014735397 0.085147925 -0.31024396 0.94683605 0.0013318895
0.022673965 0.013506139 0.014242032 0.073257804 -0.27993822 0.95721883 0.0016049927
0.025177823 0.014023642 0.014166719 0.077611454 -0.29715747 0.95166904 0.00045743471
0.027900461 0.014667284 0.014118925 0.087573692 -0.25091693 0.96403921 0.00042681277
-0.042557426 0.01796703 0.012375471 -0.40247348 -0.66609192 0.62796235 0.0013616148
-0.040010758 0.017244129 0.013134681 -0.36018842 -0.62760806 0.69019741 0.0010385208
-0.037499852 0.01663151 0.013741804 -0.29533422 -0.59875596 0.74449241 0.0011348805
-0.034670133 0.016024699 0.014289598 -0.25797838 -0.57063287 0.7796315 0.0018683606
-0.031936072 0.015486037 0.014790591 -0.22248587 -0.5750621 0.78727609 0.0025255745
0.022431206 0.015338647 0.014917376 0.058863916 -0.2499171 0.96647632 0.0022242968
0.025461173 0.015954547 0.014802946 0.065272346 -0.21195783 0.97509658 0.0011819758
0.028531149 0.016738886 0.01473006 0.053241033 -0.1603554 0.98562241 0.0004641338
0.031057687 0.017143214 0.014594757 0.071700588 -0.19922152 0.97732788 0.00053036085
0.033647735 0.017368674 0.014370833 0.077565379 -0.21557061 0.97340268 0.00054435967
0.03655602 0.016832406 0.013656007 0.12683588 -0.3079257 0.94291806 0.00027681989
0.043751683 0.017842745 0.012304881 0.19546284 -0.35649845 0.91362089 0.0015300139
-0.04579087 0.020139998 0.012480162 -0.44389179 -0.61885285 0.64805955 0.0015526676
-0.043353803 0.019813892 0.013560366 -0.36936328 -0.57657087 0.72879136 0.0017340393
-0.040736012 0.019063532 0.014224384 -0.34990317 -0.53512871 0.76889861 0.0017905759
-0.038437009 0.018375039 0.014762221 -0.28071597 -0.55723679 0.78146386 0.0020938981
0.031987451 0.018462017 0.014872441 0.064845659 -0.16777721 0.9836899 0.0011250915
0.03514738 0.019227831 0.014763893 0.064839594 -0.14740084 0.98694927 0.0010921687
0.036872119 0.019742213 0.014730997 0.08254537 -0.21028607 0.97414887 0.0013679377
0.040025018 0.020104434 0.014350478 0.11697569 -0.2330389 0.96540642 0.0021442205
0.043287545 0.020706998 0.013883184 0.19501092 -0.34737316 0.91722554 0.0018750777
0.046101972 0.020038778 0.012812525 0.22345161 -0.35054338 0.90949917 0.0009722244
-0.05135949 0.023843944 0.012069596 -0.47682169 -0.55027771 0.68544549 0.0024884008
-0.049634475 0.02332378 0.012722351 -0.45550379 -0.56760961 0.68581021 0.0018498605
-0.0466737 0.022666313 0.013842278 -0.4066672 -0.49866962 0.7654739 0.0016914634
-0.044252038 0.021667102 0.014528451 -0.33419347 -0.48801902 0.80632013 0.0024356758
-0.0069301631 0.023865191 0.014920512 0.11934851 0.44552493 0.88727868 0.0021522981
-0.0042250273 0.023564061 0.014804903 0.097569011 0.46682474 0.87895101 0.002380067
-0.0013203524 0.023359615 0.014611716 0.079047583 0.44151455 0.89376527 0.0021975138
0.0016095486 0.023297546 0.014436352 0.053453282 0.48144868 0.87484276 0.0019412873
0.0043623578 0.023089614 0.014429475 0.027570626 0.45965081 0.88767171 0.0019065778
0.0073450082 0.022880943 0.014479141 0.0043326216 0.44830489 0.89387017 0.0017925494
0.010397458 0.022791449 0.014562945 -0.024490332 0.44095773 0.89719367 0.0020204957
0.013509423 0.022926226 0.014596266 -0.045031715 0.40488079 0.91325992 0.0024399417
0.016497606 0.023404472 0.014598323 -0.077090599 0.37710074 0.92295837 0.0033472772
0.019122902 0.023659388 0.01468174 -0.086947314 0.38406008 0.91920507 0.0022128953
0.022155521 0.023661679 0.01490324 -0.071780488 0.24146949 0.96775001 0.0031218491
0.038927235 0.021549255 0.014978786 0.12339704 -0.14600179 0.98155826 0.004189969
0.040215135 0.021978447 0.014889759 0.065215036 -0.10792597 0.99201763 0.0011341701
0.042999871 0.022954829 0.014733702 0.092885248 -0.14973454 0.98435354 0.0019078518
0.046088018 0.022776965 0.013990433 0.20065176 -0.28600889 0.93698335 0.0018946872
0.048967127 0.022835298 0.013168213 0.22616109 -0.29120141 0.92954445 0.0009201506
0.051046703 0.023900537 0.012978017 0.24890319 -0.25727254 0.9337334 0.00041285108
-0.054266322 0.026696859 0.012167394 -0.51032281 -0.50291443 0.69760144 0.0022725149
-0.052142374 0.026069269 0.013049468 -0.47943664 -0.47371542 0.73873824 0.0016162877
-0.049938485 0.025457505 0.013996746 -0.41689858 -0.43113458 0.80019903 0.0013851577
-0.047601633 0.024528401 0.014686534 -0.37276044 -0.42391831 0.82543498 0.0018102552
-0.015928878 0.026661023 0.014854718 0.18022712 0.49889565 0.84771538 0.0016890451
-0.013316362 0.026310699 0.014579365 0.16023687 0.50174904 0.85004234 0.0019295715
-0.010365712 0.025895767 0.01430795 0.154431 0.54254061 0.82571232 0.0016337275
-0.0074158045 0.025659051 0.013943892 0.13241281 0.54035926 0.8309505 0.0012567516
-0.0044482872 0.025660545 0.013525243 0.10427457 0.56023932 0.82174122 0.0017005963
-0.0014633883 0.025611779 0.013220794 0.083841488 0.58299917 0.80813527 0.0024584732
0.0015169388 0.025637474 0.012972146 0.056419484 0.58850616 0.80652177 0.0023283833
0.004505218 0.025524333 0.012937752 0.019631503 0.59015554 0.80705076 0.001900302
0.0075330175 0.025425103 0.012983346 -0.0082786661 0.58473784 0.81118011 0.0020586275
0.010519289 0.025546929 0.013015507 -0.038558699 0.56484693 0.82429445 0.002527728
0.013499891 0.025597338 0.013163032 -0.078849353 0.54647899 0.83375269 0.0031236541
0.016407693 0.025694225 0.01341439 -0.10263018 0.51557547 0.85067558 0.0021594404
0.019486658 0.025661152 0.013785532 -0.095902376 0.4745456 0.874991 0.0021219342
0.022458527 0.025671164 0.014181843 -0.10204944 0.43027678 0.89691013 0.0021624328
0.025433879 0.025906315 0.014449487 -0.12048825 0.41209504 0.90313911 0.0027357698
0.028299803 0.026185218 0.014677015 -0.11887378 0.37158316 0.92075783 0.0028096237
0.031508736 0.026525198 0.014822722 -0.1150705 0.31068408 0.94352221 0.0030193401
0.034005892 0.026714072 0.014948988 -0.077209428 0.2165044 0.97322375 0.0022280614
0.044092055 0.024710059 0.014931407 0.1150071 -0.1260505 0.98533481 0.0029244476
0.046201348 0.025324168 0.014734313 0.12705916 -0.13237354 0.98302251 0.001665827
0.049212351 0.025806133 0.014174921 0.23471171 -0.25613862 0.93771183 0.0005425362
0.052587166 0.025678784 0.013093052 0.25886816 -0.23600742 0.93663645 0.00070156716
-0.055602159 0.029199641 0.012733423 -0.50806201 -0.37969351 0.77311438 0.002039131
-0.052551739 0.028352484 0.014111815 -0.45238203 -0.3995924 0.79729319 0.0016538065
-0.050494935 0.027706141 0.014833324 -0.36800838 -0.31393549 0.8752225 0.0025541896
-0.024604125 0.029843645 0.014919065 0.22396465 0.53084409 0.81733984 0.001025766
-0.022159761 0.029504748 0.014602581 0.21882537 0.54179502 0.81152546 0.001343281
-0.019406043 0.028918419 0.014282893 0.2133434 0.55913782 0.80115515 0.0013092977
-0.016469609 0.028626638 0.013717811 0.20210946 0.58430654 0.78596288 0.0012047808
-0.013609343 0.028557943 0.01304768 0.19094273 0.61129087 0.76802623 0.0018963425
-0.010672501 0.028013758 0.012827072 0.16423048 0.62942302 0.75950968 0.0015981826
-0.007584936 0.027603561 0.012531886 0.13893916 0.65770197 0.74035406 0.0015070604
-0.0047841775 0.027392821 0.012263639 0.10603967 0.67380297 0.73126274 0.001269965
-0.0018707807 0.027139686 0.01207493 0.085447975 0.65657014 0.7494092 0.0018173954
0.014260682 0.02719832 0.012117946 -0.095015869 0.66970688 0.73652202 0.0024015596
0.016716115 0.027368153 0.012344606 -0.12311866 0.62712753 0.76912469 0.0025628805
0.019721052 0.027722484 0.012546691 -0.12982839 0.60466713 0.78582579 0.0019778393
0.022639733 0.028186023 0.012740502 -0.14861281 0.56971556 0.80829358 0.0020890455
0.02539975 0.028642993 0.012999361 -0.17020828 0.55203611 0.81626302 0.0026330615
0.028470522 0.02862097 0.013601704 -0.15679407 0.48409373 0.86085361 0.0027850512
0.03148853 0.028831791 0.014000198 -0.14787775 0.44582346 0.88282144 0.0024606683
0.034403995 0.028645102 0.014451133 -0.12973905 0.38891688 0.91209185 0.0019748358
0.037239913 0.028694183 0.014742617 -0.11233947 0.3248598 0.93906653 0.0019697959
0.04037302 0.029097142 0.014906539 -0.080395177 0.24156885 0.96704763 0.0023839723
0.042626131 0.029485038 0.014960327 -0.064182542 0.19363673 0.9789716 0.0017242333
0.046747297 0.028678864 0.014916745 0.011451792 0.076540604 0.99700063 0.001768614
0.048881263 0.02866788 0.01480607 0.069486938 0.0055896849 0.99756724 0.0013064748
0.052345965 0.028580386 0.014012822 0.23100428 -0.19447395 0.95331889 0.001841174
0.055336747 0.028321017 0.013002347 0.2717132 -0.19839218 0.94170719 0.001148781
0.057371043 0.029294271 0.012534365 0.29097778 -0.17401977 0.94077045 0.00079202949
-0.058096468 0.032102149 0.012417944 -0.53309101 -0.33704555 0.77602476 0.0019381512
-0.055500869 0.03156805 0.013774702 -0.47006094 -0.2905699 0.83343381 0.0040464099
-0.053499281 0.031084219 0.014716775 -0.39669663 -0.22103158 0.89094156 0.0025465696
-0.031221326 0.032860972 0.014881865 0.23024987 0.50603539 0.83121192 0.0016233678
-0.028351502 0.032219701 0.014521469 0.24458911 0.54355168 0.80294937 0.0013789586
-0.025455676 0.031826656 0.01388472 0.24543189 0.5812723 0.77581298 0.0016244012
-0.022501389 0.031432267 0.01323512 0.25219309 0.62845349 0.73582935 0.0015932096
-0.019629555 0.030950943 0.012736823 0.23416094 0.6628831 0.71116424 0.0013410584
-0.016831364 0.030472364 0.012308788 0.2139594 0.68749642 0.69395244 0.0014406226
-0.014575813 0.030088849 0.012122078 0.19411649 0.67722952 0.70970339 0.0013263802
0.026486199 0.03018916 0.012129916 -0.18749763 0.63484132 0.74954736 0.0014057459
0.028758163 0.030638931 0.012372711 -0.19727001 0.61139882 0.76633942 0.0018069845
0.031594649 0.031231677 0.012655657 -0.1951724 0.56626123 0.80078459 0.0030440094
0.034492593 0.031549558 0.013086778 -0.19525576 0.49627221 0.84592503 0.0035452326
0.037370816 0.03168653 0.013692408 -0.18583377 0.44100192 0.87805641 0.0025359674
0.040310428 0.031682394 0.014196249 -0.16026992 0.35565621 0.92077261 0.0023138218
0.043241058 0.031946585 0.014507328 -0.11657421 0.28188524 0.95233983 0.00280706
0.045806687 0.032242551 0.014657153 -0.088859223 0.25477052 0.96291012 0.0024606837
0.049043726 0.031553313 0.014779825 0.010556151 0.11800545 0.99295688 0.0020479399
0.052194763 0.031807434 0.014490975 0.055359643 0.097394213 0.99370503 0.0025784934
0.055259932 0.031522576 0.01378975 0.23801805 -0.11963182 0.96386492 0.0021719872
0.058703613 0.031732664 0.012553081 0.31283671 -0.12956235 0.9409287 0.00085055822
-0.060282059 0.035492547 0.012103142 -0.55330843 -0.2376451 0.79835743 0.0018807631
-0.058411948 0.034746852 0.013102203 -0.48876953 -0.2050855 0.84796476 0.0033606258
-0.055501379 0.03448265 0.014530606 -0.39925215 -0.12623851 0.90810877 0.0024295698
-0.036664993 0.035680823 0.014646243 0.21846858 0.52831912 0.82045746 0.0013780958
-0.034186769 0.035057083 0.014345194 0.25372925 0.55201894 0.79428995 0.0013986864
-0.031274129 0.03462635 0.013676979 0.26678193 0.58720881 0.7642076 0.0014221118
-0.028527154 0.034156293 0.013055982 0.26630035 0.63230592 0.72751182 0.0016830722
-0.025782041 0.033556029 0.012571401 0.27267027 0.65519005 0.70454025 0.0014117635
-0.023595929 0.033180553 0.012056805 0.26897642 0.67787278 0.68420774 0.0012846915
0.035171129 0.033302858 0.012215385 -0.23682095 0.6022923 0.76233846 0.0021089956
0.037603173 0.03391178 0.012495469 -0.24306525 0.5643099 0.78897005 0.003461499
0.040528163 0.034472194 0.012987495 -0.24428806 0.48473787 0.83985275 0.002596546
0.043253325 0.034805898 0.013486737 -0.19853555 0.42915034 0.88114333 0.0020176093
0.046334494 0.034690686 0.014055449 -0.14407928 0.33989707 0.92936057 0.0030705908
0.049172923 0.034639582 0.014331605 -0.095995061 0.28713569 0.95306772 0.0026067789
0.052021503 0.034664102 0.01435486 -0.029566828 0.22231436 0.97452664 0.0026227776
0.055320162 0.034805998 0.013974213 0.077516086 0.13978346 0.98714322 0.0027361531
0.058242287 0.034601681 0.013236906 0.28722036 -0.06053596 0.95594972 0.001685672
0.060535431 0.034775861 0.012430152 0.31800181 -0.06554015 0.94582206 0.0012127478
-0.060553275 0.037932932 0.012474553 -0.51878428 -0.13470481 0.84422594 0.0031519029
-0.058739539 0.037341919 0.013342098 -0.43254507 -0.073266625 0.8986305 0.0030929979
-0.055827472 0.03758765 0.014540357 -0.29039186 0.062775224 0.9548465 0.0063767657
-0.053474024 0.038806692 0.014954182 -0.1111313 0.17770836 0.97778809 0.0045415773
-0.045963641 0.03878868 0.014901472 0.11598872 0.42494139 0.89775908 0.0022128688
-0.043376647 0.038413379 0.014669491 0.18975842 0.49590218 0.84739172 0.0020365075
-0.040430166 0.037887659 0.014248626 0.22222154 0.52703345 0.82027638 0.0012607393
-0.037594769 0.037545428 0.013632875 0.27168882 0.59173709 0.75896794 0.0014024136
-0.034686681 0.037213072 0.012833051 0.29178959 0.62455118 0.72442704 0.001418639
-0.031926293 0.036477268 0.012379925 0.29661551 0.65549654 0.69450957 0.0011569132
0.041465499 0.036252912 0.012212399 -0.28485665 0.56477666 0.77452183 0.002200664
0.043650582 0.036896396 0.01252676 -0.25091267 0.51390725 0.8203305 0.0031360106
0.046374105 0.037656192 0.0128288 -0.23372991 0.46093881 0.85609913 0.0021300011
0.049404856 0.037644722 0.013430879 -0.15433095 0.37897393 0.91244763 0.0018273179
0.052269965 0.037698418 0.013717803 -0.11220967 0.34997973 0.93001246 0.0019268144
0.055322878 0.037999429 0.013655178 -0.047480464 0.30241808 0.95199203 0.0020365138
0.058330514 0.037746184 0.01331822 0.1144535 0.17047441 0.97869247 0.0020674053
0.06076815 0.037798692 0.012609602 0.30617893 -0.0046039899 0.95196289 0.0024982833
-0.061009202 0.040445883 0.012427952 -0.45756799 -0.0049267528 0.88916099 0.0035989289
-0.058522705 0.040575963 0.013461989 -0.30932808 0.11381394 0.94411999 0.004855331
-0.055358194 0.040492341 0.014241813 -0.16317357 0.25808212 0.95224363 0.0065607512
-0.052463222 0.040678158 0.014480752 -0.037867393 0.34623963 0.93738157 0.0052841697
-0.049482122 0.040660739 0.014401373 0.076978229 0.43041793 0.89934134 0.0027710218
-0.046482898 0.040629555 0.013948756 0.16817668 0.51085675 0.84305519 0.0017678798
-0.043509405 0.040458426 0.013348406 0.23054525 0.55965841 0.7960096 0.0013809557
-0.040732216 0.039902583 0.012883093 0.26199254 0.6072399 0.75007975 0.0014553284
-0.038020812 0.039284062 0.012362869 0.29122669 0.65029198 0.70164615 0.0010776041
0.047318187 0.039292987 0.012226721 -0.26948288 0.53443629 0.80109727 0.0021950307
0.049645334 0.039890807 0.012458614 -0.19700123 0.46624741 0.86244059 0.0029796525
0.052499793 0.040597521 0.012666198 -0.14860031 0.4054395 0.90196276 0.001965902
0.055262256 0.040730525 0.012915117 -0.076580599 0.35055718 0.93340504 0.0024627119
0.057987206 0.040688034 0.012914902 -0.017754123 0.31547856 0.94876659 0.0017381207
0.06063512 0.040968653 0.012393664 0.17133372 0.17639899 0.96929264 0.0037245776
-0.060653564 0.043443765 0.012287454 -0.3083708 0.22531587 0.92419708 0.0043445043
-0.058498986 0.043516386 0.012877089 -0.18151209 0.27514055 0.94411385 0.0037215198
-0.055549257 0.04374164 0.013195928 -0.045047108 0.39119843 0.91920316 0.0032282174
-0.052433465 0.043689162 0.01310597 0.08737731 0.48574272 0.86972368 0.0025695928
-0.049489476 0.043429594 0.012831592 0.17784294 0.5544638 0.81298321 0.0018538657
-0.046628408 0.042861249 0.012531132 0.22449213 0.58777815 0.77725172 0.002392849
-0.04400469 0.042177808 0.012199824 0.27703288 0.63049048 0.72507554 0.0019754421
0.053381965 0.042123783 0.01217421 -0.18138613 0.48711109 0.85429609 0.0021552262
0.055748403 0.042402156 0.01232402 -0.12358011 0.41838017 0.89982551 0.0023204193
0.058211021 0.042586334 0.012362714 -0.062712237 0.39318863 0.91731668 0.0021539344
0.060697243 0.042602293 0.012129604 0.12860629 0.27209008 0.95363903 0.0035155327
-0.060368136 0.045142964 0.012063872 -0.27195665 0.2207927 0.9366377 0.0068541938
-0.058117218 0.04546969 0.012259888 -0.11941682 0.39520484 0.91079783 0.004666293
-0.05552879 0.04558257 0.012316141 0.028828833 0.495482 0.86813974 0.003141446
-0.052691754 0.04530168 0.01223379 0.13652712 0.55950868 0.8175025 0.002412999
-0.050633598 0.045034803 0.012062541 0.22237308 0.61252767 0.75852495 0.001741151
-0.016334349 0.011960302 0.015218899 -0.077383406 -0.53743142 0.83974957 0.0015761424
-0.013510272 0.011716115 0.015258728 -0.046509527 -0.49110273 0.86985916 0.0015312815
-0.01039158 0.011516616 0.015289024 -0.017261222 -0.45109215 0.89231038 0.0015738627
-0.0074663684 0.011399605 0.015241749 0.0044193687 -0.44493368 0.89555269 0.0021669755
-0.0047171302 0.011406636 0.015224745 0.015426808 -0.41999677 0.90739447 0.0021890316
-0.001569408 0.011502602 0.015186473 0.027877785 -0.39937192 0.91636503 0.0018806106
0.0011699388 0.011565633 0.015121032 0.036477704 -0.38783893 0.92100507 0.0017008237
0.0033059269 0.011749052 0.015095843 0.043858256 -0.4008947 0.91507375 0.0016681561
-0.027963994 0.014560968 0.015065515 -0.18006104 -0.56193185 0.80734789 0.0017568367
-0.025243638 0.014292391 0.015431494 -0.13717893 -0.5181365 0.84422541 0.0023995619
-0.022414468 0.014044319 0.01569397 -0.097786829 -0.47278649 0.87573439 0.0024176361
-0.019420443 0.013784881 0.015856601 -0.068711117 -0.43348363 0.89853811 0.0023602466
-0.016396165 0.013470586 0.01593123 -0.038448162 -0.37704924 0.92539483 0.0023292627
-0.013415767 0.013559822 0.016056407 -0.0020580057 -0.34059182 0.94020903 0.0027576876
-0.010639578 0.013931517 0.016191067 0.027610993 -0.21217172 0.97684222 0.0016486803
-0.0071862391 0.013634949 0.016057802 0.035217494 -0.1966299 0.97984505 0.0025150834
-0.0045419713 0.013869795 0.016017003 0.049306031 -0.18041478 0.9823541 0.0024502112
-0.0014773216 0.013769086 0.015888678 0.035819657 -0.23062193 0.97238398 0.0022362005
0.0014060969 0.013592715 0.015723782 0.042242136 -0.14238001 0.98891032 0.0018823572
0.0043250364 0.013772252 0.015625296 0.041891661 -0.14567244 0.98844558 0.0018105842
0.0071841399 0.014043272 0.01553909 0.031263452 -0.14627905 0.98874921 0.0016257825
0.010492534 0.013905257 0.015363371 0.046794008 -0.23628716 0.97055584 0.0023435431
0.01320125 0.014063757 0.015248166 0.054304935 -0.24808085 0.96721607 0.0021750955
0.016336553 0.014424093 0.015142549 0.066155493 -0.23763609 0.96909881 0.0033907753
0.018335652 0.01493199 0.015124679 0.068942294 -0.28006831 0.95750129 0.0010230168
-0.036231477 0.017673071 0.015007102 -0.27575943 -0.57264954 0.77202934 0.0022450197
-0.034372181 0.01739002 0.015334962 -0.23533207 -0.53988653 0.80817163 0.0020873467
-0.031123878 0.017131744 0.015955193 -0.12174133 -0.36344606 0.92362654 0.0026984597
-0.028596058 0.016499095 0.016085748 -0.1246208 -0.42224699 0.8978737 0.0027759215
-0.025118614 0.016890822 0.016660787 -0.071333215 -0.29027754 0.95428008 0.003082555
-0.022410596 0.016893463 0.016863747 -0.02344697 -0.23076576 0.97272676 0.0027685051
-0.019505059 0.016805187 0.016922263 -0.0016485325 -0.1830406 0.98310393 0.0035209723
-0.016768085 0.016958475 0.016960774 0.03292815 -0.089640252 0.99542975 0.002819685
-0.013570428 0.016787393 0.016856413 0.056583498 -0.048839789 0.99720258 0.003080732
-0.010488953 0.016767479 0.016715795 0.064622171 -0.023744935 0.99762732 0.0038228559
-0.0075339908 0.016747668 0.016566837 0.060796455 -0.0020384423 0.99814808 0.0041622873
-0.0044880314 0.016814696 0.016388275 0.059833508 0.041283507 0.99735433 0.003996985
-0.0014769717 0.016730102 0.01622046 0.059279285 0.057296127 0.99659574 0.0035965033
0.0014135789 0.016643684 0.016076837 0.050099246 0.074364126 0.99597192 0.0030587632
0.0041822805 0.01667396 0.015946044 0.031381611 0.051095191 0.9982006 0.0027560038
0.0074462672 0.016841076 0.015819374 0.026839234 0.078182839 0.99657768 0.0026896193
0.010537063 0.016691972 0.015707204 0.016835093 0.044533163 0.99886602 0.0020199786
0.013487605 0.016820852 0.015625451 0.015439279 0.030049177 0.99942917 0.0018311843
0.016664606 0.016899236 0.015517696 0.020443253 0.0016513045 0.99978966 0.001769793
0.01952783 0.016740005 0.015382137 0.034910154 -0.074950352 0.99657601 0.001348115
0.022459984 0.016950414 0.015231025 0.045410808 -0.11483128 0.99234653 0.0017655436
0.025132395 0.017358446 0.015135054 0.053743932 -0.13847892 0.98890603 0.0013502841
0.027159462 0.017708173 0.015079889 0.051733166 -0.13243219 0.98984116 0.00096915103
-0.040046923 0.020456966 0.015401124 -0.28546822 -0.48054507 0.82920706 0.0019963707
-0.037500512 0.019712701 0.015832847 -0.26095518 -0.47070211 0.84281784 0.0015613707
-0.034480873 0.019524215 0.01643787 -0.16439214 -0.38594753 0.90775537 0.0031046607
