# .PCD v0.7 - Point Cloud Data file format
VERSION 0.7
FIELDS x y z normal_x normal_y normal_z curvature
SIZE 4 4 4 4 4 4 4
TYPE F F F F F F F
COUNT 1 1 1 1 1 1 1
WIDTH 568
HEIGHT 1
VIEWPOINT 0 0 0 1 0 0 0
POINTS 568
DATA ascii
0.075198039 0.071728319 0.0032056072 0.75117481 -0.38744226 0.53443879 0.044110361
0.068804964 0.073270917 0.0030242919 -0.49155444 -0.043398105 0.8697648 0.0063694329
0.070620209 0.073353484 0.0043192366 -0.18983229 -0.12847671 0.97337425 0.023779476
0.073681116 0.07336726 0.0046269759 0.45194972 -0.21317263 0.86619788 0.034024086
0.075580038 0.073409311 0.0036158261 0.79942578 -0.11951626 0.5887565 0.08182583
0.068846673 0.075566188 0.0034428723 -0.20543481 -0.074898474 0.97580051 0.020884931
0.070727594 0.075202651 0.0048808935 -0.23390968 -0.1263366 0.96401525 0.049798239
0.072651066 0.075251944 0.0052302955 -0.20590961 -0.12659089 0.97034842 0.046198111
-0.015063591 0.0029086955 0.0060703303 -0.23117988 -0.90602988 0.35449371 0.0092362948
-0.013104456 0.0028191721 0.0064377044 -0.16501406 -0.88587219 0.43359065 0.00092682318
-0.010389413 0.0025726163 0.0067871497 -0.1209668 -0.88003075 0.4592526 0.0015503283
-0.0073599792 0.0023740244 0.0070820558 -0.083348379 -0.88132036 0.46511027 0.0017187441
-0.0044125705 0.0022698436 0.0073056896 -0.050246924 -0.88128495 0.46990636 0.0017513288
-0.0014990367 0.0021768666 0.0073434333 -0.021560723 -0.88159209 0.47151929 0.0017150167
0.0014987463 0.002163362 0.0073552639 0.006450349 -0.87985647 0.47519571 0.0017444695
0.0045010191 0.0022226882 0.0073185456 0.033790741 -0.87760925 0.47818425 0.001613759
0.0074308119 0.0023257183 0.0071713612 0.059604488 -0.8717314 0.48634505 0.0013977516
0.010488597 0.0025195819 0.0070051751 0.084476814 -0.86467999 0.49516875 0.0010171962
0.013430513 0.0026391817 0.0066336771 0.10503893 -0.85562509 0.50682592 0.00078759302
0.016219025 0.0028166107 0.0063745589 0.11988575 -0.85217994 0.50932962 0.00062874542
0.018882878 0.0029205391 0.0061405241 0.14878583 -0.85830188 0.4911015 0.0011196493
-0.024539299 0.0057354937 0.0063961656 -0.29106987 -0.86663288 0.40524787 0.0010322299
-0.022263749 0.0053863525 0.0071126395 -0.25428677 -0.86029291 0.44185323 0.0011140851
-0.019449003 0.0048062461 0.007511823 -0.23011687 -0.85636085 0.46226862 0.001159095
-0.016491508 0.0040749493 0.0075024068 -0.19141403 -0.86622608 0.46153337 0.001085546
-0.013598616 0.003664895 0.0078300694 -0.15622069 -0.85625178 0.49236974 0.0011800766
-0.010619954 0.0034011828 0.0082199126 -0.11402224 -0.85348487 0.50849044 0.0015116074
-0.0076960861 0.0032409767 0.0085268496 -0.080196708 -0.82552612 0.55863684 0.0010876093
-0.0047312286 0.0031672784 0.0087700495 -0.046099935 -0.82076699 0.56940001 0.0012841877
-0.0015596029 0.0031083983 0.0088916142 -0.019014431 -0.81674635 0.57668352 0.0013103881
0.0016715719 0.003076219 0.0088943439 0.0080978954 -0.81524312 0.57906216 0.0013891297
0.0047107539 0.003125537 0.0088124061 0.037594292 -0.83178705 0.55382037 0.0017104978
0.0077388654 0.0032325566 0.0086736353 0.066584356 -0.81608063 0.57408965 0.0012152763
0.010578482 0.003360047 0.0084412703 0.092874065 -0.81732285 0.56864554 0.00091162277
0.013545002 0.0035443187 0.008088436 0.11242986 -0.83429509 0.53973252 0.00070481485
0.016557897 0.003818227 0.0077861636 0.12877232 -0.82514155 0.55005372 0.00060516875
0.019538023 0.0041585364 0.0075505055 0.15115772 -0.81622338 0.55761158 0.00087790872
0.022497527 0.0046567488 0.0075009898 0.16169468 -0.79991943 0.57791328 0.0016779462
0.025405839 0.0050410242 0.0072354772 0.18797892 -0.80620402 0.56098038 0.0026808449
0.028346339 0.0054834206 0.0068548326 0.2187852 -0.81927317 0.5300231 0.0034711452
0.030573698 0.0058224737 0.0063593895 0.27433774 -0.82806224 0.48892918 0.0031012979
-0.033422701 0.0088197058 0.0062834616 -0.35008714 -0.88068902 0.31910157 0.0042516869
-0.031169811 0.0084398417 0.0072788298 -0.31156823 -0.84956098 0.42564231 0.0010994483
-0.02850011 0.0076413751 0.0075493995 -0.29479551 -0.84445077 0.44721189 0.00126347
-0.02569948 0.0067943954 0.0077306759 -0.27466214 -0.84671342 0.45567214 0.00095110992
-0.02291075 0.0062917322 0.0084178643 -0.24882838 -0.83285379 0.49440768 0.00091989804
0.023498919 0.0061649885 0.0089548286 0.17477229 -0.73437673 0.65585476 0.00023034502
0.025965599 0.0063237264 0.008638774 0.1737911 -0.73431826 0.65618086 0.00027694655
0.028699055 0.0066387765 0.0082672257 0.19575779 -0.74624521 0.63623655 0.0015011738
0.031634461 0.0070137717 0.0076660495 0.23730758 -0.79728723 0.55499387 0.0034601481
0.03447799 0.0078063514 0.0074728304 0.26465303 -0.79112995 0.55142748 0.0035043515
0.037250716 0.0084598698 0.0068972935 0.32592919 -0.81407291 0.48068222 0.0029249594
0.039237805 0.00886307 0.0061575267 0.34973666 -0.81249529 0.46640724 0.0024380602
-0.039443471 0.011627795 0.0067086387 -0.41515952 -0.8139205 0.40641844 0.0011951649
-0.037485208 0.011010382 0.0072348299 -0.37425497 -0.82601732 0.42146006 0.00091714546
-0.03458314 0.0098840008 0.00749197 -0.3497597 -0.83880568 0.41722086 0.00083859934
-0.031973202 0.009403076 0.0085105831 -0.30681583 -0.82844186 0.46855971 0.00082983129
0.035610724 0.0091615701 0.0088058934 0.27752966 -0.70119137 0.65674043 0.0034759408
0.037802324 0.0095528625 0.0082416916 0.2861017 -0.75223309 0.59354115 0.0026263099
0.040533472 0.010244683 0.0075418451 0.35050264 -0.79529011 0.49463278 0.0028241922
0.043222681 0.011262895 0.0071732276 0.38628486 -0.78749591 0.48024392 0.002620843
0.045315057 0.01177376 0.0062460327 0.4034701 -0.78818405 0.46473411 0.0022146634
-0.045442656 0.014888522 0.0063478001 -0.50522256 -0.7891475 0.34927988 0.0051558195
-0.043339223 0.014134713 0.007328005 -0.4604328 -0.78337646 0.41752011 0.0015369012
-0.040642131 0.012812089 0.007692527 -0.41345116 -0.79953116 0.43566951 0.0010287334
-0.038443327 0.012264956 0.0087048179 -0.3825098 -0.78011543 0.4950819 0.00094788527
0.04413566 0.012457329 0.0083295843 0.36491084 -0.7479257 0.55447936 0.0032995932
0.046563651 0.013239045 0.0075440002 0.41416422 -0.77115542 0.48351553 0.0026094599
0.049084943 0.014346422 0.0070007904 0.46074221 -0.75546044 0.46582839 0.0019890112
0.051032066 0.014989937 0.0060983971 0.46995893 -0.75236529 0.46161145 0.0025095651
-0.048703559 0.017431296 0.0070779398 -0.52596009 -0.73955613 0.42002705 0.0010401357
-0.046576507 0.016264107 0.007589858 -0.50973213 -0.75547224 0.41162458 0.00091436924
-0.044366233 0.015317594 0.0084527386 -0.46818131 -0.75461209 0.45974651 0.00093954965
0.047897253 0.015040128 0.0088829445 0.39126319 -0.66795653 0.63304597 0.0016348555
0.050015181 0.015644595 0.0081038987 0.44336995 -0.74142331 0.50370091 0.00375304
0.052386198 0.01668822 0.0073417039 0.48396584 -0.73629051 0.47291994 0.002550585
0.054513589 0.017640641 0.0065285969 0.51934373 -0.71731287 0.46448287 0.001390073
-0.052198358 0.020165488 0.0073672789 -0.54767686 -0.72411418 0.41917625 0.0010236576
-0.049957007 0.018742763 0.0077502877 -0.53412497 -0.73602623 0.41590366 0.00099970284
0.053494882 0.01834923 0.0085615031 0.50592393 -0.65719593 0.55868995 0.0026828451
0.055669729 0.019254139 0.0075821541 0.55043346 -0.6973455 0.45905587 0.0012357384
0.057731885 0.020349437 0.0067947861 0.57415587 -0.66260165 0.48094085 0.0019432256
-0.057455018 0.023763536 0.0062524956 -0.65172839 -0.69350231 0.30709073 0.010903171
-0.055367954 0.022677075 0.007426287 -0.58090746 -0.69494849 0.42378423 0.00093186775
-0.053356625 0.021470346 0.008123843 -0.56006193 -0.71236491 0.42292657 0.00092407432
0.056709904 0.021132691 0.0086769965 0.54593027 -0.6205371 0.56293327 0.0010710456
0.058824431 0.022090217 0.007772041 0.57989842 -0.63778597 0.50689942 0.002365472
0.060756017 0.023213699 0.006888594 0.61201829 -0.59965986 0.51559836 0.0012540687
-0.060083177 0.026395081 0.0062828665 -0.66305399 -0.60831404 0.4362492 0.001498315
-0.058080532 0.025279056 0.0076338509 -0.63063633 -0.63211542 0.4502531 0.0010904719
-0.056531318 0.024391042 0.0084847957 -0.58706081 -0.65281039 0.47874641 0.002054035
0.059829772 0.024187345 0.0087950248 0.59325558 -0.57356703 0.56486177 0.0019430865
0.06186391 0.025199333 0.0077551021 0.64564687 -0.5423876 0.5375461 0.0037462229
0.063565828 0.026224324 0.0067505129 0.67041647 -0.54261822 0.50607038 0.0016849783
-0.061129421 0.028449424 0.0073857466 -0.6845879 -0.56680197 0.45833927 0.00085933198
-0.059458092 0.027246289 0.0083170719 -0.63539463 -0.55390209 0.53802061 0.0015535827
0.062669717 0.027255671 0.008778776 0.60554588 -0.49105388 0.62624305 0.0023160533
0.064566642 0.028393725 0.0075042755 0.70394015 -0.45607719 0.54448324 0.0022791857
0.066279806 0.029666722 0.0064111818 0.72195113 -0.46043187 0.51651615 0.0024584427
-0.063546449 0.031358965 0.0071431776 -0.70762968 -0.48455858 0.51425987 0.0022278863
-0.062586129 0.031309023 0.0084052049 -0.68081176 -0.45633584 0.57293361 0.0028808457
0.065501899 0.030882383 0.00832099 0.66386026 -0.35951269 0.65577441 0.0011189698
0.066932671 0.031767387 0.0071126944 0.74334455 -0.38694841 0.54562777 0.0026869786
-0.066600859 0.035300445 0.0061878823 -0.75225312 -0.4490149 0.48218346 0.0036475114
-0.064966142 0.034970991 0.0081919422 -0.71419609 -0.38721597 0.58308458 0.0034114444
0.067766368 0.034384247 0.0076178946 0.75381845 -0.29955465 0.58482885 0.0020101524
0.069227226 0.035465281 0.0062169619 0.79250962 -0.32036275 0.51893753 0.0022411656
-0.066672757 0.036720425 0.00716135 -0.76589048 -0.37108582 0.52507824 0.0023912298
-0.065785266 0.037156977 0.0085811745 -0.70342094 -0.32783833 0.63065124 0.0016841715
0.068340532 0.037289083 0.008197464 0.75523168 -0.20579091 0.62231433 0.0023558205
0.069512121 0.037549287 0.0068037058 0.80028898 -0.22559884 0.55555624 0.0025481691
-0.068329699 0.039968133 0.0068373228 0.84135371 0.24242474 -0.48306745 0.0081533985
0.068630829 0.040220801 0.0086101042 0.70683277 -0.11110566 0.69860077 0.0023522542
0.069954805 0.040504094 0.0070672217 0.79886752 -0.13483991 0.58619875 0.0023482004
0.068781443 0.043466065 0.0087870834 0.67708796 -0.01745653 0.735695 0.0037736364
0.070102662 0.043419305 0.0072883293 0.78965569 -0.048521798 0.61162853 0.0029718687
-0.045556955 0.04756029 0.0074455687 0.37247744 0.73382705 0.56811833 0.0010988626
-0.043724999 0.04690307 0.0069370968 0.38366702 0.74050337 0.55177391 0.00065128936
0.068708383 0.046246797 0.0087997969 0.62623841 0.055056181 0.77768523 0.0041363114
0.070232034 0.04639253 0.0071904096 0.76935381 0.010722154 0.63873303 0.0034461219
-0.06951873 0.050134379 0.0076831058 -0.30189189 0.2214255 0.92727131 0.0034046231
-0.068024114 0.049654745 0.0085368585 -0.32804641 0.25830165 0.9086616 0.0036308314
-0.054313395 0.050625399 0.0087293535 0.2440384 0.68002748 0.69138122 0.00083572499
-0.052505605 0.050325107 0.0081780031 0.27554607 0.69501615 0.66409856 0.00085636537
-0.049474485 0.049420848 0.0076163439 0.3379468 0.72003555 0.60608649 0.00021264059
-0.047081724 0.048269361 0.0075424239 0.37472948 0.72984481 0.57175559 0.0010538303
0.06827116 0.049391977 0.0085749757 0.52626681 0.17209263 0.8327229 0.0044200104
0.070133187 0.049280111 0.0070982538 0.74423587 0.046766631 0.66627765 0.0050748312
-0.070281424 0.052587729 0.0070820195 -0.24256733 0.22233276 0.94431418 0.0014900006
-0.067258283 0.052746136 0.0081101861 -0.2174419 0.30380821 0.92758805 0.0080796173
-0.064694874 0.052324247 0.0086379368 -0.17991164 0.43087143 0.88429725 0.0084194606
-0.061584398 0.052820846 0.0082749408 0.023818703 0.57303888 0.81918204 0.003786088
-0.054827854 0.051727843 0.0076719695 0.24246554 0.68114889 0.69083047 0.0025090633
-0.052965589 0.051380873 0.0071603875 0.27545029 0.69509178 0.6640591 0.00082053349
0.065291457 0.052259166 0.0086278571 0.26062703 0.33119577 0.90685338 0.0043670163
0.068162695 0.052154012 0.0079176687 0.5382151 0.18502651 0.82224673 0.0066542844
0.070144221 0.051973611 0.0066818986 0.76633734 0.087329589 0.63647503 0.0044887168
-0.070642978 0.055127602 0.0066095637 -0.09070719 0.31023073 0.94632399 0.01147566
-0.067829095 0.055702366 0.0068554347 -0.01715935 0.39659229 0.91783452 0.011058276
-0.064871073 0.054925129 0.0070688054 0.10379513 0.62446815 0.77412283 0.0082860775
-0.061481267 0.05467255 0.0064055035 0.081073374 0.65154457 0.75426573 0.0038071906
0.065024726 0.054787334 0.0073022884 0.24695735 0.32784483 0.91188264 0.0057647638
0.06770432 0.05537178 0.006956839 0.3027944 0.32006237 0.89770579 0.0096004205
0.069688641 0.054903552 0.0063778069 0.65326059 0.16050766 0.73992425 0.0049888175
-0.070522815 0.057326406 0.0060477396 0.02960535 0.44523212 0.89492565 0.017896855
0.067803018 0.05757875 0.0061014174 0.26902196 0.24951981 0.93025106 0.0074137268
-0.019069836 0.0057542436 0.0093049696 -0.21169101 -0.80148405 0.55929434 0.00082811358
-0.016388176 0.005425422 0.0097179795 -0.17333293 -0.7940045 0.58267713 0.0011057778
-0.013461347 0.0051403851 0.010091814 -0.14086741 -0.78676832 0.60095924 0.0011638749
-0.010484098 0.0048873336 0.010338664 -0.10552597 -0.77399528 0.62433618 0.0011270243
-0.0074407528 0.0046696053 0.010466817 -0.073467679 -0.77316177 0.6299392 0.0016431356
-0.0044705626 0.0045221741 0.01054367 -0.036209881 -0.77024138 0.6367237 0.0010536894
-0.0015302786 0.0044103838 0.010530115 -0.015242043 -0.76690483 0.64157981 0.0013868088
0.0014681532 0.0044342037 0.010567817 0.012431193 -0.7513929 0.659738 0.0015913573
0.0045045805 0.0044652303 0.01049702 0.039144859 -0.75504196 0.65450692 0.0017339202
0.0075320192 0.004628656 0.010467549 0.062213097 -0.74590886 0.66313612 0.0017777857
0.010509047 0.0047891014 0.010329832 0.091094583 -0.75179666 0.65307236 0.001507502
0.013514043 0.0050402707 0.010173569 0.11662372 -0.7516765 0.64913893 0.0014361218
0.016449336 0.0052626901 0.0098476615 0.13803245 -0.75632799 0.6394645 0.001111761
0.019291183 0.005572285 0.0094903605 0.15888508 -0.75203782 0.63968319 0.00075756392
0.021654272 0.0058456571 0.0091111874 0.16441689 -0.74813664 0.64285201 0.00049466727
-0.028071901 0.0086980537 0.0096304761 -0.27591869 -0.79413325 0.54149902 0.00072773546
-0.025294611 0.0081858197 0.010185753 -0.25027847 -0.78793073 0.56260628 0.0013196705
-0.022409305 0.0075500435 0.01049116 -0.22219843 -0.78031963 0.58457607 0.0012482338
-0.019531369 0.0069698622 0.010761405 -0.20061809 -0.77191615 0.60323942 0.0012210048
-0.016602773 0.0066168066 0.011184648 -0.15663502 -0.75629807 0.63519967 0.0011347426
-0.013753761 0.0063559902 0.011532672 -0.1215046 -0.7134338 0.69010776 0.00096156681
-0.010910749 0.006228968 0.011840233 -0.084978245 -0.69553471 0.71344948 0.0011029906
-0.0081791952 0.0060775205 0.011924759 -0.050839063 -0.7179814 0.6942032 0.0016559649
0.0080858208 0.0060782377 0.011875832 0.042814542 -0.66860801 0.74238151 0.0031508228
0.010860853 0.0061425045 0.011729508 0.080615819 -0.71472567 0.69474328 0.0015565968
0.013619617 0.0064665638 0.011691066 0.10287903 -0.69558674 0.71103793 0.0018826084
0.016691903 0.0066631152 0.011367991 0.13204896 -0.70470268 0.6971063 0.0017459705
0.019633047 0.0069393669 0.011007286 0.16032448 -0.69672596 0.69919163 0.001566641
0.02255296 0.00726785 0.010556676 0.17824692 -0.7014274 0.69009244 0.0011338451
0.025406426 0.0077796467 0.010283783 0.18726487 -0.69498128 0.69421381 0.00054666563
0.02837497 0.0081348354 0.0098541295 0.19693322 -0.69547337 0.69103831 0.00056314241
0.031350326 0.0084991185 0.0094717024 0.20500761 -0.69874102 0.68537068 0.00088756153
0.033726722 0.0087899249 0.0091192964 0.23805253 -0.71751183 0.65460503 0.001601845
-0.036658388 0.011712492 0.0091695162 -0.36065742 -0.7861495 0.50189161 0.00097178435
-0.034365848 0.011272259 0.0099780923 -0.32215574 -0.77487057 0.54386699 0.001036811
-0.031495746 0.010569927 0.010546247 -0.28918856 -0.77469146 0.56233716 0.0010923991
-0.028633555 0.0098510161 0.010962537 -0.26455855 -0.76764894 0.5837155 0.0013505263
-0.02582111 0.0093900897 0.011550729 -0.22418605 -0.73162204 0.64379323 0.0012319311
-0.023443662 0.0090489453 0.011958783 -0.20619854 -0.7074343 0.67603177 0.00083028316
0.02599182 0.0093127005 0.011705738 0.18561356 -0.66945398 0.71929061 0.00050949526
0.028678754 0.0097115971 0.011254527 0.19524476 -0.6645087 0.72132361 0.00030019382
0.031561781 0.010220919 0.010903244 0.20264138 -0.63615531 0.74447489 0.00057297718
0.034437742 0.010457261 0.010371748 0.21302196 -0.65839005 0.7219032 0.0011917613
0.037418142 0.010965168 0.0099479137 0.25078872 -0.68283165 0.6861822 0.0024806573
0.040120035 0.01154336 0.0094989166 0.3027651 -0.67577308 0.6720596 0.0020035075
-0.042417809 0.014677282 0.0092548579 -0.4416655 -0.75020051 0.4920679 0.00072276569
-0.040279519 0.014112053 0.010066041 -0.40179217 -0.74162447 0.53717417 0.00090675539
-0.037538081 0.013198346 0.010687971 -0.35070285 -0.73835224 0.57605863 0.0006700636
-0.034827583 0.01250366 0.011378732 -0.30757582 -0.7320441 0.60787213 0.0010455046
0.034880877 0.012278774 0.011688528 0.20897089 -0.61222076 0.76257253 0.00031340055
0.037591804 0.012732137 0.011356559 0.22221494 -0.59789193 0.7701596 0.00062139635
0.040577959 0.013302769 0.01086625 0.25479102 -0.59301609 0.7638151 0.00081453659
0.043381263 0.01372879 0.010148342 0.33837816 -0.65896291 0.67176491 0.0024610055
0.046000954 0.014433462 0.0095307324 0.37521708 -0.66877288 0.64183724 0.0030211555
-0.046018612 0.017270811 0.0097337402 -0.47763011 -0.70753223 0.52083361 0.0011308
-0.0436127 0.016302889 0.010405655 -0.44393796 -0.71638501 0.53824866 0.0016132511
-0.040965322 0.015487856 0.011359035 -0.39154285 -0.70384133 0.59270698 0.00099944882
0.0415872 0.015144432 0.011917718 0.24539572 -0.56605381 0.78699678 0.00048564011
0.043788057 0.015685892 0.011573997 0.28209791 -0.5762943 0.76701093 0.0011692446
0.046642851 0.016253509 0.01083961 0.33075798 -0.57629806 0.74731493 0.0013474039
0.049290951 0.01688786 0.010019931 0.4056904 -0.63754004 0.65494883 0.0024285209
0.051586319 0.017628681 0.0092876563 0.45326477 -0.65262002 0.60715568 0.0019609046
-0.051356249 0.020825863 0.0094415024 -0.5020619 -0.66792351 0.54937428 0.0012776606
-0.049181856 0.019833885 0.010179566 -0.49916771 -0.67609841 0.54196167 0.0012954189
-0.046771806 0.01875709 0.010962704 -0.46350807 -0.68603861 0.56081307 0.0014833329
-0.044716138 0.018084902 0.011835628 -0.42030248 -0.65537661 0.62755662 0.0022223648
0.047510326 0.018177092 0.01188549 0.32280666 -0.56597048 0.75859952 0.00097241555
0.0497781 0.01884787 0.011384204 0.35501409 -0.52344894 0.77457488 0.0014749955
0.052421201 0.019499557 0.010430262 0.41731516 -0.5722025 0.70599735 0.002391476
0.054802388 0.020300984 0.0095752999 0.5007028 -0.5974893 0.62634122 0.0024245412
-0.054724947 0.023700759 0.0096214525 -0.54803574 -0.62956363 0.55073267 0.00071767572
-0.052410983 0.022555504 0.010488868 -0.50558114 -0.65093344 0.56628031 0.0014624554
-0.050162204 0.021567829 0.011363996 -0.48195997 -0.63012332 0.60881788 0.00070204388
0.053182762 0.021653609 0.011616897 0.3776769 -0.49395344 0.78317946 0.0020051962
0.055629671 0.022350462 0.010643543 0.44874543 -0.50296736 0.73868221 0.0013998584
0.05791932 0.023156712 0.0096888347 0.53145224 -0.5464043 0.64730275 0.0022261597
-0.057649225 0.026389232 0.0095309615 -0.61498994 -0.5755946 0.53896034 0.001168853
-0.055447236 0.025395047 0.010689855 -0.55756104 -0.55901897 0.61369658 0.0012581619
-0.053514175 0.024496825 0.011570428 -0.52961838 -0.5690648 0.62902272 0.0012156493
0.056383651 0.024600664 0.011683539 0.43332922 -0.42951611 0.79230154 0.0018008632
0.058612496 0.025353769 0.010715477 0.47879556 -0.43715286 0.76134896 0.00081746513
0.060792953 0.026073053 0.009590392 0.57733727 -0.49901465 0.64627087 0.0016574777
-0.060293932 0.029383497 0.0094615789 -0.63312232 -0.50685304 0.58502662 0.0023521543
-0.058559909 0.028426085 0.01042936 -0.60319209 -0.49959427 0.62174344 0.0013442332
-0.05656483 0.027412884 0.011518955 -0.56168312 -0.51955843 0.64387202 0.0012210031
-0.0067854305 0.029478818 0.011043716 0.1333836 0.6289376 0.76592839 0.0012555999
-0.0033033437 0.028926594 0.011013811 0.10252228 0.63079405 0.76914757 0.00082286599
0.0076202517 0.027772186 0.011607067 -0.028672105 0.54934591 0.83510298 0.0015496231
0.059368599 0.027792491 0.011594242 0.47305679 -0.35253996 0.80742359 0.0016589953
0.061523329 0.028478412 0.010471839 0.54417348 -0.37730512 0.74934375 0.0017293171
0.063403532 0.02923324 0.0093907295 0.6309132 -0.42164895 0.65127617 0.0019993703
-0.063055404 0.032919239 0.009117594 -0.67125624 -0.39835167 0.62508476 0.0013249237
-0.061061956 0.031531543 0.010272799 -0.64186573 -0.42168528 0.64046067 0.0019740504
-0.059350561 0.030678477 0.011351308 -0.59800297 -0.40718699 0.69035584 0.0019916047
-0.018642459 0.032060146 0.011744929 0.21987192 0.66588438 0.71291959 0.0004227146
-0.016258765 0.031719748 0.011255844 0.21950126 0.66907114 0.71004438 0.00024101236
-0.013494316 0.03100759 0.011124413 0.2016135 0.65248293 0.7304917 0.00053236505
-0.010056593 0.030257801 0.010980204 0.16808611 0.6470539 0.7436856 0.00058580807
0.062033284 0.031248474 0.011385481 0.50652659 -0.29721251 0.8093797 0.0011007894
0.064194143 0.03157137 0.0099247163 0.6189087 -0.34049419 0.70782459 0.0018599351
-0.063614987 0.034871385 0.0097185299 -0.65922612 -0.34240073 0.66946447 0.0023340352
-0.061656028 0.0338507 0.011076819 -0.61542481 -0.35135773 0.70554954 0.0013414703
-0.025529409 0.035094462 0.011293004 0.27846441 0.66696173 0.69110036 0.0003987978
-0.023041639 0.03439606 0.01082935 0.26727057 0.68200129 0.68076485 0.0003053064
-0.020434402 0.033244576 0.011151686 0.23100954 0.66496158 0.71025395 0.00043086766
0.062629543 0.033802748 0.011847856 0.48278049 -0.19963969 0.85268223 0.0021402023
0.064578064 0.034402806 0.010675221 0.58643156 -0.24683861 0.77147186 0.0019206052
0.066428311 0.03497852 0.0093838833 0.67633802 -0.27095613 0.68494499 0.0017107166
-0.064331487 0.037112571 0.010097355 -0.65247691 -0.2765305 0.70555282 0.0012805804
-0.062476605 0.036952425 0.011642646 -0.60938048 -0.26204798 0.74832231 0.0016983248
-0.034141589 0.038473394 0.011837281 0.30465072 0.66563302 0.68126398 0.00046724023
-0.031601924 0.038020112 0.010963279 0.29906946 0.66841239 0.68101573 0.00041405702
-0.028383464 0.036745075 0.010815461 0.29355282 0.6633172 0.68835825 0.00041670434
0.06476783 0.03732948 0.011245334 0.52814358 -0.12844244 0.83938485 0.0014744714
0.066877954 0.037645981 0.0097408732 0.65502429 -0.17714962 0.73454827 0.0023041423
-0.066282593 0.040354647 0.0093330387 -0.6533286 -0.21816626 0.72495884 0.0033499124
-0.06474556 0.040376388 0.010665431 -0.617401 -0.18344106 0.76496106 0.0014983437
-0.039920688 0.041418608 0.011658113 0.30402318 0.6474548 0.69883633 0.0007630678
-0.037291698 0.040817518 0.01087599 0.31962219 0.67041022 0.66962069 0.00030346191
-0.034614395 0.039907396 0.010413207 0.31684187 0.67304784 0.66829473 0.00031994522
0.064966694 0.040347051 0.011440416 0.49209908 -0.029024579 0.8700552 0.0019432446
0.067253657 0.040556762 0.0098940264 0.62325233 -0.07463403 0.7784512 0.0031902129
-0.065166615 0.043378193 0.010727719 -0.47088253 0.068605006 0.87952429 0.0056140097
-0.062992536 0.044316255 0.01193 -0.38289577 0.12757529 0.91494012 0.006413037
-0.045573704 0.044365782 0.011348898 0.28433093 0.62517989 0.72684664 0.00085582078
-0.043298207 0.043718673 0.010892889 0.30720434 0.64883649 0.69615859 0.00041637005
-0.040903427 0.043052305 0.010351856 0.31170031 0.65369052 0.68958801 0.00047261358
-0.038648508 0.042185403 0.010099755 0.32289508 0.67924899 0.65905964 0.00013019179
0.05376311 0.043901123 0.011793233 -0.080652907 0.35841793 0.93007082 0.0011199769
0.05575775 0.044386599 0.011951821 -0.039034706 0.3561666 0.9336068 0.0014566657
0.062509552 0.044602081 0.011910026 0.15518692 0.22917318 0.96093529 0.0044663129
0.064753406 0.043391202 0.011426414 0.46148559 0.067136258 0.88460374 0.003559469
0.067322537 0.043314684 0.0099692317 0.60150599 -0.0045856256 0.79885513 0.0034688318
-0.066678315 0.046184972 0.0097090602 -0.50327879 0.047871664 0.86279708 0.0027405818
-0.064132817 0.046824638 0.010961826 -0.36728665 0.20806126 0.90653795 0.0040190089
-0.06139262 0.046976656 0.011772903 -0.17015137 0.34709051 0.9222672 0.0048018405
-0.058515973 0.0476273 0.011836282 -0.0060397359 0.46311542 0.88627744 0.0029093947
-0.054650288 0.047420707 0.011654668 0.11141756 0.59593326 0.79526711 0.0030220887
-0.052568793 0.047184136 0.011350507 0.20577578 0.61846215 0.75839365 0.002505586
-0.049684413 0.046649568 0.010841004 0.28979489 0.67220867 0.68128878 0.0020526561
-0.046906009 0.045964956 0.010301947 0.30346972 0.68563342 0.66167438 0.0023768474
-0.044469021 0.045136247 0.0099642826 0.33932552 0.72922266 0.59421587 0.0030291837
0.058580119 0.045847155 0.011626158 0.0053763161 0.32127866 0.94696945 0.0034389535
0.061526924 0.046394452 0.011431537 0.14200872 0.29092467 0.94614822 0.0023912457
0.065187782 0.046151619 0.010770687 0.40541303 0.15672602 0.90059829 0.0030974511
0.067385457 0.046209004 0.0097146044 0.59452444 0.071552917 0.80088758 0.0048918468
-0.066351101 0.049016189 0.0095285615 -0.3256329 0.26826569 0.90664041 0.0037818714
-0.064513251 0.049484268 0.010061929 -0.28785607 0.31923714 0.90289897 0.0059786574
-0.061789602 0.049504653 0.010613411 -0.11966827 0.45239794 0.88375092 0.0037000857
-0.058377966 0.04939628 0.010714044 0.025662953 0.5352667 0.84429324 0.0022134064
-0.055439465 0.049183287 0.010428667 0.15192093 0.62880212 0.7625798 0.0021188399
-0.05254782 0.048912864 0.0097728996 0.26391935 0.68597716 0.67807215 0.0014507518
-0.050785277 0.048480019 0.0095314756 0.3117556 0.67576563 0.66794413 0.0015853458
0.062246472 0.048781924 0.010385236 0.18670659 0.2935909 0.93752068 0.0037042773
0.064617857 0.049354386 0.0099227075 0.25866249 0.27822322 0.92503279 0.0018578818
0.066983685 0.048990864 0.0093770493 0.50674564 0.18288675 0.84247333 0.0032797905
-0.064742953 0.051729582 0.0090135839 -0.17996888 0.43097672 0.88423431 0.0083854897
-0.061354544 0.051024336 0.0097169457 -0.017749941 0.53312117 0.84585273 0.0028135248
-0.057292894 0.051313438 0.0090127373 0.17787933 0.65385097 0.73541683 0.0026112481
0.064608023 0.051119152 0.0091989432 0.25092337 0.32444358 0.91201639 0.0037122818
-0.0072988956 0.0059638014 0.012057996 -0.055296317 -0.68146461 0.7297591 0.0010354315
-0.003853621 0.0058851284 0.012089401 -0.029495906 -0.71824956 0.69516003 0.0010020854
-0.0012717429 0.0058649662 0.012117334 -0.0061829067 -0.70816839 0.70601654 0.0011026815
0.0014175449 0.0059046466 0.012139827 0.020839503 -0.68634492 0.72697753 0.0018252344
0.0041928799 0.0058779703 0.012119886 0.035058044 -0.70116258 0.71213901 0.0011314842
0.007618574 0.0059942985 0.012016197 0.057138979 -0.70299846 0.70889235 0.001181771
-0.021711115 0.0087664295 0.012255805 -0.19841117 -0.70310545 0.6828438 0.001019851
-0.019265598 0.0084274523 0.012513834 -0.17240052 -0.70146221 0.6915409 0.001241407
-0.016356217 0.008139425 0.012851349 -0.1403359 -0.66838145 0.73046017 0.0011255773
-0.013453063 0.0077989441 0.013003573 -0.1043184 -0.67740542 0.72817552 0.0012183908
-0.010490353 0.007625517 0.013188896 -0.068351917 -0.66466856 0.7440052 0.0010142281
-0.0075220088 0.0075026657 0.013302166 -0.033708051 -0.63089013 0.77513957 0.001816316
-0.0045723864 0.0074358415 0.013358481 -0.017769532 -0.61877912 0.78536397 0.0013143532
-0.0014570433 0.0074033234 0.013359979 0.0047761872 -0.59149444 0.80629492 0.001103928
0.0015846818 0.0074156555 0.013317426 0.02258265 -0.59060073 0.80664784 0.0016171867
0.0045461967 0.007406557 0.013200616 0.039859973 -0.58193076 0.81226093 0.0016302274
0.0074820663 0.0074653761 0.013074484 0.05737336 -0.58710855 0.80747253 0.0021738913
0.010513513 0.0075439028 0.012908928 0.074204318 -0.5996154 0.79684067 0.0017593065
0.013578097 0.0079156617 0.012877665 0.092738986 -0.5991829 0.79522282 0.0016809748
0.016562061 0.008142204 0.012669801 0.1134249 -0.61440027 0.78079891 0.0019939223
0.019408166 0.008477319 0.012480053 0.13878962 -0.61925602 0.77282554 0.0022466739
0.02194 0.0087477621 0.012213126 0.16185752 -0.66453069 0.7295211 0.0015951018
-0.030739561 0.011707457 0.012362845 -0.2716864 -0.69853514 0.66199332 0.00080461137
-0.028456978 0.011347566 0.012784477 -0.2389632 -0.69111884 0.68209338 0.0010336261
-0.025369281 0.010806244 0.013202332 -0.20263782 -0.68868911 0.69616467 0.0015166616
-0.022512427 0.010433682 0.013610986 -0.16992939 -0.64545763 0.74465328 0.0013468213
-0.019642634 0.010130453 0.013989051 -0.15401885 -0.62401825 0.7660805 0.0015992675
-0.016610824 0.0098490529 0.014295373 -0.11390503 -0.58910584 0.79998749 0.0012640283
-0.013559054 0.0095749702 0.014475089 -0.078206547 -0.57890707 0.8116343 0.0015460183
-0.010565332 0.0095657529 0.014694591 -0.049385268 -0.57575643 0.81612837 0.0013449391
-0.0076044295 0.0094786221 0.014749841 -0.023993744 -0.55599535 0.83083904 0.0012593468
-0.0044038068 0.0094709145 0.014779244 -0.0029977164 -0.49145788 0.8708961 0.0022611322
-0.0015175323 0.0094803525 0.014753525 0.015212073 -0.48355091 0.87518406 0.0018984148
0.0014587874 0.0095306924 0.01470515 0.030909419 -0.47129339 0.88143468 0.0019281795
0.0045661852 0.0096349502 0.014638667 0.045037329 -0.46557674 0.88386083 0.0018495108
0.0076442999 0.009891686 0.014596554 0.060136374 -0.4587009 0.88655353 0.0018638418
0.010536581 0.0099992799 0.014456245 0.0673512 -0.45768622 0.88655919 0.0015755789
0.013502386 0.010284233 0.014357954 0.083319776 -0.46459454 0.8815949 0.0016729567
0.016518632 0.010406315 0.014111263 0.10040092 -0.47763443 0.87280291 0.0016190106
0.019558698 0.010406896 0.013741971 0.11852977 -0.49679586 0.85973519 0.001599339
0.022487884 0.010372364 0.013265186 0.1486349 -0.54835963 0.82292724 0.0025731188
0.025401831 0.010690629 0.012941033 0.17070061 -0.57561249 0.79970717 0.0019537157
0.028408503 0.01113633 0.012593939 0.18393794 -0.59480417 0.78254384 0.0015463881
0.031110162 0.011665478 0.012267993 0.19720174 -0.60483533 0.77154762 0.0005438985
-0.0368145 0.014318992 0.012446473 -0.33574924 -0.68769091 0.64370304 0.00091003737
-0.034491953 0.013878885 0.013047577 -0.28937468 -0.67933577 0.67436278 0.0014704257
-0.031645596 0.013350437 0.013623044 -0.25053716 -0.65781772 0.71028662 0.0010302867
-0.028495163 0.012895197 0.014237091 -0.20971127 -0.63162839 0.74636906 0.0013715174
-0.025519362 0.012476451 0.014682013 -0.1796359 -0.62581939 0.75900006 0.0013168562
-0.023524515 0.012295716 0.014958547 -0.14164095 -0.62523973 0.76747191 0.0014330412
0.016838513 0.012130955 0.014948137 0.085940972 -0.35972902 0.92909056 0.0011914311
0.019588185 0.012432854 0.014773694 0.098577946 -0.37175635 0.92308158 0.0019239052
0.022725256 0.012791325 0.014569859 0.12035304 -0.4019165 0.90773243 0.0019083316
0.025615299 0.013213024 0.01437401 0.13443223 -0.42274785 0.89622104 0.0018096612
0.028521918 0.013403687 0.014000189 0.15029857 -0.45702544 0.87666309 0.0014370495
0.031519096 0.013415258 0.013412931 0.18930598 -0.50972247 0.83925343 0.002223022
0.034369886 0.013680998 0.012880531 0.19661891 -0.54581773 0.81450838 0.00077811076
0.037283305 0.014215988 0.012469211 0.21056204 -0.55577701 0.80422354 0.00050900009
0.039691485 0.014595889 0.012111198 0.23890701 -0.56571275 0.78923541 0.00058310869
-0.042679422 0.017523911 0.012543584 -0.39544633 -0.63519102 0.66344148 0.0011274223
-0.039927009 0.016299425 0.012827695 -0.35490429 -0.65630096 0.66581672 0.0014704172
-0.037649583 0.016214384 0.013871088 -0.31677067 -0.62264419 0.71552122 0.0015050714
-0.034674164 0.01549106 0.014468253 -0.26440829 -0.63630217 0.72471225 0.00099379569
-0.032033827 0.015014326 0.01498922 -0.21683587 -0.58224839 0.78356177 0.0011316458
0.029018113 0.015517377 0.014887818 0.12596944 -0.33830231 0.93256813 0.0018165702
0.031672712 0.015848322 0.014671612 0.14675526 -0.38437966 0.91143578 0.0025146294
0.034647804 0.016326621 0.014405937 0.16576548 -0.43039086 0.88729107 0.0017966386
0.037531879 0.016400337 0.013813369 0.19092585 -0.4647809 0.86459595 0.001258151
0.040464833 0.016501522 0.013088625 0.22461864 -0.50534487 0.83317047 0.00051283953
0.043357398 0.017079694 0.01263151 0.25745934 -0.51666033 0.81656402 0.0010323981
0.045617908 0.017616229 0.012259751 0.29647198 -0.53988826 0.78779757 0.0014699987
-0.046216331 0.02013107 0.012787939 -0.42987907 -0.61971515 0.65662551 0.0011543471
-0.043373298 0.019351168 0.013716173 -0.37870657 -0.59813827 0.70626622 0.0019902501
-0.040778078 0.018659167 0.014541958 -0.33300278 -0.57253784 0.74920595 0.0012776044
0.037794743 0.018425545 0.014784505 0.17119929 -0.36974484 0.91322488 0.0025167593
0.040654752 0.019110434 0.014472838 0.20602703 -0.40390658 0.89129806 0.0011150521
0.043512195 0.019491551 0.013890936 0.23201579 -0.41875982 0.87795717 0.00053930678
0.046482299 0.019523785 0.013033369 0.27648973 -0.46113753 0.84315211 0.00092547637
0.049184721 0.020154199 0.012480971 0.32242742 -0.48580196 0.81242663 0.0017508991
0.051389467 0.020850122 0.012077215 0.38011783 -0.51795143 0.76631379 0.0021608549
-0.051399007 0.023705289 0.012472835 -0.48187187 -0.57285231 0.66305333 0.001519047
-0.04919894 0.022667233 0.013059888 -0.45024961 -0.5667336 0.68999153 0.0017207204
-0.046807401 0.022203419 0.01414066 -0.40357569 -0.52238619 0.75115865 0.0010094463
-0.044706993 0.021536164 0.014778953 -0.35868901 -0.51725608 0.77703822 0.0030440378
-0.0032317424 0.023989804 0.014929542 0.090868369 0.50801575 0.85654128 0.0010702679
0.0021559079 0.023480617 0.014813376 0.045355152 0.41011003 0.91090763 0.0022358669
0.0044938773 0.023384968 0.014771958 0.018955711 0.42232895 0.90624446 0.0023521723
0.0072013158 0.023313269 0.014775893 -0.0057005193 0.41645601 0.90913802 0.0019056766
0.010178253 0.023460669 0.014739303 -0.025707239 0.39307609 0.91914654 0.0023233094
0.013264356 0.023503397 0.014830678 -0.043457527 0.36927831 0.92830217 0.0023774614
0.015687728 0.023633927 0.014942822 -0.068547696 0.32679704 0.94260544 0.0026396278
0.044072691 0.021659607 0.014751244 0.21898438 -0.33724779 0.91559255 0.0015910625
0.046669018 0.022365643 0.014314599 0.25448745 -0.36859551 0.89407694 0.00072783261
0.049538169 0.022440555 0.013460564 0.29739422 -0.39886817 0.86744505 0.00066442956
0.052244753 0.022762945 0.012656965 0.34868538 -0.4295508 0.83300936 0.001960011
0.054278255 0.023589576 0.012201925 0.4090347 -0.46014962 0.78800571 0.0021297049
-0.054310478 0.026417863 0.012522856 -0.52211791 -0.52422935 0.67273808 0.0011490617
-0.052389178 0.025638398 0.013279732 -0.47161019 -0.50717634 0.72135699 0.0022944373
-0.04989573 0.024996828 0.014356993 -0.42127711 -0.47514862 0.77250201 0.0016249486
-0.012614761 0.026579373 0.014770566 0.17060602 0.56774062 0.80533481 0.0010227442
-0.010046574 0.026222935 0.014508862 0.1523388 0.51954502 0.8407532 0.0016800299
-0.0071955067 0.025849072 0.014283228 0.13564757 0.52646768 0.83930427 0.0012391655
-0.0044025294 0.025210619 0.014323669 0.095106274 0.52223903 0.84747934 0.0011971784
-0.0015045132 0.025328407 0.013910766 0.067758925 0.56505251 0.82226783 0.0024607172
0.0013557776 0.025302555 0.013703766 0.065672979 0.5171172 0.85339141 0.00090866897
0.0043431823 0.025181221 0.01366927 0.025170689 0.54368711 0.83891046 0.0015045382
0.0074201515 0.025161047 0.013651923 -0.020220328 0.54323471 0.83933735 0.0017784074
0.01083004 0.024937283 0.013915087 -0.04124314 0.51762873 0.8546108 0.002087682
0.013251048 0.025118979 0.013950724 -0.049219016 0.43473986 0.8992101 0.00025201324
0.016221862 0.025200929 0.014166072 -0.066258736 0.42125088 0.90452063 0.00062664045
0.019611763 0.025458055 0.014465067 -0.081707433 0.39902163 0.9132939 0.0018797041
0.022587182 0.025931979 0.014652183 -0.099089272 0.35308373 0.93032962 0.0034154509
0.02554754 0.026635163 0.014703006 -0.081071541 0.30021536 0.95042002 0.00089284853
0.027707484 0.026793148 0.014939409 -0.090135075 0.26286894 0.96061212 0.001919257
0.047600165 0.02437485 0.014840581 0.21775143 -0.26516792 0.93929243 0.0023331924
0.04976058 0.025196381 0.014487445 0.27576041 -0.3053647 0.91143215 0.00091598072
0.052569598 0.025498681 0.01368055 0.30654588 -0.32953805 0.89299178 0.00067615748
0.055326473 0.025625536 0.012688014 0.37634581 -0.37028041 0.84926808 0.0022256954
0.057299137 0.026676705 0.012234122 0.45221752 -0.40341124 0.79546136 0.0022007397
-0.057174932 0.029493365 0.012413815 -0.53763986 -0.43034226 0.72508544 0.0014003888
-0.055378079 0.028496221 0.013113569 -0.50926191 -0.4439525 0.73726428 0.001739382
-0.053069007 0.028056126 0.014358889 -0.45060822 -0.4054946 0.79531527 0.0018381202
-0.021575104 0.02952751 0.014944684 0.2118842 0.50627518 0.8359369 0.0018998905
-0.019263815 0.029408362 0.014391777 0.21733916 0.60671324 0.7646324 0.0010901805
-0.01654516 0.028893037 0.014024753 0.21761167 0.59455562 0.77404708 0.0021893231
-0.01368189 0.028184786 0.013842206 0.18608929 0.6129632 0.76788467 0.0015876029
-0.010775203 0.028125573 0.013232209 0.1578958 0.62585455 0.76378989 0.0014760698
-0.0079221865 0.028004929 0.012756019 0.13338123 0.62892324 0.76594061 0.0012600545
-0.0043296609 0.027433833 0.012658986 0.11285283 0.59639347 0.79471952 0.0026723461
0.0046489039 0.027327815 0.012014252 0.046971306 0.54560363 0.83672601 0.0011710721
0.02051539 0.027798109 0.013198834 -0.12003145 0.41463035 0.90203887 0.0008817265
0.02583164 0.027553178 0.014322476 -0.12866095 0.34356347 0.93027443 0.0026300298
0.028778402 0.028323816 0.014372757 -0.0957487 0.33998558 0.93554372 0.00048819016
0.031426884 0.028815603 0.014561348 -0.11007889 0.34081796 0.93366259 0.00068006536
0.034579799 0.029490538 0.014770465 -0.11058632 0.30225673 0.94679016 0.00161585
0.050673734 0.027508497 0.014867547 0.20405169 -0.17011596 0.96406609 0.003490434
0.052694138 0.028212937 0.014517312 0.28873095 -0.23761174 0.92745626 0.0012699028
0.055539887 0.028482946 0.013612201 0.34144828 -0.26995683 0.90029794 0.00055672979
0.058218408 0.028727083 0.012589724 0.41572785 -0.30809399 0.85571522 0.0020941547
-0.058083877 0.031350341 0.012738315 -0.56020993 -0.36303952 0.74455833 0.0021262001
-0.055666938 0.031163946 0.014250431 -0.47274014 -0.30717504 0.82593 0.0014157093
-0.02847553 0.032607969 0.014763164 0.24189842 0.58969676 0.77054709 0.00084914605
-0.025167214 0.031990308 0.01414501 0.24100709 0.59857053 0.76395613 0.0022169028
-0.022444732 0.031339567 0.013762055 0.24547723 0.63824081 0.72965038 0.0021518574
-0.019558132 0.030953595 0.013194909 0.22695222 0.64338768 0.73112583 0.0012156081
-0.016655685 0.030689327 0.012518676 0.21995977 0.64281899 0.73375851 0.00097346882
-0.014024598 0.030104345 0.012267299 0.19132096 0.64467555 0.74012828 0.00079469441
0.032255437 0.030336527 0.013974945 -0.10690476 0.30082676 0.94766802 0.0014701212
0.034502339 0.031122463 0.013987673 -0.12008613 0.29659796 0.94742233 0.0013041968
0.037524201 0.031181391 0.014517168 -0.12299327 0.31847128 0.93991953 0.00069776422
0.040692385 0.031994283 0.014724751 -0.099365011 0.26098129 0.96021634 0.0018278785
0.043601196 0.032422904 0.014984835 -0.11350635 0.24592987 0.96261871 0.0018699751
0.053574491 0.030728066 0.01478256 0.24808811 -0.13571511 0.95918387 0.0020695985
0.055584371 0.031473119 0.014323913 0.29038918 -0.16822952 0.94200474 0.0016739821
0.058531474 0.031422805 0.013252877 0.36945596 -0.21563977 0.90388143 0.001857892
0.060666531 0.031828631 0.012381718 0.46428701 -0.26350158 0.84557945 0.002041149
-0.060569748 0.035165802 0.012502028 -0.58818614 -0.31678101 0.74410135 0.0012332943
-0.058385078 0.034156181 0.013617008 -0.50229281 -0.22078529 0.83603573 0.0029194094
-0.056286227 0.033619106 0.014679294 -0.44140932 -0.20696177 0.87311202 0.0028779316
-0.034107849 0.035430603 0.014546593 0.26137829 0.59236562 0.76209217 0.0011048715
-0.031294066 0.034642301 0.014146006 0.26869795 0.58039737 0.76872647 0.0011831941
-0.028451532 0.034320571 0.013317668 0.28020668 0.63257533 0.72203368 0.0014162465
-0.02561466 0.033539146 0.012985586 0.25973845 0.64661378 0.71723533 0.0014765869
0.040705871 0.034144126 0.013818039 -0.13767363 0.31317779 0.93966258 0.00098824035
0.04364134 0.033937484 0.014491894 -0.12360919 0.3165977 0.94047153 0.0014222588
0.046565495 0.034927934 0.014575731 -0.11844558 0.30260217 0.9457286 0.0013964906
0.049520425 0.035078961 0.014823334 -0.061756462 0.2366109 0.9696399 0.0023730621
0.052758232 0.034817405 0.014873974 0.031722538 0.13231955 0.99069941 0.003843342
0.055625271 0.034192786 0.014563871 0.26741326 -0.09538839 0.95884889 0.0024140293
0.058587033 0.03440427 0.013767622 0.35233474 -0.13141567 0.92660141 0.0019984699
0.061322805 0.034549762 0.012683704 0.42135134 -0.15112661 0.8942169 0.0020899547
-0.061732277 0.03808919 0.012456917 -0.54379147 -0.16978744 0.82186568 0.005743708
-0.058390696 0.037323695 0.014202803 -0.38300988 -0.040523473 0.92285496 0.0031055473
-0.04264725 0.038699951 0.014850354 0.19106835 0.53261018 0.82451153 0.0013521188
-0.040687863 0.038371652 0.014508829 0.23772024 0.58224887 0.77748019 0.0013308149
-0.037430409 0.037564456 0.014049189 0.26949921 0.57856441 0.76982689 0.0010157742
-0.034656707 0.037067294 0.013417738 0.3005805 0.62850493 0.71737921 0.0016767837
-0.031638343 0.036548913 0.012606258 0.29875782 0.63938266 0.70847279 0.0010249126
-0.029880686 0.036217973 0.012139172 0.29776695 0.65363848 0.69576693 0.00031087152
0.043526992 0.036263492 0.01342785 -0.12521285 0.3145889 0.94093335 0.0013459621
0.046632506 0.037325781 0.01363334 -0.11923099 0.33690426 0.93395907 0.0007935249
0.049491208 0.037459128 0.014065073 -0.066866465 0.2896018 0.95480871 0.0018628869
0.052582249 0.03742009 0.014368449 -0.023798512 0.2518687 0.9674688 0.003853396
0.0555498 0.037350453 0.014322493 0.096678451 0.15923019 0.98249638 0.0047830087
0.058585677 0.037185807 0.013893623 0.31955656 -0.043689124 0.94655949 0.0021750028
0.061641861 0.037401948 0.012881604 0.39246759 -0.073901698 0.91679215 0.0018913876
0.063301116 0.037387006 0.012129731 0.4862839 -0.098032065 0.86828434 0.0023364634
-0.061449468 0.040275522 0.012875625 -0.47611082 -0.021142788 0.87913114 0.0063406108
-0.05858187 0.040470164 0.014078193 -0.32367945 0.11233298 0.93947482 0.0053329938
-0.055772375 0.040483065 0.014793003 -0.20211241 0.18850549 0.96104962 0.0043213135
-0.052436486 0.041687209 0.014680532 0.01054487 0.37747505 0.92595977 0.004003311
-0.04942264 0.041223727 0.014679524 0.11258059 0.45256498 0.88459635 0.0022025032
-0.046481904 0.041034084 0.014239748 0.19503525 0.5319106 0.82403427 0.0021686738
-0.043595072 0.040449016 0.013881722 0.242845 0.56481326 0.78867763 0.0012575807
-0.040584553 0.040131927 0.013125435 0.28894314 0.6293087 0.72144473 0.0015800766
-0.03801199 0.039260894 0.01285918 0.28924805 0.6424318 0.70965976 0.0010470251
0.050279401 0.040450856 0.012863913 -0.094198771 0.34516507 0.93380284 0.0010895079
0.052732419 0.040391702 0.013347397 -0.074616008 0.32723778 0.94199145 0.0017611185
0.055645574 0.040442795 0.013581097 -0.0093402592 0.30266938 0.9530499 0.0042885747
0.058605894 0.040358521 0.013479663 0.15648985 0.17336859 0.97234476 0.0041513522
0.061732396 0.040528901 0.012818401 0.37688756 0.014922754 0.92613882 0.002898081
0.063235201 0.039999805 0.012307775 0.45141929 -0.013109702 0.89221567 0.0024544422
-0.061220646 0.04338615 0.012759478 -0.33847609 0.16684529 0.92606515 0.0034407554
-0.058308236 0.043557648 0.013536763 -0.20498601 0.26337495 0.94266343 0.006412196
-0.055386327 0.043257628 0.013970239 -0.070873976 0.38134095 0.92171359 0.0051030023
-0.052291512 0.043604769 0.013707513 0.038220283 0.45426521 0.89004624 0.0035170463
-0.049277481 0.043560486 0.013212869 0.18239594 0.54590631 0.81775188 0.0022012924
-0.046833213 0.043163668 0.012855158 0.23428126 0.6211043 0.74789155 0.0019603267
-0.044111416 0.042452291 0.012487467 0.27805918 0.63781124 0.71824783 0.0010288078
0.055817008 0.042652357 0.012799276 -0.037444137 0.33388722 0.94186902 0.0018366976
0.058714647 0.043349661 0.012664064 0.044253044 0.29155645 0.95552945 0.0026384101
0.061364423 0.043237973 0.012446416 0.16557251 0.23886959 0.95683181 0.0046075066
0.063140124 0.042906072 0.012134105 0.39617226 0.059271567 0.91626114 0.0023511469
-0.060996752 0.045709297 0.012341734 -0.18562469 0.36010823 0.91425687 0.0049771653
-0.058751903 0.046117462 0.012544339 -0.077518485 0.40515512 0.91095573 0.0050194915
-0.055688817 0.046077613 0.012612432 0.042755794 0.48928562 0.87107497 0.0025952982
-0.052178483 0.045587093 0.0124784 0.15310702 0.57536221 0.80344045 0.003964521
-0.021716431 0.011883661 0.015038483 -0.1428578 -0.60724568 0.78156537 0.0011108799
-0.019037189 0.011672553 0.015250028 -0.11443797 -0.56699812 0.81573099 0.0022161745
-0.016283298 0.011365887 0.015386251 -0.085787259 -0.54549772 0.83371025 0.0016307806
-0.013415868 0.011061993 0.015446867 -0.050342631 -0.51207024 0.85746706 0.0021237407
-0.010428806 0.011092086 0.015617012 -0.025137758 -0.48139974 0.87614059 0.0021938886
-0.0075059202 0.010952066 0.015596271 -0.0043249819 -0.45573875 0.89010304 0.0021714279
-0.004476422 0.010908857 0.015564089 0.011134241 -0.42898092 0.90324491 0.0026858877
-0.0014944001 0.010913089 0.015503866 0.023502015 -0.4273003 0.90380424 0.0019972201
0.0014527893 0.010967347 0.015422533 0.03813614 -0.41923961 0.90707427 0.0018930444
0.0043642116 0.011103842 0.015342814 0.047488056 -0.41300678 0.90948904 0.0019561492
0.0072747008 0.01139091 0.015309241 0.056137435 -0.41379246 0.90863878 0.0018396601
0.010407001 0.011555462 0.015210215 0.061406799 -0.4125464 0.9088645 0.0019544442
0.012981823 0.011762617 0.015103916 0.071050085 -0.39631534 0.91536117 0.00096110336
0.015281999 0.011946628 0.015061237 0.065681241 -0.31267002 0.94758821 0.0015413604
-0.030521786 0.014692153 0.015161307 -0.21529679 -0.60746664 0.76461208 0.0012472981
-0.028293887 0.014354691 0.015430744 -0.18801169 -0.58242744 0.79084122 0.0016187652
-0.025424911 0.013945114 0.015721735 -0.14065179 -0.53083432 0.83572251 0.0023754437
-0.022519274 0.013518676 0.015923532 -0.11555749 -0.50118876 0.85758752 0.0025764601
-0.019571876 0.013427979 0.016232526 -0.097313255 -0.47104478 0.87672514 0.0021625471
-0.01650852 0.013322745 0.016437344 -0.049137179 -0.41801292 0.90711123 0.0022878449
-0.013408705 0.013381913 0.016580509 -0.024211545 -0.38872018 0.92103767 0.0021813402
-0.010525362 0.01361322 0.016685313 0.00027955568 -0.35630864 0.93436819 0.0020240413
-0.0075774784 0.013517533 0.016613012 0.017541386 -0.33097616 0.94347608 0.0022651388
-0.0046019913 0.013473213 0.016511412 0.028314594 -0.29831931 0.95404607 0.002635902
-0.0014722241 0.013212497 0.016334334 0.030194249 -0.2841213 0.95831281 0.0023925316
0.0014415588 0.013278555 0.016222233 0.035220407 -0.27844527 0.95980603 0.0021763945
0.0044849371 0.013300568 0.016079323 0.047148626 -0.28853825 0.95630676 0.0014069645
0.0076005538 0.013436777 0.015947551 0.049780332 -0.28540033 0.95711476 0.0012776215
0.010504529 0.013288152 0.015749816 0.053203274 -0.30481499 0.9509244 0.0015022481
0.013458845 0.013459296 0.015610191 0.066056833 -0.30973908 0.94852424 0.0011772765
0.016405461 0.013643015 0.01546121 0.075612076 -0.31114742 0.94734895 0.001062376
0.019366343 0.013811004 0.015293565 0.077307731 -0.32183677 0.94363374 0.0015122616
0.022317627 0.014288135 0.015189983 0.093426138 -0.35414514 0.93051207 0.0020866513
0.024860747 0.014758901 0.01509206 0.1088943 -0.38367531 0.91702527 0.0018618181
-0.037231166 0.017694985 0.015275017 -0.28998771 -0.57417524 0.76565653 0.001961919
-0.034311619 0.017004011 0.015700128 -0.22721429 -0.53765547 0.81197298 0.0022813734
-0.031482298 0.016479824 0.01607785 -0.18851639 -0.50041777 0.84501106 0.0023076066
-0.028572991 0.016415073 0.016618192 -0.14308396 -0.45176336 0.88058889 0.0017376058
-0.025585296 0.016377488 0.017020864 -0.0948162 -0.3892625 0.91623396 0.0027814629
-0.022577381 0.016345263 0.01727212 -0.050722666 -0.32352358 0.94485956 0.0031788386
-0.019500772 0.01625469 0.017391725 -0.028042952 -0.2915498 0.95614451 0.0043040537
-0.016635124 0.016089059 0.017381212 -0.022107963 -0.27604699 0.96088988 0.0046391604
-0.013817228 0.015998296 0.01731867 0.0059382212 -0.24816684 0.9686991 0.0042403904
-0.010603715 0.016409293 0.017303009 0.040212113 -0.17494081 0.9837575 0.0047943229
-0.0076307906 0.016334224 0.017153377 0.049156256 -0.15093061 0.98732144 0.0047634654
