# .PCD v0.7 - Point Cloud Data file format
VERSION 0.7
FIELDS x y z normal_x normal_y normal_z curvature
SIZE 4 4 4 4 4 4 4
TYPE F F F F F F F
COUNT 1 1 1 1 1 1 1
WIDTH 564
HEIGHT 1
VIEWPOINT 0 0 0 1 0 0 0
POINTS 564
DATA ascii
-0.050290242 0.020527298 -0.0055113053 -0.51630211 -0.67522895 -0.52678078 0.00074248028
-0.053744905 0.023138421 -0.0055445279 -0.54683787 -0.68659389 -0.47912136 0.00082902075
-0.05834401 0.026647409 -0.0050086519 -0.62206602 -0.62974995 -0.46524066 0.00049492798
-0.056480113 0.025250738 -0.005453242 -0.58511931 -0.67093074 -0.45550779 0.00030581764
-0.061526846 0.02936111 -0.0041991253 -0.099770129 0.57329726 -0.81325042 0.0042348132
-0.059335046 0.027577415 -0.004883972 -0.63452297 -0.63111335 -0.44617996 0.00040190879
-0.063904732 0.032124206 -0.0042547663 -0.72195256 -0.5841825 -0.37083042 0.001567485
-0.062391948 0.030729432 -0.0046837004 -0.69583797 -0.58038318 -0.42304248 0.0014437414
-0.0096431766 0.032958679 -0.0058442801 0.19543917 0.88263571 -0.42750186 0.0004555941
-0.0069248029 0.032828018 -0.0054980689 0.16192064 0.92586637 -0.34139881 0.0024549067
-0.0043173069 0.032641921 -0.0049672513 0.13450238 0.92892706 -0.34496903 0.0021548828
-0.0014444209 0.032445643 -0.0045188805 0.11248544 0.94356376 -0.31150344 0.002694471
0.0014850794 0.03221925 -0.0045242696 0.055238016 0.9486534 -0.31145731 0.0026923576
0.0044532879 0.032123689 -0.0045230496 0.01317009 0.94199854 -0.33535853 0.002580994
0.0075012334 0.032150272 -0.0045027933 -0.039074056 0.94570458 -0.32267022 0.0027873998
0.010521267 0.032341287 -0.0045265225 -0.096371844 0.94805717 -0.30315006 0.0024604667
0.013377556 0.03257617 -0.0047022807 -0.14093059 0.9353438 -0.32445398 0.0024367538
0.01604845 0.032784287 -0.0054190005 -0.19506107 0.92424065 -0.32822308 0.002414203
0.018036865 0.032975122 -0.0055940379 -0.20262587 0.92414099 -0.3238923 0.0026887055
-0.066569135 0.035535935 -0.0041694716 -0.76168472 -0.5279122 -0.37569284 0.002413176
-0.065106198 0.03407722 -0.0049046595 -0.7331993 -0.55981195 -0.38604325 0.0031550834
-0.018616753 0.035829782 -0.0054512508 0.30365175 0.9000082 -0.31269932 0.0023988921
-0.016390363 0.035382636 -0.0046218741 0.29551613 0.91180527 -0.28509891 0.0022676173
-0.013475652 0.034604762 -0.0045149135 0.24327882 0.92237908 -0.30005348 0.0020862713
-0.010486759 0.033886928 -0.0044844304 0.19519821 0.93400401 -0.29922268 0.0021292244
-0.0076753423 0.03341816 -0.004212962 0.15999956 0.94289213 -0.29215512 0.0022236118
-0.0048812563 0.033171948 -0.0035944607 0.13256587 0.94755268 -0.29080963 0.002381325
-0.0026720909 0.033023663 -0.0033177382 0.09935458 0.97525114 -0.19751944 0.0020994016
0.014288701 0.033105981 -0.0034187753 -0.13551177 0.96006292 -0.24477695 0.0015221434
0.01669739 0.033360053 -0.0040995977 -0.19127241 0.93911976 -0.28542766 0.0022670033
0.0195019 0.033910107 -0.0045094038 -0.22605871 0.92936182 -0.29186308 0.0019218872
0.022504037 0.034708906 -0.0045447205 -0.266377 0.917642 -0.29491776 0.0016816696
0.025304055 0.035497371 -0.0046962043 -0.29928198 0.90969461 -0.28789943 0.0018245127
0.027469719 0.035849698 -0.0055594146 -0.3027879 0.90190655 -0.30803272 0.002025997
-0.069076724 0.038938913 -0.0037742928 -0.80040133 -0.44650841 -0.39998496 0.0043166336
-0.067815647 0.037850324 -0.0047351117 -0.77621216 -0.46236917 -0.42861351 0.0030819445
-0.065856576 0.036000334 -0.0059305006 -0.72885215 -0.52731395 -0.43670884 0.0026139934
-0.027251283 0.038894534 -0.0058781118 0.3942377 0.83413166 -0.38574743 0.0017091422
-0.025099739 0.038497951 -0.0047545522 0.38332918 0.87954283 -0.28189206 0.0019583444
-0.022488607 0.037531156 -0.0045282762 0.34115043 0.89359409 -0.29172921 0.002104928
-0.019670429 0.036546152 -0.0043413374 0.31198764 0.9074977 -0.28126761 0.0023118772
-0.017634211 0.036125008 -0.0035079168 0.29042023 0.92261952 -0.25382945 0.001558073
0.026459264 0.036175665 -0.0036328556 -0.28967571 0.91906494 -0.26722226 0.0016805422
0.028599113 0.036651347 -0.0044055548 -0.30422705 0.91062444 -0.27965868 0.0020209115
0.03150126 0.037650045 -0.0044800634 -0.34949881 0.89310205 -0.28323001 0.0020129357
0.033966489 0.038561616 -0.0047744946 -0.40427068 0.86692899 -0.29154634 0.0026587772
0.07010489 0.036945093 -0.0055456772 0.74334717 -0.16005024 -0.64947581 0.0018440309
-0.069786876 0.040992454 -0.0042844159 -0.81895769 -0.37969163 -0.43028179 0.0040118275
-0.068705715 0.040151622 -0.0054896236 -0.78890812 -0.39108723 -0.47399879 0.0037640298
-0.033186011 0.041824486 -0.0056233024 0.4213953 0.83786511 -0.34699848 0.0036061127
-0.031310096 0.041350689 -0.0047075544 0.42477238 0.86117536 -0.27918714 0.0019283619
-0.028484402 0.040082075 -0.004485521 0.3923265 0.87565595 -0.28161439 0.0021293086
-0.026302481 0.039285403 -0.0039498424 0.37339681 0.88633412 -0.27383682 0.0019007041
0.035265341 0.039403833 -0.0040906831 -0.40597016 0.86652917 -0.29037121 0.0025485586
0.037513312 0.0404962 -0.0044762935 -0.46903908 0.83237332 -0.29522362 0.002653694
0.039697986 0.041633215 -0.0049285064 -0.50670791 0.814412 -0.28280765 0.0020432344
0.071053013 0.041149624 -0.0050087022 0.8341437 -0.098254405 -0.54272491 0.0035181744
-0.070615649 0.04340452 -0.0045384606 -0.85020912 -0.29859155 -0.43357515 0.0031959419
-0.039185468 0.044833779 -0.0055475468 0.43117756 0.84373671 -0.31967834 0.0028315946
-0.037237335 0.044341918 -0.0047582714 0.44681835 0.84380436 -0.29723307 0.0022515196
-0.034533747 0.043036923 -0.004460129 0.42912364 0.85667497 -0.28628808 0.0021705667
-0.032451853 0.042234752 -0.0036967017 0.42043555 0.86315006 -0.27965325 0.0019309729
0.040970594 0.042659178 -0.0042309337 -0.49220389 0.82085299 -0.28971645 0.0020621042
0.043341611 0.044028018 -0.004598144 -0.51574475 0.80418861 -0.29544553 0.0021041723
0.045335349 0.044798933 -0.005704531 -0.47942415 0.77675056 -0.40842509 0.0022886873
0.071187079 0.044135448 -0.0052811392 0.80303258 -0.0031232932 -0.59592712 0.0017783171
0.072268106 0.043492999 -0.0030489161 0.88898015 -0.037226006 -0.4564302 0.0048756278
-0.072265752 0.047059327 -0.0036395553 -0.83719987 -0.26413357 -0.47888404 0.0052781976
-0.070974551 0.046870511 -0.0053924629 -0.72568893 -0.11375099 -0.67855453 0.0040160324
-0.045088693 0.047907475 -0.0057660248 0.43852001 0.80728918 -0.39494866 0.0045745629
-0.043029666 0.04746579 -0.0047684917 0.45940706 0.83071983 -0.31440359 0.002154591
-0.040552553 0.046230812 -0.004475649 0.44913641 0.83769113 -0.31072512 0.0022668673
-0.038447432 0.045312334 -0.0038206067 0.43900281 0.84644139 -0.30135286 0.0021243943
0.044640992 0.045237865 -0.0036200385 -0.50864106 0.80736941 -0.29906335 0.0019929691
0.046568334 0.046145301 -0.0044235145 -0.50982136 0.79886299 -0.3192181 0.0026484674
0.048922967 0.047428947 -0.0048613637 -0.50480169 0.79259008 -0.34201783 0.0031512303
0.071270548 0.046526078 -0.0051420615 0.79138196 0.051901229 -0.60911477 0.0022725239
0.072236642 0.046187907 -0.0033854283 0.89628869 0.0038072106 -0.44345471 0.0043089301
-0.072680868 0.049743496 -0.0040969793 -0.74050522 -0.19444825 -0.64330542 0.0060536102
-0.071357884 0.049406499 -0.0055180001 -0.62729853 -0.040874578 -0.77770549 0.0061416752
-0.051561493 0.05099171 -0.0059671463 0.34795374 0.75753415 -0.55233163 0.0022109384
-0.048916142 0.050544411 -0.004961262 0.4356817 0.82798231 -0.35302511 0.0030593704
-0.04651263 0.049483225 -0.004490057 0.44965607 0.82969993 -0.33076796 0.0023315933
-0.044251103 0.048433881 -0.0040228474 0.43834585 0.83488363 -0.33289963 0.0023572978
0.050117671 0.048561856 -0.0040639751 -0.50325722 0.78514105 -0.36095104 0.0025148729
0.05238837 0.049804229 -0.0045876177 -0.5037719 0.78177923 -0.36747122 0.0028783472
0.054520935 0.050689172 -0.0054109967 -0.4743638 0.76234335 -0.44024035 0.0044357828
0.071171753 0.049498096 -0.0050315126 0.76814675 0.081111722 -0.63511533 0.0030735412
0.072189219 0.049258139 -0.0035523064 0.79692096 0.061875027 -0.60090643 0.0022719419
-0.073011227 0.052855164 -0.0046964074 -0.59890556 -0.025297757 -0.80041993 0.0054356116
-0.071654439 0.052579407 -0.0057124798 -0.49188662 0.022932852 -0.87035716 0.0081259068
-0.05764677 0.053847548 -0.0057853772 0.24526577 0.78681111 -0.56636816 0.0028526818
-0.055175398 0.053478908 -0.0049556256 0.32423839 0.8521083 -0.41082963 0.003832937
-0.052490383 0.052546367 -0.0045236219 0.3789382 0.83673275 -0.39532775 0.0028423227
-0.050048757 0.051491454 -0.0041462681 0.42369586 0.83651733 -0.34744883 0.0029092745
0.053671706 0.051185984 -0.0034555218 -0.49417093 0.79232091 -0.35780245 0.0019863837
0.055708352 0.05199929 -0.0043123332 -0.46404788 0.78273672 -0.41470811 0.0040122946
0.058207046 0.053185087 -0.0048166444 -0.45372421 0.75153822 -0.47887856 0.0060525755
0.060394134 0.053722326 -0.0057754423 -0.38133663 0.65800446 -0.64931685 0.0045852941
0.07085117 0.052537974 -0.0050035459 0.70026642 0.12492391 -0.70286626 0.0079617463
0.072136879 0.05233207 -0.0034505408 0.78237349 0.073923178 -0.61840683 0.0060610925
-0.075160444 0.05596609 -0.0032416556 -0.84355611 0.28361005 -0.45604661 0.044072241
-0.073819973 0.055951633 -0.004366715 -0.62840766 0.3875384 -0.67447585 0.032623742
-0.071013704 0.056125365 -0.0057552131 -0.32189801 0.29422712 -0.89989567 0.013301894
-0.067165896 0.056685202 -0.0058429791 0.057279155 0.55929935 -0.82698447 0.0069152657
-0.064253807 0.056398448 -0.0054295235 0.23409443 0.65585786 -0.71766996 0.0059550502
-0.061436933 0.055799395 -0.0046420214 0.32699129 0.78105414 -0.53200662 0.0083849328
-0.058594223 0.054875296 -0.0044279941 0.26555744 0.84829092 -0.45812854 0.0038398362
-0.056032836 0.054342818 -0.0038422595 0.32273084 0.87074274 -0.37101477 0.0030389698
0.059250254 0.054499988 -0.0037927302 -0.48289555 0.74247247 -0.46426985 0.0047117569
0.061478421 0.05551013 -0.0045181992 -0.44279441 0.69221711 -0.56988466 0.0072674216
0.06401892 0.056325775 -0.0054907687 -0.33542678 0.55126023 -0.76393777 0.0070533096
0.068165317 0.056526203 -0.0058879037 0.032318309 0.36789405 -0.92930591 0.013434544
0.070378646 0.055567086 -0.0050404798 0.48335078 0.19270958 -0.85395259 0.013464532
0.072117239 0.056351233 -0.0032862837 0.72004741 0.054008741 -0.69181985 0.008531943
-0.075029649 0.057040118 -0.0032725635 -0.77557391 0.55706304 -0.29692745 0.068353072
-0.07308837 0.058054939 -0.0039353557 -0.49112168 0.70642954 -0.50966346 0.018824616
-0.070530452 0.058897868 -0.004383238 -0.22373991 0.71532041 -0.66200989 0.028134346
-0.067468576 0.058585878 -0.0045100832 0.15033364 0.70920587 -0.68878639 0.01295575
-0.064720877 0.057948351 -0.0040419973 0.34789026 0.73728329 -0.57912499 0.0064923209
-0.062518753 0.057299171 -0.0033995481 0.41073462 0.74540931 -0.52503532 0.0065499763
0.062605068 0.057418738 -0.0034109799 -0.55569333 0.6077221 -0.56734359 0.0090255188
0.064512208 0.058352832 -0.0042848699 -0.528018 0.48461488 -0.69738466 0.017541351
0.067062773 0.05878507 -0.0052635795 -0.27391946 0.40787169 -0.87098151 0.012386546
0.069890849 0.058316894 -0.0050571668 0.085501887 0.24850011 -0.96485084 0.015062062
0.07232444 0.058639489 -0.003153607 0.43049949 0.044456147 -0.90149534 0.015498104
-0.069418862 0.06009924 -0.0032174231 -0.12361804 0.91140133 -0.39251271 0.025658367
-0.068229929 0.060149502 -0.0032474818 0.069201447 0.88398778 -0.46235994 0.033389911
0.065392599 0.061034843 -0.0034398073 -0.63529551 0.33869442 -0.69403583 0.01626198
0.067195967 0.06153718 -0.0043287668 -0.45039317 0.26790482 -0.85168827 0.021389486
0.069959715 0.061380863 -0.004592977 -0.11989588 0.22203721 -0.96763855 0.010737811
0.072213016 0.06213823 -0.0032296919 0.29332793 -0.0066321492 -0.95598882 0.020781139
0.06580966 0.063366503 -0.0031462079 -0.79238254 0.32030335 -0.51916832 0.036854453
0.067405447 0.064415768 -0.003721752 -0.54747617 0.19393706 -0.81403828 0.015184819
0.069884144 0.064484529 -0.0043195095 -0.3131249 0.12225915 -0.94180971 0.016868854
0.072207436 0.065007359 -0.0035226331 0.085851088 -0.024814531 -0.99599892 0.016511081
0.06793838 0.067450635 -0.0035306544 -0.67115694 0.14766091 -0.7264604 0.017082844
0.070067547 0.067598544 -0.0041747345 -0.37808785 0.069251217 -0.92317599 0.016885839
0.072444782 0.067627989 -0.0036961162 0.063474566 -0.069123805 -0.99558669 0.0088256439
0.068305261 0.070407249 -0.0034302266 -0.75219107 0.12448431 -0.64707977 0.026027381
0.070135079 0.070667475 -0.0042588287 -0.51337337 0.05091406 -0.85665369 0.019583514
0.07274276 0.070823103 -0.0042670928 -0.010260437 -0.02602197 -0.9996087 0.014602267
0.06852477 0.073358364 -0.0033330196 -0.73967797 0.22955541 -0.6325984 0.038271908
0.070000216 0.073458351 -0.0043438291 -0.43817613 0.20027201 -0.87629491 0.041806545
0.073437467 0.074261703 -0.0048125959 0.21974164 0.63033372 -0.74457574 0.077709429
0.075490177 0.074641079 -0.0037105375 0.22229075 0.96367657 -0.14803468 0.033076044
0.06873145 0.075938039 -0.0033159256 -0.4391433 0.74539298 -0.50154012 0.088636339
0.070505805 0.076193862 -0.0040293992 -0.18592872 0.73617983 -0.65074557 0.085650377
0.073281176 0.075712673 -0.0040132282 0.18212938 0.87262553 -0.45315942 0.059280917
0.075264364 0.075155728 -0.0033496069 0.32595927 0.92209262 -0.20855637 0.034389526
-0.06244139 0.029431017 -0.0017257705 -0.72549379 -0.65810752 -0.20137827 0.0033596095
-0.06435813 0.03181652 -0.0018866285 -0.76826346 -0.6201818 -0.15857424 0.0018048427
-0.00085369224 0.032917246 -0.0026447978 0.10075612 0.98380494 -0.14824371 0.0020956337
0.0017532461 0.032850556 -0.0017799097 0.078428894 0.99020749 -0.11548981 0.002909363
0.0044886977 0.032800823 -0.0015127821 0.022651155 0.99327695 -0.11352468 0.002604814
0.0074990224 0.032806281 -0.0015556122 -0.045632813 0.99332732 -0.10591734 0.0028363429
0.010197745 0.032890361 -0.0022510574 -0.086973608 0.98710459 -0.13438813 0.0025260993
0.012402228 0.032951295 -0.0027293325 -0.12085276 0.98354572 -0.13428482 0.0027210279
-0.066832393 0.034846961 -0.0016193382 -0.79085416 -0.58858967 -0.16766635 0.0029817766
-0.065627567 0.033445116 -0.0025562122 -0.76145208 -0.6127305 -0.21154705 0.0065477053
-0.015646735 0.035806123 -0.001686913 0.30787066 0.94724262 -0.089146562 0.0025731821
-0.013505283 0.03526042 -0.0015240278 0.25758085 0.96128911 -0.097853862 0.0024043706
-0.010468174 0.034529552 -0.001521286 0.2111399 0.96755308 -0.13878441 0.0038063803
-0.0074991821 0.033943605 -0.0015506801 0.16737638 0.97859889 -0.11970547 0.0030183473
-0.0044842842 0.033489726 -0.001504067 0.12035981 0.98708683 -0.10570272 0.0025721546
-0.0015673313 0.033168208 -0.0012755208 0.085042685 0.9927423 -0.085031971 0.0036015383
0.00063341617 0.033049997 -0.00066360709 0.05244308 0.99726683 -0.05204504 0.0034695372
0.003890736 0.03300925 -0.00019035663 0.025383942 0.99966717 -0.0046188738 0.00069596153
0.008753431 0.03302462 -0.00036180625 -0.037939366 0.99846059 -0.040461637 0.0032241188
0.010847676 0.033088963 -0.0009805552 -0.072152115 0.99573416 -0.057511315 0.0041222633
0.013562531 0.033318821 -0.00146451 -0.12399488 0.98687667 -0.10343987 0.0029974973
0.016488595 0.03382526 -0.0015218278 -0.19362064 0.974159 -0.11629868 0.0033061441
0.019496886 0.034550507 -0.0015311524 -0.2513569 0.96143258 -0.11165653 0.0025975707
0.022528199 0.035360929 -0.0015380014 -0.27268642 0.95774508 -0.091468453 0.0023798735
0.024445452 0.035873305 -0.0020189837 -0.31574938 0.9446547 -0.089049175 0.0024505851
-0.069326334 0.038428739 -0.001557056 -0.85008377 -0.49479818 -0.18036716 0.0033111987
-0.068486176 0.037415847 -0.0023690758 -0.82808852 -0.48129418 -0.28744623 0.0038646001
-0.024387956 0.03886763 -0.0018892661 0.40200946 0.91072536 -0.094697766 0.0024190205
-0.022513045 0.038182635 -0.0015276979 0.36200467 0.92730045 -0.095218107 0.0022587639
-0.019472886 0.037058298 -0.0015195921 0.32042834 0.93951702 -0.12096907 0.0030216724
-0.01707691 0.036289509 -0.001387747 0.27919167 0.95648235 -0.084814467 0.0026762669
0.025797511 0.036346052 -0.0014003817 -0.2831808 0.95551372 -0.082476355 0.0025463684
0.028491827 0.037206341 -0.0015388246 -0.30806774 0.94584519 -0.10232887 0.0022315541
0.031518392 0.03828112 -0.0014919924 -0.35854223 0.92943853 -0.087129429 0.002714358
0.033265766 0.03888749 -0.002203017 -0.43154696 0.89649194 -0.10034651 0.0036195663
-0.0705055 0.040645648 -0.0017814714 -0.88207209 -0.42948583 -0.19362524 0.0045293472
-0.030641725 0.041727286 -0.0016444166 0.45718634 0.88501793 -0.087886482 0.0020876448
-0.028526878 0.040737953 -0.0015082909 0.42075443 0.9028849 -0.088116653 0.0020255183
-0.025808915 0.039538771 -0.0014380115 0.38092202 0.92012268 -0.090954058 0.0024407022
0.032907601 0.039026726 -0.0005027111 -0.39826939 0.9152928 -0.060171891 0.0038899502
0.034670092 0.039642986 -0.0014596274 -0.43616661 0.89595795 -0.083773315 0.0035340821
0.037431072 0.041127976 -0.001550963 -0.5015896 0.85773695 -0.11267318 0.002521425
0.039187018 0.041909043 -0.0027849798 -0.48204252 0.86218256 -0.155808 0.0026950128
0.071952067 0.039447114 -0.0014622324 0.96945703 -0.11446957 -0.21690965 0.013659278
-0.07226973 0.044417024 -0.0010414467 -0.93630308 -0.32786137 -0.1258712 0.0068382933
-0.071618333 0.042934209 -0.0014674109 -0.92367554 -0.36052731 -0.12978303 0.0066656703
-0.03654347 0.044720132 -0.0017841131 0.49061197 0.86625755 -0.094327785 0.0022170455
-0.034474719 0.043667555 -0.0015139715 0.45931011 0.88418764 -0.085126117 0.0021726827
-0.032071333 0.042451423 -0.0014240913 0.42749569 0.89962542 -0.089002855 0.0022872321
0.038770683 0.042076975 -0.00096366939 -0.51189625 0.85255527 -0.10541221 0.0028967927
0.04051454 0.0430221 -0.0014766189 -0.51551491 0.85080296 -0.10187558 0.0028639019
0.04280949 0.044488251 -0.0015716269 -0.55796641 0.82454073 -0.093841068 0.0021439074
0.072517931 0.043383852 -0.0013857224 0.98421717 -0.094788633 -0.14943816 0.0082379542
-0.07284154 0.046516672 -0.0017123665 -0.93894261 -0.30764753 -0.15407719 0.0074909641
-0.042307649 0.047866341 -0.0019885406 0.49531919 0.86230588 -0.10529633 0.0026622592
-0.04049759 0.046926465 -0.0015271466 0.48172188 0.87069786 -0.099142089 0.0026744753
-0.037992425 0.045548927 -0.0014058193 0.46135539 0.88171268 -0.098660171 0.0024221675
0.044284347 0.045475245 -0.0014187956 -0.53553134 0.83620906 -0.11815458 0.0034294315
0.046487615 0.046895821 -0.0014999643 -0.54220957 0.83492726 -0.09436731 0.0031654492
0.048222419 0.047874533 -0.0023449278 -0.55707276 0.81836122 -0.14126179 0.0033672219
0.07255619 0.046547435 -0.0019680292 0.96743655 -0.01946084 -0.25236461 0.0062372242
-0.073827788 0.049091637 -0.0015107822 -0.903157 -0.38165995 -0.19657841 0.012113645
-0.048125193 0.050941687 -0.0027236238 0.46787897 0.86818695 -0.16535035 0.0051554018
-0.046371341 0.050217424 -0.0015876546 0.49491036 0.86030012 -0.12225962 0.0028838913
-0.04372919 0.048749235 -0.0014406116 0.47382751 0.87447268 -0.10385178 0.0031151555
0.047911435 0.048086345 -0.00077106524 -0.53725004 0.83941174 -0.082161278 0.0055456073
0.049632672 0.048982117 -0.0014281776 -0.5422368 0.83193743 -0.11772595 0.0044532851
0.051810291 0.050440893 -0.0016673524 -0.5671584 0.81551456 -0.11518428 0.0032293107
0.072740242 0.049144037 -0.0020737718 0.91188025 6.6264867e-05 -0.41045633 0.0039012518
-0.075606003 0.052996561 -0.0013820801 -0.95793128 -0.15173213 -0.24360827 0.019764243
-0.074620843 0.051604643 -0.002379792 -0.86087537 -0.32634938 -0.39037108 0.016252927
-0.054279994 0.053909671 -0.0027481795 0.33967751 0.91188234 -0.2304122 0.0071547343
-0.052329961 0.053399011 -0.0016785917 0.43395019 0.88645309 -0.16089813 0.0037985872
-0.049553033 0.051970392 -0.0015149767 0.4486112 0.88085669 -0.15112743 0.0036678372
-0.047727413 0.051113855 -0.00091290323 0.47132447 0.87367386 -0.12061189 0.0050292406
0.053279039 0.051488027 -0.0013621795 -0.53643012 0.83017308 -0.15183975 0.0056252056
0.055499408 0.052890953 -0.0015321813 -0.54162246 0.8277663 -0.14645182 0.0061066654
0.057287369 0.053830508 -0.0024603817 -0.55779964 0.79844987 -0.22657767 0.0081688939
0.072660707 0.052800849 -0.0023525413 0.81830478 0.035300992 -0.57369941 0.0046421532
-0.075879551 0.056253951 -0.0014762277 -0.74923128 0.62652713 -0.2147467 0.029831901
-0.074982777 0.056932908 -0.0028312362 -0.61667913 0.75880969 -0.20955819 0.026877163
-0.060514878 0.056707826 -0.0019021932 0.50556272 0.84611171 -0.1688233 0.010290192
-0.058485299 0.055876207 -0.0015323809 0.37674579 0.91312885 -0.15575092 0.0095997415
-0.055541109 0.054802153 -0.0015216937 0.32793018 0.93073326 -0.16185622 0.0045741792
-0.053661447 0.054133669 -0.00098437548 0.37947783 0.91447407 -0.14047711 0.0060365959
0.056919165 0.054107856 -0.00053792528 -0.55831265 0.8250823 -0.086753927 0.0082930597
0.058640584 0.055018786 -0.0014510512 -0.5393967 0.82532901 -0.1669828 0.0096115554
0.060611069 0.056463558 -0.0017123763 -0.67956692 0.71324211 -0.17168114 0.011875615
0.072794378 0.05558715 -0.0020152 0.81327575 0.025598878 -0.58131516 0.0082837539
-0.075341918 0.057309795 -0.0011802476 -0.66249859 0.73594904 -0.13955146 0.021549674
-0.073511168 0.058335442 -0.0015233873 -0.53121483 0.82636553 -0.18689759 0.01673951
-0.071080178 0.059541214 -0.0014973185 -0.38271952 0.91524494 -0.1259072 0.0059903893
-0.066363141 0.059799146 -0.0027262249 0.26408318 0.88436347 -0.38491744 0.017867999
-0.06432686 0.059172183 -0.0016189991 0.50837028 0.83687431 -0.20298037 0.0092858728
-0.061892446 0.057698887 -0.0014155394 0.47330913 0.86087185 -0.18675689 0.012032335
0.06207351 0.058041181 -0.0013894512 -0.77441132 0.60071045 -0.19857974 0.020611649
0.063452661 0.059434701 -0.0020565388 -0.74975836 0.61847723 -0.23526223 0.022731343
0.072773993 0.05841513 -0.0022230512 0.73196042 -0.020131711 -0.68104976 0.0068947319
-0.069570132 0.06025273 -0.0014919663 -0.21296839 0.96854037 -0.12874021 0.016354693
-0.067609146 0.060637385 -0.0014334271 0.025989801 0.99452466 -0.10121873 0.014969968
-0.065673277 0.060207203 -0.0009294718 0.28624859 0.95233762 -0.10542709 0.019181464
0.064302899 0.061411459 -0.0015125595 -0.84448737 0.42428666 -0.32683614 0.033422213
0.072949909 0.061813269 -0.0024090966 0.46541375 -0.011682925 -0.88501614 0.007656455
0.065258972 0.06440419 -0.0013984781 -0.93386728 0.24478555 -0.26071432 0.029049717
0.066287294 0.065080509 -0.0026799594 -0.76786721 0.19209222 -0.61113048 0.035891064
0.073066369 0.064306743 -0.0026257439 0.23951833 -0.043880817 -0.96989971 0.020498194
0.065677598 0.067043938 -0.00077793928 -0.95510316 0.22837631 -0.18873875 0.034167986
0.066508189 0.067687541 -0.0021287638 -0.91035986 0.23914638 -0.33771884 0.032500345
0.074076705 0.067623064 -0.0025477814 0.35172123 -0.08876545 -0.93188673 0.0056861457
0.06589888 0.069275439 -0.00060944882 -0.98057175 0.18886335 0.053006634 0.038878985
0.066839285 0.070444264 -0.0015295708 -0.90841001 0.20823163 -0.36253405 0.021847151
0.074589185 0.070286073 -0.0029342431 0.47348553 -0.16179456 -0.86581409 0.020723801
0.075018816 0.070660539 -0.0026730145 0.7481038 -0.17563359 -0.63991684 0.016463658
0.067330219 0.073425494 -0.0014659185 -0.92536795 0.20101541 -0.32138282 0.027502207
0.076425783 0.074781097 -0.0012120525 0.3399905 0.93805259 -0.066811219 0.019788882
0.068048626 0.076487027 -0.0014436492 -0.7308796 0.63390875 -0.2529321 0.083778776
0.070461281 0.076670036 -0.0014874041 -0.04715161 0.958583 -0.28088337 0.06872011
0.073446855 0.075757019 -0.0014929459 0.28625634 0.95576715 -0.067575365 0.0062211547
0.075417586 0.07515081 -0.0014742814 0.27095947 0.95975602 -0.073819235 0.012853667
-0.058071353 0.023909163 0.0024759029 -0.71043336 -0.66809207 -0.22121811 0.00067184266
-0.056395933 0.0223432 0.0025110489 -0.66860485 -0.69855297 -0.25493398 0.0012471182
-0.060464382 0.026414383 0.0025162525 -0.7383641 -0.64539224 -0.19567131 0.00085810211
-0.059307404 0.025319468 0.0022638512 -0.73111844 -0.65138394 -0.20289111 0.00067797786
-0.063115895 0.029670941 0.0024700274 -0.78301024 -0.60740101 -0.1340109 0.0019706746
-0.062261749 0.028592043 0.0022620691 -0.76375782 -0.64153343 -0.071477056 0.0041001178
-0.064620063 0.031652886 0.0019825043 -0.79457551 -0.60279018 -0.072758816 0.0010752873
-0.0031179106 0.032942891 0.0029408908 0.10272827 0.97867769 0.17786758 0.0021837335
-0.00098276557 0.03290486 0.0025566362 0.10274687 0.98175001 0.16003107 0.0020625032
0.001695179 0.032843374 0.0017041266 0.071656518 0.98881721 0.13078941 0.0029678254
0.0044893352 0.032782614 0.0015019771 0.024018662 0.9924311 0.12043111 0.0027441401
0.0075013652 0.032792043 0.0015116223 -0.047238313 0.99142605 0.12183133 0.0027657533
0.01020226 0.03287873 0.002143071 -0.089603193 0.98642194 0.13763373 0.00286981
0.012459794 0.032944109 0.002683626 -0.12349836 0.97932231 0.16023694 0.0026564132
-0.067206703 0.035124116 0.0014835168 -0.83600366 -0.54633689 0.051126271 0.0020162375
-0.06586805 0.033082187 0.0029831454 -0.80283719 -0.59220147 0.068919085 0.0083089257
-0.015647558 0.035784617 0.0017070334 0.30765113 0.94664413 0.095998548 0.0024100074
-0.013492618 0.035245687 0.0014648923 0.2591067 0.9602893 0.10347984 0.0023045447
-0.010513924 0.034526881 0.0014726623 0.2116891 0.96729845 0.13971876 0.0034033998
-0.0075212182 0.033934575 0.0014970918 0.16732909 0.97769117 0.12696819 0.0029943998
-0.0044947029 0.033475172 0.0014796985 0.1268359 0.98503023 0.11674012 0.0025151374
-0.0016064123 0.033167716 0.0011767031 0.083741471 0.99295497 0.083831511 0.0037470579
0.00063984137 0.033049684 0.00052748027 0.051959846 0.99675757 0.061437227 0.004091756
0.0041975621 0.03300206 0.00011593239 0.025387002 0.99966705 -0.0046189264 0.0006958415
0.0087704938 0.033029187 0.00026515717 -0.049999025 0.99734396 0.052963015 0.0030722541
0.010896009 0.033089682 0.00086880242 -0.074204534 0.99513119 0.064866059 0.0043012085
0.013583269 0.033309821 0.0013927474 -0.12377707 0.98560625 0.11514982 0.0029977357
0.016505292 0.033810843 0.001482929 -0.19604453 0.97224289 0.12771146 0.0032420761
0.019511437 0.034540642 0.0014790049 -0.25019336 0.959391 0.13027789 0.0028721637
0.022511574 0.035340142 0.0014955996 -0.2700614 0.95754683 0.10085157 0.0026439962
0.02446489 0.035863578 0.0019214718 -0.31461197 0.94348735 0.10416804 0.0027740169
-0.069330826 0.03841193 0.0019637293 -0.87134373 -0.43084815 0.23479766 0.004083829
-0.068560213 0.037174482 0.0018956935 -0.85448873 -0.50729078 0.11182635 0.0056987647
-0.024379039 0.03887536 0.0016366127 0.4034057 0.91013986 0.094389215 0.0024356246
-0.022495566 0.038160909 0.0015069186 0.36255127 0.92667919 0.099107035 0.0022040163
-0.019489754 0.037054721 0.0014520539 0.31801355 0.94028383 0.12138234 0.0028303852
-0.017132899 0.036296714 0.0013323569 0.27918938 0.95594186 0.090711504 0.002480319
0.025836473 0.036344651 0.0013599853 -0.28438362 0.95422232 0.092658594 0.0027704218
0.028489279 0.037191126 0.0014863847 -0.30602163 0.94487733 0.1164369 0.0024643289
0.031494889 0.038254783 0.001477972 -0.36022133 0.92663634 0.10763631 0.0026699621
0.03329204 0.038870033 0.0022542726 -0.43719169 0.89283019 0.10824768 0.0033874381
-0.070453279 0.040383868 0.0014241626 -0.90852559 -0.40987018 0.081164502 0.0034218871
-0.030631274 0.04170518 0.0016317037 0.45602924 0.88478261 0.095901571 0.0020778989
-0.028510839 0.040716026 0.0014938409 0.42084223 0.90196693 0.096681841 0.0019761994
-0.025820298 0.039534297 0.0013663722 0.38271314 0.91941303 0.090610839 0.0024054318
0.034678966 0.039635111 0.0013886616 -0.42931545 0.89645451 0.1098068 0.0030502311
0.037430748 0.041111782 0.0015026252 -0.50061965 0.85688245 0.12301362 0.0027696968
0.039182357 0.041904971 0.0026253138 -0.53137076 0.83545548 0.14021187 0.0028843079
-0.0723207 0.044551019 0.00084273575 -0.93734324 -0.33729857 0.087277383 0.0043381499
-0.071638852 0.043170914 0.0015916218 -0.92377853 -0.37382355 0.083001852 0.0043559279
-0.036559373 0.044737156 0.0015732528 0.49140939 0.86515939 0.10008043 0.002249731
-0.034505811 0.043666679 0.001499164 0.45785794 0.88401371 0.094264932 0.0023161033
-0.032110024 0.042457845 0.0013864649 0.4269371 0.89901817 0.09742219 0.0022536719
0.03886275 0.042078033 0.00075270719 -0.52293944 0.84481972 0.1131989 0.0034107051
0.040541973 0.043022484 0.0014304369 -0.50875133 0.85210603 0.1228312 0.0027705282
0.042811196 0.044468809 0.0015465785 -0.55626172 0.82404929 0.10731044 0.0022766406
0.072668545 0.044121861 0.0016369 0.99507219 -0.07351961 -0.066529833 0.0022001353
-0.072860427 0.046532668 0.0012941116 -0.94416475 -0.32494128 0.054462072 0.0080198618
-0.042260543 0.047814917 0.0019904368 0.49639645 0.86052734 0.11438209 0.0030071579
-0.040505335 0.046930823 0.001429903 0.48097607 0.87089634 0.1010026 0.0028305466
-0.038002104 0.045540765 0.0013816877 0.46394134 0.87974244 0.10397897 0.0025859103
0.044292491 0.045460716 0.0014059035 -0.53622806 0.83334947 0.13411963 0.0037938908
0.046490669 0.04688124 0.0014523269 -0.53694963 0.83534467 0.11783199 0.0035781469
0.048180316 0.047834765 0.0022453931 -0.54990411 0.82335675 0.14031833 0.0039417804
0.072799303 0.045803558 0.00094399654 0.99533123 -0.045172658 -0.085294873 0.0038694791
-0.073814809 0.049033932 0.0010783683 -0.92155993 -0.38308018 0.063062161 0.0098706596
-0.048168641 0.050915554 0.0026454842 0.45209917 0.87159288 0.18955813 0.0043918188
-0.046338063 0.050183833 0.0015599813 0.49196079 0.86134303 0.12673858 0.0028662134
-0.043680418 0.048722744 0.001360004 0.47354966 0.87449616 0.10491508 0.0030187403
0.047911398 0.04810011 0.00050796464 -0.52143025 0.84806567 0.094313838 0.0056606564
0.049618978 0.048953179 0.0013991027 -0.53865731 0.83277392 0.12781216 0.0044652265
0.051836926 0.050442006 0.0015941608 -0.57375431 0.80937016 0.12540302 0.0031763411
0.072891481 0.049037058 0.0012636415 0.99209136 -0.051232345 -0.11458657 0.0037868379
-0.075651601 0.053157371 0.0011960767 -0.97444648 -0.1701863 0.14659713 0.018478125
-0.074675098 0.051814169 0.0023326627 -0.83499527 -0.28715709 0.46938649 0.015290705
-0.054379895 0.053934362 0.0027964059 0.37893036 0.89255667 0.24444714 0.0063177245
-0.052311525 0.053390373 0.0015844688 0.4248012 0.89044374 0.16326025 0.0037661784
-0.049541593 0.051965177 0.0014561674 0.44764009 0.8842116 0.13337271 0.0035508487
-0.047745213 0.051124826 0.0006409398 0.47133276 0.87607437 0.10168065 0.0049352306
0.053277463 0.051467225 0.0013335677 -0.535146 0.83085585 0.15263464 0.0057641473
0.055468634 0.05286254 0.0014467336 -0.54456627 0.82850111 0.13051236 0.0049664802
0.057298053 0.053833693 0.0023169394 -0.55873382 0.79996067 0.2188136 0.0079285288
0.073047929 0.052357621 0.00069691823 0.94949764 -0.019858563 -0.31314525 0.0080786338
-0.075891457 0.056302201 0.0012207155 -0.75126284 0.64738268 0.12845139 0.027366299
-0.074883983 0.056952592 0.0028929031 -0.57925951 0.80147338 0.14865638 0.01421323
-0.060536202 0.056712463 0.0018092807 0.48748496 0.85841697 0.15962034 0.01059531
-0.058478668 0.055859294 0.0014794273 0.38050932 0.91117001 0.15805659 0.0092846183
-0.055556122 0.054797117 0.0014722366 0.33046296 0.9283098 0.17039688 0.004402657
-0.053644817 0.05416419 0.00080356072 0.38853148 0.91023588 0.14322689 0.0058083814
0.05685496 0.054076631 0.00043195704 -0.51883143 0.85103965 0.080903381 0.010615856
0.058651704 0.055016745 0.0013639205 -0.53823805 0.82416755 0.17620315 0.0084599713
0.060650826 0.056461453 0.001678342 -0.6787715 0.71098453 0.18376648 0.011795121
0.072727166 0.055269897 0.0015409397 0.98512709 0.067962572 0.15781544 0.0077409083
-0.075323395 0.057323769 0.0011018963 -0.67655051 0.72812712 0.11004727 0.022508338
-0.073485814 0.058349103 0.0014849124 -0.51429027 0.84812903 0.12721089 0.010411067
-0.071073972 0.059543461 0.0014960951 -0.38555297 0.9169355 0.10285041 0.0037305215
-0.066394262 0.059760477 0.002702899 0.27286094 0.8777371 0.39385852 0.016786849
-0.064327031 0.059173878 0.0015144065 0.49170557 0.84850746 0.19560328 0.0085154139
-0.061934918 0.057722274 0.0013071811 0.47807705 0.86247236 0.1660838 0.011474274
0.062050235 0.058005739 0.0012778984 -0.77134949 0.60250854 0.20494717 0.018420067
0.063401692 0.059364755 0.0018773209 -0.76034534 0.60765517 0.2294127 0.019207053
0.072071306 0.059371896 0.002841956 0.43061545 0.10584025 0.89630806 0.014479876
-0.069586113 0.060246527 0.0014319895 -0.20334254 0.97258639 0.11281628 0.015656706
-0.067675881 0.060640316 0.0013516992 0.042469308 0.98670089 0.15690051 0.018199528
-0.065631129 0.060191941 0.00078511989 0.30371302 0.94805986 0.094556324 0.017972818
0.064301468 0.061352234 0.001407771 -0.87031078 0.40507135 0.28013629 0.027114013
0.066091135 0.062849388 0.0029220646 -0.79503441 0.34441963 0.49929494 0.021596832
0.07254608 0.060919538 0.0022488525 0.2983095 0.048756946 0.95322305 0.013249885
0.065200008 0.064379998 0.0010857295 -0.93689936 0.27435905 0.21667193 0.03066797
0.066425174 0.064917482 0.0025123437 -0.72837108 0.27826014 0.62613642 0.021585461
0.071943976 0.063097514 0.0028940048 0.19064376 -0.026768997 0.98129427 0.0076628295
0.072574683 0.064891495 0.0026597853 0.14062481 0.002714674 0.99005932 0.012431631
0.065700509 0.067147292 0.00058842922 -0.97232884 0.20471902 0.11254695 0.032343458
0.066740178 0.067825034 0.001748526 -0.87833226 0.26309708 0.39913949 0.026748367
0.069861859 0.067907155 0.0029090226 -0.26113796 0.11786035 0.95807922 0.011553697
0.073019795 0.067661703 0.0028348381 -0.039436836 -0.061468739 0.99732959 0.0091560734
0.065799423 0.069301404 0.00038900779 -0.87029147 0.22965004 0.43572193 0.060699351
0.0669365 0.070449546 0.0011184858 -0.95304024 0.24916208 0.17214121 0.029725498
0.069502681 0.070610896 0.0027369875 -0.45448878 0.016394328 0.89060158 0.016835354
0.067448996 0.073496744 0.0010687425 -0.90849131 0.29901147 0.29195136 0.041285254
0.069242641 0.072973333 0.00273309 -0.58883595 0.16326137 0.79159206 0.062454745
0.076442786 0.074792214 0.0010305557 0.30218977 0.9532454 -0.0021575391 0.0014227022
0.068133123 0.076566376 0.0011653529 -0.70158333 0.68728185 0.188214 0.081232794
0.070428357 0.076647393 0.0015114873 -0.18685962 0.94394881 0.27211022 0.088722318
0.073473059 0.075749412 0.0015143148 0.26141977 0.96369767 0.05428154 0.0089750243
0.075403884 0.075155832 0.0014179064 0.27440122 0.96099955 0.034406677 0.0092261406
-0.063252456 0.029669378 0.0047375634 -0.77744085 -0.57618976 0.25217265 0.0090058763
-0.061632767 0.027469955 0.0034572119 -0.76629001 -0.64248562 0.0034528016 0.0091440519
-0.06431365 0.031168649 0.0042691878 -0.78771347 -0.55786574 0.26132977 0.0045108995
-0.0070372862 0.032799564 0.0054929196 0.16591589 0.92437309 0.3435204 0.0023429473
-0.0042780321 0.032607492 0.0049013826 0.13879436 0.92756218 0.34693584 0.0019916429
-0.001451965 0.032413561 0.0044630039 0.10649621 0.93873608 0.32776996 0.0023470132
0.0014906764 0.032174673 0.0044910293 0.053455751 0.94725794 0.31598264 0.0025962077
0.0044477168 0.032086749 0.0044607939 0.015267872 0.93773061 0.34702778 0.0027233057
0.0074924733 0.032091632 0.0044805664 -0.02881757 0.94403166 0.32859367 0.0028605021
0.010531429 0.032285403 0.004482945 -0.091952465 0.94273186 0.32062674 0.0027487867
0.01343521 0.032528922 0.0046230759 -0.14373429 0.92901057 0.34099823 0.0028734889
0.016146667 0.032734167 0.0053309165 -0.19189072 0.91566092 0.35318983 0.0028486839
0.018217919 0.032882754 0.0058728592 -0.23861445 0.8542034 0.46195194 0.0012297357
-0.066838168 0.035169888 0.0045774737 -0.83099276 -0.48862275 0.26589265 0.0035657741
-0.065752022 0.033422738 0.0045793578 -0.81418759 -0.51957095 0.25912276 0.0084462091
-0.018653398 0.035816606 0.0053867088 0.3179113 0.90093702 0.29537246 0.0022881774
-0.016363753 0.035365168 0.0045217196 0.29731366 0.91213661 0.28215498 0.0019550002
-0.01348081 0.034573957 0.0044838511 0.2410337 0.92076159 0.30675879 0.0021592705
-0.010516499 0.033865292 0.004439686 0.19734068 0.93314767 0.30048651 0.0019918135
-0.0076975767 0.033401754 0.0041521206 0.16260165 0.94130552 0.2958118 0.0021544246
-0.0049694316 0.033160996 0.0035425341 0.13267939 0.94643539 0.29437432 0.0022337076
-0.0023583628 0.03300089 0.0030942566 0.10004689 0.96960747 0.22327547 0.00056122284
0.01440074 0.033091713 0.0033469063 -0.13371038 0.95877713 0.25073487 0.0012688889
0.016694488 0.03333484 0.0039670062 -0.19166008 0.93229038 0.30675873 0.0028254704
0.019516945 0.033842992 0.0044809193 -0.22707254 0.92208612 0.31336096 0.0023538952
0.022541808 0.034649342 0.0045031207 -0.26059362 0.908822 0.32578158 0.0023322278
0.025373824 0.035440806 0.0046587619 -0.2909604 0.90283984 0.31657892 0.0023091168
0.027562708 0.035794422 0.0055379146 -0.30565196 0.89101321 0.33566695 0.0024072528
-0.068123892 0.037644584 0.0047600083 -0.81684548 -0.39534089 0.42008221 0.0058734473
-0.027111033 0.038906958 0.005623694 0.38203469 0.86258453 0.33165866 0.0021831817
-0.025064789 0.038496174 0.0045753103 0.38081068 0.88103706 0.28063667 0.0019178436
-0.022493018 0.037493944 0.0045210137 0.33953291 0.89488739 0.2896443 0.0020618048
-0.019677574 0.036535002 0.004258052 0.31144187 0.90838611 0.27899578 0.002034615
-0.017652458 0.036090445 0.0035298138 0.29567254 0.91594607 0.27133143 0.0023438258
0.026486235 0.036143854 0.0035780196 -0.28443712 0.91481316 0.28672707 0.002133464
0.028648054 0.036616497 0.004324208 -0.30250773 0.90324718 0.30435789 0.0024989902
0.03151641 0.037578024 0.0044607478 -0.34510797 0.88614899 0.30925792 0.0023838067
0.034036446 0.038495686 0.004785961 -0.40368342 0.86019123 0.31162608 0.0029514118
0.036091726 0.038935665 0.0058360579 -0.42551365 0.7892471 0.44274953 0.0010278781
-0.069671698 0.040744245 0.0043893941 -0.8352192 -0.3292917 0.44042683 0.005182574
-0.068630904 0.039623082 0.0055107372 -0.82549018 -0.33277783 0.45587802 0.0062846094
-0.033328637 0.041867808 0.0057971743 0.42629057 0.83454037 0.34902549 0.0031809499
-0.031328324 0.041327309 0.0046694982 0.42809391 0.86241597 0.27013749 0.0016396198
-0.028522834 0.04006689 0.0044622258 0.39265972 0.87697715 0.27700073 0.0017863059
-0.0263649 0.039288502 0.003909776 0.37520739 0.88327044 0.28116298 0.0019738565
0.035269905 0.039361522 0.0040092864 -0.40194285 0.86075628 0.31231469 0.0028139132
0.03752723 0.040428653 0.0044415235 -0.4628939 0.82653469 0.32026488 0.0033235422
0.039754406 0.041584261 0.0048838141 -0.5010978 0.80703133 0.31241238 0.0028321582
-0.070713557 0.043425377 0.0041814777 -0.87989008 -0.33923414 0.33273646 0.0049032513
-0.03925382 0.044871524 0.0057171299 0.4366087 0.82311338 0.3631213 0.0038214282
-0.037203472 0.044295978 0.0047088913 0.4507089 0.84497017 0.28790072 0.0019844875
-0.034518752 0.042979036 0.0044796471 0.43211091 0.85793924 0.27788568 0.0020523623
-0.032492287 0.042209238 0.0037176178 0.42396641 0.86478949 0.26905701 0.0016200161
0.041005131 0.042612463 0.0041974266 -0.4936983 0.81441367 0.30494633 0.0027215325
0.043360308 0.043968257 0.0045498167 -0.51047099 0.80178732 0.31073537 0.0023708192
0.04534794 0.044781636 0.0055532902 -0.48866311 0.78437555 0.38205144 0.0038996162
0.071047895 0.043862551 0.0051515051 0.74959314 0.0057753073 0.6618737 0.0018937459
0.072383493 0.044769865 0.0030845352 0.99506921 -0.073576838 -0.06651219 0.0021554695
-0.07222271 0.046982363 0.0035294606 -0.83649236 -0.26910567 0.47734964 0.00349732
-0.070953898 0.046344075 0.0051503335 -0.74837494 -0.14163786 0.64797658 0.0048398445
-0.045063846 0.047807634 0.0056697493 0.44210812 0.80716586 0.39118251 0.004091884
-0.043060061 0.047479045 0.0046536117 0.45677572 0.83391815 0.30973589 0.0023822121
-0.040566724 0.046218526 0.0044093742 0.45544887 0.84120125 0.2914564 0.0021095118
-0.038493324 0.045297772 0.0038204624 0.45041499 0.84350187 0.2926276 0.002000144
0.044619352 0.045207683 0.00348524 -0.50655556 0.81186295 0.29031017 0.0028640709
0.046584558 0.046096459 0.0043642796 -0.50399768 0.79441971 0.33894512 0.0030264156
0.048979893 0.04739663 0.0047933534 -0.50759137 0.7868005 0.35113522 0.002811359
0.071370699 0.04505185 0.0046069133 0.78956151 0.020976549 0.61331284 0.001409198
-0.072502188 0.050045282 0.0043170168 -0.70092052 -0.17019616 0.6926353 0.0055592642
-0.071398072 0.049394861 0.0053912061 -0.69941866 -0.11354898 0.70563447 0.0059541701
-0.051139325 0.05091745 0.0058468431 0.42320743 0.76149678 0.49093604 0.0041042478
-0.04891989 0.050497796 0.0049177711 0.43528751 0.8226282 0.36579713 0.0029152511
-0.046503838 0.049414683 0.0044821464 0.4506368 0.82234597 0.34738097 0.0025410075
-0.044183806 0.048419878 0.0038420577 0.4489823 0.83980298 0.30519813 0.0019854773
0.050167959 0.04854111 0.0040190783 -0.50338453 0.7818957 0.36775428 0.0027080404
0.052437618 0.049785767 0.0045167557 -0.48511487 0.77646363 0.40220365 0.0035807949
0.054610591 0.050629158 0.0054409206 -0.46768579 0.75340474 0.4622243 0.0039971857
0.070939615 0.050083216 0.0051868246 0.72170007 0.087479636 0.68665594 0.0074367486
0.072025217 0.050515916 0.0032475591 0.73492986 0.083868027 0.67293715 0.0055161957
-0.073371254 0.053147562 0.0044239238 -0.66812396 0.053104982 0.74215245 0.012637824
-0.071643382 0.052452259 0.0057117473 -0.49197584 0.032382905 0.87000638 0.0056110313
-0.05771482 0.053804304 0.0057477462 0.24063142 0.79057628 0.56310362 0.003166344
-0.055293705 0.05348799 0.0049033575 0.31680384 0.85275906 0.4152557 0.003980435
-0.05253122 0.052515134 0.004482389 0.3734785 0.8361944 0.40161264 0.0026000163
-0.050068438 0.051459488 0.0040979167 0.41791263 0.83270001 0.36326256 0.0026267178
0.053689048 0.051175799 0.0033679048 -0.50155061 0.7898525 0.35295892 0.003848464
0.055690024 0.051950898 0.0042564827 -0.47318122 0.78024077 0.4090524 0.0036227088
0.058186945 0.053161994 0.0047275848 -0.4448649 0.75490111 0.48189157 0.0055275839
0.060427349 0.053751398 0.0057295295 -0.40864369 0.67475212 0.61458921 0.0034784165
0.070719607 0.052858677 0.0051587014 0.66643691 0.1693022 0.72608447 0.011026764
-0.075088106 0.055976659 0.003242194 -0.80264926 0.21459694 0.55650896 0.043642752
-0.074026212 0.056084778 0.00410598 -0.58711308 0.52948493 0.61232668 0.029599676
-0.070630021 0.056194343 0.005802542 -0.252123 0.39648703 0.88274115 0.010664152
-0.067095689 0.056684542 0.0057421038 0.073752694 0.56440282 0.82219821 0.0055481861
-0.064104378 0.05632589 0.005343393 0.27040756 0.66305411 0.69802505 0.0051116515
-0.061403085 0.055745497 0.0045710155 0.32706183 0.78553408 0.52532542 0.0078557823
-0.05862068 0.054894928 0.0042915493 0.27765125 0.85454285 0.43893772 0.0043250429
-0.056055535 0.054332454 0.0037724404 0.33650395 0.87359327 0.35156789 0.002907322
0.059302241 0.05449925 0.0037559718 -0.48875919 0.73654222 0.46756807 0.0040029651
0.061493903 0.055521861 0.0044340971 -0.48033667 0.68444592 0.54846191 0.0066438862
0.063919552 0.056370296 0.0053539379 -0.38056055 0.5777548 0.72206163 0.0070310268
0.067529216 0.056720514 0.005844885 0.01316154 0.38388485 0.92328715 0.015803743
0.069765903 0.055710685 0.0054801884 0.14737086 0.3600677 0.92121285 0.010917616
-0.073064558 0.058152616 0.0037967043 -0.49311647 0.76370776 0.41663745 0.018080274
-0.070604026 0.059047099 0.0041803941 -0.28815329 0.79911816 0.52761525 0.024345851
-0.067586452 0.05872725 0.0043405886 0.14178382 0.73546821 0.66255856 0.015853172
-0.064683057 0.057934441 0.0039407271 0.36912715 0.72928458 0.57609832 0.0067886501
-0.062653288 0.057285205 0.0033681619 0.41785738 0.74344707 0.52218932 0.0082310224
0.06267985 0.057425097 0.0033720203 -0.59649742 0.61997026 0.5097329 0.009409626
0.064329937 0.058299173 0.0040842397 -0.61467725 0.52168846 0.59161901 0.0098090367
0.066905648 0.058591135 0.005154314 -0.39149103 0.45183524 0.80161059 0.01152429
0.069806315 0.058537979 0.0047272998 0.074959025 0.31317455 0.94673264 0.012316462
-0.069393627 0.060086332 0.0031794407 -0.15142244 0.91684073 0.36942437 0.024547208
-0.06829717 0.060107533 0.0031807155 0.053071953 0.91955417 0.38936296 0.029822059
0.06541156 0.06089681 0.0033284279 -0.65909803 0.38637993 0.64521343 0.012072146
0.067110553 0.061392304 0.0040203505 -0.53498042 0.33366883 0.77618366 0.012271021
0.069825478 0.061556917 0.0039536925 -0.053553876 0.24859779 0.96712518 0.012553774
0.067348823 0.063985385 0.0033396925 -0.70055932 0.28177994 0.65560418 0.01878088
0.070218176 0.064529881 0.003304719 -0.22205374 0.17639722 0.95894533 0.013947904
0.068275869 0.066352084 0.0031209965 -0.65305465 0.21205465 0.72701615 0.025264276
0.070679888 0.067396671 0.0031101098 -0.25394833 0.082583837 0.96368569 0.010288809
0.072270691 0.06802731 0.0032267543 -0.013751566 -0.060392871 0.99807996 0.011198862
0.070768841 0.070854209 0.0033500781 -0.40464252 -0.030572148 0.91396379 0.011647997
0.072344825 0.070548333 0.0036327075 -0.19178128 -0.047023609 0.9803105 0.010282297
0.070251659 0.073917404 0.003666258 -0.43656689 0.25412774 0.86303443 0.063808717
0.074263453 0.074800268 0.0043465467 0.33548385 0.8110761 0.47917238 0.057901911
0.075568534 0.074806854 0.0032658605 -0.02655559 0.99420649 -0.10415496 0.040252954
0.068887696 0.076364726 0.0031871041 -0.069908664 0.99509209 -0.070031539 0.10981524
0.070672333 0.076239042 0.003679906 -0.14120197 0.84152049 0.52144533 0.079804949
0.073342711 0.075701177 0.0038140041 0.14385764 0.93889672 0.31269464 0.074451111
0.075218245 0.075202867 0.0032149006 0.26119834 0.96498901 0.023908911 0.0085582174
-0.061147332 0.029270854 0.0076005943 -0.66213238 -0.51872122 0.54084098 0.0070714578
-0.00099416415 0.029894523 0.0088747274 0.085849315 0.76977789 0.63251239 0.0013213835
0.0017682724 0.029853983 0.0087886546 0.052963965 0.81946659 0.57067454 0.0027777345
0.0044664945 0.029806567 0.0087387171 0.013942268 0.78548771 0.61872023 0.001369175
0.0076160906 0.029821521 0.0087737581 -0.025917567 0.79269487 0.60906744 0.0014627721
0.010092522 0.029847208 0.0088385129 -0.068049908 0.7994504 0.59686536 0.001952305
0.012267759 0.029911846 0.0089199785 -0.10567934 0.76703823 0.63283819 0.0012012937
-0.063398153 0.032293677 0.0075149676 -0.708224 -0.4381389 0.55358213 0.0019288696
-0.062200092 0.03115499 0.0080919378 -0.68126094 -0.45469165 0.57370639 0.0022101074
-0.015373157 0.032876194 0.0087664332 0.24967466 0.77699268 0.57787967 0.0010480108
-0.013135493 0.032637294 0.0084115854 0.22588465 0.82463318 0.51860994 0.0014357411
-0.01041231 0.03234021 0.0077709095 0.19687103 0.85554081 0.47884411 0.0014512016
-0.0075306897 0.031879563 0.0074990173 0.16622639 0.86534899 0.47280005 0.0014642273
-0.0044941795 0.031422254 0.0074346378 0.13420244 0.86377609 0.48567542 0.0023405179
-0.0014672028 0.031037413 0.0074339919 0.090401232 0.86302829 0.49700084 0.0019888894
0.0014926913 0.030862888 0.0073253885 0.041765254 0.86416626 0.50147015 0.0020919319
0.0044553042 0.030827174 0.0072128042 0.012620698 0.86912453 0.4944323 0.0019310819
0.0074863196 0.030832378 0.007208636 -0.025851741 0.86772341 0.49637473 0.0020017407
0.010560147 0.03091572 0.0073512061 -0.071230844 0.86097181 0.50364041 0.0022482453
0.01352571 0.031172544 0.0074673002 -0.12210838 0.85402411 0.50569987 0.0024467274
0.016503617 0.031671457 0.007497998 -0.18458897 0.84900635 0.49509099 0.0026340373
0.019352427 0.032239411 0.0077051786 -0.21652395 0.83427745 0.5070489 0.0016299435
0.022231735 0.032572288 0.0084157409 -0.22691639 0.80405265 0.5495528 0.0017737359
0.024309812 0.03283314 0.0088437032 -0.24728853 0.75558704 0.60657775 0.0024710128
-0.066019461 0.035019785 0.0062081311 -0.72536898 -0.39869806 0.56114149 0.0023191299
-0.064618379 0.034561843 0.0076905377 -0.71265405 -0.38409486 0.58702254 0.0016148889
-0.024338834 0.03595819 0.0087300809 0.32164603 0.7616176 0.56256777 0.0010807947
-0.022053799 0.03561113 0.0082706762 0.31112075 0.82434791 0.47292119 0.0017461297
-0.019446621 0.035080746 0.0075291065 0.29742303 0.84687614 0.44084051 0.0015221619
-0.016479632 0.034164149 0.0074064396 0.25630173 0.85315591 0.45435059 0.001745672
-0.013677183 0.033572365 0.0070238304 0.2289681 0.8680352 0.4405548 0.0017733816
-0.011005457 0.03321879 0.0063897562 0.20205906 0.8748312 0.44027549 0.0016919123
-0.008949182 0.033075765 0.0061674281 0.16016027 0.87568647 0.45554581 0.0021220604
0.020219984 0.033201512 0.0064585027 -0.22038278 0.85277206 0.4735094 0.0017050393
0.022667708 0.033579186 0.0069840383 -0.234963 0.84276879 0.48428616 0.0020606029
0.025514528 0.034162913 0.0074374136 -0.24777438 0.83065653 0.49861565 0.0021280458
0.028423913 0.035031047 0.0075464826 -0.28143653 0.82603753 0.48831907 0.0019066245
0.031138966 0.035553072 0.008266693 -0.29176226 0.79495907 0.53189737 0.0021298612
