# .PCD v0.7 - Point Cloud Data file format
VERSION 0.7
FIELDS x y z normal_x normal_y normal_z curvature
SIZE 4 4 4 4 4 4 4
TYPE F F F F F F F
COUNT 1 1 1 1 1 1 1
WIDTH 552
HEIGHT 1
VIEWPOINT 0 0 0 1 0 0 0
POINTS 552
DATA ascii
0.049661946 0.013774859 -0.011590069 0.49215615 -0.32097828 -0.80916947 0.0007987445
-0.017799245 0.016395396 -0.011647947 -0.76521629 -0.19997506 -0.6119265 0.00075889676
-0.016410323 0.016098479 -0.013201719 -0.70462108 -0.22111061 -0.67425466 0.00097520411
0.047666449 0.016089318 -0.013461973 0.48500693 -0.18120819 -0.85553026 0.0017449462
0.050153315 0.016246341 -0.012018668 0.53844172 -0.18415861 -0.82229328 0.0010066301
-0.018043824 0.019234451 -0.012103663 -0.77749997 -0.1437038 -0.61224419 0.00063376449
-0.01681334 0.019023281 -0.013609518 -0.75344199 -0.13788082 -0.64289492 0.00090567674
0.048001435 0.019021979 -0.013650684 0.4911665 -0.11206414 -0.86382693 0.00037793419
0.050221805 0.018995075 -0.012358426 0.5440526 -0.096825741 -0.83344555 0.0014157871
0.052166421 0.019132154 -0.011088885 0.64304793 -0.075442612 -0.76210088 0.0017323839
-0.018123444 0.022229295 -0.012501942 -0.78170043 -0.070627652 -0.6196419 0.00057968596
0.048553217 0.021661079 -0.013777633 0.5740152 -0.067816846 -0.81603152 0.0040932684
0.050399806 0.022225214 -0.012587216 0.59054404 0.01274998 -0.80690473 0.0035944171
0.052165475 0.022301001 -0.011096377 0.64719862 0.045340959 -0.7609719 0.0019633365
-0.018446945 0.025396651 -0.012348335 -0.77067262 0.0031724982 -0.63722342 0.00086610083
0.048684675 0.025001334 -0.013730521 0.67657751 0.037938803 -0.73539346 0.0053294054
0.050264798 0.025372576 -0.012195395 0.62781471 0.10727794 -0.77093458 0.0015116766
-0.018308621 0.028145812 -0.012407092 -0.76675892 0.064459607 -0.63869059 0.00081819604
-0.016801905 0.029713441 -0.013885017 -0.68153828 0.1737902 -0.71084642 0.0010596429
0.04805962 0.028467497 -0.013690455 0.73330235 0.10395902 -0.67190784 0.0032928984
0.049695011 0.028167773 -0.012071745 0.63070709 0.13455072 -0.76426744 0.0018213782
-0.018139321 0.031098856 -0.012143156 -0.73725301 0.15986247 -0.65643132 0.0010689384
-0.016690616 0.031502128 -0.013532628 -0.68643749 0.17906903 -0.70479631 0.00099049613
0.047989208 0.031525381 -0.013215293 0.74276876 0.10949968 -0.66053337 0.0035267991
0.049461681 0.031082304 -0.011695426 0.59519637 0.079025336 -0.79968518 0.0035814161
-0.017810855 0.034161586 -0.01161108 -0.70090425 0.23528576 -0.67333043 0.00090588973
-0.016163278 0.034353115 -0.013076911 -0.64959639 0.25201258 -0.71729648 0.00047407302
0.047748394 0.034311838 -0.012922 0.68421161 0.15862539 -0.71182334 0.0092190951
0.049585752 0.034313083 -0.011471232 0.53654659 0.089145571 -0.83914882 0.0040437351
-0.017551806 0.036244962 -0.011088277 -0.68359494 0.30351576 -0.66375911 0.001675472
-0.015506947 0.03729821 -0.012506713 -0.62687379 0.30381942 -0.7174421 0.00029448213
-0.013659649 0.038225815 -0.013729538 -0.61177623 0.31218651 -0.72682142 0.00024815934
0.045521971 0.038529012 -0.013857032 0.64819324 0.28043687 -0.7079553 0.0028635066
0.047354884 0.03749229 -0.012522761 0.59020478 0.17861418 -0.78724533 0.0026595187
0.049245723 0.037042841 -0.01128576 0.58459783 0.18246484 -0.79053903 0.0027136111
-0.014923051 0.039917536 -0.011729911 -0.63390589 0.40218416 -0.66061425 0.00066479878
-0.012942342 0.040479917 -0.013205874 -0.59259063 0.36117294 -0.71999341 0.00034454287
0.045207255 0.040546771 -0.01344854 0.60183579 0.29539549 -0.74198055 0.0025428832
0.04725194 0.040220235 -0.011949828 0.58314967 0.24505243 -0.7745229 0.0011407404
0.048998382 0.039097838 -0.011080678 0.55703324 0.26474866 -0.78716075 0.0019770637
-0.012587123 0.0429359 -0.012079243 -0.6297574 0.41914749 -0.65400386 0.0015065026
-0.010790726 0.043616232 -0.013366456 -0.60500336 0.39959732 -0.68868929 0.0016395893
0.042400919 0.044222008 -0.01359802 0.53034413 0.42344674 -0.73445761 0.0037729279
0.044481978 0.043183107 -0.012805121 0.56163698 0.34919694 -0.75008357 0.0018243553
0.046592254 0.043063033 -0.011470893 0.56204468 0.3402659 -0.75387329 0.0010892875
-0.011838982 0.045403849 -0.01138265 -0.6455065 0.47315401 -0.59953874 0.0018596883
-0.0098214811 0.046139285 -0.012527645 -0.53784615 0.48161668 -0.69192988 0.0025909063
-0.0075784018 0.046973232 -0.013407211 -0.46634236 0.50811678 -0.72411478 0.0011451424
0.039244238 0.047363531 -0.013671095 0.5353936 0.52773869 -0.65942818 0.0012969184
0.041497197 0.046476342 -0.012700117 0.48266235 0.49365959 -0.72342062 0.0022637413
0.043940764 0.045945618 -0.011813849 0.46824446 0.45524693 -0.75729609 0.0015971207
0.045818489 0.04510862 -0.011178429 0.54017472 0.39616665 -0.74247104 0.0018151957
-0.0088817077 0.048456185 -0.011459514 -0.51982141 0.57752228 -0.62948692 0.0013817096
-0.0065893345 0.049067125 -0.012423215 -0.43819621 0.56297219 -0.70074707 0.0012225707
-0.0039558075 0.049978174 -0.013312494 -0.38096026 0.55737877 -0.7376979 0.00071322755
0.035789471 0.050525252 -0.01356634 0.41629779 0.62513006 -0.66023368 0.00049664907
0.038263459 0.049519554 -0.01266695 0.43654484 0.58700103 -0.68180519 0.0010905297
0.040971659 0.048809323 -0.011602107 0.42792583 0.53222048 -0.73049349 0.00063169101
-0.0058225989 0.051107775 -0.011349942 -0.47617573 0.6055215 -0.63765222 0.00096929941
-0.0033469496 0.052057862 -0.012040794 -0.39536044 0.60583705 -0.69039953 0.0019257487
-0.00084208953 0.052307338 -0.012991783 -0.32156602 0.60762912 -0.72621077 0.00093786843
0.0020852454 0.053065572 -0.013406285 -0.22567302 0.64296371 -0.73189443 0.00053327781
0.0049181259 0.053661976 -0.013670008 -0.17563841 0.64979547 -0.73953843 0.00022630693
0.029678399 0.053549115 -0.013568004 0.22566231 0.72041911 -0.65579939 0.00027959084
0.032706704 0.052745868 -0.01316433 0.32514936 0.69925719 -0.63664526 0.00083312922
0.035248458 0.052192327 -0.012240309 0.36909208 0.6837998 -0.62943542 0.0004585672
0.037680786 0.051409077 -0.011476446 0.4237605 0.61513728 -0.66485572 0.00075934763
-0.00054431357 0.054145969 -0.011532123 -0.32223451 0.66401553 -0.67472094 0.0010196749
0.0020920914 0.054769482 -0.011936115 -0.24673711 0.69446713 -0.67589664 0.0013449237
0.0053560808 0.055320282 -0.012240358 -0.17240757 0.68402523 -0.70879138 0.00056121848
0.0082955817 0.055464111 -0.012748035 -0.14174445 0.68751514 -0.71220177 0.00050335203
0.011232485 0.055630274 -0.01307978 -0.073182017 0.69629842 -0.71401179 0.00056666537
0.014077347 0.055970322 -0.012890921 -0.011467481 0.72726768 -0.6862582 0.00035595644
0.017237876 0.055987325 -0.01276313 0.0061412742 0.7400955 -0.67247367 0.00010900224
0.020539753 0.055798635 -0.012998231 0.025567219 0.73453385 -0.67809021 0.00017650047
0.023226118 0.055651985 -0.012916098 0.089306958 0.73054874 -0.6769954 0.00028694706
0.026128056 0.055445947 -0.012510542 0.17737138 0.73515987 -0.65427762 0.00027666584
0.029135056 0.055034857 -0.012064654 0.25196004 0.73614466 -0.62817764 0.00048822683
0.031921696 0.054088071 -0.011984537 0.31129563 0.72270316 -0.61708605 0.00048792615
0.033784397 0.05398858 -0.011110599 0.36472911 0.70686561 -0.60606408 0.00061238225
0.0090658665 0.057148531 -0.011176353 -0.14079206 0.72755754 -0.67144448 0.00037282438
0.01127309 0.057095084 -0.011571358 -0.066827767 0.73095542 -0.67914516 0.00051385991
0.014118402 0.057080504 -0.011679156 0.00020468755 0.74152148 -0.67092913 0.00023856657
0.017288897 0.057100188 -0.011533679 0.0073892926 0.7440936 -0.66803449 0.00016452317
0.020452015 0.057093486 -0.011583192 0.024008805 0.74711394 -0.66426229 0.00022985734
0.023317818 0.057134118 -0.011282864 0.11739253 0.74697465 -0.65440655 0.00050567591
-0.042966057 -0.061451126 -0.01049387 0.88953876 0.40528032 -0.2108759 0.0019854484
-0.0439195 -0.058620062 -0.009883048 0.8878231 0.3811546 -0.25785911 0.0020475585
-0.044883158 -0.055836 -0.0097878408 0.88921899 0.37256357 -0.26549187 0.0021528732
-0.065745197 -0.052714769 -0.0093430411 -0.71493042 0.49096158 -0.49782649 0.0013275372
-0.064673997 -0.052057553 -0.01049027 -0.68575323 0.50509655 -0.52404201 0.0023978949
-0.04740845 -0.051612128 -0.010499294 0.64314085 0.60604107 -0.46806416 0.0022493969
-0.046145305 -0.052801616 -0.0094926935 0.80972314 0.45421872 -0.37152901 0.0049710576
-0.065549657 -0.050954316 -0.0081668152 -0.69448656 0.51610368 -0.50132376 0.0018246957
-0.063586108 -0.049710169 -0.0093732793 -0.62216794 0.58120173 -0.5245108 0.0035243421
-0.061661508 -0.048784282 -0.010264511 -0.48036757 0.62359172 -0.61674988 0.0058500194
-0.050876193 -0.048733566 -0.010685186 0.40001625 0.72520429 -0.56041569 0.0071881833
-0.048752055 -0.049595717 -0.0095996335 0.57825851 0.65724266 -0.48337281 0.0026488057
-0.04700049 -0.050592389 -0.0085063083 0.72019655 0.56192291 -0.40689006 0.0053420854
-0.062560938 -0.047542103 -0.0082337316 -0.53899205 0.63108271 -0.55787295 0.0044958349
-0.060458813 -0.047254749 -0.0094242292 -0.36751792 0.67481261 -0.63996762 0.0030829324
-0.057725776 -0.046562009 -0.00982178 -0.15918322 0.74646682 -0.64610213 0.0025575911
-0.054619633 -0.046343271 -0.0097930282 0.061897952 0.7452327 -0.66392523 0.004209877
-0.051977593 -0.047068633 -0.0094951689 0.37512574 0.72026539 -0.5835225 0.0041366415
-0.049999561 -0.047532227 -0.0083172172 0.53486735 0.65869761 -0.52918279 0.0014726281
-0.057546243 -0.045189496 -0.0083466945 -0.16080721 0.75346506 -0.63751972 0.0033677339
-0.054655764 -0.045173623 -0.0084880069 0.14498751 0.78077 -0.60776383 0.0072157411
-0.06111801 -0.023076128 -0.010068695 -0.24233562 -0.95130879 -0.19048606 0.0045844326
-0.05374058 -0.023360956 -0.010613705 0.23059542 -0.95805961 -0.17013972 0.0055661285
-0.05201276 -0.022935528 -0.0092206188 0.42204869 -0.89911681 -0.11603356 0.0067591704
-0.049913786 -0.021448422 -0.010775085 0.58096737 -0.80691475 -0.10660893 0.006026831
-0.048276391 -0.020298578 -0.0085027767 0.68554169 -0.72341067 -0.081912033 0.0043711471
-0.04676719 -0.018287409 -0.010556872 0.84420651 -0.53173023 -0.067664064 0.0088757752
-0.046252344 -0.017384764 -0.0094897104 0.88366199 -0.46593237 -0.045261439 0.0034917588
0.024455503 -0.015852157 -0.0080702258 -0.15466717 -0.49634057 -0.85423887 0.0033534209
0.026464554 -0.015950277 -0.0082699955 -0.055268772 -0.51302612 -0.85659182 0.0047451383
0.028597029 -0.015847046 -0.0081929965 0.12475399 -0.55678862 -0.82123262 0.0034075784
-0.045566853 -0.01513918 -0.0099344207 0.90267187 -0.42899761 -0.033829339 0.0028947208
0.021258023 -0.012656424 -0.0081739975 -0.47406358 -0.38738757 -0.79069245 0.0022477638
0.023350967 -0.013759471 -0.0087843677 -0.3316893 -0.44027132 -0.83435208 0.0035233621
0.026279019 -0.013884387 -0.0095231552 -0.060615331 -0.50501752 -0.86097801 0.0023567146
0.029224008 -0.013827159 -0.00943885 0.12702832 -0.52992088 -0.83847946 0.0022123936
0.032023914 -0.013535821 -0.0087939315 0.23163812 -0.51078331 -0.82791561 0.0015098663
0.034991879 -0.013113097 -0.0083945785 0.33302915 -0.47603059 -0.81393278 0.0036572288
-0.054969341 -0.010027427 -0.010915007 -0.55731422 0.82785904 -0.063641585 0.036699597
0.020477906 -0.010529752 -0.0086178454 -0.52753788 -0.33260128 -0.78171623 0.0010112419
0.022924662 -0.010832157 -0.010035028 -0.41891631 -0.35755458 -0.83466393 0.0021871673
0.025934057 -0.011755902 -0.010683835 -0.1217641 -0.47415459 -0.87198108 0.0043190224
0.029651932 -0.011756656 -0.010660324 0.12211841 -0.48875189 -0.86383379 0.0026501771
0.032398365 -0.010868621 -0.010243883 0.30180922 -0.40819949 -0.86155921 0.0019855939
0.035205469 -0.01070929 -0.0093022408 0.35261166 -0.3747324 -0.85746169 0.0025088906
0.037657954 -0.010444892 -0.0084130717 0.47529519 -0.36916074 -0.7986331 0.0030060161
0.00019467063 -0.0062767006 -0.0080044521 -0.14718086 -0.60569227 -0.78196841 0.0016038475
0.0023798798 -0.0064468719 -0.0086600604 -0.24291994 -0.67073548 -0.70078802 0.0031992095
0.0054502897 -0.0073748361 -0.0089441836 -0.17549859 -0.74626398 -0.64209831 0.0013341573
0.0081533669 -0.0075285612 -0.0092181861 0.058233231 -0.75332355 -0.65506691 0.0072592567
0.010982146 -0.0070485165 -0.0087248199 0.24102028 -0.68142724 -0.69106162 0.0023443005
0.013433329 -0.0064297915 -0.0083578927 0.19930515 -0.61904597 -0.75964433 0.0041256291
0.018341571 -0.0071917633 -0.0083684977 -0.44344866 -0.3216601 -0.83659315 0.010144436
0.020179406 -0.0077464869 -0.0095017981 -0.51765001 -0.28952768 -0.80511618 0.00047116846
0.02216376 -0.0080523882 -0.010640196 -0.45924553 -0.27586317 -0.8443892 0.0011338736
0.033168532 -0.0087599792 -0.010886605 0.34721234 -0.42284173 -0.83704752 0.0028346367
0.035314377 -0.0079546757 -0.010223869 0.36722213 -0.40639246 -0.83665586 0.0030653381
0.038183235 -0.0076058665 -0.009086255 0.43031988 -0.38478073 -0.81655902 0.0038828314
0.040276162 -0.0067836829 -0.0082032569 0.43142423 -0.48056656 -0.76349789 0.0013762534
-0.0060578678 -0.0039734226 -0.0083647324 -0.43899599 -0.54121947 -0.71719176 0.0033387325
-0.0035228387 -0.0045625074 -0.0088523133 -0.21781978 -0.58667392 -0.77997971 0.0044710319
-0.00076060113 -0.0046643605 -0.0091613112 -0.15448883 -0.603544 -0.78221983 0.001241551
0.0019136954 -0.0047836341 -0.0099332519 -0.32446012 -0.5783869 -0.74846125 0.0027070506
0.0050006798 -0.0060505606 -0.010438446 -0.21281411 -0.69244695 -0.68936735 0.003363427
0.0084408559 -0.0062257359 -0.010767866 0.085933477 -0.70106977 -0.70789593 0.0072097569
0.011415029 -0.0053183408 -0.010242769 0.2863301 -0.65664279 -0.69773585 0.00081243593
0.014255353 -0.0047078449 -0.0096293455 0.27035549 -0.61076969 -0.74422336 0.0014974043
0.017431594 -0.0046176957 -0.008890206 -0.18077376 -0.45073378 -0.87416244 0.040892679
0.020077776 -0.0050041247 -0.010306112 -0.46644926 -0.25922373 -0.84571165 0.0041952338
0.036035292 -0.0062263273 -0.010735433 0.39521778 -0.46930194 -0.78965724 0.00082848291
0.038482044 -0.0051140711 -0.010305436 0.42747107 -0.43970829 -0.78988934 0.0011113903
0.041194797 -0.0045994446 -0.0092429128 0.41060331 -0.46100223 -0.78669047 0.0017862766
0.043568846 -0.0040816944 -0.0084550716 0.41147453 -0.46885943 -0.78157502 0.0022791459
-0.009161002 -0.00095330854 -0.0084447768 -0.50308508 -0.58239937 -0.63852674 0.0016385411
-0.0068334332 -0.0018541331 -0.0095214099 -0.39304411 -0.57032675 -0.7212792 0.0022678194
-0.0037736965 -0.0025826574 -0.010371393 -0.20262407 -0.58549327 -0.78494662 0.0025388314
-0.00089323684 -0.0027846035 -0.010567022 -0.1889606 -0.58922803 -0.78555983 0.0032756883
0.0011461626 -0.0030547867 -0.010718728 -0.26034409 -0.58490705 -0.76818281 0.0019672583
0.015106629 -0.0030560086 -0.010604526 0.28492704 -0.57884806 -0.7640363 0.0010308902
0.017570458 -0.0024255898 -0.010212572 0.015359973 -0.5851168 -0.81080359 0.026401453
0.019545404 -0.0021039683 -0.010664976 -0.26819488 -0.42331564 -0.86537588 0.020329412
0.039517205 -0.0030538181 -0.01080751 0.45983472 -0.41428241 -0.78544384 0.0010680309
0.04138048 -0.0020431799 -0.010357907 0.41585347 -0.35526401 -0.83716989 0.0005607421
0.044092715 -0.0017462799 -0.0090371324 0.49264488 -0.30671173 -0.81438869 0.0038756062
-0.014490861 0.0026628189 -0.0080321981 -0.63997787 -0.52291465 -0.56301743 0.0018462138
-0.012542231 0.0019157664 -0.0091234278 -0.51491743 -0.62489003 -0.58683252 0.0012511477
-0.010074548 0.00089600752 -0.0098568201 -0.45411655 -0.63108271 -0.62889802 0.0019370829
-0.0077374745 0.00011667958 -0.010595853 -0.36920354 -0.60020334 -0.70953834 0.0027454717
0.042482156 0.00032858644 -0.010757442 0.44271144 -0.34590116 -0.82725996 0.00035614928
0.044501778 0.0011982329 -0.0099070221 0.54723287 -0.33950514 -0.7650311 0.0034173303
0.046450604 0.001784099 -0.0083515001 0.54236865 -0.32193238 -0.77601284 0.0026541713
-0.014951898 0.0044995802 -0.009017406 -0.65604657 -0.46188575 -0.59687895 0.0011618356
-0.013416637 0.0039260923 -0.010189886 -0.59679443 -0.48133925 -0.64198822 0.0027749755
0.045074802 0.0037644766 -0.010734129 0.55438769 -0.31288752 -0.77120405 0.00169841
0.047252681 0.0043012602 -0.0091356998 0.51071042 -0.35622734 -0.78248125 0.0032419278
0.049564306 0.0050033741 -0.0080982801 0.43614855 -0.35166004 -0.82831734 0.00047662479
-0.017672887 0.0084052198 -0.008275683 -0.74175513 -0.33477125 -0.58114326 0.00040926665
-0.015934512 0.0070360275 -0.0095648598 -0.70383596 -0.37436154 -0.60371208 0.00053763151
0.047567897 0.0069389157 -0.0098888539 0.51862007 -0.29531744 -0.8023845 0.0012174029
0.05012954 0.0072285561 -0.0087083746 0.4211539 -0.3162533 -0.8500666 0.00038689969
0.052099854 0.008193017 -0.008242771 0.47429571 -0.3281759 -0.81691134 0.0016907952
-0.018025551 0.01055899 -0.0089715589 -0.7462616 -0.29581341 -0.59631205 0.00050753914
-0.016712312 0.010037101 -0.010310843 -0.72490728 -0.29738489 -0.62134671 0.00023838262
0.04821483 0.0097414162 -0.010552108 0.48590595 -0.33489445 -0.80730486 0.00062738376
0.050177496 0.010346112 -0.0098206298 0.45600939 -0.31354737 -0.83291268 0.0014746469
0.052685719 0.010353194 -0.0085537462 0.50178444 -0.27586335 -0.81982428 0.0019454135
-0.018506775 0.013386091 -0.0096150469 -0.76423359 -0.24603418 -0.59616625 0.0004341618
0.051029064 0.012983426 -0.010501578 0.51600033 -0.28016856 -0.80947471 0.0026305476
0.053174589 0.013445982 -0.00909827 0.58162713 -0.17096902 -0.79528576 0.0037894559
-0.019387936 0.016218744 -0.0093996208 -0.80761278 -0.1728217 -0.56382126 0.00016627305
0.053399153 0.016161712 -0.0094540585 0.65969843 -0.14970522 -0.73646879 0.0020476079
0.055115175 0.01735108 -0.0079612387 0.72733974 -0.10273153 -0.67854488 0.0015833359
-0.020866912 0.019894306 -0.008208896 -0.83461851 -0.12994987 -0.53528011 0.000188946
-0.019676732 0.019030971 -0.009749244 -0.81342834 -0.13381958 -0.56606239 0.00015382483
0.053589586 0.019183837 -0.0098895086 0.69175577 -0.035925135 -0.72123742 0.0026687081
0.05505769 0.019248178 -0.0083959717 0.73577577 -0.045175795 -0.67571682 0.0016030571
-0.020840546 0.022420717 -0.0087285526 -0.8322354 -0.083354019 -0.5481208 0.00028481212
-0.019812915 0.022345448 -0.010212387 -0.81905138 -0.082938984 -0.56769359 0.00028934533
0.053625282 0.022376321 -0.0096141119 0.68962604 0.0099593559 -0.72409719 0.0011742834
0.055094276 0.022611547 -0.0081192879 0.69962811 -0.031119736 -0.71382922 0.0032774417
-0.021054219 0.025503125 -0.0087115867 -0.83803046 -0.027964234 -0.54490638 0.00046886576
-0.020135432 0.025210036 -0.01010419 -0.81708032 -0.025545789 -0.57595766 0.00050993805
0.051552124 0.026113469 -0.010932262 0.63229513 0.10802134 -0.76715976 0.0018318453
0.053274486 0.025223648 -0.0098713273 0.60325241 0.038262948 -0.79663205 0.0040156785
0.055278555 0.025524814 -0.0083351042 0.6059705 -0.049919862 -0.79391921 0.0030554989
-0.021129891 0.028023226 -0.0086188037 -0.83381492 0.039361581 -0.55063897 0.0005995197
-0.019944498 0.028328091 -0.010303007 -0.81195313 0.050705373 -0.58151621 0.00059609179
0.051404491 0.028305039 -0.010662798 0.5895201 0.10461384 -0.80095071 0.0032073485
0.053306069 0.028100368 -0.0096225385 0.52138925 0.045876361 -0.85208482 0.0017808103
0.055374984 0.0281785 -0.0084099993 0.59378082 0.0096163452 -0.80456936 0.0016630924
-0.020847702 0.031355727 -0.0085874628 -0.836209 0.1204273 -0.53502494 0.00067428662
-0.019819409 0.031248026 -0.010077949 -0.79395175 0.12900828 -0.59413588 0.00086228299
0.051128902 0.031269051 -0.010510482 0.54724842 0.041218992 -0.83595467 0.002944804
0.053327519 0.031292483 -0.0094547812 0.50136673 0.021346929 -0.86497152 0.00097055064
0.055377379 0.031369373 -0.0083917715 0.60222661 0.038502924 -0.79739612 0.0028269056
-0.020877544 0.033313412 -0.0079992963 -0.83268452 0.20055099 -0.51615477 0.00044021598
-0.019383894 0.034363355 -0.009705605 -0.77688074 0.21651386 -0.59125131 0.00053235772
0.051276233 0.034382671 -0.010601027 0.52470607 0.068095692 -0.84855551 0.0025981274
0.05324626 0.034326158 -0.0095380964 0.51535994 0.11008428 -0.84987384 0.0039166072
0.055194806 0.034054212 -0.0083246548 0.62628949 0.15654872 -0.76371062 0.0042169048
-0.01857871 0.03720323 -0.0094319917 -0.73824275 0.32682154 -0.59007233 0.00091558578
-0.016928606 0.038169142 -0.010832871 -0.67909819 0.33530733 -0.65298891 0.0010747503
0.050893128 0.037333649 -0.010344941 0.51881099 0.18687403 -0.83421415 0.0011559947
0.053297717 0.037113264 -0.0088601345 0.5791496 0.24993289 -0.77596343 0.0024548303
-0.017864157 0.03973446 -0.0087714 -0.70000595 0.4119823 -0.58332008 0.00068877253
-0.016329169 0.040494606 -0.009978829 -0.65930134 0.4219473 -0.62232006 0.00099031359
0.048403598 0.041348476 -0.010746653 0.58783704 0.25032985 -0.769274 0.0014122423
0.050200477 0.040267605 -0.0098814256 0.56783938 0.2776705 -0.77489197 0.001760436
0.052225262 0.039711636 -0.0087282388 0.59433556 0.36942211 -0.71434766 0.0029653991
-0.015362389 0.042868879 -0.0091417357 -0.64678317 0.47958693 -0.59301591 0.00072170707
-0.01352966 0.044083275 -0.01006598 -0.67186368 0.48761734 -0.55752003 0.0022179175
0.048016995 0.043605942 -0.010104083 0.61009932 0.35106266 -0.71030545 0.0014164246
0.049898457 0.042805258 -0.0088657988 0.60861504 0.41635162 -0.67545468 0.00097485841
-0.014475573 0.044758711 -0.0084645106 -0.66356635 0.49434701 -0.5615164 0.0019531858
-0.012721103 0.046175107 -0.0095236786 -0.68361384 0.48690635 -0.54368585 0.0014101249
-0.010906396 0.04737588 -0.010734986 -0.58502698 0.51508588 -0.62644231 0.0036231065
0.044744674 0.047205072 -0.010560526 0.46786758 0.51274484 -0.71985596 0.0010430829
0.047079187 0.046190612 -0.0093820728 0.57869399 0.43626156 -0.68904942 0.00082513806
0.049352467 0.044797886 -0.0080897463 0.61976051 0.41299534 -0.66733187 0.0007999551
-0.011710552 0.048582368 -0.0084976107 -0.6393764 0.56480795 -0.52171814 0.0015443355
-0.0099825831 0.049317427 -0.0096263625 -0.59676158 0.59615564 -0.53709793 0.0017102477
-0.0077376068 0.050247349 -0.010592218 -0.5094651 0.5961529 -0.62052166 0.0014775343
0.04177025 0.049837697 -0.010479396 0.42239222 0.56047702 -0.71235555 0.0012833196
0.044157457 0.049287319 -0.0092971986 0.46246225 0.56535435 -0.68301028 0.00047673428
0.046319671 0.048148498 -0.0085719973 0.50502998 0.51854068 -0.68997115 0.00082837616
-0.0090544438 0.051138043 -0.008456449 -0.53548115 0.65517926 -0.53291655 0.001084785
-0.006713165 0.052010648 -0.0095231012 -0.49213752 0.67492396 -0.54979843 0.002504593
-0.0043785516 0.053211596 -0.010233361 -0.41102105 0.64515388 -0.64407939 0.0013814168
0.03605422 0.053429514 -0.010518129 0.34302703 0.69966102 -0.62674314 0.00094864261
0.038530424 0.052593458 -0.0099099064 0.38360319 0.64282542 -0.66304147 0.00098211272
0.040999055 0.051890161 -0.0091380132 0.40987217 0.62414938 -0.66516346 0.00089155318
0.043256003 0.051145285 -0.0083960397 0.45514268 0.59264171 -0.66454571 0.0010473228
0.054467559 0.053743187 -0.0080301417 -0.25246331 -0.40307742 -0.87965375 0.0078607071
0.056631092 0.05323993 -0.0083399937 -0.1581831 -0.38560423 -0.90900356 0.0066133207
0.059097901 0.053205069 -0.0082477881 0.16628827 -0.2926254 -0.9416573 0.010732508
-0.0032438997 0.05467258 -0.0092470981 -0.43601656 0.73391479 -0.52082497 0.0015308042
-0.00088724704 0.055585276 -0.0095714219 -0.35346013 0.75846726 -0.54753381 0.0012788468
0.0020997582 0.056319065 -0.010267138 -0.25459504 0.76688612 -0.58912402 0.0020464167
0.0043180194 0.056576215 -0.010717715 -0.18010198 0.74210888 -0.6456297 0.0016469485
0.027462391 0.056555379 -0.010873462 0.22251333 0.75596529 -0.61563319 0.00063408416
0.029519448 0.056435496 -0.010187587 0.25594789 0.7533015 -0.60582799 0.00042442075
0.032429427 0.055555418 -0.0097991545 0.30647734 0.75072372 -0.58522254 9.102613e-05
0.035154775 0.054807357 -0.009272459 0.33037585 0.72775763 -0.6010164 0.00037694332
0.03782687 0.054325391 -0.0084713753 0.35666823 0.69667208 -0.62244332 0.00061206607
0.053631749 0.055460837 -0.0084158778 -0.35322088 -0.27970925 -0.89274728 0.0060461536
0.056292005 0.055466074 -0.0090938341 -0.093534306 -0.2261771 -0.96958506 0.0093882391
0.059079204 0.055321936 -0.0088828439 0.21975915 -0.16455436 -0.96157569 0.0059756935
0.060819749 0.055309985 -0.0082550971 0.37202406 -0.062343035 -0.92612708 0.010212577
0.00019467063 0.056892436 -0.0083537055 -0.35416001 0.785267 -0.50786465 0.00076856435
0.0021975059 0.057379182 -0.0088003231 -0.28111601 0.79240113 -0.5413633 0.0012150054
0.0054320307 0.057924505 -0.0094265658 -0.21320257 0.77785343 -0.59117568 0.0022816076
0.0082354285 0.058353789 -0.0096641313 -0.14715749 0.77262425 -0.61757296 0.0014373944
0.011093421 0.058652773 -0.0097989179 -0.071269922 0.77474862 -0.62823981 0.00063729502
0.014177709 0.058589477 -0.009928409 0.01173987 0.77684426 -0.62958336 0.00069767161
0.017360486 0.058606226 -0.0098071173 -0.0019949134 0.76648062 -0.64226431 0.0005235094
0.020218089 0.058596417 -0.0098778978 0.01955587 0.75186533 -0.65902662 0.00028191664
0.023097537 0.058642812 -0.0095429476 0.12864499 0.7579689 -0.63947922 0.00073236827
0.026114145 0.058061469 -0.0094537707 0.20229752 0.76240134 -0.61467052 0.00033879475
0.028979506 0.05768054 -0.0088160541 0.27437979 0.75890398 -0.59057653 0.00013583024
0.031289689 0.057037782 -0.0084604947 0.29890674 0.75077093 -0.58906519 0.0001051956
0.051267706 0.058842901 -0.0080897463 -0.51285779 -0.090319589 -0.85370916 0.0083798142
0.053094521 0.058110327 -0.0087771695 -0.27535337 -0.052059595 -0.95993245 0.0098463167
0.056132019 0.058262642 -0.0094373291 0.035750426 0.066624261 -0.99713749 0.012200437
0.059127506 0.058088709 -0.0089388229 0.27562758 0.145353 -0.95021147 0.011123912
0.060810048 0.057534937 -0.0083214995 0.46201485 0.18614948 -0.86711633 0.0077665104
0.012007135 0.060129035 -0.0080244793 -0.074917525 0.82808322 -0.55557674 0.0027926483
0.01360315 0.060127512 -0.0080352677 -0.0073963255 0.8317008 -0.55517483 0.0016418514
0.018072968 0.06012886 -0.0080256816 -0.015127473 0.79301345 -0.60901618 0.00062132953
0.020302322 0.060112927 -0.0081383167 0.013984365 0.79172587 -0.61071646 0.001077529
0.021904094 0.060128961 -0.0080249859 0.089361481 0.79211056 -0.60380083 0.0014575082
0.051270742 0.060761828 -0.0080650803 -0.45876375 0.13420637 -0.87836462 0.0083210217
0.053171732 0.061271459 -0.0085909218 -0.21279971 0.19200827 -0.95804441 0.0068174913
0.056145497 0.061161827 -0.0087166522 0.17999972 0.33982965 -0.92310125 0.0038150451
0.058780484 0.060354386 -0.0082365051 0.32495898 0.36315447 -0.8732242 0.0038071522
0.053822204 0.063312888 -0.0080829021 -0.079275109 0.38913691 -0.9177624 0.014265019
0.055103619 0.063317992 -0.0080486489 0.12889084 0.47174481 -0.87226379 0.010082032
-0.043923292 -0.057757493 -0.0074537052 0.90222561 0.35548481 -0.24417105 0.001158655
-0.044597086 -0.054923244 -0.0071340557 0.89373612 0.37656236 -0.24379641 0.0024692463
-0.066249445 -0.052280579 -0.007782246 -0.71185756 0.49790362 -0.49532881 0.001374176
-0.045301471 -0.05258327 -0.0065364726 0.86512709 0.42406863 -0.26780766 0.0029381979
-0.065852098 -0.049911615 -0.0062569729 -0.74944335 0.49127728 -0.44382569 0.0020302432
-0.064819708 -0.049038049 -0.0071205273 -0.72781843 0.50567657 -0.46321878 0.0032815782
-0.047971964 -0.048698988 -0.0074596163 0.61207324 0.64005578 -0.46442965 0.0011972566
-0.046587937 -0.049882259 -0.0064964951 0.81994122 0.48250809 -0.30802959 0.0077822423
-0.065375075 -0.048112918 -0.0052099181 -0.71002984 0.53507036 -0.45777434 0.0032773875
-0.063538037 -0.046708602 -0.0062310193 -0.60857338 0.59747243 -0.52217358 0.0047309091
-0.061124664 -0.045702409 -0.007335051 -0.37099814 0.71596009 -0.59140646 0.0027072369
-0.059214931 -0.045247529 -0.0078295721 -0.32544366 0.73636931 -0.59316665 0.0017735655
-0.051062785 -0.045819402 -0.0071647982 0.47272998 0.72875834 -0.4954167 0.003978271
-0.048899416 -0.047066979 -0.0063024629 0.62332273 0.6523788 -0.43112734 0.0017075152
-0.062834345 -0.044921223 -0.0050066365 -0.57862347 0.63617176 -0.51037282 0.0043432293
-0.060467128 -0.044343043 -0.0060099261 -0.3643111 0.73873246 -0.5670554 0.0031306306
-0.05771574 -0.043741934 -0.00645041 -0.16770181 0.78858501 -0.59161627 0.0031078989
-0.054815676 -0.043814775 -0.0067679849 0.14034268 0.78112513 -0.60839742 0.0072245072
-0.05220636 -0.044304453 -0.0061123436 0.43231815 0.72502333 -0.53613633 0.0032272218
-0.05885822 -0.024289358 -0.0058351709 -0.051452033 -0.989802 -0.13283384 0.0026480795
-0.054689236 -0.024291057 -0.0058074845 0.1952744 -0.97415304 -0.11355051 0.0064418288
-0.061281178 -0.023588751 -0.0068146242 -0.15354726 -0.96963733 -0.1903332 0.0042643175
-0.0573854 -0.024205092 -0.0072053624 -0.048707206 -0.98522502 -0.16419263 0.0022730213
-0.055785265 -0.02420507 -0.0072055114 0.071579449 -0.98830783 -0.13462532 0.0098472945
-0.051349342 -0.022996191 -0.0060009812 0.47392333 -0.8735857 -0.11065538 0.0063067097
-0.049641252 -0.02161539 -0.0077585829 0.65995407 -0.74658793 -0.084065445 0.0022411328
-0.046912339 -0.01880249 -0.0064579053 0.82456738 -0.5638833 -0.046089165 0.0049733864
0.021402545 -0.018536735 -0.0053255511 -0.45598066 -0.4826341 -0.74776065 0.0024275256
0.023511626 -0.019283239 -0.0056734672 -0.24838035 -0.54876465 -0.79822582 0.0024158605
0.026179746 -0.019467272 -0.0060128821 -0.032455165 -0.5613898 -0.82691485 0.0042889835
0.029032575 -0.019439999 -0.0055374471 0.15743105 -0.53368098 -0.83090311 0.00072248129
0.031761982 -0.019040277 -0.0052536977 0.29092863 -0.54858202 -0.78384835 0.0042345636
-0.045932446 -0.016232844 -0.0066318167 0.88295817 -0.46731132 -0.044777647 0.0028147439
0.020355703 -0.016311182 -0.0059731086 -0.50733727 -0.42837274 -0.74773371 0.0034316038
0.023168195 -0.016906528 -0.0070308698 -0.2537837 -0.49915415 -0.82851607 0.0025994254
0.026364235 -0.017202744 -0.0074499631 -0.014088238 -0.56796306 -0.8229335 0.0033642426
0.029399691 -0.016987883 -0.0071521588 0.16342433 -0.5613153 -0.81130612 0.00070499576
0.032239594 -0.016880468 -0.0064779934 0.2551662 -0.54634762 -0.79774338 0.0029229685
0.034968946 -0.016273694 -0.0062569631 0.36970052 -0.59250677 -0.71572149 0.0039852718
0.037021596 -0.015528983 -0.0055433665 0.47221485 -0.57792854 -0.6655913 0.0021890341
0.017970771 -0.013499337 -0.0054226718 -0.64161438 -0.3467055 -0.68419755 0.00051812624
0.019973425 -0.013710625 -0.0069041895 -0.55218512 -0.35400799 -0.75483108 0.0022502374
0.022079993 -0.014748815 -0.0077157719 -0.36716342 -0.38740528 -0.84564066 0.0049058939
0.032418732 -0.015045713 -0.0077075912 0.20621814 -0.54839516 -0.81039298 0.00013655354
0.035551775 -0.01434273 -0.0074711367 0.32511732 -0.53627467 -0.77891475 0.0054756873
0.038086627 -0.01352539 -0.0062005101 0.52465993 -0.49734721 -0.6909253 0.0010779884
-0.055728003 -0.0095416047 -0.0052432371 -0.55731171 0.82786101 -0.063637294 0.036699429
-0.0030193084 -0.0099085346 -0.0052617188 -0.31310141 -0.55102855 -0.77352118 0.0039655007
-0.00076877815 -0.010174774 -0.0056020273 -0.10096092 -0.56105131 -0.82160109 0.0026719945
0.0020299447 -0.010130494 -0.0055472613 -0.03805466 -0.56696188 -0.82286459 0.0029965909
0.0054469127 -0.0099363662 -0.0057855663 -0.073494822 -0.69682688 -0.7134639 0.0045437147
0.0082138814 -0.010162763 -0.0060514389 -0.0096007381 -0.74284613 -0.66939342 0.0031394465
0.011102709 -0.010164256 -0.0059935781 0.13349099 -0.70349461 -0.69805115 0.0016831785
0.014048103 -0.0097150309 -0.0056309099 -0.012335393 -0.62650931 -0.77931637 0.016101437
0.017376438 -0.010632873 -0.0061436282 -0.52444446 -0.40603742 -0.74839264 0.011066034
0.019141121 -0.011325439 -0.0073497919 -0.58363456 -0.32370955 -0.74470323 0.00057087943
0.038865555 -0.011125841 -0.0072059417 0.52960455 -0.41938949 -0.73731375 0.0031384567
0.040852703 -0.010383908 -0.0057838969 0.56797677 -0.43661466 -0.69768912 0.00096425402
-0.0065222755 -0.006960378 -0.0057647708 -0.45979169 -0.53726155 -0.70706552 0.002430029
-0.0036503889 -0.0075865192 -0.0065568066 -0.26752388 -0.56499648 -0.78051907 0.0065755523
-0.00081627606 -0.007646733 -0.0068764752 -0.1207221 -0.56351244 -0.81723922 0.0023291756
0.0020082716 -0.0080037769 -0.0069631259 -0.12921725 -0.63023853 -0.7655732 0.0068695759
0.005072277 -0.0086102914 -0.0072271554 -0.13856842 -0.70414883 -0.69640017 0.0032826005
0.0081857881 -0.0088427849 -0.0075209243 0.0037419365 -0.76443976 -0.64468431 0.0057663429
0.011321862 -0.0084625958 -0.0073895287 0.17264403 -0.67399424 -0.71827972 0.0026639658
0.014428072 -0.0077889217 -0.0070381816 0.047606479 -0.53875095 -0.84111899 0.018605819
0.016950361 -0.0077726273 -0.007152834 -0.28885922 -0.39152196 -0.87365377 0.026511027
0.039153192 -0.008832816 -0.0079262806 0.47071749 -0.38818604 -0.79229832 0.0038905935
0.041440364 -0.0078477599 -0.0069002965 0.48397917 -0.43030417 -0.76197278 0.001998862
0.044004794 -0.0072570052 -0.0059234076 0.45414886 -0.52928793 -0.7166611 0.0015641986
0.045809872 -0.0063238032 -0.0054525388 0.51643896 -0.5237996 -0.67743993 0.0046568289
-0.0092261275 -0.0041810144 -0.0055571995 -0.49542755 -0.48168638 -0.72286224 0.0021580143
-0.007105981 -0.0049324511 -0.0068469718 -0.47915593 -0.53835922 -0.69323808 0.0039724936
-0.0045968536 -0.0056416281 -0.0077997101 -0.27951446 -0.58818835 -0.75888479 0.0061704363
0.016799735 -0.0056394078 -0.0079314364 -0.071356684 -0.54358095 -0.83631814 0.024910584
0.042369276 -0.0056432821 -0.0077019585 0.41265681 -0.48840556 -0.76887864 0.0020745036
0.044610318 -0.0049596159 -0.0071633905 0.46349418 -0.4490498 -0.76388973 0.0037577001
0.046923276 -0.0045065219 -0.0059461817 0.59190857 -0.45448908 -0.66564542 0.0026421871
-0.012303127 -0.0011832349 -0.0056581842 -0.46468046 -0.52628899 -0.7121039 0.002256548
-0.0099673066 -0.0021853035 -0.0065304572 -0.50036585 -0.55272019 -0.66643411 0.0013166021
-0.0081160506 -0.0030891935 -0.0075216843 -0.50837904 -0.56032032 -0.65390509 0.0009491496
0.045538824 -0.0030847231 -0.0079355491 0.50556993 -0.34962371 -0.78877258 0.0080246525
0.047253106 -0.0018158222 -0.0069041923 0.56173855 -0.31061527 -0.76679069 0.0045551327
0.049398594 -0.0011847063 -0.0053754402 0.66752243 -0.35134467 -0.65648353 0.0082297875
-0.015353769 0.0016812482 -0.0059767687 -0.59452695 -0.53421509 -0.60095918 0.0048642969
-0.012991773 0.00055331015 -0.0070016696 -0.48947424 -0.61930829 -0.61389917 0.0022353174
0.047640711 0.0011188017 -0.00724045 0.51855683 -0.34557697 -0.78209674 0.0032691481
0.050055079 0.0015306707 -0.0063444385 0.46978599 -0.36344564 -0.80449265 0.0037531327
0.052443594 0.0024564378 -0.0054943715 0.57686418 -0.48719832 -0.65564132 0.010192436
-0.017949751 0.00475749 -0.0055770082 -0.70558763 -0.43661654 -0.55813265 0.00076078798
-0.016452467 0.0040627448 -0.00689829 -0.69633442 -0.44277212 -0.56486392 0.00061925041
0.050445899 0.0040352168 -0.0073467488 0.43594089 -0.36544958 -0.82243675 0.00057553244
0.052850433 0.0044327066 -0.0060923328 0.54376966 -0.41476572 -0.72957796 0.0059793601
-0.018565476 0.0072825076 -0.0064235264 -0.74943221 -0.34698969 -0.56387013 0.00043249532
-0.017059285 0.0061784051 -0.007684852 -0.71732062 -0.38415179 -0.58127314 0.0009167167
0.051305849 0.0061773695 -0.0077795936 0.43805268 -0.33991584 -0.83220619 0.00050937047
0.053289957 0.0070787612 -0.0069929315 0.51621705 -0.35516021 -0.77934664 0.0017612074
0.055318672 0.0075935898 -0.0056127561 0.60951054 -0.36387047 -0.70434022 0.00094892399
-0.020542441 0.010652672 -0.0055648126 -0.79971468 -0.27232432 -0.53506631 0.00047220293
-0.019260809 0.010088937 -0.0070778769 -0.77990115 -0.28074723 -0.55940604 0.0003326665
0.054282829 0.010094008 -0.0076104468 0.59751159 -0.23327138 -0.76717949 0.0023380897
0.05620677 0.010471285 -0.0061807074 0.66950417 -0.18121409 -0.72036499 0.0052957372
-0.020902596 0.013288464 -0.0061155809 -0.8218227 -0.20992531 -0.52965909 0.00031907062
-0.019828862 0.013101857 -0.0076785143 -0.79933715 -0.22144273 -0.55859047 0.00034411281
0.054488257 0.012563873 -0.0078717573 0.65935868 -0.097965188 -0.74541861 0.0039798412
0.056225009 0.013181377 -0.0063647022 0.69026732 -0.048100553 -0.72195387 0.0021465113
-0.021446353 0.016293405 -0.0062817042 -0.83669889 -0.16453855 -0.52236193 9.972597e-05
-0.020248584 0.015121039 -0.0078043295 -0.81789178 -0.17340289 -0.54862046 0.00032613802
0.056234512 0.016168596 -0.0063506057 0.71876281 -0.092871785 -0.68902457 0.0023592212
-0.021841431 0.019280443 -0.0065111676 -0.84501219 -0.13042706 -0.5185973 0.0001817398
0.056613743 0.019337192 -0.0063326014 0.68423021 -0.10403696 -0.721807 0.0034135112
-0.022188494 0.022337571 -0.0064769983 -0.85944283 -0.070091121 -0.50640422 0.00018859196
0.056420229 0.022292111 -0.0067479396 0.65432256 -0.089435108 -0.75090837 0.0033664147
0.058390852 0.022589462 -0.0054037822 0.62415361 -0.15019031 -0.76673025 0.00048050313
-0.022399141 0.025046911 -0.006450986 -0.86911172 -0.022609862 -0.49409881 0.00029239914
0.056638464 0.024997048 -0.0073269978 0.62928808 -0.073921576 -0.77364856 0.0021215051
0.058600906 0.025133178 -0.0058736736 0.64175105 -0.050329879 -0.76525974 0.0045281611
-0.022478661 0.028429542 -0.0063255383 -0.87522203 0.043448675 -0.4817661 0.00033284354
0.05680652 0.028252434 -0.0072662365 0.67280763 0.019466182 -0.73956132 0.0015900022
0.058250073 0.028202681 -0.0058301343 0.69257987 0.070189342 -0.71791828 0.0025209452
-0.022055825 0.031206645 -0.0066080857 -0.86242288 0.11779047 -0.4922927 0.00061848579
0.056773964 0.031310037 -0.0072445492 0.6511566 0.057874225 -0.75673348 0.0034092783
0.057966974 0.031234872 -0.0058123199 0.73819256 0.086916871 -0.66896731 0.00072302081
-0.021599855 0.034204021 -0.0064140572 -0.84049219 0.21640722 -0.49673009 0.00051012554
0.056648899 0.034308366 -0.0068595735 0.71091294 0.20041496 -0.67411911 0.001829747
0.058018975 0.033510681 -0.0054364754 0.74863541 0.19593419 -0.6333679 0.0014768618
-0.020912208 0.037311677 -0.0060623121 -0.81778491 0.29349706 -0.49506289 0.00099716568
-0.019934244 0.037171014 -0.0076979799 -0.77774912 0.29590929 -0.55456638 0.00084931531
0.054529939 0.037822701 -0.0075528175 0.65659672 0.2939178 -0.69461727 0.0019543092
0.056017917 0.037119508 -0.0063130334 0.69369781 0.30506325 -0.65247214 0.00090824056
-0.020364072 0.039612453 -0.0054570092 -0.79087162 0.39937717 -0.46370241 0.0013705505
-0.019019917 0.040395845 -0.006760411 -0.75460589 0.40460923 -0.5165863 0.00083305914
0.053527817 0.0404252 -0.0070643853 0.64065605 0.40682235 -0.65119535 0.0012634401
0.055229448 0.039931796 -0.0054772948 0.67842352 0.41450015 -0.60657334 0.00036095708
-0.018225761 0.042625152 -0.0060840161 -0.71604365 0.47884688 -0.50792432 0.0018916306
-0.016656296 0.043832403 -0.0071258796 -0.66389632 0.54270381 -0.51450384 0.0021816832
0.050958365 0.043830939 -0.0071401102 0.62702924 0.41478637 -0.65938359 0.00058939867
0.05282731 0.042914096 -0.0058512818 0.6191867 0.41539231 -0.66637611 0.0012005504
-0.015252909 0.045663781 -0.006621717 -0.65342337 0.57546741 -0.49180806 0.00274422
-0.013723116 0.046978701 -0.0071274368 -0.68354315 0.55383354 -0.47543365 0.0032961983
0.048147086 0.047420125 -0.0074701561 0.58637381 0.4347049 -0.68351835 0.0024326029
0.050137937 0.046269681 -0.0062792799 0.54476702 0.33134949 -0.77034825 0.0095436154
0.059597012 0.047475517 -0.0053104032 -0.15891141 -0.5955165 -0.78746891 0.0019875588
0.062178496 0.047311503 -0.0055488115 0.03461346 -0.5561583 -0.83035523 0.0063799862
0.06433177 0.047399823 -0.0053306296 0.35539261 -0.44253132 -0.82332385 0.011522088
-0.012508858 0.049283266 -0.0064315507 -0.69082725 0.56604058 -0.44983977 0.0020622802
-0.010675728 0.050622325 -0.0074247969 -0.56369054 0.66047972 -0.49600363 0.0019078617
0.045371599 0.050398543 -0.0075160414 0.4721218 0.5561797 -0.68393362 0.002593487
0.047335438 0.049349647 -0.0069791777 0.5160504 0.39599508 -0.75952607 0.0093295751
0.049517613 0.049103145 -0.00561292 0.44374442 0.22484602 -0.86748785 0.02116622
0.053436331 0.05002119 -0.0052629164 -0.13334675 -0.40262261 -0.90560126 0.033068709
0.056169942 0.049572308 -0.0059365937 -0.21653941 -0.54580915 -0.80944616 0.0014833944
0.059136439 0.049435239 -0.0066191172 -0.050608918 -0.47504896 -0.87850279 0.006680097
0.062333044 0.049430028 -0.0066673197 0.15415889 -0.37104258 -0.91573054 0.011300076
0.065139078 0.049481362 -0.0058761453 0.47088113 -0.20393613 -0.85830128 0.014584607
-0.011694107 0.051190209 -0.0053421808 -0.66401994 0.61861193 -0.41999623 0.0040309667
-0.0097403545 0.052019011 -0.0064571267 -0.54732817 0.69794285 -0.46185249 0.0019927921
-0.0076483497 0.053081702 -0.0069307787 -0.49633205 0.73942298 -0.45487168 0.001712671
0.041924093 0.053027648 -0.007365617 0.41323304 0.65450877 -0.63313246 0.00053767738
0.044228312 0.052331612 -0.0065260376 0.36577925 0.62166911 -0.69262767 0.0021568963
0.047141381 0.051651508 -0.0055165789 0.22828132 0.40884617 -0.88359058 0.029119132
0.050520513 0.052219056 -0.0053608371 -0.17252941 -0.11513991 -0.97825176 0.035365038
0.053379625 0.052007247 -0.006542454 -0.29750755 -0.46196494 -0.83551037 0.0021471924
0.056103405 0.0519346 -0.0075516542 -0.19302799 -0.48117939 -0.85510617 0.0037371928
0.059271581 0.051691115 -0.0077183824 0.0095813917 -0.36842582 -0.92960775 0.0097557139
0.062235657 0.052233364 -0.0073225214 0.28476232 -0.15902603 -0.94531536 0.012260516
0.065384299 0.052210778 -0.0060490374 0.53167796 -0.02695246 -0.84651762 0.0064963964
-0.0063251117 0.05439347 -0.0062642298 -0.50528616 0.74613851 -0.43354726 0.0006984701
-0.0038906124 0.055928919 -0.0065777404 -0.46503589 0.76941371 -0.43788612 0.0017309629
0.035474241 0.056169733 -0.007382473 0.30910814 0.74654508 -0.58917111 4.9333135e-05
0.038204193 0.05576339 -0.0064825094 0.33114752 0.72906309 -0.59900612 0.00022681785
0.040976349 0.054674942 -0.0061566932 0.37637883 0.68844414 -0.61998683 0.0004579128
0.043251153 0.054081801 -0.0053442372 0.27285242 0.65871245 -0.7011773 0.0098833097
0.048426591 0.05669174 -0.0050462438 -0.49707308 -0.044381894 -0.86657286 0.039528534
0.050262362 0.055301655 -0.0062602526 -0.55095071 -0.20101632 -0.8099665 0.0084134545
0.052550603 0.054613244 -0.007579417 -0.4188979 -0.33897308 -0.84239054 0.0050523952
0.062494844 0.055063855 -0.007220712 0.43545753 0.012242393 -0.90012598 0.0063876989
0.064965449 0.055200852 -0.0059231794 0.58801496 0.093860097 -0.80338579 0.0073962449
-0.0026971989 0.057289451 -0.0053855432 -0.45040908 0.79022592 -0.4155415 0.0021610293
-0.00076723215 0.057640284 -0.0063626571 -0.35207087 0.83617067 -0.420553 0.0012006348
0.0020249672 0.058490481 -0.0066724415 -0.28130814 0.86038637 -0.42497182 0.0016530316
0.0053136507 0.059357725 -0.0071457042 -0.24976088 0.84450054 -0.47374934 0.0027196906
0.0072202035 0.059506122 -0.0079128994 -0.19523279 0.83836859 -0.50894225 0.0054685762
0.026724391 0.059399623 -0.0075326068 0.21310398 0.77799308 -0.59102744 0.00030501338
0.029158952 0.058994822 -0.0069950363 0.26807699 0.76546913 -0.58497155 0.00013322855
0.032335151 0.058205012 -0.0064210589 0.29956961 0.75269371 -0.58626813 0
0.035030749 0.057489675 -0.0059468485 0.30453685 0.74840397 -0.58919328 5.2673786e-05
0.03683668 0.057313088 -0.0052088453 0.30313715 0.74698257 -0.59171355 2.2438833e-05
0.048174087 0.058468569 -0.0053770444 -0.68552226 -0.12189787 -0.71777445 0.0020879111
0.049945176 0.058265395 -0.0070059686 -0.59048915 -0.16734953 -0.78950411 0.0028869989
0.060225692 0.059500936 -0.0079499735 0.37572104 0.23902577 -0.89537722 0.0078194449
0.062388912 0.058368616 -0.0071149878 0.49998888 0.20883286 -0.8404761 0.0050026742
0.064621903 0.058000483 -0.0056718094 0.63671768 0.23326005 -0.73496962 0.0074901702
0.0056564738 0.06017565 -0.0054248376 -0.2694003 0.88203675 -0.3865678 0.0014252737
0.0083961869 0.060464393 -0.0065616146 -0.19295728 0.88339967 -0.4270508 0.0024186068
0.010838252 0.060685504 -0.0069226651 -0.11824464 0.87371832 -0.47184172 0.0029061751
0.014681027 0.061063234 -0.0064123613 -0.036657915 0.88129497 -0.47114256 0.00083292043
0.017046861 0.061105713 -0.0065628779 -0.041964278 0.83398294 -0.55019218 0.0016397204
0.020055622 0.061289545 -0.0066171093 0.0094094612 0.83189058 -0.55486 0.001830839
0.02325744 0.060965456 -0.0066468669 0.13889123 0.81363195 -0.56454599 0.00086634199
0.026035765 0.060673371 -0.0061222268 0.20516917 0.80812764 -0.55211884 0.0009945475
0.029100617 0.060161088 -0.0055281674 0.26730925 0.77552891 -0.57192719 0.00030307748
0.04804147 0.061114352 -0.0055993362 -0.68796962 0.031760421 -0.72504419 0.0048149331
0.049959775 0.061353862 -0.0071553509 -0.5703826 0.081391223 -0.81733668 0.005891874
0.051927242 0.062698483 -0.0079201413 -0.24618873 0.23470286 -0.94037533 0.0083063347
0.057370517 0.062394753 -0.0078141494 0.22515099 0.38391668 -0.89549714 0.0063505885
0.059558716 0.06150559 -0.0073375087 0.38534504 0.38912848 -0.83671272 0.0014892305
0.062019411 0.061286386 -0.006194124 0.51683128 0.4009884 -0.75636882 0.0040647364
0.064027771 0.060077831 -0.0053578769 0.5951851 0.38073221 -0.70767069 0.0046021701
0.048268732 0.063856669 -0.0052999929 -0.62876755 0.30561617 -0.7150175 0.0070601911
0.050136432 0.06425558 -0.0064223488 -0.45744357 0.37592247 -0.80587077 0.0089128381
0.053168222 0.064555869 -0.0073202085 -0.076419525 0.51508218 -0.85372746 0.0079988465
0.056269091 0.064501978 -0.0069826515 0.23278148 0.51668435 -0.82392359 0.0031804263
0.059054334 0.064033359 -0.0061258869 0.38492835 0.53807205 -0.74987239 0.0021310903
0.061441936 0.063275516 -0.0054621152 0.51711923 0.5038684 -0.69188458 0.0040640715
0.050864376 0.066670753 -0.005491375 -0.31885311 0.59286368 -0.73948997 0.0092151444
0.053274181 0.066810176 -0.0058259205 -0.041116025 0.63189155 -0.77396548 0.0096060708
0.055979323 0.066528857 -0.0055911411 0.23152581 0.63639331 -0.73579848 0.00313453
-0.044985253 -0.052506816 -0.0035273833 0.88200235 0.41696915 -0.21956435 0.0032995101
-0.066306382 -0.048650641 -0.0033883108 -0.73846936 0.52854151 -0.4186967 0.0022276973
-0.045892932 -0.04949436 -0.0036560036 0.8478108 0.4646894 -0.2555007 0.0066480068
-0.065651827 -0.047029711 -0.0034451638 -0.73847204 0.52852815 -0.4187088 0.0022530931
-0.064746864 -0.046151433 -0.0040785698 -0.74044144 0.51898324 -0.4270865 0.0023741857
-0.048151381 -0.046315569 -0.0040517165 0.70978087 0.58787876 -0.38808465 0.0041837748
-0.046831902 -0.047448631 -0.003172846 0.80430251 0.52759027 -0.27339709 0.0075736647
-0.063488655 -0.044101529 -0.0031671007 -0.59099805 0.6676544 -0.4527238 0.0080244998
-0.060999405 -0.043102123 -0.0039584483 -0.33812574 0.76046401 -0.55440539 0.0013550866
-0.057748273 -0.042392839 -0.0045835627 -0.16139273 0.78909498 -0.59269005 0.0027633521
-0.054817323 -0.042366561 -0.0048349304 0.13770089 0.79315203 -0.59325236 0.0072592045
-0.051591177 -0.043120857 -0.003784307 0.47453845 0.7368111 -0.48158357 0.0042954739
-0.049451891 -0.044602111 -0.003349273 0.60652006 0.65905362 -0.44472662 0.0013307425
-0.060250785 -0.041715372 -0.0023960662 -0.34541452 0.75478971 -0.557657 0.0016835368
-0.057759862 -0.041308727 -0.0030602904 -0.16242817 0.81372219 -0.55809796 0.0030851609
-0.054712318 -0.041247368 -0.0031747832 0.16015089 0.79344696 -0.58719134 0.0081080804
-0.052335832 -0.041699577 -0.0025498404 0.43670917 0.72773433 -0.52885514 0.0027268631
-0.059863109 -0.024445493 -0.0032964302 -0.045405068 -0.98690301 -0.15479289 0.0014836105
-0.05406519 -0.024452228 -0.0031870557 0.26608348 -0.95558017 -0.12675199 0.0041176551
0.027076887 -0.02452476 -0.0020074947 -0.018935211 -0.73096186 -0.68215561 0.003182645
-0.051288825 -0.023222651 -0.0021201326 0.523875 -0.84333283 -0.11976967 0.0023956485
-0.049517516 -0.021856252 -0.0034067882 0.6691848 -0.73870289 -0.080683358 0.0015752632
0.020817934 -0.022068409 -0.0024988344 -0.4788993 -0.5204317 -0.7069698 0.0028994856
0.023379007 -0.022712102 -0.0030668296 -0.21039781 -0.63615966 -0.74231642 0.0023078523
0.026165029 -0.022899995 -0.0033637222 -0.065734573 -0.65049958 -0.75665665 0.0022319164
0.029257275 -0.022833873 -0.0032672477 0.160183 -0.63103676 -0.75903493 0.0019715689
0.032077089 -0.022412974 -0.0027037067 0.34504592 -0.60221267 -0.71991891 0.0024652877
0.034184031 -0.021597523 -0.0022332622 0.5169639 -0.57091784 -0.63780963 0.0015799634
-0.0480971 -0.020506479 -0.0045275739 0.74970186 -0.65860665 -0.06468647 0.0066625481
-0.046978395 -0.01929279 -0.0030207289 0.81438839 -0.57423496 -0.083820589 0.005342843
0.018101729 -0.018894706 -0.0023420108 -0.62762755 -0.44145688 -0.6412484 0.0013054146
0.020229178 -0.019787485 -0.0036005075 -0.50117522 -0.4721362 -0.72519708 0.0036344535
