# .PCD v0.7 - Point Cloud Data file format
VERSION 0.7
FIELDS x y z normal_x normal_y normal_z curvature
SIZE 4 4 4 4 4 4 4
TYPE F F F F F F F
COUNT 1 1 1 1 1 1 1
WIDTH 563
HEIGHT 1
VIEWPOINT 0 0 0 1 0 0 0
POINTS 563
DATA ascii
0.0077084559 0.052806802 0.0092447391 -0.43435687 0.65593976 -0.61731452 0.003537881
0.010514107 0.053739175 0.008423687 -0.33963838 0.73294801 -0.5894345 0.0024001591
0.012732952 0.054233681 0.0079443511 -0.22483341 0.78360176 -0.57915306 0.0013673442
0.047901183 0.053612832 0.0083043231 0.48938251 0.56063122 -0.66798007 0.0060975668
0.04963614 0.05261486 0.0093995091 0.54518133 0.61021674 -0.57481551 0.0045446833
0.0087452065 0.054544937 0.010354435 -0.36556429 0.67246884 -0.64354366 0.00096527196
0.010901663 0.055081747 0.0098954495 -0.30826876 0.73231691 -0.6071921 0.0018448848
0.013926174 0.055814981 0.0093826139 -0.2325452 0.75400305 -0.61433071 0.00083721714
0.016767245 0.056409258 0.0092407996 -0.13491204 0.75746888 -0.63877982 0.0016021535
0.019773439 0.056389399 0.0090921875 -0.040875498 0.74552238 -0.66522598 0.00045747301
0.022775464 0.056361608 0.0088857347 -0.0720452 0.71889746 -0.69137245 0.00048922061
0.02563832 0.056459561 0.0086204521 -0.095863111 0.73020858 -0.67646551 0.0011096642
0.028490657 0.056798067 0.0085846921 -0.041710395 0.79638618 -0.60334849 0.002487147
0.031793177 0.057011653 0.0087543484 0.097042866 0.84962767 -0.51837784 0.0028369522
0.034896299 0.05653628 0.0089424308 0.15592065 0.8315568 -0.53310597 0.0059679043
0.03805656 0.056165744 0.009237756 0.044654708 0.82465661 -0.56386828 0.0032527321
0.040726051 0.056158196 0.0090276692 -0.0011142804 0.78138381 -0.62404966 0.0048927334
0.04375603 0.056320682 0.0090321442 0.15360311 0.8134445 -0.56099385 0.0072860722
0.046747372 0.055477992 0.009286263 0.44430149 0.69282091 -0.56797487 0.0065884301
0.048992872 0.054544497 0.010351067 0.57959795 0.60143101 -0.54986095 0.0027785511
0.022836056 0.057914797 0.010470294 -0.070366189 0.74773562 -0.66025758 0.0014113027
0.025830854 0.057839934 0.0099232029 -0.038915236 0.76026827 -0.64844263 0.0019762581
0.02884833 0.057843581 0.0099498387 0.043443289 0.82575947 -0.56234688 0.0049550803
0.030885996 0.057909507 0.010431623 0.13116272 0.866081 -0.48238993 0.0024409725
-0.02694496 -0.06916339 0.012183106 -0.21732892 -0.89603323 -0.38715965 0.0026394266
-0.025868092 -0.06902308 0.011270454 -0.09777756 -0.92690235 -0.36234173 0.0038195546
-0.021175988 -0.069057383 0.011493599 0.14897522 -0.94159907 -0.3019895 0.0045496658
-0.020248212 -0.06926433 0.012839681 0.14900464 -0.9415834 -0.3020238 0.0045893481
-0.047988668 -0.066663049 0.013498222 -0.057502363 -0.93767971 -0.34271029 0.010363387
-0.046248458 -0.066600151 0.01307199 -0.06069804 -0.94786829 -0.31282821 0.0088580027
-0.044627897 -0.066685326 0.013649022 0.042854313 -0.96112615 -0.27276394 0.0042648073
-0.034301773 -0.06571155 0.01160953 -0.41068259 -0.86383355 -0.29177275 0.0047948388
-0.03099397 -0.067832887 0.012288686 -0.37917447 -0.88997698 -0.25331363 0.0027938627
-0.028913276 -0.068389796 0.011526262 -0.27124843 -0.88060158 -0.38854221 0.0018277669
-0.018503888 -0.068434663 0.011820978 0.24938621 -0.90882939 -0.33441833 0.0015255292
-0.016825007 -0.067770697 0.011881268 0.36804408 -0.88171291 -0.2951709 0.0033675046
-0.040315941 -0.065655939 0.011228716 0.026716117 -0.90345192 -0.42785618 0.0057731629
0.0033612698 -0.063919194 0.01320604 -0.066654392 -0.96352345 -0.25919059 0.00056428387
0.0050515067 -0.063716628 0.011773868 -0.020617172 -0.96155936 -0.27382222 0.0018992414
0.0094193853 -0.063578017 0.01079399 0.19578089 -0.94450617 -0.26377645 0.013050014
-0.010754216 -0.06166802 0.011557018 0.56994683 -0.76293439 -0.30510953 0.040814988
-0.0033442606 -0.062271114 0.011054521 -0.32371756 -0.88725138 -0.32862145 0.0009232068
0.014137479 -0.061695334 0.011756783 0.34293795 -0.91246599 -0.22315787 0.0027600948
0.015502751 -0.061144065 0.012656158 0.36078343 -0.88301957 -0.30018616 0.0040872521
0.02288359 -0.057646774 0.011677619 0.56735492 -0.7847032 -0.24969839 0.0032597203
0.024236467 -0.056325641 0.011868721 0.56187367 -0.79283559 -0.23602909 0.0032622165
0.025914418 -0.055300038 0.011741137 0.54002649 -0.80560565 -0.24366155 0.0026393593
-0.055723414 -0.050827619 0.010862207 -0.94098157 -0.21862806 -0.25837064 0.00090406014
0.029584879 -0.052878957 0.011179408 0.67243135 -0.71732903 -0.18241461 0.0067546121
0.032404922 -0.049758296 0.013375705 0.74017364 -0.62520009 -0.24752349 0.001449801
0.034107424 -0.048093949 0.013601264 0.7406342 -0.64053047 -0.20293249 0.0011027078
0.038441636 -0.042609911 0.012789657 0.86887145 -0.47790477 -0.12911013 0.0031402463
0.039007716 -0.040799212 0.011370009 0.91349506 -0.31695786 -0.25507745 0.0013913221
0.039737396 -0.038845178 0.012115603 0.93717629 -0.2710627 -0.21960318 0.0011176241
0.040178739 -0.037039451 0.012009874 0.94174266 -0.23924446 -0.23639534 7.687771e-05
0.040904723 -0.033951201 0.011969192 0.94442904 -0.23031591 -0.23453841 0.00074670406
0.041672282 -0.030693617 0.011064744 0.85349959 -0.43206617 -0.29130268 0.017079698
0.051753521 -0.030695405 0.011092072 -0.76505315 -0.56490463 -0.30915424 0.031400345
0.047766894 -0.028708633 0.011563873 -0.2998226 -0.90969461 -0.28733623 0.025975054
0.049778149 -0.02937704 0.011496549 -0.51652598 -0.84134048 -0.15920821 0.020169565
-0.042352304 -0.021302458 0.011408782 0.3043839 0.9168638 -0.25828493 0.058147788
-0.043971516 -0.02027094 0.01086848 0.60341847 0.59119016 -0.5351451 0.062995724
-0.035584889 -0.020610522 0.010955488 -0.29113623 0.9104048 -0.29394349 0.0066920607
-0.029537423 -0.017251056 0.010931617 -0.70354474 0.60451871 -0.37360662 0.043030091
-0.028194493 -0.012549397 0.010937279 -0.94342107 0.25189164 -0.21565536 0.00059742387
-0.026329288 -0.0058511607 0.012968218 -0.90689689 0.39908496 -0.13516341 0.0014383721
-0.025257254 -0.0041603111 0.012121206 -0.87666398 0.44920436 -0.17226607 0.0022753803
-0.024201514 -0.0024747662 0.011474913 -0.90350574 0.38794398 -0.18214536 0.0078919875
-0.023550788 -0.00045532105 0.011797126 -0.91672963 0.29942566 -0.26448262 0.0062345541
-0.023663282 0.0019137263 0.013460023 -0.9439798 0.11583436 -0.30900574 0.0049581067
-0.02283605 0.0029020794 0.011166042 -0.91170108 0.13488126 -0.38808259 0.0015295048
-0.023670992 0.004954977 0.013573999 -0.91965902 -0.021571888 -0.39212486 0.0013674763
-0.022873368 0.0049270429 0.011730539 -0.91700369 0.040424395 -0.39682513 0.0020394959
-0.023645481 0.0079876818 0.013196861 -0.89533252 -0.0015343199 -0.44539568 0.0010301954
-0.02287131 0.0079542957 0.011699406 -0.87811261 0.040911566 -0.47670171 0.0013481452
-0.023664838 0.010696694 0.013482986 -0.85921156 0.092836991 -0.50312692 0.002079377
-0.022582782 0.01107805 0.011692351 -0.82938653 0.1597072 -0.53536117 0.0017489777
-0.02209973 0.01400718 0.012236178 -0.78819215 0.10626511 -0.60618556 0.0033753619
-0.022059206 0.016639452 0.012502443 -0.78131133 -0.022787815 -0.62372535 0.0014930882
-0.023672514 0.020498518 0.013596471 -0.72259444 -0.055633537 -0.68902993 0.001319791
-0.022236235 0.019757342 0.01227143 -0.74229985 -0.029968536 -0.66939723 0.0020214394
-0.023672974 0.022864386 0.013603268 -0.7013669 0.13429026 -0.70003617 0.0047334731
-0.022033878 0.022876758 0.012112822 -0.67294896 0.17202404 -0.71940762 0.0037804169
-0.021676918 0.025576726 0.012660921 -0.65728593 0.27209786 -0.70280719 0.00047962466
-0.019935843 0.026325151 0.011366279 -0.64943516 0.28666908 -0.70431167 0.00080373441
-0.020951236 0.028250098 0.013301542 -0.69590902 0.24103183 -0.67647201 0.002056482
-0.019326266 0.028922152 0.011879569 -0.67093796 0.25285175 -0.69707114 0.0026632494
-0.019147767 0.031808741 0.012199817 -0.72581887 0.12685168 -0.67608851 0.00037296099
-0.018987237 0.034810401 0.012547208 -0.70632046 0.191633 -0.68146026 0.0017053849
-0.017449867 0.035816733 0.01098392 -0.69854802 0.20080377 -0.68681043 0.0021478895
-0.018456422 0.037449934 0.012965705 -0.64993954 0.35047868 -0.67434657 0.0040093507
-0.016817272 0.038205795 0.011726905 -0.60029244 0.40977192 -0.6868304 0.0037979924
-0.015702235 0.040560309 0.012671452 -0.52945465 0.50192827 -0.68391937 0.00095684425
-0.013361296 0.041499842 0.011557823 -0.40615949 0.55362433 -0.72700381 0.0049811625
-0.011063794 0.041851632 0.010873606 -0.2024972 0.52553242 -0.82632351 0.0012141245
-0.012821843 0.043383494 0.012700465 -0.4002018 0.58465451 -0.70570374 0.0019114345
-0.010096341 0.043643091 0.011947561 -0.21933109 0.58689672 -0.77938831 0.00090625969
-0.0072218422 0.043878667 0.011521202 -0.22749132 0.52370894 -0.82096076 0.0032813014
-0.0046934937 0.044580583 0.011272849 -0.43992758 0.44427383 -0.78043866 0.010742946
0.065247245 0.044604342 0.011498844 0.53371137 0.55166578 -0.64095002 0.0113842
-0.0099251121 0.04559546 0.01341201 -0.26577899 0.62689573 -0.73236829 0.0016183197
-0.0069630626 0.045978528 0.012997719 -0.27573586 0.56298429 -0.77911389 0.0043855654
-0.0043766471 0.046850383 0.012038432 -0.50939137 0.40295169 -0.76036197 0.0089758653
0.062208168 0.047787402 0.011396883 0.45012942 0.63684577 -0.62594813 0.0075587076
0.064217925 0.046268243 0.011342471 0.42417848 0.60437661 -0.67438972 0.012721531
-0.003428994 0.049579516 0.012341276 -0.60594976 0.42117018 -0.6748634 0.0032454119
-0.0010620843 0.050417975 0.011182254 -0.35350451 0.44974664 -0.82022101 0.0030596913
0.0011913808 0.051102374 0.01100759 -0.28694022 0.51440901 -0.80811429 0.0020241148
0.056452595 0.051275823 0.011053359 0.31807882 0.72433019 -0.61169577 0.0075811273
0.059030786 0.050012771 0.011732282 0.40778738 0.6594364 -0.63154829 0.0022907974
0.061127789 0.048884671 0.012162065 0.40978447 0.66994131 -0.61907625 0.0023321637
-0.0027156933 0.051877044 0.013221314 -0.55862772 0.51442218 -0.65061891 0.0054824026
-0.0009392004 0.052599214 0.012548769 -0.42643407 0.55645126 -0.71310306 0.0063379291
0.0016848193 0.053078521 0.012026861 -0.27060017 0.58542967 -0.76423013 0.0032509216
0.0043238532 0.053422395 0.011642469 -0.30344141 0.60216618 -0.73845738 0.0031519809
0.0067337696 0.053954039 0.010980492 -0.34920457 0.63142902 -0.69235367 0.00089114474
0.050881289 0.05351549 0.01175865 0.58577812 0.61571741 -0.52702564 0.0025847775
0.052772321 0.05254373 0.012241879 0.33906627 0.76419526 -0.54867071 0.017045489
0.05562041 0.052183963 0.012186708 0.27776292 0.79357404 -0.54137605 0.0087909503
0.057707638 0.051869392 0.013158223 0.36821097 0.80454367 -0.46597233 0.0089750336
0.0026842523 0.054941103 0.013421908 -0.26392609 0.66855955 -0.69524896 0.00061998016
0.0053026453 0.055305865 0.012978064 -0.29590815 0.63874632 -0.71024054 0.0010389956
0.0076786438 0.055878885 0.012326621 -0.33230039 0.65178978 -0.68172324 0.00040848917
0.010395855 0.056334209 0.011476995 -0.26113328 0.71188426 -0.65194339 0.0016681945
0.012781436 0.056656767 0.011097765 -0.24798681 0.72649711 -0.64086229 0.001424243
0.035622329 0.057318393 0.011021471 0.11699235 0.85532272 -0.50471359 0.0047518057
0.03729254 0.057300776 0.010891235 -0.019959809 0.84398538 -0.53599471 0.0040092613
0.047591142 0.056563769 0.012076056 0.40844345 0.76856369 -0.49242643 0.0074737575
0.049553096 0.055680472 0.012616599 0.57013661 0.64730787 -0.50590193 0.0017266547
0.0084264968 0.057651244 0.013481578 -0.31911218 0.66395301 -0.67626464 0.00046929048
0.010953469 0.058081187 0.012915222 -0.21150236 0.71804595 -0.66308123 0.0027425317
0.013720892 0.058245532 0.012433235 -0.1621654 0.76938105 -0.61786336 0.0024291119
0.016991874 0.058701422 0.012047011 -0.13907894 0.79268336 -0.59355706 0.0019398109
0.019858323 0.058768608 0.01178414 -0.07839489 0.80005938 -0.59477657 0.0018321351
0.022887418 0.059107367 0.011805028 -0.10601708 0.79824072 -0.59293514 0.0017721885
0.025925085 0.0594716 0.011997206 -0.0031401222 0.82511926 -0.56494987 0.0012780105
0.028803667 0.059090693 0.011953399 0.12189931 0.82722813 -0.54848355 0.0020236999
0.03183455 0.058809787 0.012624487 0.21158078 0.83212221 -0.5126462 0.00053308305
0.035057485 0.058079079 0.012653243 0.08284054 0.87784046 -0.47173455 0.0040906896
0.038002238 0.058455467 0.012571113 -0.025433257 0.8683542 -0.49529195 0.0025914258
0.04060819 0.058438249 0.012180308 0.068424605 0.88641018 -0.45781547 0.006456228
0.043766767 0.057784028 0.011975577 0.18520704 0.881329 -0.43469262 0.0039149774
0.023970913 0.060372312 0.013613349 -0.064784497 0.83200055 -0.5509792 0.00089521176
0.028018935 0.060352538 0.013473487 0.1187569 0.84894216 -0.51496994 0.0023219299
-0.027764676 -0.069455616 0.014083689 -0.21733204 -0.89603168 -0.38716158 0.0026386154
-0.019698363 -0.069592707 0.014975285 0.18521257 -0.9536531 -0.23715399 0.0026702571
-0.043142661 -0.066957824 0.015495306 0.089379907 -0.9667725 -0.23950393 0.0022379251
-0.034095831 -0.067143805 0.016755348 -0.30280089 -0.92988837 -0.20885237 0.006259941
0.0026753151 -0.064117379 0.014607107 -0.090497851 -0.96577245 -0.24309212 0.0014629022
0.035479456 -0.046773646 0.013907215 0.75100309 -0.62698174 -0.20709476 0.0026281283
0.036509134 -0.04578143 0.01412872 0.79642147 -0.58826303 -0.14021169 0.0040882402
0.039876275 -0.039674234 0.01392219 0.93717182 -0.27109292 -0.21958503 0.0011095682
0.040567398 -0.037660789 0.014111375 0.93717349 -0.27106002 -0.21961839 0.0011382935
0.041279629 -0.034988087 0.014557367 0.95437473 -0.22920673 -0.19139786 0.00063578994
0.04198245 -0.031622987 0.014871007 0.95242113 -0.24232188 -0.18486264 0.0018894676
-0.025223797 -0.0031624995 0.01642034 -0.94366956 0.28787571 -0.16314232 0.00709162
-0.0244803 -0.00078289956 0.015504396 -0.96316779 0.1795366 -0.20018618 0.0063859625
-0.024525693 0.0019360036 0.016160456 -0.96378249 0.01572202 -0.2662259 0.0021521728
-0.024484962 0.0046462715 0.015571749 -0.93590939 -0.053445734 -0.3481625 0.00086718815
-0.024444437 0.0076883174 0.014986003 -0.92248762 -0.032958832 -0.384617 0.00057467731
-0.024782432 0.010904213 0.015656069 -0.89073801 -0.031245463 -0.45344174 0.0018775067
-0.024467191 0.013801041 0.015298687 -0.82557583 -0.0032675592 -0.5642817 0.0056841173
-0.024736557 0.016920201 0.015266614 -0.78186727 -0.095167547 -0.61613858 0.001741229
-0.024963761 0.019771442 0.014982989 -0.76707178 -0.076734386 -0.6369558 0.001539454
-0.025123471 0.022942167 0.014989208 -0.76628017 0.11330155 -0.63243771 0.0031415273
-0.024520352 0.025500994 0.015252976 -0.72284806 0.28891796 -0.6277079 0.0024995974
-0.022695271 0.026616707 0.014152808 -0.67297095 0.30567771 -0.6735512 0.0010333885
-0.024028758 0.027948592 0.016347734 -0.72011286 0.31407306 -0.61870474 0.0023916929
-0.022278992 0.029023822 0.015029777 -0.69077682 0.27675939 -0.6680057 0.0028096198
-0.021950755 0.031685483 0.015349545 -0.73240972 0.16099155 -0.66155702 0.0006141598
-0.021715976 0.034749366 0.015476502 -0.75047642 0.17066216 -0.63848215 0.0010170165
-0.020328797 0.035077546 0.014183639 -0.73588204 0.16096468 -0.65769899 0.0011307742
-0.021403924 0.037795316 0.015924301 -0.71975046 0.26928172 -0.63988024 0.0023598305
-0.019811239 0.037955444 0.014581444 -0.64836532 0.32186556 -0.68994558 0.0051615722
-0.021153159 0.039700877 0.016584849 -0.70472234 0.38646048 -0.59499145 0.0031938914
-0.01908098 0.040792748 0.015360735 -0.6035341 0.4255088 -0.67430615 0.0017602802
-0.016778581 0.041425973 0.014229296 -0.53543222 0.48246795 -0.6932078 0.0027282906
-0.018236682 0.043056522 0.01612909 -0.54271704 0.54308915 -0.6407125 0.0021387725
-0.015923863 0.043933466 0.015401252 -0.48079205 0.56441748 -0.67102307 0.00094441854
-0.013800083 0.044466738 0.014454981 -0.42105439 0.59535831 -0.68429649 0.0023837027
-0.015017515 0.045796666 0.016328191 -0.4705486 0.59578019 -0.65086859 0.00073534902
-0.013069496 0.046396162 0.015583906 -0.38048923 0.6412434 -0.66635936 0.0010736733
-0.010304087 0.047052827 0.014946407 -0.29524443 0.6345365 -0.71427876 0.0012449226
-0.0071875071 0.047520589 0.014372185 -0.34488234 0.62289536 -0.7021805 0.0050670179
-0.0054324926 0.048232641 0.013832247 -0.59216464 0.40617621 -0.69596112 0.0055570519
-0.0096925395 0.048747085 0.016360786 -0.27797043 0.65156758 -0.7058273 0.00034345381
-0.0070915688 0.049268629 0.015876628 -0.35153407 0.60377789 -0.71545511 0.0040166872
-0.005036694 0.05030052 0.014876449 -0.61775607 0.47181827 -0.62909853 0.0038250815
-0.0037468299 0.052728921 0.015394783 -0.60224098 0.54229182 -0.58585435 0.0018569902
-0.0017192608 0.05367972 0.014133027 -0.40991068 0.64520526 -0.64473516 0.0037209103
0.053171761 0.053779699 0.014925992 0.45766214 0.82237434 -0.33800259 0.020291673
-0.0027743918 0.054614749 0.01615805 -0.52422404 0.64195126 -0.55954248 0.0019336852
-0.00097167026 0.055329479 0.015467085 -0.40495139 0.68429351 -0.60642952 0.0032484089
0.0019951314 0.056218542 0.014909698 -0.30533418 0.69312346 -0.65295553 0.0015985831
0.0047922498 0.056678459 0.014420995 -0.29681277 0.64723951 -0.70212764 0.0008958996
0.05008015 0.05677544 0.014515383 0.54922259 0.694709 -0.46447158 0.0084758457
0.052015074 0.054994665 0.014885973 0.65397358 0.63191593 -0.41593376 0.0015912683
0.0024346623 0.057817794 0.016388541 -0.327613 0.71541351 -0.61713314 0.0012085877
0.005155772 0.05843937 0.015955238 -0.30520585 0.7294715 -0.61214435 0.00095842365
0.007757002 0.05888683 0.015089354 -0.29509905 0.70733911 -0.64232999 0.0013711682
0.010550157 0.059594519 0.014698146 -0.18075719 0.7747907 -0.60582691 0.0017610734
0.013852002 0.059841048 0.014646446 -0.10346635 0.81185597 -0.57461691 0.0013819552
0.015873767 0.059775636 0.014178952 -0.087268576 0.83694905 -0.54027814 0.001118119
0.032468319 0.059810981 0.014431581 0.21807115 0.8545686 -0.47133583 0.00099560665
0.034892797 0.059590671 0.015276013 0.086620338 0.86175752 -0.49987081 0.0034859681
0.037619881 0.059668414 0.014793904 0.0089270407 0.87571067 -0.48275363 0.0036246579
0.040917948 0.059761204 0.015693154 0.16955708 0.91375971 -0.36917967 0.0025946724
0.04405389 0.058576707 0.015307531 0.18866378 0.91383809 -0.35959136 0.0025040954
0.046907641 0.058261346 0.015202111 0.2374544 0.87864989 -0.41423389 0.0063163391
0.049546525 0.057987835 0.015969997 0.39437467 0.82277828 -0.40927318 0.018474124
0.011159454 0.060730372 0.016144751 -0.16328552 0.79324448 -0.5866012 0.0017086419
0.013873132 0.060687389 0.015840841 -0.050491575 0.81923229 -0.5712347 0.00049973832
0.016920442 0.060636017 0.015477682 -0.074833214 0.83476043 -0.54550433 0.00098407047
0.02011583 0.060907859 0.015339648 -0.10245794 0.84689063 -0.52180326 5.8795737e-05
0.022682806 0.061288755 0.015288161 -0.061199307 0.86051828 -0.50573009 0.00097358442
0.02559646 0.061629843 0.015567103 0.051965773 0.89595264 -0.44109926 0.0017249741
0.02899098 0.060998585 0.014843514 0.15738206 0.8753264 -0.45720297 0.0023118432
0.031153958 0.060586471 0.015127387 0.17768571 0.86891502 -0.46196803 0.0023282738
-0.041641414 -0.067224078 0.017299181 0.088835269 -0.97520834 -0.20267469 0.00086229504
-0.040352628 -0.066874087 0.018009946 0.018807612 -0.98511446 -0.17086788 0.0023562226
0.042155705 -0.032447841 0.016997283 0.95404583 -0.22279084 -0.20040168 0.00074876117
-0.02531107 -0.0024842732 0.017654305 -0.95795327 0.21132292 -0.19408269 0.010214992
-0.025412641 0.0023027249 0.019090449 -0.96195823 -0.037061311 -0.27067107 0.0028744543
-0.025336565 0.0046818033 0.018014787 -0.94215745 -0.089470379 -0.32300854 0.00065097451
-0.025648555 0.0079078563 0.018123953 -0.92985886 -0.080816902 -0.35893062 0.0006239604
-0.02589651 0.010626274 0.01820175 -0.91298693 -0.078836836 -0.4002994 0.002181971
-0.026776828 0.013932231 0.019032508 -0.88742942 -0.11661298 -0.4459489 0.0014777483
-0.025990581 0.013882414 0.017619532 -0.87863964 -0.099586613 -0.4669849 0.0023578294
-0.027037498 0.017139245 0.018587995 -0.8779313 -0.11242459 -0.46540025 0.0016079815
-0.025947558 0.01590516 0.017024165 -0.85646927 -0.11284309 -0.50371295 0.0015250118
-0.027112916 0.019566003 0.018290618 -0.88850033 -0.072847843 -0.45305672 0.0018228464
-0.02663785 0.020678882 0.017149335 -0.86618298 -0.062490098 -0.49580449 0.0028988125
-0.027213605 0.02308058 0.018333593 -0.89062279 0.094164155 -0.44488665 0.0029515021
-0.026627118 0.022033576 0.01700389 -0.84248066 0.099864252 -0.52938968 0.0039442857
-0.026888361 0.025679469 0.018688129 -0.83861136 0.2384395 -0.48977286 0.0017473039
-0.025800137 0.026311524 0.017339757 -0.76408046 0.27981082 -0.58128035 0.0022063882
-0.02508235 0.028920457 0.018117525 -0.76036698 0.24521551 -0.60142446 0.0044060554
-0.024737878 0.031887528 0.018454874 -0.77027375 0.16808192 -0.61516416 0.00073870172
-0.023216695 0.032583285 0.016923627 -0.75244576 0.15289111 -0.6406635 0.0003832347
-0.024318393 0.034634739 0.018807765 -0.78403014 0.23308608 -0.57529789 0.0013755602
-0.023109091 0.035002112 0.017355429 -0.77001101 0.17661914 -0.61309767 0.0016194979
-0.024072591 0.036550861 0.019510454 -0.79181397 0.32664502 -0.51607531 0.0020270287
-0.022838594 0.03794466 0.018079385 -0.80270547 0.25297943 -0.54006058 0.00090092013
-0.02187399 0.040860295 0.018420778 -0.75049418 0.42112523 -0.50932515 0.0025169495
-0.020521583 0.041822102 0.01739875 -0.67870003 0.4694981 -0.56474578 0.0025133069
-0.021313095 0.042682286 0.019185459 -0.71808016 0.47545433 -0.50823617 0.0027908222
-0.019242942 0.043802518 0.017875589 -0.63216013 0.53566825 -0.55985099 0.0019077329
-0.017108655 0.045220558 0.017307376 -0.49901178 0.60256422 -0.62281913 0.0016689788
-0.018447163 0.045983549 0.019335652 -0.628766 0.58751434 -0.5093919 0.0020143902
-0.016138889 0.047039282 0.018345185 -0.47805032 0.6095975 -0.63234383 0.00063752272
-0.013841549 0.047683362 0.01739049 -0.38660535 0.6207118 -0.68209463 0.0013735298
-0.01515336 0.048840877 0.019178396 -0.50905019 0.60887778 -0.60838783 0.0016478311
-0.0128566 0.049571455 0.018461052 -0.38153231 0.64267421 -0.66438162 0.0013288236
-0.010105411 0.050178491 0.017740592 -0.31879824 0.64743543 -0.69223917 0.0011996644
-0.0074282419 0.050659332 0.017195851 -0.41057351 0.58277196 -0.70128894 0.0035406519
-0.0098121464 0.051703338 0.019078981 -0.34773028 0.65132374 -0.67443395 0.0012436794
-0.0071973023 0.052646596 0.018581118 -0.42732733 0.57584345 -0.69699043 0.0032986854
-0.0051404098 0.053429857 0.017555902 -0.55582088 0.52989244 -0.6405288 0.0010315974
0.054569162 0.054220099 0.018419152 0.54478365 0.77648163 -0.31668133 0.020492248
-0.0066119558 0.054716673 0.019641196 -0.50048411 0.57325363 -0.64876497 0.00096437853
-0.003992253 0.055736378 0.018442255 -0.48990995 0.62794942 -0.60470474 0.00281378
-0.0016109773 0.056681033 0.017651511 -0.39305961 0.71312463 -0.58048034 0.00088143809
0.052792914 0.055841763 0.017762041 0.65392989 0.63193107 -0.41597942 0.0016712074
-0.0028442112 0.057800893 0.01965124 -0.35845995 0.72585428 -0.58706218 0.0028741278
-0.00089063414 0.057918999 0.018828347 -0.36144325 0.74180329 -0.56487763 0.0021586388
0.001965913 0.058751013 0.018073574 -0.35252663 0.77765542 -0.52055454 0.0014554738
0.0050391085 0.059735555 0.017547121 -0.31547493 0.76012361 -0.56805599 0.0027342152
0.0070836791 0.060189363 0.017135998 -0.27147907 0.76781327 -0.58031201 0.00043159712
0.043908 0.059569161 0.017577028 0.18623875 0.92925531 -0.31906083 0.0029952039
0.046602421 0.059519503 0.017218119 0.19892538 0.91953218 -0.33895323 0.0046080104
0.050357334 0.058166813 0.017292148 0.5593726 0.74705142 -0.35918871 0.011864275
0.0051041236 0.060714144 0.018930381 -0.3618941 0.77904457 -0.51197881 0.0013475741
0.0079068923 0.061619405 0.01855972 -0.2931484 0.76838303 -0.56890392 0.0025099367
0.010843666 0.062273402 0.018353181 -0.18060492 0.77184635 -0.60961884 0.0021716214
0.013913334 0.062374186 0.018105587 -0.05178234 0.7810002 -0.62238044 0.0012852722
0.016890021 0.062339123 0.018201247 -0.045759346 0.79734099 -0.60179174 0.0021428003
0.019783648 0.062644213 0.018086955 -0.047022566 0.84037083 -0.53996825 0.0048066936
0.022580227 0.062904052 0.017998409 0.026167922 0.87678277 -0.48017418 0.0035905889
0.025878055 0.062977888 0.018504202 0.055407628 0.90423197 -0.42343181 0.0014414225
0.028958907 0.062442694 0.018586671 0.12665236 0.89979225 -0.41753209 0.0010988985
0.031960182 0.061885286 0.018506527 0.13112876 0.87254041 -0.470615 0.0034666657
0.03486786 0.061816048 0.018636853 0.063501775 0.86577523 -0.49638772 0.001553691
0.037716419 0.061507355 0.018412186 0.14273474 0.87112886 -0.46985242 0.0058044209
0.040500201 0.060914915 0.019063031 0.28485122 0.88793147 -0.36116126 0.0047234269
0.017368423 0.063980624 0.019745341 0.033583991 0.79722977 -0.602741 0.0043362225
0.018737685 0.063974351 0.019702738 0.05700583 0.87099242 -0.48797801 0.0085261678
-0.021523248 -0.071454935 0.022602107 0.00091239234 -0.88737696 -0.46104354 0.0044831913
-0.018861493 -0.070650518 0.021852171 0.18839957 -0.78754908 -0.58674699 0.011697443
-0.016798833 -0.069834121 0.021917254 0.54012841 -0.71324998 -0.44669417 0.01193583
-0.039649166 -0.067753777 0.021817207 0.052578218 -0.95552552 -0.29018354 0.006011812
-0.037033394 -0.067248918 0.021348011 -0.042124372 -0.96126974 -0.27237117 0.0064363629
-0.035300128 -0.067981668 0.022431886 -0.11198028 -0.94218135 -0.31583971 0.0074176127
-0.015609903 -0.068539135 0.021547412 0.63842279 -0.60348397 -0.47772753 0.020928059
-0.014616573 -0.067973696 0.022377944 0.67819095 -0.57614595 -0.4561938 0.016441206
-0.025505086 -0.00077318773 0.020397564 -0.97769421 -0.0067695365 -0.20992407 0.0036291403
-0.026037868 0.002097372 0.021435207 -0.96105182 -0.1277076 -0.24509192 0.00097923749
-0.026209271 0.0047199689 0.020645862 -0.94809961 -0.14645869 -0.28223583 0.0013280925
-0.026973706 0.0078321109 0.021700269 -0.93781692 -0.1182017 -0.3263858 0.0006019501
-0.026153823 0.0064230748 0.019878631 -0.94065219 -0.11423653 -0.31956759 0.00058345724
-0.027224986 0.011060454 0.021104123 -0.92444211 -0.13391656 -0.3570337 0.00087043789
-0.027767034 0.013874547 0.021264112 -0.91978949 -0.13727143 -0.36761916 0.00057686656
-0.02812776 0.01647152 0.021355608 -0.91896498 -0.10971089 -0.37877026 0.00066737633
-0.028290167 0.019839328 0.02091944 -0.92767066 -0.055118613 -0.36930919 0.00041930322
-0.028273862 0.022919893 0.020707326 -0.92294246 0.05128435 -0.38150632 0.0011204084
-0.028029278 0.026197735 0.021351472 -0.8835147 0.18692195 -0.42949042 0.0019979337
-0.027294826 0.028803602 0.021384424 -0.8506754 0.18528078 -0.49195766 0.0029256151
-0.02615408 0.029728394 0.019882148 -0.80439651 0.22473437 -0.54994613 0.0035216094
-0.027180297 0.031636119 0.021829402 -0.84164304 0.14996774 -0.5187934 0.0010207157
-0.026185827 0.031818248 0.020321483 -0.81824434 0.15725689 -0.55294347 0.0008128729
-0.027017582 0.034378689 0.02229478 -0.82099789 0.26854166 -0.50383306 0.0019997503
-0.025768125 0.03506561 0.020870946 -0.7987389 0.27058843 -0.53739941 0.0020755215
-0.024801096 0.037692968 0.021236293 -0.79542196 0.34484366 -0.49838424 0.0014757498
-0.023412053 0.039324332 0.019878572 -0.80678815 0.35529822 -0.47207639 0.0010728264
-0.024258779 0.039889131 0.022262713 -0.81522053 0.37978238 -0.43724224 0.001446062
-0.023227992 0.041238848 0.021250438 -0.81120497 0.42825353 -0.39817762 0.00057380938
-0.021627437 0.04375571 0.021088341 -0.72600859 0.53732365 -0.42917928 0.0012739863
-0.01998103 0.044801082 0.019813454 -0.6296162 0.58903706 -0.50657558 0.0014544469
-0.020838764 0.045791414 0.022688424 -0.70744097 0.57749593 -0.40746254 0.00077592023
-0.019194245 0.046842188 0.021476194 -0.68616343 0.59160465 -0.42330107 0.00035719472
-0.017278353 0.048310872 0.020553714 -0.5885846 0.62071967 -0.51795292 0.0016026505
-0.018037179 0.048461754 0.021898067 -0.64590365 0.59686571 -0.4759829 0.0017595608
-0.016073607 0.049893014 0.021168813 -0.5540846 0.64862609 -0.52179915 0.002148014
-0.014014915 0.050877441 0.020487277 -0.46485096 0.67545104 -0.57243288 0.0017393546
-0.012926064 0.052270349 0.021502852 -0.42240912 0.70059955 -0.57509196 0.0015134931
-0.010084023 0.05316205 0.020921152 -0.45436344 0.62758857 -0.63220763 0.0029081027
-0.0083435159 0.053761896 0.020225978 -0.48001406 0.59718359 -0.6426183 0.0012986585
-0.0093186582 0.054899219 0.021984354 -0.49375308 0.61923933 -0.61053306 0.00067028007
-0.007458468 0.055715743 0.021188803 -0.50231677 0.58238888 -0.63914084 0.00086294685
-0.0049139732 0.05684961 0.020231603 -0.48715529 0.61783463 -0.61721963 0.0013193656
-0.0059965206 0.05780169 0.022232464 -0.49009344 0.64683706 -0.5843032 0.00050918496
-0.0040494897 0.058520481 0.021428417 -0.41693363 0.70355475 -0.57547992 0.0013009146
-0.0012914625 0.059499022 0.021037241 -0.28632522 0.78457808 -0.54995936 0.0013469212
0.0010845468 0.059813727 0.020583091 -0.31388965 0.80313516 -0.50640619 0.0017190141
0.0021590353 0.060975272 0.021931589 -0.27676117 0.83570272 -0.47434613 0.0021639639
0.0052368385 0.062000651 0.02123438 -0.3819257 0.80978352 -0.44540253 0.0025805363
0.0070912694 0.062719233 0.020500055 -0.35927528 0.79765207 -0.4844301 0.0049204072
0.0094890231 0.063311048 0.019852525 -0.29035425 0.77996129 -0.55439591 0.0024600343
0.027316621 0.063332848 0.020001834 0.070574649 0.93319201 -0.35238016 0.0035579239
0.038323596 0.062719628 0.020502841 0.23377262 0.88879883 -0.39419159 0.0041231238
0.040764742 0.061760221 0.020997813 0.32542098 0.87515694 -0.35805252 0.0025053394
0.043218508 0.06081165 0.021583732 0.24396579 0.91964597 -0.30778554 0.0067509958
0.0082630664 0.063828163 0.02150532 -0.401539 0.80862975 -0.42998186 0.0021102452
0.011149742 0.06461595 0.02124984 -0.24079485 0.83065611 -0.50202423 0.0023954043
0.013962881 0.064843312 0.020927999 -0.078318052 0.80046195 -0.5942449 0.0028240462
0.016572114 0.064966083 0.020831686 -0.018024174 0.79675508 -0.60403341 0.0023822621
0.019607263 0.064654596 0.020979986 0.1883409 0.84177089 -0.50591451 0.010120992
0.021870889 0.064182647 0.021114057 0.1039402 0.92186475 -0.37331191 0.0054690847
0.029287862 0.063612469 0.02097184 0.021873688 0.92548013 -0.37816411 0.0052388972
0.031626537 0.063773721 0.021446019 0.070311777 0.89528245 -0.43991536 0.0022204211
0.034576438 0.063470975 0.020947454 0.09594392 0.89650005 -0.43253022 0.0036772075
0.036382243 0.063661896 0.022254592 0.18310465 0.90499622 -0.38399795 0.004159885
-0.025302814 -0.071983613 0.024889467 -0.22670151 -0.89366084 -0.38726828 0.0024584408
-0.021997916 -0.072470732 0.024681894 -0.05253293 -0.9068132 -0.41824651 0.0018943555
-0.019228173 -0.072477773 0.024726829 0.098964304 -0.89537376 -0.4341796 0.0032836141
-0.017135071 -0.071740694 0.024442395 0.4288705 -0.79250461 -0.43359727 0.0054482124
-0.039317057 -0.069004722 0.024669385 -0.035353158 -0.9069795 -0.41968831 0.0014228745
-0.0372224 -0.068979822 0.024502432 -0.035427477 -0.90701771 -0.41959965 0.0013840357
-0.034786165 -0.068958931 0.024362311 -0.056155857 -0.9009735 -0.43022451 0.0014452805
-0.024350932 -0.071613766 0.023624932 -0.099609353 -0.90562725 -0.41221038 0.0038660935
-0.023278451 -0.071528673 0.023076927 -0.046327744 -0.88855636 -0.45642224 0.0030506023
-0.018797077 -0.071546704 0.023193017 0.18334784 -0.85407728 -0.48676026 0.0093144728
-0.015452297 -0.070188738 0.023845546 0.57859778 -0.66791713 -0.46809322 0.0077251391
-0.013810294 -0.069276735 0.024943328 0.73449469 -0.53308034 -0.41993201 0.0080228597
-0.037410028 -0.068045393 0.022863682 -0.035431754 -0.90703321 -0.41956583 0.0013377134
-0.013231318 -0.067217737 0.024025029 0.82826066 -0.39086512 -0.40150812 0.0046611405
-0.012184274 -0.065319367 0.024738684 0.87435991 -0.34865007 -0.337547 0.0024410367
-0.026499627 0.0013147704 0.024663975 -0.96775073 -0.16643025 -0.18910179 0.00081612112
-0.027113762 0.0051086131 0.023598021 -0.95816356 -0.17586644 -0.22581762 0.00078168669
-0.027874812 0.0082388557 0.02452573 -0.95341074 -0.17990209 -0.24216352 0.0010257328
-0.028393408 0.011010781 0.024507029 -0.94924575 -0.16737036 -0.2663075 0.00044848141
-0.028699892 0.013763404 0.023991121 -0.94011658 -0.15379111 -0.30418608 0.00076078839
-0.029256215 0.016894527 0.024477601 -0.95328552 -0.10659517 -0.28263792 0.00034404322
-0.029162532 0.019953754 0.023282854 -0.94136655 -0.056354426 -0.33264583 0.00040830884
-0.030046495 0.023195941 0.025700465 -0.95833415 0.0020526934 -0.28564218 0.00078341807
-0.029152483 0.022709899 0.023154711 -0.94094747 0.019987516 -0.33796206 0.0016085252
-0.029207923 0.025861267 0.023861736 -0.91586381 0.10222094 -0.38825816 0.0025419558
-0.02889365 0.029000264 0.024260165 -0.89396852 0.14758646 -0.42312938 0.00072809285
-0.028441813 0.031810157 0.024166623 -0.88348037 0.1612868 -0.43982822 0.0011714635
-0.02774841 0.034775458 0.024153072 -0.86738944 0.27218628 -0.41659352 0.0017054102
-0.027188627 0.036990155 0.024612522 -0.82825011 0.37581646 -0.41564861 0.0016123299
-0.026154188 0.03801905 0.023709035 -0.80565786 0.39557526 -0.44094858 0.00081808527
-0.024982953 0.040667973 0.024432749 -0.80628675 0.4605028 -0.37126654 0.00043089705
-0.023683762 0.042816799 0.023988431 -0.78806579 0.49422848 -0.36700219 0.001134677
-0.022439683 0.044684801 0.023995118 -0.74427509 0.54888844 -0.38049459 0.00082611368
-0.021327363 0.046735961 0.025053104 -0.72479582 0.57131314 -0.3850615 0.00026007355
-0.020010421 0.047804132 0.024260625 -0.70986199 0.58563721 -0.39131173 0.00021128419
-0.018665744 0.049631786 0.024384227 -0.68406737 0.60456741 -0.40810552 0.00063296483
-0.016957026 0.050680295 0.023206618 -0.58928174 0.67499954 -0.4439849 0.0037017674
-0.015966088 0.052169196 0.024108227 -0.54991728 0.71638209 -0.42940393 0.0017942403
-0.012876694 0.05376846 0.023607826 -0.49267164 0.7042771 -0.51114422 0.0038132134
-0.011186136 0.054081742 0.022794044 -0.48369443 0.6512866 -0.58469272 0.0033997421
-0.01249165 0.055071868 0.025174996 -0.58004248 0.63935542 -0.50475281 0.0017414631
-0.010310617 0.056076981 0.023996796 -0.51443815 0.65792727 -0.54998648 0.0012766711
-0.0084384158 0.05688994 0.023165202 -0.50716233 0.65389943 -0.56142849 0.0028030684
-0.00919405 0.057835054 0.025090968 -0.49737921 0.68976122 -0.52615905 0.0014053772
-0.0068963487 0.05864859 0.024102474 -0.48674318 0.71037769 -0.50837445 0.0012742626
-0.0040640454 0.059872296 0.02309449 -0.39850736 0.74780995 -0.53101063 0.0015239604
-0.0038383724 0.061065208 0.024807492 -0.42037594 0.76818347 -0.48288524 0.0015096858
-0.001067752 0.061742004 0.02426834 -0.22898182 0.83165175 -0.50588816 0.0009547213
0.0017555072 0.062254537 0.024198648 -0.23734428 0.83596736 -0.49479914 0.00207385
0.0046797874 0.062696494 0.023529783 -0.37471125 0.83676082 -0.39927787 0.0035609959
0.04106991 0.062683508 0.023442253 0.33526212 0.88147205 -0.33257514 0.0020506505
0.043073177 0.061842281 0.024005597 0.41280559 0.86720425 -0.27847522 0.0033336063
0.0053686658 0.06367407 0.024711346 -0.35339665 0.85497928 -0.37963295 0.0033200507
0.0075844992 0.064778887 0.024211949 -0.40464163 0.83750862 -0.36721179 0.001555288
0.010347101 0.065806881 0.023686046 -0.26452288 0.86697412 -0.4223547 0.002783702
0.020244086 0.06564866 0.024014575 0.26224202 0.8961947 -0.35786062 0.0036440212
0.023010025 0.064782895 0.02400486 0.1659696 0.92833102 -0.33264932 0.0064139129
0.025820592 0.064753063 0.024978695 -0.062544324 0.93392158 -0.35196424 0.0021694836
0.029009713 0.064848281 0.024056813 -0.044236377 0.92642593 -0.37386915 0.0016425073
0.032088026 0.065065823 0.024278635 0.04478642 0.92815775 -0.36948255 0.0029116801
0.034101442 0.064660646 0.024352526 0.18173498 0.92167252 -0.34277111 0.0018216296
0.037557408 0.063955389 0.024263998 0.21754627 0.93057978 -0.2944397 0.0006406355
0.040719122 0.063353114 0.024886107 0.33151653 0.89263356 -0.30545372 0.0018961665
0.011953713 0.066822194 0.02490825 -0.19789259 0.90572768 -0.37482774 0.0051901783
0.014011575 0.066636227 0.023686467 -0.054195169 0.90628898 -0.41916966 0.0032579391
0.016779896 0.066649705 0.023775024 0.081218287 0.90317124 -0.42152721 0.0040653357
0.018547188 0.066866249 0.025197661 0.20143043 0.91631949 -0.3460989 0.0030086152
-0.027374599 -0.072391838 0.027137315 -0.27323508 -0.89573282 -0.35072091 0.0017285569
-0.024866415 -0.073134579 0.027133988 -0.22410165 -0.90778464 -0.35454965 0.00143432
-0.022140944 -0.073526718 0.02697516 -0.071185216 -0.90568066 -0.41794169 0.0010114444
-0.01902852 -0.073593564 0.027397322 0.12499759 -0.91064942 -0.39381889 0.0021186532
-0.016491506 -0.072528034 0.026821893 0.47245145 -0.80029339 -0.36921549 0.0067473087
-0.040470675 -0.069170453 0.025780713 -0.03542693 -0.90704817 -0.41953367 0.0013590264
-0.036427051 -0.070062883 0.027094131 -0.067952156 -0.90756547 -0.41437599 0.001297523
-0.033932522 -0.069966175 0.026452286 -0.18965067 -0.91797477 -0.34836024 0.0028499085
-0.031381279 -0.071107343 0.02785133 -0.25591293 -0.91788977 -0.30329332 0.0020465895
-0.029391995 -0.0713199 0.026209241 -0.28102157 -0.90066856 -0.33139563 0.0010318035
-0.014811683 -0.071381219 0.026608085 0.67277002 -0.64663827 -0.35949874 0.0055901418
-0.013104944 -0.069761299 0.027414834 0.82151669 -0.51143789 -0.25207454 0.0045949868
-0.012202879 -0.067556597 0.026620975 0.88200098 -0.37447199 -0.2860854 0.0016163951
-0.011385148 -0.066356987 0.027971646 0.88201529 -0.37443045 -0.28609589 0.0016282572
-0.011123166 -0.064506248 0.027212517 0.91306525 -0.32468027 -0.24676816 0.0050563077
-0.02665882 0.00028631464 0.026866978 -0.96639842 -0.19856808 -0.16323291 0.00021320814
-0.027413102 0.0030795522 0.027654177 -0.96491665 -0.19992328 -0.17019574 4.8174395e-05
-0.027295677 0.0037573613 0.02606306 -0.96334833 -0.2024968 -0.17594035 5.6978366e-05
-0.028069342 0.006556455 0.02710787 -0.96547955 -0.20086052 -0.16584411 9.3022842e-05
-0.028776811 0.0096941628 0.027249789 -0.96598595 -0.18487987 -0.18080528 0.00029354636
-0.029471911 0.013525086 0.02722845 -0.96978021 -0.15873444 -0.18528278 0.00032189416
-0.030247947 0.017749254 0.028220242 -0.97225595 -0.10350248 -0.20977511 0.00056545768
-0.030129191 0.01977222 0.026734829 -0.96942973 -0.062051915 -0.23739326 0.00070513197
-0.030063221 0.02181809 0.025909668 -0.96356058 -0.03171321 -0.26560372 0.0011179949
-0.030064708 0.025640327 0.025928257 -0.93998849 0.07433515 -0.33301041 0.0011141945
-0.030139856 0.028831109 0.026868235 -0.94039464 0.11657692 -0.31948027 0.0012029655
-0.03026109 0.031377722 0.028384602 -0.94321901 0.16503014 -0.28827602 0.0021834734
-0.029415127 0.032284126 0.026504263 -0.90527314 0.18894883 -0.38049805 0.0011079147
-0.02906348 0.034716543 0.02734592 -0.90434211 0.27596435 -0.32559028 0.00061150041
-0.027771126 0.037600234 0.026841985 -0.86134166 0.39302957 -0.32189828 0.0012030166
-0.026584806 0.03917991 0.025842762 -0.81384879 0.46104002 -0.35368389 0.00082498568
-0.02698 0.040081985 0.028089629 -0.82900465 0.46433592 -0.31167838 0.00058667868
-0.025746973 0.041383937 0.027100122 -0.81538564 0.47909498 -0.32498345 0.00032478489
-0.024442399 0.043605272 0.027027356 -0.80237722 0.50915784 -0.31136638 0.00045861065
-0.022503184 0.046621043 0.027214704 -0.76508105 0.56327093 -0.31205258 0.00066224701
-0.021103468 0.048349392 0.027102983 -0.7344017 0.59535497 -0.32589343 0.00071907113
-0.019870952 0.050064735 0.027477162 -0.71937191 0.61914432 -0.31490389 0.00061463268
-0.018020792 0.052297316 0.028082659 -0.65390337 0.68858862 -0.31345838 0.00087940932
-0.015863914 0.053361733 0.026789872 -0.58390993 0.71179247 -0.39038539 0.0025408762
-0.014874369 0.054725971 0.027967131 -0.62025654 0.6685521 -0.41026822 0.0018590931
-0.013238454 0.055799782 0.027002715 -0.59667259 0.65480638 -0.46390784 0.0011807379
-0.011327622 0.057322476 0.026475048 -0.54436183 0.69479626 -0.47003013 0.0021366416
-0.012068627 0.057470966 0.027611231 -0.58479691 0.68101817 -0.44071174 0.0024822943
-0.010080625 0.058587868 0.027266467 -0.50199884 0.75032085 -0.43013456 0.0030743042
-0.0080297682 0.059436206 0.026672048 -0.47639215 0.76795095 -0.42813751 0.001461493
-0.006483485 0.060920384 0.027342713 -0.49257529 0.7702567 -0.4050608 0.00073285936
-0.0040367576 0.062275756 0.027067242 -0.37588635 0.83560085 -0.40060043 0.0027722395
-0.0019383552 0.062894523 0.026526457 -0.23555501 0.87488073 -0.42319921 0.002052109
-0.00056383549 0.063756131 0.027674666 -0.23557374 0.87483519 -0.42328289 0.0021079464
0.0021182573 0.063741416 0.026766982 -0.19692127 0.88730502 -0.41702741 0.0013426017
0.0048085963 0.064357013 0.02700985 -0.32199365 0.86976033 -0.37394792 0.0056453715
0.0074562943 0.065820679 0.027488684 -0.42153788 0.85079896 -0.31376263 0.0003267783
0.023512695 0.065906145 0.028061705 0.047246113 0.94788986 -0.31507546 0.0083303433
0.025931563 0.065825649 0.027521951 -0.061356403 0.93036175 -0.36147243 0.0026882172
0.028316727 0.065658495 0.026401227 -0.074374609 0.9097138 -0.40852073 0.0013445329
0.033152789 0.065577388 0.025857335 0.11957528 0.92605734 -0.3579379 0.0047983034
0.034952372 0.065377347 0.026847972 0.21547329 0.93405896 -0.28478938 0.00076234777
0.03778141 0.06494993 0.027489392 0.22767974 0.93615854 -0.2678977 0.00047914052
0.039478481 0.064334519 0.026859676 0.26572523 0.91716385 -0.29698583 0.0019023151
0.008849361 0.066487916 0.027290231 -0.39748085 0.85994232 -0.32016888 0.00039118444
0.010589605 0.067164518 0.027157223 -0.28919956 0.91839468 -0.27002746 0.003023352
0.014081851 0.067942843 0.027688583 -0.061265703 0.96059024 -0.27113271 0.002726024
0.015824182 0.067927569 0.027589208 0.024444303 0.96582973 -0.25802192 0.005804514
0.020008707 0.066888042 0.027629888 0.26859656 0.92514759 -0.26824951 0.00088907452
0.027028617 0.066688679 0.028622603 -0.10601362 0.90674323 -0.40813941 0.00051575468
0.028745862 0.066599794 0.028032688 -0.074454181 0.90965623 -0.40863457 0.0014203654
0.031512953 0.066530518 0.027572891 0.090996586 0.95251322 -0.29058272 0.0048602549
-0.021975592 -0.074700005 0.029957866 -0.11345107 -0.90417635 -0.41181767 0.0023071959
-0.031107912 -0.071934171 0.03020451 -0.27107176 -0.91691232 -0.29290247 0.0022493317
-0.028952261 -0.072531067 0.02953211 -0.2811147 -0.91440684 -0.29126391 0.0004932817
-0.021253794 -0.074644379 0.029610014 0.152474 -0.92075437 -0.35911426 0.014409848
-0.020542048 -0.07461334 0.029415881 0.15247409 -0.92075258 -0.35911903 0.014409327
-0.014956769 -0.072565459 0.029753542 0.47310689 -0.82865953 -0.29915428 0.010445063
-0.014222974 -0.071750455 0.029009616 0.59163189 -0.7125634 -0.37712741 0.014916983
-0.03347268 -0.071074963 0.02916724 -0.24434128 -0.92649394 -0.28619286 0.0028991338
-0.013179672 -0.070723079 0.029155498 0.78908938 -0.55912429 -0.25439715 0.0095930286
-0.011106271 -0.066972762 0.029848507 0.90511388 -0.38694838 -0.17618154 0.0060276003
-0.010734276 -0.065138534 0.02924574 0.91444051 -0.3368392 -0.22436135 0.0046339645
-0.027536275 0.0023975261 0.029323226 -0.96542519 -0.20368291 -0.16268812 2.1790038e-05
-0.028202487 0.0058897771 0.028875208 -0.96547908 -0.20086443 -0.16584182 9.1449263e-05
-0.02900424 0.0087176152 0.030208236 -0.9663173 -0.19367191 -0.16947614 0.00013580055
-0.029743468 0.011887398 0.030691629 -0.97161633 -0.17138135 -0.16306463 0.00018462921
-0.030365728 0.016761329 0.029693386 -0.97747254 -0.11460689 -0.1772363 0.00055219425
-0.031121021 0.023453601 0.030365424 -0.98324895 -0.031351492 -0.17955096 0.00073352107
-0.031072171 0.025873199 0.029765932 -0.98070431 0.014260509 -0.19497637 0.0013344944
-0.03110888 0.028004769 0.030216431 -0.95925051 0.084048763 -0.26976711 0.0018555822
-0.030408081 0.032914873 0.030223137 -0.94249612 0.22515298 -0.24699649 0.0023545211
-0.029748218 0.035764102 0.030752202 -0.89946014 0.33658817 -0.27871093 0.0013619452
-0.028722297 0.037651755 0.029578583 -0.88858008 0.36408296 -0.27905014 0.00097062427
-0.027252855 0.040981919 0.030238291 -0.83216113 0.47002712 -0.29424867 0.00037377951
-0.02614806 0.042311531 0.029488808 -0.81736386 0.51122099 -0.26564899 0.00041085342
-0.025510514 0.043799225 0.030375326 -0.80111301 0.52813774 -0.28158215 0.00029907026
-0.024137743 0.045955498 0.030855304 -0.79341829 0.54932612 -0.26216066 0.00010757433
-0.023058148 0.047318872 0.030457919 -0.7797485 0.57507497 -0.24755028 0.00014882795
-0.021610472 0.048987895 0.029710179 -0.75053895 0.60951805 -0.25530201 0.00046072534
-0.018883066 0.052654859 0.031085847 -0.6662361 0.67559749 -0.31574917 0.0011635876
-0.016688438 0.053849149 0.02935723 -0.63378108 0.69144946 -0.34672639 0.00070051843
-0.01582114 0.055420119 0.030721487 -0.64159751 0.68356705 -0.34797794 0.001004531
-0.013878502 0.05661964 0.02912814 -0.636886 0.68417913 -0.35535222 0.0013066392
0.055969097 0.056539956 0.031244075 0.50271738 0.43618375 -0.74633706 0.0033677821
-0.012490645 0.058057066 0.029416015 -0.6213339 0.69483829 -0.36213788 0.0019007202
-0.010755078 0.05939243 0.029802525 -0.52919078 0.78412926 -0.32418877 0.0017177898
0.053901546 0.058700699 0.031637706 0.38430506 0.49056628 -0.78208333 0.0043484997
0.054585747 0.057973374 0.031455554 0.46437311 0.45584553 -0.75931716 0.0020761376
-0.0086606517 0.060593788 0.030048316 -0.49340269 0.78560245 -0.37333971 0.0002895185
-0.0068890159 0.061555374 0.029398089 -0.47640729 0.78797406 -0.39004233 0.00078829611
-0.0044278996 0.062886111 0.028912818 -0.43324882 0.83406645 -0.34150934 0.0030193375
0.04525809 0.061891373 0.029300964 0.36074749 0.87460601 -0.32392201 0.012978992
-0.0014172798 0.06434799 0.030149894 -0.28389058 0.93021214 -0.23261864 0.0036411791
0.0015131072 0.064672396 0.029172895 -0.18239455 0.93244493 -0.31189549 0.0013532888
0.0053607509 0.06575489 0.030180668 -0.33214808 0.89568371 -0.295683 0.0053366199
0.0067616752 0.066065542 0.029130584 -0.42105705 0.84957576 -0.31769794 0.000168372
0.040407881 0.06478668 0.029955393 0.36096892 0.88597745 -0.29111052 0.008204638
0.008166736 0.067302294 0.030363319 -0.35765898 0.89621258 -0.26245588 0.0024579202
0.0095610302 0.067478418 0.029219484 -0.33122659 0.90832096 -0.25542518 0.0034793774
0.012378809 0.068384446 0.030560737 -0.15343785 0.95556968 -0.25168118 0.0029926777
0.016555063 0.068151452 0.029045409 0.044025499 0.97125512 -0.23393428 0.004042617
0.022908093 0.066976853 0.030535182 0.1095759 0.94872528 -0.29650179 0.012431601
0.025675923 0.066848792 0.029685283 0.019317903 0.95014673 -0.31120422 0.011052602
0.035575911 0.066360809 0.031110412 0.20033328 0.94749427 -0.24924123 0.001023534
-0.010136686 -0.063779853 0.032137431 0.91444767 -0.33680359 -0.22438559 0.0046363436
-0.029133709 0.0080525465 0.031892426 -0.96735245 -0.20009461 -0.15553576 2.7919896e-05
-0.029943446 0.010905553 0.033241995 -0.97141469 -0.18117101 -0.15339668 0.00013967574
-0.030556327 0.015802715 0.032077409 -0.97835463 -0.13669546 -0.15535977 0.00055536762
-0.031378143 0.021862444 0.03352084 -0.98794562 -0.056698862 -0.14404389 0.00067294709
-0.031288318 0.029558357 0.032418467 -0.96565849 0.12739027 -0.22644091 0.002452258
-0.028462486 0.039768044 0.032326378 -0.85184693 0.45806834 -0.25402802 0.0011597744
-0.025709683 0.044796225 0.033273406 -0.81170046 0.52895224 -0.24769311 0.00044290631
-0.024905575 0.045352925 0.031823732 -0.79459649 0.54562789 -0.26628283 0.00010842105
-0.023547158 0.047546346 0.032585628 -0.77974749 0.57506686 -0.24757217 0.00015437398
-0.020693747 0.051005151 0.03201241 -0.73432034 0.63121945 -0.24967124 0.0014792049
0.061248489 0.054091755 0.034236945 0.77070791 0.43066275 -0.4696157 0.0076743416
-0.014352234 0.057328645 0.031908669 -0.63688064 0.68417704 -0.35536578 0.0012939024
0.056381509 0.05696249 0.031798117 0.50275463 0.43629035 -0.74624962 0.0033394746
0.058741324 0.056137722 0.03311716 0.60605335 0.40762943 -0.68303561 0.0016366466
0.060526952 0.055138599 0.034118526 0.69718933 0.40717229 -0.59003204 0.0095375283
0.053390317 0.059893582 0.032136261 0.31492698 0.46643513 -0.82659501 0.0012693533
0.055827528 0.058994092 0.032710411 0.46422139 0.45564359 -0.75953108 0.0021468785
0.058129326 0.058397967 0.034024611 0.57083166 0.43334326 -0.69739866 0.00023843329
0.044812933 0.06301748 0.032313861 0.17675956 0.74825549 -0.63942933 0.080243506
0.046944469 0.062693663 0.03251496 0.070336767 0.56279445 -0.82359892 0.044172674
0.050147429 0.062347163 0.032555744 0.19647658 0.46560976 -0.86290473 0.0040303119
0.052982181 0.062051658 0.032962643 0.31857377 0.45779496 -0.83002084 0.0014600084
0.055638909 0.061445434 0.033973545 0.48194078 0.44862017 -0.75264406 0.0022431677
0.0032382743 0.065967329 0.033205546 -0.28173542 0.93843466 -0.19991367 0.0040595196
