# .PCD v0.7 - Point Cloud Data file format
VERSION 0.7
FIELDS x y z normal_x normal_y normal_z curvature
SIZE 4 4 4 4 4 4 4
TYPE F F F F F F F
COUNT 1 1 1 1 1 1 1
WIDTH 558
HEIGHT 1
VIEWPOINT 0 0 0 1 0 0 0
POINTS 558
DATA ascii
0.02491999 -0.036548097 0.011129489 0.49784672 -0.33165619 -0.80134439 0.0024107208
0.02707278 -0.035718627 0.012270479 0.57275444 -0.28227517 -0.76959276 0.0019577499
-0.016682804 -0.032949906 0.012341393 -0.5172587 -0.44848499 -0.72890639 0.00098356174
-0.014244395 -0.033267971 0.010940159 -0.46134394 -0.4293814 -0.77639765 0.00076198735
-0.011598739 -0.034403697 0.010069581 -0.33724314 -0.47108814 -0.81507236 0.0029935676
0.025144678 -0.033568602 0.010551715 0.52483028 -0.20141627 -0.8270337 0.00043510861
0.027408697 -0.033173297 0.011878101 0.54678273 -0.22677666 -0.80597824 0.0023133487
-0.019622494 -0.029450741 0.012326101 -0.54169685 -0.4237825 -0.7259289 0.0022457722
-0.017288394 -0.030462585 0.011397762 -0.49163529 -0.38104397 -0.7830072 0.0021164771
-0.015174159 -0.030558158 0.010210743 -0.47609013 -0.32293317 -0.81795621 0.0022563795
0.025597464 -0.030594055 0.010269191 0.50060129 -0.26899183 -0.82282555 0.003223456
0.02761304 -0.030524742 0.011327434 0.51622409 -0.26033148 -0.81592906 0.002147265
0.029745031 -0.029849458 0.012253312 0.51661205 -0.3707628 -0.77178162 0.0083317915
-0.021784995 -0.026568649 0.012492532 -0.62241352 -0.36752889 -0.6910311 0.001211745
-0.019913442 -0.027214583 0.011378907 -0.50251335 -0.3484751 -0.79123038 0.00077014224
-0.017456196 -0.027799077 0.010326788 -0.4169707 -0.35233936 -0.83784986 0.001281057
-0.015603201 -0.028414823 0.0098535512 -0.4347285 -0.31933826 -0.84204173 0.0017928345
0.025857825 -0.028739996 0.0097148512 0.43417695 -0.45472559 -0.77763414 0.0044875364
0.027956083 -0.028172188 0.010407064 0.38062504 -0.53081477 -0.75720549 0.0061819633
0.030837189 -0.027574692 0.011006027 0.37937143 -0.59424216 -0.70919222 0.0026177035
0.033505086 -0.026909249 0.011638874 0.34204629 -0.64961052 -0.67897749 0.0041945591
0.035906866 -0.026392968 0.012369188 0.27994555 -0.65092033 -0.70564377 0.0042088558
-0.022340991 -0.024579262 0.012158714 -0.63102257 -0.27779999 -0.7243188 0.00083661434
-0.020473521 -0.024491988 0.010608906 -0.52517462 -0.25951824 -0.81045783 0.0015640131
0.034121308 -0.024628248 0.010303609 0.43048298 -0.42634267 -0.79556036 0.0035255789
0.03674892 -0.024542179 0.011400566 0.32673818 -0.45670459 -0.82744366 0.0050708791
0.039626867 -0.024062809 0.012196705 0.27006608 -0.43720829 -0.85785383 0.0026970454
0.041469961 -0.023542633 0.012531886 0.21385431 -0.48740086 -0.84658539 0.0038721848
-0.067819297 -0.020159697 0.012137631 -0.21365853 -0.82213539 -0.52767742 0.0026028953
-0.064967252 -0.020443005 0.012025923 -0.042005811 -0.80509126 -0.59166163 0.0019660071
-0.062357277 -0.020412475 0.012146423 0.11134955 -0.76080889 -0.63935208 0.0041138846
-0.060136244 -0.020174986 0.012469092 0.30055922 -0.6538471 -0.6943689 0.0040031243
-0.023033038 -0.021387925 0.011712918 -0.62588096 -0.18096386 -0.75863367 0.0019416185
-0.021083098 -0.021567918 0.010284964 -0.57648444 -0.1523761 -0.80277473 0.0013533212
0.035234183 -0.02273429 0.0099415276 0.41089219 -0.33999684 -0.84591359 0.0059197336
0.036994036 -0.021490134 0.010407941 0.37809455 -0.26623517 -0.88665855 0.0017229182
0.039688386 -0.021462429 0.011274634 0.25588977 -0.30081931 -0.91871011 0.0023687526
0.042676166 -0.02137767 0.011924867 0.181999 -0.35189581 -0.91817528 0.0031121278
0.045732211 -0.020937007 0.012162032 0.044560518 -0.43246934 -0.90054685 0.0058274185
0.04883964 -0.020835675 0.012205711 -0.1292161 -0.53654349 -0.83392107 0.014326615
0.051366579 -0.021169674 0.011373201 -0.51374739 -0.63884652 -0.57265937 0.025277086
0.053421438 -0.022793343 0.011071751 -0.38255984 -0.75168699 -0.53722864 0.017461374
-0.073440894 -0.017673666 0.011621237 -0.38548532 -0.80467433 -0.45155326 0.00073854427
-0.071065836 -0.018435683 0.011095081 -0.31818125 -0.80929714 -0.49375999 0.0020431154
-0.068256229 -0.019090345 0.010739988 -0.14137642 -0.80480009 -0.57646286 0.0012961699
-0.065170899 -0.019071518 0.010312453 0.00011836275 -0.77750707 -0.62887412 0.00160729
-0.062090233 -0.018972404 0.010597629 0.17403463 -0.70595247 -0.6865443 0.0030305234
-0.059352294 -0.018388949 0.011244277 0.37555626 -0.58736879 -0.71690679 0.0035692747
-0.057180524 -0.017696559 0.012188921 0.51077247 -0.46642432 -0.72219092 0.0034633991
-0.02340452 -0.018452635 0.011515388 -0.67449147 -0.015844852 -0.73811251 0.0020452305
-0.021302104 -0.018391861 0.010078898 -0.58859432 -0.040246181 -0.80742615 0.0015802006
0.037470486 -0.018947138 0.010025159 0.38259846 -0.2987377 -0.87428492 0.0020391047
0.03963583 -0.018414648 0.010610519 0.31599775 -0.29183105 -0.90276247 0.0032825968
0.042695776 -0.018436793 0.011135193 0.16310927 -0.26171741 -0.951262 0.00096367655
0.045742027 -0.018449361 0.011433024 0.022197962 -0.29491243 -0.95526642 0.0033733263
0.048722461 -0.018432902 0.011039287 -0.31797978 -0.44932067 -0.83486515 0.029339764
0.050657645 -0.019405281 0.010297278 -0.51693976 -0.60908419 -0.60148966 0.022500116
-0.07584855 -0.015382087 0.010124395 -0.40584636 -0.7977286 -0.44600198 0.0011228954
-0.074621379 -0.016520506 0.01073112 -0.3931829 -0.79790235 -0.45690155 0.00076625095
-0.058408149 -0.015874447 0.010270098 0.5772137 -0.36009857 -0.73290741 0.0024352483
-0.056425277 -0.015323097 0.011606593 0.66130257 -0.27478772 -0.69797605 0.0022333125
-0.023164999 -0.015521666 0.011710832 -0.66563505 0.081473015 -0.74181682 0.00141523
-0.021309704 -0.015384549 0.010202909 -0.66407269 0.0029571259 -0.74766225 0.00546462
0.040424194 -0.015963504 0.010008441 0.30655158 -0.32049134 -0.89627641 0.0027984495
0.042813502 -0.015482949 0.010380831 0.16664568 -0.26083228 -0.95089203 0.0011382134
0.045677163 -0.015404187 0.010736134 -0.13990058 -0.31697601 -0.93805861 0.029719818
0.0480357 -0.015571453 0.010416636 -0.55725229 -0.21806809 -0.80119675 0.033232275
-0.056160755 -0.012462471 0.011001065 0.76490855 -0.1200232 -0.6328581 0.0080945641
-0.022965655 -0.012558591 0.012009514 -0.74868184 0.069217302 -0.65930605 0.0046346085
-0.021315653 -0.012375563 0.010299081 -0.74411917 -0.054381967 -0.66582972 0.0053823567
0.043591481 -0.013367018 0.0098862741 0.065668553 -0.28551576 -0.9561215 0.011747549
0.045626458 -0.013376398 0.010191062 -0.13992298 -0.31696355 -0.93805951 0.029719789
0.047611654 -0.013369245 0.0099585 -0.22739387 0.12192128 -0.96614039 0.059723891
-0.055928029 -0.009382939 0.011252444 0.86314917 0.053131271 -0.50214607 0.0052093435
-0.022742137 -0.0093928464 0.011666942 -0.84318578 -0.081490062 -0.5314104 0.0086642848
-0.021653354 -0.010033632 0.010352015 -0.77178192 -0.15926374 -0.61561972 0.0033073146
-0.056391574 -0.0063598738 0.010969816 0.90422189 0.17408203 -0.38997209 0.0066911899
-0.022933099 -0.0064058383 0.010902328 -0.87013048 -0.21995445 -0.44101366 0.0017924228
-0.057802491 -0.0019978639 0.010288248 0.92679214 0.1960972 -0.32031593 0.0060865944
-0.057041537 -0.0039023762 0.011214579 0.91326565 0.22221628 -0.34141734 0.0056163403
-0.023634318 -0.003427763 0.011190297 -0.88902479 -0.25728607 -0.37873322 0.0020242424
-0.058494784 -0.00065909885 0.010444233 0.924712 0.20704766 -0.31943542 0.0038812633
-0.025115836 0.00034628995 0.012006769 -0.90826672 -0.27732649 -0.31327555 0.00072020193
-0.024348255 -0.00066025136 0.010595966 -0.891783 -0.29926178 -0.33936054 0.0011565398
-0.025486343 0.0025800709 0.010897601 -0.9042595 -0.27498633 -0.32664549 0.00066866435
-0.026571326 0.0057132486 0.011222074 -0.8967756 -0.34710282 -0.2744323 0.0016838526
-0.028234985 0.0091911945 0.011777867 -0.91097039 -0.35607794 -0.20818624 0.00059471099
-0.027339507 0.0080444682 0.010279203 -0.87366647 -0.4010286 -0.27546874 0.0010857334
-0.029088929 0.011752026 0.01124456 -0.93017596 -0.31900322 -0.1816856 0.00041655477
-0.029703695 0.014078358 0.010541538 -0.94149864 -0.275561 -0.19402693 0.00057573291
-0.031169232 0.018832782 0.012056211 -0.95557284 -0.22387263 -0.19173293 0.00055315404
-0.030387133 0.016428733 0.01070779 -0.94953758 -0.24266896 -0.19872138 0.0005378846
-0.03102329 0.019426608 0.010298381 -0.94528419 -0.19671617 -0.26027 0.0010469778
-0.031752352 0.022811035 0.01100255 -0.94444889 -0.17686649 -0.27700993 0.0012259544
-0.031692807 0.03482553 0.01029841 -0.95051473 0.19287293 -0.24356052 0.0014022802
-0.031082034 0.037900738 0.011005977 -0.93755925 0.26892254 -0.22059759 0.00087227323
-0.029737119 0.041579597 0.010943472 -0.90452355 0.37011439 -0.21178411 0.00056496041
-0.028503582 0.045080468 0.012358377 -0.87579226 0.43982249 -0.19885683 0.00043724722
-0.027855672 0.046460725 0.012687245 -0.86875165 0.45220083 -0.20195298 0.00046350365
-0.02570349 0.049613327 0.010812143 -0.82917213 0.51846361 -0.20897138 0.00056676747
-0.024371848 0.051639959 0.010944733 -0.78741533 0.57925242 -0.21081685 0.00036912857
-0.022425137 0.054450065 0.011973092 -0.76476949 0.61062723 -0.20557739 0.00067482202
-0.02170264 0.055018812 0.011153409 -0.74036282 0.63248885 -0.2276417 0.00023341519
-0.020629413 0.055879544 0.010020563 -0.71467137 0.66379076 -0.22051445 0.0004260084
-0.017320774 0.059326649 0.010758767 -0.62785137 0.73563039 -0.2542648 0.00050631899
-0.013976046 0.062025346 0.010888794 -0.58790326 0.76972032 -0.24879777 0.00017037641
-0.011618867 0.06365867 0.010599265 -0.55153358 0.8007676 -0.23362784 0.0003687611
-0.0082661286 0.065650754 0.010483066 -0.47516814 0.85727221 -0.1982408 0.001173916
-0.005618955 0.067195468 0.011814812 -0.42464817 0.88239038 -0.20263574 0.00098317524
-0.0035698945 0.067606919 0.010137985 -0.39048555 0.89587182 -0.21197833 7.7977282e-05
0.0011127032 0.069654487 0.010386596 -0.30365166 0.92921567 -0.21060382 0.0017105048
0.0031238485 0.070247568 0.0099122021 -0.25662383 0.93270576 -0.25338551 0.00057846878
0.0058004959 0.07101775 0.01053361 -0.18922734 0.95059967 -0.24607573 0.0010739577
0.010486502 0.071645588 0.010278026 -0.11013863 0.95568746 -0.27300373 0.00019809962
0.01718092 0.072312452 0.01026223 -0.089398682 0.95427275 -0.28525662 8.0240796e-05
-0.046649642 -0.051094536 0.013651067 0.95671564 -0.2107852 -0.20066085 0.0035236259
-0.046115786 -0.048201319 0.013406048 0.96314585 0.048961654 -0.26448601 0.011659069
-0.045665178 -0.048076097 0.01534594 0.97133797 -0.026401056 -0.23623198 0.0068180459
0.011228632 -0.047418363 0.015527973 -0.07829918 -0.66537523 -0.74239135 0.00040401981
0.012915086 -0.047374621 0.015121514 -0.059408929 -0.6700812 -0.73990661 0.00079269113
0.01540014 -0.047613706 0.015243808 0.09640526 -0.66329044 -0.74212658 0.0020724956
0.017665472 -0.047418185 0.015526274 0.23409054 -0.68372369 -0.69117552 0.0018352013
-0.046608314 -0.045041021 0.014157075 0.84113628 0.34372437 -0.41754431 0.0080315294
-0.045685507 -0.046740212 0.015522191 0.95032394 0.12146416 -0.28658497 0.024300558
-0.0046781283 -0.043958917 0.014810974 -0.28793359 -0.71678632 -0.6350683 0.0053987908
-0.0023122514 -0.044453215 0.014918307 -0.11607984 -0.72720051 -0.67653888 0.0040480318
0.00077046594 -0.044568896 0.014892749 -0.13218455 -0.66399056 -0.73596454 0.0048404071
0.0038752626 -0.045217555 0.014357358 -0.17437348 -0.65987641 -0.73086047 0.0027303514
0.0068970313 -0.04534217 0.014085276 -0.086670667 -0.65633065 -0.74947864 0.0026106145
0.0098555908 -0.045556843 0.013898967 -0.10431627 -0.65412658 -0.74915719 0.002294051
0.012811098 -0.045761321 0.013624754 -0.059412804 -0.62416464 -0.7790305 0.0020467644
0.01578036 -0.045674164 0.013641447 0.10885734 -0.60804635 -0.786403 0.0019395428
0.018644238 -0.045597725 0.01429753 0.21484725 -0.63082129 -0.74559039 0.00084458292
0.021673318 -0.045066904 0.014815809 0.34008604 -0.63870919 -0.69021165 0.0033398629
0.023628533 -0.044203911 0.015003622 0.44738182 -0.5986203 -0.66445708 0.0024303612
-0.05883041 -0.042405613 0.012742082 -0.095156066 0.97522581 -0.19969982 0.0050150198
-0.056064021 -0.041600987 0.014027009 -0.10956514 0.96871299 -0.22268948 0.0070754937
-0.053032514 -0.041601434 0.014213119 0.096715704 0.93555921 -0.33966911 0.0039506368
-0.050149016 -0.042279683 0.014133079 0.3013199 0.85491812 -0.4222813 0.0013113203
-0.047784705 -0.043248285 0.014470583 0.62446129 0.66784948 -0.40500024 0.012797222
-0.010441259 -0.041287579 0.015178531 -0.34918672 -0.69574338 -0.627702 0.0012308025
-0.0079141213 -0.041758616 0.01442932 -0.36629975 -0.67340261 -0.64214748 0.0025591468
-0.0055437358 -0.042502325 0.013732186 -0.30521709 -0.66654646 -0.68011642 0.0061735185
-0.0022861953 -0.043086179 0.013381205 -0.055875659 -0.68862116 -0.72296524 0.0024687063
0.00085917953 -0.042930037 0.013510644 -0.09355364 -0.65838802 -0.74684197 0.0046774512
0.003408191 -0.043414675 0.013109775 -0.17645299 -0.62560707 -0.75992119 0.0020863235
0.0058038477 -0.04374931 0.012713501 -0.088651657 -0.62503684 -0.77554482 0.0030197466
0.019446606 -0.043610752 0.013011532 0.21063602 -0.57309562 -0.79195571 0.00073774974
0.021739889 -0.043014411 0.013328448 0.32500994 -0.53646863 -0.778826 0.0016570777
0.024517633 -0.042059034 0.014079984 0.44932315 -0.51449507 -0.73034489 0.0017440888
0.026802089 -0.041300602 0.01531739 0.59848005 -0.54669166 -0.58561933 0.0021774177
-0.015872333 -0.037930183 0.015500197 -0.52914596 -0.56820381 -0.63019758 0.00083241268
-0.013901417 -0.03898301 0.014954017 -0.45961502 -0.6203422 -0.63555449 0.0010963755
-0.011482853 -0.039564483 0.014075138 -0.36815324 -0.63414115 -0.67994732 0.0011300081
-0.0089399898 -0.040010121 0.013232963 -0.31893682 -0.61135113 -0.72424382 0.0012643352
0.025269244 -0.0400129 0.01326547 0.47060469 -0.47886536 -0.74109334 0.0020391287
0.027591661 -0.039347529 0.01444353 0.59029502 -0.45466787 -0.66695505 0.0030243022
0.029511828 -0.038254462 0.015331948 0.73374474 -0.41583267 -0.53730983 0.0051382473
-0.01679435 -0.035918135 0.014560679 -0.54024434 -0.53391278 -0.65044075 0.00047352325
-0.014435059 -0.037096526 0.01364756 -0.44588909 -0.58825547 -0.67463958 0.0011379382
-0.012373683 -0.037690915 0.012721488 -0.40182289 -0.58934468 -0.70086461 0.0015504952
0.028117422 -0.036801327 0.013483407 0.57940263 -0.30899012 -0.7542001 0.0023658022
0.029697534 -0.035937961 0.01461032 0.71789581 -0.29512277 -0.63049835 0.0039957492
-0.019610655 -0.03313899 0.014848191 -0.6159358 -0.49978599 -0.60896391 0.0012633615
-0.017811622 -0.033727676 0.013707438 -0.58380681 -0.48471338 -0.65132368 0.0016269337
0.0287062 -0.033668958 0.012946436 0.57037467 -0.25539592 -0.78066999 0.0017062828
0.030181915 -0.033258658 0.014200676 0.70106566 -0.29930636 -0.64724231 0.0038014557
0.064090952 -0.032519199 0.015624085 -0.25066635 -0.56785715 -0.78403103 0.0031379131
-0.022200283 -0.029620547 0.014842037 -0.65482527 -0.4630349 -0.5973295 0.0010325058
-0.020359028 -0.030670136 0.013775481 -0.579687 -0.44765005 -0.68086153 0.0013212991
-0.018433418 -0.031632476 0.0127318 -0.53774333 -0.45246708 -0.711411 0.002677981
0.031091157 -0.030554142 0.013730386 0.57011038 -0.48802638 -0.6609118 0.01280835
0.033550944 -0.029473111 0.01494897 0.38904035 -0.68733346 -0.61336797 0.0051970035
0.035962973 -0.029127568 0.015577191 0.22603701 -0.78322762 -0.57919061 0.001983674
0.05841988 -0.029343713 0.015429646 -0.34093177 -0.54796249 -0.76387352 0.0024888192
0.060830917 -0.029970169 0.015066259 -0.26323819 -0.51591307 -0.81519276 0.0013721226
0.063753642 -0.030316427 0.014484031 -0.22481421 -0.55739599 -0.79922986 0.002808393
-0.023097523 -0.027299557 0.014200401 -0.67545378 -0.38578629 -0.62843543 0.0020187884
-0.021131109 -0.028271206 0.012809554 -0.5962885 -0.3856374 -0.70407653 0.0010952865
0.034306485 -0.028153379 0.013593161 0.34936312 -0.71702766 -0.60317212 0.0041200221
0.036986161 -0.027481556 0.013805564 0.26594877 -0.71048534 -0.65152264 0.0038327666
0.039701104 -0.027072286 0.014283627 0.29288527 -0.65993184 -0.6918875 0.0054808026
0.042549979 -0.026676025 0.015055215 0.26996341 -0.64157242 -0.71798646 0.003464527
0.044423468 -0.026410406 0.01546664 0.20987189 -0.63608187 -0.74253184 0.0032711867
0.055139445 -0.026813397 0.015128242 -0.32112661 -0.60387868 -0.72952592 0.0013322039
0.057745915 -0.027480952 0.014518725 -0.32829314 -0.57724518 -0.74767077 0.0020838315
0.060631379 -0.028133918 0.014168466 -0.25783294 -0.52075917 -0.81383783 0.0014705734
0.062494107 -0.028333686 0.01377661 -0.26320004 -0.51592964 -0.81519467 0.0013744873
-0.062282719 -0.023025023 0.015503401 -0.017654061 -0.80848891 -0.58824652 0.0027648916
-0.059912018 -0.023025343 0.015509475 0.17960034 -0.74340367 -0.64427847 0.0053691696
-0.025462974 -0.02381471 0.015065989 -0.74923736 -0.29166761 -0.59462035 0.0014271636
-0.024002846 -0.024567105 0.013795014 -0.71435308 -0.28838608 -0.63759959 0.00090491149
0.040053073 -0.02536696 0.013045136 0.28172219 -0.4952763 -0.82178706 0.0038001752
0.04273783 -0.02461171 0.013580695 0.25693032 -0.52568531 -0.81095111 0.003069795
0.045745052 -0.024352582 0.014372883 0.20372261 -0.62093014 -0.75692987 0.0039186766
0.048732016 -0.023988353 0.014509078 -0.0058780853 -0.63935548 -0.76888883 0.0037590696
0.0517934 -0.024259074 0.014403164 -0.23783551 -0.68567204 -0.68795937 0.0080017755
0.054564428 -0.024810908 0.01389326 -0.30930126 -0.66823077 -0.67660946 0.0061965515
0.056719832 -0.025615444 0.0134554 -0.32937682 -0.66421044 -0.6710704 0.0060056369
-0.070593007 -0.020497987 0.014582474 -0.33582759 -0.82623935 -0.45227027 0.00085341081
-0.068193838 -0.021084459 0.013879983 -0.25175589 -0.8439132 -0.47374001 0.0018396629
-0.065391228 -0.021876272 0.014189238 -0.1196214 -0.84918582 -0.51436764 0.0031653282
-0.062052995 -0.021709582 0.01380113 0.053110611 -0.77981508 -0.62375295 0.0016433802
-0.059105322 -0.021402696 0.014085103 0.26953676 -0.68532437 -0.67652082 0.0066847554
-0.056611408 -0.020775607 0.014817497 0.41804802 -0.57355398 -0.70446557 0.0040246146
-0.025615904 -0.021275515 0.014346207 -0.79024845 -0.13016224 -0.59880316 0.003310889
-0.024381198 -0.021550708 0.013074366 -0.7160933 -0.17822732 -0.67486703 0.0025260625
0.043852933 -0.022885984 0.012843857 0.25605315 -0.51610231 -0.81735867 0.0026177722
0.045874372 -0.022381688 0.012857581 0.11652142 -0.45734361 -0.88162327 0.0066741542
0.048920758 -0.022221275 0.013015648 -0.040004265 -0.54837161 -0.83527726 0.0094387885
0.051940456 -0.022552347 0.01290218 -0.33012614 -0.71868175 -0.6119749 0.028971573
-0.073726825 -0.01818723 0.0132112 -0.40278405 -0.81034195 -0.42557111 0.00045628974
-0.071399152 -0.019543132 0.013388673 -0.33734936 -0.82532555 -0.452806 0.00090996834
-0.05816754 -0.019517517 0.012814114 0.35998762 -0.57616287 -0.73378831 0.0031625151
-0.056066703 -0.018682638 0.013662571 0.55392426 -0.45351571 -0.69820589 0.0065656439
-0.053911757 -0.018191202 0.01511492 0.63452905 -0.3253389 -0.70109028 0.005500739
-0.025959931 -0.018575484 0.014422208 -0.79951471 -0.018592201 -0.60035878 0.002950741
-0.055031948 -0.015776327 0.013098309 0.71031857 -0.21487129 -0.67028201 0.0049699191
-0.053714406 -0.015437054 0.014405966 0.77169144 -0.11430378 -0.62564123 0.011624848
-0.025603045 -0.015524507 0.014162112 -0.79086852 0.085098125 -0.60604066 0.0028244418
-0.024515189 -0.015148779 0.013063611 -0.74670595 0.099646218 -0.65764803 0.0036843223
-0.054791115 -0.012444986 0.012744652 0.81367296 -0.01160095 -0.58120704 0.0053222924
-0.053723503 -0.012583632 0.014377091 0.85721326 0.10769095 -0.50357533 0.0093746586
-0.025536131 -0.012729216 0.014818922 -0.80978048 0.19275667 -0.55416644 0.0023440274
-0.024316482 -0.012239989 0.013446078 -0.76211351 0.13741738 -0.63269222 0.0044267727
-0.054861419 -0.0094255768 0.013258455 0.88761264 0.12581374 -0.44307411 0.0053102253
-0.054153387 -0.010020036 0.014675463 0.88927478 0.15699178 -0.4295857 0.0048440201
-0.025367066 -0.010832986 0.015637944 -0.85617739 0.13697618 -0.49819455 0.0056505403
-0.024263464 -0.0094489232 0.014329506 -0.85885274 0.13781236 -0.49333519 0.0062764473
-0.055562165 -0.0065984479 0.013454637 0.90262055 0.1995718 -0.38137534 0.0050639091
-0.024265543 -0.0066339956 0.014354169 -0.92271483 -0.023414942 -0.38477144 0.0080350982
-0.056300215 -0.004714807 0.013906429 0.92055929 0.2453445 -0.30393532 0.0026488686
-0.02460555 -0.0037075891 0.014399329 -0.94070268 -0.21042547 -0.26608184 0.0017209522
-0.025517825 -0.00043958519 0.014555275 -0.9403218 -0.26496324 -0.21351686 0.00065733993
-0.026357107 0.0029346193 0.013691723 -0.92576569 -0.29081783 -0.24162546 0.00084939483
-0.02726002 0.0057458747 0.013737852 -0.91874546 -0.33776709 -0.20449981 0.00041868782
-0.028320581 0.0081208814 0.01436686 -0.91975409 -0.34068179 -0.19490564 0.00051407504
-0.02971682 0.011853399 0.014930824 -0.92892271 -0.32513845 -0.17716563 0.00035758771
-0.030296586 0.014520729 0.013728553 -0.94608444 -0.27362725 -0.173356 0.00042267822
-0.031901576 0.035696216 0.012767205 -0.94470435 0.23033792 -0.23340543 0.002569133
-0.027214389 0.047854297 0.013119588 -0.85400569 0.47655395 -0.20873573 0.00037315016
-0.025916792 0.050291009 0.013814801 -0.83012748 0.53144789 -0.1686756 0.0010609193
-0.023198649 0.053971134 0.013543615 -0.76728553 0.60631227 -0.20894587 0.00072754966
-0.015747849 0.061299048 0.012888441 -0.61853039 0.75490683 -0.2180271 0.00052238209
-0.014146031 0.062909812 0.014737392 -0.58268875 0.78784508 -0.19943407 0.0011640996
-0.04586114 -0.05064147 0.017045313 0.95366019 -0.11838959 -0.27661544 0.0062531764
0.0075182728 -0.050472036 0.018546635 -0.088072479 -0.68325418 -0.72484958 0.003750727
0.0099020824 -0.05043292 0.018202839 -0.086746939 -0.66540283 -0.741427 0.00046978047
0.013116323 -0.050727587 0.018222431 0.0016053055 -0.70756328 -0.70664817 0.0025703553
0.015489547 -0.050558075 0.018103221 0.15591399 -0.74100578 -0.65314716 0.0051200818
0.017411519 -0.050477497 0.018594721 0.27254212 -0.76006752 -0.58993071 0.0053776032
-0.045330737 -0.048523463 0.017366011 0.96451771 -0.074329138 -0.2533392 0.0038069724
-0.0037330845 -0.04703518 0.018302659 -0.27387819 -0.70351458 -0.65578812 0.00078685989
-0.0018787193 -0.047301624 0.018059272 -0.24325587 -0.67534083 -0.69623375 0.0017609672
0.00070365611 -0.048004068 0.017801123 -0.20610225 -0.64336294 -0.73729634 0.00083391037
0.0037690762 -0.04865535 0.017525941 -0.14104807 -0.64800125 -0.74846494 0.0016325435
0.0068307095 -0.048617683 0.017184092 -0.11196416 -0.64792663 -0.75342888 0.0009145927
0.0098149739 -0.048623882 0.016752401 -0.11587226 -0.65177304 -0.74951023 0.0008971619
0.0129396 -0.048881922 0.01650127 -0.053787157 -0.68274242 -0.72867668 0.00066126062
0.015794389 -0.049030311 0.016615767 0.13762081 -0.70644814 -0.69425613 0.0056037116
0.018630218 -0.04850097 0.017006675 0.26229668 -0.70284402 -0.66121906 0.0013837945
0.021768715 -0.04776236 0.017817404 0.40685889 -0.73509818 -0.5423066 0.00243722
0.023527056 -0.047002487 0.017994592 0.45892185 -0.69931018 -0.54804742 0.0033366578
-0.045765374 -0.044777583 0.016214797 0.88421434 0.22180662 -0.41105565 0.014612973
-0.045314159 -0.045402851 0.017021969 0.93603814 0.15339144 -0.3167074 0.014009863
-0.0079302657 -0.044508476 0.018036142 -0.3542954 -0.71135139 -0.60700411 0.00065499457
-0.00540944 -0.045209292 0.017106671 -0.32943967 -0.72444504 -0.60551536 0.0029763952
-0.0023422707 -0.045843888 0.016675366 -0.16403046 -0.71143222 -0.68334341 0.0034576636
0.00071814144 -0.046151668 0.016370313 -0.18002169 -0.66345459 -0.726237 0.0022753957
0.0035475902 -0.04668621 0.016078243 -0.15308738 -0.66193289 -0.73376358 0.0020020907
0.0064868256 -0.046781819 0.015914578 -0.10897253 -0.67089677 -0.73350018 0.0013246523
0.02004385 -0.046762682 0.015734116 0.29732007 -0.67480838 -0.67545116 0.0027098425
0.021830406 -0.046558101 0.016364655 0.3492094 -0.69793606 -0.62525028 0.0030580987
0.024661385 -0.045106851 0.017017631 0.54346853 -0.62109029 -0.56470233 0.0033036957
-0.05877395 -0.04213918 0.017009983 -0.17554469 0.9669472 -0.18492475 0.0031403967
-0.056854524 -0.041199408 0.017874861 -0.14445417 0.96821958 -0.20416646 0.004247528
-0.049817219 -0.04137003 0.01605773 0.22188577 0.86623579 -0.44766313 0.004754493
-0.046929825 -0.042217944 0.016891224 0.54383713 0.65293407 -0.52717954 0.026647175
-0.045319617 -0.042939834 0.018261462 0.74600583 0.47897092 -0.46266842 0.021881962
-0.013806469 -0.041813929 0.017882904 -0.43882152 -0.67941678 -0.58807188 0.0012153251
-0.011193558 -0.042500537 0.017222745 -0.33773541 -0.72523516 -0.59997404 0.0006978091
-0.0083491933 -0.043259304 0.016875783 -0.36387044 -0.73058659 -0.57779032 0.0010250972
0.025941242 -0.043193679 0.016206026 0.61695439 -0.55746043 -0.55552232 0.0038252047
0.027670346 -0.04226914 0.017576717 0.6665746 -0.59807336 -0.44495678 0.00073007972
0.02968872 -0.040919535 0.018527845 0.7519787 -0.52938646 -0.3927823 0.0029989947
-0.05543207 -0.040818132 0.017428765 -0.10290418 0.96452141 -0.24312395 0.0080799246
-0.053131763 -0.040560097 0.017404107 -0.063178584 0.9654423 -0.25284314 0.0045868182
-0.050365508 -0.040504716 0.017726807 0.10889468 0.91983324 -0.37689361 0.009223206
-0.048009187 -0.040866349 0.017951399 0.3410562 0.81207901 -0.47350642 0.01031075
-0.018750619 -0.038199328 0.018626431 -0.53820032 -0.57212514 -0.61888063 0.0040513682
-0.016708352 -0.038830917 0.017179843 -0.55587649 -0.59616029 -0.57930493 0.00074528222
-0.014489003 -0.040331677 0.016755255 -0.45690912 -0.65939188 -0.59702301 0.0016804723
0.028680339 -0.040521927 0.016670236 0.66945326 -0.57066089 -0.4755823 0.0015032481
0.030186445 -0.038989548 0.017270679 0.77045542 -0.42452163 -0.47558373 0.0040911469
-0.019828286 -0.035839025 0.017562384 -0.62419689 -0.51807821 -0.58478481 0.00073615788
-0.018197782 -0.036906831 0.016763825 -0.59674126 -0.54485357 -0.58909625 0.00050730945
0.030958638 -0.036351226 0.016899088 0.81610668 -0.30740225 -0.48936051 0.0016073256
0.064333878 -0.035593189 0.018460264 -0.24819833 -0.64202458 -0.72539777 0.0001760061
-0.02238296 -0.032542616 0.017781422 -0.68881458 -0.4780589 -0.54497164 0.0005753726
-0.02085283 -0.033903684 0.016976254 -0.64988559 -0.48804462 -0.58263302 0.00052208442
0.031433534 -0.034098249 0.01632295 0.76677644 -0.32538787 -0.55333227 0.0020316725
0.03279341 -0.033099789 0.017718127 0.73350894 -0.42838719 -0.52768278 0.0034275744
0.058192357 -0.032440148 0.018011792 -0.43454987 -0.6004954 -0.67124641 0.0011861679
0.060849413 -0.033253789 0.01742685 -0.29753911 -0.62483972 -0.72183508 0.0013980905
0.063716292 -0.033782583 0.017012963 -0.24415301 -0.61307722 -0.75134921 0.0012477644
-0.02486239 -0.029300727 0.018195996 -0.67668527 -0.4393951 -0.5907867 0.0054259049
-0.023358863 -0.030382268 0.017065579 -0.70892614 -0.4563781 -0.53772002 0.00045897646
-0.021304738 -0.031847335 0.015705148 -0.64338166 -0.47635469 -0.59928811 0.001112506
0.032266695 -0.031874247 0.016077349 0.61579812 -0.58651483 -0.52611125 0.012934734
0.034183249 -0.030656427 0.016850999 0.4517718 -0.68902308 -0.56670052 0.0078588733
0.036883969 -0.030043591 0.017077953 0.23075658 -0.83777022 -0.49486622 0.0033710287
0.039593395 -0.02951638 0.017592816 0.21659024 -0.84250581 -0.49322683 0.0025266602
0.04196436 -0.029319935 0.018486777 0.20798232 -0.84795374 -0.48756316 0.0043889955
0.055241875 -0.029743619 0.017682472 -0.41714936 -0.63136417 -0.65373212 0.0019704481
0.057493828 -0.030467194 0.01674071 -0.39951041 -0.58191812 -0.70835209 0.0023234272
0.060521439 -0.031415284 0.015982095 -0.27808204 -0.55291414 -0.78546578 0.0018590802
-0.025659032 -0.0273741 0.017661398 -0.74638885 -0.37398028 -0.55049288 0.0012796321
-0.024378408 -0.02780252 0.016055876 -0.73810512 -0.38998207 -0.55055869 0.00076864701
0.040281046 -0.028353866 0.016188769 0.24715202 -0.7693634 -0.58906358 0.0026592957
0.042976461 -0.028090898 0.017025156 0.24339251 -0.7961297 -0.55401945 0.00067108014
0.04572304 -0.027296234 0.017135976 0.20217034 -0.7563957 -0.62208736 0.0072250632
0.048781428 -0.027259976 0.017462134 -0.028128082 -0.75997114 -0.64934778 0.0049711117
0.051873744 -0.027399495 0.017056111 -0.25060812 -0.65377796 -0.71398181 0.0033438227
0.054392915 -0.028016482 0.016507437 -0.33608407 -0.62860405 -0.70135897 0.0027147704
-0.067347273 -0.023127733 0.017468328 -0.26572216 -0.86620122 -0.4231869 0.0011531293
-0.065123074 -0.023559136 0.017033566 -0.20328689 -0.84775561 -0.48988247 0.0042494349
-0.062223896 -0.024278555 0.017345434 -0.1110309 -0.83826941 -0.53383195 0.0018377566
-0.059164755 -0.024248919 0.017204477 0.10860312 -0.7802763 -0.6159336 0.005461466
-0.056320954 -0.023862943 0.017627243 0.33103734 -0.64544475 -0.68834239 0.0021648
-0.054183457 -0.023169568 0.018268654 0.43134335 -0.59993768 -0.67380828 0.0031149301
-0.026575778 -0.024401642 0.017015355 -0.81462061 -0.26914531 -0.51376468 0.0021668591
0.046848103 -0.025765946 0.016031543 0.15026216 -0.73105669 -0.66556555 0.0093336049
0.048892464 -0.02577159 0.016128132 -0.0085700843 -0.70667005 -0.70749134 0.0041631791
0.050896998 -0.025754159 0.015829736 -0.15314782 -0.67804009 -0.71889317 0.0046374528
-0.070834406 -0.021015396 0.015984545 -0.31728142 -0.83758134 -0.44473594 0.0013270227
-0.068544984 -0.022227803 0.016488248 -0.29074028 -0.86013365 -0.41909465 0.00092534773
-0.055789512 -0.022050049 0.016325215 0.34654236 -0.61860263 -0.70515186 0.0025427674
-0.053382926 -0.021309504 0.017380107 0.51516587 -0.4675312 -0.71834439 0.0040082945
-0.051478527 -0.020791655 0.018442282 0.60200781 -0.38647762 -0.6987285 0.0089368066
-0.027138948 -0.021389073 0.016691906 -0.86878991 -0.10327891 -0.48429072 0.0029863515
-0.052588426 -0.018566595 0.016501432 0.70015889 -0.21102524 -0.68208939 0.0055327192
-0.051076964 -0.018385047 0.017967079 0.76662236 -0.11105007 -0.63242233 0.013058022
-0.027393032 -0.018121256 0.017071083 -0.88501656 0.038815048 -0.46393865 0.0025322323
-0.05222892 -0.015262593 0.016345998 0.83403724 0.012052487 -0.55157661 0.0078015663
-0.051187877 -0.015545104 0.017946173 0.84287375 0.16723293 -0.51146543 0.011251523
-0.027157608 -0.015283199 0.016945643 -0.88695997 0.093276381 -0.45232898 0.0019934515
-0.052484591 -0.012566198 0.01700828 0.8804667 0.2192605 -0.42036092 0.0062154853
-0.0514884 -0.013632482 0.018519619 0.91827363 0.26079589 -0.29792452 0.0090368055
-0.026753575 -0.012317367 0.017235486 -0.86778539 0.22705409 -0.44203514 0.001437179
-0.05365615 -0.0097315386 0.016873479 0.89686817 0.22031622 -0.38352078 0.0020993382
-0.025805816 -0.009507766 0.01706039 -0.88711733 0.19446777 -0.41857511 0.0028320637
-0.025535863 -0.0068036267 0.01807769 -0.92741764 0.10385535 -0.35931969 0.0049929549
-0.024694748 -0.0060900054 0.015717873 -0.95140237 0.049270488 -0.30398336 0.0046549342
-0.025489278 -0.0030529886 0.017404335 -0.9544493 -0.12916227 -0.26896799 0.0032784296
-0.026134577 1.0648742e-05 0.016907463 -0.94493556 -0.2764695 -0.17510401 0.00064715813
-0.027069453 0.0029594544 0.017293373 -0.93225509 -0.30789992 -0.18999496 0.00020289236
-0.028178822 0.0064676572 0.016976649 -0.92395252 -0.32288826 -0.20507281 0.00048413506
-0.027423937 0.0047581736 0.015959034 -0.92786932 -0.30298018 -0.21739726 0.00040146508
-0.019658163 0.058756683 0.016560638 -0.67491639 0.71368891 -0.18744591 0.0010250583
-0.0018434045 -0.050291825 0.020980516 -0.31792927 -0.70662111 -0.63214523 0.0004821879
0.00074577145 -0.050896712 0.020466356 -0.26710084 -0.72893786 -0.63032281 0.0017995179
0.0038821083 -0.051499903 0.020136667 -0.14956541 -0.74782366 -0.64683074 0.0021893098
0.0067438572 -0.051808432 0.019969946 -0.095827393 -0.75175166 -0.65244657 0.0031355142
0.0095764082 -0.051973928 0.019716233 -0.056940388 -0.76805907 -0.63784254 0.003982604
0.012484242 -0.052146416 0.01972995 0.019781819 -0.77863795 -0.62716156 0.0025354424
0.015699636 -0.051923983 0.019938137 0.21304595 -0.83518022 -0.50703603 0.0046692383
0.018712047 -0.050776608 0.020218173 0.35653132 -0.81900012 -0.44958246 0.0034614119
0.021249782 -0.050060622 0.020959238 0.41074553 -0.82086432 -0.39682478 0.0023000995
-0.044670831 -0.048012823 0.019776681 0.95867687 -0.10198751 -0.2655884 0.004598727
-0.007735014 -0.047505744 0.02112023 -0.35915032 -0.69195062 -0.62627101 9.6708187e-05
-0.0050040735 -0.048105419 0.020206569 -0.33008254 -0.70157588 -0.63153535 0.00059600233
-0.0021628118 -0.048762176 0.019539528 -0.28875712 -0.69663095 -0.65675312 0.0010417731
0.00069165742 -0.049500555 0.019010993 -0.23755443 -0.66947156 -0.70382935 0.0013130936
0.019468576 -0.049603257 0.018911213 0.32645404 -0.75185305 -0.57283914 0.0019420981
0.021959972 -0.048971184 0.019785181 0.398716 -0.76699018 -0.50274402 0.0016577126
0.024174251 -0.047804222 0.020381836 0.57522488 -0.70429516 -0.41603443 0.0024220771
-0.044219323 -0.045232318 0.020089092 0.95157105 -0.048933711 -0.30350965 0.0066063181
-0.014089449 -0.044378337 0.021297097 -0.40572527 -0.67217946 -0.61932355 0.00093802705
-0.011069498 -0.045211833 0.020483667 -0.35595071 -0.69768763 -0.62171626 0.0001614591
-0.0083454279 -0.045957167 0.019741861 -0.35908148 -0.68973589 -0.62874871 0.00021161367
-0.0061361147 -0.04642123 0.018951947 -0.33580807 -0.69309902 -0.63784534 0.00088017952
0.025416892 -0.046259869 0.019586194 0.61356473 -0.67199051 -0.41468906 0.0023971286
0.027175039 -0.044875838 0.020559693 0.67731327 -0.62015855 -0.39579058 0.0005375566
-0.046420526 -0.040957294 0.018937239 0.39672697 0.78919446 -0.46880665 0.016626697
-0.044513378 -0.04234625 0.020211648 0.81248099 0.31792894 -0.48866743 0.029621013
-0.016802974 -0.041800123 0.020635573 -0.46265963 -0.62598032 -0.62776959 0.0036474986
-0.014483265 -0.042942427 0.019848173 -0.41715869 -0.7005896 -0.5789237 0.0011403764
-0.011951263 -0.043717962 0.019236723 -0.33661351 -0.7146942 -0.61310971 0.00051744375
0.02839198 -0.043090843 0.019818017 0.69220144 -0.60982186 -0.38597211 0.00052413589
0.030135863 -0.041435681 0.020412901 0.73281169 -0.56783509 -0.37490046 0.0011141649
-0.055147059 -0.040402807 0.020351687 -0.19297652 0.96561056 -0.17423044 0.0055799955
-0.053453121 -0.039901506 0.02049611 -0.19164245 0.96404213 -0.18410859 0.0069145239
-0.0499616 -0.039557591 0.020270672 0.025004687 0.93565786 -0.35202128 0.0069545093
-0.047406498 -0.039853811 0.020349983 0.38881946 0.77789611 -0.49365693 0.015416882
-0.045408521 -0.040237539 0.021053005 0.45019636 0.72502726 -0.52120888 0.02557008
-0.025606949 -0.038625956 0.021586673 -0.13793573 -0.22140512 -0.96537745 0.0027589188
-0.023364522 -0.0387839 0.021427209 -0.19452709 -0.36771581 -0.90936482 0.0094184093
-0.020101301 -0.039253768 0.02078001 -0.37924379 -0.50229824 -0.77709109 0.0083989305
-0.017651696 -0.0398583 0.019367356 -0.52470744 -0.58913565 -0.61449271 0.0031603619
0.0312424 -0.039442044 0.0198116 0.79266137 -0.42839739 -0.43377846 0.0017883442
0.032583218 -0.038422994 0.021224091 0.78402197 -0.4481025 -0.4295505 0.0016923802
0.062150285 -0.038460456 0.021659264 -0.21340942 -0.65146524 -0.72804487 0.00061538146
0.064029485 -0.038645614 0.021151522 -0.21355926 -0.65141171 -0.72804886 0.0006106699
-0.027841821 -0.036053035 0.02162146 -0.13034943 -0.084305584 -0.98787725 0.0014851891
-0.026104361 -0.03637284 0.021329734 -0.2354849 -0.16853845 -0.9571529 0.0058075469
-0.023394447 -0.0364739 0.020697773 -0.27321643 -0.26573488 -0.92452025 0.0075134877
-0.020850603 -0.036909595 0.019524464 -0.54493415 -0.46391213 -0.69844997 0.01032668
0.031757589 -0.037198998 0.018900761 0.80997783 -0.36118346 -0.46204156 0.0013071033
0.033224054 -0.036098287 0.020487536 0.7708559 -0.37644464 -0.51387811 0.00053307338
0.058018263 -0.035728544 0.020997522 -0.45927194 -0.58261949 -0.67053998 0.0019952215
0.060774248 -0.036642592 0.020425605 -0.28316694 -0.62006462 -0.73166686 0.0011116458
0.063520737 -0.036812961 0.019621434 -0.23504373 -0.6480878 -0.72438711 0.00031290145
-0.028134517 -0.033156309 0.021597881 -0.21047109 -0.059407011 -0.97579336 0.0047666677
-0.026087794 -0.033265907 0.021090791 -0.3458235 -0.14600246 -0.9268707 0.0087356968
-0.02344168 -0.033612542 0.019742208 -0.56060755 -0.3418701 -0.75421757 0.016921464
0.034019522 -0.033591498 0.019848449 0.73310792 -0.45208436 -0.50810689 0.0033779941
0.035491467 -0.032751869 0.021096552 0.67756045 -0.48938665 -0.54901057 0.0038472305
0.055184022 -0.032901987 0.020804355 -0.53093654 -0.61522514 -0.58275586 0.0032297659
0.05759142 -0.0337428 0.019622792 -0.4348267 -0.58864528 -0.68148541 0.0015501176
0.059991449 -0.034590531 0.019012708 -0.30435389 -0.62207305 -0.72138327 0.00092800322
-0.027974777 -0.030347455 0.021561215 -0.32326296 -0.096989177 -0.94132578 0.016399503
-0.026109837 -0.030544162 0.020417551 -0.50675952 -0.23541044 -0.82932299 0.014210016
-0.024253648 -0.031423695 0.01929892 -0.63401902 -0.37960774 -0.67373425 0.0061440361
0.035174519 -0.0313989 0.018948326 0.42735061 -0.76407492 -0.48328146 0.015190613
0.036663864 -0.031522024 0.020689279 0.37153885 -0.81545973 -0.44382909 0.01320569
0.039659198 -0.030586462 0.019542577 0.23382673 -0.89608699 -0.37729713 0.0030502658
0.042860303 -0.029801935 0.019857131 0.22666138 -0.86729008 -0.44320709 0.0029757668
0.045885142 -0.029441841 0.020330878 0.12071313 -0.86449397 -0.48793289 0.0052235117
0.048859999 -0.029599372 0.02063605 -0.10284059 -0.8417033 -0.530056 0.0060488051
0.051943149 -0.030122682 0.020257348 -0.30060145 -0.78484428 -0.54190242 0.0046638846
0.054429024 -0.030906014 0.019492108 -0.45942217 -0.65334255 -0.60172659 0.0040035835
-0.061943874 -0.026271058 0.020760054 -0.16124883 -0.87049836 -0.46500686 0.0028111534
-0.059085444 -0.026315382 0.020218862 -0.02103111 -0.83127081 -0.55546969 0.0047771763
-0.056197956 -0.026371446 0.020524791 0.134578 -0.75832117 -0.63783842 0.0091310339
-0.053787414 -0.026302522 0.021297429 0.28193191 -0.66301399 -0.69348896 0.0049717398
-0.028190125 -0.02759162 0.021172063 -0.70666873 -0.15486661 -0.69038802 0.019795308
-0.026922628 -0.027645241 0.019756684 -0.71093935 -0.30059272 -0.63577461 0.0083265593
0.046124898 -0.028685201 0.01922049 0.13350429 -0.85978925 -0.49288851 0.0058093793
0.048864078 -0.028689653 0.019289289 -0.0552027 -0.84237003 -0.53606474 0.0057285288
0.050868753 -0.028661035 0.018846044 -0.24538869 -0.71947294 -0.64972538 0.0031124975
-0.067655332 -0.023948302 0.020055134 -0.2741029 -0.86964172 -0.41059825 0.00090674794
-0.065096974 -0.025041746 0.020030323 -0.26240778 -0.87311155 -0.41087511 0.00082569016
-0.062476411 -0.025256515 0.01900056 -0.14640455 -0.87083924 -0.46925983 0.0027203937
-0.055805448 -0.025129093 0.019161602 0.27988198 -0.69136763 -0.66609073 0.0074060028
-0.053048205 -0.024402987 0.020023545 0.38814265 -0.58417225 -0.71280289 0.0038927067
-0.050570976 -0.02394237 0.021111064 0.49562636 -0.46326795 -0.73466814 0.0075378427
-0.028437108 -0.024309495 0.020404989 -0.85609406 -0.08694762 -0.50945365 0.012298641
-0.027662694 -0.024926094 0.019194225 -0.7949025 -0.21461233 -0.56751335 0.0084681744
-0.052238069 -0.022527045 0.019042382 0.48682463 -0.47574857 -0.73257434 0.0062266914
-0.050159685 -0.021627257 0.020037169 0.64693689 -0.32177475 -0.69132745 0.010886781
-0.048431113 -0.020590072 0.021467347 0.76611149 -0.15210986 -0.6244483 0.015063054
-0.02835954 -0.021518776 0.019375445 -0.91817319 -0.030205794 -0.395026 0.0049790503
-0.049617849 -0.018466981 0.019957492 0.86385876 0.086592034 -0.4962357 0.021376006
-0.048456982 -0.019225931 0.021683047 0.88301593 0.18498465 -0.43135083 0.014296287
-0.028379507 -0.018453639 0.01964052 -0.93639982 0.041065149 -0.34852394 0.0015622433
-0.050317753 -0.015391855 0.020080356 0.90970707 0.2716409 -0.31407696 0.008995031
-0.02842271 -0.015396284 0.020213956 -0.94581783 0.091161489 -0.31163797 0.00083696115
-0.052221213 -0.011596268 0.018911878 0.89682317 0.32523981 -0.29987887 0.0063963002
-0.051427256 -0.012988621 0.019829184 0.90317285 0.32724369 -0.27783161 0.0049168556
-0.028233211 -0.012558391 0.020729253 -0.93825787 0.16147858 -0.30593616 0.0015389462
-0.027665403 -0.012287423 0.019230902 -0.89912188 0.20559394 -0.3864077 0.0015723399
-0.027795415 -0.010278737 0.020992646 -0.91208959 0.25454909 -0.32139909 0.00049196556
-0.026870869 -0.0090146754 0.019580184 -0.89748102 0.26403299 -0.35329071 0.00049969833
-0.026378248 -0.0064968425 0.020342469 -0.90820372 0.25182581 -0.33428994 0.00095793861
-0.026030831 -0.0047832704 0.020267213 -0.9734965 0.062472429 -0.22000422 0.0068477169
-0.026307873 -0.00067279302 0.01935781 -0.96801817 -0.1570933 -0.19560814 0.0063114795
0.00064301584 -0.053137198 0.023771601 -0.24911293 -0.84811246 -0.46759805 0.0014265863
0.0037521035 -0.053764187 0.023237992 -0.18771631 -0.84258747 -0.50478595 0.0032451591
0.0068541369 -0.054108247 0.023231598 -0.015985683 -0.89991802 -0.43576601 0.002823845
0.0096009485 -0.053633429 0.022153931 -0.032130573 -0.8589071 -0.51112247 0.0075001498
0.012700725 -0.053662725 0.022398159 0.088949174 -0.89825886 -0.43037078 0.0043417923
0.015834324 -0.053507842 0.023984427 0.28898445 -0.88008446 -0.37674823 0.0028076717
-0.0073128734 -0.050454624 0.024469743 -0.3462064 -0.75592017 -0.55563104 0.0002004671
-0.0049376404 -0.050740138 0.023322603 -0.34263095 -0.75180751 -0.56337321 0.00033129106
-0.0021431968 -0.051748894 0.023032228 -0.31259665 -0.77330488 -0.55161846 0.0014133367
0.00014320994 -0.052096471 0.022242175 -0.26996747 -0.77494836 -0.57146525 0.0010483485
0.0037564631 -0.052894302 0.021719942 -0.18980712 -0.81344962 -0.54979354 0.0035937408
0.018922994 -0.05185245 0.02339882 0.38060075 -0.85920566 -0.34191918 0.00027108664
0.022164136 -0.050628949 0.023971636 0.42880446 -0.83911729 -0.33467719 0.0021125309
-0.044005223 -0.048021525 0.023697589 0.85260224 -0.2502771 -0.45872733 0.032050647
-0.030823123 -0.047005795 0.024543235 -0.10525083 -0.50879341 -0.85443044 0.0025429882
-0.029084381 -0.046991792 0.02440949 -0.030654551 -0.47588408 -0.8789736 0.0033716657
-0.027023815 -0.047010958 0.024592692 0.049431574 -0.48653099 -0.87226379 0.00094431185
-0.013520124 -0.047191698 0.024118671 -0.346055 -0.71355855 -0.6091634 0.0010785103
-0.010820887 -0.048016004 0.023480089 -0.36057988 -0.71674836 -0.59687001 0.00025968323
-0.0083995201 -0.048786074 0.022989722 -0.35590062 -0.73118305 -0.58198464 0.00030217462
-0.0060466351 -0.049340189 0.022199603 -0.34844485 -0.7201609 -0.599962 0.00012623092
0.022998434 -0.049469464 0.02181516 0.47597265 -0.79033881 -0.38576487 0.0021396782
0.02498015 -0.048511453 0.023117123 0.58507079 -0.72233057 -0.36868787 0.0020648986
-0.043290813 -0.045542184 0.022620047 0.82652295 -0.16037162 -0.53957462 0.022322737
-0.041694861 -0.04474283 0.024190282 0.31198084 -0.39238447 -0.86527592 0.0362835
-0.037917092 -0.044518035 0.02435654 -0.03145346 -0.44594496 -0.89450759 0.006679906
-0.035196077 -0.044838969 0.024242451 -0.10679089 -0.41363424 -0.90415835 0.0024414361
-0.032161705 -0.045223773 0.024007367 -0.12828304 -0.39172092 -0.91109729 0.0015272654
-0.029128619 -0.045127805 0.023659116 -0.024315039 -0.35250077 -0.93549562 0.0011215956
-0.026282039 -0.045210395 0.023873905 0.036083102 -0.39889142 -0.91628796 0.0016910012
-0.023174491 -0.045209117 0.023860127 0.041964002 -0.4366841 -0.89863563 0.001068345
-0.020175278 -0.04507694 0.024018105 0.008102715 -0.48654506 -0.87361789 0.0030499941
-0.017306142 -0.044862695 0.023847952 -0.26672134 -0.61293399 -0.74375504 0.0089675598
-0.014428728 -0.045627281 0.023011783 -0.35205269 -0.70212311 -0.61893624 0.00087910204
-0.011551877 -0.04659681 0.022274988 -0.36261734 -0.70091778 -0.61418486 8.2387785e-05
0.027501542 -0.045762923 0.02253356 0.68532795 -0.64094031 -0.34571844 0.00046742533
0.0292724 -0.044134326 0.023468176 0.71576113 -0.6222617 -0.31698021 0.00047312889
-0.043273896 -0.042085487 0.022462327 0.78006601 0.11934544 -0.61420977 0.036175422
-0.041183982 -0.042490546 0.023741962 0.17537937 -0.13879368 -0.97466838 0.031455275
-0.038103536 -0.042371202 0.023699105 -0.048443507 -0.23493782 -0.97080243 0.0051661232
-0.035217796 -0.042407162 0.023435295 -0.1137568 -0.26946715 -0.95626712 0.001790909
-0.032424897 -0.042368632 0.023027387 -0.11306564 -0.27712083 -0.95415944 0.0015752008
-0.029306047 -0.042346884 0.022797612 -0.050713513 -0.28964421 -0.95578992 0.00105229
-0.026204005 -0.042343162 0.022756977 -0.016864765 -0.31187093 -0.94997478 0.00099532248
-0.023256831 -0.042418189 0.022741536 -0.0031524566 -0.35882598 -0.9333992 0.0005992665
-0.020190943 -0.042256135 0.022644218 -0.14810067 -0.4666405 -0.87195921 0.013583329
-0.017806869 -0.042882722 0.02240001 -0.37342498 -0.59256542 -0.71373665 0.008200163
0.029177617 -0.043273948 0.021706829 0.71243471 -0.60202825 -0.36055353 0.00067017332
0.030853257 -0.042267729 0.023528121 0.69924414 -0.63015455 -0.33758372 0.0012720447
0.061454125 -0.041454598 0.024328256 -0.30497044 -0.68642926 -0.6601575 0.0055679842
0.063662454 -0.041741591 0.024226228 -0.11519641 -0.76628959 -0.63208395 0.0072521702
-0.052603617 -0.039110199 0.023204701 -0.33963421 0.90393311 -0.25991067 0.010917851
-0.050129797 -0.038438693 0.023418466 -0.19781494 0.87403595 -0.44376832 0.010908183
-0.046958875 -0.038524512 0.0230796 0.056330513 0.77742934 -0.62644267 0.018180348
-0.044092927 -0.039200403 0.023104573 0.059070222 0.54407811 -0.83695263 0.038170654
-0.041436162 -0.039312329 0.023541454 0.14088112 0.10838006 -0.98407638 0.048900682
-0.038396072 -0.039473563 0.023233594 -0.12199021 -0.11460761 -0.98589224 0.0045885532
-0.035172209 -0.039603248 0.022927338 -0.12928244 -0.16716585 -0.9774158 0.0018462915
-0.032376707 -0.039561339 0.022453232 -0.11215793 -0.14320686 -0.98331702 0.00049859495
-0.029260062 -0.039538611 0.022196541 -0.0906308 -0.16769686 -0.98166376 0.0014905535
-0.026319984 -0.039804064 0.021958867 -0.067494348 -0.22366334 -0.9723267 0.0026335977
-0.023401354 -0.040209256 0.022006566 -0.077728696 -0.34722483 -0.93455499 0.0044477992
-0.021166485 -0.040380362 0.02199837 -0.28023395 -0.46269554 -0.84105986 0.013622896
0.031971764 -0.040251561 0.0224726 0.73510289 -0.54870737 -0.39817581 0.0024135318
0.033420574 -0.039318942 0.023612184 0.72700793 -0.52623975 -0.44105694 0.0022977875
0.057887498 -0.038881708 0.023876023 -0.51070631 -0.62782699 -0.58737749 0.0038807585
0.060698349 -0.039589509 0.022990879 -0.25765392 -0.65078491 -0.7142083 0.0017297629
0.063619144 -0.040110957 0.022823939 -0.19456819 -0.68247974 -0.70453149 0.0019980043
-0.046730015 -0.03732894 0.024579424 -0.14606802 0.52255398 -0.84000087 0.025867281
-0.04405582 -0.037080627 0.02436457 -0.18185504 0.35074815 -0.9186427 0.029848324
-0.041474659 -0.036237303 0.023907216 -0.21740063 0.13558483 -0.96661973 0.013659657
-0.038189504 -0.036388878 0.022998558 -0.17293881 0.010555349 -0.98487598 0.0016252864
-0.035141919 -0.036475509 0.022590075 -0.14216062 -0.030783517 -0.9893648 0.00070344971
-0.032350678 -0.036439039 0.022143269 -0.13621004 -0.045974042 -0.98961258 0.0008987771
-0.029500935 -0.036486566 0.021923425 -0.12842827 -0.053877506 -0.99025416 0.00075661659
0.034241218 -0.036967397 0.022591673 0.74556363 -0.43197316 -0.50747818 0.00081733015
0.035660997 -0.035694502 0.023587035 0.76604217 -0.40738848 -0.49720621 0.0010220965
0.055620722 -0.035923369 0.023330228 -0.64717728 -0.57449341 -0.50111759 0.002447071
0.057510741 -0.03697405 0.022373529 -0.49458992 -0.5828594 -0.6447137 0.0033757237
0.059436772 -0.037797444 0.021942625 -0.36117461 -0.62317741 -0.6936878 0.005612947
-0.041417241 -0.033553019 0.024018435 -0.33858484 0.15013081 -0.92888165 0.0043224869
-0.038293421 -0.033418562 0.023144165 -0.21926315 0.12896129 -0.96710533 0.0023433124
-0.035155043 -0.033388089 0.022735169 -0.19091159 0.094176516 -0.97707909 0.0032621801
-0.032351244 -0.033344582 0.022149395 -0.16433103 0.031398676 -0.98590541 0.0015744834
-0.029819973 -0.03340644 0.021914871 -0.1499276 -0.0050957077 -0.98868382 0.00082704099
0.036489222 -0.033414576 0.023089556 0.74713147 -0.48133945 -0.4583742 0.0084332395
0.052713137 -0.032573856 0.023369284 -0.57868904 -0.71668392 -0.38920832 0.014882326
0.054215599 -0.033832774 0.022919944 -0.6569075 -0.60296923 -0.45265973 0.005241923
-0.057795003 -0.02903194 0.024590263 -0.15663728 -0.86174405 -0.48255765 0.0043696766
-0.056017183 -0.029008619 0.02422885 -0.05456249 -0.82115257 -0.56809449 0.0048408606
-0.053254783 -0.029009357 0.02424028 0.048352275 -0.74769384 -0.66228092 0.0068345312
-0.051212721 -0.029025227 0.024486 0.14345662 -0.63449907 -0.75949401 0.010972979
