# .PCD v0.7 - Point Cloud Data file format
VERSION 0.7
FIELDS x y z normal_x normal_y normal_z curvature
SIZE 4 4 4 4 4 4 4
TYPE F F F F F F F
COUNT 1 1 1 1 1 1 1
WIDTH 561
HEIGHT 1
VIEWPOINT 0 0 0 1 0 0 0
POINTS 561
DATA ascii
-0.019136291 0.0059186984 0.0046503954 -0.47927043 -0.33746099 -0.81019741 0.0012031414
0.018156167 0.0069007841 0.0050970027 0.49226001 -0.026198743 -0.87005383 0.0044506257
0.020171162 0.0069332798 0.0066111917 0.59820598 0.03640769 -0.80051488 0.0021792615
-0.025771875 0.011181185 0.0070811622 -0.63411963 -0.29828161 -0.71338648 0.0013950574
-0.023699431 0.010225117 0.005992271 -0.55058175 -0.29729649 -0.78004783 0.00090317137
-0.02151837 0.0095946342 0.0047468953 -0.48514974 -0.28192389 -0.82773703 0.0007579985
0.01651093 0.010451773 0.0044949315 0.56083661 0.0095780911 -0.82787108 0.0019664136
0.018179322 0.010162218 0.0056619504 0.5814147 0.040313397 -0.81260806 0.0025717621
0.020154487 0.010130078 0.0070436364 0.58375585 0.023793522 -0.81158054 0.0032148969
-0.026272394 0.013255173 0.0067472272 -0.61813098 -0.27774701 -0.73537111 0.0013217371
-0.023992222 0.012948177 0.0052231532 -0.53026479 -0.25713754 -0.80789828 0.00020619589
0.016509885 0.014014671 0.0044665895 0.55597776 -0.032852817 -0.83054763 0.00080086041
0.018177761 0.013084353 0.0056241956 0.50911182 -0.097599141 -0.85514885 0.0039534438
0.020380028 0.013260935 0.0069059813 0.54987329 -0.15296865 -0.82112116 0.0047269338
-0.028396199 0.01705976 0.007318642 -0.70466083 -0.20590359 -0.67901164 0.0017683924
-0.026634809 0.016096586 0.0060926806 -0.61209905 -0.22242212 -0.75885648 0.0014818014
-0.024620395 0.015612994 0.0048143025 -0.53630072 -0.20999116 -0.81748712 0.0011138312
0.016509691 0.014662409 0.0044613145 0.55780637 -0.035378315 -0.82921678 0.00067623414
0.01816 0.015989786 0.0051987534 0.48379487 -0.12052934 -0.86684209 0.0037580871
0.021020865 0.016122097 0.006302651 0.4961673 -0.19487964 -0.84607321 0.0022031486
0.02314288 0.017389851 0.0074023567 0.73036569 -0.12901892 -0.67076081 0.01240927
-0.028499097 0.019192491 0.0069198096 -0.68917209 -0.13411754 -0.71207738 0.0013402418
-0.02658806 0.019175738 0.0053761229 -0.5786705 -0.11865396 -0.80688393 0.00067677046
0.018148022 0.019220445 0.0049033752 0.45937535 -0.030363256 -0.88772309 0.0016681419
0.021058641 0.019029202 0.0060174102 0.47180918 -0.030907927 -0.88115877 0.0042410404
0.023138981 0.019017374 0.0073277764 0.62713903 0.043335564 -0.7777009 0.0073571699
-0.028840499 0.021655444 0.0070081567 -0.68561083 -0.053557333 -0.72599548 0.001502667
-0.027080912 0.022065634 0.0055020861 -0.59316611 -0.070792384 -0.80196154 0.00080006354
0.018537881 0.02206004 0.0050641447 0.48567384 -0.066214055 -0.87162876 0.0063106217
0.021082504 0.021874264 0.0064627677 0.59771752 0.093302146 -0.79625911 0.013404838
-0.029024012 0.025191583 0.0069719162 -0.70368713 -0.016211895 -0.710325 0.0020274043
-0.027291805 0.025091369 0.0054209987 -0.61698556 -0.039306715 -0.78599215 0.00095251313
0.018951505 0.024237016 0.0047413446 0.54931533 -0.13713497 -0.82428551 0.0040073502
0.020427125 0.025134418 0.006093313 0.71021295 0.0029558481 -0.70398074 0.020237366
-0.029024612 0.028125426 0.0069803782 -0.72316176 0.011579912 -0.69058156 0.0016241696
-0.027432917 0.027923483 0.0054510413 -0.62813687 0.0035561239 -0.77809483 0.00078869739
0.020452583 0.028029298 0.0056369016 0.78007174 -0.003417908 -0.62568074 0.0060285842
-0.029028833 0.031063326 0.007040062 -0.71572489 0.058113284 -0.69596028 0.002195644
-0.027294185 0.03093921 0.0054555768 -0.63172591 0.060953353 -0.77279174 0.0007131825
0.019113239 0.031206984 0.0047346912 0.68401271 0.17851432 -0.70728999 0.0084858183
0.020369541 0.030832645 0.0060102623 0.74430853 0.19433421 -0.63893586 0.0053536235
-0.0285875 0.033771101 0.0069407737 -0.69802016 0.14256755 -0.70174241 0.0023425317
-0.026701201 0.034223989 0.0054479083 -0.60917789 0.16808799 -0.77501529 0.0013566881
0.018364316 0.034370303 0.005231075 0.60636908 0.26464275 -0.74985379 0.00092317915
0.020058723 0.033735994 0.0065251151 0.75505936 0.23356506 -0.61264402 0.0051873219
-0.028387737 0.035640549 0.0071963333 -0.70147419 0.22075999 -0.67764223 0.0028624071
-0.026703624 0.037030671 0.0063596312 -0.60588306 0.27219135 -0.74754101 0.00074887485
-0.024615373 0.037381861 0.0049006902 -0.54395783 0.28600466 -0.788867 0.00077491486
0.01639621 0.037251875 0.0048984783 0.60290009 0.27561855 -0.74869609 0.00062390888
0.018131681 0.037103441 0.0060917437 0.6653052 0.32262543 -0.67326212 0.0033390941
0.019870482 0.035964996 0.0071766041 0.74269456 0.27814135 -0.60913235 0.007671874
-0.026134998 0.039527491 0.0069299899 -0.55840325 0.39817494 -0.72776544 0.00092612399
-0.023884166 0.040204711 0.0057017654 -0.51208514 0.39089632 -0.76483268 0.00051991263
-0.021729719 0.040924571 0.0046594404 -0.4340238 0.39698628 -0.80871826 0.001408414
0.015777761 0.040240686 0.0055101514 0.62504989 0.33065805 -0.70709121 0.0011496001
0.017652435 0.039589915 0.0067357309 0.66249293 0.36146054 -0.65608644 0.0025854737
-0.023148108 0.042890336 0.0067940159 -0.53193158 0.39557451 -0.74871194 0.0011533285
-0.020972317 0.043126687 0.005428954 -0.44481751 0.41392553 -0.79423106 0.00089875807
-0.018625697 0.044248089 0.0048182989 -0.36809909 0.43889904 -0.81967723 0.00040187678
0.012759052 0.04397811 0.004722395 0.45725182 0.38922906 -0.79963827 0.002382695
0.014982875 0.04289151 0.0060076695 0.59243006 0.3631635 -0.71912378 0.00063459965
-0.022518802 0.044771489 0.0072038434 -0.51146322 0.39187801 -0.76474631 0.0013681628
-0.02073863 0.045729477 0.0066581964 -0.42537072 0.45537576 -0.78210789 0.0014046378
-0.0179547 0.046278816 0.0056753717 -0.34741846 0.49093452 -0.79892659 0.00034563831
-0.015254331 0.046733346 0.0048388373 -0.30715767 0.50180233 -0.80860901 0.00027711553
0.0098185884 0.046867449 0.0046650628 0.34418494 0.4356986 -0.83168715 0.0015615671
0.012133647 0.046181142 0.0055549229 0.47882605 0.45405346 -0.75137281 0.0027682022
0.014396688 0.045458071 0.0067810863 0.57363313 0.43671155 -0.69298488 0.0019738348
-0.017549647 0.048453145 0.006903138 -0.34152168 0.53779078 -0.77080745 0.00057503686
-0.014884454 0.048942935 0.0061600348 -0.30034631 0.55376935 -0.7766155 0.000436745
-0.012025457 0.049177963 0.0052962909 -0.24567777 0.55611354 -0.7939648 0.0004395979
-0.0089347027 0.049878411 0.004985393 -0.17517085 0.5870778 -0.79035103 0.00025011966
-0.0058499472 0.050340883 0.0047945194 -0.10222784 0.58555877 -0.80415821 0.00031573777
-0.0029299394 0.050315082 0.0045873243 -0.03367874 0.58273572 -0.8119635 0.00026343524
0.0003110423 0.050303444 0.0044939118 0.037063342 0.55937707 -0.82808423 0.00066529034
0.0034232554 0.050210133 0.0047855638 0.1560825 0.54022986 -0.82691586 0.00114922
0.0063260826 0.049708415 0.0052715978 0.25602263 0.55656695 -0.79037064 0.00079311756
0.0091479337 0.04889755 0.0057207504 0.33629757 0.53320605 -0.77627009 0.001548757
0.011448919 0.048454951 0.0064942306 0.4264091 0.50799376 -0.74841005 0.0029197184
-0.013877488 0.05080308 0.0071959384 -0.2985943 0.60501808 -0.7381019 0.00015870162
-0.011749235 0.051418249 0.0069024377 -0.24901314 0.60873723 -0.7532804 0.00039884931
-0.008692977 0.05201206 0.0065205712 -0.17731167 0.61358815 -0.76946092 0.00036881398
-0.005871655 0.052135646 0.006138837 -0.10203969 0.60095358 -0.79274374 0.0003080192
-0.0029416517 0.052099172 0.0058554923 -0.043617625 0.59025484 -0.8060376 0.00011459407
0.00030911237 0.052083615 0.0057343403 0.020191925 0.57633883 -0.81696135 0.00057745504
0.0032354025 0.052118152 0.00600354 0.16627508 0.55794263 -0.81305134 0.0016302327
0.0058196741 0.051880796 0.0066954643 0.27787063 0.54229254 -0.79291028 0.00072880706
0.008347542 0.050839297 0.0070506996 0.35481197 0.56576896 -0.74432117 0.0011790578
-0.0049129492 0.053925712 0.0073851608 -0.12644519 0.62789106 -0.7679612 0.00048020799
-0.0029538767 0.053897571 0.0071723545 -0.059525117 0.61387062 -0.78715914 0.00038217031
0.00030715764 0.053877387 0.0070196893 0.010534521 0.60305822 -0.79762757 0.00056723086
0.0032420587 0.053907424 0.0072468184 0.15493862 0.5822531 -0.79810733 0.0019385142
-0.052758619 -0.056556884 0.0091105662 -0.93671459 -0.26323345 -0.23081152 0.013651373
0.012852412 -0.040476911 0.0080476487 0.54922831 -0.47445017 -0.68792826 0.0035814063
0.014504028 -0.039978113 0.0092993043 0.60354376 -0.48861456 -0.63007206 0.0033052941
0.013366237 -0.039405812 0.0077568851 0.56172127 -0.4601939 -0.68752509 0.0037772511
0.015298264 -0.038003795 0.0085492199 0.60130054 -0.43710858 -0.66885996 0.0024521707
0.016971307 -0.037489861 0.0098526916 0.65342343 -0.45510364 -0.60491198 0.0011706625
0.016376721 -0.035240877 0.007938399 0.64306837 -0.33977774 -0.68630469 0.00062294846
0.017913355 -0.03482442 0.0093229711 0.68319649 -0.33762443 -0.647497 0.00078079663
0.018522464 -0.032025591 0.008522979 0.73105264 -0.26494712 -0.6287806 0.0016197687
0.020001132 -0.031404037 0.010106813 0.77350032 -0.24073595 -0.58629638 0.0016735784
-0.037626997 -0.029652154 0.008399751 -0.72835207 0.67621827 -0.11059895 0.0013570172
-0.036912601 -0.028955465 0.0077224635 -0.72833675 0.6762355 -0.11059429 0.0013641171
0.018966813 -0.029123135 0.0080741905 0.69928509 -0.15279074 -0.69832313 0.001269953
0.020220373 -0.028822072 0.0095029138 0.79263204 -0.16562325 -0.58677369 0.0017573879
0.019247139 -0.026024098 0.0078450702 0.70405012 -0.020505974 -0.70985413 0.001994442
0.020500844 -0.02571631 0.0092723276 0.79045689 -0.055082045 -0.61003596 0.0031562382
-0.032378178 -0.024408942 0.0081852339 -0.55051404 0.81497449 -0.1809724 0.0033802446
-0.029799957 -0.022799244 0.0086933635 -0.48120445 0.86173159 -0.16081326 0.0006982644
-0.027836561 -0.021817496 0.0086889528 -0.47292691 0.85516399 -0.21221384 0.0014568403
0.019007731 -0.022845902 0.0079712681 0.66829246 0.053322107 -0.74198514 0.0007408316
0.020447969 -0.023102436 0.0094195707 0.73536986 -0.00065664103 -0.67766565 0.003181736
-0.024349388 -0.01962401 0.0094825588 -0.83752465 0.46857998 -0.28104314 0.054326192
0.01893004 -0.019828334 0.0080645494 0.65168089 -0.031369776 -0.75784433 0.001601533
0.020676844 -0.01971533 0.0095562497 0.67901766 -0.062499404 -0.73145664 0.0025832951
-0.023815323 -0.016458394 0.0098732077 -0.82430136 -0.025943018 -0.56555653 0.0089781517
0.019026956 -0.017095605 0.0077842241 0.62750715 -0.11536048 -0.77001745 0.00025301881
0.020950411 -0.016931202 0.0093215089 0.69708234 -0.071519107 -0.71341515 0.0027022162
-0.02373521 -0.013773529 0.0091850292 -0.73535025 -0.032109853 -0.6769262 0.0035836853
0.019233257 -0.014910905 0.007522624 0.62591642 -0.077122018 -0.77606755 0.00046777076
0.020934593 -0.013972479 0.0089800591 0.69794077 -0.072105803 -0.71251631 0.0027473595
-0.023472564 -0.011123151 0.0091951881 -0.72786397 0.13130717 -0.67303228 0.0034938469
-0.02190268 -0.010348944 0.0078736208 -0.7068978 0.22337529 -0.67111772 0.0014119308
0.020924654 -0.011020783 0.0087714978 0.7050302 0.029976513 -0.70854342 0.0022072867
-0.02302308 -0.0084526632 0.0097243683 -0.71268189 0.27006587 -0.64741719 0.00020342223
-0.021432994 -0.0079041701 0.0082490975 -0.69951558 0.2623764 -0.66470796 0.00013699794
0.019242326 -0.0080606304 0.0077332696 0.66099578 0.033802442 -0.74962789 0.0031165041
0.020842202 -0.0081193261 0.0093459068 0.67452657 0.02717324 -0.73775035 0.002640208
-0.022696609 -0.006126767 0.010416295 -0.71826667 0.19018716 -0.66926968 0.0052186907
-0.020919451 -0.0048416443 0.0089088501 -0.73595214 0.19756715 -0.64756602 0.0032725097
-0.019276207 -0.0041422946 0.0075859986 -0.69401145 0.026269823 -0.71948463 0.010785841
0.019249141 -0.004797142 0.0078915376 0.63054675 -0.029630587 -0.77558553 0.0043642684
0.021224994 -0.0047517545 0.0093548531 0.5206933 -0.17116146 -0.83641028 0.0024734999
0.023291189 -0.0038262957 0.010239478 0.57938254 -0.20603183 -0.78858525 0.0023119941
-0.020990901 -0.0018569038 0.0091679692 -0.67977476 -0.15590462 -0.71665889 0.0048584989
-0.019276943 -0.0021842525 0.0076013962 -0.64227742 -0.14608578 -0.75242192 0.0043354332
0.019240443 -0.0021842227 0.0076895123 0.51863915 -0.13332914 -0.84453344 0.0044663488
0.021243319 -0.0018573729 0.0085937064 0.49286771 -0.16809665 -0.8537125 0.0010851234
0.02360313 -0.001856273 0.0099258907 0.57775086 -0.15718357 -0.80093527 0.0023829052
-0.023032568 0.0014616214 0.009893924 -0.64441657 -0.30621806 -0.70068377 0.00072548975
-0.021153606 0.0008808354 0.0083704684 -0.61150485 -0.28391773 -0.73854762 0.002152951
0.021514278 0.00095280638 0.0081145968 0.5055542 -0.14173126 -0.85107416 0.0012620972
0.02381945 0.0010957774 0.0097156744 0.63069725 -0.085669257 -0.77128583 0.0032604742
-0.023714619 0.004103817 0.009063107 -0.62659401 -0.36881691 -0.68655229 0.00067355658
-0.021893945 0.0033657199 0.0077112727 -0.6262247 -0.37655878 -0.68267572 0.00067045918
0.021865338 0.0040222867 0.0079508359 0.57752961 -0.049567182 -0.81486362 0.0014995395
0.023906905 0.0040442967 0.0094626257 0.68169272 -0.013469562 -0.73151463 0.0033503906
-0.026302394 0.0073638456 0.0097115794 -0.67293966 -0.38130999 -0.63384134 0.00013342375
-0.024543617 0.0066178348 0.0083339335 -0.65164858 -0.38934889 -0.65096968 0.00029748795
0.021876216 0.0069672153 0.0081692263 0.62977576 0.067226343 -0.77386248 0.0017455419
0.023811763 0.0068460228 0.0095739942 0.68961877 0.072236761 -0.72056079 0.0024410109
-0.028596781 0.010623211 0.010217797 -0.69283891 -0.34935147 -0.63081521 0.00041326418
-0.026852144 0.010125342 0.0086328872 -0.65294832 -0.33556685 -0.67900914 0.0011083467
-0.02515346 0.0089136455 0.007626798 -0.64094537 -0.34444332 -0.68596482 0.00092303957
0.021760626 0.010200113 0.0084741162 0.65259713 -0.0069094338 -0.75767368 0.0043626372
0.02360912 0.0099614235 0.01003807 0.67962039 -0.023844009 -0.73317641 0.005029337
-0.029046286 0.013063721 0.0095984498 -0.71887898 -0.26744524 -0.64162767 0.00083211908
-0.027617006 0.01275688 0.0082017099 -0.68997574 -0.27238581 -0.67062616 0.00038524219
0.022051215 0.01290641 0.0081073092 0.62137252 -0.20664343 -0.7557742 0.0016641966
0.023861138 0.012989365 0.0094842343 0.68461299 -0.17115429 -0.70852751 0.0028489679
-0.029487425 0.016148498 0.0088796467 -0.73510998 -0.22116774 -0.64085728 0.00092064397
-0.027754752 0.014783064 0.0074796341 -0.64952111 -0.24254733 -0.72061992 0.0011653801
0.022499433 0.015113355 0.0075801127 0.66443998 -0.21111852 -0.71690202 0.0059832921
0.023904331 0.016040305 0.0085455673 0.75481528 -0.14737384 -0.63916731 0.0099221263
-0.030136719 0.019091111 0.008801342 -0.78513283 -0.12837796 -0.60587579 0.0006560621
0.024181617 0.019075826 0.0084947385 0.75867653 0.038268033 -0.65034252 0.0097066825
-0.030460328 0.022034166 0.0087581202 -0.76740444 -0.0716855 -0.63714337 0.0017786985
0.022515062 0.022964695 0.0078881495 0.73102778 0.19872954 -0.65276718 0.0055927094
0.023777649 0.021893537 0.0089310436 0.77586287 0.22627395 -0.5889287 0.0040214923
-0.030407172 0.025102794 0.0087183658 -0.78338033 -0.0019642483 -0.62153953 0.0012286626
0.022111863 0.025001768 0.0085261557 0.81053936 0.16340293 -0.56242812 0.0071378136
0.023438277 0.024561271 0.009911526 0.78565085 0.21529923 -0.57999915 0.0012800707
-0.030526161 0.028036797 0.0090146391 -0.79413533 0.010548531 -0.60764945 0.00085100898
0.022230139 0.027827775 0.0094409082 0.83792746 0.12421142 -0.53145927 0.0039695823
-0.030425478 0.031116784 0.0089177554 -0.80744022 0.055099506 -0.58737063 0.00030533184
0.021679195 0.031293981 0.0085999183 0.86400557 0.10142361 -0.49316093 0.0027999198
-0.030226357 0.034036942 0.0089946743 -0.79876417 0.12020106 -0.58951467 0.00051825849
0.021394879 0.034034908 0.0090270955 0.85347104 0.18678208 -0.48651785 0.00096076593
-0.029430192 0.037062284 0.0088853445 -0.72600651 0.25426352 -0.63895577 0.0015182786
-0.027770668 0.038298581 0.0077149235 -0.60867804 0.29807603 -0.73529702 0.0013690401
0.019230854 0.03827494 0.0074667595 0.67730409 0.33434886 -0.6553396 0.0041916147
0.020615155 0.037126865 0.009167619 0.79358035 0.28358975 -0.53833729 0.0024520792
-0.028766846 0.039891571 0.0095152566 -0.70717019 0.38811961 -0.59099364 0.001564356
-0.02729694 0.040235735 0.0082216952 -0.60479641 0.403685 -0.68648356 0.0019329551
0.018695729 0.040411297 0.0085262582 0.70818502 0.3608323 -0.60685593 0.0021029676
0.019989401 0.039814483 0.0098437332 0.75739819 0.33174378 -0.56240022 0.0020917142
-0.026570087 0.042689059 0.0093365554 -0.60914755 0.42742625 -0.66801655 0.0031202834
-0.024686594 0.04351275 0.0082993433 -0.58360642 0.39321861 -0.71048051 0.0018496988
0.016470123 0.043695871 0.0078103654 0.69173247 0.36315265 -0.62420058 0.00094408193
0.018051073 0.042888667 0.0093222661 0.70372576 0.36304238 -0.61071289 0.00061259
-0.025973335 0.045440242 0.010277044 -0.63116282 0.38827598 -0.67147243 0.001153716
-0.023845883 0.046010952 0.0087509602 -0.54537958 0.38268489 -0.74573016 0.00068121025
-0.021414571 0.047298551 0.0079030283 -0.41320953 0.51342684 -0.75209749 0.0011153129
0.015346115 0.046404153 0.0083621405 0.62300915 0.42181781 -0.65873319 0.0018567106
0.016920015 0.045808505 0.0096527347 0.67694628 0.37395859 -0.63395476 0.0025591846
-0.023488324 0.048268653 0.0098920837 -0.51934892 0.51940078 -0.67860126 0.0018040761
-0.020819537 0.049232576 0.0090357289 -0.39133039 0.58949196 -0.70665389 0.00049931614
-0.018281559 0.049583502 0.008039305 -0.33601609 0.5830301 -0.73970878 0.00064105273
0.012549741 0.049525697 0.0082681682 0.50258821 0.50391805 -0.70247537 0.0021635056
0.014733247 0.048779231 0.0096328938 0.56680465 0.43914762 -0.6970523 0.0021077082
-0.019615611 0.051222451 0.010114408 -0.35390562 0.62288958 -0.69768149 0.00043510745
-0.017563649 0.051635351 0.0094791139 -0.33572599 0.6261012 -0.70376515 0.00031782087
-0.014863583 0.052097574 0.0086920718 -0.30415455 0.63165885 -0.71308982 0.00029801781
-0.011898652 0.052950244 0.0082456134 -0.25196064 0.65126067 -0.71580398 0.00037075032
-0.0094913691 0.0533324 0.0078376094 -0.18896908 0.64232439 -0.7427718 0.00054534461
0.0068362136 0.052947968 0.00775012 0.26447877 0.53703958 -0.80102396 0.0012531925
0.0092676217 0.052282345 0.008331839 0.34915134 0.5023126 -0.79105961 0.0023482838
0.012036703 0.051853884 0.0094582681 0.44831368 0.43487808 -0.78095835 0.0018855912
0.01409798 0.051028665 0.010317262 0.52317852 0.41298315 -0.74547255 0.0011418241
-0.014470586 0.053788301 0.01006997 -0.30151254 0.66938168 -0.67898333 0.00010368729
-0.011690671 0.054503974 0.0096308468 -0.26127601 0.66711169 -0.6976366 0.00026076677
-0.0087528247 0.054968234 0.009141501 -0.21233486 0.68023831 -0.7015624 0.00034681664
-0.0059767379 0.055134203 0.0085987253 -0.15551981 0.65234232 -0.74179715 0.00059967686
-0.0029646899 0.055360451 0.0083405636 -0.071387656 0.63598502 -0.76839238 0.00045329472
0.00030549348 0.055330727 0.0081207873 0.010138868 0.63374162 -0.77347839 0.0006815996
0.0032482911 0.055370115 0.0084117046 0.14076886 0.61049807 -0.77940762 0.0019119529
0.0061976113 0.055107109 0.0088847736 0.22906126 0.56310862 -0.79400223 0.0019734569
0.008994191 0.054935474 0.0096441573 0.32351062 0.53145719 -0.78287548 0.002829033
0.011246569 0.054068524 0.010119136 0.44166481 0.49114048 -0.75080836 0.0024985815
-0.0056079286 0.056916617 0.01013963 -0.16550091 0.69599938 -0.69870895 0.00070850906
-0.0028329841 0.057172514 0.0098792175 -0.087868392 0.69232631 -0.71621466 0.0011226676
0.00030312757 0.057186455 0.009717091 0.010980077 0.69173121 -0.72207153 0.0012891244
0.0030590566 0.057012551 0.0098832333 0.10760414 0.68140304 -0.72395533 0.00076082977
0.0055565331 0.056924947 0.010199792 0.18120556 0.65880823 -0.73016185 0.00071870774
0.01566137 -0.040584814 0.01119285 0.62285715 -0.50434774 -0.59806556 0.0005214017
0.017259626 -0.040291388 0.012833696 0.61747295 -0.49153161 -0.61410403 0.00084735616
0.018462738 -0.038113896 0.012078248 0.63534057 -0.44284064 -0.63264096 0.0028369545
0.020299373 -0.037062939 0.013086308 0.71469945 -0.37395585 -0.59106839 0.0036731206
0.019120038 -0.035479378 0.011004569 0.72233313 -0.31675529 -0.6147365 0.0019463451
0.020634927 -0.034734335 0.012460767 0.75305784 -0.27031407 -0.5998618 0.0035965829
-0.038614407 -0.030545106 0.012013968 -0.72834259 0.67622888 -0.11059671 0.0013594428
0.021000749 -0.031915102 0.012020291 0.80689418 -0.21048163 -0.55192327 0.0013839728
0.02162528 -0.029005542 0.012001474 0.79659545 -0.18144983 -0.57663816 0.0022774523
0.022785589 -0.028309984 0.013220098 0.77860212 -0.22040267 -0.58753842 0.0031871637
0.021786971 -0.026139861 0.011377688 0.77506298 -0.093398705 -0.62494332 0.0035745003
0.023065817 -0.025833238 0.012948933 0.75676644 -0.12877749 -0.64087516 0.0029373085
0.021803224 -0.022699304 0.011150456 0.74979973 -0.065267928 -0.65843791 0.0024543831
0.023285007 -0.02285842 0.012638938 0.73512805 -0.089047618 -0.67205447 0.00069955585
-0.025452014 -0.019351298 0.012481377 -0.872253 -0.028360929 -0.48823184 0.0052746786
-0.024729915 -0.018980717 0.011450376 -0.84351337 0.42669761 -0.32621226 0.071671218
0.021873988 -0.020468423 0.010806968 0.71143246 -0.079679884 -0.69822276 0.0013899084
0.023392938 -0.019999113 0.012170984 0.75350279 -0.051573582 -0.65541875 0.0023442977
-0.025730006 -0.016896209 0.01239614 -0.85167366 -0.083040737 -0.51745164 0.0089985393
-0.024571981 -0.017186886 0.011008557 -0.84024966 -0.057959978 -0.53909302 0.0093304506
0.023317436 -0.017109185 0.011868443 0.78104967 -0.014848834 -0.62429231 0.0027675361
-0.026074313 -0.014052442 0.011864806 -0.79430676 -0.072241753 -0.6032064 0.0035464645
-0.024676858 -0.015330737 0.010565516 -0.82430953 -0.025935732 -0.56554502 0.0089835916
0.023045098 -0.014050842 0.011827698 0.80288857 -0.041597556 -0.59467602 0.0014647265
-0.026035372 -0.011035062 0.012121592 -0.78649247 0.15968023 -0.59660017 0.0021972319
-0.02468444 -0.010403117 0.010691952 -0.73348337 0.19361033 -0.65154976 0.0023877216
0.022657262 -0.010731941 0.010690834 0.7684809 -0.028023915 -0.63925886 0.0041838726
0.02356186 -0.010762221 0.012237068 0.77093029 -0.091019459 -0.63038248 0.0041643078
-0.025592705 -0.0085242568 0.012617888 -0.74990654 0.25641522 -0.60982901 0.0012772444
-0.024247071 -0.0078114802 0.011377919 -0.73471999 0.28093454 -0.61746442 0.00068641
0.021992743 -0.0077712443 0.010548618 0.66427141 -0.067048073 -0.7444784 0.0096489443
0.023807127 -0.0078875376 0.011882455 0.70622593 -0.15596235 -0.69059449 0.0072961198
-0.023724327 -0.0048618242 0.012136908 -0.70860744 0.10253078 -0.69811374 0.010128746
-0.022044547 -0.0038272196 0.010509979 -0.71300578 0.11557052 -0.69156796 0.0044635027
0.022648914 -0.0061277654 0.010526296 0.55264425 -0.14849795 -0.820081 0.0054492764
0.024446961 -0.0049283942 0.011338207 0.59422505 -0.22025412 -0.77355337 0.0019198357
0.026203999 -0.0042991242 0.012861206 0.74711651 -0.21242724 -0.62983453 0.0032644479
-0.025496734 -0.0011922102 0.013208564 -0.70616359 -0.2203669 -0.67288297 0.0024773909
-0.023765968 -0.0018551184 0.011846755 -0.68432194 -0.21973786 -0.69528323 0.0021858721
0.024977364 -0.0018553415 0.011021119 0.62859219 -0.1237858 -0.76782089 0.0026824253
0.026376739 -0.0018542164 0.012426976 0.76903194 -0.13114379 -0.62561262 0.0035035352
-0.025951071 0.0012822789 0.012536467 -0.65162599 -0.30601123 -0.69407541 0.00021868995
-0.02423677 0.0008078948 0.011204642 -0.65028518 -0.30281189 -0.69673109 0.00039369293
0.02511441 0.0011055053 0.010951588 0.74047792 -0.030771729 -0.67137587 0.0018852834
0.0263649 0.0011152974 0.012227654 0.77624625 -0.018579077 -0.63015598 0.0017823171
-0.026747819 0.0040824376 0.012079395 -0.66934901 -0.33758947 -0.66181958 0.00053088553
-0.025010582 0.0037328547 0.010649975 -0.65247816 -0.35613951 -0.66890728 0.00065534026
0.025316551 0.0040696729 0.011204097 0.76640773 0.016375886 -0.64214557 0.00089497946
0.026387723 0.0040905648 0.012613118 0.7821483 0.029749811 -0.62238175 0.00022128368
-0.029140336 0.0074323304 0.01276495 -0.70876932 -0.35665154 -0.60864246 0.001086946
-0.027548065 0.006738584 0.011501005 -0.67911917 -0.36674455 -0.63584244 0.00075258402
0.025119517 0.0073107895 0.011042396 0.72101843 0.045947377 -0.69139087 0.0025641115
0.026397459 0.0070661954 0.012777193 0.78186774 0.027413001 -0.62284136 0.0004810867
-0.031458415 0.011047447 0.01332986 -0.77741098 -0.30129775 -0.55213386 0.0012471596
-0.029780626 0.0099893631 0.011918289 -0.71047926 -0.33730569 -0.61761165 0.00089962967
-0.027964097 0.0089906845 0.010574248 -0.68835199 -0.35982057 -0.62984186 0.00031300684
0.024986435 0.0099937832 0.011182647 0.68414652 -0.042264823 -0.72811896 0.0056760758
0.026386039 0.010033641 0.012585174 0.75042528 -0.061888166 -0.65805155 0.0042202948
-0.031662613 0.013259082 0.012748051 -0.78648013 -0.23175275 -0.57248545 0.00089695037
-0.030399598 0.012712714 0.011289958 -0.75157553 -0.24082889 -0.61411375 0.00078047119
0.025186082 0.012724627 0.010836662 0.71739262 -0.11723883 -0.68673342 0.0040958598
0.026706202 0.012999469 0.012408896 0.77566266 -0.068968982 -0.62736821 0.0019372532
-0.032290891 0.016202195 0.012685225 -0.81748551 -0.18296237 -0.54611552 0.00031307107
-0.031103738 0.015962442 0.011115398 -0.79022276 -0.19798137 -0.57995808 0.00038446914
0.02528315 0.016223192 0.010616949 0.82427174 -0.031361397 -0.56532514 0.004031118
0.0265745 0.015838511 0.012415644 0.8200869 0.049394574 -0.57010323 0.0020697163
-0.032348085 0.018920388 0.012001195 -0.82982624 -0.10987402 -0.54709792 0.00062829227
-0.031248026 0.018191734 0.010537174 -0.80032235 -0.14169413 -0.58258623 0.00053506781
0.025297523 0.019194718 0.010869589 0.85022479 0.071811259 -0.52149862 0.0015033581
0.026384918 0.018948844 0.012563982 0.85283637 0.096769549 -0.51313335 0.0013066477
-0.03229744 0.022181431 0.011348274 -0.84197301 -0.03226364 -0.53855413 0.0010864679
0.02513467 0.022461584 0.011309488 0.82255358 0.18249656 -0.53860986 0.0020651065
0.026194714 0.021730298 0.012703075 0.84014529 0.12940456 -0.52669758 0.00080833293
-0.032676514 0.024964193 0.011972195 -0.85493279 0.015515815 -0.51850671 0.00089828792
0.024631666 0.025332114 0.011698344 0.77644998 0.17549901 -0.60524827 0.00046271522
0.026092451 0.023941441 0.01321676 0.79581892 0.16281572 -0.5832352 0.0010267254
-0.032301407 0.028112249 0.011400621 -0.87082744 0.019747097 -0.49119204 0.0027515441
0.022648085 0.029363597 0.010509934 0.79646629 0.11840638 -0.59297675 0.0021297219
0.024262413 0.028042749 0.011973841 0.78897917 0.16290747 -0.59242976 0.0012237566
-0.032440644 0.03099471 0.011774261 -0.85295641 0.04395397 -0.52012819 0.00098349329
0.022649314 0.031008653 0.010534193 0.80561411 0.1118935 -0.58177811 0.0024643396
0.023913406 0.030992873 0.012033268 0.82012755 0.12485567 -0.55839229 0.0027971605
-0.032316376 0.03394958 0.012065224 -0.85616946 0.12022426 -0.50251365 0.0014112671
-0.031255417 0.034961164 0.010635298 -0.80472332 0.13375005 -0.57838672 0.00074822124
0.021995021 0.035286229 0.01059493 0.8477155 0.17672974 -0.50014502 0.0011260471
0.023211043 0.033912685 0.011845342 0.81286597 0.13825585 -0.56580395 0.003563619
-0.031930778 0.037309993 0.012583908 -0.84721047 0.29087299 -0.44455281 0.0029972817
-0.031128351 0.03697852 0.011130568 -0.81187063 0.25729388 -0.52408588 0.0021132014
0.021897363 0.037190497 0.011283555 0.75407654 0.23336031 -0.61393124 0.0036155873
0.023100961 0.037142321 0.012915667 0.69159985 0.12015906 -0.71221578 0.012560789
-0.031426225 0.039123919 0.012902584 -0.81485862 0.35658923 -0.45700064 0.0015033791
-0.030099157 0.04015512 0.011812962 -0.78746176 0.36679834 -0.49534124 0.0014491719
0.021360219 0.040199962 0.01197448 0.65391934 0.27449396 -0.7050125 0.011694012
0.023081711 0.040003102 0.013259778 0.54494798 0.14498982 -0.82583874 0.0077509782
-0.029084032 0.043045599 0.012482926 -0.7504577 0.34323007 -0.56480652 0.0043576406
-0.027602395 0.043618698 0.011058714 -0.66660666 0.37389144 -0.64485705 0.0026031674
0.019128377 0.043634117 0.011199709 0.67895669 0.32335117 -0.65913713 0.0041043893
0.021045502 0.043009277 0.012768837 0.51786941 0.23365098 -0.8229329 0.0040877056
0.022791717 0.042142849 0.013340887 0.45034057 0.23088831 -0.86248708 0.0016663874
-0.028785702 0.045077007 0.012948375 -0.71191096 0.35288885 -0.60716742 0.002658074
-0.02722048 0.046084877 0.011916674 -0.68251967 0.39351261 -0.61588532 0.0018652306
-0.025332378 0.047112215 0.010536101 -0.6195215 0.40760911 -0.67085624 0.0017259122
0.018631091 0.046257541 0.011890936 0.6429221 0.29194668 -0.7081089 0.0036101863
0.020327007 0.045810815 0.013176314 0.53311199 0.25594613 -0.80640143 0.0022450441
-0.025965977 0.04873107 0.012481047 -0.60415465 0.52049166 -0.60339504 0.001411169
-0.023902096 0.0495952 0.011364531 -0.49201214 0.56667405 -0.66091192 0.0011616001
-0.022065081 0.050442357 0.010891523 -0.40930694 0.60156047 -0.68599778 0.00043391579
0.015677391 0.049699508 0.010867197 0.56421024 0.39456818 -0.72524673 0.0011869553
0.017970311 0.048882611 0.012217039 0.59698117 0.30937681 -0.74020219 0.0024067741
-0.023564361 0.051414765 0.012824757 -0.52291816 0.58798069 -0.61711854 0.0010351792
-0.020921674 0.052290462 0.011839908 -0.39586568 0.62385267 -0.67386812 0.0006514783
-0.018289743 0.052929342 0.011047017 -0.3298209 0.65852451 -0.67643452 0.00012908589
0.01345513 0.053061832 0.010799851 0.52125174 0.43438342 -0.73457986 0.0011586635
0.015193211 0.052245717 0.011619107 0.51689076 0.42388096 -0.74373978 0.0012338095
0.017330866 0.051409151 0.01278008 0.54250407 0.39248273 -0.74272919 0.00064818707
-0.019757582 0.054235719 0.013061718 -0.36838481 0.66914588 -0.64539641 0.00055344595
-0.017763628 0.054523006 0.012351163 -0.32760835 0.67101204 -0.66514331 0.00014745192
-0.015033728 0.05510737 0.011663523 -0.29717365 0.69984633 -0.64954048 0.00027000994
-0.011990277 0.055976741 0.011274404 -0.25563008 0.71623409 -0.64935499 0.00040528167
-0.0095635056 0.056345779 0.01076692 -0.21417086 0.70505792 -0.67603576 0.00033978882
0.0096738888 0.056187656 0.010812368 0.30347532 0.64514416 -0.7012074 0.002087967
0.01237003 0.05523948 0.011708023 0.44527015 0.54077977 -0.71364683 0.0013662451
0.014611529 0.054406993 0.012688122 0.49706399 0.49551341 -0.71231586 0.0016347524
-0.014244442 0.056645218 0.012955145 -0.28634626 0.71998894 -0.63215637 0.00027955521
-0.011728697 0.057420217 0.012822976 -0.25314441 0.75412643 -0.60597962 0.00040506644
-0.0087846471 0.057747826 0.012106881 -0.21836552 0.75346804 -0.62016314 0.00061992562
-0.0059645274 0.058316704 0.011909715 -0.17447464 0.77509344 -0.60727978 0.00047389462
-0.0031146682 0.058679774 0.011621605 -0.098193355 0.77797806 -0.62057078 0.00092132966
0.00030051288 0.058741335 0.0114237 0.016635472 0.75307548 -0.65772384 0.001280912
0.0033546768 0.058486927 0.011526784 0.089428142 0.75768667 -0.64646238 0.0011123281
0.006349586 0.058314379 0.011823889 0.16007903 0.739654 -0.65367168 0.0017465601
0.0091163749 0.057793636 0.012137756 0.30065781 0.68508691 -0.66352159 0.0019840903
0.011669389 0.057184517 0.013030818 0.39654735 0.61784279 -0.67898482 0.00200648
-0.0023484533 0.059993811 0.013256695 -0.097037412 0.7955606 -0.59805268 0.00069098995
0.00029784581 0.059982643 0.0131794 0.011874446 0.79789054 -0.60268533 0.0007054754
0.0022825606 0.060022574 0.013455685 0.059383966 0.79786652 -0.59990215 0.00053082313
0.018876553 -0.040937915 0.014631476 0.621104 -0.51488507 -0.59086657 0.0020210706
0.020654056 -0.040376496 0.015792927 0.67856383 -0.51680928 -0.52197629 0.0063974368
0.019505756 -0.039277632 0.013852503 0.6467548 -0.42987886 -0.63000977 0.0029850083
0.021278637 -0.038023118 0.014697302 0.72355032 -0.37631983 -0.57866949 0.0046873456
0.021953033 -0.035221662 0.014227536 0.80144715 -0.21810189 -0.55687886 0.0016690849
0.022919029 -0.0351246 0.015850145 0.83195353 -0.21719967 -0.51056594 0.0013163012
0.022161145 -0.03233118 0.013971496 0.79712337 -0.20745671 -0.56705916 0.0020960316
0.023263521 -0.031726271 0.015353672 0.78594398 -0.25768083 -0.56204325 0.0054417001
0.024280164 -0.028980374 0.014934715 0.70998192 -0.28095049 -0.64574957 0.0034611986
0.0262811 -0.027506238 0.016445693 0.7677862 -0.19547704 -0.61015826 0.0060279667
0.024707595 -0.026064608 0.014478937 0.72907525 -0.11199772 -0.67520791 0.0018777908
0.02626368 -0.025824165 0.016147528 0.80395359 -0.10152189 -0.58596236 0.0044384445
0.025019102 -0.023047412 0.014443913 0.77162778 -0.072228447 -0.63196021 0.0036430303
0.026266679 -0.022829678 0.016198875 0.81941867 0.0049074427 -0.57317442 0.0029761344
-0.026800279 -0.019803973 0.014763681 -0.85792983 -0.13089629 -0.4968124 0.00047810687
0.025128981 -0.019942651 0.014375729 0.82387203 0.0010751782 -0.56677485 0.0038815883
-0.028349185 -0.01550605 0.01626661 -0.88981646 -0.10374537 -0.44436863 0.0027678222
-0.027183697 -0.017051976 0.014725663 -0.84886098 -0.170655 -0.50031179 0.00079822424
0.025093077 -0.01672429 0.014688725 0.84062815 -0.004324873 -0.5415954 0.0016397315
-0.027902184 -0.01379509 0.014553815 -0.8779189 -0.036252234 -0.47743499 0.003506941
0.024791781 -0.013921378 0.014523111 0.82599014 -0.066930071 -0.55969697 0.0026050876
0.026264628 -0.013505256 0.016163763 0.81808472 -0.11234044 -0.56401861 0.0016376546
-0.028359329 -0.0095137414 0.016416576 -0.87087005 0.12526466 -0.47528318 0.0030727086
-0.027701 -0.010751692 0.014701111 -0.86734223 0.12129024 -0.48270711 0.0032275082
0.025090367 -0.011067747 0.014213905 0.7821722 -0.14260934 -0.6065222 0.0012490893
0.02648342 -0.01058148 0.01563454 0.79413092 -0.15487771 -0.58768111 0.0012527572
-0.026878295 -0.0076626972 0.014956679 -0.80747068 0.21251839 -0.5502972 0.0019474574
0.025460009 -0.0084750485 0.013725918 0.78352165 -0.21201967 -0.58407313 0.0026976971
0.026529398 -0.0078298403 0.01500367 0.80656409 -0.18693575 -0.56081128 0.0038365729
-0.026353726 -0.0047571999 0.014977463 -0.78212059 -0.0010892871 -0.62312621 0.014551396
-0.024854001 -0.0038387978 0.01351976 -0.7520228 0.019435192 -0.65885061 0.0097972983
0.027193286 -0.0048401766 0.014990829 0.83085316 -0.20905949 -0.51572978 0.0018312481
-0.028345099 -0.00085214333 0.016206201 -0.75512338 -0.23632717 -0.61150473 0.002983683
-0.026736408 -0.0019473438 0.014841994 -0.71482211 -0.23124246 -0.65996695 0.003250859
0.027848314 -0.0018526351 0.014850784 0.84518409 -0.13925184 -0.51601624 0.0022573504
-0.029112086 0.0016739999 0.015741654 -0.7366761 -0.32280248 -0.59422797 0.0011962391
-0.027664179 0.00097837951 0.014428535 -0.7220847 -0.31839582 -0.61418056 0.0015409145
0.027809996 0.0011304682 0.014236541 0.82451665 -0.013765406 -0.56567019 0.0011299107
0.028940458 0.0014799705 0.016350839 0.7648896 -0.070035078 -0.64034289 0.021199489
-0.029646996 0.0042908415 0.014983278 -0.74682486 -0.3169584 -0.58462805 0.0015203656
-0.028175775 0.003444033 0.013703283 -0.71212399 -0.32253313 -0.6235798 0.00078926457
0.027817016 0.0041159024 0.014351293 0.81474227 0.022801142 -0.57937479 0.00095581525
0.028924711 0.0041415337 0.016107004 0.81309193 -0.023253383 -0.58167064 0.0017866963
-0.031650659 0.0077979658 0.015881663 -0.7849254 -0.33263457 -0.52272969 0.00089100463
-0.030414674 0.006805046 0.014683964 -0.76565081 -0.32896399 -0.55277616 0.00052641507
0.02782879 0.0071042604 0.014540659 0.79097849 0.01114912 -0.61174238 0.0010161021
0.028931595 0.0071401573 0.016213603 0.66607845 -0.053283703 -0.74397606 0.02793951
-0.032184385 0.010142654 0.015118307 -0.8058632 -0.30927855 -0.50490731 0.0004913052
-0.030826509 0.0090732221 0.013731953 -0.73653561 -0.33836827 -0.58568102 0.0010193152
0.027846329 0.010097149 0.014819145 0.74659657 -0.10351783 -0.65717393 0.0029784008
-0.033025604 0.013027073 0.014892342 -0.83960122 -0.22706072 -0.49347061 0.00060802005
0.028145656 0.013066423 0.014311142 0.72156233 -0.067445055 -0.68905658 0.0038257749
0.030042652 0.013667316 0.016223555 0.36422515 -0.1349432 -0.92148268 0.025432734
0.033274405 0.013806938 0.016397553 0.043758828 -0.10436223 -0.99357623 0.00094646198
0.034942396 0.013808046 0.016426301 0.047300242 -0.084721759 -0.99528128 0.0016925909
-0.034354072 0.015139246 0.016389694 -0.88852453 -0.15317816 -0.43250504 0.0012390186
-0.033628561 0.016031284 0.014714757 -0.85125816 -0.17260645 -0.49554664 0.0014745762
0.02791949 0.01626802 0.014224391 0.73515111 0.046081275 -0.67633522 0.0082463836
0.03025477 0.016125457 0.0160781 0.31707874 -0.026392646 -0.9480319 0.021526476
0.033264965 0.016133558 0.016269917 0.077966057 -0.036777101 -0.99627745 0.00058216945
0.034938477 0.016471213 0.016376274 0.17253692 -0.0075791706 -0.98497391 0.0016355522
-0.035002295 0.020125108 0.016172137 -0.92023647 -0.089027718 -0.38110214 0.001578248
-0.03384855 0.019031154 0.014248343 -0.87040257 -0.10120712 -0.48182613 0.0013707532
0.027862711 0.019073492 0.015086802 0.70875478 0.083705194 -0.70047128 0.014300232
0.030251224 0.019119274 0.016029187 0.22653882 0.070309103 -0.97146118 0.010014105
0.033262517 0.019129455 0.016236274 0.10076173 0.035230838 -0.99428666 0.00027972899
0.034940612 0.018915609 0.016403522 0.19151412 0.032234319 -0.98096043 0.001446128
-0.034989879 0.02211469 0.016022589 -0.8997879 -0.0073882374 -0.43626496 0.0020943342
-0.033837568 0.022007557 0.014112357 -0.87955493 -0.017450327 -0.47547734 0.0014843026
0.027598919 0.022159373 0.015206518 0.63833255 0.15699695 -0.75358045 0.018608825
0.030259416 0.022121869 0.016150594 0.17238733 0.10996621 -0.97887176 0.0045600231
0.032935113 0.021919036 0.016313419 0.096195191 0.071180813 -0.99281406 0.00053649116
-0.035008144 0.024125205 0.016242575 -0.9163782 0.078663647 -0.39250851 0.0015490011
-0.034117311 0.02525661 0.014837852 -0.90219969 0.090262204 -0.42176831 0.0014926796
0.02720286 0.02505465 0.015143702 0.64715689 0.22031341 -0.72982866 0.021494756
0.030149624 0.024220662 0.016318504 0.20026302 0.20149776 -0.95879793 0.0090517187
0.032498885 0.024025055 0.016422557 0.11417065 0.14888793 -0.98224103 0.00071082858
-0.034352798 0.028463842 0.016374018 -0.94331497 0.099409983 -0.31666166 0.0019560743
-0.033746563 0.027767265 0.014349779 -0.91726965 0.055537604 -0.39437553 0.0022106825
0.025457459 0.028935494 0.01368108 0.7831009 0.17973724 -0.59535497 0.0021188613
0.026831316 0.027979439 0.015504057 0.59576184 0.19875985 -0.77817893 0.019548547
-0.034341764 0.029786365 0.016238656 -0.94233876 0.069031753 -0.32746333 0.0024717362
-0.033879153 0.03124322 0.014622707 -0.9292081 0.04703426 -0.36655149 0.0017522378
0.025319414 0.031275991 0.014581975 0.79818809 0.13788705 -0.58641529 0.0029661863
0.026367148 0.030880038 0.016018724 0.63292754 0.1397604 -0.76149178 0.013037981
-0.033717245 0.034066841 0.014671586 -0.91341799 0.13143708 -0.38521674 0.0024407317
0.024990112 0.034126587 0.014789414 0.76323736 0.048305761 -0.64431 0.0093628373
0.026388528 0.034295503 0.016004713 0.63371736 -0.031274099 -0.77293223 0.0069372118
-0.033132277 0.036887474 0.014974426 -0.89178824 0.25728369 -0.37218109 0.0014400975
0.024826722 0.036931492 0.01424063 0.68518668 0.0093930801 -0.72830695 0.010956425
0.0265535 0.037037741 0.015414398 0.6803509 -0.063028671 -0.73017126 0.0033262144
-0.031916525 0.039990418 0.015004534 -0.85890931 0.33430448 -0.38796306 0.0020189984
-0.030848801 0.040888932 0.014033999 -0.81849813 0.36008593 -0.44765937 0.002535545
0.024679549 0.040220473 0.01397633 0.55017477 0.058569055 -0.83299303 0.0015636728
0.026546335 0.040017951 0.015292075 0.67274821 0.059792314 -0.73745149 0.0065766275
-0.031678192 0.042109329 0.01624712 -0.88134056 0.2665908 -0.39008749 0.0034722362
-0.030605372 0.043097086 0.014727065 -0.8194862 0.26772192 -0.50672215 0.00075233827
0.022141911 0.044153433 0.013580527 0.50241071 0.23123689 -0.83313441 0.0042393073
0.024297504 0.043198422 0.01425337 0.48704833 0.19441214 -0.85146219 0.0017197911
0.026533291 0.042903267 0.01569723 0.65338236 0.18306533 -0.73456019 0.0076047173
-0.029766385 0.045860142 0.014641024 -0.75754821 0.36326742 -0.54236287 0.0030221823
-0.028181007 0.047486339 0.01378062 -0.68128943 0.49456587 -0.53967512 0.0026441736
0.021552378 0.046234973 0.013937984 0.49384066 0.27039784 -0.826442 0.0022373865
0.024145052 0.045934621 0.015179664 0.5247882 0.34404215 -0.77860922 0.0034512789
0.026267305 0.045102391 0.016209569 0.67917019 0.33686852 -0.6521101 0.0061836918
-0.029184943 0.04790752 0.015510555 -0.7423327 0.50487465 -0.44050393 0.0029912607
-0.027409544 0.04924421 0.014634792 -0.68043709 0.53432739 -0.50149727 0.0024866154
0.019497022 0.049788594 0.013649624 0.55258006 0.2881501 -0.7820645 0.001361127
0.021263061 0.049159896 0.014744999 0.54236895 0.31248426 -0.77986503 0.0021615969
0.023334097 0.04847173 0.015830323 0.55282253 0.4099324 -0.7254948 0.0037461431
-0.0258931 0.051520228 0.015326848 -0.65482312 0.56731653 -0.49935821 0.0017575577
-0.024254477 0.052601978 0.014577227 -0.55485845 0.60641897 -0.56955081 0.0027533101
-0.022209901 0.053421248 0.013582733 -0.48725232 0.6204139 -0.61454999 0.001921612
0.018576086 0.05237028 0.01424404 0.5591259 0.41682938 -0.71668088 0.0012312657
0.020763732 0.051760793 0.015599886 0.59599799 0.43936265 -0.67212123 0.0011348365
-0.023318062 0.054463696 0.015640955 -0.54439068 0.63569546 -0.54729348 0.0010444208
-0.020946659 0.055236045 0.014777714 -0.3656562 0.68811303 -0.62673432 0.00055547408
-0.018129148 0.056006711 0.014100648 -0.31603047 0.70294446 -0.63717645 0.00024164157
0.01553686 0.055463865 0.014003899 0.47378507 0.5171414 -0.71280611 0.0012952749
0.018033359 0.054893836 0.015332831 0.55089265 0.49813956 -0.66960746 0.0012205421
-0.019688398 0.057093907 0.016234186 -0.37409595 0.72215199 -0.5818494 0.00092244602
-0.0176613 0.057417277 0.015556704 -0.31789055 0.73671043 -0.59682769 0.0004360665
-0.014870268 0.057866443 0.014782643 -0.27356297 0.75944883 -0.59025484 0.00052918913
-0.012118679 0.058559448 0.014476249 -0.24102759 0.77184683 -0.58835202 0.00016905926
-0.0089823389 0.059188228 0.014101788 -0.21039338 0.79544479 -0.56833285 0.00013345061
-0.0069859801 0.05938955 0.013656761 -0.17675595 0.79411399 -0.58149844 0.00014713181
0.0094450442 0.059336692 0.014213623 0.25278333 0.74748343 -0.61430365 0.0017350877
0.01259225 0.058174599 0.014433092 0.3545835 0.65542632 -0.66684842 0.0027772998
0.01508553 0.05769958 0.015393037 0.4426395 0.60058635 -0.66585761 0.0015058572
0.01694328 0.057090845 0.016211834 0.5542599 0.5763346 -0.60052848 0.0024309792
-0.011688082 0.059718154 0.015954928 -0.23419543 0.79619759 -0.55787265 0.00012284461
-0.0091245584 0.060090411 0.01545706 -0.21119736 0.80319375 -0.55702382 0.00011592264
-0.0056862263 0.060745846 0.015237447 -0.17706327 0.80523509 -0.56590194 7.5569478e-05
-0.002957277 0.061014384 0.014800489 -0.11673065 0.80669016 -0.57933146 0.00088474638
0.00019935786 0.061568007 0.015273539 0.0099379122 0.80413538 -0.59436321 0.00048377202
0.0033729456 0.060941856 0.014798459 0.1043397 0.80407548 -0.58529979 0.00049331842
0.0061501665 0.060651351 0.014877727 0.14490902 0.81304914 -0.56387264 0.00057978369
0.0090715978 0.060455076 0.01552663 0.20630014 0.7883845 -0.57956028 0.0019662029
0.011985384 0.059883822 0.015783293 0.29490224 0.72181821 -0.62610793 0.0019725966
0.02130726 -0.041160509 0.017966442 0.72802705 -0.49699101 -0.47220391 0.0027430698
0.022300517 -0.038864855 0.016804274 0.76159674 -0.41990611 -0.49360853 0.0054756301
0.023001371 -0.037586797 0.017473077 0.84977931 -0.33620292 -0.40600824 0.0023309146
0.024074066 -0.034589376 0.018095979 0.83302277 -0.30929512 -0.45870411 0.0046964721
0.024583777 -0.032153286 0.017392401 0.76587152 -0.33957964 -0.5460096 0.0035199111
0.025967818 -0.031770714 0.018724343 0.76922774 -0.37538478 -0.51708311 0.0036577447
0.025632873 -0.029859086 0.016764637 0.74732131 -0.29002431 -0.59782666 0.0041975975
0.026923969 -0.028878499 0.018070407 0.79937625 -0.28599164 -0.52839988 0.0040760855
0.027376041 -0.025925547 0.018006921 0.88824046 -0.071760185 -0.45373937 0.0054325522
-0.028496364 -0.021597927 0.01844224 -0.89129943 -0.11366963 -0.4389357 0.00020890989
-0.027726941 -0.0215305 0.016929921 -0.87628126 -0.1302726 -0.46385372 0.00046358301
0.027352193 -0.023075074 0.018226689 0.89853525 0.017186221 -0.43856463 0.0019707722
-0.028619071 -0.019716527 0.018272892 -0.89040208 -0.11196433 -0.44118944 0.00021102854
-0.027716931 -0.020523487 0.01677851 -0.87628192 -0.13026607 -0.46385425 0.00046285684
0.026678907 -0.019886771 0.01752669 0.87852991 0.001731635 -0.47768432 0.0015607922
-0.028827276 -0.017040269 0.017835444 -0.89178646 -0.12396917 -0.43514192 0.00041845141
0.027049556 -0.016901473 0.018128037 0.84211814 -0.083707884 -0.53275698 0.00058209983
-0.029123245 -0.013883153 0.017827097 -0.92572844 -0.034452084 -0.37661639 0.0025295152
0.027253894 -0.013994222 0.017826838 0.82813907 -0.11593738 -0.54840153 0.001354116
-0.029126331 -0.01087473 0.01787171 -0.92941368 0.073050126 -0.36173743 0.003737512
0.027873848 -0.01104418 0.017940635 0.82279116 -0.14013466 -0.55079675 0.00065661658
-0.028811384 -0.0078699524 0.018144544 -0.88461655 0.14330532 -0.4437536 0.0046289871
0.028016074 -0.0078627979 0.017546792 0.83662111 -0.14083625 -0.52936774 0.00057026872
0.029125748 -0.007884739 0.019220244 0.83207506 -0.12909356 -0.53943127 0.00030180663
-0.028741615 -0.0046100817 0.018349353 -0.87010181 -0.093009099 -0.48401663 0.0066359905
-0.027710851 -0.0051844958 0.016686562 -0.86211365 -0.016022433 -0.50646156 0.010645106
0.02819711 -0.0053888522 0.017242052 0.84448189 -0.19074722 -0.50046569 0.00071290345
0.029341547 -0.0046125534 0.018668037 0.78809816 -0.20339392 -0.58097517 0.0041459627
-0.028940745 -0.0018500851 0.017593659 -0.8522867 -0.23657744 -0.46651733 0.0070467563
0.029656854 -0.0017588085 0.018013623 0.70237875 -0.24624521 -0.66785282 0.018503781
-0.030219905 0.0012193739 0.017852936 -0.81882453 -0.34743041 -0.45696649 0.0034359794
0.030324431 0.0010787686 0.018333713 0.51166648 -0.25141466 -0.82157665 0.015494087
0.033136379 0.0018377658 0.019042984 0.092474729 -0.33992755 -0.93589407 0.0074292077
0.03614736 0.0018371225 0.018971248 0.028397409 -0.37850088 -0.92516518 0.002151404
0.0388976 0.0019503268 0.019124305 0.17757499 -0.3931559 -0.90216166 0.004735894
0.041217484 0.0025126731 0.019440051 0.45045492 -0.33722046 -0.82666361 0.006823631
-0.031983171 0.0043766415 0.018516131 -0.84451765 -0.33564749 -0.41728988 0.0020406253
-0.030911963 0.003655771 0.017148342 -0.80242479 -0.32875356 -0.49803168 0.0018085433
0.030387057 0.0041692429 0.018031333 0.55149305 -0.12456352 -0.82482684 0.031014448
0.03308725 0.0041742586 0.018377595 0.062847339 -0.24423726 -0.96767682 0.0051363893
0.036089234 0.0041723978 0.018251162 0.025860237 -0.26066896 -0.96508181 0.0011160302
0.039118681 0.0041754036 0.018455956 0.21434911 -0.24014544 -0.94677585 0.0049326327
0.041476473 0.004329097 0.019131435 0.4289827 -0.20906523 -0.87878639 0.0062789074
-0.032516178 0.0071699135 0.017606281 -0.85333627 -0.30212337 -0.4248983 0.0021135751
0.030350948 0.0071675032 0.017501291 0.45207223 -0.16620091 -0.8763606 0.025688283
0.033032145 0.007170049 0.017630231 0.093057275 -0.21170373 -0.97289354 0.0089979125
0.036034558 0.0071688867 0.017574148 0.050926056 -0.20814244 -0.97677183 0.0012117944
0.039071012 0.0071763499 0.017910756 0.25704071 -0.1476555 -0.95505393 0.0043723546
0.041835465 0.0071971351 0.018871201 0.44303176 -0.11741114 -0.88878429 0.0035899258
-0.034558013 0.011218512 0.018892433 -0.87796193 -0.27732304 -0.39022395 0.0017862722
-0.033568054 0.0099554705 0.017674794 -0.87137461 -0.30678341 -0.38287106 0.0017926616
0.030239962 0.01020909 0.016897798 0.35626835 -0.17389584 -0.91805947 0.023203239
0.033218596 0.010099384 0.016965896 0.011564604 -0.17652155 -0.98422885 0.00030428142
0.036082175 0.010216639 0.016948054 0.10273972 -0.1578494 -0.98210388 0.0022999397
0.039108034 0.010121618 0.017529275 0.3032304 -0.11140943 -0.94638216 0.0036759076
0.042015266 0.010304812 0.01874469 0.47609001 -0.055998594 -0.87761182 0.0035513907
-0.034580879 0.013301061 0.017801525 -0.90043956 -0.21199046 -0.37982711 0.0015610335
-0.033713493 0.01181821 0.016711202 -0.86769366 -0.27482033 -0.41422412 0.0020117294
0.030623011 0.01234777 0.016599046 0.27415487 -0.086179964 -0.95781642 0.032565698
0.03328703 0.012146783 0.01656707 0.026806792 -0.12849742 -0.99134755 0.00074011204
0.036474664 0.013058336 0.016642256 0.17647649 -0.047753926 -0.98314577 0.001934525
