# .PCD v0.7 - Point Cloud Data file format
VERSION 0.7
FIELDS x y z normal_x normal_y normal_z curvature
SIZE 4 4 4 4 4 4 4
TYPE F F F F F F F
COUNT 1 1 1 1 1 1 1
WIDTH 553
HEIGHT 1
VIEWPOINT 0 0 0 1 0 0 0
POINTS 553
DATA ascii
0.014182947 -0.01247271 -0.018510893 0.60622299 -0.22896589 -0.76162219 0.0035682458
0.038952585 -0.012426777 -0.019351039 -0.69411445 -0.50050318 -0.51739895 0.031675011
0.040347937 -0.013820999 -0.019987142 -0.78098005 -0.26135248 -0.56724334 0.04872096
0.04440546 -0.012619101 -0.01920186 0.70044124 -0.13113035 -0.70156032 0.062641069
-0.054126691 -0.00967668 -0.018309956 -0.47193784 0.1582389 -0.86731482 0.00066407677
-0.051294398 -0.0095513407 -0.019667171 -0.37474355 0.16548041 -0.91224098 0.00088439073
-0.049011812 -0.0089281891 -0.020467917 -0.23979457 0.15899143 -0.95771623 0.0021101607
-0.040828146 -0.009539308 -0.020401156 0.3560591 0.0092012016 -0.93441808 0.0074246516
-0.039098475 -0.0095568132 -0.019368967 0.44257349 -0.0038263449 -0.89672405 0.0017723618
-0.036169704 -0.009580778 -0.017953325 0.22070736 -0.032022748 -0.9748143 0.030735865
-0.033313636 -0.0095617501 -0.019092182 -0.53205949 -0.094578795 -0.84140807 0.013473677
-0.031663802 -0.01075589 -0.020574873 -0.6630131 -0.069673248 -0.74535847 0.0015680989
0.012250724 -0.0093246736 -0.020209894 0.48349482 -0.059892517 -0.87329584 0.0012907392
0.014642646 -0.0094884448 -0.018686175 0.58709592 -0.096558519 -0.80373812 0.0027300338
0.036313202 -0.0093838014 -0.019262299 -0.76183057 -0.60966909 -0.2189011 0.0026281925
0.037645385 -0.010777363 -0.019501245 -0.73410106 -0.6192106 -0.2787002 0.0027573493
0.044369064 -0.0095542688 -0.019529114 0.88221025 -0.088394284 -0.46248403 0.0052674552
-0.053450491 -0.0066133365 -0.018014511 -0.4488467 0.22554399 -0.86467713 0.00058186671
-0.051201284 -0.00658433 -0.019093452 -0.37658951 0.23446654 -0.89621753 0.0011227427
-0.048239056 -0.0064408341 -0.020077854 -0.24365051 0.25872299 -0.93471754 0.00083193142
-0.045534506 -0.0058230818 -0.020467417 -0.073880829 0.25507286 -0.96409512 0.0042232298
-0.041637026 -0.0061847055 -0.020320658 0.27376693 0.17314583 -0.94608247 0.0081845317
-0.039118908 -0.0065002893 -0.019162446 0.39477846 0.15644553 -0.90535891 0.0010900102
-0.036289543 -0.0067165312 -0.017921966 0.082660556 0.1933042 -0.97765058 0.034965664
-0.033235498 -0.0064422176 -0.019157799 -0.55215383 0.098397538 -0.82791549 0.0071345624
-0.031660728 -0.0058774878 -0.020613289 -0.64905888 0.074786901 -0.7570532 0.0017015156
0.012168734 -0.0067348643 -0.020229006 0.47524944 -0.026793469 -0.87944305 0.00084908889
0.014742802 -0.0065033706 -0.01886105 0.59002048 -0.015926056 -0.80723125 0.0029072021
0.033703912 -0.0058879731 -0.019107208 -0.79987562 -0.57716602 -0.1645553 0.0012057866
0.034653015 -0.0074227978 -0.018758064 -0.78413147 -0.59702998 -0.16939011 0.0011118916
0.044739399 -0.0065027047 -0.01894648 0.92117727 -0.017708993 -0.38874 7.3077819e-05
-0.052760869 -0.0046710004 -0.017813539 -0.44115815 0.31288344 -0.84112036 0.0027728586
-0.051037543 -0.0036220651 -0.018299503 -0.35236618 0.366831 -0.86097223 0.00310825
-0.048312038 -0.0034401985 -0.019059228 -0.25946078 0.37289307 -0.89085954 0.0022112227
-0.045155108 -0.0034390865 -0.019904701 -0.10787895 0.34103274 -0.93384087 0.0032936784
-0.042117402 -0.0034394199 -0.019744582 0.21667862 0.27051219 -0.93801576 0.0052077668
-0.039179664 -0.003441297 -0.018546598 0.3624745 0.28814921 -0.88633078 0.0013421836
-0.037261873 -0.0042106216 -0.017762413 0.087805577 0.20573379 -0.97466081 0.040056482
-0.032982633 -0.0034922939 -0.018783925 -0.58183253 0.20295264 -0.78757924 0.004431041
-0.031072974 -0.0028287054 -0.020333335 -0.59886634 0.22848289 -0.76756412 0.00080958399
0.012554678 -0.003439086 -0.020242507 0.49618396 0.05788048 -0.86628592 0.001940479
0.014507289 -0.0034995922 -0.018917186 0.61091894 0.079157189 -0.78772593 0.0041707065
0.032300472 -0.0034407009 -0.019443458 -0.90028143 -0.42690745 -0.085108235 0.0016365593
0.044719171 -0.0034411778 -0.01912673 0.92619985 -0.022353591 -0.37636963 6.957032e-05
-0.049700297 -0.0016007205 -0.017737484 -0.33286944 0.46909896 -0.8180123 0.0018793534
-0.047901008 -0.0012178556 -0.018019428 -0.27496934 0.44693929 -0.85125619 0.00098033098
-0.045266241 -0.00042718649 -0.01847909 -0.12631901 0.45413959 -0.88193017 0.0067849206
-0.042296499 -0.00042760465 -0.018539693 0.1830806 0.41802239 -0.88979703 0.0047176033
-0.039847974 -0.0012507625 -0.017998012 0.34006128 0.36650988 -0.86604196 0.0028344542
-0.03249168 -0.00053979678 -0.018406127 -0.58040148 0.28354195 -0.76337284 0.00094504713
-0.030392937 -0.00019348203 -0.019758647 -0.54392415 0.32208726 -0.77485889 0.00051380479
-0.028626911 0.00083111925 -0.020409798 -0.53741539 0.32653743 -0.77753329 0.00045716725
0.011968738 -0.000225386 -0.019982995 0.51030636 0.19553645 -0.83746809 0.00067335868
0.014255672 -0.00056872959 -0.018547939 0.63126403 0.21197458 -0.74603796 0.0021650342
0.031165972 -0.00038801925 -0.020267105 -0.96315747 -0.21414845 -0.16269006 0.0098908255
0.044675332 -0.00038361747 -0.019517332 0.93136686 -0.016046181 -0.36372843 0.0001380485
-0.044184536 0.0014710049 -0.017634755 -0.092949934 0.50326926 -0.85911602 0.0082485396
-0.032081995 0.0016727617 -0.017904984 -0.55990124 0.33526906 -0.7576974 0.0015232289
-0.030018993 0.002710613 -0.018877644 -0.53109664 0.33180124 -0.77964371 0.00048873317
-0.027861886 0.0027744141 -0.020251401 -0.53689432 0.3358407 -0.7739222 0.00043608804
0.0096826563 0.0031496682 -0.020391524 0.44760606 0.27447385 -0.8510657 0.0022671747
0.011668169 0.0026774509 -0.019288825 0.50388575 0.28196582 -0.81645232 0.0011144999
0.013750453 0.0021833596 -0.018000515 0.60194647 0.27339646 -0.75027651 0.0010469474
0.031243496 0.0023716907 -0.019278442 -0.98391056 0.16541177 -0.067520604 0.0087329885
0.044678077 0.0026738057 -0.019492829 0.93651432 -0.014257175 -0.35033929 7.6681092e-05
-0.029210467 0.005389771 -0.018277483 -0.55233872 0.37881389 -0.74257785 0.00087845878
-0.02722374 0.0057996078 -0.019343736 -0.49066412 0.37369406 -0.7871477 0.00060736836
-0.025184952 0.0065302216 -0.020179823 -0.45954406 0.3987129 -0.79362911 0.00062878639
0.0063489676 0.0065269303 -0.020320114 0.4481509 0.3593398 -0.81855708 0.0050979652
0.0087421564 0.0058695595 -0.019552931 0.40292162 0.44103047 -0.80196404 0.0010473124
0.011355276 0.005518266 -0.018316755 0.470743 0.38029698 -0.79610008 0.0027560424
0.03217449 0.0054331846 -0.01910848 -0.93424332 0.34367716 -0.095264688 0.0004238876
0.044657096 0.0057268552 -0.019679761 0.93765384 -0.016913969 -0.3471587 2.3673982e-05
-0.026824255 0.0085545015 -0.018313253 -0.49573699 0.48703429 -0.71905655 0.0022759095
-0.024295066 0.0087588215 -0.019528914 -0.43904722 0.47430083 -0.76307029 0.0018438518
-0.022131303 0.0095811486 -0.020211414 -0.45482171 0.5420441 -0.70662951 0.0022013958
0.0043151099 0.0093746567 -0.02030867 0.53091073 0.33848256 -0.77689332 0.0032648386
0.0058557531 0.0087938774 -0.019325037 0.49940443 0.37113431 -0.78285033 0.0020056653
0.0082235457 0.0084182424 -0.018172253 0.42469805 0.45800307 -0.78093839 0.0029062447
0.010484613 0.0076117432 -0.017715609 0.38338989 0.49434611 -0.78015006 0.00069528894
0.033556972 0.0088010645 -0.019041417 -0.87135929 0.47694775 -0.11512551 0.0019736034
0.04502834 0.0086718248 -0.018804232 0.93449944 0.0007502056 -0.35596392 0.00010887229
-0.023794789 0.0110187 -0.018148314 -0.42646593 0.61875671 -0.6597476 0.0014209085
-0.021259652 0.011475548 -0.019165112 -0.42860019 0.58093023 -0.69196963 0.001186005
-0.01846154 0.012561764 -0.019944146 -0.24360666 0.65968162 -0.71096832 0.0039752461
-0.01521891 0.013044187 -0.020091819 -0.14077538 0.68249738 -0.7172026 0.00088227534
-0.012764087 0.013028362 -0.020487633 -0.14911538 0.61227816 -0.77645344 0.0022113554
0.00065411627 0.01303201 -0.020396596 0.2408542 0.63548934 -0.73358196 0.0038115953
0.0033427142 0.012034846 -0.019883215 0.48493683 0.42977265 -0.76166385 0.0049307938
0.0056126593 0.011423861 -0.0184639 0.53851795 0.45364872 -0.71007133 0.0029798753
0.036009099 0.012168846 -0.018991036 -0.65542054 0.74311084 -0.13494524 0.0077730762
0.044665471 0.011841253 -0.019605171 0.92699397 0.050441705 -0.37166914 0.00065126241
-0.020405114 0.013325838 -0.01816478 -0.42671901 0.64471424 -0.63423532 0.00082389981
-0.018304059 0.014161882 -0.018436614 -0.2613655 0.65771216 -0.7064721 0.0045516528
-0.015166063 0.014472299 -0.018650515 -0.18447326 0.65607899 -0.73179907 0.0017565737
-0.012184437 0.014596206 -0.019523758 -0.18227813 0.60626459 -0.77409166 0.00092925626
-0.0091895517 0.014798821 -0.020115459 -0.067068093 0.60070628 -0.7966516 0.0029628654
-0.0059881732 0.014810526 -0.019855412 0.10100748 0.61599994 -0.78124356 0.00086150592
-0.0030128807 0.014596767 -0.01951853 0.10850762 0.64618927 -0.75542402 0.00038476253
4.438078e-05 0.014615164 -0.019098792 0.21411704 0.64890409 -0.73012143 0.0037217133
0.0027000401 0.013991904 -0.018539814 0.4281362 0.58178002 -0.6915428 0.0023556578
0.0043373443 0.01311811 -0.018242752 0.50099975 0.51773995 -0.69350171 0.0038882415
0.036884617 0.013135343 -0.017811632 -0.61226124 0.78014588 -0.12848555 0.0049522649
0.038916074 0.014005625 -0.019015191 -0.41742453 0.88271761 -0.21579269 0.002704673
0.041564766 0.015003639 -0.019189559 -0.25455371 0.92475075 -0.2829107 0.010715859
0.044396255 0.01491161 -0.019282183 0.79712135 0.34695441 -0.49418655 0.060538292
-0.011885881 0.01653102 -0.018135404 -0.2242717 0.6264025 -0.74654013 0.00050132844
-0.0091503887 0.01678589 -0.018505378 -0.051833477 0.63969809 -0.76687664 0.0030437135
-0.0062419139 0.016642928 -0.018290151 0.10144652 0.63618052 -0.76484185 0.00046426183
-0.0032298514 0.016302522 -0.017921682 0.11849953 0.62846512 -0.76875836 0.00046595177
-0.00087722763 0.016207945 -0.01775839 0.20198847 0.60830295 -0.76757294 0.002682006
0.044449467 0.01615826 -0.018800667 0.29297644 0.85392827 -0.43008289 0.10461149
-0.047682162 -0.041281715 -0.015081734 -0.26140028 -0.75768894 -0.59797776 0.0025919441
-0.045040622 -0.041428968 -0.015481297 -0.017717289 -0.7793718 -0.62631112 0.0055108815
-0.042253312 -0.041329708 -0.01513383 0.27298707 -0.7368682 -0.61846846 0.0044140485
0.041123308 -0.04112874 -0.015388004 0.15282339 -0.94192052 -0.29904971 0.041736178
-0.053140789 -0.038079284 -0.014940239 -0.58000708 -0.47738189 -0.66007453 0.0029914132
-0.050997287 -0.039016437 -0.015821349 -0.44524762 -0.60361093 -0.66136855 0.0032607084
-0.048214525 -0.03978214 -0.016600681 -0.27154505 -0.68459821 -0.67645293 0.004208215
-0.045012116 -0.04009115 -0.016951332 -0.0038379964 -0.71869951 -0.69531029 0.0033489678
-0.04198353 -0.039739117 -0.016649526 0.28927407 -0.62873983 -0.72180802 0.0063502183
-0.039196741 -0.038952656 -0.015729448 0.50972444 -0.5623821 -0.65108168 0.004493901
0.036307931 -0.038476855 -0.016033649 -0.51064444 -0.77095205 -0.3806248 0.0046926909
0.038617697 -0.039863639 -0.016545353 -0.31195152 -0.8683331 -0.3855955 0.0076760082
0.043134179 -0.040379055 -0.016794747 0.46370479 -0.80142355 -0.37775397 0.066257797
0.044348173 -0.039234892 -0.015836978 0.76225954 -0.55837345 -0.32738274 0.032284323
-0.053811204 -0.036072627 -0.015622017 -0.59845406 -0.4121913 -0.68698698 0.0028484992
-0.051629651 -0.03684748 -0.017065953 -0.51825273 -0.39539391 -0.75833887 0.0049019186
-0.038956881 -0.036765866 -0.016965255 0.53437084 -0.374641 -0.75768864 0.0081899008
-0.037125416 -0.036124714 -0.015462855 0.71874291 -0.29263508 -0.63069272 0.0033041916
0.033546984 -0.035818778 -0.016107144 -0.79672575 -0.49525926 -0.34633261 0.013800382
0.034661457 -0.03683177 -0.016892811 -0.71853977 -0.56787902 -0.40151459 0.010614706
0.044900548 -0.036579486 -0.015946535 0.92145431 -0.14357944 -0.36098036 0.0043828329
-0.054037891 -0.03343413 -0.01637998 -0.61174303 -0.16254151 -0.77417743 0.0035487332
-0.038072545 -0.0335683 -0.017311137 0.62494826 -0.12175097 -0.77111375 0.0048392667
-0.036844362 -0.033384874 -0.015947018 0.76554257 -0.12036434 -0.63202608 0.0031919056
-0.014637937 -0.032656167 -0.015102579 -0.31116223 -0.72467321 -0.61483884 0.0014969239
-0.012298178 -0.032757711 -0.015816068 -0.14450969 -0.77733076 -0.61226946 0.0032172587
-0.0092080757 -0.032744758 -0.015989814 0.012369919 -0.79570657 -0.60555595 0.00091799611
-0.0061301473 -0.032774571 -0.015589551 0.09774556 -0.79386228 -0.60019034 0.00063681568
-0.0033108969 -0.032670539 -0.015206765 0.16321173 -0.7767024 -0.60835451 0.00068436918
-0.0011935458 -0.032527693 -0.014747298 0.24775706 -0.76111627 -0.59943187 0.0013853193
0.03268427 -0.033468131 -0.016605301 -0.88277924 -0.32195216 -0.34212229 0.015184708
0.045105282 -0.033384617 -0.015686614 0.93665051 -0.019412324 -0.34972703 5.8679187e-05
-0.056263614 -0.030054606 -0.014720893 -0.62176168 -0.056445707 -0.78116983 0.0010243283
-0.054180518 -0.030556463 -0.016409537 -0.60599369 -0.031712431 -0.79483706 0.0014784415
-0.038067259 -0.030490063 -0.017366612 0.63786274 0.068306498 -0.76711494 0.0042847623
-0.036714856 -0.030658633 -0.015870964 0.76498467 0.061175548 -0.64113653 0.001805329
-0.020467971 -0.029518824 -0.015336222 -0.36058119 -0.73269331 -0.5771842 0.00084743422
-0.017995642 -0.030126262 -0.015781313 -0.33881134 -0.71011901 -0.61720163 0.001213378
-0.015600052 -0.030899413 -0.016417455 -0.32752293 -0.69432592 -0.64081222 0.00079697056
-0.012519846 -0.031558316 -0.017169967 -0.16350327 -0.73298955 -0.66029763 0.0028568162
-0.0091782296 -0.03172547 -0.01728658 0.014724947 -0.76156652 -0.64791948 0.0014636362
-0.00587697 -0.031511139 -0.017063366 0.12535071 -0.74643123 -0.65354991 0.00097214465
-0.0029463284 -0.031195592 -0.016716078 0.17231084 -0.72646731 -0.6652475 0.00070712774
4.4072978e-05 -0.030743573 -0.016397471 0.22968031 -0.71605754 -0.65917271 0.0011483239
0.0027315477 -0.030143268 -0.016029453 0.33358341 -0.68116516 -0.65171784 0.0028796119
0.0048633609 -0.029643539 -0.015319604 0.44913408 -0.63957709 -0.62387472 0.0024827097
0.032073531 -0.03054722 -0.016548222 -0.96755767 -0.066999212 -0.24360479 0.006722643
0.045097712 -0.030601587 -0.015753996 0.93872833 -0.0093514156 -0.34453112 5.8028065e-05
-0.056236032 -0.027567662 -0.01491803 -0.62908518 -0.076241024 -0.77358854 0.00097734865
-0.054182909 -0.027477 -0.016389335 -0.55253381 -0.061065666 -0.83125055 0.0027252792
-0.052175242 -0.026788346 -0.01759637 -0.46589968 -0.026660528 -0.88443589 0.0025903904
-0.038469061 -0.027191773 -0.017021054 0.63332421 0.18713528 -0.75092 0.0025528418
-0.037047435 -0.027615447 -0.015566398 0.72268289 0.15122454 -0.67443359 0.0019212118
-0.025913216 -0.026313983 -0.015200443 -0.48994845 -0.67757827 -0.54848725 3.060446e-05
-0.02385078 -0.027217492 -0.01594037 -0.43947291 -0.70107013 -0.56157297 0.00073727738
-0.021326236 -0.028202277 -0.016620651 -0.34154275 -0.72743142 -0.59514046 0.0019611532
-0.018715341 -0.028660771 -0.017141132 -0.29442322 -0.70524734 -0.64493501 0.0013269085
0.00327201 -0.028498523 -0.017274147 0.31999534 -0.62138796 -0.71517819 0.0019003925
0.0056815511 -0.027625944 -0.016483616 0.4508341 -0.5468244 -0.70550102 0.00087433873
0.0080770394 -0.026927661 -0.015280057 0.51873958 -0.54151112 -0.66157001 0.00063149881
0.032196846 -0.027277052 -0.016286628 -0.97092181 0.11111037 -0.21205021 0.0051561971
0.045089874 -0.0275121 -0.015823852 0.93793327 -0.021860572 -0.34612623 5.1996754e-05
-0.056595232 -0.024349786 -0.01516403 -0.62797081 -0.16727282 -0.76004767 0.001869673
-0.054249752 -0.024460673 -0.016684102 -0.48538205 -0.17934196 -0.85571069 0.002946829
-0.052173212 -0.025558777 -0.017611926 -0.40235376 -0.11303032 -0.90847981 0.006551601
-0.039163977 -0.024236821 -0.016618459 0.55872595 0.11489238 -0.82135558 0.0071444097
-0.037356086 -0.024465274 -0.015097466 0.64402401 0.031012656 -0.7643764 0.0076800524
-0.029402576 -0.023627136 -0.015377588 -0.50721461 -0.630871 -0.58714145 0.00048116181
-0.027189717 -0.024516668 -0.016313048 -0.49274203 -0.65370196 -0.57435101 0.00050885271
-0.024962183 -0.025375579 -0.017232504 -0.43980679 -0.65778536 -0.6114642 0.0010427913
0.006805067 -0.025263906 -0.017395696 0.50977188 -0.47424331 -0.71779233 0.0015349194
0.0088125905 -0.024538517 -0.016357146 0.55644947 -0.44605935 -0.7009958 0.00077234552
0.01096356 -0.02363763 -0.015168156 0.58784741 -0.44153434 -0.67785162 0.00043254849
0.033002883 -0.02439091 -0.016478932 -0.92517114 0.3219814 -0.20096339 0.0023666595
0.04503027 -0.024398074 -0.0163549 0.93701684 -0.03655906 -0.34736553 1.9986115e-05
-0.056949541 -0.021243919 -0.015707178 -0.62109601 -0.19882317 -0.75809568 0.0018312961
-0.054883093 -0.021650691 -0.017116148 -0.4943735 -0.23221515 -0.83765799 0.0020036956
-0.039364558 -0.021302495 -0.016665051 0.52545094 -0.089070849 -0.84614879 0.0064962571
-0.036723398 -0.021092888 -0.015252761 0.37904307 -0.23853077 -0.89410818 0.023749467
-0.032978076 -0.020472523 -0.015306513 -0.2224337 -0.49041486 -0.84262472 0.021549108
-0.030515645 -0.021559432 -0.016447589 -0.5551796 -0.51011205 -0.65693325 0.0022648883
0.0096784653 -0.021790858 -0.017189818 0.56390381 -0.37381375 -0.73639375 0.00082404196
0.011624872 -0.021194644 -0.015972324 0.58128965 -0.40046737 -0.70832771 0.00075285695
0.013650852 -0.020146899 -0.014893926 0.60889453 -0.39904863 -0.68557101 0.00096952158
0.033804201 -0.022098064 -0.016107408 -0.89218223 0.41005048 -0.18939252 0.0022190635
0.034708738 -0.020545997 -0.016344441 -0.85815239 0.46365306 -0.2204549 0.0021560506
0.044978362 -0.021295577 -0.016817421 0.93028224 -0.054127619 -0.36282942 0.00023278742
-0.058711253 -0.017981928 -0.014908574 -0.7164529 -0.14550364 -0.68229318 0.00069794746
-0.056990881 -0.018295504 -0.016482698 -0.65830743 -0.18138477 -0.73056889 0.002094713
-0.055255212 -0.019418694 -0.017536735 -0.58467972 -0.18531504 -0.78981519 0.0016827378
-0.038836032 -0.018404413 -0.01696248 0.46550649 -0.23463525 -0.85337561 0.0011640614
-0.036348648 -0.018250301 -0.015978361 0.19814998 -0.25921369 -0.94527501 0.013454714
-0.033286892 -0.018287711 -0.016344579 -0.41903302 -0.43543229 -0.79674965 0.019168206
-0.031310935 -0.019428574 -0.017298615 -0.61866242 -0.42204443 -0.66267294 0.0031733525
0.01226309 -0.018564355 -0.016953159 0.54104728 -0.39308444 -0.74347323 0.00074936304
0.014327032 -0.018017653 -0.015608534 0.61358434 -0.3997654 -0.68095648 0.0012302418
0.036094062 -0.018235121 -0.016353438 -0.79031175 0.53404218 -0.30034363 0.0036349457
0.045379497 -0.018374432 -0.016301161 0.92507821 -0.064865567 -0.37419611 0.00024879069
-0.059342381 -0.014582548 -0.014822877 -0.71331936 -0.075220309 -0.69679081 0.0019490098
-0.05763825 -0.015289381 -0.016403755 -0.64671606 -0.048883218 -0.7611627 0.0013390969
-0.038222712 -0.015892003 -0.01734761 0.29282719 -0.26854384 -0.91767997 0.011363446
-0.036274571 -0.015448589 -0.01679628 0.16574022 -0.23439091 -0.95790976 0.012891725
-0.033791516 -0.015636213 -0.017048972 -0.42009887 -0.27500328 -0.86480641 0.018056968
0.015165101 -0.015483432 -0.016260879 0.66908246 -0.35572618 -0.65252393 0.0012941849
0.016739052 -0.014577735 -0.01499728 0.71668583 -0.33413586 -0.61213928 0.00065249915
0.037094075 -0.016414024 -0.015541113 -0.83857441 0.40290964 -0.36668348 0.013049604
0.038300339 -0.015088359 -0.016481161 -0.92921782 0.14995046 -0.33774108 0.041174196
0.045658216 -0.015157619 -0.016252149 0.90965003 -0.069639355 -0.40949616 0.0006694317
-0.059350837 -0.012728 -0.014765607 -0.68570089 0.036714979 -0.72695684 0.0028131793
-0.057404384 -0.012489603 -0.016540075 -0.61846215 0.075711228 -0.78215885 0.0009303565
-0.035881795 -0.013483889 -0.017365048 -0.036678214 -0.20663023 -0.97773141 0.041617636
-0.034368824 -0.013583035 -0.017485773 -0.4477253 -0.2998938 -0.842381 0.014334533
0.015631534 -0.012810412 -0.016980993 0.70164078 -0.23704402 -0.67194515 0.001254794
0.01713014 -0.012298505 -0.015504592 0.7307781 -0.25399116 -0.63360226 0.00054944033
0.037065007 -0.011467227 -0.015856212 -0.89520025 -0.41910851 -0.15154083 0.0075154724
0.038396679 -0.013120539 -0.01666615 -0.86251247 -0.2991083 -0.40817446 0.033240966
0.045604017 -0.012372238 -0.016728519 0.90687674 -0.038652316 -0.41961959 0.00096417649
0.046439402 -0.012107907 -0.014823155 0.91548651 -0.0030807389 -0.40233693 0.001714865
-0.058681544 -0.009628715 -0.015112014 -0.66040641 0.092362195 -0.74520642 0.0018974564
-0.056946281 -0.0096058138 -0.01645397 -0.58376825 0.1152604 -0.80369753 0.0013159252
-0.055262126 -0.0086667985 -0.017486757 -0.54797959 0.1464262 -0.82357627 0.00069197809
0.016025312 -0.010512442 -0.017383849 0.71250844 -0.14531796 -0.68645054 0.0022893441
0.017458651 -0.0095042717 -0.016042149 0.74479878 -0.13174738 -0.65415394 0.0013636997
0.036156315 -0.0099781174 -0.016353447 -0.81011641 -0.56968755 -0.13844679 0.0012859205
0.04559207 -0.0095995031 -0.016833533 0.92212826 -0.0046146223 -0.38685688 0.0005116518
0.04644867 -0.010253766 -0.014742779 0.92630351 0.0011401015 -0.37677649 0.0015155204
-0.058723547 -0.0071590221 -0.014824427 -0.66556174 0.15697207 -0.72964877 0.0016600819
-0.057019062 -0.0065298174 -0.015941057 -0.57319933 0.18372884 -0.79855263 0.001692188
-0.054857969 -0.0062391385 -0.017176658 -0.48640639 0.21568027 -0.84669399 0.0010144422
-0.035597254 -0.0054405932 -0.017492203 -0.00070015033 0.082841374 -0.99656248 0.046260912
0.017621856 -0.0065291156 -0.016050851 0.74450439 0.013464669 -0.66748178 0.0011508665
0.033900548 -0.006522425 -0.016794747 -0.8340838 -0.5445233 -0.088309906 0.00069812668
0.034617029 -0.0077679981 -0.015622801 -0.83299315 -0.54810613 -0.075512007 0.0006784905
0.04560101 -0.0065228958 -0.016754996 0.92756277 -0.020644771 -0.3730967 0.00021175544
0.046435725 -0.0059218137 -0.014855023 0.93231863 -0.0050699529 -0.36160237 0.00019104328
-0.056811195 -0.0037794001 -0.015226609 -0.54101294 0.29285434 -0.78837895 0.003687324
-0.054214168 -0.0033928589 -0.016535539 -0.46358144 0.31958827 -0.82641125 0.00077798998
-0.052002516 -0.0024190971 -0.01735062 -0.33854321 0.45114583 -0.8257457 0.0019477534
-0.036027115 -0.0032972386 -0.017267367 0.04162671 0.14636755 -0.98835403 0.036686547
-0.034364682 -0.0022145291 -0.017533874 -0.45845404 0.25796807 -0.85045421 0.013717921
0.01602412 -0.0031361585 -0.017413629 0.70852339 0.1051062 -0.69781601 0.0019942578
0.017319091 -0.0034455382 -0.015905831 0.75590986 0.12708452 -0.64222258 0.0003134493
0.04558038 -0.0034444977 -0.016936291 0.92712176 -0.015694149 -0.37443131 0.0001163353
0.046429396 -0.0034475138 -0.014909959 0.93389571 -0.013846471 -0.35727724 0.00016414605
-0.053908262 -0.00076918525 -0.01536821 -0.40794227 0.47245961 -0.78125858 0.0014013654
-0.051164545 -0.00031093659 -0.016294561 -0.33327585 0.50504559 -0.79615086 0.00082379259
-0.048414294 0.00019679265 -0.016949335 -0.30567226 0.47960141 -0.82252467 0.0011417861
-0.046661582 0.00085831387 -0.017464375 -0.23777273 0.4749822 -0.84726387 0.0053119697
-0.041128512 0.00085810525 -0.017485296 0.16869555 0.52129823 -0.83653456 0.0038617081
-0.039081104 -2.6583555e-05 -0.01712333 0.28196344 0.40548813 -0.86952633 0.0038781175
-0.036303855 -0.00036405085 -0.01647513 -0.066255771 0.3198334 -0.94515437 0.034145683
-0.034028534 -0.0001225837 -0.017154748 -0.47791952 0.2735168 -0.83473444 0.0047500115
0.015696507 -2.6472379e-05 -0.017067283 0.71756887 0.1937826 -0.66898668 0.0010848995
0.017115045 -0.00047028332 -0.015420148 0.74278808 0.17961493 -0.64498407 0.00076290162
0.031374171 -0.00098601775 -0.017611926 -0.99287224 -0.11393369 -0.034983233 0.0082308939
0.045561526 -0.00036849279 -0.017101973 0.93228769 -0.0024701976 -0.36170936 0.00010955562
0.046424549 -0.00035508769 -0.014951975 0.9356426 0.0016599951 -0.35294512 0.00010313038
-0.050655469 0.0018524723 -0.015033737 -0.36591613 0.44942287 -0.81493837 0.0015915664
-0.048032753 0.0026736511 -0.015858194 -0.30905455 0.450928 -0.83734649 0.003766085
-0.045055304 0.0028551235 -0.016594363 -0.029449031 0.54410976 -0.8384971 0.005463819
-0.042110018 0.0027192812 -0.016324094 0.18397565 0.57250082 -0.79899675 0.0014213425
-0.039280552 0.0025507528 -0.015732193 0.21000731 0.53377086 -0.81913716 0.0024528438
-0.036371551 0.0022595786 -0.015327921 -0.08793956 0.52440304 -0.84691679 0.017270431
-0.033382289 0.0028591868 -0.016267685 -0.4866541 0.38987547 -0.78177029 0.0057511716
-0.031302191 0.0039319466 -0.017410075 -0.57588249 0.36641565 -0.73082066 0.0013867222
0.015158272 0.0028793835 -0.016386317 0.67755675 0.25651795 -0.68928617 0.001012674
0.016735498 0.002426337 -0.01508291 0.71360785 0.2235571 -0.6639173 0.00082246267
0.031455655 0.0036389376 -0.016572749 -0.95650637 0.24600405 -0.15677258 0.01214551
0.04557712 0.0027088951 -0.016964942 0.93687916 -0.0054798825 -0.34961027 9.9794655e-05
0.046454344 0.002740223 -0.014693607 0.93559337 -0.0036852839 -0.35306033 4.3202006e-05
-0.047484852 0.0050337664 -0.014956085 -0.19587022 0.53902853 -0.81919658 0.004228788
-0.045227066 0.0051127737 -0.015090151 -0.0055701765 0.55394828 -0.83253247 0.0060479557
-0.042223055 0.0046966942 -0.014864302 0.16947919 0.60203326 -0.78027737 0.00096453837
-0.032509152 0.0054489542 -0.015413276 -0.53339946 0.47395328 -0.70060921 0.0034065347
-0.030655529 0.0060365899 -0.016766494 -0.57069248 0.42737514 -0.70118517 0.0010683426
0.012604247 0.0063937688 -0.017275319 0.49201903 0.34879813 -0.79765725 0.0046934802
0.014614611 0.0057484386 -0.015965346 0.59849113 0.29407674 -0.74520284 0.0023250475
0.032117926 0.0058041555 -0.015977161 -0.90008652 0.38726521 -0.19967468 0.005987098
0.045528952 0.0057759099 -0.017388266 0.9372164 -0.017588865 -0.34830463 4.2652395e-05
0.046428367 0.0058293231 -0.014918823 0.93663037 -0.0168171 -0.34991539 4.4969504e-05
-0.029831227 0.0083632534 -0.015952623 -0.58458036 0.50609183 -0.63414264 0.0018757773
-0.027644224 0.0094763534 -0.016989103 -0.48870409 0.55268085 -0.67506456 0.0037795885
0.009267603 0.0092057865 -0.017230211 0.40438792 0.4911662 -0.77150905 0.00074999302
0.011815402 0.0086182281 -0.016453607 0.42043692 0.47445306 -0.77338672 0.0031013614
0.014313172 0.0083504012 -0.01525684 0.53161824 0.48066846 -0.69738066 0.0053688609
0.033073433 0.008283644 -0.01562374 -0.86648625 0.46883017 -0.17146347 0.0055014016
0.045510437 0.010073706 -0.017550981 0.93183506 0.0055934582 -0.3628388 9.5007235e-05
0.046398789 0.0086050024 -0.015175349 0.93768018 -0.011996926 -0.3472923 0
-0.029014766 0.010154693 -0.015042431 -0.56503397 0.56053621 -0.60542196 0.0016910104
-0.026936255 0.011072719 -0.015927138 -0.49019966 0.63299119 -0.59918809 0.00082027394
-0.02424882 0.01211627 -0.016712945 -0.4318946 0.66522133 -0.60905457 0.00075891224
-0.022079065 0.012534215 -0.017476773 -0.42652273 0.63061202 -0.64838785 0.0013328507
0.0066593708 0.012094739 -0.016913963 0.51828551 0.46941674 -0.71486223 0.0024340264
0.0087082209 0.011415025 -0.015985262 0.46438682 0.52311093 -0.71463263 0.0027084174
0.011245231 0.010535247 -0.015225942 0.41003561 0.57309121 -0.70953304 0.0007315026
0.033995505 0.010134361 -0.015671825 -0.83899707 0.51974666 -0.16108176 0.0047959923
0.035241049 0.011786454 -0.015560385 -0.72713816 0.6743083 -0.12875673 0.0084193619
0.045513064 0.011610513 -0.017527906 0.92835248 0.036519736 -0.36990264 0.00079317135
0.046379983 0.011380855 -0.015338499 0.93674791 0.0094031598 -0.34987849 9.8847595e-05
-0.023428641 0.013584325 -0.015418668 -0.43231031 0.68224913 -0.58961338 0.00051720178
-0.021116363 0.01451104 -0.016313996 -0.43761575 0.66424644 -0.60602736 0.0010693135
-0.018514272 0.015421501 -0.017050516 -0.26169503 0.685498 -0.67941761 0.0036459882
-0.015937444 0.015610932 -0.017387833 -0.218972 0.64453572 -0.73254699 0.0011748436
0.0030428721 0.015239636 -0.017105831 0.35487801 0.61598271 -0.7032972 0.0034883628
0.0055965986 0.014443561 -0.015968498 0.49106392 0.53420085 -0.6881029 0.001393778
0.0077110818 0.013742088 -0.015012599 0.50711089 0.50157243 -0.70090193 0.00029739816
0.039054282 0.014594828 -0.016020125 -0.4966073 0.8525241 -0.16304539 0.0041646538
0.04135276 0.015668049 -0.016149478 -0.36845866 0.90709013 -0.20353286 0.001183797
0.045557838 0.014393062 -0.017134458 0.9124366 0.28653899 -0.29215553 0.063189872
0.046416685 0.014174725 -0.015020168 0.78595984 0.36611497 -0.49822381 0.060790092
-0.019946905 0.016543627 -0.015042203 -0.45025709 0.66844499 -0.59198803 0.00084236293
-0.018011251 0.016975693 -0.01569579 -0.31910342 0.70739311 -0.63068849 0.0036062491
-0.015321949 0.017471328 -0.016081193 -0.25080019 0.67096943 -0.69778174 0.0014680596
-0.012463287 0.017990999 -0.016697286 -0.23460554 0.6701107 -0.7042101 0.0020250636
-0.0091825835 0.018391788 -0.017111257 -0.066733293 0.68630427 -0.72424656 0.0044897203
-0.0059663798 0.018184289 -0.017011162 0.092372566 0.628676 -0.77216178 0.0010421053
-0.0029685474 0.017838053 -0.016874272 0.12677313 0.61130863 -0.78117234 0.00036349619
0.00012457138 0.017605614 -0.016553096 0.21745685 0.62352842 -0.75094932 0.0029784956
0.0027053552 0.017265577 -0.015818974 0.36011735 0.57424456 -0.73522699 0.0024239894
0.0048346631 0.016487271 -0.015140443 0.47303331 0.54704601 -0.69063753 0.00073308614
0.04262903 0.016303949 -0.015744066 -0.22684538 0.92484146 -0.30530214 0.044369627
0.044927053 0.016914077 -0.015903616 0.16342726 0.93375188 -0.31843194 0.075563371
-0.012050645 0.019593846 -0.015251541 -0.23385324 0.76361024 -0.60184056 0.0051122895
-0.0091264294 0.019964796 -0.015724428 -0.10189845 0.73392338 -0.67154539 0.0041269488
-0.0061277859 0.020008001 -0.015737567 0.05277038 0.70421612 -0.70802188 0.0040413188
-0.0031573856 0.01980567 -0.015341543 0.12749109 0.66720825 -0.73387951 0.0023827255
-0.00045053521 0.019550402 -0.01508022 0.2101635 0.69028002 -0.69234729 0.0020054164
-0.050750177 -0.041799769 -0.012432235 -0.30229002 -0.74379832 -0.5961417 0.010727363
-0.048382804 -0.042176243 -0.013361237 -0.23639002 -0.8177163 -0.52484256 0.0037078678
-0.045029294 -0.042630717 -0.01373403 0.012104736 -0.89851493 -0.43877602 0.010245491
-0.04206704 -0.042280879 -0.013535311 0.2833963 -0.80152518 -0.5265395 0.0087888148
-0.039846525 -0.041601788 -0.013037563 0.48339438 -0.76720762 -0.42157122 0.0064296043
0.042147789 -0.041217811 -0.014453626 0.25059417 -0.95606548 -0.15212293 0.033672318
-0.056005262 -0.038326778 -0.01211626 -0.5488773 -0.48019105 -0.68421513 0.0010726867
-0.053995214 -0.039380562 -0.01286816 -0.481574 -0.59083068 -0.64730638 0.0043267915
-0.051732216 -0.040240314 -0.013870425 -0.40217611 -0.69012052 -0.60165447 0.0013378061
-0.038513206 -0.040249534 -0.013767383 0.54118574 -0.6124559 -0.57620806 0.0060023912
-0.036638793 -0.038891196 -0.012777392 0.64387578 -0.5774042 -0.50202423 0.00717287
0.036272995 -0.039058059 -0.014372862 -0.51064533 -0.77095264 -0.38062233 0.004693029
0.038492084 -0.040657021 -0.013831086 -0.35359526 -0.84895706 -0.39273679 0.0099006975
0.045390155 -0.039166562 -0.013155795 0.77063775 -0.54328167 -0.3331103 0.024893807
-0.056885574 -0.036135882 -0.012855467 -0.59922826 -0.36738461 -0.71130449 0.0022277429
-0.054875821 -0.037045557 -0.014008189 -0.57433748 -0.42929986 -0.69702089 0.0033436685
-0.035611458 -0.036403276 -0.01322352 0.78042108 -0.29400989 -0.55181611 0.004231052
-0.034244046 -0.035246663 -0.011694348 0.79817325 -0.253847 -0.54633427 0.0023215353
-0.013671742 -0.035247765 -0.01168061 -0.15996103 -0.86149377 -0.48191386 0.0026003104
-0.012099288 -0.035210263 -0.012149713 -0.11510325 -0.87030679 -0.47887108 0.0021735495
-0.0092939017 -0.035200145 -0.012276179 -0.028493794 -0.86414754 -0.50243115 0.0013790869
-0.0061842883 -0.035216488 -0.012071837 0.05193793 -0.83769161 -0.54366833 0.00083963189
-0.0040071108 -0.03523761 -0.011807448 0.17173287 -0.82053238 -0.54519206 0.00099195132
0.04603697 -0.036391761 -0.01292314 0.93183219 -0.095017597 -0.35022894 0.00096597138
-0.059502035 -0.033100288 -0.012054569 -0.52624983 -0.2212141 -0.82105142 0.0043999422
-0.057368089 -0.033241645 -0.013488272 -0.59114397 -0.17175592 -0.78806645 0.0048993183
-0.05566017 -0.034394599 -0.014610178 -0.62962866 -0.20438026 -0.74953079 0.0044151181
-0.035170451 -0.033389904 -0.01357338 0.80359256 -0.1030902 -0.58618379 0.00098023389
-0.034106277 -0.03313873 -0.012094768 0.8090173 -0.13679254 -0.5716458 0.0021114659
-0.020194579 -0.032096639 -0.012150309 -0.39632392 -0.72990805 -0.5569216 0.0011456272
-0.017856043 -0.032828137 -0.012934284 -0.38735053 -0.72483605 -0.5697124 0.00075943122
-0.015258124 -0.033773273 -0.013186358 -0.2586289 -0.81079441 -0.52509385 0.0012205617
-0.012362546 -0.034154303 -0.013724861 -0.10047348 -0.84268856 -0.5289433 0.0024872562
-0.0092551205 -0.034136541 -0.013953486 0.0090066027 -0.8278268 -0.56091154 0.00035027417
-0.0061591081 -0.034155622 -0.013707597 0.072083227 -0.81176376 -0.57952017 0.0004185905
-0.0029170914 -0.033970028 -0.013334579 0.16836359 -0.81071234 -0.56071305 0.0011132269
4.3742359e-05 -0.033268593 -0.013142175 0.2606332 -0.79291886 -0.55077207 0.00049769896
0.002738406 -0.032463111 -0.012822608 0.32951018 -0.7786389 -0.53398925 0.00050218834
0.0047151158 -0.032100759 -0.012093133 0.387164 -0.76467186 -0.51515138 0.00053121563
0.032267988 -0.033813678 -0.014115966 -0.96530175 -0.20372371 -0.16336837 0.012024605
0.046004228 -0.033262324 -0.013210894 0.94102776 -0.0134625 -0.33806142 4.5683777e-05
-0.059746176 -0.030232504 -0.012089404 -0.51432985 -0.035567034 -0.85685462 0.002791449
-0.057635244 -0.030404244 -0.013478886 -0.60012585 -0.038098365 -0.79899776 0.0023580934
-0.035078395 -0.030194964 -0.013562704 0.7715984 0.027252048 -0.63552588 0.0020250529
-0.03389512 -0.030229412 -0.01213601 0.68949997 -0.056063607 -0.7221126 0.0064010881
-0.024058565 -0.029574122 -0.0126294 -0.43150192 -0.73389125 -0.52460438 0.00038878372
-0.021157309 -0.030683603 -0.013303503 -0.39023432 -0.74146163 -0.54584974 0.0013208543
-0.01896093 -0.031129763 -0.014098005 -0.34741497 -0.7242884 -0.59557462 0.00078287581
0.0034518102 -0.031329937 -0.014186016 0.34244278 -0.73211682 -0.5888446 0.0020464589
0.0058098156 -0.030636344 -0.013343816 0.41943583 -0.72423548 -0.54731756 0.00082552328
0.0085235676 -0.029510848 -0.012409999 0.50757325 -0.65796763 -0.55628049 0.0010377676
0.031757548 -0.0308116 -0.012722618 -0.99608141 -0.050710328 -0.072458185 0.0087289931
0.046006486 -0.030468609 -0.013191081 0.9417448 -0.0084670046 -0.33622175 3.1679869e-05
-0.059629548 -0.027557954 -0.012035371 -0.53924191 -0.016285423 -0.84199339 0.0051154001
-0.057610769 -0.027556911 -0.013649025 -0.62889665 -0.068321779 -0.77448124 0.0015946825
-0.035445672 -0.027481697 -0.013617433 0.68460071 0.040616393 -0.72778583 0.010811648
-0.033902418 -0.027432445 -0.0120491 0.52642703 -0.096365377 -0.84474158 0.015507814
-0.029544618 -0.026499666 -0.012022278 -0.29060176 -0.62888974 -0.72114372 0.0098244445
-0.027120434 -0.027197175 -0.013011656 -0.44289982 -0.68559158 -0.57775766 0.0017098052
-0.02455591 -0.028358772 -0.01381606 -0.44069064 -0.72557455 -0.52851981 0.00037091065
0.0068530915 -0.028827704 -0.014556087 0.46430793 -0.64662969 -0.60521752 0.0011839512
0.0090921996 -0.027853083 -0.013641051 0.53611588 -0.57916164 -0.61412668 0.0019723966
0.01124641 -0.027100287 -0.012401328 0.58660078 -0.54687625 -0.59734911 0.0009200006
0.031829268 -0.028381921 -0.011807955 -0.99649531 0.058103755 -0.06017505 0.0026090129
0.045983545 -0.027661398 -0.013392688 0.94141859 -0.01890759 -0.33670986 4.7876845e-05
-0.059382066 -0.024608448 -0.012448019 -0.67388248 -0.088991307 -0.73345953 0.0034173806
-0.057967268 -0.024669539 -0.013871862 -0.67654347 -0.14592874 -0.72179902 0.00075624802
-0.035636161 -0.024547931 -0.013566831 0.55565679 -0.11855575 -0.82291555 0.017081587
-0.033102818 -0.024635457 -0.012478606 0.19199535 -0.38603222 -0.90228426 0.043701932
-0.030466579 -0.024761993 -0.013215992 -0.32895499 -0.61511868 -0.71653163 0.010725706
-0.028259885 -0.025554799 -0.01405366 -0.45565471 -0.66346496 -0.59345865 0.0024353878
0.012045254 -0.024761021 -0.013456681 0.61048627 -0.46379671 -0.64202732 0.00072341005
0.013896729 -0.023841806 -0.012228898 0.66272449 -0.44118544 -0.60510468 0.00063125096
0.032581531 -0.024562363 -0.013296944 -0.96385247 0.24592429 -0.1025171 0.004755063
0.045945417 -0.024539363 -0.013727862 0.9350239 -0.050272752 -0.35100281 0.00025778069
-0.059560046 -0.021380402 -0.013053347 -0.73176837 -0.14630812 -0.66566437 0.0013783256
-0.058180757 -0.022340499 -0.014299846 -0.68096757 -0.17467059 -0.71117741 0.0020666239
-0.035487965 -0.022179194 -0.014079995 0.24771726 -0.35794264 -0.90028507 0.028004112
-0.033471171 -0.021867182 -0.014027387 -0.10991526 -0.51291424 -0.85137397 0.026512263
-0.031532042 -0.022641338 -0.014478779 -0.32975331 -0.6051935 -0.72457129 0.010066034
0.012848129 -0.022448175 -0.014207806 0.62817937 -0.41741478 -0.65662438 0.001186899
0.014681489 -0.021366775 -0.01303083 0.65190619 -0.42175215 -0.63019323 0.00051940081
0.033734109 -0.02147672 -0.012880052 -0.91022271 0.38521799 -0.15199222 0.0011622333
0.045871079 -0.021407943 -0.014381231 0.92508698 -0.07064347 -0.37312675 0.00048496985
0.046731543 -0.020881906 -0.01228969 0.92012626 -0.092550308 -0.38052863 0.0004225497
-0.060101889 -0.018362008 -0.013052959 -0.7117877 -0.16384444 -0.68301773 0.0025029776
0.015742213 -0.018713426 -0.013612336 0.70927447 -0.38715714 -0.5891003 0.00025136274
0.017203603 -0.017765827 -0.012383468 0.72552872 -0.38008079 -0.57371306 0.00033118628
0.035348203 -0.01826394 -0.01330498 -0.8537637 0.47845644 -0.20534623 0.0006537055
0.04660717 -0.018350903 -0.013368243 0.91730773 -0.091391511 -0.38754886 0.00054763677
-0.062289353 -0.014921766 -0.011749364 -0.5271374 -0.11186624 -0.84238482 0.017836694
-0.060664132 -0.015296331 -0.012980918 -0.67928487 -0.076444991 -0.72988236 0.0053618373
0.017864175 -0.015291365 -0.013167678 0.74394619 -0.32539356 -0.58366352 0.00057673425
0.019362926 -0.014046469 -0.011839307 0.76229459 -0.31872922 -0.56331044 0.00037001126
0.036793679 -0.015989929 -0.013405342 -0.90744823 0.31818828 -0.27439737 0.023298627
0.037610084 -0.014316113 -0.013304881 -0.97520298 0.016874446 -0.22066788 0.021167303
0.046538893 -0.015227531 -0.013960344 0.91254938 -0.061557926 -0.40430707 0.00075952464
-0.062545963 -0.012314345 -0.011882352 -0.41926154 0.013122597 -0.90777063 0.014902122
-0.06080164 -0.012281873 -0.013061495 -0.65107435 0.018593164 -0.75878614 0.008387425
0.018661018 -0.012447496 -0.013560329 0.76534665 -0.24013579 -0.5971427 0.0002544497
0.019815441 -0.012014368 -0.012144274 0.77811354 -0.2489406 -0.57668698 0.00038728991
0.036717705 -0.011530263 -0.012868918 -0.93452919 -0.30844748 -0.17752559 0.024247883
0.037559204 -0.0131923 -0.012737688 -0.97520369 0.016919119 -0.22066143 0.021169621
0.046982143 -0.012898338 -0.014147139 0.93083733 -0.02124032 -0.36481616 0.0017695195
-0.061982505 -0.009374463 -0.011717848 -0.50175625 0.13622011 -0.85421592 0.013690534
-0.060391925 -0.0096586654 -0.013330798 -0.6751017 0.091319345 -0.73205078 0.0028162929
0.019027635 -0.0098801553 -0.014002244 0.77511835 -0.12881343 -0.61854565 0.0010775197
0.020264916 -0.009362163 -0.012502558 0.7898767 -0.12849647 -0.59965277 0.0011778659
0.035442725 -0.0093499692 -0.013243078 -0.8517077 -0.51732701 -0.083466783 0.00046715603
0.046483412 -0.0087112188 -0.014441526 0.91724753 0.011247776 -0.39815897 0.00088544673
-0.061672762 -0.007816188 -0.011705137 -0.69668376 0.1639469 -0.69839323 0.0024361764
-0.060058538 -0.0064460044 -0.013196871 -0.69298333 0.13468699 -0.70826089 0.00065664388
0.019255862 -0.0065474026 -0.014085568 0.77845532 0.023525547 -0.62725908 0.0012573737
0.020251099 -0.0065593589 -0.01277882 0.79913497 0.023190266 -0.60070407 0.0013703346
0.033590078 -0.0062454049 -0.013113803 -0.855928 -0.50513667 -0.11056293 0.0033811394
0.046508618 -0.0074755256 -0.014222926 0.92938149 -0.0031070318 -0.36910757 0.00024195499
-0.059702098 -0.0035278713 -0.012918117 -0.65259534 0.23685068 -0.71973687 0.0033156758
-0.057835694 -0.0028288104 -0.014239275 -0.57801038 0.25659174 -0.77463835 0.002762873
0.018956076 -0.003448545 -0.013877371 0.77586478 0.1307335 -0.61720544 0.00017484411
0.020190548 -0.0036845081 -0.012433323 0.78328264 0.11957503 -0.61005759 0.00032657501
0.031191427 -0.0022060205 -0.011997885 -0.70902026 -0.45511985 -0.53866136 0.01875435
0.032198131 -0.0036286814 -0.012763686 -0.78261697 -0.46842062 -0.40999112 0.0073143463
0.047358315 -0.0022064229 -0.012253112 0.93910515 -0.0025457235 -0.34362045 0.00012697488
-0.05947559 -0.00058718375 -0.012234548 -0.58936507 0.39052171 -0.7072069 0.0042003365
-0.057117116 -0.00029327953 -0.013432404 -0.45112583 0.43029788 -0.78187549 0.0033049404
-0.054708611 0.00047711958 -0.014022029 -0.38726974 0.47631186 -0.78939795 0.00088404655
0.018663179 -0.00034638902 -0.013514072 0.76551408 0.16475083 -0.62196892 8.3783598e-05
0.019820943 -0.00049317302 -0.012033007 0.7713359 0.15577409 -0.61706996 0.00022986722
0.030688461 -0.00018487067 -0.012463765 -0.70876074 -0.28295404 -0.64621603 0.021342989
0.031649433 -0.0015895297 -0.014101452 -0.89826006 -0.34983906 -0.26597267 0.027493866
0.04733827 -0.00033973064 -0.012424654 0.93913102 -0.0025417497 -0.34354958 0.00014192135
-0.0569623 0.0019830824 -0.012156799 -0.42466444 0.52106124 -0.74037504 0.0018332411
-0.05409503 0.0027946397 -0.012857887 -0.40741894 0.44941285 -0.79500812 0.0022082906
-0.051434387 0.0030380529 -0.014099062 -0.38452634 0.42995617 -0.81687039 0.0011310729
-0.049477957 0.003980286 -0.014552183 -0.30479291 0.447173 -0.84091467 0.0034925551
-0.038351528 0.0039831521 -0.014382677 0.16958942 0.59375131 -0.78657413 0.00040315997
-0.036193401 0.003778527 -0.014281066 -0.18251397 0.64393145 -0.74299455 0.022922451
0.017967202 0.0028352346 -0.01346931 0.74804628 0.20754842 -0.6303575 0.00061400083
0.019363426 0.0021568458 -0.011828836 0.76382917 0.20307019 -0.61263984 0.00031123924
0.030379515 0.0028067157 -0.012551183 -0.81934595 0.10402555 -0.56378275 0.045625787
0.047343612 0.002772186 -0.01237895 0.93579185 0.0042681899 -0.35252717 0.0001316116
-0.053233664 0.0052653239 -0.01222079 -0.46155885 0.51348799 -0.72339022 0.0036715129
-0.051206667 0.0055580582 -0.013128205 -0.39782372 0.49684513 -0.77128541 0.0036760394
-0.048678976 0.0058003236 -0.014073998 -0.25858793 0.47977921 -0.83841771 0.0050364127
-0.044912454 0.0062863193 -0.014255526 0.047126904 0.62993306 -0.77521831 0.0041118879
-0.042031497 0.0058966549 -0.01387714 0.17238785 0.61968178 -0.76568717 0.00061307714
-0.039058175 0.0055509992 -0.013475885 0.15537652 0.60294133 -0.78250879 0.00078967726
-0.036071956 0.0056121065 -0.012906461 -0.14008148 0.6120916 -0.77828091 0.031383526
-0.033693254 0.0058466075 -0.014137649 -0.53322601 0.50543135 -0.67838717 0.0050061583
0.016149726 0.0061532771 -0.014271534 0.70874947 0.25151819 -0.6591 0.00049829151
0.017625611 0.0054731457 -0.012917381 0.7446022 0.2609311 -0.6143961 0.0016863713
0.030676622 0.0054521654 -0.012209953 -0.82165945 0.32027024 -0.47148979 0.01706999
0.031829968 0.0060093207 -0.013772367 -0.86061984 0.35673347 -0.36342081 0.014594308
0.047336403 0.0055716773 -0.012440666 0.93979204 -0.00596281 -0.34169495 6.7989014e-05
-0.050488424 0.0073397923 -0.012244733 -0.32615021 0.62063271 -0.71305054 0.0064761066
-0.04813258 0.0077393502 -0.012859324 -0.15338057 0.71766669 -0.67928559 0.0064182878
-0.045322079 0.0077365255 -0.012968199 0.016191754 0.71782219 -0.69603819 0.0056575374
-0.042391527 0.007525689 -0.012363798 0.15274808 0.72559917 -0.67095 0.0024324325
-0.039455928 0.0073130736 -0.012129854 0.12212201 0.70174962 -0.70187873 0.004901533
-0.034863159 0.0071444726 -0.011744297 -0.32078734 0.62627357 -0.71054691 0.034792878
-0.033053339 0.0081518646 -0.012920352 -0.58852643 0.58137518 -0.56181812 0.0051552281
-0.031155672 0.0091551486 -0.014012348 -0.57482678 0.53901255 -0.61566198 0.0019262007
0.015624366 0.0089597078 -0.013632745 0.63154507 0.47537252 -0.61251271 0.0082962364
0.017103381 0.0079224519 -0.012647865 0.70682776 0.43449789 -0.55821693 0.0036962568
0.031198651 0.0071405536 -0.011903948 -0.77261925 0.46238118 -0.4350439 0.014474003
0.032462746 0.0083539756 -0.013080812 -0.8221792 0.41263562 -0.39211386 0.014896622
0.04731594 0.0083669014 -0.012615741 0.94186908 -0.013577752 -0.33570555 6.5090695e-05
-0.031708397 0.010245516 -0.012229658 -0.60671878 0.59979749 -0.52166593 0.0010457875
-0.029929377 0.011178746 -0.012973251 -0.55696094 0.63715595 -0.532754 0.0008878198
-0.027792975 0.012291238 -0.013718701 -0.51455933 0.6702736 -0.53475404 0.0006453495
0.0099568842 0.01266007 -0.014202154 0.4826133 0.51707202 -0.70690942 0.0010506411
0.012090593 0.011846334 -0.013553237 0.48909292 0.57285535 -0.65774226 0.0015222782
0.01433928 0.010845086 -0.012928289 0.54734808 0.60610491 -0.57710218 0.0024047366
0.033765674 0.010734753 -0.01249829 -0.73047161 0.62854189 -0.26710716 0.0079829628
0.034832217 0.011770594 -0.013123504 -0.70124221 0.67904276 -0.21716423 0.0091733299
0.047298804 0.011471925 -0.012762422 0.94071978 -0.00056293566 -0.33918425 7.2204974e-05
-0.026758518 0.01381912 -0.012816127 -0.48108777 0.69219655 -0.53797632 0.00090829952
-0.024350204 0.014846806 -0.013395298 -0.44498906 0.69918907 -0.55957079 0.00070164423
-0.022056829 0.015553967 -0.014148033 -0.4607262 0.67707872 -0.573843 0.0010700299
0.0068560997 0.015749753 -0.014378226 0.50106907 0.52695912 -0.68647212 0.00084321131
0.008983993 0.014740105 -0.013408208 0.49418077 0.52900839 -0.68988079 0.00073350209
0.011248781 0.013909007 -0.012309234 0.5132823 0.56889319 -0.64257437 0.0023030618
0.036970131 0.013617362 -0.013524867 -0.58466959 0.80191278 -0.1228713 0.0016237791
0.038870212 0.015031575 -0.013124949 -0.5073514 0.84504795 -0.16878544 0.0020265274
0.040378563 0.015787035 -0.013570077 -0.45778111 0.8716405 -0.17515521 0.0020776712
0.04718231 0.014782478 -0.012876264 0.82768971 0.26771125 -0.49321452 0.030931048
-0.023308318 0.016475365 -0.012147374 -0.45702615 0.70430309 -0.54321653 0.0010573227
-0.020998806 0.017415162 -0.01293718 -0.44807091 0.73156446 -0.51385397 0.0012278899
-0.018286094 0.018532764 -0.013807598 -0.35525289 0.75903744 -0.54557997 0.0031687159
0.0032966211 0.01869962 -0.014225206 0.35197568 0.64389974 -0.67934245 0.0015430617
0.0057261521 0.01781765 -0.01331631 0.46305603 0.59565407 -0.6563347 0.00021397612
0.0082139121 0.016855795 -0.012331574 0.51219642 0.55630314 -0.65435588 0.00067737058
0.04200086 0.016751129 -0.012885905 -0.36183968 0.91013956 -0.20178691 0.0016460199
0.044145156 0.017462023 -0.013175345 0.0081100874 0.90070873 -0.43434769 0.10566861
0.046971105 0.017257858 -0.012528375 0.53715289 0.59263051 -0.60021311 0.090386868
-0.017508186 0.01970192 -0.012359668 -0.33306128 0.8355124 -0.43702313 0.0039018593
-0.015060599 0.019931704 -0.013445973 -0.25371635 0.82052588 -0.51221615 0.0045256256
-0.01237133 0.020699028 -0.013415027 -0.23025741 0.85424453 -0.46609864 0.0050712503
-0.009265393 0.021376271 -0.013503426 -0.15379365 0.8835336 -0.44239786 0.0040699542
-0.0061601014 0.021676511 -0.013670382 0.00026284167 0.84104699 -0.54096204 0.0042910171
-0.0029709837 0.02142695 -0.013404058 0.12127706 0.8054257 -0.58015627 0.0010384048
0.00012126006 0.020799 -0.013436642 0.22053999 0.74228257 -0.63275486 0.002297349
0.0027519912 0.020343021 -0.012978305 0.33467034 0.69826269 -0.63279134 0.0026378534
0.0049016736 0.019839201 -0.012129671 0.45032641 0.65840101 -0.60308731 0.0018510609
-0.0086771538 0.022088319 -0.012009657 -0.17496341 0.90028012 -0.39860192 0.0013596355
-0.0052551571 0.022730958 -0.011697254 -0.064842835 0.91264588 -0.40357524 0.0039339159
-0.0043196087 0.022728734 -0.011732555 0.028532334 0.89916134 -0.43668622 0.0030524535
-0.00026762672 0.022097774 -0.011855952 0.16674653 0.81228691 -0.55891454 0.0010643315
-0.053630706 -0.044261858 -0.0088625317 -0.34507972 -0.74314219 -0.57328844 0.0043501924
-0.051234547 -0.044492919 -0.0093349647 -0.097615361 -0.78241032 -0.61506534 0.0059088231
-0.048702728 -0.044497002 -0.0091967005 0.16838777 -0.76686364 -0.61932689 0.0042522536
-0.056539126 -0.041779064 -0.0093917316 -0.51848829 -0.5568738 -0.64889252 0.0018524739
-0.054179251 -0.04233814 -0.010427984 -0.37290448 -0.60637712 -0.70231688 0.0032312083
-0.051461276 -0.042977314 -0.010893224 -0.2317429 -0.74642664 -0.62381291 0.013115728
