# .PCD v0.7 - Point Cloud Data file format
VERSION 0.7
FIELDS x y z normal_x normal_y normal_z curvature
SIZE 4 4 4 4 4 4 4
TYPE F F F F F F F
COUNT 1 1 1 1 1 1 1
WIDTH 553
HEIGHT 1
VIEWPOINT 0 0 0 1 0 0 0
POINTS 553
DATA ascii
-0.0095753064 -0.035782568 0.00026663824 -0.84194052 -0.30266058 -0.44669089 0.0039580907
0.041553855 -0.035757259 0.00031212426 0.73399001 -0.18687254 -0.6529451 0.00045016495
0.04319549 -0.034510262 0.0020750929 0.56204325 -0.31610167 -0.76432133 0.025651826
-0.01037205 -0.032591335 0.00073147833 -0.9167074 -0.14490783 -0.37235641 0.0029834488
0.041881293 -0.032810986 -4.7640468e-05 0.70105606 -0.20491193 -0.68303108 0.0025304472
0.043623701 -0.032031961 0.0015538801 0.26684138 -0.48965731 -0.8300792 0.029832898
0.047281493 -0.031607747 0.0015179445 -0.067967281 -0.60426575 -0.79387873 0.0045316177
0.050155398 -0.031810872 0.0013979927 -0.042020667 -0.62474352 -0.77969855 0.00075853447
0.052823942 -0.031846955 0.0012774635 0.34445298 -0.57556349 -0.74167299 0.025955971
-0.010522336 -0.029818757 0.00023085962 -0.90445727 -0.090937532 -0.41675812 0.0046764482
0.042168379 -0.029986257 -0.00036921416 0.63633668 -0.19459645 -0.74646354 0.0057949051
0.044107955 -0.029477639 0.0007104025 0.098007232 -0.4453564 -0.88997322 0.050438177
0.046814531 -0.029732039 0.00014322065 -0.11594364 -0.56498206 -0.81691641 0.0084414277
0.050047025 -0.029788515 -0.00015899847 -0.048063736 -0.61801463 -0.78469592 0.00039715084
0.053055257 -0.029731898 -0.0001958416 0.35322297 -0.59948581 -0.71822721 0.035378452
0.054861117 -0.028658429 0.0019454826 0.3890456 -0.56503105 -0.7275874 0.029797453
-0.010945953 -0.026474822 0.00065864145 -0.85296899 -0.15158053 -0.49946699 0.011907197
0.042249519 -0.027494827 -0.00060669892 0.45792556 -0.34749264 -0.81826222 0.023580799
0.043822441 -0.027382309 -0.00038664753 0.071757369 -0.48730427 -0.87027895 0.058354147
0.054511152 -0.027176032 -0.00055585615 0.31512374 -0.66756392 -0.67457801 0.027111126
0.054616883 -0.027878026 0.00019987114 0.36984304 -0.60662442 -0.70372075 0.032033227
-0.012461635 -0.022330103 0.0019200388 -0.35623893 -0.22309349 -0.90737152 0.028001929
-0.010921881 -0.02346704 0.00093956478 -0.80137491 -0.023106061 -0.59771591 0.013783703
-0.017817046 -0.019576499 0.0019932855 -0.26166889 -0.19751334 -0.94473171 0.0027788021
-0.015692271 -0.020258466 0.0018111179 -0.1916897 -0.2397818 -0.9517141 0.0026344906
-0.012940826 -0.020524973 0.0015537348 -0.278063 -0.2481249 -0.92796278 0.0064995955
-0.010608521 -0.020689741 0.00041326217 -0.70117497 -0.050704535 -0.71118402 0.024031902
-0.018000947 -0.017349252 0.001946151 -0.30618528 -0.19256732 -0.93229198 0.0031197853
-0.01585448 -0.01760048 0.0014056575 -0.25078684 -0.23224342 -0.9397707 0.0032456093
-0.012917412 -0.017550413 0.00041890028 -0.27117199 -0.29887715 -0.91495258 0.0032123919
-0.010430088 -0.017519338 -0.00018755742 -0.54653275 -0.18627128 -0.81645882 0.018629372
-0.018708194 -0.014621746 0.001472184 -0.4087849 -0.20666654 -0.88892287 0.0028005156
-0.015823973 -0.014635364 0.00029935432 -0.35525674 -0.28376117 -0.89065838 0.0019499807
-0.013105116 -0.014926404 -0.00041906076 -0.28241977 -0.35034788 -0.89302605 0.0013820574
-0.010959233 -0.015557775 -0.00071467273 -0.42090303 -0.3257561 -0.84659535 0.014794238
-0.02106454 -0.010493109 0.0020591486 -0.54562593 -0.056706913 -0.83610809 0.0023985535
-0.019085389 -0.011757063 0.0011249685 -0.44436333 -0.12944129 -0.88644588 0.00098516652
-0.016200399 -0.011882061 -0.0003429252 -0.39341316 -0.20076875 -0.89717227 0.0032643361
0.027075227 -0.010395037 -0.00084049813 0.18916827 0.55742753 -0.80838722 0.0015813188
0.029025335 -0.010401959 -0.0006360691 0.092827559 0.56073678 -0.82277417 0.00052682334
0.031923357 -0.010722619 -0.00068347267 0.039651938 0.5662666 -0.82326776 8.0193437e-05
0.035158727 -0.010726664 -0.0005662035 -0.059499428 0.5441525 -0.83687389 0.0033817883
0.037306864 -0.010618676 -0.00058408885 -0.66166925 0.23751777 -0.71118152 0.047897544
-0.021062938 -0.0091937128 0.0020191439 -0.55956173 0.012517754 -0.82869411 0.0015401399
-0.019075608 -0.0085104713 0.00084582577 -0.49240485 -0.056942593 -0.86850154 0.00083808054
-0.016608607 -0.008418248 -0.00047297837 -0.47655615 -0.074749812 -0.87596047 0.00039864509
0.020190781 -0.0073066475 -0.00062119478 0.31651407 0.34662798 -0.88298798 0.01555886
0.023132794 -0.0079565272 -0.00013508648 0.24141815 0.50678313 -0.82757974 0.0026899017
0.026187828 -0.0084921177 0.00025938894 0.172521 0.51105088 -0.84205908 0.0011006258
0.029050019 -0.0084417453 0.0006497287 0.10495815 0.50906938 -0.85430211 0.0014835945
0.03205638 -0.0085094897 0.00086087955 0.04777154 0.542436 -0.83873779 0.000430949
0.035116527 -0.0085980324 0.00086943991 -0.091838934 0.48612282 -0.86905134 0.010718898
0.037283737 -0.0083461842 0.00036093895 -0.71404946 0.32462102 -0.62028599 0.031751424
-0.019074235 -0.0055972207 0.00080143102 -0.53569537 -0.077585645 -0.84083945 0.0027313316
-0.016812129 -0.0057042269 -0.00059649802 -0.50037467 -0.13045014 -0.8559252 0.0010029412
0.017796014 -0.0054762405 -0.00066941924 0.28683561 -0.080391347 -0.95460075 0.052453164
0.020031493 -0.0055784462 -3.0217692e-05 0.27344498 0.028778778 -0.96145701 0.057228848
0.022993814 -0.0055977115 0.00083282928 0.19516458 0.13752793 -0.97108018 0.029578095
0.025961936 -0.0056150565 0.0016165562 0.25775 0.11455602 -0.9593966 0.026335366
0.028496647 -0.0061892867 0.0019070636 0.29770339 0.036328152 -0.95396698 0.03880683
0.030860782 -0.0065985266 0.0020528007 0.19116071 0.16809972 -0.96705741 0.04039818
0.036055516 -0.0065990929 0.0020761359 -0.14898917 0.37957561 -0.91308516 0.016953368
0.037390698 -0.0057342243 0.0011431207 -0.73675096 0.20225127 -0.64520723 0.034926374
-0.021238241 -0.0024220566 0.001766311 -0.59351814 -0.16416359 -0.78790003 0.00017825015
-0.019107522 -0.0027301772 0.00022087432 -0.56439376 -0.15872523 -0.8101024 0.00083145819
-0.017080277 -0.0039485041 -0.00086198561 -0.50751191 -0.13029179 -0.85173684 0.00077432377
0.018050604 -0.0039488841 -0.00084100477 0.25125691 -0.39756897 -0.88250148 0.02822178
0.020220723 -0.0037406851 -0.00047457032 0.21085931 -0.35944274 -0.90903199 0.025499916
0.023031598 -0.0033649718 -8.2129263e-06 0.20861407 -0.56911361 -0.7953552 0.0075882585
0.02622604 -0.0028026109 0.00036309136 0.22555287 -0.60580701 -0.76297033 0.0062245214
0.028985787 -0.0026183403 0.00080228748 0.22758189 -0.53505474 -0.81358647 0.010701694
0.031906202 -0.0020860946 0.001121049 0.16331571 -0.57015705 -0.80513906 0.00959389
0.035017949 -0.0017220769 0.0013879817 -0.056936666 -0.54964077 -0.8334586 0.015869608
0.037795845 -0.0024888222 0.00066726841 -0.73944712 -0.26141211 -0.62038839 0.054286845
-0.021584429 0.00069604116 0.0013377147 -0.59165496 -0.20361489 -0.78005469 0.00059631519
-0.019411454 0.00049040199 -0.00021202205 -0.51295233 -0.17549157 -0.84028721 0.0015877474
0.029653523 -0.00072577782 -0.00084255449 0.20420448 -0.69288349 -0.69152957 0.00066296902
0.032198384 -0.00048968941 -0.00030439533 0.19311114 -0.67328817 -0.71371645 0.00056533504
0.035114333 -4.2890548e-05 -5.549856e-05 0.026747068 -0.63092923 -0.77537912 0.010515532
0.037976574 -0.00013758591 -0.00016757089 -0.49310803 -0.41399404 -0.76514924 0.056803267
-0.023646144 0.004435068 0.001740681 -0.58475745 -0.31656328 -0.7468912 0.0032729909
-0.021920107 0.0035272692 0.00077715004 -0.57747751 -0.32298499 -0.74980026 0.0027537043
-0.019913258 0.0032218527 -0.00052132644 -0.53818101 -0.33089542 -0.77515769 0.004145822
-0.024488678 0.0066422923 0.00099964801 -0.59311265 -0.36758181 -0.71631068 0.00043065782
-0.022323322 0.0058988021 -0.00022539718 -0.55652833 -0.3877362 -0.73480392 0.00065275957
-0.026888344 0.0096233394 0.0017273296 -0.64555103 -0.26223272 -0.71728504 0.0020422274
-0.025033072 0.0093766646 0.00025659089 -0.62290108 -0.28290525 -0.7293551 0.0015746497
-0.027197391 0.012211733 0.0014433314 -0.69756186 -0.20780768 -0.68572843 0.0020360635
-0.025679728 0.012241439 -1.0213582e-05 -0.66683525 -0.25005209 -0.70200056 0.0012083355
-0.036553327 0.016732212 0.00089690776 -0.12098937 -0.97318912 -0.19561337 0.0025380766
-0.033980202 0.016739637 0.0011382806 -0.060464419 -0.96650773 -0.24941316 0.0026484844
-0.031042185 0.016727554 0.00074514933 -0.15786532 -0.93214071 -0.32587162 0.014766732
-0.027755328 0.015629523 0.00055449083 -0.53147727 -0.49211973 -0.68945634 0.020925006
-0.025961887 0.014592281 -0.00050553493 -0.63648075 -0.38682297 -0.66727829 0.0089218896
-0.042538602 0.018759647 0.00028572662 -0.41140863 -0.87006694 -0.27152628 0.0013781935
-0.040089969 0.017694013 0.00063190795 -0.28197199 -0.92728961 -0.246223 0.00302284
-0.038057152 0.017333811 -0.00051836483 -0.16298649 -0.95611727 -0.24346498 0.0030579432
-0.028693255 0.017328542 -0.00068130408 -0.30499086 -0.7476328 -0.58993715 0.033420738
0.029193357 0.019002106 -0.00026265666 0.41238779 0.50808293 -0.7561667 0.026590286
0.032063074 0.018684521 -0.00013104535 0.071262635 0.7519533 -0.65535325 0.0055693029
0.035045251 0.018802492 -5.3647265e-05 -0.10328665 0.80520397 -0.58393365 0.0051241652
0.037592534 0.019111814 -0.00041361712 -0.43184921 0.77375042 -0.46348301 0.022631031
-0.051515058 0.022587169 0.001555708 -0.1918692 -0.9067651 -0.37545082 0.010714918
-0.049063276 0.022279143 0.00046188128 -0.34198052 -0.85909373 -0.38079816 0.0067235539
-0.046207163 0.02091659 0.00034909637 -0.46840206 -0.82292825 -0.32154101 0.0013014661
-0.044190504 0.019916272 -0.00046558492 -0.45873696 -0.82892555 -0.3200669 0.0010956911
0.027342591 0.021220528 -0.00014338706 0.78094739 0.25773242 -0.56894213 0.018112097
0.028891072 0.020785512 0.0010742762 0.53697455 0.48286158 -0.69173914 0.040290099
0.031892475 0.02009871 0.0014668722 0.12348843 0.75551945 -0.64338249 0.0058772299
0.035028227 0.019991877 0.0015014056 -0.058090109 0.80680692 -0.58795255 0.005111658
0.03812268 0.020209972 0.00085300021 -0.28017431 0.83085823 -0.48080862 0.012523522
0.040286455 0.021499386 0.00034832838 -0.61595279 0.72067529 -0.31816539 0.057177093
-0.064178683 0.025718344 -0.00055478327 0.8669517 0.49243569 0.076823562 0.025450256
-0.060934316 0.023776362 -0.00069753639 -0.37713447 -0.91522247 -0.14190626 0.029938625
-0.058069259 0.023467449 -0.00040447526 -0.060989466 -0.97579426 -0.2100139 0.0032667683
-0.05225262 0.023141252 -0.00048669986 -0.13803378 -0.93150789 -0.33651096 0.0070770909
0.027286127 0.024646038 0.00012556545 0.86414921 0.093901806 -0.49439728 0.0043946882
0.028249264 0.023573617 0.001854213 0.86512083 0.14003059 -0.48161948 0.0042064865
-0.064821765 0.027652724 -0.00056840293 -0.91367728 -0.32284707 -0.24690779 0.007728273
0.027024081 0.027141469 -8.99515e-05 0.88647592 0.076992169 -0.4563252 0.00016449802
0.027562859 0.028086202 0.0013544727 0.88946927 0.079455771 -0.45003477 9.2760522e-05
-0.065673284 0.030321969 0.00084524043 -0.95298851 -0.20455101 -0.2235439 0.00058849162
-0.065418415 0.030856496 -0.00089968555 -0.95297724 -0.20456946 -0.22357489 0.00062361878
0.026824715 0.030277615 0.00013285165 0.87628365 0.11237067 -0.46850806 0.000319126
0.027599266 0.030384898 0.0018377411 0.88830066 0.095762357 -0.44916758 0.00014113664
0.026425954 0.033636905 0.00029417919 0.85487998 0.15466979 -0.49523473 0.00063694984
0.02588875 0.036449678 0.0005799277 0.7968654 0.27726778 -0.53677565 0.001486729
0.023864338 0.039959714 2.5165675e-05 0.75611103 0.38324216 -0.53049195 0.0012843489
0.025321905 0.039055407 0.0012212796 0.73873234 0.37645262 -0.55906892 0.00086748361
0.022886133 0.042406373 0.00069883768 0.72225475 0.47870514 -0.49918887 0.0023538757
0.020564359 0.045626134 0.00040003634 0.74562621 0.4978914 -0.44288334 0.00032422456
0.022066474 0.044303335 0.0015377272 0.72885746 0.52253175 -0.44241095 0.0020131213
0.017514795 0.049076989 0.00021001638 0.60244232 0.62580818 -0.49540627 0.0019350094
0.019357666 0.047644734 0.00062560919 0.68111455 0.57439727 -0.4540382 0.0019639621
0.014267188 0.051611207 0.00024325668 0.54699993 0.69960624 -0.45971981 0.0020220152
0.016652655 0.050651021 0.0012929111 0.55693728 0.66942257 -0.49162424 0.0013467513
0.0093481587 0.055355236 -0.00084416382 0.3607792 0.74579173 -0.56002945 0.0045752292
0.01125087 0.054772332 0.00024882972 0.53474694 0.67552459 -0.50765377 0.0051676868
0.012951776 0.053266682 0.00058199652 0.62606442 0.64472795 -0.43859917 0.0014490054
-0.021189615 0.058017813 -0.00019528781 0.68377036 0.61325711 -0.39544132 0.01253841
-0.019053688 0.056874439 0.00024261617 0.13306664 0.8692345 -0.47615612 0.039196201
-0.015825747 0.057640694 0.00038623693 -0.28981569 0.82689631 -0.48192257 0.0076672086
-0.013226936 0.058657758 -0.00023595802 -0.32399857 0.83660859 -0.44171372 0.002095775
0.0022662308 0.058652863 -0.00027344935 0.39742026 0.82912022 -0.39321357 0.0014770495
0.0049583632 0.057283863 0.00055775873 0.35119268 0.84165871 -0.4102124 0.0063129803
0.0082391305 0.056512378 0.00038347335 0.29582897 0.82578188 -0.48017645 0.0040160571
0.0100527 0.056220502 0.00092764385 0.42618245 0.76480508 -0.48315805 0.0083468324
-0.060321413 0.061209679 -0.00045721047 -0.4543052 0.68524504 -0.56925035 0.047892477
-0.045730677 0.0615559 0.0020729769 -0.15666695 0.92626464 -0.34276709 0.01933549
-0.023525372 0.06115213 -0.00087769143 0.74243957 0.58476907 -0.32684648 0.0038888371
-0.02241832 0.060157284 0.00035092118 0.71143878 0.62917602 -0.31303743 0.0066257119
-0.012604564 0.059456564 0.000923104 -0.28080827 0.8706435 -0.40388924 0.0025295392
-0.01011448 0.059814371 0.00036639662 -0.16798988 0.89401269 -0.41535607 0.0033728573
-0.0067751147 0.060055301 0.00055985933 -0.044035818 0.92294925 -0.38239434 0.00076468324
-0.0038660024 0.060015418 0.0002616886 -0.023800477 0.92502058 -0.37917066 0.00026830763
-0.00095499959 0.060024537 0.000329845 0.17250101 0.90913361 -0.3791033 0.0035479153
0.0013123418 0.059436016 0.00076769479 0.335482 0.87605399 -0.34638318 0.0048423917
-0.043031428 0.062695332 0.00094315095 -0.38851532 0.88244182 -0.26524001 0.001380968
-0.04004411 0.063547373 9.9690631e-05 -0.29215741 0.93609893 -0.19586439 0.0037755342
-0.034586765 0.064581059 0.00054870732 -0.063357204 0.97932231 -0.19212918 0.0043404587
-0.03002104 0.064492621 -6.3193962e-05 0.16752277 0.95311844 -0.25199515 0.0050789975
-0.027764488 0.063858226 1.6586855e-05 0.38990474 0.87124676 -0.29816687 0.0045751282
-0.024566013 0.062656321 0.00066057034 0.58963811 0.77561861 -0.22526126 0.008270991
0.0062681017 -0.052418478 0.0049684513 -0.30804098 -0.63358116 -0.70970809 0.0010162337
0.00850162 -0.052788377 0.0041754846 -0.26009697 -0.64580846 -0.71783078 0.0013220836
0.011118578 -0.052883841 0.0035561267 -0.053626861 -0.69719756 -0.71487045 0.0068814154
0.013920969 -0.052848153 0.0040412806 0.18653858 -0.7104643 -0.67856026 0.0023495918
0.016063597 -0.052397139 0.0048069824 0.22420889 -0.71024287 -0.66729724 0.001418838
-0.0035357759 -0.049550049 0.0046791006 -0.45769641 -0.67309141 -0.5809148 0.0044493419
-0.0007662673 -0.050162919 0.0039290283 -0.24932584 -0.80170125 -0.54324186 0.0059692063
0.0020008518 -0.050291084 0.0036509554 -0.10864656 -0.79936934 -0.59093535 0.0015609777
0.0050486838 -0.05045069 0.0037026382 -0.21901856 -0.71243525 -0.66668361 0.0056182286
0.007908077 -0.050760053 0.0029153058 -0.26990417 -0.60452503 -0.74946731 0.00053215341
0.011071215 -0.051409274 0.0022470001 -0.070898443 -0.62792808 -0.77503538 0.0066960054
0.014233173 -0.051368795 0.0027656574 0.15591742 -0.68061286 -0.71586025 0.0035019359
0.017096739 -0.051022843 0.0032679876 0.17914592 -0.71813762 -0.67244709 0.0018756384
0.020012526 -0.050694257 0.0034086043 0.13157797 -0.75158483 -0.64638036 0.0006403969
0.02306444 -0.050208487 0.0033706892 0.18216735 -0.75365216 -0.6315248 0.0016931839
0.025928868 -0.049923964 0.0041917432 0.28149861 -0.74129033 -0.60930055 0.0014347888
0.028147999 -0.049127765 0.0047839452 0.20945263 -0.73942089 -0.63983303 0.0050058649
-0.0057556462 -0.047005996 0.0045192111 -0.58133686 -0.52469516 -0.62188625 0.00068911415
-0.0039288136 -0.047687128 0.0033156783 -0.50047266 -0.58959848 -0.63395643 0.0037671283
-0.0017519973 -0.048689455 0.0025683735 -0.35109696 -0.65129298 -0.67271721 0.0093194367
0.024386829 -0.048818342 0.0022993553 0.21371928 -0.73130274 -0.64770389 0.0037968531
0.026165951 -0.048466027 0.0029495889 0.28044081 -0.7342146 -0.61828947 0.001946687
0.029173706 -0.047760993 0.0034552799 0.17681208 -0.76806927 -0.61547309 0.0056802961
0.031962998 -0.047749706 0.0032137339 0.046101585 -0.74261361 -0.66813153 0.0029216763
0.034941617 -0.047390625 0.0033737319 0.32458565 -0.72850567 -0.60326076 0.0074969647
0.037369359 -0.04657159 0.0038862098 0.44080308 -0.69852525 -0.5636977 0.0064589106
-0.0087612709 -0.043246321 0.0047650207 -0.62313426 -0.37079325 -0.6886335 0.0065383594
-0.0068841325 -0.044669583 0.0038816738 -0.60455525 -0.43905693 -0.66463667 0.0061173094
-0.0048384042 -0.045595758 0.002510028 -0.55388665 -0.51986265 -0.65034795 0.0017655973
0.03838814 -0.044998966 0.0029662582 0.45267743 -0.64045793 -0.62040049 0.0042708041
0.040807333 -0.044097558 0.0040353024 0.54750234 -0.62769544 -0.55338919 0.0029756664
-0.0091634262 -0.041308634 0.0042001028 -0.75184858 -0.3308073 -0.57034224 0.013786285
-0.007766447 -0.04239805 0.0029765759 -0.68778682 -0.41975012 -0.59224921 0.0054564714
0.041318458 -0.042289391 0.0027249586 0.6020658 -0.48448536 -0.63465798 0.0068438095
0.043156512 -0.041277029 0.0039017554 0.69119358 -0.44464302 -0.56968766 0.0056681731
-0.0098079387 -0.038804024 0.0036161486 -0.8534264 -0.28433403 -0.43682659 0.0086801052
0.043751612 -0.038550615 0.00353703 0.65966636 -0.21581881 -0.71990454 0.0079289079
-0.0108373 -0.03545218 0.0038296687 -0.87132311 -0.24650106 -0.42430326 0.0081707314
0.044344805 -0.035625428 0.0035977256 0.42270595 -0.37336954 -0.82578135 0.019483518
0.047122218 -0.035475485 0.004407709 0.026080294 -0.4977943 -0.86690289 0.0096313832
0.049964275 -0.03568732 0.0042523774 -0.0050138743 -0.54201627 -0.84035307 0.0017479494
0.052826159 -0.035615787 0.004185616 0.27035809 -0.56889778 -0.7766993 0.025505578
0.054602962 -0.034101434 0.0047693122 0.26871601 -0.54837519 -0.7918815 0.025336998
-0.011370097 -0.032773986 0.0045221616 -0.68560159 -0.26806054 -0.67682642 0.052172944
0.044583119 -0.032955371 0.0028478198 0.33123249 -0.4830927 -0.81049776 0.025111094
0.047017667 -0.03324236 0.0029088028 0.069434918 -0.54762185 -0.83383995 0.01440757
0.050106611 -0.033602662 0.002819689 -0.042151034 -0.60543352 -0.79477888 0.001125875
0.053146921 -0.033333711 0.0027873602 0.21669652 -0.63719124 -0.73961467 0.018456994
-0.01855647 -0.028867604 0.0046629002 -0.28520933 -0.34264803 -0.89512455 0.0039249691
-0.015883967 -0.029450743 0.0044594225 -0.067563869 -0.34861094 -0.93482912 0.0018058242
-0.013002462 -0.029365411 0.0045284019 -0.20862009 -0.32911879 -0.92095518 0.017037131
-0.01134696 -0.029727792 0.0031540859 -0.85901958 -0.15417789 -0.48817474 0.01396021
-0.020923221 -0.0263358 0.0046470035 -0.39060628 -0.28446186 -0.87550455 0.0013576172
-0.018855905 -0.026525369 0.0038716309 -0.2573899 -0.26817596 -0.92834914 0.0035235616
-0.015912227 -0.026500011 0.0035180855 -0.078220256 -0.28610271 -0.95500094 0.0011624368
-0.012981717 -0.026500249 0.0035191048 -0.37026498 -0.30336574 -0.87799382 0.026754415
-0.011340734 -0.028072843 0.0027859379 -0.64594692 -0.24207658 -0.72398305 0.049422644
-0.021692334 -0.023531869 0.0042603691 -0.40205282 -0.20021652 -0.89345783 0.00094623212
-0.018835058 -0.023553327 0.0032725935 -0.25543866 -0.228479 -0.93944049 0.002420444
-0.015893238 -0.023524322 0.002820909 -0.11981816 -0.2633785 -0.95722276 0.0013180292
-0.013083827 -0.023792686 0.002574617 -0.34873742 -0.21261777 -0.9127847 0.027661277
-0.02379228 -0.020718196 0.0049090032 -0.48423231 -0.11443141 -0.86742407 0.00040408311
-0.021786639 -0.020653866 0.0037920494 -0.42983684 -0.1381278 -0.89227849 0.001212669
-0.018875778 -0.020648465 0.0025706638 -0.27040172 -0.2059208 -0.94046772 0.0024196212
-0.016397536 -0.021410346 0.0022734334 -0.14484094 -0.24944614 -0.95749557 0.00069360429
-0.024030946 -0.017525455 0.0047695395 -0.51322871 -0.099343866 -0.85248291 0.00015074553
-0.022104548 -0.01771188 0.0036120745 -0.44818127 -0.11426828 -0.88660938 0.0019691666
-0.01956505 -0.017761718 0.0024623079 -0.35157382 -0.13522521 -0.92634225 0.0024007757
-0.024325712 -0.014341725 0.0044905986 -0.54815382 -0.096296623 -0.83081549 0.00029686134
-0.022085 -0.014434891 0.0031501101 -0.49769044 -0.11476896 -0.85972804 0.00055980956
-0.020294264 -0.014916899 0.0022840728 -0.44595799 -0.15368274 -0.88176137 0.0013345437
-0.024418978 -0.011549086 0.0043368186 -0.58663124 0.0029201386 -0.80984896 0.0018651369
-0.022133915 -0.01155747 0.0027702162 -0.54086852 -0.051416006 -0.83953422 0.002508194
-0.024265142 -0.008781204 0.004537065 -0.60734552 0.08338818 -0.79004931 0.00081360922
-0.022249965 -0.0084578097 0.0029791358 -0.59358239 0.063466124 -0.80226684 0.00049665477
-0.023996752 -0.0054644961 0.0046195905 -0.65257728 -0.041175518 -0.75660259 0.0037780115
-0.022082152 -0.0056478577 0.0030744709 -0.62982762 -0.042717326 -0.77555937 0.0039012178
0.029204458 -0.0052517238 0.0023082613 0.2557033 -0.018351048 -0.96658117 0.038537141
0.032270718 -0.0055844472 0.002555853 0.064618342 0.075092554 -0.99508077 0.038513761
0.035067722 -0.0055722324 0.0026234358 -0.15390739 0.10410791 -0.98258543 0.042822748
0.036718667 -0.0049793143 0.0022212137 -0.47538906 0.093354352 -0.87480861 0.053000219
-0.024367943 -0.0026450111 0.0042444677 -0.63453227 -0.17629315 -0.75252211 0.00047055003
-0.022500247 -0.0028678365 0.0029203715 -0.60939032 -0.16996272 -0.77443922 0.00012507754
0.029900391 -0.0040052775 0.0022153724 0.18418586 -0.30223709 -0.93526912 0.015117567
0.032456964 -0.0036207619 0.0024945128 0.1227321 -0.29814836 -0.94659615 0.016955327
0.035129189 -0.0033625779 0.0025857482 -0.23359995 -0.15212183 -0.96035939 0.031316545
0.036718309 -0.0036807377 0.0022175033 -0.33043975 -0.23639297 -0.91374391 0.024444606
-0.024875121 0.00061543984 0.0039427974 -0.60915625 -0.19533645 -0.76861715 0.00074231304
-0.022844167 0.00025947741 0.0024610499 -0.60991561 -0.19767319 -0.76741666 0.00058379717
-0.027315883 0.0039170082 0.0048146057 -0.57429606 -0.31056607 -0.75745142 0.0015890615
-0.025097374 0.0034091882 0.0034486707 -0.58548987 -0.30475008 -0.75121832 0.0023051903
-0.023013132 0.0024882462 0.0020899642 -0.58582979 -0.28368372 -0.75916207 0.0022659202
-0.029678265 0.0073811095 0.0049905647 -0.62994307 -0.28747043 -0.7214793 0.0022609301
-0.027879139 0.0065023694 0.003970772 -0.59306288 -0.31032005 -0.74295223 0.0016263374
-0.02589082 0.0058179125 0.0028227102 -0.57576895 -0.35571048 -0.73617935 0.00083099637
-0.029785881 0.0095327552 0.0046049403 -0.70093787 -0.14860187 -0.69756973 0.0026703444
-0.028159937 0.0092409505 0.0030232742 -0.66053766 -0.22977789 -0.71476722 0.0038364229
-0.029969135 0.012270778 0.0043938505 -0.74412823 -0.13844438 -0.65353382 0.0022465398
-0.028575841 0.012240248 0.002868836 -0.70343632 -0.19248752 -0.68419725 0.0018749492
-0.038675684 0.016800454 0.0031166244 -0.144711 -0.98046809 -0.133196 0.0019972282
-0.036752161 0.016486762 0.0035344381 -0.14470792 -0.98046869 -0.13319489 0.0019976774
-0.033885628 0.016187569 0.0044104252 -0.25803927 -0.90659857 -0.33390826 0.045803539
-0.030511325 0.015467977 0.0038169012 -0.45689946 -0.69927746 -0.54977626 0.051411353
-0.028713221 0.014668023 0.0024371538 -0.57132018 -0.48716912 -0.66049939 0.025559055
-0.044457823 0.019374555 0.0023386944 -0.43877399 -0.85656774 -0.27160439 0.0010959122
-0.040590867 0.017437315 0.0026878882 -0.33480105 -0.93476617 -0.11882918 0.0025597736
0.029729441 0.022087883 0.0031137671 0.54876554 0.57286811 -0.60883367 0.016906638
0.032066353 0.02123169 0.0032518287 0.25174499 0.80049866 -0.54389924 0.014495108
0.03503114 0.021081524 0.0034792791 -0.0039841002 0.90127939 -0.43322006 0.0071408357
0.038024031 0.021273922 0.0031009037 -0.26446247 0.87861925 -0.39760238 0.010708443
0.040088717 0.022018334 0.0034018625 -0.29445323 0.89642996 -0.33122617 0.014992272
-0.060461637 0.023303045 0.003020959 -0.32269508 -0.94001907 -0.11059859 0.034909308
0.029027246 0.024496263 0.003488888 0.86424065 0.17211187 -0.47272152 0.0019946513
0.028738756 0.027377991 0.0035076938 0.8755827 0.087500378 -0.47507754 0.00030913009
0.028738147 0.030519102 0.0039658239 0.89411378 0.099647559 -0.4366129 0.0002841299
0.02803313 0.033404298 0.0032688286 0.8837499 0.14189012 -0.44592974 0.00052755227
0.026997834 0.037247114 0.0024787057 0.85070497 0.21373519 -0.48022738 0.0015680622
0.027948644 0.036110081 0.0039980751 0.88070095 0.19038986 -0.4337253 0.0010807939
0.026550209 0.039659888 0.003264593 0.79494107 0.34818318 -0.49682716 0.0026201326
0.027821336 0.038409531 0.0047854651 0.85349286 0.32700068 -0.40573451 0.0020271989
0.02425882 0.042963147 0.0028096531 0.71542042 0.48847696 -0.49956369 0.0021406347
0.025649935 0.042171158 0.0038357447 0.75877917 0.45849934 -0.46263644 0.0030059877
0.021176977 0.046712913 0.0029224325 0.76407111 0.52654862 -0.37274909 0.0012990093
0.023002623 0.04507596 0.003717748 0.67181325 0.60557187 -0.42655551 0.0026010724
0.020263147 0.048411958 0.003175084 0.73336017 0.55370975 -0.39444691 0.0027153359
0.021943079 0.046903826 0.0048037637 0.75723857 0.55957013 -0.33685452 0.001881863
0.014994106 0.052555211 0.002824368 0.49215242 0.77753234 -0.39144546 0.003227046
0.016978379 0.051981777 0.0034945589 0.51872283 0.73527604 -0.43622896 0.0020186466
0.019159243 0.050611869 0.0040682424 0.67738175 0.61153293 -0.40887815 0.0024417532
0.014055087 0.053734034 0.0036359499 0.54743242 0.74886882 -0.37351474 0.0056337407
-0.01893406 0.058108173 0.0030216742 0.07641726 0.93670225 -0.3416858 0.040722661
-0.016867662 0.058402352 0.0027848054 -0.29164159 0.86203957 -0.41452739 0.0035938087
0.0054518478 0.058371298 0.0035497835 0.32889166 0.87273329 -0.36078638 0.0062537598
0.0079055279 0.058024257 0.0034538889 0.29741514 0.88700712 -0.35321757 0.0040540448
0.01044803 0.056805171 0.003008144 0.53491414 0.78404522 -0.31486505 0.0038896315
-0.021757441 0.060180672 0.0031158295 0.6037935 0.77576745 -0.18335283 0.026249118
-0.015255473 0.059339486 0.0033169654 -0.32030776 0.9054426 -0.27852586 0.0029758108
-0.012871668 0.060232215 0.0035019782 -0.30076391 0.90299559 -0.30682248 0.0020453131
-0.0098305764 0.06086269 0.0033490132 -0.16315308 0.93737054 -0.30776212 0.0020314646
-0.0067920443 0.06110099 0.0035082744 -0.036335561 0.95163101 -0.30508706 0.0018532624
-0.0028890264 0.060969383 0.0025355984 0.066532023 0.95261776 -0.29680449 0.0052434462
-0.00093546882 0.06101945 0.0029056121 0.1711171 0.94402194 -0.28203112 0.0092855478
0.0020397056 0.060124159 0.0031546606 0.34434232 0.8636741 -0.36809692 0.0066251499
0.0038502275 0.059405915 0.0038247774 0.36409268 0.86562771 -0.34369358 0.0066211522
-0.026917979 0.064181589 0.0022780765 0.44455945 0.84851891 -0.28702372 0.010793588
0.0056772949 -0.055410646 0.0076999934 -0.2622892 -0.64599931 -0.71686077 0.003063624
0.0079723494 -0.055704892 0.0074490886 -0.14420019 -0.74099767 -0.65584195 0.0040084245
0.010923244 -0.055675387 0.0072360709 0.0097055221 -0.78228706 -0.62284249 0.0027507667
0.013986087 -0.055446714 0.0071678823 0.13916014 -0.79311717 -0.59295845 0.0020768959
0.016526651 -0.055399694 0.0076208878 0.21665363 -0.75713283 -0.61628813 0.0032892872
-0.00024164002 -0.052129306 0.0077566076 -0.25210577 -0.76816708 -0.58852541 0.0098964833
0.0023053538 -0.053183049 0.0076408852 -0.2728833 -0.62509984 -0.73128992 0.0071611474
0.0049283272 -0.05368422 0.0066978391 -0.30371222 -0.62713408 -0.71725988 0.0012485964
0.0076810345 -0.054089598 0.0058407728 -0.23375215 -0.69164413 -0.68336546 0.005258888
0.010856444 -0.054431751 0.0053530978 -0.021831796 -0.76998812 -0.63768452 0.0026059779
0.014418746 -0.054279372 0.0056050713 0.16011295 -0.74057549 -0.65261918 0.0038824754
0.017180406 -0.053634435 0.0062250621 0.23721905 -0.72704303 -0.64431006 0.0020587449
0.019849686 -0.05328887 0.0065807314 0.20350252 -0.75910211 -0.61834502 0.0021261091
0.022935519 -0.052995563 0.0072009303 0.19924757 -0.80269188 -0.56212652 0.00051349727
0.025845794 -0.052555658 0.007663575 0.15500583 -0.74785805 -0.64550889 0.0041128099
0.029036477 -0.052136868 0.0078144614 0.091919564 -0.67759985 -0.72966379 0.0046577319
0.031350508 -0.052154653 0.0079505611 0.19441633 -0.6208052 -0.75947565 0.0031202266
-0.0062711863 -0.049686067 0.0075059254 -0.35217315 -0.65607637 -0.66748613 0.0098432982
-0.0040246854 -0.050418295 0.0065794531 -0.36378121 -0.75715703 -0.54256487 0.0089126108
-0.001074699 -0.051436722 0.0062157754 -0.24073508 -0.81125838 -0.53282875 0.0053571719
0.0020410006 -0.051957764 0.0064439271 -0.17815766 -0.76639462 -0.61717027 0.010336604
0.0043165954 -0.051826946 0.0054430533 -0.29209572 -0.68705726 -0.66530633 0.0068598008
0.022986254 -0.051871717 0.0057855789 0.1966536 -0.78737307 -0.5842697 0.00041129839
0.026020208 -0.051388085 0.0061836033 0.23537287 -0.75464571 -0.61246186 0.0026655525
0.029113099 -0.050362729 0.0062694638 0.17578588 -0.68761599 -0.70447403 0.0039351261
0.031983297 -0.05042059 0.006832392 0.19250037 -0.68984944 -0.69789058 0.0082386304
0.034667693 -0.049856499 0.0073340777 0.37012634 -0.63991678 -0.67343378 0.0076738261
-0.012244246 -0.046684355 0.0076033045 -0.54054964 -0.37055728 -0.75531024 0.006668428
-0.010020223 -0.047423989 0.0072563346 -0.34049958 -0.47845742 -0.80940628 0.0031459683
-0.0071619749 -0.047839813 0.0063704462 -0.38141522 -0.54575646 -0.74610478 0.0052371714
0.035944972 -0.048469074 0.006068917 0.33561572 -0.77223474 -0.53945863 0.0063537275
0.03808444 -0.04767333 0.0066463603 0.47427949 -0.73551029 -0.48382196 0.0024888907
0.040521808 -0.046511665 0.0075378437 0.50858063 -0.70962483 -0.48762515 0.0026566733
-0.012730934 -0.044507496 0.0072528319 -0.55360609 -0.21106783 -0.80558717 0.0072545148
-0.010085315 -0.044692732 0.0059910403 -0.49693069 -0.26067436 -0.82771301 0.0062496783
-0.0078964243 -0.04572212 0.0054576863 -0.54446477 -0.4529821 -0.7059499 0.0074610095
0.041336581 -0.045204647 0.0063746525 0.56811643 -0.6673401 -0.48156089 0.0021881096
0.043270253 -0.043672256 0.0066356133 0.55929404 -0.6467641 -0.51854247 0.0062009315
-0.012726641 -0.041527495 0.007035505 -0.61038834 -0.053164043 -0.79031616 0.003493211
-0.010736186 -0.041740522 0.0057223011 -0.64730811 -0.13287058 -0.75055814 0.010399923
0.044563785 -0.041965939 0.0067454232 0.52649802 -0.50410712 -0.6845991 0.024070067
0.047198962 -0.041066974 0.0074271485 0.098311625 -0.51020944 -0.85441273 0.0077589727
0.049975269 -0.041175544 0.0074292012 0.013971762 -0.48799679 -0.87273359 0.00082831999
0.052714068 -0.041119911 0.0074483957 0.33692434 -0.51358551 -0.78912097 0.02541239
-0.012730128 -0.038590044 0.0072159739 -0.64296699 -0.060456984 -0.76350397 0.001474391
-0.011026989 -0.038624361 0.005726397 -0.71613508 -0.13805135 -0.68417281 0.0075599253
0.045112833 -0.038970701 0.0055527161 0.57252252 -0.33713526 -0.74736726 0.019025112
0.046991512 -0.038530946 0.006091387 0.25391153 -0.40214667 -0.87966299 0.026188178
0.050108813 -0.03841117 0.0059258542 0.0015674195 -0.48885468 -0.87236387 0.0014752019
0.053051632 -0.038537256 0.0060906331 0.23430023 -0.4447175 -0.8644824 0.013881009
-0.020971395 -0.034385972 0.0079602171 -0.20199279 -0.50742036 -0.8376894 0.0030643181
-0.018990602 -0.034369372 0.0077740867 -0.1479091 -0.54510146 -0.82521951 0.0014617998
-0.015904808 -0.034768201 0.0075513236 -0.22025387 -0.45251796 -0.86412716 0.0058813877
-0.012998325 -0.035527416 0.0068049976 -0.58511204 -0.29246312 -0.75637907 0.012954798
-0.01138911 -0.036143631 0.0056463252 -0.72875905 -0.16978027 -0.66338903 0.0059212553
0.045508444 -0.036755867 0.0052044559 0.43443975 -0.38556436 -0.81400394 0.020827206
0.046817765 -0.036757119 0.0052174102 0.20955294 -0.44020692 -0.87310106 0.033682998
0.054032877 -0.036772303 0.0053770412 0.27174103 -0.47004655 -0.83976966 0.020448791
0.054814797 -0.035221569 0.0063002575 0.27172619 -0.47005135 -0.83977181 0.020447662
-0.024149923 -0.031968273 0.0079058381 -0.39408904 -0.36798924 -0.84218639 0.002585002
-0.021867823 -0.032644041 0.0074313525 -0.26693848 -0.40917724 -0.87253529 0.0023763571
-0.018955072 -0.032637283 0.0067398567 -0.21696965 -0.47021157 -0.8554678 0.0038843818
-0.015978705 -0.032565571 0.0058981646 -0.1620892 -0.4586336 -0.87371755 0.0038959719
-0.013023237 -0.032533474 0.0055284798 -0.48305121 -0.25376177 -0.83801335 0.02157128
-0.02469139 -0.029535187 0.0074683279 -0.42465946 -0.25606278 -0.8683871 0.0015054045
-0.021891024 -0.029650485 0.0063128793 -0.35562176 -0.31772941 -0.87896603 0.0031220387
-0.01923983 -0.030242251 0.0055194935 -0.26267266 -0.38765013 -0.88358957 0.0017100115
-0.017265094 -0.030866126 0.0051484276 -0.12107128 -0.44984794 -0.88486081 0.0041991491
-0.013014185 -0.030861946 0.0050971974 -0.22168881 -0.31947088 -0.92129934 0.017445426
-0.026665734 -0.026256535 0.0077780606 -0.50724196 -0.21322924 -0.83500826 0.00034505571
-0.024871241 -0.026744369 0.0069342293 -0.46183655 -0.24017513 -0.85382843 0.0010939328
-0.022466119 -0.026821075 0.0057199742 -0.40926415 -0.27559176 -0.86980003 0.00077053742
-0.027292233 -0.023411499 0.0073425546 -0.52395207 -0.19181576 -0.82986802 0.001004717
-0.024822101 -0.02372429 0.005919463 -0.4833962 -0.19714938 -0.85291284 0.0010878142
-0.023154356 -0.024662184 0.0052573252 -0.47421587 -0.201795 -0.85697025 0.0010016767
-0.02772172 -0.020431088 0.0071117356 -0.52645218 -0.10284337 -0.84396166 0.0006996952
-0.025185915 -0.020530691 0.0057134307 -0.49452415 -0.10453317 -0.86285496 0.00041462108
-0.027830685 -0.017555935 0.0070149591 -0.55608988 -0.032855485 -0.83047247 0.0011925513
-0.025262229 -0.017744673 0.0055558821 -0.51877999 -0.072801977 -0.85180223 0.00058014574
-0.027828742 -0.014599303 0.0069730496 -0.59772038 -0.016086822 -0.80154324 0.0017234051
-0.025590589 -0.01481173 0.0053973026 -0.5499121 -0.067680374 -0.8324759 0.00056453928
-0.027819602 -0.01163812 0.0068051624 -0.61610001 0.024389111 -0.78729028 0.0013434255
-0.025773859 -0.011584749 0.0053271521 -0.59269327 0.026218601 -0.80500144 0.0012413891
-0.027498141 -0.0086880708 0.0069409646 -0.61574709 0.12138418 -0.77853793 0.00077030557
-0.025544053 -0.0084045641 0.0056333672 -0.61059326 0.11315101 -0.78381938 0.00056879874
-0.027244287 -0.005617342 0.0073934253 -0.65116429 0.019285765 -0.75869167 0.0045288508
-0.025278404 -0.0058411164 0.0058786022 -0.62242419 -0.019337166 -0.78244114 0.0050126626
-0.027116941 -0.0026842607 0.0068344004 -0.66999 -0.14582895 -0.72790611 0.00231049
-0.025671838 -0.0029751528 0.0054648239 -0.63598961 -0.17777023 -0.75094277 0.00041778173
-0.027963564 0.000621157 0.0066289683 -0.68443048 -0.27859718 -0.67374963 0.0057080411
-0.026430963 -0.00013883854 0.0053846505 -0.66123521 -0.2276503 -0.71480298 0.0031426658
-0.030182555 0.0037861862 0.0071343137 -0.7056641 -0.3647894 -0.60742635 0.0048676911
-0.028413879 0.0032505314 0.0057335962 -0.57338941 -0.31050977 -0.75816113 0.0015722939
-0.032467343 0.0074033942 0.0076339711 -0.7493341 -0.26529491 -0.60672647 0.0055866614
-0.03079976 0.0063699875 0.0063133002 -0.68899393 -0.26958442 -0.67276418 0.0035608031
-0.029037938 0.0054212194 0.0052174199 -0.62116385 -0.30445209 -0.72212487 0.003140168
-0.031459372 0.009292949 0.0062505035 -0.75704378 -0.1061278 -0.64468724 0.002276086
-0.032449845 0.012330597 0.0073692473 -0.76793486 -0.11663563 -0.62981915 0.0028198659
-0.031558674 0.012308524 0.0062750098 -0.76755846 -0.15288939 -0.62247801 0.0034556396
-0.039491758 0.016861727 0.0051085223 -0.22287135 -0.97248936 -0.067770623 0.0033625842
-0.036649782 0.016246131 0.0064153392 -0.20704117 -0.96387923 -0.1675432 0.0029887406
-0.033509962 0.015225325 0.0074909078 -0.60609037 -0.65572089 -0.450205 0.054389879
-0.03179758 0.014736053 0.0059872353 -0.68073809 -0.45603928 -0.57325727 0.027884658
-0.042323355 0.017922578 0.0075419713 -0.33871701 -0.93780273 -0.076136842 0.0015821478
0.032237049 0.02252369 0.0060022403 0.46120846 0.79196405 -0.40009955 0.025709476
0.034843009 0.022154095 0.0065553505 0.15986623 0.92343748 -0.34886381 0.025542717
0.037767299 0.022142982 0.0062971641 -0.078187846 0.92997688 -0.35920709 0.0061438247
-0.05913984 0.02341192 0.0053813625 -0.15631086 -0.97915775 -0.12968057 0.0065897419
0.030338347 0.024404259 0.005612487 0.81248617 0.36945474 -0.45096493 0.022574585
0.031284198 0.024478773 0.0071484465 0.73866302 0.51895499 -0.43018898 0.038736623
0.029830977 0.027338961 0.0054089059 0.87611657 0.12615724 -0.46529999 0.001015798
0.030836731 0.026880505 0.0070312535 0.86203885 0.17182921 -0.47682676 0.0014655889
0.029915553 0.030348735 0.0064667705 0.90662295 0.13532545 -0.39965212 0.0011565379
0.030702576 0.029461144 0.0080765653 0.92078227 0.16391183 -0.3539674 0.0011337919
0.029603731 0.03331311 0.0066611189 0.91503549 0.14498499 -0.37641647 0.00024089543
0.053034354 0.03456866 0.0076967822 -0.17191838 0.3838746 -0.90723997 0.037322212
0.028937552 0.036583893 0.0065353182 0.90885568 0.1964765 -0.36793795 0.00059942249
0.053389098 0.035372056 0.0078865755 -0.17192176 0.38387415 -0.90723956 0.037319489
0.028227374 0.039483063 0.0066856313 0.88157666 0.3230406 -0.34419084 0.001671901
0.026783831 0.042503357 0.006695502 0.81932318 0.47073206 -0.32729328 0.0034808849
0.023732571 0.046160251 0.0071903635 0.71263021 0.62863135 -0.31141731 0.0017046037
0.025326379 0.044451632 0.0064924527 0.70752436 0.6234349 -0.33277339 0.0013082516
0.021042133 0.049005985 0.006141426 0.7662344 0.56303316 -0.30964255 0.0010518695
0.022391969 0.047431029 0.0067659784 0.69897902 0.63419801 -0.3304863 0.0016951154
0.017410673 0.052875839 0.0056048203 0.47842431 0.80102056 -0.359828 0.0020237814
0.019138105 0.052082352 0.0072722007 0.67222583 0.69591647 -0.25261182 0.0059076739
0.014086436 0.055000007 0.0069426512 0.52390784 0.77241069 -0.35902956 0.0033608209
0.016825231 0.053692937 0.0069952849 0.46992767 0.80569774 -0.36058164 0.0017961583
0.008254149 0.058796704 0.0058382917 0.30887944 0.90649599 -0.28785157 0.0056462022
0.01120724 0.057184383 0.0060303304 0.55329698 0.7759456 -0.30293724 0.0028597284
-0.020909131 0.059849739 0.0063776243 0.22359987 0.9455505 -0.23651111 0.044793636
-0.018984111 0.059021957 0.0075823832 -0.11071141 0.94875634 -0.29598024 0.042337313
-0.01668877 0.059708141 0.0078013707 -0.14837945 0.97275215 -0.17814827 0.033399839
-0.013376811 0.060884424 0.006758349 -0.3025524 0.92565012 -0.22723077 0.0010196328
-0.01040525 0.061369553 0.0054933149 -0.12316287 0.96131361 -0.24638802 0.0044530341
-0.0041886494 0.06141784 0.0058502126 0.0085382089 0.97230929 -0.23354161 0.0016233074
0.0023514631 0.061014995 0.0052886624 0.42288983 0.84590203 -0.32498303 0.0019907998
0.005014074 0.05988007 0.0074381894 0.35242957 0.88299972 -0.3100079 0.0067615821
0.008944409 0.058945291 0.006988721 0.33479652 0.9054625 -0.26086181 0.0041560116
0.0087285377 -0.058481179 0.010741415 -0.072616518 -0.83825713 -0.54041821 0.003661376
0.010717899 -0.058488585 0.010792652 0.097479738 -0.85139388 -0.51538932 0.0030911101
-0.0055141165 -0.055197321 0.01094787 -0.25693506 -0.57202995 -0.77895194 0.007459844
-0.0038576343 -0.055484958 0.010629258 -0.22229528 -0.58129233 -0.78274131 0.0052534249
-0.00071443792 -0.056273617 0.010346762 -0.22210947 -0.61551815 -0.75617778 0.0071398318
0.0020897712 -0.056356587 0.0097549725 -0.19266541 -0.62817675 -0.75383955 0.0067630699
0.0050551416 -0.056696102 0.0093471995 -0.20795599 -0.71173531 -0.67095989 0.0046673864
0.0080197016 -0.057256632 0.009115098 -0.10047032 -0.79735219 -0.59509254 0.0022401533
0.010994399 -0.057274856 0.0092433356 0.075640902 -0.82758451 -0.55622143 0.0037082611
0.013976629 -0.056986041 0.0095300786 0.16664416 -0.86050475 -0.48141581 0.0049365698
0.016948596 -0.056390956 0.0095269457 0.24769086 -0.83540338 -0.49066317 0.0042943717
0.019441487 -0.05586724 0.0098031405 0.24221344 -0.83485514 -0.4943172 0.0050269132
0.022285365 -0.055118166 0.010369407 0.14216587 -0.85006529 -0.50712705 0.0061022518
0.026955392 -0.05518838 0.010882514 -0.013734628 -0.8188597 -0.57382941 0.0034011013
0.028913297 -0.055135109 0.010493176 0.026565824 -0.79168248 -0.61035478 0.0060715131
0.031267371 -0.05519627 0.010940121 0.16795169 -0.80740571 -0.56558663 0.0057884329
-0.0095981574 -0.052734435 0.01069696 -0.34336641 -0.5729214 -0.74421811 0.0038896105
-0.0067254892 -0.053341463 0.010276707 -0.24865994 -0.51152033 -0.82250541 0.0029684969
-0.0037999947 -0.053481705 0.0097711748 -0.21996441 -0.49891189 -0.83827353 0.0015233693
-0.00097476621 -0.053757608 0.0092310309 -0.24685034 -0.5719474 -0.78226656 0.010363995
0.0018252393 -0.05445987 0.0085680652 -0.27657476 -0.55969685 -0.78118235 0.0031661375
0.020593047 -0.054608732 0.0085718259 0.24977979 -0.82131767 -0.51288146 0.0045256517
0.023097789 -0.054307438 0.0092668002 0.17738111 -0.81469303 -0.55209714 0.0054450785
0.026341416 -0.053770237 0.009422617 0.08209566 -0.78318316 -0.61634767 0.005632577
0.029122002 -0.053601034 0.0089189922 0.032758839 -0.69678938 -0.71652734 0.0026072438
0.03213612 -0.053402022 0.0089706834 0.20062615 -0.69939321 -0.68600166 0.0067519755
0.034869585 -0.053058475 0.0098035503 0.3614991 -0.65293109 -0.66558194 0.0050591873
0.036879573 -0.052516691 0.010720925 0.48855966 -0.65155166 -0.58033592 0.010169337
-0.012403501 -0.050241604 0.010183905 -0.49470329 -0.53264779 -0.68669862 0.0033387034
-0.00980247 -0.050698444 0.0094344448 -0.30762562 -0.56076515 -0.76870602 0.0019048029
-0.0070631057 -0.050966553 0.0089509143 -0.25844035 -0.59736097 -0.75918931 0.0048783389
-0.0041888668 -0.051594891 0.0087121194 -0.26353842 -0.61287475 -0.7449376 0.011871803
0.03528579 -0.051180542 0.0086932313 0.35386956 -0.64214307 -0.68002111 0.006291369
0.037620042 -0.05041559 0.0098135369 0.5347442 -0.60354227 -0.59142673 0.0068589859
-0.01494523 -0.047017291 0.010425473 -0.67181969 -0.3629719 -0.64568543 0.0013277215
-0.013238611 -0.047729537 0.0090700639 -0.57963675 -0.40047067 -0.70967907 0.0060831597
-0.010644381 -0.048780248 0.0083404053 -0.30322573 -0.54615515 -0.78087693 0.0016080036
0.038689822 -0.048657119 0.0089489613 0.48825896 -0.68498856 -0.54073465 0.0029584586
0.041048244 -0.047545992 0.0097674895 0.46533418 -0.71581161 -0.52065134 0.0044927513
0.044399656 -0.046678759 0.010832927 0.076246873 -0.55950558 -0.82531196 0.017691081
0.047227316 -0.047148176 0.010640386 -0.041147392 -0.51025254 -0.85903972 0.0019101445
0.050121192 -0.046880521 0.010669636 0.09789104 -0.54694784 -0.8314237 0.003746754
0.052439895 -0.046549954 0.010676147 0.4294138 -0.50893217 -0.74605078 0.020358874
-0.015427967 -0.044474214 0.0098831756 -0.72814417 -0.17944865 -0.66151661 0.0031938653
-0.01407316 -0.044647954 0.0084950346 -0.69079411 -0.16218385 -0.70462751 0.0029594721
0.044428378 -0.045019984 0.0096942969 0.25072291 -0.60465437 -0.75599676 0.021160617
0.046992466 -0.044753902 0.009429032 -0.023898037 -0.48831293 -0.87234128 0.00071766914
0.049965933 -0.044755057 0.009438403 0.048303861 -0.48144427 -0.87514466 0.00076624547
0.052835152 -0.044693686 0.009731275 0.41211894 -0.46728042 -0.78218091 0.022991784
-0.015370779 -0.041599579 0.0096346354 -0.65375322 -0.10023589 -0.7500397 0.0057413606
-0.014068785 -0.041662119 0.0083053038 -0.6861794 -0.033466309 -0.7266621 0.0012048762
0.045235675 -0.043001868 0.0085097719 0.47186187 -0.53037888 -0.7043044 0.019043848
0.046956532 -0.042746753 0.0084352437 0.16034056 -0.57439929 -0.80271816 0.025624007
0.050358761 -0.042855628 0.0083764661 0.10647494 -0.48624375 -0.86731201 0.01189677
0.05326812 -0.042574115 0.0086178845 0.40064725 -0.46634111 -0.78867471 0.029440049
0.054600172 -0.041791357 0.0095228124 0.42520356 -0.48577395 -0.76369214 0.023967257
-0.024072148 -0.037306093 0.010976659 -0.38014281 -0.5467273 -0.74604332 0.0014026326
-0.021795746 -0.037649341 0.010408212 -0.2189655 -0.59238434 -0.77532881 0.0023821681
-0.019075273 -0.037896745 0.010225916 -0.18890654 -0.51432616 -0.83653033 0.0063580908
-0.016089316 -0.038523965 0.0098761953 -0.44101217 -0.3240214 -0.83696985 0.027947664
-0.014069815 -0.03870263 0.008349942 -0.61004061 -0.10734311 -0.78506553 0.0070165922
-0.026714485 -0.034639962 0.010808365 -0.50199407 -0.45167637 -0.73755705 0.0013962975
-0.024851434 -0.035401292 0.010209311 -0.41068909 -0.49883819 -0.76321346 0.0016658205
-0.022113366 -0.035581313 0.00902538 -0.21833478 -0.54136246 -0.81194615 0.0027063256
-0.019019671 -0.03576339 0.0086176861 -0.13042156 -0.54024917 -0.83133692 0.00064168795
-0.016053382 -0.036223136 0.0086035505 -0.32444569 -0.4486573 -0.83273143 0.016069936
-0.014065627 -0.037038393 0.0081683863 -0.55290967 -0.21089476 -0.80611056 0.012724771
-0.027575616 -0.032324702 0.010147928 -0.53530461 -0.36297074 -0.76269341 0.0013504768
-0.025207782 -0.032755196 0.0088960202 -0.42070189 -0.39117527 -0.81853026 0.0021286667
-0.023291076 -0.033759676 0.0083236862 -0.34139159 -0.4282046 -0.83671546 0.0053344392
-0.030027622 -0.029340606 0.010816899 -0.60048521 -0.2722221 -0.75187272 0.00091207837
-0.027961383 -0.029559763 0.0093702199 -0.53593546 -0.25941887 -0.8034147 0.00092721957
-0.025921568 -0.03013012 0.008238392 -0.47632352 -0.25714526 -0.84082824 0.0012343387
-0.030498873 -0.026494918 0.01039041 -0.602139 -0.20034091 -0.77284682 0.00028763554
-0.028315006 -0.026622469 0.0088731879 -0.53832358 -0.20428647 -0.81760311 0.00061830913
-0.030907502 -0.023592846 0.010032754 -0.63050443 -0.16437526 -0.75858092 0.00081840798
-0.02895469 -0.023710484 0.0086255288 -0.57429618 -0.18922853 -0.79647762 0.00052492379
-0.032693144 -0.020077785 0.011049407 -0.69774383 -0.081967928 -0.71164232 0.0012174156
-0.030936796 -0.020649346 0.0094385371 -0.6517694 -0.10859191 -0.75060266 0.0014065936
-0.029214084 -0.021568293 0.008232357 -0.57977551 -0.1023676 -0.80831999 0.0014725385
-0.032687988 -0.017753655 0.010971399 -0.76449668 0.037342515 -0.64354515 0.0015341905
-0.030921647 -0.017664883 0.0091937091 -0.64629889 -0.01204963 -0.76298928 0.0018225681
-0.030937547 -0.014705341 0.0094459318 -0.69554543 0.064424828 -0.71558785 0.0032671615
-0.030909348 -0.011699893 0.0096570533 -0.74890709 0.10130192 -0.65488636 0.0018225493
-0.030579841 -0.0086763836 0.0097775497 -0.74643499 0.11870232 -0.65478581 0.0023662802
-0.029221607 -0.0087296134 0.0083611719 -0.69906515 0.10687573 -0.70702583 0.001595545
-0.030310035 -0.0054712547 0.010006674 -0.75047827 0.1044654 -0.65258676 0.0051317676
-0.028904254 -0.0054404298 0.0085659102 -0.72647762 0.062834114 -0.68431139 0.0038097117
-0.030212829 -0.0027197818 0.010221344 -0.79300749 -0.0044338489 -0.60919583 0.00526162
-0.028902916 -0.0024744775 0.0085424203 -0.71239913 -0.087739803 -0.69626814 0.0038359126
-0.030299002 0.00048030575 0.0098222243 -0.82222134 -0.2362714 -0.51781058 0.0074557685
-0.029228443 -0.00016745855 0.0084781116 -0.72729623 -0.26983351 -0.63105476 0.0041652881
-0.032657102 0.0044485386 0.010504203 -0.79886454 -0.4224166 -0.42822862 0.00091714627
-0.031348456 0.003290955 0.0094289351 -0.8107639 -0.40818915 -0.41957542 0.0012658703
-0.033175401 0.0065749427 0.0094553167 -0.82834065 -0.35110536 -0.43655112 0.0029200127
-0.031861868 0.0051042791 0.0084418822 -0.75439775 -0.42453355 -0.50065488 0.0046750694
-0.03383673 0.009487981 0.0092659248 -0.85531479 -0.1154226 -0.50508839 0.0036165651
-0.033913035 0.012373173 0.0095011005 -0.8433724 -0.11313876 -0.52528328 0.0046917149
-0.034423139 0.014876291 0.009257488 -0.71069956 -0.5962714 -0.37331831 0.046435937
0.033358589 0.022889456 0.0083356965 0.50075722 0.85478419 -0.13633116 0.058773741
0.032352187 0.024497394 0.0088919327 0.77070874 0.56860077 -0.28757811 0.028274978
0.033851821 0.023303522 0.010193976 0.52224553 0.83400875 -0.17801413 0.044815861
0.031076875 0.030465543 0.0094200661 0.93492645 0.14327329 -0.32463107 0.00085876929
0.04715177 0.031278349 0.010765927 -0.70334798 0.16154681 -0.69224584 0.0016144172
0.030095614 0.034774169 0.0087189842 0.93316919 0.18270889 -0.30953643 0.00084576273
0.030859128 0.032883391 0.0099977423 0.93908691 0.16561335 -0.30114451 0.0008643858
