# .PCD v0.7 - Point Cloud Data file format
VERSION 0.7
FIELDS x y z normal_x normal_y normal_z curvature
SIZE 4 4 4 4 4 4 4
TYPE F F F F F F F
COUNT 1 1 1 1 1 1 1
WIDTH 557
HEIGHT 1
VIEWPOINT 0 0 0 1 0 0 0
POINTS 557
DATA ascii
0.0090068039 0.016067501 -0.050158989 0.33766577 0.12957764 -0.93230444 0.0024552657
0.010887503 0.015383624 -0.049410976 0.42573348 0.1104781 -0.89807886 0.0032534662
0.013232351 0.015443653 -0.047902204 0.51657403 0.020071993 -0.85600722 0.0068920795
-0.018890072 0.018347573 -0.048266146 -0.49426389 -0.16751592 -0.85301906 0.0013161039
-0.016005844 0.01841373 -0.049729124 -0.40985522 -0.14993371 -0.89974362 0.00084752584
-0.014268743 0.017347002 -0.050285939 -0.32032081 -0.12824799 -0.93858773 0.0015481937
0.0057216198 0.019922873 -0.050172824 0.29419631 0.28649396 -0.91179478 0.00080036174
0.0078838253 0.01853469 -0.049806386 0.33972397 0.25702417 -0.9047243 0.00052004581
0.010909824 0.018280841 -0.048674952 0.37837726 0.18039957 -0.90790236 0.0027597316
0.013481094 0.01838652 -0.04772222 0.34550256 0.097647734 -0.93332362 0.0040131793
-0.019456865 0.021411814 -0.048264321 -0.51924855 -0.07059484 -0.85170263 0.00089956564
-0.016644349 0.021544667 -0.049778268 -0.41887957 -0.05404938 -0.90643179 0.0010232528
0.0025798287 0.022780137 -0.050157983 0.31110966 0.41190377 -0.85647309 0.0018237572
0.0048262384 0.021902788 -0.049736723 0.30972782 0.39618519 -0.86435288 0.0019501433
0.0078191366 0.021511372 -0.048834302 0.32888165 0.40617672 -0.85255921 0.0030403372
0.010825487 0.021338437 -0.047944386 0.26349244 0.31378597 -0.91220069 0.0037252551
0.01311704 0.020699138 -0.047553759 0.34381065 0.1999718 -0.9174996 0.0029339083
-0.01950757 0.024610326 -0.048356991 -0.50473726 0.0048382189 -0.86325943 0.0010702203
-0.016793855 0.024573574 -0.04976837 -0.41389456 0.0089989975 -0.91028035 0.001234625
-0.00081607304 0.025331315 -0.049979273 0.26910007 0.51095843 -0.8163985 0.004291893
0.0018589365 0.024682736 -0.049268212 0.32422298 0.53431147 -0.78063476 0.0024407697
0.0044528008 0.024305647 -0.048411325 0.30123982 0.53610069 -0.78857505 0.0031596522
0.0075454861 0.02372911 -0.047758166 0.23288976 0.5505349 -0.80166936 0.0032855328
-0.019384103 0.027550049 -0.048279669 -0.50554556 0.070240565 -0.859936 0.0010643178
-0.016345266 0.027374906 -0.049819533 -0.36279216 0.097380854 -0.92676789 0.0031903689
-0.0071915775 0.028160712 -0.050019875 0.2371182 0.4033215 -0.88380235 0.005077797
-0.0041340818 0.027613994 -0.049378239 0.29165027 0.56295121 -0.77332139 0.0072492016
-0.0012866689 0.027165027 -0.048561651 0.30973038 0.69225806 -0.65180206 0.0038861763
0.0012585558 0.026562441 -0.047805492 0.3198871 0.67394459 -0.66593611 0.0020961352
-0.018939193 0.030360477 -0.04824103 -0.48568061 0.11104232 -0.86705476 0.0016157199
-0.016010487 0.030250674 -0.04961485 -0.27586648 0.18084919 -0.94402921 0.0017928618
-0.01321242 0.030813299 -0.050050739 -0.055708341 0.23073068 -0.9714216 0.0034256554
-0.010202052 0.030484825 -0.049936939 0.14924577 0.28962731 -0.94543201 0.004931605
-0.0074356492 0.030287948 -0.049154632 0.37588742 0.41518882 -0.82844847 0.012534832
-0.0050621228 0.029894814 -0.048079494 0.42684451 0.55512178 -0.71389318 0.010159038
-0.018566102 0.033154503 -0.048028331 -0.45501322 0.19307068 -0.86930239 0.0024030195
-0.016036326 0.033452965 -0.048989948 -0.28411084 0.23282927 -0.93009222 0.0052966983
-0.013201663 0.033639751 -0.049366944 -0.0012536664 0.30228654 -0.95321625 0.004546362
-0.010324005 0.033394031 -0.049058102 0.30207402 0.37455818 -0.87661713 0.010771208
-0.0078357933 0.032849472 -0.048235178 0.50209159 0.49616188 -0.70832717 0.0094958777
-0.018177224 0.035657313 -0.047635071 -0.42116728 0.3195098 -0.84884131 0.0052538984
-0.016028309 0.036650609 -0.048025079 -0.12257282 0.4068315 -0.90524256 0.01797808
-0.013333398 0.036488947 -0.048213515 0.12189493 0.50205839 -0.85620034 0.013425258
-0.010589394 0.035691153 -0.047869299 0.40810519 0.56191933 -0.71951157 0.0097331377
-0.0066469871 0.0045556379 -0.044865888 -0.23083565 -0.8690623 -0.437545 0.0037969481
-0.0038160989 0.0043313513 -0.045517389 -0.16148122 -0.871117 -0.46376616 0.0054146587
-0.00099565904 0.00411011 -0.045921419 -0.12387074 -0.8782481 -0.46188357 0.0050554271
0.0016145962 0.0038750544 -0.046095964 -0.10614626 -0.87696385 -0.46868694 0.0046286331
0.0046336013 0.0036745816 -0.046217602 -0.043219157 -0.86884993 -0.49318543 0.0064432034
0.0076029594 0.0036183458 -0.045933072 0.11950284 -0.83531326 -0.53662926 0.0057604793
0.010273999 0.0040233689 -0.045397341 0.35386395 -0.72616422 -0.5894624 0.005613137
-0.015747586 0.0073385146 -0.044773042 -0.30696359 -0.6814658 -0.66436261 0.0051559
-0.013153872 0.0069502834 -0.04554712 -0.28873685 -0.75170034 -0.59293979 0.0066503221
-0.010384277 0.0062757451 -0.045958359 -0.26448092 -0.83169734 -0.48818994 0.0036389185
-0.0074892207 0.0055702114 -0.046311393 -0.23391216 -0.83562917 -0.4970001 0.0054665515
-0.0044317292 0.0052743736 -0.04691821 -0.15534033 -0.82076257 -0.54974371 0.0050727311
-0.0022897488 0.0051059416 -0.047234286 -0.12500145 -0.83926386 -0.52916056 0.0062791063
0.01155287 0.0056269597 -0.046516571 0.47709462 -0.62371296 -0.61916298 0.010351805
0.013091747 0.0067838868 -0.045838613 0.66794205 -0.45534012 -0.58865845 0.0070265112
-0.020862656 0.010649662 -0.044491161 -0.47337088 -0.4443742 -0.76056004 0.0047193966
-0.01891073 0.0098111024 -0.045229342 -0.42745581 -0.48400152 -0.76356012 0.0046537011
-0.016256636 0.0093072476 -0.046259481 -0.38850418 -0.56105816 -0.73094332 0.005709718
-0.013564685 0.0083134454 -0.046810899 -0.32417661 -0.67211556 -0.66571021 0.0053075012
0.014197958 0.0095574493 -0.046200961 0.75964582 -0.32362521 -0.56409645 0.005946056
-0.021416221 0.012870692 -0.044976313 -0.55495173 -0.30308688 -0.77470434 0.00075285637
-0.019078804 0.012570227 -0.046378829 -0.49667463 -0.30821362 -0.81136847 0.00056334946
-0.017072558 0.011634323 -0.047140568 -0.41910625 -0.35441542 -0.83590651 0.00087108952
0.01472863 0.01261624 -0.046442445 0.71417129 -0.23075019 -0.66084313 0.013530524
0.016429108 0.013049356 -0.04498899 0.672472 -0.33087829 -0.66204304 0.011820865
-0.023770232 0.016745113 -0.044368584 -0.62265712 -0.20570913 -0.7549715 0.00056237931
-0.021913424 0.015565349 -0.045506071 -0.5977509 -0.22062501 -0.77072597 0.00030534901
-0.01982002 0.01533867 -0.046914667 -0.5250957 -0.23642336 -0.81754416 0.00087483216
0.014705557 0.015479183 -0.047004644 0.55099916 -0.10287701 -0.8281402 0.0064457492
0.016775103 0.015524136 -0.045874633 0.54547554 -0.17856559 -0.81888384 0.002782196
0.018735079 0.015821408 -0.044659641 0.594329 -0.26993087 -0.75756866 0.0067448425
-0.02405153 0.01847909 -0.044511106 -0.63722491 -0.14944452 -0.75604939 0.00055509625
-0.02242776 0.018493474 -0.045785464 -0.60756439 -0.16178007 -0.77761984 0.0005650355
-0.020626402 0.018163458 -0.047098327 -0.56926119 -0.15783264 -0.80686462 0.00050386757
0.014891026 0.018160621 -0.047161929 0.41733101 0.025110692 -0.90840757 0.0021905378
0.016757973 0.018396202 -0.046244875 0.48161882 0.0044591618 -0.87636948 0.0023431345
0.018847587 0.018460851 -0.04488897 0.67154527 -0.0082323942 -0.74091774 0.0047980328
-0.02433129 0.021369684 -0.044672187 -0.66031772 -0.070267819 -0.74769169 0.00054138608
-0.022505488 0.021286326 -0.046178345 -0.59954 -0.066616096 -0.79756761 0.00055800233
0.012101479 0.022373548 -0.047338743 0.25043553 0.3000285 -0.92047 0.0036464038
0.014236542 0.021527681 -0.047029335 0.35476989 0.21219562 -0.91055554 0.002972139
0.016769229 0.021296684 -0.046001565 0.48246926 0.20926397 -0.85054809 0.0056538796
0.018731149 0.021118036 -0.044736609 0.65321797 0.22355121 -0.72341627 0.0054074265
-0.024321815 0.024259031 -0.04482251 -0.6723339 0.0016038734 -0.7402463 0.00053428311
-0.022454781 0.02440046 -0.046364315 -0.59809017 0.001027816 -0.80142826 0.00072630181
0.0051068091 0.025673859 -0.04676868 0.25400561 0.67918074 -0.688618 0.002199545
0.0078467727 0.025150502 -0.046582393 0.16955754 0.59993505 -0.7818749 0.0037740164
0.010935284 0.024607789 -0.046430402 0.16978711 0.55220336 -0.81623763 0.0037993586
0.013878888 0.02418337 -0.046039615 0.27230334 0.46621782 -0.84171957 0.0040237787
0.016582768 0.023917165 -0.045151409 0.47357649 0.42933223 -0.76902479 0.0073641515
-0.024332099 0.027458223 -0.044659346 -0.6733436 0.065367229 -0.7364344 0.0004762364
-0.022550194 0.02757174 -0.046175309 -0.60677594 0.059024367 -0.79267848 0.00073763588
-0.00065808807 0.02859492 -0.046254531 0.3062925 0.74770069 -0.58917618 0.0053956038
0.0018470043 0.027933963 -0.045657683 0.28908634 0.713902 -0.6377877 0.0024926625
0.0045865905 0.027371565 -0.045242719 0.21003911 0.66496617 -0.71673113 0.0044329506
0.0074631767 0.027099913 -0.045045357 0.13818741 0.63356107 -0.76125199 0.00038339771
0.010657497 0.026732333 -0.044865932 0.17203324 0.65642262 -0.73451614 0.0011091218
0.013445784 0.026197176 -0.044729888 0.25523752 0.65724212 -0.70914489 0.0016295313
-0.023954649 0.030851293 -0.044514515 -0.66286105 0.13924895 -0.73567998 0.00052272133
-0.022422519 0.030473936 -0.045876924 -0.60713518 0.12136225 -0.78527576 0.00067263021
-0.020719066 0.030446932 -0.047159489 -0.5780741 0.12502415 -0.80634934 0.00060019043
-0.0040730704 0.030609185 -0.046333954 0.51621902 0.62461263 -0.58598369 0.009017298
-0.001333415 0.029544162 -0.045172989 0.30710492 0.72697043 -0.61416656 0.0067241332
-0.023768717 0.032408342 -0.0443932 -0.66751796 0.19905668 -0.71749294 0.00053970399
-0.022073306 0.033494212 -0.04555814 -0.62261367 0.19649397 -0.75745779 0.00062584458
-0.020209545 0.033340711 -0.046994846 -0.56825811 0.18969806 -0.80068558 0.00071193982
-0.0066709109 0.033643238 -0.046294004 0.55757976 0.58634299 -0.58762807 0.0052398648
-0.0051922412 0.032619894 -0.045320395 0.64977789 0.57486796 -0.49730831 0.0024678959
-0.021442041 0.036237597 -0.04520997 -0.58013701 0.29713649 -0.75838709 0.0011093966
-0.019305207 0.036574464 -0.046654277 -0.49963641 0.28214422 -0.81899816 0.0022147566
-0.017260449 0.037926324 -0.047230948 -0.12759148 0.51055521 -0.85032564 0.012469243
-0.012656196 0.037645146 -0.04716279 0.21292932 0.58855289 -0.77991444 0.010610137
-0.010070738 0.036892764 -0.046018355 0.48783582 0.61988771 -0.61461818 0.0044055982
-0.0083034011 0.035879251 -0.045280188 0.59936142 0.5918712 -0.53893822 0.003024138
-0.021047186 0.038377002 -0.044655431 -0.56248307 0.41786501 -0.7134434 0.0022568146
-0.019015912 0.039219625 -0.045607679 -0.41919732 0.48487052 -0.76757675 0.0086498922
-0.01614384 0.039454348 -0.046387494 -0.071123227 0.59383601 -0.80143636 0.017444067
-0.013347585 0.03907394 -0.045876514 0.28368634 0.67954528 -0.67656511 0.0081588486
-0.010917719 0.038518988 -0.044927113 0.42150089 0.6709637 -0.61003667 0.0039422228
-0.018241299 0.041074034 -0.04473405 -0.29701784 0.65060699 -0.69892132 0.012632513
-0.016497096 0.041061372 -0.044851709 0.068033852 0.79755646 -0.59939563 0.023491839
0.0052794069 0.001668033 -0.041760623 -0.21018238 -0.91583884 -0.34214404 0.006000876
0.0077392017 0.0014073171 -0.042082939 -0.044898178 -0.86569005 -0.4985629 0.0092149908
0.010402697 0.0014077195 -0.041943703 0.17384985 -0.78788793 -0.59076971 0.0084328782
0.012589318 0.0016686613 -0.041559104 0.40929815 -0.64321142 -0.64711213 0.0072078458
-0.0093096104 0.0045816591 -0.042448241 -0.23220839 -0.87375236 -0.42735949 0.0025416622
-0.0072531886 0.0042815404 -0.043278817 -0.23083101 -0.86906451 -0.43754312 0.0037970534
-0.0040508718 0.0036982477 -0.043405805 -0.13124485 -0.94408584 -0.30245137 0.0044675441
-0.0012882316 0.0032618432 -0.043441791 -0.14639822 -0.94970632 -0.27681309 0.003978597
0.0020166151 0.0026617651 -0.043020993 -0.15862438 -0.95009363 -0.26862681 0.0034623183
0.0046704058 0.0025342316 -0.04354598 -0.07420972 -0.90878034 -0.41062301 0.0014565111
0.007825912 0.0024096342 -0.043586936 0.057842199 -0.85558444 -0.51442158 0.0054957415
0.010998422 0.0030074362 -0.043405954 0.25437367 -0.77853036 -0.57374603 0.0054815835
0.013630677 0.0035541812 -0.042382289 0.47041348 -0.49702558 -0.72916168 0.0086402064
0.015809206 0.0045925146 -0.04143979 0.59705698 -0.41724083 -0.68515188 0.0044197096
-0.021685718 0.0073134024 -0.041864872 -0.42270359 -0.60362166 -0.67599005 0.0077421968
-0.019221611 0.0069127316 -0.042493217 -0.26288742 -0.75287437 -0.60338241 0.012897342
-0.016508231 0.0066678226 -0.04322369 -0.29674768 -0.76764017 -0.56803989 0.0094426628
-0.013614465 0.0059026554 -0.043262493 -0.27698606 -0.83147126 -0.48159555 0.006061147
-0.011042102 0.0051568616 -0.043094456 -0.24997756 -0.86518419 -0.43470401 0.0020052944
0.014366974 0.00608047 -0.043147303 0.73021215 -0.29751655 -0.61503994 0.007151715
0.016012771 0.0065598581 -0.041802779 0.68841529 -0.24607298 -0.68229944 0.0045988462
-0.024129905 0.0097510396 -0.041688547 -0.58875424 -0.40112835 -0.70175815 0.0039647501
-0.022136314 0.0092581296 -0.042923223 -0.49058247 -0.46769238 -0.73525012 0.0051334426
-0.019736974 0.0083850091 -0.043819226 -0.36062217 -0.65181655 -0.66714829 0.0053322716
0.014988245 0.008492806 -0.043636475 0.76733345 -0.28495201 -0.57445776 0.0077025327
0.016149029 0.0093588168 -0.042179886 0.76373547 -0.31572166 -0.5630523 0.0073045464
-0.02462779 0.012662812 -0.042293847 -0.63475215 -0.27145949 -0.72346342 0.00067534734
-0.022775853 0.012124704 -0.043664165 -0.60696101 -0.27515209 -0.74558008 0.00037107017
0.017229037 0.011805348 -0.043224186 0.65259731 -0.47112906 -0.59342575 0.0037481119
0.019336494 0.013070528 -0.042681426 0.68150455 -0.46405008 -0.56587017 0.0058394028
-0.026870364 0.016576663 -0.041490156 -0.69236761 -0.19369955 -0.69505948 0.00059510133
-0.025076564 0.015595121 -0.042884991 -0.65855247 -0.20702091 -0.72349918 0.00045633002
-0.023198182 0.014719497 -0.044232745 -0.6045987 -0.22746329 -0.76336151 0.00035491394
0.020204201 0.015539671 -0.04306148 0.74616194 -0.25778139 -0.61383313 0.0076389383
-0.027017916 0.0188598 -0.041772276 -0.72083604 -0.11815804 -0.68295991 0.00084093271
-0.025389438 0.018440247 -0.043284543 -0.6726895 -0.12425435 -0.72941744 0.00043185838
0.020384267 0.018536316 -0.043306958 0.82356322 0.010369175 -0.56712967 0.0047292421
0.02165678 0.018333429 -0.041429851 0.89600223 0.0088508436 -0.44396123 0.0054471977
-0.027131462 0.021521037 -0.041940358 -0.73657662 -0.044445116 -0.67489219 0.00055252068
-0.025565902 0.021432117 -0.043544598 -0.68942767 -0.057384178 -0.72207791 0.00058046961
0.02015835 0.021493057 -0.043065444 0.75975424 0.22076239 -0.61158609 0.006509474
-0.027131082 0.024440451 -0.041945707 -0.74472898 0.014807905 -0.66720271 0.000320972
-0.025559364 0.024333399 -0.043643579 -0.69731081 0.0084567526 -0.71671903 0.00046612826
0.017453715 0.025157114 -0.043748446 0.49781367 0.57077289 -0.65299302 0.010134665
0.019242911 0.024068562 -0.042878173 0.70341414 0.45661339 -0.54471344 0.0075237858
-0.027106797 0.027238471 -0.041828863 -0.74258119 0.056623969 -0.66735816 0.00023500658
-0.025569802 0.02725121 -0.043486349 -0.69833452 0.063427836 -0.71295571 0.00041293169
0.0029202499 0.028941078 -0.044211525 0.18079236 0.61487442 -0.76762199 0.0074254801
0.0044687167 0.028752476 -0.044147201 0.14917636 0.6296289 -0.76243943 0.0011430737
0.0077614384 0.028277421 -0.044028539 0.16060199 0.63833201 -0.75282085 0.0014314485
0.010842733 0.027961399 -0.043566175 0.19447243 0.67351562 -0.71313196 0.0016111906
0.013997825 0.027598361 -0.042927578 0.27706051 0.73174369 -0.62272686 0.0019053383
0.016609786 0.026728747 -0.042641226 0.44446135 0.67798185 -0.58548665 0.0036086352
-0.026850054 0.030292634 -0.041783698 -0.73330843 0.1183256 -0.6695205 0.00078283227
-0.0253166 0.030430371 -0.043360781 -0.69274294 0.11484939 -0.71198094 0.00044984533
-0.0033521811 0.031420384 -0.043707818 0.43843901 0.61730951 -0.65322298 0.012767024
-0.0010607991 0.03078883 -0.043406554 0.23509842 0.66290915 -0.71083057 0.014139536
0.0017646444 0.030458299 -0.043385904 0.13515092 0.59413791 -0.79292768 0.004586732
0.0047526197 0.030289263 -0.043127201 0.1462685 0.55339122 -0.81997782 0.00098407781
0.0074660201 0.030096335 -0.042609528 0.20865718 0.599953 -0.77234614 0.0024053582
0.010263299 0.029527092 -0.042073593 0.2495842 0.69980472 -0.66931391 0.0015146083
0.012586001 0.029133661 -0.041655127 0.27494738 0.73149931 -0.62394935 0.0017038732
-0.026878802 0.032079324 -0.041368205 -0.72621727 0.16313972 -0.66782779 0.00058495399
-0.025026435 0.033470556 -0.042908814 -0.69581759 0.20751844 -0.68758565 0.0005616016
-0.023200067 0.034746379 -0.044201303 -0.65220094 0.23882346 -0.71944237 0.00059681869
-0.0059915809 0.034626927 -0.043381233 0.59906876 0.56536138 -0.56699485 0.0055407686
-0.0040308423 0.033530559 -0.042505469 0.43297318 0.57745773 -0.69215375 0.012069437
-0.0011462573 0.032903984 -0.04199186 0.1108774 0.54332572 -0.83216786 0.0031058812
0.0017732015 0.03290455 -0.0419854 0.0769502 0.50349933 -0.86056209 0.00081556349
0.0044291792 0.032465991 -0.04183045 0.18745346 0.53062385 -0.82661939 0.0013747743
0.0064527914 0.03206788 -0.0415061 0.29640517 0.54272646 -0.78587019 0.0033271043
-0.024556002 0.036353052 -0.042352598 -0.66772348 0.31164849 -0.67603296 0.00063598866
-0.02287931 0.036764655 -0.043739371 -0.63141763 0.30555043 -0.71270669 0.0010877404
-0.0069977185 0.036667522 -0.042958595 0.61457586 0.52635789 -0.5875746 0.0030338515
-0.0047974051 0.035549849 -0.041782845 0.40675178 0.55273616 -0.72734833 0.012955459
-0.023928752 0.038762234 -0.041790996 -0.64480358 0.41709271 -0.64051706 0.0012184283
-0.022107787 0.039512839 -0.043012381 -0.58152044 0.47705263 -0.65898007 0.0054701013
-0.020302245 0.040269803 -0.044116233 -0.47921664 0.50529611 -0.71765405 0.0093304841
-0.012872091 0.040434703 -0.043471731 0.29078409 0.83079511 -0.47457793 0.0047270083
-0.010302038 0.039769575 -0.043163307 0.43098089 0.73027921 -0.53004509 0.0091472697
-0.0083320495 0.03876723 -0.042707272 0.59791845 0.57294923 -0.5605557 0.0027353163
-0.021180265 0.041541018 -0.042204618 -0.50153762 0.65122902 -0.56952679 0.010797803
-0.019239116 0.041879252 -0.043118332 -0.27774692 0.80846435 -0.51888531 0.019773647
-0.016343219 0.041958343 -0.04313273 0.20431915 0.88344163 -0.42164505 0.0077443821
-0.014267243 0.0413233 -0.042417992 0.26499763 0.85121816 -0.45299447 0.0048072711
0.0026724269 0.0016760671 -0.03914598 -0.32437852 -0.92958683 -0.17506273 0.0038229246
0.0047216816 0.0010862418 -0.039841458 -0.29979083 -0.90231991 -0.30974874 0.0027916841
0.0077607818 0.00023194216 -0.040029943 -0.16239631 -0.8993184 -0.40602186 0.0044424571
0.010663481 -1.5142374e-05 -0.039959554 0.050954305 -0.9002642 -0.43235168 0.0048259385
0.013462602 0.00070565834 -0.039782159 0.40807021 -0.7057026 -0.57919121 0.0062355618
0.0155115 0.001479578 -0.039251138 0.55386466 -0.62507033 -0.55001903 0.0054962374
-0.01911936 0.0046234122 -0.038569253 -0.033417471 -0.90893382 -0.41559932 0.0074884701
-0.00056237739 0.0028451751 -0.040340979 -0.23085925 -0.9596076 -0.16080171 0.003506006
0.0014915507 0.0022606994 -0.039924938 -0.27993014 -0.94507635 -0.1687301 0.0046660532
0.014772561 0.0027236454 -0.04104824 0.5811004 -0.49630219 -0.64498562 0.0083997641
0.016603969 0.0034693142 -0.039845116 0.69884741 -0.44250062 -0.56196576 0.00645298
0.018281786 0.0046217879 -0.038720597 0.7431969 -0.37821147 -0.55191892 0.0058326349
-0.02481883 0.0069182999 -0.039280921 -0.5193007 -0.61656779 -0.59175241 0.013520188
-0.022368602 0.0061047627 -0.040132657 -0.27975687 -0.76650941 -0.57809991 0.0076017375
-0.01932819 0.0054838499 -0.040316682 -0.10941148 -0.88322783 -0.45600182 0.0069491956
-0.016529521 0.005517175 -0.040240392 0.0081237638 -0.95332628 -0.3018328 0.01294771
0.017432051 0.0063264202 -0.040365443 0.75748819 -0.1783184 -0.62802404 0.0028733385
0.018720562 0.006534894 -0.038780686 0.80590004 -0.19662118 -0.55844897 0.0054483926
-0.027210949 0.010069387 -0.03869741 -0.70031095 -0.36182308 -0.61534435 0.00166302
-0.025515176 0.0091457907 -0.040115435 -0.62913072 -0.40093315 -0.66591823 0.0048130457
0.01764706 0.0092062782 -0.040572897 0.70775014 -0.3088145 -0.63539225 0.008828789
0.018952759 0.0095217396 -0.039038643 0.80973947 -0.24280274 -0.53419924 0.020011902
-0.02745714 0.012403226 -0.039388254 -0.72871804 -0.25264102 -0.63650817 0.00077325886
-0.026038397 0.012095068 -0.040820818 -0.68767357 -0.24803993 -0.68233514 0.00074676238
0.018154876 0.011028074 -0.041300077 0.66062933 -0.50579804 -0.55474067 0.0040613003
0.020098172 0.012100614 -0.040226575 0.7668671 -0.51810807 -0.37878615 0.0098590087
-0.027973585 0.015338365 -0.039837323 -0.73748446 -0.20078808 -0.64482617 0.00054353027
0.021105291 0.013968714 -0.04084577 0.80718797 -0.38507804 -0.44739527 0.011340246
0.021930007 0.015754478 -0.040108062 0.87554628 -0.26064831 -0.40679374 0.0083868057
-0.028597701 0.018435176 -0.039878767 -0.77286124 -0.097079895 -0.62710524 0.00077249348
0.022229243 0.018888619 -0.040008489 0.90539819 0.019223275 -0.42412794 0.0049946373
-0.028734693 0.021628195 -0.040004995 -0.78590792 -0.030764677 -0.61757767 0.00059168448
0.021092411 0.022739669 -0.041072179 0.84632289 0.2149771 -0.48736277 0.0039209533
0.021839852 0.021435158 -0.039974913 0.87835634 0.15851025 -0.45095968 0.0071446225
-0.028732682 0.024561075 -0.040032953 -0.78881824 0.0147388 -0.6144498 0.00048436344
0.02039999 0.0246864 -0.040369254 0.78375328 0.48864174 -0.38335374 0.0081286896
-0.028670046 0.027578635 -0.0398896 -0.79292804 0.051858846 -0.60710442 0.00023511673
0.015238009 0.028589195 -0.041114528 0.4132576 0.76197302 -0.49861336 0.003494563
0.017158533 0.027993435 -0.040365528 0.50803727 0.72500098 -0.46505022 0.0080266446
0.018825015 0.027056945 -0.039610445 0.59883171 0.67688239 -0.42805448 0.0027151327
-0.028399687 0.030374685 -0.039947055 -0.7679112 0.11619685 -0.62992907 0.00046179394
0.0086060409 0.03132109 -0.041104019 0.29373568 0.60086441 -0.74342537 0.0024820648
0.010790312 0.030996298 -0.040293667 0.37266359 0.64969569 -0.66258377 0.0055084457
0.013436967 0.03005008 -0.040073775 0.33479914 0.78229076 -0.5252912 0.0026953735
0.015786691 0.029551296 -0.039238304 0.42041039 0.76778591 -0.4834871 0.0028764005
-0.027871525 0.033386704 -0.039770585 -0.74261552 0.20848794 -0.6364392 0.00044677459
-0.026299536 0.034425877 -0.041286279 -0.70943075 0.22246382 -0.66874349 0.00050433981
-0.0029021082 0.034425713 -0.041287977 0.35179889 0.50512516 -0.78809017 0.0061434442
-0.0011476118 0.034440778 -0.041119166 0.12756766 0.51558936 -0.84728628 0.0068977522
0.0017784981 0.034440767 -0.041119333 0.07274875 0.51702428 -0.85287368 0.0010888185
0.0049169641 0.033876531 -0.040884029 0.21019198 0.51990145 -0.82796246 0.0010853285
0.007701409 0.033405993 -0.040124677 0.34194842 0.52280134 -0.78086483 0.0018771625
0.010027409 0.03285655 -0.039097194 0.48649511 0.51725602 -0.70410854 0.0052546822
-0.027457325 0.036109705 -0.039195977 -0.72937709 0.30017936 -0.61473691 0.00056948978
-0.026017366 0.036566172 -0.040650312 -0.70444262 0.29292527 -0.64649469 0.00060944294
-0.0058283601 0.03736151 -0.041173209 0.56993657 0.52517277 -0.63195407 0.0039062793
-0.0038329526 0.036514696 -0.040365294 0.27872756 0.51141924 -0.81287229 0.0064188098
-0.0011494783 0.036307093 -0.03995049 0.056126434 0.50709611 -0.8600601 0.0010432436
0.0017854472 0.036303092 -0.039993841 0.074239902 0.52187854 -0.849783 0.0010047378
0.0046785986 0.036303055 -0.039471459 0.22461505 0.54176408 -0.80996287 0.001783951
0.0070892507 0.035814542 -0.038918894 0.37113401 0.5198828 -0.76940328 0.0019526315
-0.027069181 0.03819818 -0.038616527 -0.69729149 0.39029759 -0.60120904 0.00085876411
-0.025313962 0.039309654 -0.039886344 -0.64750785 0.43125579 -0.62829298 0.0040997649
-0.023195669 0.040693145 -0.041022427 -0.57959479 0.58505857 -0.56725329 0.0020820878
-0.0093406206 0.040588055 -0.04109155 0.40109995 0.83601004 -0.37444094 0.0091045108
-0.0067712702 0.039028034 -0.040126745 0.53181964 0.628232 -0.56788427 0.0095043946
-0.0044193543 0.038485259 -0.039024163 0.20926434 0.65581489 -0.72533804 0.011050734
-0.00093044981 0.03841107 -0.038698755 0.047836088 0.62553513 -0.77872813 0.0022023858
0.0015409149 0.038358744 -0.038695909 0.084006749 0.61187321 -0.78648204 0.0027448207
0.0035624481 0.038212314 -0.038473029 0.18703701 0.59640157 -0.78059095 0.0030501639
-0.024491373 0.041492693 -0.039025161 -0.59678066 0.55242503 -0.58196169 0.0038760605
-0.022395812 0.042170782 -0.040001925 -0.4856455 0.65735334 -0.57622486 0.00875735
-0.019123599 0.043094881 -0.040483534 -0.25266981 0.85953653 -0.44424665 0.0084989984
-0.016677024 0.042984664 -0.040592153 0.1188444 0.91986698 -0.37379235 0.016274905
-0.013655638 0.041730963 -0.040450066 0.27450433 0.92627013 -0.25820756 0.0039048165
0.0089189894 -0.0012781403 -0.036310572 -0.13284144 -0.95326078 -0.27138019 0.0092662685
0.010682682 -0.0012759112 -0.03679198 0.088860072 -0.92633617 -0.36606726 0.0083995741
0.012776891 -0.0012789301 -0.036140312 0.31398475 -0.90173811 -0.29712293 0.013352393
0.0023981147 0.0012889574 -0.036606587 -0.40289271 -0.90760726 -0.1180105 0.0030425934
0.0047588078 0.00026312564 -0.037116151 -0.36703005 -0.90590185 -0.21125975 0.0019452247
0.0072393701 -0.00056467275 -0.037277427 -0.26689571 -0.91231608 -0.31055763 0.0043972819
0.013974122 -0.00044597313 -0.037405558 0.42685959 -0.83281791 -0.35242754 0.011224343
0.016155064 0.00092133076 -0.037330464 0.59274226 -0.72490603 -0.35095295 0.0075500128
-0.021219963 0.004631131 -0.037851263 -0.21296364 -0.87084663 -0.44302675 0.012507492
-0.020609654 0.0046270033 -0.038235564 -0.15295099 -0.85543543 -0.4948093 0.010781539
-0.017098263 0.0046337591 -0.037607927 0.076668829 -0.93144321 -0.35571811 0.0061553242
0.00062022079 0.0022735368 -0.037147243 -0.40289241 -0.9076066 -0.11801697 0.0030423445
0.017572585 0.0024705748 -0.037118465 0.74251431 -0.54954696 -0.38297603 0.011310244
0.018604515 0.0038114553 -0.036970098 0.77976644 -0.47172514 -0.41163057 0.0076222299
-0.027624987 0.0072153974 -0.036299232 -0.67689979 -0.5225457 -0.5184136 0.0051621427
-0.025744239 0.0062591713 -0.037488487 -0.56577426 -0.63734812 -0.52315086 0.01412834
-0.023575617 0.0052202856 -0.037938196 -0.35019153 -0.82113427 -0.45067099 0.0072246669
-0.015299654 0.0052155545 -0.038323212 0.060524471 -0.96921372 -0.23866634 0.0062919091
-0.014740037 0.0052255085 -0.037513662 0.060521558 -0.96921366 -0.23866707 0.0062922407
0.019545568 0.0064140065 -0.037089884 0.88226557 -0.20273192 -0.42486152 0.0086924667
-0.028371569 0.0093746986 -0.03691547 -0.74633813 -0.36798197 -0.55458868 0.0029910617
0.019877456 0.0092409365 -0.037025962 0.88732767 -0.19964103 -0.41568393 0.013064696
-0.030346595 0.012840108 -0.03584015 -0.80859321 -0.26517802 -0.52522153 0.00028800836
-0.029017458 0.012180828 -0.037402384 -0.77709162 -0.25938222 -0.5734539 0.00055941485
0.020453127 0.011451606 -0.036710057 0.85674238 -0.46095166 -0.23133525 0.0030009192
0.021626858 0.01292453 -0.036865164 0.87446779 -0.43175375 -0.22112145 0.0026167079
-0.030621668 0.015454685 -0.03650365 -0.80847561 -0.18142353 -0.55986851 0.00078941113
-0.029475033 0.014955597 -0.037956949 -0.7783981 -0.18669929 -0.59936613 0.00051182491
0.022430349 0.015238553 -0.038280297 0.90607089 -0.33052272 -0.26417866 0.010893466
-0.030733014 0.018246237 -0.036976393 -0.81486851 -0.093059197 -0.57212698 0.00066278508
-0.03067383 0.021299446 -0.037260592 -0.82459861 -0.025397146 -0.56514788 0.00015024739
0.022433607 0.021137042 -0.038225938 0.92056823 0.10192446 -0.37704858 0.0082876096
-0.030713579 0.024442021 -0.037223827 -0.82691908 0.013792193 -0.56215185 0.00014114869
-0.030725377 0.027507054 -0.037074041 -0.82528263 0.041365273 -0.5632028 0.00028290835
0.017721079 0.028809479 -0.038129497 0.52164882 0.74848759 -0.40944943 0.0052927686
0.019815175 0.026782984 -0.037573028 0.6481902 0.64263976 -0.40848944 0.0036780762
-0.030746007 0.03048495 -0.036810379 -0.81955278 0.09306214 -0.56539607 0.00046492735
-0.029449221 0.031744584 -0.038299549 -0.78872049 0.11083756 -0.60467768 0.00054117717
0.013780489 0.031378072 -0.037622854 0.45360434 0.75447005 -0.47436064 0.0056535103
0.016288418 0.030211156 -0.03716873 0.52476221 0.75016141 -0.40234637 0.0043608211
-0.030571656 0.033525687 -0.036279708 -0.79344589 0.17140424 -0.58400697 0.00079776975
-0.029387875 0.033752501 -0.037809122 -0.77276355 0.19762734 -0.60314178 0.00047593223
0.011060365 0.033986878 -0.037378278 0.5917657 0.5150671 -0.62009621 0.010284694
0.012906164 0.033026502 -0.036085289 0.57827234 0.60627198 -0.54592621 0.013951233
-0.030227005 0.036097445 -0.035850663 -0.74048686 0.27825871 -0.61176085 0.0015284659
-0.02894887 0.036784627 -0.037102729 -0.7353425 0.3066355 -0.60435593 0.001087112
0.0059239366 0.037648506 -0.038210172 0.28837517 0.61591184 -0.7331388 0.0021728065
0.0080994451 0.03691788 -0.037630334 0.41648453 0.53844988 -0.73253834 0.0034278175
0.010364581 0.036405146 -0.036443885 0.57360572 0.49104887 -0.65562749 0.0038962914
-0.027951516 0.039451513 -0.036713608 -0.70942026 0.4306286 -0.55792648 0.0022694692
-0.026532313 0.040340081 -0.037845332 -0.61813396 0.55093026 -0.56070149 0.0042027831
-0.0068057952 0.040495574 -0.03756626 0.24346676 0.81056529 -0.53264236 0.025561871
-0.0039240555 0.039987478 -0.037334364 0.11518084 0.7427969 -0.65953475 0.0071178367
-0.0012574216 0.039949682 -0.037426744 0.036815617 0.69199872 -0.72095931 0.00035407642
0.0019002723 0.039901119 -0.037337102 0.095906489 0.67990291 -0.7270034 0.0024668379
0.0047625192 0.039548654 -0.03693416 0.2145225 0.67957503 -0.70153964 0.0020251747
0.007415059 0.039017901 -0.036314141 0.4163188 0.63516533 -0.65057182 0.0026635572
0.0095335394 0.038507782 -0.035470236 0.54096067 0.61451966 -0.57421875 0.0059886603
-0.027246501 0.041415282 -0.036053617 -0.64344293 0.52132481 -0.56053692 0.0019055897
-0.025464352 0.042414688 -0.036866002 -0.53110856 0.66505444 -0.52500111 0.011899967
-0.023283675 0.04299105 -0.037888858 -0.50898039 0.6946032 -0.50839478 0.0093766199
-0.012105917 0.041938245 -0.036704171 0.095655695 0.94386411 -0.31618115 0.0091760894
-0.0097891167 0.041808747 -0.03633859 0.049920317 0.8944568 -0.44435903 0.017433802
-0.0070816306 0.041398343 -0.036213264 0.04609099 0.80074257 -0.59723288 0.0054674186
-0.0038996786 0.041659839 -0.035847209 0.029001722 0.72379774 -0.68940246 0.0017338044
-0.0013782778 0.041664604 -0.035802685 0.04954876 0.71902412 -0.69321656 0.0010861437
0.0015150598 0.041449785 -0.035728347 0.13212433 0.73606133 -0.66389513 0.0012081824
0.0012215961 0.0016889343 -0.034962703 -0.43949082 -0.89060134 -0.1169489 0.00063414284
0.0047867564 -9.4734831e-05 -0.035164077 -0.39258209 -0.91184884 -0.12004559 0.0017465663
0.014911462 -0.00069069187 -0.034644116 0.36760625 -0.88167483 -0.29582968 0.019454086
0.017289869 0.0010946909 -0.034691412 0.61937541 -0.70402414 -0.34745371 0.0085249376
-0.00056250545 0.0025855671 -0.034111056 -0.38758484 -0.91207248 -0.13379742 0.0024944604
-0.028880982 0.0073556369 -0.033970851 -0.76937151 -0.38599333 -0.50899577 0.0029932181
-0.030472146 0.009701822 -0.033771835 -0.80199844 -0.35008389 -0.48398316 0.0015882952
-0.029511105 0.0088273427 -0.034847748 -0.79166883 -0.34950268 -0.50110698 0.0018002592
0.020862004 0.010318976 -0.034660939 0.92506331 -0.27624217 -0.26066869 0.0088820225
-0.031431805 0.01237925 -0.03391403 -0.82986581 -0.27851748 -0.4834778 0.0006595545
0.020831594 0.011196598 -0.03521036 0.90471512 -0.35551554 -0.23473231 0.012810554
0.021488607 0.011524681 -0.034107585 0.90471292 -0.35551739 -0.2347379 0.01280952
-0.032836918 0.015440737 -0.032999184 -0.85268664 -0.19586286 -0.48431721 0.0010500152
-0.031895336 0.015160845 -0.034483466 -0.83483297 -0.16806509 -0.52422136 0.00053568638
-0.033116568 0.018418826 -0.033233639 -0.8520236 -0.08897426 -0.5158869 0.00029952594
-0.032086674 0.018343344 -0.034871504 -0.84148788 -0.080119938 -0.53430223 0.00026134454
-0.033178218 0.021173719 -0.033387497 -0.84944135 -0.020901423 -0.52726895 0.0001924643
-0.032258462 0.021573812 -0.034852713 -0.84119511 -0.019768206 -0.54037023 0.00010116026
-0.033182908 0.024609962 -0.033331726 -0.85345042 0.027892178 -0.52042717 0.0002471701
-0.032258403 0.024037285 -0.03485357 -0.84513468 0.013081071 -0.53439331 7.5666496e-05
-0.033113182 0.027376151 -0.033274382 -0.85938555 0.041974012 -0.50960249 0.0002062298
-0.032073796 0.02725476 -0.035029531 -0.85392481 0.032176726 -0.51940066 0.00025279986
-0.033046544 0.030145451 -0.033177722 -0.85717976 0.047954176 -0.51277989 0.00046518221
-0.032093335 0.030246032 -0.034789778 -0.83120883 0.0748422 -0.5508998 0.00046824597
-0.032823868 0.033358846 -0.033156324 -0.82200038 0.068406835 -0.56536353 0.0020862685
-0.031849474 0.033374101 -0.034539651 -0.80800849 0.12770462 -0.5751642 0.00098054309
0.013884174 0.0334328 -0.033842683 0.68119574 0.59613144 -0.42497027 0.015166037
-0.03286102 0.035789065 -0.032708883 -0.75028676 0.16726601 -0.63960296 0.0056264494
-0.031510495 0.036412813 -0.034153678 -0.75708669 0.2452042 -0.60555315 0.002012199
0.011789996 0.036961656 -0.034550566 0.72850084 0.4712269 -0.49722406 0.0024670467
0.012897651 0.035972599 -0.03361588 0.75922632 0.46313906 -0.45725003 0.004211525
-0.030929815 0.039185036 -0.033447009 -0.62508315 0.37807339 -0.68288469 0.0054354039
-0.029313575 0.039759994 -0.034836993 -0.68044984 0.39765424 -0.61551529 0.002862995
0.0059770648 0.040925272 -0.035068739 0.27669185 0.73439819 -0.61975867 0.0026922992
0.0083651142 0.040034078 -0.034650642 0.39559558 0.66525191 -0.63320148 0.0043494171
0.010524997 0.039031409 -0.033691652 0.59955305 0.62378871 -0.50142187 0.004028732
-0.030066364 0.041366547 -0.032755584 -0.59312773 0.53855538 -0.59846264 0.0067427428
-0.028146945 0.042298697 -0.033821914 -0.62172794 0.55505341 -0.55260301 0.0040380773
-0.025925292 0.043300159 -0.035098106 -0.56270242 0.67178839 -0.48173261 0.012305416
-0.023443805 0.043885294 -0.035179619 -0.35102758 0.88587707 -0.30331755 0.020469563
-0.015205128 0.043531191 -0.033009533 -0.074651957 0.845065 -0.5294264 0.0027270322
-0.01308783 0.04314677 -0.033792932 -0.056698266 0.83813196 -0.54251277 0.0030060099
-0.010106584 0.043150257 -0.033759873 0.00074991822 0.82454324 -0.56579846 0.0054713297
-0.0071115294 0.042771231 -0.034503002 -0.022818061 0.78096217 -0.62416142 0.0032598199
-0.0042824452 0.042908683 -0.034604531 0.0028765679 0.72080284 -0.69313413 0.00066615792
-0.0010088056 0.042927146 -0.034436479 0.079057373 0.73714638 -0.67109245 0.0010004233
0.0018970862 0.042754024 -0.033981621 0.18489683 0.77528381 -0.60394388 0.0013413545
0.0046677147 0.042154528 -0.033849996 0.25517672 0.78701168 -0.56169146 0.0014160958
0.0074645844 0.041426629 -0.033449147 0.41258806 0.75078768 -0.51583809 0.002177977
-0.0098364614 0.044176705 -0.03258324 -0.045562889 0.82052863 -0.56978661 0.0057455599
-0.0070070582 0.044415791 -0.032823127 -0.057764415 0.75610387 -0.65189737 0.0006123769
-0.0041483799 0.044427671 -0.033012383 0.020561717 0.76573426 -0.64282835 0.0015704201
-0.0013590711 0.044230293 -0.032994512 0.11098626 0.78581971 -0.60841548 0.0015236542
0.00063475117 0.04419481 -0.032421876 0.19523256 0.8140564 -0.54698849 0.00098558888
-0.00086427317 0.0017044911 -0.029904719 -0.21866138 -0.92287999 -0.31698546 0.0050987042
0.001240994 0.0014002317 -0.030990276 -0.38709897 -0.90806222 -0.15992929 0.0052992092
-0.010029622 0.0042863041 -0.029890543 -0.31003842 -0.86023855 -0.40480334 0.00074742624
-0.0071829204 0.0035084109 -0.030272704 -0.24718928 -0.86527109 -0.4361231 0.00091400067
-0.0041719335 0.0029054692 -0.030420471 -0.23348491 -0.90859181 -0.34633178 0.0045677638
-0.0016639652 0.0025011569 -0.031142319 -0.2419841 -0.94295287 -0.22865593 0.0085623916
-0.012919927 0.0053220233 -0.029666085 -0.34319475 -0.86832952 -0.35807988 0.0017989938
-0.031419035 0.010085881 -0.032033358 -0.82236779 -0.32118496 -0.46962899 0.0018675581
-0.033249654 0.013237652 -0.030929126 -0.86348891 -0.26351181 -0.43005627 0.00098664069
-0.032350767 0.011595193 -0.031630535 -0.83921707 -0.2871308 -0.46181238 0.00038164793
-0.033963624 0.015757956 -0.031014437 -0.86999089 -0.2140796 -0.44416869 0.00079585001
-0.034608841 0.01864272 -0.030753743 -0.85572904 -0.12785563 -0.50137883 0.0019376635
-0.034825832 0.021537786 -0.030777108 -0.84388095 -0.013826258 -0.53635228 0.0015393718
-0.034788616 0.024461471 -0.03071152 -0.84768146 0.058444917 -0.52727628 0.0013311188
-0.034535233 0.027557492 -0.030655125 -0.87060678 0.060083769 -0.48829693 0.00028337099
-0.034384388 0.030712562 -0.030667869 -0.8795923 0.027117301 -0.47495487 0.00049247307
-0.034204248 0.033539455 -0.031015288 -0.86325395 0.015132108 -0.50454301 0.0012962819
0.014452294 0.034433302 -0.031106371 0.8252486 0.43327048 -0.36227259 0.0019528348
-0.036151018 0.037897848 -0.029408533 -0.54167402 -0.081719436 -0.83660698 0.015344941
-0.03438849 0.036646251 -0.030784877 -0.72872424 0.027146187 -0.68426889 0.017313646
0.013546504 0.036822446 -0.031245109 0.80308759 0.46558571 -0.37186053 0.0029322694
-0.036134578 0.039689317 -0.029589701 -0.51563126 0.053104628 -0.85516328 0.025165221
-0.034240536 0.039589431 -0.030593419 -0.45207325 0.19893447 -0.86951417 0.0087011876
-0.03213568 0.039966635 -0.031818602 -0.62860966 0.34982178 -0.69460386 0.01026128
0.01138702 0.040084757 -0.030982053 0.6739893 0.62163806 -0.39912975 0.0056142719
0.012872757 0.038597982 -0.030478546 0.77626944 0.51610619 -0.36199459 0.0043850229
-0.036153264 0.04151962 -0.029383738 -0.30221841 0.19236916 -0.93362635 0.01491766
-0.034219168 0.042032294 -0.029834161 -0.32174784 0.42893341 -0.84409386 0.010069634
-0.031328354 0.0423472 -0.030816341 -0.38445082 0.58168876 -0.7168234 0.016354579
-0.028916771 0.043511931 -0.031016804 -0.41085738 0.78232896 -0.46814272 0.025355233
0.005095135 0.043526739 -0.031502854 0.25938144 0.81915605 -0.51157081 0.00044671193
0.0078528151 0.042876653 -0.030785417 0.43106103 0.77560723 -0.46110719 0.003141104
0.010115134 0.041552376 -0.030509163 0.61066329 0.67442364 -0.41502169 0.0029607625
-0.0261575 0.044462632 -0.030035738 -0.2385329 0.9247368 -0.29658687 0.012702152
-0.022175083 0.044444054 -0.031275824 -0.083736524 0.97278684 -0.21604136 0.0043128217
-0.019426111 0.044650894 -0.030148087 -0.09628468 0.93850905 -0.33155698 0.0099992389
-0.016097065 0.044915363 -0.030980051 -0.16286515 0.84623486 -0.50730813 0.0044244062
-0.013098778 0.0450169 -0.031127883 -0.060197297 0.82776117 -0.55784202 0.0019046338
-0.010144615 0.045692734 -0.030923178 -0.11409998 0.80787498 -0.57820332 0.0022807091
-0.0073324894 0.046049748 -0.030896362 -0.024360664 0.81405783 -0.58027285 0.0033887802
-0.0041664797 0.045855917 -0.031007379 0.061246499 0.83584726 -0.54553473 0.0023394148
-0.0012181961 0.045448523 -0.03099234 0.12408812 0.85958815 -0.49569178 0.0019938482
0.0017861698 0.044850089 -0.030970156 0.21186012 0.83772492 -0.50332117 0.00051785732
0.0043738601 0.044561345 -0.030230219 0.2754873 0.82641798 -0.4910602 0.0012099514
-0.0066299131 0.0017130494 -0.027121911 -0.24375337 -0.89184457 -0.38104808 0.0018627327
-0.0040879971 0.0013251468 -0.027679266 -0.20087458 -0.90186238 -0.38248342 0.00098496524
-0.0012780335 0.00088425411 -0.027783014 -0.13350572 -0.94100559 -0.31094167 0.0057248571
0.0011342634 0.0007411429 -0.027720595 -0.14364505 -0.93397504 -0.32719517 0.0072483695
-0.015152177 0.004754982 -0.026344378 -0.40291309 -0.86465693 -0.30004901 0.0014675512
-0.012947422 0.0044029057 -0.027739659 -0.36560929 -0.86506993 -0.34348777 0.00119655
-0.010305052 0.0033060166 -0.027925475 -0.33296329 -0.86299539 -0.3799662 0.00068201334
-0.0074756085 0.0024868213 -0.028318539 -0.26689741 -0.87510347 -0.40368259 0.0016662563
-0.00509047 0.0023108195 -0.029059548 -0.21648419 -0.88281137 -0.4168677 0.00081815349
-0.014149492 0.0053305468 -0.028974 -0.36857036 -0.86838865 -0.33174825 0.0014193342
-0.036102258 0.01629496 -0.026596252 -0.72980464 -0.51478267 -0.44987112 0.021835128
-0.035146549 0.015724845 -0.028260786 -0.85533643 -0.26417047 -0.44566077 0.0037251564
-0.036774077 0.018963234 -0.027406972 -0.71002775 -0.35952124 -0.60547924 0.021812186
-0.035584819 0.018312262 -0.028993633 -0.83804703 -0.18781246 -0.51225358 0.0041866335
-0.03718609 0.021649793 -0.027506953 -0.69904608 -0.058966924 -0.71264124 0.015261402
-0.03712891 0.024370944 -0.027413322 -0.71804601 0.19872002 -0.66702342 0.01283304
-0.035570089 0.025850033 -0.02915879 -0.80608857 0.11454917 -0.58060282 0.0023842852
-0.03660994 0.027101871 -0.02721793 -0.82488745 0.18846002 -0.53295726 0.0032223521
-0.035615209 0.027696306 -0.028652782 -0.84864306 0.1069281 -0.51804572 0.0017311313
-0.036387503 0.029949432 -0.026801515 -0.88114387 0.074396707 -0.46695882 0.0036778795
-0.035660163 0.030453997 -0.028148707 -0.89532888 0.041496005 -0.44346836 0.0016591592
-0.036380488 0.033888929 -0.026878823 -0.9026795 -0.10563717 -0.41714576 0.0096760495
-0.035632342 0.033452228 -0.028460691 -0.88104618 -0.1084621 -0.46042761 0.0081256535
-0.036892354 0.036545292 -0.027919931 -0.7460131 -0.34286886 -0.57088125 0.012965945
0.013931066 0.037337124 -0.028955717 0.77628964 0.51610196 -0.36195734 0.0044003353
-0.03964958 0.039933152 -0.027148789 -0.5807448 -0.48918349 -0.65071881 0.013682818
-0.037646379 0.039463282 -0.028484609 -0.59925044 -0.20703086 -0.77332866 0.01373988
0.013209699 0.039392088 -0.028014306 0.73037094 0.60697949 -0.31326383 0.0023025647
-0.042200871 0.043005243 -0.026787827 -0.49694586 -0.36719933 -0.78626299 0.020763103
-0.040256388 0.042313669 -0.027581595 -0.51008564 -0.16279782 -0.84457654 0.039292268
-0.037562463 0.042333532 -0.028692951 -0.36624816 0.064405501 -0.9282856 0.012814368
-0.034567405 0.043257318 -0.029122038 -0.17790315 0.43746299 -0.88146281 0.025274159
-0.032545447 0.043344855 -0.029241461 -0.29981989 0.53551984 -0.78951037 0.015426431
0.0091162324 0.043448448 -0.028292496 0.49048415 0.78667223 -0.37492937 0.0022739994
0.010685356 0.042375699 -0.027819682 0.62089217 0.70890117 -0.33459216 0.0030894126
-0.044933829 0.046694562 -0.026396591 -0.44697618 -0.12832037 -0.88529432 0.021137735
-0.042947736 0.045497213 -0.026931448 -0.29106179 -0.11192203 -0.95013499 0.01803316
-0.040181324 0.045399167 -0.027606545 -0.19291706 0.13123976 -0.9723987 0.013514273
-0.037380654 0.045312475 -0.027867196 0.030685624 0.41250825 -0.91043687 0.036168877
-0.034429222 0.045134198 -0.027743541 0.0082716523 0.57644051 -0.81709725 0.016270159
-0.031535391 0.04466727 -0.027834738 0.065555744 0.77187967 -0.63237977 0.017946893
-0.028423475 0.044711746 -0.027816094 -0.17374401 0.86888009 -0.4635303 0.0065774024
-0.024736971 0.045221649 -0.028657693 -0.071470357 0.95617354 -0.28394386 0.0018807673
-0.022066278 0.045327123 -0.027730618 -0.095770262 0.96604097 -0.23998544 0.0043247654
-0.019655166 0.045348987 -0.027538467 -0.088017181 0.96441764 -0.24930237 0.0044572926
-0.016117865 0.046259608 -0.028826769 -0.21265259 0.89456809 -0.39309898 0.0068854736
-0.013542946 0.046383739 -0.029056553 -0.13142602 0.87703389 -0.46210247 0.0042563183
-0.00056217576 0.046388369 -0.02901694 0.14642122 0.88388026 -0.44420323 0.00090228388
0.0020842021 0.046241935 -0.028332505 0.21031934 0.88443089 -0.41659066 0.0013440445
0.0048171356 0.045558695 -0.028067885 0.28859824 0.87944734 -0.378528 0.0016107424
0.0075190389 0.044644549 -0.027519697 0.44196773 0.8182627 -0.36757395 0.0023000555
-0.044931822 0.04851592 -0.026414454 -0.28505623 0.024982009 -0.95818514 0.015770391
-0.043069698 0.048472118 -0.026776802 -0.08694794 0.094322018 -0.99173754 0.011746109
-0.040173791 0.048129644 -0.026968075 0.067050606 0.35297254 -0.93322808 0.015960792
-0.037504401 0.047461879 -0.026759762 0.19281642 0.53624493 -0.82174402 0.012506227
-0.012686879 0.047177598 -0.027450571 -0.12938853 0.89203387 -0.433052 0.0031223856
-0.010243379 0.047454312 -0.028182317 -0.080185048 0.92202133 -0.37874395 0.0075268033
-0.0073679662 0.047528975 -0.028317217 0.017474888 0.94331437 -0.33144036 0.0048632384
-0.0041896333 0.04706138 -0.028432382 0.073111914 0.92894375 -0.36292997 0.0053370232
-0.001168352 0.047216188 -0.027124727 0.083600797 0.93570268 -0.34274107 0.0030914317
-0.043409292 0.050335713 -0.026442688 -0.016510641 0.23003656 -0.97304195 0.01735186
-0.009419973 0.0017213145 -0.024435151 -0.31106269 -0.91250515 -0.26565853 0.00094695896
-0.0073691625 0.0013120193 -0.025280116 -0.27656534 -0.91831946 -0.2831977 0.00077056349
-0.0042257966 0.00037725654 -0.024692245 -0.21251158 -0.94680327 -0.24166591 0.002918846
-0.00117235 -0.00010984461 -0.025330037 -0.13175495 -0.94845963 -0.2882098 0.004129224
0.0018781013 0.00019454886 -0.024970237 -0.11514018 -0.95321202 -0.27951637 0.0045375796
-0.015837478 0.0045728059 -0.02434027 -0.46960244 -0.85331881 -0.2265403 0.0031860562
-0.013366255 0.0035477455 -0.025169587 -0.39601731 -0.87435794 -0.28047934 0.00080265902
-0.010809296 0.0024510303 -0.0250677 -0.34410521 -0.88826692 -0.30425873 0.00044944489
-0.037069149 0.016371289 -0.024675805 -0.3962869 -0.83051705 -0.39140519 0.044211823
-0.048334997 0.019486172 -0.023377765 -0.2122926 -0.14395931 -0.96654415 0.0058144033
-0.04619167 0.019029351 -0.02361933 -0.1823398 -0.39652178 -0.8997348 0.0079972129
-0.043306377 0.018587919 -0.023979591 -0.18774055 -0.44802764 -0.87408507 0.008227488
-0.040205278 0.018258713 -0.024550473 -0.24433818 -0.55942339 -0.79205066 0.025375225
-0.037991058 0.018160718 -0.025606234 -0.56245357 -0.4947345 -0.66248304 0.043450449
-0.048547976 0.021316281 -0.023516752 -0.26546344 0.015882645 -0.96399009 0.012738139
-0.046417054 0.021286681 -0.024080552 -0.21966049 -0.12954049 -0.96693772 0.008139614
-0.043276589 0.021246007 -0.024856258 -0.23277286 -0.16564146 -0.95832127 0.0090203341
-0.040145408 0.021203959 -0.025660276 -0.39147109 -0.089279726 -0.91584903 0.0157136
-0.048337605 0.023162222 -0.023356009 -0.32095203 0.29736832 -0.89920062 0.018432818
-0.046190634 0.023961624 -0.023858251 -0.28450337 0.31667611 -0.90486139 0.012360628
-0.04329595 0.024308607 -0.024677353 -0.26288983 0.29218358 -0.91952032 0.012269311
-0.040158201 0.024257248 -0.025531994 -0.39425814 0.23806213 -0.88762993 0.010174409
-0.038272515 0.025132956 -0.026136477 -0.67371577 0.16479574 -0.72038144 0.011399454
-0.042905059 0.026321268 -0.023757964 -0.27910629 0.70742124 -0.64934957 0.018096726
-0.040056851 0.026771266 -0.024361057 -0.40922484 0.62578559 -0.66402376 0.018702261
-0.037888192 0.027466055 -0.025378611 -0.74324602 0.37202495 -0.55604208 0.023305256
-0.037151303 0.03017652 -0.025109936 -0.84624678 0.17984737 -0.50151902 0.026282288
-0.036833555 0.033419203 -0.025252219 -0.90412587 -0.16611071 -0.39365423 0.013919624
-0.039262202 0.037569445 -0.024303643 -0.76485431 -0.52807063 -0.3689706 0.01553344
-0.038167641 0.036478318 -0.025105197 -0.7755267 -0.45303071 -0.43968341 0.014956373
-0.042309381 0.04061706 -0.024379829 -0.63312554 -0.61229676 -0.47354484 0.0098276725
-0.040451594 0.039269697 -0.025139315 -0.6639787 -0.56692606 -0.48757258 0.0084585072
-0.045353658 0.043661874 -0.024470994 -0.62360483 -0.52983755 -0.57479489 0.015961669
-0.043425251 0.042467594 -0.02536276 -0.59558159 -0.56114459 -0.57480377 0.013534281
0.011010425 0.043137483 -0.025563765 0.62803298 0.72494352 -0.28289834 0.003531317
0.012258841 0.042015947 -0.024636496 0.62802303 0.7249465 -0.28291279 0.00352731
-0.048272178 0.0463739 -0.02390158 -0.55597645 -0.43171558 -0.71029001 0.016254347
-0.046307459 0.04555621 -0.025037156 -0.59352577 -0.44045833 -0.67359006 0.024386201
-0.044351596 0.04459282 -0.02616537 -0.41924563 -0.20954736 -0.88335896 0.014290764
-0.034035392 0.04675398 -0.025888024 0.29767451 0.76659149 -0.56897044 0.014950703
-0.030776614 0.046040602 -0.025288759 0.19768126 0.83657247 -0.51094884 0.013495292
-0.029237328 0.04564742 -0.024915446 -0.016599663 0.88339865 -0.46832818 0.01545777
-0.021959379 0.046349581 -0.02411711 -0.038076606 0.96673781 -0.25291914 0.00072421849
-0.01950231 0.046320569 -0.024368638 -0.15931731 0.95277488 -0.25853044 0.0045923428
0.0058345804 0.0461891 -0.025508825 0.33948752 0.88664699 -0.31401494 0.0021025117
0.007975651 0.045391612 -0.025027055 0.42931154 0.86330813 -0.26531252 0.001911431
