# .PCD v0.7 - Point Cloud Data file format
VERSION 0.7
FIELDS x y z rgb
SIZE 4 4 4 4
TYPE F F F U
COUNT 1 1 1 1
WIDTH 1032
HEIGHT 1
VIEWPOINT 0 0 0 1 0 0 0
POINTS 1032
DATA ascii
0.041735917 0.013944888 0.36133641 4294960170
0.042307604 0.013940064 0.36121142 4294497562
0.04289373 0.013940064 0.36121142 4294102804
0.043464813 0.013935241 0.36108643 4294035462
0.044050734 0.013935241 0.36108643 4293903876
0.044636659 0.013935241 0.36108643 4293510919
0.04522258 0.013935241 0.36108643 4292655616
0.045792647 0.013930418 0.36096144 4293510671
0.046378367 0.013930418 0.36096144 4293708050
0.046964083 0.013930418 0.36096144 4292392708
0.047549807 0.013930418 0.36096144 4292326915
0.048135526 0.013930418 0.36096144 4292261635
0.048721243 0.013930418 0.36096144 4292327428
0.049306963 0.013930418 0.36096144 4293311755
0.049892686 0.013930418 0.36096144 4293245962
0.050478403 0.013930418 0.36096144 4293376000
0.051081806 0.013935241 0.36108643 4293836545
0.051667731 0.013935241 0.36108643 4294429184
0.052253652 0.013935241 0.36108643 4294758149
0.052839573 0.013935241 0.36108643 4294561536
0.053443987 0.013940064 0.36121142 4294495744
0.054048814 0.013944888 0.36133641 4294233344
0.054635141 0.013944888 0.36133641 4294891271
0.055240564 0.013949711 0.36146137 4294693892
0.055827096 0.013949711 0.36146137 4294299136
0.056433138 0.013954535 0.36158636 4294364672
0.057039581 0.013959358 0.36171135 4294430464
0.057666343 0.013969006 0.36196133 4294494976
0.058253687 0.013969006 0.36196133 4294231808
0.058861349 0.013973829 0.36208633 4294494723
0.059489928 0.013983476 0.36233628 4294034176
0.060098603 0.013988299 0.36246127 4293247488
0.060728613 0.013997947 0.36271125 4293115904
0.061317172 0.013997947 0.36271125 4292460032
0.061969727 0.014012418 0.36308622 4292262656
0.062580422 0.014017241 0.36321118 4292130304
0.063213274 0.014026888 0.36346117 4292261888
-0.030750291 0.01470714 0.36571094 4294232064
-0.030115636 0.014687033 0.36521098 4294166272
-0.029523021 0.014687033 0.36521098 4293838336
-0.028920503 0.014682007 0.36508599 4293904128
-0.02831839 0.01467698 0.364961 4293642496
-0.027726183 0.01467698 0.364961 4293576704
-0.027133971 0.01467698 0.364961 4294099968
-0.026532676 0.014671955 0.36483604 4294428932
-0.025931779 0.014666928 0.36471105 4294953988
-0.025339978 0.014666928 0.36471105 4294888195
-0.024748173 0.014666928 0.36471105 4294691584
-0.02414809 0.014661902 0.36458606 4294823168
-0.023548411 0.014656875 0.36446106 4294955776
-0.022957016 0.014656875 0.36446106 4294758400
-0.022357944 0.014651849 0.36433607 4294889216
-0.021759283 0.014646823 0.36421108 4294823424
-0.021153761 0.01463677 0.36396113 4294823424
-0.020563174 0.01463677 0.36396113 4294955779
-0.019972587 0.01463677 0.36396113 4294956033
-0.019375343 0.014631744 0.36383614 4294692608
-0.018778507 0.014626717 0.36371115 4294496512
-0.018188324 0.014626717 0.36371115 4294693888
-0.017598143 0.014626717 0.36371115 4294957568
-0.01700796 0.014626717 0.36371115 4294957568
-0.016417779 0.014626717 0.36371115 4294760192
-0.015827596 0.014626717 0.36371115 4294760192
-0.015237415 0.014626717 0.36371115 4294825728
-0.014647233 0.014626717 0.36371115 4294891520
-0.014057052 0.014626717 0.36371115 4294760961
-0.01346687 0.014626717 0.36371115 4294497792
-0.012876689 0.014626717 0.36371115 4293972480
-0.012286508 0.014626717 0.36371115 4294038272
-0.011696326 0.014626717 0.36371115 4293709056
-0.011106144 0.014626717 0.36371115 4293577472
-0.010519575 0.014631744 0.36383614 4293380608
-0.0099326018 0.01463677 0.36396113 4293512192
-0.0093420148 0.01463677 0.36396113 4293643788
-0.0087514278 0.01463677 0.36396113 4293775374
-0.0081608398 0.01463677 0.36396113 4293382692
-0.0075728516 0.014641795 0.36408609 4293777450
-0.0069820615 0.014641795 0.36408609 4292398366
-0.0063912715 0.014641795 0.36408609 4291148299
-0.0058024731 0.014646823 0.36421108 4292595227
-0.00521148 0.014646823 0.36421108 4292661020
-0.0046204869 0.014646823 0.36421108 4292069653
-0.0040294938 0.014646823 0.36421108 4291938067
-0.0034385009 0.014646823 0.36421108 4291871752
-0.0028475083 0.014646823 0.36421108 4291740166
-0.0022565152 0.014646823 0.36421108 4291739905
-0.0016655222 0.014646823 0.36421108 4292134663
-0.0010745294 0.014646823 0.36421108 4293249280
-0.00048353637 0.014646823 0.36421108 4293512452
0.00010745654 0.014646823 0.36421108 4293315328
0.0006984495 0.014646823 0.36421108 4292920576
0.0012894424 0.014646823 0.36421108 4292527360
0.0018804354 0.014646823 0.36421108 4292461568
0.0024714281 0.014646823 0.36421108 4292264704
0.0030624215 0.014646823 0.36421108 4292264704
0.0036534141 0.014646823 0.36421108 4292330497
0.0042444072 0.014646823 0.36421108 4292396290
0.0048354003 0.014646823 0.36421108 4292330758
0.0054282551 0.014651849 0.36433607 4292396551
0.0060194512 0.014651849 0.36433607 4294175602
0.0066083791 0.014646823 0.36421108 4294636153
0.0071993717 0.014646823 0.36421108 4294309289
0.0077903648 0.014646823 0.36421108 4293453980
0.0083813574 0.014646823 0.36421108 4292728935
0.0089723505 0.014646823 0.36421108 4290360387
0.0095600616 0.014641795 0.36408609 4291937799
0.010147368 0.01463677 0.36396113 4291872006
0.010737955 0.01463677 0.36396113 4291674368
0.011328543 0.01463677 0.36396113 4291740160
0.011919131 0.01463677 0.36396113 4291609856
0.012505421 0.014631744 0.36383614 4291609856
0.013091307 0.014626717 0.36371115 4291543808
0.013681488 0.014626717 0.36371115 4291478016
0.014266766 0.014621691 0.36358616 4291346944
0.014856745 0.014621691 0.36358616 4291741699
0.015441413 0.014616664 0.36346117 4291938565
0.016031189 0.014616664 0.36346117 4291938565
0.016615249 0.014611637 0.36333618 4291939082
0.017204823 0.014611637 0.36333618 4292202254
0.017788274 0.014606611 0.36321118 4291807758
0.018377645 0.014606611 0.36321118 4291873551
0.018967016 0.014606611 0.36321118 4291677192
0.019549659 0.014601585 0.36308622 4291282434
0.020138826 0.014601585 0.36308622 4291216640
0.020727994 0.014601585 0.36308622 4291282432
0.02131716 0.014601585 0.36308622 4291215872
0.021906327 0.014601585 0.36308622 4291281664
0.022487752 0.014596559 0.36296123 4291215872
0.023076719 0.014596559 0.36296123 4291281664
0.023657532 0.014591533 0.36283624 4291347456
0.024246294 0.014591533 0.36283624 4291084288
0.024826501 0.014586506 0.36271125 4291347457
0.025406303 0.014581479 0.36258626 4291215872
0.025985697 0.014576453 0.36246127 4291412736
0.026573852 0.014576453 0.36246127 4291412736
0.027162004 0.014576453 0.36246127 4291412736
0.027740588 0.014571426 0.36233628 4291478528
0.028318768 0.014566401 0.36221132 4291281152
0.028906517 0.014566401 0.36221132 4291675906
0.029494267 0.014566401 0.36221132 4291544576
0.030071633 0.014561375 0.36208633 4291544576
0.030659178 0.014561375 0.36208633 4291545088
0.031235937 0.014556348 0.36196133 4291676672
0.031823281 0.014556348 0.36196133 4292004096
0.032410622 0.014556348 0.36196133 4292004096
0.03298657 0.014551322 0.36183634 4292199680
0.033573709 0.014551322 0.36183634 4292397056
0.034160849 0.014551322 0.36183634 4292331776
0.034747988 0.014551322 0.36183634 4292660737
0.035322923 0.014546295 0.36171135 4292857091
0.035909861 0.014546295 0.36171135 4292857091
0.036496796 0.014546295 0.36171135 4292856600
0.037083734 0.014546295 0.36171135 4292988186
0.037657652 0.014541268 0.36158636 4293448991
0.038244385 0.014541268 0.36158636 4292922647
0.038817696 0.014536242 0.36146137 4293840134
0.039404228 0.014536242 0.36146137 4293971720
0.039976932 0.014531217 0.36133641 4294693385
0.04054923 0.01452619 0.36121142 4294759178
0.041121121 0.014521164 0.36108643 4294235677
0.041707043 0.014521164 0.36108643 4294104091
0.042278327 0.014516137 0.36096144 4293842716
0.042864047 0.014516137 0.36096144 4293447958
0.04343472 0.01451111 0.36083645 4293708298
0.044020239 0.01451111 0.36083645 4293708298
0.044605754 0.01451111 0.36083645 4294037004
0.045175619 0.014506084 0.36071146 4294102797
0.045760933 0.014506084 0.36071146 4294758431
0.046346247 0.014506084 0.36071146 4294363673
0.046931557 0.014506084 0.36071146 4294694182
0.047516875 0.014506084 0.36071146 4292786185
0.048102189 0.014506084 0.36071146 4292720903
0.048687503 0.014506084 0.36071146 4292918282
0.049272817 0.014506084 0.36071146 4291535360
0.049858134 0.014506084 0.36071146 4292324864
0.050443444 0.014506084 0.36071146 4293179146
0.051028758 0.014506084 0.36071146 4293573904
0.051631961 0.01451111 0.36083645 4293837828
0.052217476 0.01451111 0.36083645 4293311488
0.052802991 0.01451111 0.36083645 4294429697
0.05338851 0.01451111 0.36083645 4294627076
0.053992726 0.014516137 0.36096144 4294298880
0.054578442 0.014516137 0.36096144 4294430465
0.055164162 0.014516137 0.36096144 4294496513
0.055769186 0.014521164 0.36108643 4294299136
0.056355111 0.014521164 0.36108643 4294430464
0.056980453 0.014531217 0.36133641 4294496256
0.057586689 0.014536242 0.36146137 4294626560
0.058173224 0.014536242 0.36146137 4294560768
0.05878007 0.014541268 0.36158636 4294297600
0.059407849 0.014551322 0.36183634 4294297600
0.060015708 0.014556348 0.36196133 4293641728
0.06064491 0.014566401 0.36221132 4293246976
0.061232656 0.014566401 0.36221132 4292788480
0.061863065 0.014576453 0.36246127 4292459520
0.062494289 0.014586506 0.36271125 4292459520
0.063126326 0.014596559 0.36296123 4292459520
0.063781112 0.014611637 0.36333618 4292393472
0.064370684 0.014611637 0.36333618 4292130304
-0.031343717 0.015300566 0.36571094 4293969920
-0.030750291 0.015300566 0.36571094 4294101504
-0.030115636 0.015279649 0.36521098 4293969920
-0.029523021 0.015279649 0.36521098 4293641728
-0.028920503 0.015274419 0.36508599 4293378560
-0.02831839 0.01526919 0.364961 4294037015
-0.027726183 0.01526919 0.364961 4293971222
-0.027133971 0.01526919 0.364961 4294363400
-0.026532676 0.015263962 0.36483604 4294429193
-0.025931779 0.015258732 0.36471105 4294888965
-0.025339978 0.015258732 0.36471105 4294955529
-0.024748173 0.015258732 0.36471105 4294955014
-0.02414809 0.015253503 0.36458606 4294954243
-0.023548411 0.015248273 0.36446106 4294693120
-0.022957016 0.015248273 0.36446106 4294561536
-0.022357944 0.015243044 0.36433607 4294692608
-0.021759283 0.015237815 0.36421108 4294889985
-0.021153761 0.015227358 0.36396113 4294955776
-0.020563174 0.015227358 0.36396113 4294956033
-0.019972587 0.015227358 0.36396113 4294890240
-0.019375343 0.015222128 0.36383614 4294890240
-0.018778507 0.015216899 0.36371115 4294628608
-0.018188324 0.015216899 0.36371115 4294958084
-0.017598143 0.015216899 0.36371115 4294958082
-0.01700796 0.015216899 0.36371115 4294497024
-0.016417779 0.015216899 0.36371115 4294562304
-0.015827596 0.015216899 0.36371115 4294430720
-0.015237415 0.015216899 0.36371115 4294364928
-0.014647233 0.015216899 0.36371115 4294167552
-0.014057052 0.015216899 0.36371115 4294433545
-0.01346687 0.015216899 0.36371115 4293775616
-0.012876689 0.015216899 0.36371115 4293315328
-0.012286508 0.015216899 0.36371115 4293315328
-0.011696326 0.015216899 0.36371115 4293053185
-0.011106144 0.015216899 0.36371115 4292987392
-0.010519575 0.015222128 0.36383614 4293052433
-0.0099326018 0.015227358 0.36396113 4293184019
-0.0093388064 0.015222128 0.36383614 4293381679
-0.0087484224 0.015222128 0.36383614 4293447472
-0.0081580374 0.015222128 0.36383614 4293448777
-0.007567653 0.015222128 0.36383614 4293514570
-0.0069772685 0.015222128 0.36383614 4293186890
-0.0063890782 0.015227358 0.36396113 4292594753
-0.0057984907 0.015227358 0.36396113 4292595004
-0.0052079032 0.015227358 0.36396113 4292397625
-0.0046173162 0.015227358 0.36396113 4292069426
-0.0040267287 0.015227358 0.36396113 4292003633
-0.0034373209 0.015232585 0.36408609 4291806240
-0.0028465311 0.015232585 0.36408609 4291806240
-0.0022557408 0.015232585 0.36408609 4291345678
-0.0016649506 0.015232585 0.36408609 4292332573
-0.0010741606 0.015232585 0.36408609 4293052433
-0.00048337044 0.015232585 0.36408609 4293184019
0.00010741966 0.015232585 0.36408609 4293315077
0.0006982098 0.015232585 0.36408609 4292986112
0.0012889999 0.015232585 0.36408609 4292461568
0.00187979 0.015232585 0.36408609 4292264192
0.0024705799 0.015232585 0.36408609 4291870464
0.0030613705 0.015232585 0.36408609 4291607296
0.0036521603 0.015232585 0.36408609 4291870208
0.0042444072 0.015237815 0.36421108 4291870208
0.0048354003 0.015237815 0.36421108 4292067584
0.0054263929 0.015237815 0.36421108 4292264963
0.006017386 0.015237815 0.36421108 4292661561
0.0066083791 0.015237815 0.36421108 4292595768
0.0071993717 0.015237815 0.36421108 4293255552
0.0077903648 0.015237815 0.36421108 4293913482
0.0083813574 0.015237815 0.36421108 4294767496
0.0089692716 0.015232585 0.36408609 4292069983
0.0095600616 0.015232585 0.36408609 4291475729
0.010147368 0.015227358 0.36396113 4291936280
0.010737955 0.015227358 0.36396113 4292199684
0.011328543 0.015227358 0.36396113 4292199684
0.011919131 0.015227358 0.36396113 4292199936
0.012505421 0.015222128 0.36383614 4291936768
0.013091307 0.015216899 0.36371115 4291674880
0.013681488 0.015216899 0.36371115 4291872256
0.014266766 0.01521167 0.36358616 4291740672
0.014856745 0.01521167 0.36358616 4291938048
0.015441413 0.01520644 0.36346117 4292069633
0.016031189 0.01520644 0.36346117 4292069633
0.016615249 0.015201211 0.36333618 4292135426
0.017204823 0.015201211 0.36333618 4292135426
0.017788274 0.015195982 0.36321118 4291938817
0.018377645 0.015195982 0.36321118 4291807232
0.018967016 0.015195982 0.36321118 4291545088
0.019549659 0.015190753 0.36308622 4291216128
0.020138826 0.015190753 0.36308622 4291150848
0.020727994 0.015190753 0.36308622 4291150848
0.02131716 0.015190753 0.36308622 4291281664
0.021906327 0.015190753 0.36308622 4291347456
0.022487752 0.015185524 0.36296123 4291281664
0.023068771 0.015180294 0.36283624 4291281664
0.023649381 0.015175065 0.36271125 4291413248
0.024237942 0.015175065 0.36271125 4291215872
0.024826501 0.015175065 0.36271125 4291281664
0.025406303 0.015169836 0.36258626 4291150080
0.025985697 0.015164606 0.36246127 4291281152
0.026573852 0.015164606 0.36246127 4291281152
0.027162004 0.015164606 0.36246127 4291281152
0.027731022 0.015154149 0.36221132 4291281152
0.028318768 0.015154149 0.36221132 4290821888
0.028906517 0.015154149 0.36221132 4291019264
0.029484089 0.01514892 0.36208633 4291150848
0.030071633 0.01514892 0.36208633 4291150848
0.030648597 0.015143691 0.36196133 4291216640
0.031235937 0.015143691 0.36196133 4291216640
0.031823281 0.015143691 0.36196133 4291544576
0.032399431 0.015138461 0.36183634 4291544576
0.03298657 0.015138461 0.36183634 4291937536
0.033573709 0.015138461 0.36183634 4292200706
0.034160849 0.015138461 0.36183634 4292135168
0.034735985 0.015133232 0.36171135 4292003584
0.035322923 0.015133232 0.36171135 4292200708
0.035897452 0.015128003 0.36158636 4292003329
0.036484182 0.015128003 0.36158636 4292199184
0.037070919 0.015128003 0.36158636 4292396563
0.037644632 0.015122773 0.36146137 4291673864
0.038231164 0.015122773 0.36146137 4292397587
0.038804274 0.015117545 0.36133641 4292987394
0.039390605 0.015117545 0.36133641 4292987394
0.039963104 0.015112315 0.36121142 4293642496
0.0405352 0.015107086 0.36108643 4294037254
0.041106887 0.015101857 0.36096144 4293578759
0.041692607 0.015101857 0.36096144 4293578759
0.042263687 0.015096627 0.36083645 4293250314
0.04283436 0.015091398 0.36071146 4293381900
0.043419678 0.015091398 0.36071146 4293512202
0.04398974 0.015086168 0.36058646 4293512202
0.044574853 0.015086168 0.36058646 4294035980
0.045159966 0.015086168 0.36058646 4294562324
0.045729224 0.015080941 0.3604615 4294034960
0.046314131 0.015080941 0.3604615 4293574409
0.046899039 0.015080941 0.3604615 4293312777
0.047483951 0.015080941 0.3604615 4293115398
0.048068859 0.015080941 0.3604615 4292852224
0.048653763 0.015080941 0.3604615 4292983810
0.049238671 0.015080941 0.3604615 4292786181
0.049823586 0.015080941 0.3604615 4292983560
0.05040849 0.015080941 0.3604615 4293049364
0.050993398 0.015080941 0.3604615 4293444122
0.051578309 0.015080941 0.3604615 4293574929
0.052181304 0.015086168 0.36058646 4293443343
0.052766412 0.015086168 0.36058646 4294165769
0.053351521 0.015086168 0.36058646 4294363148
0.053936638 0.015086168 0.36058646 4294429443
0.054540645 0.015091398 0.36071146 4294495236
0.055125959 0.015091398 0.36071146 4294496258
0.055730578 0.015096627 0.36083645 4294430465
0.056316096 0.015096627 0.36083645 4294956041
0.056921322 0.015101857 0.36096144 4294956298
0.057526954 0.015107086 0.36108643 4294495488
0.058112882 0.015107086 0.36108643 4294561281
0.058719121 0.015112315 0.36121142 4294626561
0.059346285 0.015122773 0.36146137 4294429184
0.059953537 0.015128003 0.36158636 4293904128
0.060561202 0.015133232 0.36171135 4293575168
0.061148137 0.015133232 0.36171135 4292590848
0.061777737 0.015143691 0.36196133 4292590848
0.062408149 0.015154149 0.36221132 4292787968
0.063039377 0.015164606 0.36246127 4292590592
0.063627526 0.015164606 0.36246127 4292591104
0.064259969 0.015175065 0.36271125 4292327936
0.064915568 0.015190753 0.36308622 4291737088
-0.033090033 0.015877698 0.36533597 4294035712
-0.032497216 0.015877698 0.36533597 4294035712
-0.03187165 0.015861401 0.364961 4294035712
-0.031279441 0.015861401 0.364961 4294035712
-0.030687233 0.015861401 0.364961 4293969920
-0.030084718 0.01585597 0.36483604 4294627849
-0.029482607 0.015850538 0.36471105 4293970709
-0.028880902 0.015845105 0.36458606 4294957604
-0.028289298 0.015845105 0.36458606 4294959164
-0.027688203 0.015839674 0.36446106 4294957365
-0.027078217 0.015828809 0.36421108 4294824471
-0.026487226 0.015828809 0.36421108 4294758678
-0.025896231 0.015828809 0.36421108 4294955533
-0.025296556 0.015823377 0.36408609 4294757897
-0.024705764 0.015823377 0.36408609 4294560518
-0.024114976 0.015823377 0.36408609 4294428932
-0.023516111 0.015817946 0.36396113 4294233088
-0.022925524 0.015817946 0.36396113 4294298880
-0.022327267 0.015812514 0.36383614 4294692865
-0.021729413 0.015807081 0.36371115 4294692865
-0.021131968 0.01580165 0.36358616 4294889984
-0.020541988 0.01580165 0.36358616 4294692608
-0.01995201 0.01580165 0.36358616 4294693376
-0.019355375 0.015796218 0.36346117 4294956544
-0.018759146 0.015790785 0.36333618 4294891520
-0.018169573 0.015790785 0.36333618 4294957568
-0.017580001 0.015790785 0.36333618 4294825728
-0.016990425 0.015790785 0.36333618 4294036224
-0.016400851 0.015790785 0.36333618 4294168838
-0.015811279 0.015790785 0.36333618 4293510912
-0.015221706 0.015790785 0.36333618 4293249536
-0.014632133 0.015790785 0.36333618 4293052160
-0.01404256 0.015790785 0.36333618 4292724480
-0.013452986 0.015790785 0.36333618 4292790272
-0.012863413 0.015790785 0.36333618 4292397056
-0.012273841 0.015790785 0.36333618 4292331264
-0.011688286 0.015796218 0.36346117 4292397594
-0.01109851 0.015796218 0.36346117 4293055524
-0.010512348 0.01580165 0.36358616 4293185847
-0.0099257799 0.015807081 0.36371115 4294567500
-0.0093355989 0.015807081 0.36371115 4293382984
-0.008745417 0.015807081 0.36371115 4292988226
-0.0081580374 0.015812514 0.36383614 4293186377
-0.007567653 0.015812514 0.36383614 4293383756
-0.0069772685 0.015812514 0.36383614 4293120845
-0.0063890782 0.015817946 0.36396113 4293120845
-0.0057984907 0.015817946 0.36396113 4292462665
-0.0052079032 0.015817946 0.36396113 4292594251
-0.0046173162 0.015817946 0.36396113 4292594501
-0.0040267287 0.015817946 0.36396113 4292331329
-0.0034373209 0.015823377 0.36408609 4292069426
-0.0028465311 0.015823377 0.36408609 4292003633
-0.0022557408 0.015823377 0.36408609 4292463657
-0.0016649506 0.015823377 0.36408609 4292463657
-0.0010741606 0.015823377 0.36408609 4292987173
-0.00048337044 0.015823377 0.36408609 4292987173
0.00010741966 0.015823377 0.36408609 4293183501
0.0006982098 0.015823377 0.36408609 4292854536
0.0012889999 0.015823377 0.36408609 4292264704
0.00187979 0.015823377 0.36408609 4292264704
0.0024705799 0.015823377 0.36408609 4291804928
0.0030613705 0.015823377 0.36408609 4291673344
0.0036521603 0.015823377 0.36408609 4291739136
0.0042444072 0.015828809 0.36421108 4291804928
0.0048354003 0.015828809 0.36421108 4292068352
0.0054263929 0.015828809 0.36421108 4292134145
0.006017386 0.015828809 0.36421108 4292331020
0.0066083791 0.015828809 0.36421108 4292133641
0.0071993717 0.015828809 0.36421108 4291739684
0.0077903648 0.015828809 0.36421108 4293713474
0.0083813574 0.015828809 0.36421108 4294370651
0.0089692716 0.015823377 0.36408609 4294831202
0.0095600616 0.015823377 0.36408609 4294303535
0.010147368 0.015817946 0.36396113 4294369328
0.010737955 0.015817946 0.36396113 4292987655
0.011328543 0.015817946 0.36396113 4292724483
0.011919131 0.015817946 0.36396113 4292593921
0.012505421 0.015812514 0.36383614 4292462336
0.013091307 0.015807081 0.36371115 4292331264
0.013681488 0.015807081 0.36371115 4292331264
0.014266766 0.01580165 0.36358616 4292003328
0.014856745 0.01580165 0.36358616 4292069120
0.015441413 0.015796218 0.36346117 4292135168
0.016031189 0.015796218 0.36346117 4292069376
0.016615249 0.015790785 0.36333618 4292200960
0.017204823 0.015790785 0.36333618 4292069376
0.017788274 0.015785353 0.36321118 4292201472
0.018377645 0.015785353 0.36321118 4291740928
0.018967016 0.015785353 0.36321118 4291544576
0.019556386 0.015785353 0.36321118 4291412992
0.020138826 0.015779922 0.36308622 4291215872
0.020727994 0.015779922 0.36308622 4291215872
0.02131716 0.015779922 0.36308622 4291347456
0.021906327 0.015779922 0.36308622 4291413248
0.022487752 0.01577449 0.36296123 4291347456
0.023068771 0.015769057 0.36283624 4291281664
0.023649381 0.015763626 0.36271125 4291347456
0.024237942 0.015763626 0.36271125 4291347456
0.024826501 0.015763626 0.36271125 4291347456
0.025406303 0.015758194 0.36258626 4291215872
0.025985697 0.015752761 0.36246127 4291346944
0.026573852 0.015752761 0.36246127 4291281152
0.027162004 0.015752761 0.36246127 4290952704
0.027731022 0.015741898 0.36221132 4291084288
0.028318768 0.015741898 0.36221132 4290953472
0.028906517 0.015741898 0.36221132 4291019264
0.029484089 0.015736466 0.36208633 4291085056
0.030071633 0.015736466 0.36208633 4291150848
0.030648597 0.015731035 0.36196133 4291150848
0.031235937 0.015731035 0.36196133 4291150848
0.031823281 0.015731035 0.36196133 4291478784
0.032399431 0.015725601 0.36183634 4291478784
0.03298657 0.015725601 0.36183634 4291609088
0.033573709 0.015725601 0.36183634 4291938049
0.034160849 0.015725601 0.36183634 4291938049
0.034735985 0.01572017 0.36171135 4291674880
0.035322923 0.01572017 0.36171135 4291674880
0.035897452 0.015714737 0.36158636 4291740672
0.036484182 0.015714737 0.36158636 4291871756
0.037070919 0.015714737 0.36158636 4291937549
0.037644632 0.015709305 0.36146137 4291740686
0.038231164 0.015709305 0.36146137 4291872272
0.038804274 0.015703874 0.36133641 4292134913
0.039390605 0.015703874 0.36133641 4292134913
0.039963104 0.015698442 0.36121142 4292724224
0.0405352 0.015693011 0.36108643 4293053187
0.041106887 0.015687577 0.36096144 4293249794
0.041692607 0.015687577 0.36096144 4293184001
0.042263687 0.015682146 0.36083645 4292921601
0.04283436 0.015676713 0.36071146 4292921601
0.043419678 0.015676713 0.36071146 4293053187
0.04398974 0.015671281 0.36058646 4292790016
0.044574853 0.015671281 0.36058646 4293905931
0.045159966 0.015671281 0.36058646 4293642759
0.045729224 0.01566585 0.3604615 4293247488
0.046314131 0.01566585 0.3604615 4293115904
0.046899039 0.01566585 0.3604615 4292919808
0.047483951 0.01566585 0.3604615 4292854016
0.048068859 0.01566585 0.3604615 4292787968
0.048653763 0.01566585 0.3604615 4292656384
0.049238671 0.01566585 0.3604615 4292655616
0.049823586 0.01566585 0.3604615 4292984577
0.05040849 0.01566585 0.3604615 4293248019
0.050993398 0.01566585 0.3604615 4293248019
0.051578309 0.01566585 0.3604615 4293772574
0.052181304 0.015671281 0.36058646 4293904160
0.052766412 0.015671281 0.36058646 4294166298
0.053351521 0.015671281 0.36058646 4293968919
0.053936638 0.015671281 0.36058646 4294429443
0.054540645 0.015676713 0.36071146 4294232064
0.055125959 0.015676713 0.36071146 4294627076
0.055730578 0.015682146 0.36083645 4294627076
0.056316096 0.015682146 0.36083645 4294955537
0.056921322 0.015687577 0.36096144 4294626572
0.057526954 0.015693011 0.36108643 4294100480
0.058112882 0.015693011 0.36108643 4294363650
0.058719121 0.015698442 0.36121142 4294429696
0.059346285 0.015709305 0.36146137 4294429696
0.059953537 0.015714737 0.36158636 4294101504
0.060561202 0.01572017 0.36171135 4293838336
0.061148137 0.01572017 0.36171135 4293445376
0.061777737 0.015731035 0.36196133 4293050624
0.062408149 0.015741898 0.36221132 4292854016
0.063039377 0.015752761 0.36246127 4292656640
0.063627526 0.015752761 0.36246127 4292591104
0.064259969 0.015763626 0.36271125 4292393728
0.064915568 0.015779922 0.36308622 4292000000
-0.034193587 0.016431073 0.36446106 4293969920
-0.033602186 0.016431073 0.36446106 4293904128
-0.033010792 0.016431073 0.36446106 4294035456
-0.032419391 0.016431073 0.36446106 4294035456
-0.031827994 0.016431073 0.36446106 4293969920
-0.031225881 0.016425436 0.36433607 4293838336
-0.030634686 0.016425436 0.36433607 4293903876
-0.03004349 0.016425436 0.36433607 4294824978
-0.029432088 0.016414167 0.36408609 4294958647
-0.028831396 0.016408533 0.36396113 4294825262
-0.028240809 0.016408533 0.36396113 4294890807
-0.027640726 0.016402898 0.36383614 4294825014
-0.027050341 0.016402898 0.36383614 4294956837
-0.026450869 0.016397264 0.36371115 4294561822
-0.025860686 0.016397264 0.36371115 4294693135
-0.025261821 0.016391627 0.36358616 4293640448
-0.024671841 0.016391627 0.36358616 4294166272
-0.024081863 0.016391627 0.36358616 4294429443
-0.023491884 0.016391627 0.36358616 4294233344
-0.022901906 0.016391627 0.36358616 4294233344
-0.022304256 0.016385993 0.36346117 4294562304
-0.021707011 0.016380358 0.36333618 4294496512
-0.021117439 0.016380358 0.36333618 4294626816
-0.020527866 0.016380358 0.36333618 4294692608
-0.019931434 0.016374724 0.36321118 4294956289
-0.019335408 0.016369089 0.36308622 4294956546
-0.018746242 0.016369089 0.36308622 4294760192
-0.018157074 0.016369089 0.36308622 4294957570
-0.017567907 0.016369089 0.36308622 4294827022
-0.016978737 0.016369089 0.36308622 4293248000
-0.016389569 0.016369089 0.36308622 4292592640
-0.015800402 0.016369089 0.36308622 4292461056
-0.015211235 0.016369089 0.36308622 4292724224
-0.014622067 0.016369089 0.36308622 4292526848
-0.014032899 0.016369089 0.36308622 4292396544
-0.013443732 0.016369089 0.36308622 4292396544
-0.012854564 0.016369089 0.36308622 4291872785
-0.012265396 0.016369089 0.36308622 4292201750
-0.011680247 0.016374724 0.36321118 4291940141
-0.011094693 0.016380358 0.36333618 4293190208
-0.01050512 0.016380358 0.36333618 4291805499
-0.0099189579 0.016385993 0.36346117 4290621225
-0.0093291821 0.016385993 0.36346117 4291411515
-0.0087424116 0.016391627 0.36358616 4291608894
-0.0081524318 0.016391627 0.36358616 4291673902
-0.0075650532 0.016397264 0.36371115 4292463418
-0.0069748713 0.016397264 0.36371115 4292922435
-0.0063846898 0.016397264 0.36371115 4293119814
-0.0057964996 0.016402898 0.36383614 4293053519
-0.0052061146 0.016402898 0.36383614 4292987726
-0.0046157306 0.016402898 0.36383614 4292725576
-0.0040253457 0.016402898 0.36383614 4291936060
-0.0034361412 0.016408533 0.36396113 4292134703
-0.0028455539 0.016408533 0.36396113 4292134703
-0.0022549666 0.016408533 0.36396113 4292200485
-0.0016643793 0.016408533 0.36396113 4292397864
-0.0010737919 0.016408533 0.36396113 4292856360
-0.00048337044 0.016414167 0.36408609 4292987946
0.00010741966 0.016414167 0.36408609 4293052437
0.0006982098 0.016414167 0.36408609 4292789265
0.0012889999 0.016414167 0.36408609 4292330243
0.00187979 0.016414167 0.36408609 4292067072
0.0024705799 0.016414167 0.36408609 4291936768
0.0030613705 0.016414167 0.36408609 4291805184
0.0036521603 0.016414167 0.36408609 4291870976
0.0042444072 0.016419802 0.36421108 4291936768
0.0048354003 0.016419802 0.36421108 4292200192
0.0054263929 0.016419802 0.36421108 4292265984
0.006017386 0.016419802 0.36421108 4292462596
0.0066083791 0.016419802 0.36421108 4292528389
0.0071993717 0.016419802 0.36421108 4292001825
0.0077903648 0.016419802 0.36421108 4292725548
0.0083813574 0.016419802 0.36421108 4292329017
0.0089692716 0.016414167 0.36408609 4292789568
0.0095600616 0.016414167 0.36408609 4293380900
0.010147368 0.016408533 0.36396113 4293117728
0.010737955 0.016408533 0.36396113 4293052417
0.011328543 0.016408533 0.36396113 4293052417
0.011919131 0.016408533 0.36396113 4292724736
0.012505421 0.016402898 0.36383614 4292593152
0.013091307 0.016397264 0.36371115 4292330752
0.013681488 0.016397264 0.36371115 4292264960
0.014266766 0.016391627 0.36358616 4292133120
0.014856745 0.016391627 0.36358616 4292396288
0.015441413 0.016385993 0.36346117 4292135168
0.016031189 0.016385993 0.36346117 4292069376
0.016615249 0.016380358 0.36333618 4292200192
0.017204823 0.016380358 0.36333618 4292331776
0.017788274 0.016374724 0.36321118 4292200960
0.018377645 0.016374724 0.36321118 4292135168
0.018967016 0.016374724 0.36321118 4291807232
0.019556386 0.016374724 0.36321118 4291741440
0.020138826 0.016369089 0.36308622 4291478272
0.020727994 0.016369089 0.36308622 4291544064
0.02131716 0.016369089 0.36308622 4291544064
0.021906327 0.016369089 0.36308622 4291544064
0.022487752 0.016363455 0.36296123 4291347456
0.023068771 0.01635782 0.36283624 4291347456
0.023649381 0.016352184 0.36271125 4291150848
0.024237942 0.016352184 0.36271125 4291216640
0.024826501 0.016352184 0.36271125 4291478528
0.025406303 0.01634655 0.36258626 4291675906
0.025985697 0.016340915 0.36246127 4291478528
0.026573852 0.016340915 0.36246127 4291412736
0.027162004 0.016340915 0.36246127 4291150080
0.027731022 0.016329646 0.36221132 4291215872
0.028318768 0.016329646 0.36221132 4291215872
0.028906517 0.016329646 0.36221132 4291215872
0.029484089 0.016324012 0.36208633 4291281664
0.030071633 0.016324012 0.36208633 4291281664
0.030648597 0.016318375 0.36196133 4291478528
0.031235937 0.016318375 0.36196133 4291478528
0.031823281 0.016318375 0.36196133 4291478016
0.032399431 0.016312741 0.36183634 4291609600
0.03298657 0.016312741 0.36183634 4291609088
0.033562109 0.016307106 0.36171135 4291872256
0.034149047 0.016307106 0.36171135 4291740416
0.034735985 0.016307106 0.36171135 4291608832
0.035310715 0.016301472 0.36158636 4291543040
0.035897452 0.016301472 0.36158636 4291674624
0.036484182 0.016301472 0.36158636 4291544072
0.037058104 0.016295835 0.36146137 4291741451
0.037644632 0.016295835 0.36146137 4291675660
0.038217951 0.016290203 0.36133641 4291807246
0.038790852 0.016284568 0.36121142 4291741186
0.039376978 0.016284568 0.36121142 4291543808
0.039949276 0.016278932 0.36108643 4292002048
0.040521167 0.016273297 0.36096144 4292199424
0.041092653 0.016267663 0.36083645 4292461568
0.041678172 0.016267663 0.36083645 4292461568
0.042249046 0.016262028 0.36071146 4292593152
0.04283436 0.016262028 0.36071146 4292593152
0.043404631 0.016256392 0.36058646 4292462594
0.043974496 0.016250759 0.3604615 4292199424
0.044559408 0.016250759 0.3604615 4292460032
0.045144316 0.016250759 0.3604615 4292657408
0.045713365 0.016245123 0.36033651 4292986112
0.046298072 0.016245123 0.36033651 4292986112
0.046882775 0.016245123 0.36033651 4292855040
0.047451019 0.016239488 0.36021152 4292723456
0.048035521 0.016239488 0.36021152 4292854528
0.048620023 0.016239488 0.36021152 4292854528
0.049204525 0.016239488 0.36021152 4292853760
0.04978903 0.016239488 0.36021152 4292985345
0.050373532 0.016239488 0.36021152 4293116679
0.050958034 0.016239488 0.36021152 4292853507
0.051542543 0.016239488 0.36021152 4293509656
0.052145131 0.016245123 0.36033651 4293641242
0.052729834 0.016245123 0.36033651 4293509654
0.053314541 0.016245123 0.36033651 4293312275
0.053899247 0.016245123 0.36033651 4293903617
0.054483954 0.016245123 0.36033651 4293969410
0.055068657 0.016245123 0.36033651 4294101248
0.055672668 0.016250759 0.3604615 4294298627
0.056277081 0.016256392 0.36058646 4294958365
0.05686219 0.016256392 0.36058646 4294298636
0.057467215 0.016262028 0.36071146 4293641474
0.058052532 0.016262028 0.36071146 4293773060
0.058658164 0.016267663 0.36083645 4294232320
0.059284724 0.016278932 0.36108643 4294495490
0.059891369 0.016284568 0.36121142 4294429697
0.060477499 0.016284568 0.36121142 4294363904
0.061084751 0.016290203 0.36133641 4294233091
0.06171374 0.016301472 0.36158636 4293575168
0.062322009 0.016307106 0.36171135 4293510658
0.062952422 0.016318375 0.36196133 4293115904
0.063539766 0.016318375 0.36196133 4292656384
0.064171396 0.016329646 0.36221132 4292459008
0.064803839 0.016340915 0.36246127 4292196608
0.065459639 0.01635782 0.36283624 4292196608
-0.034749195 0.017004957 0.36408609 4293510656
-0.034134958 0.016993282 0.36383614 4293773312
-0.03354457 0.016993282 0.36383614 4293839105
-0.032954186 0.016993282 0.36383614 4293838336
-0.032363802 0.016993282 0.36383614 4293969920
-0.031773418 0.016993282 0.36383614 4294364420
-0.031183034 0.016993282 0.36383614 4294759178
-0.03059265 0.016993282 0.36383614 4294495761
-0.030002264 0.016993282 0.36383614 4294956312
-0.029391674 0.016981607 0.36358616 4294958141
-0.028791793 0.01697577 0.36346117 4294891320
-0.028202014 0.01697577 0.36346117 4294759482
-0.027602745 0.016969932 0.36333618 4294891068
-0.02701317 0.016969932 0.36333618 4294957872
-0.026414508 0.016964093 0.36321118 4294365478
-0.025825137 0.016964093 0.36321118 4294759451
-0.025235768 0.016964093 0.36321118 4294825244
-0.024646396 0.016964093 0.36321118 4294760207
-0.024048751 0.016958257 0.36308622 4294102277
-0.023459582 0.016958257 0.36308622 4294234112
-0.022870416 0.016958257 0.36308622 4294168320
-0.022281246 0.016958257 0.36308622 4294693889
-0.021692079 0.016958257 0.36308622 4294496512
-0.021095647 0.01695242 0.36296123 4294561536
-0.020506682 0.01695242 0.36296123 4294627328
-0.019917717 0.01695242 0.36296123 4294694146
-0.019322095 0.016946582 0.36283624 4294628353
-0.018733334 0.016946582 0.36283624 4293774336
-0.018144572 0.016946582 0.36283624 4293445376
-0.017555811 0.016946582 0.36283624 4292592640
-0.016967047 0.016946582 0.36283624 4292461056
-0.016378285 0.016946582 0.36283624 4291674368
-0.015789524 0.016946582 0.36283624 4291740160
-0.015200761 0.016946582 0.36283624 4292133891
-0.014612 0.016946582 0.36283624 4291804928
-0.014023238 0.016946582 0.36283624 4291608834
-0.013434476 0.016946582 0.36283624 4292069385
-0.012850139 0.01695242 0.36296123 4291018773
-0.012261175 0.01695242 0.36296123 4291018773
-0.01167221 0.01695242 0.36296123 4290625566
-0.011087061 0.016958257 0.36308622 4290296601
-0.010501506 0.016964093 0.36321118 4290755379
-0.0099155465 0.016969932 0.36333618 4291479102
-0.0093259737 0.016969932 0.36333618 4291215948
-0.0087364009 0.016969932 0.36333618 4291939671
-0.0081496295 0.01697577 0.36346117 4291279155
-0.0075624534 0.016981607 0.36358616 4290818604
-0.0069724745 0.016981607 0.36358616 4292724291
-0.0063824956 0.016981607 0.36358616 4293184842
-0.0057945084 0.016987445 0.36371115 4293512789
-0.0052043265 0.016987445 0.36371115 4293512789
-0.0046157306 0.016993282 0.36383614 4293447764
-0.0040253457 0.016993282 0.36383614 4292197697
-0.0034349612 0.016993282 0.36383614 4292331567
-0.0028455539 0.01699912 0.36396113 4292265774
-0.0022549666 0.01699912 0.36396113 4292134172
-0.0016643793 0.01699912 0.36396113 4292397344
-0.0010737919 0.01699912 0.36396113 4292921641
-0.00048337044 0.017004957 0.36408609 4293119020
0.00010741966 0.017004957 0.36408609 4292920862
0.0006982098 0.017004957 0.36408609 4292855069
0.0012889999 0.017004957 0.36408609 4292462346
0.00187979 0.017004957 0.36408609 4292396553
0.0024705799 0.017004957 0.36408609 4292265217
0.0030613705 0.017004957 0.36408609 4292396803
0.0036521603 0.017004957 0.36408609 4292331264
0.0042444072 0.017010795 0.36421108 4292462848
0.0048354003 0.017010795 0.36421108 4292660225
0.0054263929 0.017010795 0.36421108 4292462848
0.006017386 0.017010795 0.36421108 4292791057
0.0066083791 0.017010795 0.36421108 4292988436
0.0071993717 0.017010795 0.36421108 4293779059
0.0077903648 0.017010795 0.36421108 4293713266
0.0083813574 0.017010795 0.36421108 4293056117
0.0089692716 0.017004957 0.36408609 4292332394
0.0095600616 0.017004957 0.36408609 4293644331
0.010147368 0.01699912 0.36396113 4292986401
0.010737955 0.01699912 0.36396113 4293249536
0.011328543 0.01699912 0.36396113 4293249536
0.011919131 0.01699912 0.36396113 4292724736
0.012505421 0.016993282 0.36383614 4292593152
0.013091307 0.016987445 0.36371115 4292396544
0.013681488 0.016987445 0.36371115 4292264960
0.01427167 0.016987445 0.36371115 4292395776
0.014856745 0.016981607 0.36358616 4292527360
0.015441413 0.01697577 0.36346117 4292462848
0.016031189 0.01697577 0.36346117 4292528640
0.016620966 0.01697577 0.36346117 4292397056
0.017204823 0.016969932 0.36333618 4292660225
0.017794395 0.016969932 0.36333618 4292462848
0.018377645 0.016964093 0.36321118 4292331264
0.018967016 0.016964093 0.36321118 4291938048
0.019556386 0.016964093 0.36321118 4292003840
0.020145757 0.016964093 0.36321118 4291872256
0.020727994 0.016958257 0.36308622 4291740672
0.02131716 0.016958257 0.36308622 4291609856
0.021906327 0.016958257 0.36308622 4291544064
0.022487752 0.01695242 0.36296123 4291347456
0.023076719 0.01695242 0.36296123 4291347456
0.023649381 0.016940745 0.36271125 4291085056
0.024237942 0.016940745 0.36271125 4291150848
0.024826501 0.016940745 0.36271125 4291281152
0.025406303 0.016934905 0.36258626 4291215360
0.025985697 0.016929068 0.36246127 4291412736
0.026573852 0.016929068 0.36246127 4291412736
0.027162004 0.016929068 0.36246127 4291215872
0.027731022 0.016917394 0.36221132 4291215872
0.028318768 0.016917394 0.36221132 4291215872
0.028906517 0.016917394 0.36221132 4291215872
0.029484089 0.016911557 0.36208633 4291281920
0.030071633 0.016911557 0.36208633 4291347712
0.030648597 0.016905718 0.36196133 4291544064
0.031235937 0.016905718 0.36196133 4291609856
0.031823281 0.016905718 0.36196133 4291740160
0.032399431 0.01689988 0.36183634 4291805952
0.03298657 0.01689988 0.36183634 4291674368
0.033562109 0.016894042 0.36171135 4291740160
0.034149047 0.016894042 0.36171135 4291543040
0.034735985 0.016894042 0.36171135 4291477248
0.035310715 0.016888205 0.36158636 4291279872
0.035897452 0.016888205 0.36158636 4291411456
0.036471572 0.016882367 0.36146137 4291478531
0.037058104 0.016882367 0.36146137 4291675910
0.037644632 0.016882367 0.36146137 4291544322
0.038217951 0.01687653 0.36133641 4291544322
0.038790852 0.016870692 0.36121142 4291609856
0.039376978 0.016870692 0.36121142 4291478272
0.039949276 0.016864855 0.36108643 4291543040
0.040521167 0.016859017 0.36096144 4291674624
0.041078418 0.016847342 0.36071146 4292068352
0.041663732 0.016847342 0.36071146 4291936768
0.042249046 0.016847342 0.36071146 4291740672
0.042819519 0.016841505 0.36058646 4291740672
0.043389589 0.016835667 0.3604615 4291740672
0.043974496 0.016835667 0.3604615 4291674880
0.044559408 0.016835667 0.3604615 4292002048
0.045128662 0.01682983 0.36033651 4292067840
0.04569751 0.016823992 0.36021152 4292527104
0.046282012 0.016823992 0.36021152 4292527104
0.046866514 0.016823992 0.36021152 4292593152
0.047434554 0.016818155 0.36008653 4292527360
0.048018854 0.016818155 0.36008653 4292789248
0.048603151 0.016818155 0.36008653 4292855040
0.049187452 0.016818155 0.36008653 4293051392
0.049771756 0.016818155 0.36008653 4292985600
0.050356053 0.016818155 0.36008653 4292986112
0.050940353 0.016818155 0.36008653 4292854528
0.051524658 0.016818155 0.36008653 4293181443
0.052108955 0.016818155 0.36008653 4293313029
0.052693255 0.016818155 0.36008653 4293314062
0.053277552 0.016818155 0.36008653 4293248269
0.053861856 0.016818155 0.36008653 4293641476
0.054465055 0.016823992 0.36021152 4293641476
0.055049557 0.016823992 0.36021152 4293641474
0.055634059 0.016823992 0.36021152 4293773060
0.056218565 0.016823992 0.36021152 4292325376
0.056822777 0.01682983 0.36033651 4293114880
0.057427395 0.016835667 0.3604615 4293181696
0.058012307 0.016835667 0.3604615 4293576451
0.058617529 0.016841505 0.36058646 4294363650
0.05922316 0.016847342 0.36071146 4294626822
0.059829194 0.01685318 0.36083645 4294232320
0.060414717 0.01685318 0.36083645 4294429696
0.061021362 0.016859017 0.36096144 4294494977
0.061628412 0.016864855 0.36108643 4294100224
0.062257405 0.01687653 0.36133641 4293969664
0.062887207 0.016888205 0.36158636 4293574912
0.06347394 0.016888205 0.36158636 4293246720
0.064082816 0.016894042 0.36171135 4292983552
0.064714454 0.016905718 0.36196133 4292393472
0.065369435 0.01692323 0.36233628 4292327680
0.06600289 0.016934905 0.36258626 4292327680
0.066591248 0.016934905 0.36258626 4292459264
-0.034749195 0.017595747 0.36408609 4293444864
-0.034134958 0.017583666 0.36383614 4293510912
-0.03354457 0.017583666 0.36383614 4293642496
-0.032954186 0.017583666 0.36383614 4293576704
-0.03231933 0.017559504 0.36333618 4293708288
-0.031718843 0.017553464 0.36321118 4294627076
-0.031140184 0.017559504 0.36333618 4294692869
-0.030550612 0.017559504 0.36333618 4294693394
-0.029950731 0.017553464 0.36321118 4294957594
-0.029351261 0.017547425 0.36308622 4294958397
-0.028752189 0.017541384 0.36296123 4294957883
-0.028163223 0.017541384 0.36296123 4294958916
-0.027564764 0.017535344 0.36283624 4294891838
-0.026976001 0.017535344 0.36283624 4294958133
-0.026387241 0.017535344 0.36283624 4294892340
-0.025798477 0.017535344 0.36283624 4294957602
-0.025209717 0.017535344 0.36283624 4294958116
-0.024620954 0.017535344 0.36283624 4294962471
-0.024032192 0.017535344 0.36283624 4293708035
-0.023443429 0.017535344 0.36283624 4294563330
-0.022846796 0.017529303 0.36271125 4294365952
-0.022258235 0.017529303 0.36271125 4294890496
-0.021669677 0.017529303 0.36271125 4294824704
-0.021073854 0.017523263 0.36258626 4294430976
-0.020485496 0.017523263 0.36258626 4293904640
-0.019897141 0.017523263 0.36258626 4293314560
-0.019308783 0.017523263 0.36258626 4293840904
-0.018720428 0.017523263 0.36258626 4292791298
-0.018132072 0.017523263 0.36258626 4292133376
-0.017543714 0.017523263 0.36258626 4291608576
-0.016955357 0.017523263 0.36258626 4291674368
-0.016367001 0.017523263 0.36258626 4291346432
-0.015778646 0.017523263 0.36258626 4291346432
-0.015190288 0.017523263 0.36258626 4291544324
-0.014601933 0.017523263 0.36258626 4290886400
-0.014013576 0.017523263 0.36258626 4290491648
-0.01342522 0.017523263 0.36258626 4291281162
-0.012841289 0.017529303 0.36271125 4290427404
-0.012252729 0.017529303 0.36271125 4290361611
-0.01166819 0.017535344 0.36283624 4290362644
-0.011083244 0.017541384 0.36296123 4290560023
-0.010497893 0.017547425 0.36308622 4291085139
-0.009912136 0.017553464 0.36321118 4292335206
-0.0093227653 0.017553464 0.36321118 4293189007
-0.0087364009 0.017559504 0.36333618 4292728456
-0.0081468271 0.017559504 0.36333618 4291410772
-0.0075598536 0.017565545 0.36346117 4293187183
-0.0069700778 0.017565545 0.36346117 4294236258
-0.0063824956 0.017571585 0.36358616 4294104672
-0.0057925167 0.017571585 0.36358616 4294367848
-0.0052043265 0.017577626 0.36371115 4294565227
-0.0046157306 0.017583666 0.36383614 4293580383
-0.0040253457 0.017583666 0.36383614 4293185625
-0.0034349612 0.017583666 0.36383614 4292923980
-0.0028455539 0.017589707 0.36396113 4292923980
-0.0022549666 0.017589707 0.36396113 4292397085
-0.0016643793 0.017589707 0.36396113 4292594464
-0.0010737919 0.017589707 0.36396113 4294237492
-0.00048320452 0.017589707 0.36396113 4294698043
0.0001073828 0.017589707 0.36396113 4294172208
0.0006982098 0.017595747 0.36408609 4293119520
0.0012889999 0.017595747 0.36408609 4292659989
0.00187979 0.017595747 0.36408609 4292331024
0.0024705799 0.017595747 0.36408609 4292199936
0.0030613705 0.017595747 0.36408609 4292331522
0.0036521603 0.017595747 0.36408609 4292397056
0.0042444072 0.017601788 0.36421108 4292462848
0.0048354003 0.017601788 0.36421108 4292856321
0.0054263929 0.017601788 0.36421108 4292658944
0.006017386 0.017601788 0.36421108 4292593708
0.0066083791 0.017601788 0.36421108 4294964569
0.0071993717 0.017601788 0.36421108 4294110640
0.0077903648 0.017601788 0.36421108 4293913261
0.0083813574 0.017601788 0.36421108 4294112187
0.0089723505 0.017601788 0.36421108 4293717429
0.0095600616 0.017595747 0.36408609 4294765157
0.010150852 0.017595747 0.36408609 4292396609
0.010737955 0.017589707 0.36396113 4293053185
0.011328543 0.017589707 0.36396113 4293053185
0.011919131 0.017589707 0.36396113 4292725504
0.012505421 0.017583666 0.36383614 4292593920
0.013095805 0.017583666 0.36383614 4292527360
0.01368619 0.017583666 0.36383614 4292527360
0.01427167 0.017577626 0.36371115 4292658944
0.014856745 0.017571585 0.36358616 4292593152
0.015446723 0.017571585 0.36358616 4292397056
0.016036702 0.017571585 0.36358616 4292397056
0.016620966 0.017565545 0.36346117 4292462848
0.017210741 0.017565545 0.36346117 4292528640
0.017794395 0.017559504 0.36333618 4292397569
0.01838397 0.017559504 0.36333618 4292134400
0.018973542 0.017559504 0.36333618 4291937536
0.019556386 0.017553464 0.36321118 4292134913
0.020145757 0.017553464 0.36321118 4291872256
0.020735126 0.017553464 0.36321118 4291872256
0.021324497 0.017553464 0.36321118 4291741952
0.021906327 0.017547425 0.36308622 4291478784
0.022487752 0.017541384 0.36296123 4291281920
0.023076719 0.017541384 0.36296123 4291281920
0.023657532 0.017535344 0.36283624 4291215872
0.024246294 0.017535344 0.36283624 4291215872
0.024826501 0.017529303 0.36271125 4291215360
0.025406303 0.017523263 0.36258626 4291215360
0.025985697 0.017517222 0.36246127 4291412736
0.026573852 0.017517222 0.36246127 4291478528
0.027162004 0.017517222 0.36246127 4291347456
0.027740588 0.017511182 0.36233628 4291281664
0.028318768 0.017505141 0.36221132 4291281664
0.028906517 0.017505141 0.36221132 4291347456
0.029484089 0.0174991 0.36208633 4291544576
0.030071633 0.0174991 0.36208633 4291741953
0.030648597 0.01749306 0.36196133 4292068352
0.031235937 0.01749306 0.36196133 4291870976
0.031823281 0.01749306 0.36196133 4292001536
0.032399431 0.017487019 0.36183634 4292264704
0.03298657 0.017487019 0.36183634 4292067840
0.033573709 0.017487019 0.36183634 4292002048
0.034160849 0.017487019 0.36183634 4291870464
0.034735985 0.017480979 0.36171135 4291870464
0.035310715 0.017474938 0.36158636 4291673344
0.035897452 0.017474938 0.36158636 4291739136
0.036471572 0.017468898 0.36146137 4291674112
0.037058104 0.017468898 0.36146137 4291674112
0.037644632 0.017468898 0.36146137 4291543040
0.038217951 0.017462859 0.36133641 4291674624
0.038790852 0.017456818 0.36121142 4291740416
0.039376978 0.017456818 0.36121142 4291674624
0.039949276 0.017450778 0.36108643 4291674624
0.040507138 0.017438697 0.36083645 4291674624
0.041078418 0.017432656 0.36071146 4291674624
0.041663732 0.017432656 0.36071146 4291674624
0.042234406 0.017426616 0.36058646 4291412736
0.042804681 0.017420575 0.3604615 4291281152
0.043374542 0.017414534 0.36033651 4291346432
0.043959249 0.017414534 0.36033651 4291346432
0.044543955 0.017414534 0.36033651 4291739904
0.045113008 0.017408494 0.36021152 4291674112
0.04569751 0.017408494 0.36021152 4292001792
0.046265952 0.017402453 0.36008653 4291804416
0.046850249 0.017402453 0.36008653 4292067328
0.047418088 0.017396413 0.35996154 4292330496
0.048002187 0.017396413 0.35996154 4292658432
0.048586283 0.017396413 0.35996154 4292461056
0.049170379 0.017396413 0.35996154 4292722944
0.049754478 0.017396413 0.35996154 4292722944
0.050338574 0.017396413 0.35996154 4292920320
0.050922669 0.017396413 0.35996154 4293051905
0.051506773 0.017396413 0.35996154 4293182208
0.052090868 0.017396413 0.35996154 4293248001
0.052674964 0.017396413 0.35996154 4293248517
0.05325906 0.017396413 0.35996154 4292853760
0.053843159 0.017396413 0.35996154 4293050368
0.054427255 0.017396413 0.35996154 4293181954
0.055011351 0.017396413 0.35996154 4293116163
0.055595446 0.017396413 0.35996154 4293050370
0.05617955 0.017396413 0.35996154 4292918530
0.056783356 0.017402453 0.36008653 4292721152
0.057367653 0.017402453 0.36008653 4292984576
0.057951957 0.017402453 0.36008653 4293379333
