# .PCD v0.7 - Point Cloud Data file format
VERSION 0.7
FIELDS x y z normal_x normal_y normal_z curvature
SIZE 4 4 4 4 4 4 4
TYPE F F F F F F F
COUNT 1 1 1 1 1 1 1
WIDTH 558
HEIGHT 1
VIEWPOINT 0 0 0 1 0 0 0
POINTS 558
DATA ascii
0.01931054 0.011306846 -0.015312176 0.047878437 -0.48488039 -0.87326896 0.0020083135
0.022384284 0.011539632 -0.01521558 0.077614583 -0.51454252 -0.85394496 0.0019756944
0.024541223 0.011683389 -0.015083051 0.11366183 -0.55255222 -0.82569176 0.0014364092
-0.021226905 0.014579846 -0.015003827 -0.15771456 -0.49982342 -0.85164708 0.0021792529
-0.01927687 0.014643463 -0.015226793 -0.12104305 -0.43214074 -0.89364588 0.0016666157
-0.016412122 0.014219557 -0.01538493 -0.09168119 -0.4040693 -0.91012228 0.0025717099
-0.013518374 0.01377112 -0.01547262 -0.064375624 -0.35323453 -0.9333173 0.0022698997
-0.010522716 0.01353146 -0.015587154 -0.046478562 -0.31235486 -0.94882786 0.0019065653
-0.007497428 0.013518382 -0.015727362 -0.032767229 -0.27866343 -0.95982969 0.00192373
-0.0044988268 0.013514679 -0.015837094 -0.023025153 -0.25614783 -0.96636337 0.0020800394
-0.0015327847 0.013561621 -0.015928812 -0.020591319 -0.24096072 -0.97031641 0.0022240721
0.0015461977 0.01351402 -0.015995836 -0.021217721 -0.23226583 -0.97242087 0.0023092015
0.0045395871 0.0134672 -0.016059225 -0.023804316 -0.23296534 -0.97219366 0.0024837917
0.0074222223 0.013500147 -0.016150871 -0.023667116 -0.23709956 -0.97119701 0.0024741746
0.010482666 0.013477274 -0.016217506 -0.018950887 -0.25053787 -0.96792132 0.0025177121
0.013478365 0.013480914 -0.016270785 -0.015510082 -0.27393886 -0.96162206 0.0029014435
0.016528809 0.013563115 -0.016315533 -0.0019421659 -0.2976239 -0.95468122 0.002705063
0.019487232 0.013496883 -0.01624752 0.018942656 -0.32647786 -0.94501501 0.0025332468
0.022516362 0.013432481 -0.016105039 0.040396105 -0.35862613 -0.93260682 0.0022514982
0.025525128 0.013532229 -0.015925655 0.074977934 -0.39683148 -0.91482401 0.0022020193
0.028415101 0.013755389 -0.015718276 0.10420208 -0.44656456 -0.88866305 0.0022829722
0.031343143 0.01424588 -0.015524127 0.14530572 -0.49169025 -0.85856098 0.0025102852
0.034042239 0.014649407 -0.015240134 0.18121161 -0.52321291 -0.83271283 0.0016385993
0.036353678 0.014915739 -0.015021335 0.22547817 -0.5740971 -0.7871291 0.0016594108
-0.03026174 0.017973464 -0.015075617 -0.20295787 -0.50620961 -0.83818853 0.0016393005
-0.02797015 0.017550854 -0.015192506 -0.16615053 -0.45486751 -0.87492257 0.0016835062
-0.025255291 0.01705651 -0.015422627 -0.13129163 -0.41392541 -0.90079314 0.0028283186
-0.022443881 0.016648745 -0.015649358 -0.10464479 -0.34288871 -0.93352914 0.0026071069
-0.01943735 0.016591728 -0.015946334 -0.072370119 -0.29083627 -0.95403188 0.0024967615
-0.016455842 0.016565224 -0.016152186 -0.04198122 -0.24394476 -0.96888 0.0028125916
-0.013431761 0.016495647 -0.016263355 -0.017931072 -0.20004512 -0.9796226 0.0034169254
-0.010510174 0.016535716 -0.016322648 -0.010813206 -0.15733694 -0.98748583 0.0036803177
-0.0074864537 0.016432032 -0.016331928 -0.0069669974 -0.12282051 -0.99240446 0.0038745322
-0.0045101629 0.01647635 -0.016340593 -0.0016018983 -0.093791083 -0.99559063 0.0041015851
-0.0015224015 0.016529031 -0.016348943 -0.0041387174 -0.040749222 -0.99916083 0.0046097664
0.0015079565 0.016509935 -0.016381087 -0.013713032 -0.030198811 -0.99944985 0.0048964485
0.004553677 0.016544094 -0.016442629 -0.026490523 0.0063772965 -0.99962872 0.0053780279
0.0075615444 0.0164699 -0.016525179 -0.032775257 -0.063926205 -0.99741626 0.0051255543
0.010500449 0.016522786 -0.016637037 -0.038045786 -0.076401547 -0.99635094 0.00522403
0.013548929 0.016492479 -0.016755385 -0.041018184 -0.098944247 -0.9942472 0.0054763616
0.016526809 0.016523054 -0.016871842 -0.034094729 -0.12408692 -0.99168545 0.0049540992
0.01954185 0.016467482 -0.016956469 -0.020901291 -0.16516584 -0.98604435 0.0050630313
0.02252838 0.016471496 -0.016984558 2.655503e-05 -0.20788431 -0.97815341 0.0045676506
0.025492033 0.01652723 -0.016949125 0.017612483 -0.25074998 -0.96789169 0.0037501063
0.028536683 0.016534651 -0.016824925 0.057506688 -0.29880235 -0.95258081 0.0035991527
0.031503405 0.016562244 -0.016547665 0.090237491 -0.34499472 -0.93425685 0.0031857016
0.034509748 0.016580755 -0.016157994 0.14301437 -0.40223032 -0.9042995 0.0024735287
0.037355997 0.016846063 -0.015751369 0.19233096 -0.45328417 -0.87036902 0.0022453091
0.040175389 0.017436469 -0.015371502 0.23742464 -0.49311087 -0.8369416 0.0026900787
0.042187382 0.017891461 -0.015041758 0.29239297 -0.52959865 -0.79626107 0.0018195742
-0.036475211 0.020794813 -0.015001053 -0.27318129 -0.48135296 -0.83286929 0.0019073725
-0.034212861 0.020446265 -0.015308741 -0.20837525 -0.42385292 -0.88143545 0.0020943042
-0.03145675 0.019729925 -0.015554097 -0.1612878 -0.38396668 -0.90915114 0.0023011614
-0.02852956 0.019536888 -0.015934007 -0.1070677 -0.31963652 -0.94147176 0.0026667705
-0.025592342 0.019466313 -0.016240126 -0.070048317 -0.25885397 -0.96337318 0.0034352692
-0.022487605 0.019532053 -0.016488517 -0.043535512 -0.20095526 -0.97863263 0.0044260202
-0.0195485 0.019591426 -0.016580066 -0.011594523 -0.13760971 -0.99041867 0.0048961695
-0.01646024 0.019492866 -0.01657513 0.014349879 -0.078100912 -0.99684221 0.0056967749
-0.013454683 0.019482583 -0.016497649 0.032313459 0.081412859 -0.99615651 0.0054454394
-0.010466968 0.019603655 -0.01637256 0.036651898 0.12368143 -0.99164486 0.0042756801
-0.0074710231 0.01953649 -0.016251808 0.033528894 0.15709805 -0.98701364 0.0034768898
-0.0045038536 0.019462379 -0.016158283 0.023107067 0.18133377 -0.98315006 0.0030566256
-0.0015590551 0.019487357 -0.016086711 0.011034272 0.20205641 -0.9793117 0.0027983328
0.001544356 0.019499021 -0.016062398 -0.0046960074 0.21720624 -0.97611451 0.0027706942
0.0045389873 0.019451475 -0.016113935 -0.020285338 0.22263885 -0.9746899 0.002678599
0.0074506733 0.019456543 -0.016203672 -0.034201991 0.22578838 -0.97357577 0.002901661
0.010460594 0.01955309 -0.016329248 -0.049036894 0.22077152 -0.97409201 0.0030673847
0.01355045 0.019481288 -0.01653623 -0.061279491 0.21264161 -0.97520685 0.0035720307
0.016536718 0.019513493 -0.016739987 -0.063861132 0.19018044 -0.97966993 0.0040748054
0.019524118 0.019491794 -0.016955001 -0.066612102 0.15869935 -0.98507732 0.0051592183
0.02249114 0.019500025 -0.017145762 -0.057920046 0.11758751 -0.99137199 0.0063758753
0.025472702 0.019481195 -0.01728298 -0.030105788 -0.0018976526 -0.99954492 0.002665329
0.028415218 0.019503117 -0.017351748 -0.00041515025 -0.06777548 -0.99770045 0.0059500695
0.031456716 0.01954025 -0.01731012 0.031211611 -0.18806154 -0.98166114 0.0058890753
0.0345021 0.019569188 -0.017167199 0.070404604 -0.24795167 -0.96621072 0.0045430451
0.037538301 0.019520113 -0.016813172 0.1264528 -0.30200273 -0.94488305 0.0038077664
0.040495459 0.019569701 -0.016292114 0.20466416 -0.37235206 -0.90524393 0.0020651643
0.043313403 0.019753588 -0.015650878 0.25045887 -0.39817181 -0.88245648 0.0033790842
0.045687672 0.02049204 -0.01525719 0.31092 -0.45089325 -0.83667439 0.0027233835
-0.03970718 0.023502411 -0.015223217 -0.27725452 -0.40948653 -0.86916673 0.0027021291
-0.037268128 0.022771588 -0.015560009 -0.21767157 -0.36121559 -0.9067207 0.0022594098
-0.034465235 0.02245813 -0.01602485 -0.15979049 -0.29971713 -0.94055122 0.0023156374
-0.03141138 0.022432068 -0.016450027 -0.087385044 -0.22923243 -0.96944129 0.0039392835
-0.028418304 0.022543462 -0.016695611 -0.045258719 -0.16695711 -0.98492485 0.0054967254
-0.025394274 0.022401845 -0.01675202 -0.0012872813 -0.09737885 -0.99524659 0.0067200647
-0.022502363 0.022551751 -0.016699847 0.035543278 0.090352327 -0.99527538 0.0072927088
-0.019511694 0.022540793 -0.016549071 0.060259718 0.15111865 -0.98667723 0.0048993737
-0.016497146 0.022507926 -0.01632111 0.074783362 0.2022448 -0.9764756 0.0035422586
-0.013487955 0.022495607 -0.016043192 0.076593265 0.24472763 -0.96656191 0.0028612011
-0.010493654 0.022559315 -0.015743965 0.074070513 0.28061372 -0.95695847 0.0022956841
-0.0075556994 0.022453146 -0.015529993 0.06964343 0.31905419 -0.94517422 0.0022837615
-0.0045689158 0.022136921 -0.015443536 0.041186478 0.34684536 -0.93701762 0.002128311
-0.0014469669 0.021856742 -0.015410106 0.0264058 0.37164834 -0.92799801 0.0025338701
0.0014894536 0.021888958 -0.015337352 0.0058367224 0.38778597 -0.921731 0.0025033888
0.0044724089 0.021800956 -0.015389289 -0.016398557 0.3935588 -0.91915315 0.0024763497
0.0074889306 0.021901563 -0.015442669 -0.040226646 0.39572385 -0.9174881 0.0025461433
0.010608028 0.022120073 -0.01552979 -0.058538105 0.38659692 -0.92038918 0.0024039762
0.013500415 0.022353636 -0.015659295 -0.077641413 0.36639172 -0.92721564 0.0020981806
0.016442603 0.022537539 -0.015881965 -0.093107201 0.3430427 -0.93469399 0.0021619378
0.019418729 0.022529015 -0.016235471 -0.10142119 0.31959936 -0.94210935 0.0027583148
0.022553787 0.022462359 -0.016633322 -0.10054826 0.28577793 -0.95300633 0.0032075804
0.025492692 0.022466093 -0.016955605 -0.093588412 0.24681546 -0.96453273 0.0041150735
0.028439261 0.02251854 -0.017202172 -0.07371071 0.19871011 -0.9772824 0.0052528423
0.031464964 0.022475874 -0.017398518 -0.039610017 0.062123813 -0.99728215 0.0044807289
0.034457084 0.022467868 -0.0174715 0.00042766979 -0.017471297 -0.99984729 0.0048442627
0.037501838 0.022477059 -0.017392579 0.056048632 -0.11830755 -0.99139392 0.0058272234
0.040526077 0.022487419 -0.017120278 0.13126494 -0.20764321 -0.96935743 0.0059125447
0.043524742 0.022534022 -0.016624549 0.18273787 -0.26170155 -0.94769144 0.0040737209
0.046467617 0.022623628 -0.015904577 0.26833469 -0.33849385 -0.90189719 0.0019783471
0.048891593 0.023191528 -0.015337035 0.32947707 -0.37727275 -0.86551148 0.0030162481
-0.042949826 0.026168309 -0.015307878 -0.28416237 -0.34880647 -0.89307654 0.003128008
-0.040467095 0.025490547 -0.015743131 -0.22772618 -0.29291865 -0.92862236 0.0019987577
-0.037504401 0.025476063 -0.016335422 -0.13141865 -0.20869158 -0.9691115 0.0041133524
-0.034494165 0.02545614 -0.016686907 -0.066698246 -0.13834904 -0.9881351 0.0056386921
-0.031562645 0.025470637 -0.016807903 -0.021595405 -0.028172776 -0.9993698 0.0084365709
-0.028477214 0.025484346 -0.016746636 0.042633895 0.12851691 -0.99079049 0.0060756677
-0.025426939 0.025467204 -0.01653756 0.077710353 0.20052999 -0.97660065 0.0046397387
-0.022493487 0.025474854 -0.016236184 0.093272783 0.25331727 -0.9628762 0.0034576312
-0.01952742 0.025519727 -0.015838375 0.11538907 0.3038083 -0.94571978 0.0027061123
-0.016620651 0.02526599 -0.015522969 0.12046858 0.35905352 -0.92550951 0.0026177356
-0.013646879 0.024725288 -0.015316382 0.11913371 0.41291949 -0.90294224 0.0028308488
-0.010788501 0.024286823 -0.015124284 0.10821453 0.45257351 -0.8851366 0.0021217712
-0.0088134529 0.024181252 -0.015040862 0.095637225 0.48438743 -0.86961049 0.0014657327
0.017031224 0.024325589 -0.015146117 -0.11433674 0.50649315 -0.85462958 0.0017280862
0.019778803 0.024696676 -0.015363727 -0.13115455 0.47291869 -0.87129009 0.0022555117
0.022533948 0.025079587 -0.015623064 -0.14464964 0.44288558 -0.88483268 0.0022284214
0.025501879 0.02546612 -0.015928747 -0.14975494 0.40617311 -0.90144151 0.0019036786
0.028521856 0.025421085 -0.016420901 -0.12209515 0.35133386 -0.9282549 0.00287853
0.031507611 0.025477158 -0.016807942 -0.10567226 0.30654806 -0.94597131 0.003733509
0.034540225 0.025511786 -0.017115496 -0.073328793 0.2497386 -0.96553278 0.0045690848
0.037518993 0.025447248 -0.017307371 -0.033302907 0.18342777 -0.9824689 0.0063420651
0.040499594 0.025525181 -0.017318942 0.023301963 0.043021157 -0.99880242 0.0042896899
0.043467414 0.025613055 -0.017131252 0.12381015 -0.075350702 -0.98944092 0.0085080191
0.046528589 0.025518209 -0.016657947 0.18845639 -0.17771725 -0.96586788 0.005264713
0.049535666 0.025479825 -0.015880952 0.26942837 -0.24023139 -0.93257558 0.0024037405
0.051802505 0.026139097 -0.015324316 0.34488174 -0.298017 -0.89008003 0.003115745
-0.048115265 0.029888492 -0.015126101 -0.32196936 -0.36248016 -0.87461072 0.002691457
-0.046055231 0.028893629 -0.015323601 -0.26359138 -0.28560904 -0.9213832 0.0029846637
-0.0435162 0.028493768 -0.015842751 -0.1910584 -0.2031896 -0.96031803 0.0035012865
-0.040462945 0.028450785 -0.016404986 -0.12578909 -0.13670506 -0.98259294 0.0063004717
-0.037435215 0.028465876 -0.016684709 -0.072552972 -0.059940852 -0.99556178 0.0099379886
-0.034492683 0.02845077 -0.016688677 0.02981054 0.14269635 -0.98931754 0.0067695868
-0.031553209 0.02847735 -0.016491167 0.079789169 0.21687385 -0.97293347 0.0046778657
-0.028498014 0.028393978 -0.016150398 0.11224411 0.2845659 -0.95206279 0.0033840707
-0.025568468 0.028390596 -0.015691489 0.14096163 0.34573168 -0.92768496 0.0029410608
-0.022728732 0.027891889 -0.015421255 0.15187867 0.41657794 -0.8963235 0.0030568719
-0.020046148 0.027348749 -0.015180643 0.15960185 0.46858218 -0.86888319 0.0022505408
0.026121752 0.027238533 -0.015139326 -0.17010677 0.5221554 -0.83571374 0.0014978574
0.028709447 0.027657866 -0.015432332 -0.16566026 0.49266812 -0.85430372 0.0022662638
0.031609472 0.028244136 -0.015685381 -0.16684639 0.4546563 -0.87489992 0.002327218
0.034523401 0.028492451 -0.016091622 -0.14910814 0.39851001 -0.90496218 0.0023859954
0.037546281 0.028511936 -0.016543781 -0.10764168 0.33032539 -0.93770903 0.0034794926
0.040503547 0.028558023 -0.016847426 -0.075990126 0.26802701 -0.96040982 0.0050108084
0.043529198 0.028543107 -0.016976526 -0.00057027879 0.18215775 -0.9832691 0.0063869916
0.046559598 0.028499639 -0.016836613 0.11072638 0.026462536 -0.9934985 0.0070713335
0.049504567 0.028526029 -0.016412644 0.20091859 -0.068546854 -0.97720671 0.0047526709
0.052432984 0.028611958 -0.015682414 0.257083 -0.14856043 -0.95490211 0.0033093495
0.054468419 0.029264018 -0.015146355 0.35503772 -0.21878369 -0.90889043 0.0032962088
-0.048927587 0.03194188 -0.015300982 -0.2611745 -0.19468471 -0.94545531 0.0033975046
-0.046494488 0.031441968 -0.015787741 -0.17463748 -0.1151589 -0.97787535 0.0047080782
-0.043523584 0.031495601 -0.016261345 -0.11692038 -0.010677643 -0.99308383 0.0069593308
-0.040536024 0.031400222 -0.016437521 -0.028889859 0.12114446 -0.99221438 0.0062518171
-0.03749783 0.031490881 -0.016342236 0.048858289 0.215157 -0.97535652 0.0049241595
-0.034510899 0.03147598 -0.016021194 0.11834614 0.28475451 -0.951267 0.0033524905
-0.031575594 0.031229181 -0.015625359 0.15600899 0.3587026 -0.92032254 0.0031443203
-0.028701887 0.030552594 -0.015361785 0.17569475 0.43991077 -0.88068712 0.0029496215
-0.02655239 0.030147595 -0.015119826 0.19039041 0.49199325 -0.84952587 0.0020237176
0.032938641 0.030086298 -0.015000638 -0.20223731 0.57266003 -0.79445618 0.0014361625
0.035047099 0.03042729 -0.015205633 -0.1972014 0.52142614 -0.83019662 0.0021534953
0.037679303 0.030937804 -0.015502989 -0.16860989 0.46814623 -0.86741555 0.0028126754
0.040595625 0.031428192 -0.015832571 -0.16258636 0.3892504 -0.90666962 0.0025938253
0.043544918 0.031486381 -0.016248589 -0.095392957 0.32093018 -0.94228661 0.0027172435
0.046499461 0.031478636 -0.016440034 -0.006986401 0.23197111 -0.97269762 0.0047360598
0.049536631 0.031492315 -0.016340246 0.083939195 0.13889889 -0.98674273 0.0054655164
0.052489936 0.031577904 -0.015908372 0.18275069 0.030064793 -0.98269951 0.0032530345
0.054953814 0.031729456 -0.015306811 0.28234825 -0.060235877 -0.95741898 0.0032513223
-0.051290303 0.034847226 -0.015091768 -0.2461918 -0.081309743 -0.96580452 0.0057197348
-0.049408883 0.034527358 -0.015469197 -0.15647426 -0.021579923 -0.98744625 0.0044410923
-0.046443388 0.034472335 -0.015884018 -0.078370713 0.10596956 -0.9912762 0.0043091355
-0.043490093 0.034467198 -0.015978515 -0.011101263 0.18584916 -0.98251551 0.0049171727
-0.04048628 0.034420241 -0.015805472 0.077277429 0.27585897 -0.95808667 0.0038939815
-0.037677485 0.034157533 -0.015528322 0.13376229 0.36292464 -0.92216778 0.0035766046
-0.034898426 0.033554811 -0.01528563 0.1803633 0.42773798 -0.88572526 0.0022596533
-0.032969736 0.033046763 -0.01502855 0.21988046 0.48717842 -0.84516847 0.0021558227
0.041431077 0.033188999 -0.015149628 -0.21209353 0.50035733 -0.83943957 0.0021514806
0.043758512 0.033682432 -0.015395455 -0.15879968 0.42592531 -0.89071339 0.0027582201
0.046668608 0.034265142 -0.015584406 -0.10591313 0.36341938 -0.92558557 0.0023147126
0.049551189 0.03444593 -0.01572795 -0.0057185707 0.25846541 -0.96600366 0.003549949
0.052499961 0.034482516 -0.015629621 0.091143787 0.15576462 -0.98358035 0.0033318296
0.055122554 0.034494039 -0.015246715 0.20172775 0.070815854 -0.97687823 0.002622857
-0.051443312 0.037073258 -0.015079141 -0.15288462 0.10913609 -0.98219937 0.0049074763
-0.049510419 0.037303392 -0.01527721 -0.069484748 0.16250406 -0.98425823 0.0027523742
-0.046529297 0.037179008 -0.015389514 0.003572392 0.25358504 -0.96730649 0.0042054225
-0.043717492 0.036809977 -0.015333134 0.085684538 0.3586117 -0.929546 0.0040414683
-0.041087281 0.036400974 -0.015159388 0.15663803 0.43977663 -0.88434213 0.0027783357
0.047508638 0.036013745 -0.015052018 -0.15385894 0.46436357 -0.87217772 0.0017597891
0.049921002 0.036330972 -0.015125978 -0.080480076 0.38854563 -0.91790813 0.0026448697
0.052518304 0.036426201 -0.015176687 0.036790304 0.27135363 -0.96177632 0.0039511039
0.054646239 0.03634819 -0.015072652 0.15865308 0.15954633 -0.97435838 0.003852912
-0.048985105 0.039081108 -0.015015108 -0.019937212 0.21357344 -0.97672355 0.0037359481
0.0016554149 0.0059993397 -0.012000308 -0.02448854 -0.67556155 -0.73689687 0.0028253391
-0.015969563 0.0088270288 -0.012078769 -0.18243858 -0.6681518 -0.72131079 0.0012133268
-0.01317517 0.0085424734 -0.012366392 -0.14341065 -0.64490557 -0.75068647 0.001160971
-0.010426865 0.0082285246 -0.012568525 -0.11542128 -0.62687618 -0.77052206 0.0011039734
-0.0074854433 0.0080243144 -0.012789209 -0.091276877 -0.61430246 -0.7837736 0.0011599121
-0.004466339 0.0078229113 -0.012933859 -0.06949988 -0.60459101 -0.79349828 0.0011088097
-0.0014786278 0.0076502711 -0.013021235 -0.049838323 -0.59548849 -0.80181652 0.0014408837
0.0015147366 0.0076024043 -0.013154059 -0.035089694 -0.58172381 -0.8126291 0.0020839979
0.0044707912 0.0074773603 -0.013171573 -0.010429392 -0.6011979 -0.79903209 0.0021598812
0.0074768607 0.0075861271 -0.013289978 -0.0070385505 -0.6005832 -0.79953134 0.0021234746
0.010440447 0.0076927166 -0.013342516 0.011746108 -0.60878468 -0.79324853 0.0022226765
0.013514006 0.0076328181 -0.013186554 0.037625588 -0.627002 -0.77810848 0.0011186783
0.016528724 0.0077975928 -0.013118349 0.063963279 -0.63520217 -0.76969272 0.0014548445
0.019485094 0.0080242818 -0.012999027 0.096283786 -0.65779686 -0.74701583 0.0011782228
0.022422142 0.0082846722 -0.012806248 0.13241413 -0.66484565 -0.73515087 0.0013406686
0.025351979 0.0085981218 -0.012533225 0.15827581 -0.68156201 -0.7144382 0.0013887096
0.027756147 0.0088823047 -0.012238018 0.19358851 -0.69877595 -0.68864769 0.001143027
-0.024731653 0.011836924 -0.012174888 -0.2383716 -0.65519202 -0.71686989 0.0011411195
-0.022279238 0.011352439 -0.012455615 -0.21677017 -0.63344073 -0.74280792 0.0012254545
-0.019359678 0.010965505 -0.012925091 -0.19547147 -0.60962725 -0.76820928 0.0010498563
-0.016450809 0.010518618 -0.013233964 -0.16479939 -0.57642287 -0.80036104 0.0014455285
-0.013514352 0.010510235 -0.013755023 -0.12831992 -0.54321271 -0.82973123 0.0011693066
-0.010471471 0.010454052 -0.014121487 -0.096742593 -0.51579243 -0.85123384 0.0010531497
-0.0075553302 0.010288947 -0.014319438 -0.076513402 -0.49839428 -0.86356747 0.001495598
-0.0045663971 0.010123869 -0.014447329 -0.056101628 -0.48373854 -0.87341267 0.0017892687
-0.0016035401 0.0099454522 -0.014518146 -0.044701662 -0.47040832 -0.88131595 0.0020871023
0.0013834235 0.0098076947 -0.014579691 -0.034196172 -0.46484029 -0.88473392 0.0022530698
0.0044940743 0.0096673509 -0.014604474 -0.022926962 -0.46295089 -0.88608742 0.0022635404
0.0075859656 0.0096737891 -0.014671466 -0.012583207 -0.46562693 -0.88489163 0.0022921376
0.010514873 0.0096874265 -0.01468927 0.0059894514 -0.47646847 -0.87917113 0.0023107103
0.013472595 0.0095071597 -0.014536984 0.025943089 -0.54138726 -0.84037298 0.0015692072
0.016499842 0.009719328 -0.014543141 0.046866748 -0.53606761 -0.8428731 0.0017643917
0.019647589 0.0099443775 -0.014468867 0.070950478 -0.53562945 -0.8414672 0.0018521888
0.022551516 0.010193489 -0.014323774 0.10311175 -0.56394249 -0.81935149 0.001555008
0.025558306 0.010481636 -0.014082561 0.13398357 -0.58609241 -0.79908955 0.00099295552
0.028518349 0.010601764 -0.013584222 0.18048127 -0.63562357 -0.75060588 0.0019913362
0.031389322 0.010834063 -0.013048097 0.21467179 -0.66653877 -0.71389222 0.0011580285
0.034298111 0.011389012 -0.012620444 0.24644458 -0.66986507 -0.7003898 0.001403944
0.036650281 0.011831938 -0.012236342 0.27717832 -0.6708284 -0.68786728 0.0012789348
-0.031040967 0.014548805 -0.012350235 -0.26397452 -0.64101726 -0.72070408 0.00086018816
-0.028230866 0.013989481 -0.012809982 -0.24548323 -0.61139911 -0.75228262 0.001683022
-0.025418492 0.013575098 -0.013300306 -0.22025643 -0.56650305 -0.79407901 0.0014720875
-0.022534564 0.013540719 -0.014002673 -0.1724945 -0.52112424 -0.83586788 0.0011807129
-0.019633768 0.013201955 -0.014402233 -0.15856369 -0.49662417 -0.85335916 0.0016448308
-0.016674073 0.01270467 -0.014622292 -0.13134608 -0.45692161 -0.87975621 0.0022426455
-0.013777681 0.01230763 -0.014799242 -0.10385509 -0.41542381 -0.90367979 0.0026669956
-0.011765974 0.012204124 -0.014903627 -0.094844088 -0.40282163 -0.91035122 0.0033560805
0.028920507 0.012310681 -0.014812795 0.13944402 -0.54463917 -0.82699662 0.002560843
0.031662438 0.012746639 -0.014518544 0.18693641 -0.5626086 -0.80531132 0.0018024171
0.034598965 0.013230962 -0.014111113 0.21214437 -0.58316952 -0.78416079 0.0015762105
0.037473965 0.013612482 -0.013531388 0.25661498 -0.61500138 -0.74560177 0.0014882316
0.040281747 0.014065008 -0.01286241 0.30801651 -0.64472342 -0.69961232 0.0017177776
0.042804886 0.014665488 -0.012266434 0.34933633 -0.65569133 -0.66935271 0.001847364
-0.037087563 0.0174447 -0.012403774 -0.33075881 -0.60048878 -0.72801912 0.0012408168
-0.034371767 0.0167467 -0.012924551 -0.28721064 -0.60022187 -0.74648762 0.00092998566
-0.031528521 0.016514905 -0.013706167 -0.23092264 -0.54745072 -0.80434602 0.0010356089
-0.028627694 0.01618577 -0.014278881 -0.20060983 -0.5119952 -0.8352344 0.0014094814
-0.025735924 0.015682662 -0.014640041 -0.18167995 -0.46653444 -0.86564314 0.0022137023
-0.023224434 0.015307751 -0.01492823 -0.15282357 -0.42530736 -0.89205295 0.0022303117
0.038140986 0.015498732 -0.014779163 0.22828981 -0.56369352 -0.79380935 0.0012507484
0.040708076 0.015995823 -0.014266764 0.27390376 -0.53943181 -0.79623497 0.0017427594
0.043473914 0.016564393 -0.013577393 0.31937733 -0.56436503 -0.76124257 0.00096048001
0.046260625 0.017174354 -0.012761178 0.37828547 -0.60709274 -0.69881219 0.0012306599
0.048429381 0.017838171 -0.01213631 0.41409117 -0.62069565 -0.66578186 0.0016759183
-0.042541433 0.020613546 -0.012282786 -0.38821346 -0.57910782 -0.71688521 0.0011657869
-0.040306952 0.01984518 -0.01279522 -0.35705286 -0.56996894 -0.74003279 0.0008769632
-0.037455469 0.019509295 -0.013765755 -0.29470846 -0.51990646 -0.80177563 0.001062021
-0.034562483 0.018961964 -0.014421052 -0.25615543 -0.49116546 -0.83255082 0.001740636
-0.031847581 0.018356932 -0.01481622 -0.20613632 -0.45550933 -0.86603636 0.0020122814
0.044267479 0.018540913 -0.014686278 0.30266175 -0.50523823 -0.80816472 0.0015598424
0.046650141 0.019280279 -0.014150568 0.34504241 -0.49988854 -0.7943911 0.0014388273
0.049367677 0.019705685 -0.013103843 0.40938377 -0.55490899 -0.7242105 0.0016426273
0.05147998 0.020439865 -0.012479302 0.43912974 -0.5696463 -0.69474322 0.001735421
-0.045775507 0.023260342 -0.012496185 -0.40574437 -0.54424006 -0.73428482 0.0010621181
-0.043411151 0.022619428 -0.013255298 -0.3830893 -0.50427097 -0.77392071 0.0014420348
-0.040582202 0.022220887 -0.014262653 -0.31895044 -0.46303958 -0.82696134 0.0012906896
-0.038084354 0.021493956 -0.014760181 -0.2633453 -0.43229532 -0.86242104 0.0020857903
-0.0067366175 0.023718938 -0.0148896 0.088313378 0.36772886 -0.92573011 0.0024404775
-0.0041183778 0.023544302 -0.014812719 0.070142359 0.40936133 -0.90967214 0.0031338793
-0.0014710122 0.023440115 -0.014710959 0.042831846 0.44955409 -0.89222562 0.0018948605
0.0014755273 0.023398319 -0.014642081 0.014844613 0.43778932 -0.89895499 0.002363743
0.0044852686 0.023333378 -0.014677101 -0.012987581 0.44426128 -0.89580309 0.0024105606
0.0075503974 0.02348648 -0.014694204 -0.043152973 0.4732258 -0.87988359 0.0020450873
0.010322149 0.023613362 -0.014800156 -0.07097619 0.46603769 -0.88191342 0.0020854196
0.013211474 0.023926562 -0.014889922 -0.098043859 0.51958799 -0.84877306 0.0014054741
0.047720801 0.021167079 -0.014854609 0.36484748 -0.48350248 -0.79568315 0.001273986
0.04984517 0.022140086 -0.014434516 0.36892354 -0.42636484 -0.82589859 0.0014426024
0.05244245 0.022549843 -0.013349523 0.42886636 -0.47034609 -0.77126414 0.0017952692
0.05478486 0.023273276 -0.012456775 0.47758982 -0.50286651 -0.72043961 0.0017000382
-0.051452484 0.026975604 -0.012088352 -0.44832665 -0.55188745 -0.7031526 0.001745014
-0.049173865 0.026092844 -0.012666557 -0.41170982 -0.52569503 -0.74440563 0.0013096562
-0.046452839 0.025530746 -0.013632908 -0.37488136 -0.46216825 -0.80365694 0.0015702849
-0.043813188 0.025049964 -0.014520296 -0.32994351 -0.40607801 -0.85219598 0.0017270759
-0.041670036 0.024120791 -0.014867795 -0.31257087 -0.40700778 -0.85827976 0.0023965281
-0.018118003 0.026957171 -0.014988891 0.16934851 0.48200032 -0.85964924 0.0029198495
-0.015948975 0.026580548 -0.014824712 0.16518043 0.43683836 -0.88424408 0.0019703547
-0.013380135 0.026169807 -0.014560417 0.15496585 0.46092257 -0.8738054 0.0022845527
-0.010437972 0.025714776 -0.014327139 0.13076539 0.49377051 -0.85970414 0.0014526701
-0.0074794064 0.025436886 -0.014077761 0.1058313 0.50786287 -0.85491228 0.0010947285
-0.0045251162 0.025395324 -0.013791081 0.073063292 0.51519507 -0.85395306 0.0010765399
-0.0014718155 0.025529334 -0.013452639 0.054935183 0.5579254 -0.82807088 0.0020295214
0.0015234029 0.025515566 -0.013324023 0.025058957 0.57266688 -0.81940514 0.0028264588
0.0045039696 0.025478838 -0.013325523 -0.011425975 0.57526094 -0.81789017 0.0025569922
0.0075113797 0.025538119 -0.013372724 -0.046501178 0.58327186 -0.81094491 0.0029126185
0.010496969 0.025518402 -0.013584614 -0.071357876 0.5547986 -0.82891893 0.0011518101
0.013509843 0.025509307 -0.013918753 -0.10329313 0.56088293 -0.82142609 0.0016351208
0.016414354 0.025680589 -0.014219741 -0.13141932 0.53989154 -0.83141208 0.0012971491
0.019303786 0.026150353 -0.014424335 -0.15754548 0.51669782 -0.84154785 0.0017995663
0.022174755 0.026558971 -0.014751817 -0.17371525 0.54246789 -0.82191944 0.00074806408
0.024040358 0.026869651 -0.014885883 -0.17453434 0.55875409 -0.8107599 0.00097250176
0.050924659 0.024237549 -0.014898985 0.39123181 -0.40378931 -0.82697755 0.0013863323
0.052908752 0.025195012 -0.014507408 0.38799125 -0.35256541 -0.85156345 0.0015077622
0.055446889 0.025556168 -0.013362725 0.44729018 -0.41104585 -0.79433799 0.0019799634
0.057608124 0.026297225 -0.012463272 0.50394493 -0.42937449 -0.74945116 0.0019838789
-0.054144032 0.029657332 -0.01217259 -0.48042309 -0.48416334 -0.73128617 0.0020033733
-0.05213787 0.028752329 -0.012743137 -0.43380362 -0.45853174 -0.77560496 0.0021401963
-0.049518704 0.02852626 -0.013895392 -0.36980346 -0.39931881 -0.8389219 0.0015870655
-0.047061559 0.027834604 -0.014592689 -0.3167358 -0.35396323 -0.87999344 0.0018978579
-0.024535026 0.029724967 -0.014823092 0.19612037 0.51255143 -0.83595926 0.0024444174
-0.022236176 0.029230935 -0.01463296 0.19798382 0.46631643 -0.86217833 0.0023500072
-0.019391967 0.028718419 -0.014268209 0.19126609 0.51363224 -0.83642048 0.0015562341
-0.016483745 0.028480768 -0.013744955 0.18703598 0.54709697 -0.81590587 0.0014606919
-0.013541942 0.028355448 -0.013148997 0.18004039 0.58638108 -0.78977382 0.0020979752
-0.010608024 0.028018445 -0.012792732 0.15013207 0.61307693 -0.7756269 0.0019957314
-0.0076665976 0.027644252 -0.012578021 0.1203201 0.63693851 -0.76146728 0.001819268
-0.0045383223 0.027352365 -0.012396765 0.090459004 0.65388262 -0.75116885 0.0015378554
-0.0017112269 0.027110942 -0.012288668 0.065478727 0.66855669 -0.74077284 0.0019947209
0.00073073327 0.027154708 -0.012045287 0.037985768 0.64962685 -0.75930369 0.0026329374
0.0057056639 0.027210612 -0.012073825 -0.014479594 0.62791765 -0.77814507 0.0015511058
0.0078581013 0.027113246 -0.012138751 -0.038194183 0.65610051 -0.75370634 0.001981837
0.010580138 0.027272843 -0.012203536 -0.072989181 0.65413827 -0.75284505 0.0014928775
0.013520968 0.027405242 -0.012450402 -0.10768073 0.67913723 -0.72606993 0.0015517497
0.016600918 0.027725922 -0.012695041 -0.14523773 0.65298629 -0.74331343 0.0014207609
0.019629629 0.0281171 -0.013017576 -0.17860101 0.6298601 -0.75589544 0.0015904208
0.022561764 0.02844956 -0.013455654 -0.1983659 0.59537011 -0.77857906 0.0014046123
0.02546595 0.0286726 -0.014014569 -0.19063279 0.56596172 -0.80208874 0.0011103827
0.028327458 0.02916644 -0.014393228 -0.20022281 0.53524774 -0.82062215 0.0017906664
0.031036405 0.029639998 -0.014745886 -0.20361494 0.56201184 -0.8016755 0.0011579482
0.053742297 0.027431685 -0.014917402 0.37323326 -0.21726473 -0.90193844 0.0037350166
0.055751994 0.028387973 -0.014361557 0.40912506 -0.26641455 -0.87271988 0.0015843984
0.058488768 0.028670698 -0.013015506 0.47808734 -0.3282952 -0.81465006 0.0023090672
0.060413722 0.029539594 -0.012174527 0.54450643 -0.35112149 -0.76172596 0.0022868866
-0.057248794 0.032897629 -0.012040796 -0.51746553 -0.40415716 -0.75424558 0.0022027721
-0.055054564 0.031853128 -0.01274049 -0.44936281 -0.36974716 -0.81324047 0.0025433933
-0.052473888 0.03145567 -0.013851625 -0.38545093 -0.31233731 -0.86825866 0.0018915714
-0.050022829 0.030961931 -0.01469696 -0.32883468 -0.26845035 -0.90542924 0.0023163676
-0.030700371 0.032440141 -0.014879205 0.20352726 0.44528028 -0.87195301 0.0023357423
-0.028312353 0.032004002 -0.014481659 0.22681832 0.48442975 -0.84491491 0.0021004181
-0.025407916 0.031496882 -0.01398705 0.22669972 0.53806126 -0.8118481 0.001384146
-0.022547407 0.031360894 -0.013242553 0.23403703 0.59045601 -0.77239138 0.0017948529
-0.019666404 0.030867957 -0.012795259 0.22354157 0.63742262 -0.73737478 0.001438904
-0.016817631 0.030426577 -0.012330286 0.20536122 0.66784567 -0.71540821 0.0015764564
0.023137834 0.030075701 -0.012238407 -0.19811572 0.65908056 -0.72550875 0.0010790002
0.025669521 0.030587971 -0.012496778 -0.21747585 0.68577582 -0.6945616 0.0011572208
0.028701732 0.031057976 -0.012988225 -0.22543515 0.6516965 -0.72420347 0.0018376339
0.031578276 0.031519592 -0.013462745 -0.23160794 0.61262 -0.75568151 0.0017943565
0.034360882 0.031736147 -0.014127407 -0.22851573 0.56001335 -0.79634517 0.0012750755
0.037202757 0.032268923 -0.014583888 -0.22896324 0.52111429 -0.82220173 0.0018026043
0.039252896 0.032695033 -0.014888694 -0.20667745 0.48818228 -0.84791654 0.0026566274
0.056404714 0.03127661 -0.014765828 0.35455731 -0.13296975 -0.92553127 0.0030877881
0.058503676 0.031542048 -0.013883959 0.42215523 -0.17142183 -0.89016825 0.0017557413
0.06095235 0.031785 -0.01261723 0.50716919 -0.24327695 -0.8267985 0.0032013387
-0.057794597 0.035042576 -0.012482849 -0.47569168 -0.30106619 -0.8264845 0.0033296088
-0.055398107 0.034594353 -0.013544575 -0.39216891 -0.23118664 -0.89036858 0.0039521349
-0.052628797 0.034346815 -0.014597576 -0.32697475 -0.16070083 -0.93126947 0.0030427042
-0.037032597 0.03552008 -0.014761492 0.20049956 0.45234013 -0.86901569 0.0023705617
-0.034332294 0.034863804 -0.014432993 0.23850897 0.49992332 -0.83258045 0.0022829778
-0.031450879 0.034402199 -0.013841321 0.25118747 0.53457075 -0.80693185 0.0010888688
-0.02868267 0.034174442 -0.013065797 0.2795215 0.59667099 -0.75223106 0.0019226674
-0.025797054 0.033559885 -0.012553602 0.26400015 0.64388394 -0.71813464 0.001457504
-0.023680435 0.033222828 -0.012070499 0.25444749 0.63948363 -0.72547716 0.001530388
0.032626048 0.03330154 -0.012234475 -0.25129095 0.66770631 -0.70072901 0.0019351154
0.034772504 0.033657771 -0.012683898 -0.26463667 0.65823567 -0.70476472 0.0013369467
0.037633762 0.034258712 -0.013220537 -0.29011467 0.61177367 -0.73591202 0.0017136335
0.040482283 0.034559801 -0.014001484 -0.24142677 0.54159057 -0.80522841 0.0011458871
0.043320265 0.035108477 -0.014526608 -0.22591248 0.48268622 -0.84615457 0.0020614599
0.045746908 0.035693634 -0.014792341 -0.17109211 0.46539265 -0.86841071 0.0027555265
0.05655219 0.034684852 -0.014906035 0.25766063 0.018378571 -0.96606064 0.0033406352
0.058497339 0.034427967 -0.014268356 0.3463923 -0.021091612 -0.93785262 0.004372763
0.061522037 0.034639131 -0.012906085 0.45297965 -0.12094694 -0.88327867 0.0030284978
0.063293599 0.035813194 -0.012193349 0.55841178 -0.096936963 -0.82388079 0.0019551031
-0.060298759 0.038794283 -0.012125579 -0.50143778 -0.21747316 -0.83741605 0.0032906663
-0.058393467 0.037689433 -0.01285247 -0.40126252 -0.1747769 -0.89913368 0.0036907922
-0.055556431 0.037461713 -0.013994603 -0.30504262 -0.047515064 -0.95115262 0.0040898295
-0.052797183 0.037781388 -0.014755716 -0.19819817 0.045321472 -0.97911358 0.0049473462
-0.049655132 0.038709383 -0.014937892 -0.023757271 0.21739992 -0.97579348 0.0049509453
-0.046191901 0.038703393 -0.014854596 0.087764211 0.36469829 -0.92698038 0.0036388058
-0.043347824 0.03830326 -0.014632333 0.15991805 0.42271516 -0.89204156 0.0030257062
-0.04038937 0.037711296 -0.014317508 0.20366985 0.48476315 -0.85060173 0.0015802694
-0.037460919 0.037447531 -0.013653056 0.25234333 0.53437048 -0.80670375 0.001438436
-0.034616057 0.037047353 -0.012985449 0.28555834 0.60687786 -0.74172491 0.0016696788
-0.03199707 0.036475867 -0.012446892 0.29008296 0.64581549 -0.70623952 0.001325396
0.038880505 0.036120214 -0.012146402 -0.33753151 0.617109 -0.71080863 0.0012534137
0.040917739 0.03663826 -0.012582696 -0.31009129 0.63087881 -0.71122092 0.0015483131
0.04359692 0.037296027 -0.013131537 -0.29326966 0.58152378 -0.75882995 0.0014614797
0.046521824 0.037486676 -0.013917767 -0.20346278 0.50162101 -0.84082061 0.0011958751
0.04944076 0.03771675 -0.014428008 -0.14549601 0.44142044 -0.88542581 0.0019519711
0.052472752 0.03799361 -0.014630482 -0.056046717 0.37162954 -0.92668778 0.0028723397
0.055577662 0.03760856 -0.014660391 0.11950062 0.23515832 -0.96458286 0.0050986959
0.05851813 0.037372511 -0.014166056 0.26778716 0.10647559 -0.95757657 0.0042564888
0.06150651 0.037501048 -0.01311598 0.38299039 0.017330362 -0.92358971 0.0040499349
0.063363291 0.037677195 -0.012221087 0.51130873 -0.054478556 -0.8576687 0.0028656807
-0.060448527 0.040246624 -0.012256482 -0.43233538 -0.064374834 -0.89941204 0.004091036
-0.058461141 0.040605098 -0.013091806 -0.30588537 0.024161419 -0.95176178 0.0044829338
-0.055385243 0.04055379 -0.013969664 -0.21148452 0.14505281 -0.9665578 0.0073257214
-0.052520975 0.04056165 -0.014345222 -0.088105857 0.26257598 -0.9608804 0.00747331
-0.049523134 0.040513221 -0.014377226 0.01511772 0.36207625 -0.93202591 0.0059456564
-0.046523198 0.040458784 -0.014045092 0.13859469 0.4520424 -0.88116354 0.0017222079
-0.043476406 0.040493116 -0.013358515 0.23339519 0.52559841 -0.81809103 0.0023161715
-0.040588006 0.040007573 -0.012820869 0.25350559 0.59221315 -0.76486498 0.0020907547
-0.037982162 0.03933404 -0.01241218 0.28902975 0.63196564 -0.71908361 0.0014404509
0.044764888 0.039176334 -0.01214577 -0.3324261 0.59855342 -0.72885293 0.0021769237
0.046862274 0.039714608 -0.012535528 -0.27356735 0.58364511 -0.76453859 0.0023541823
0.049644411 0.040337354 -0.012973994 -0.22056621 0.52285582 -0.82339072 0.0026239201
0.052467715 0.040474955 -0.013478666 -0.1503547 0.48070061 -0.8638984 0.0022271369
0.055530187 0.04045609 -0.01374583 0.0077453321 0.35364294 -0.93534845 0.0039378931
0.058520764 0.04047066 -0.013565198 0.14351635 0.26964042 -0.95220649 0.0051091979
0.061469659 0.040477842 -0.012886998 0.28008193 0.15575725 -0.94725591 0.0045708446
0.063367449 0.040272076 -0.012180152 0.41124967 0.099797122 -0.90604323 0.0038147087
-0.060673285 0.043350887 -0.012182039 -0.33530307 0.11559135 -0.93499225 0.0046125608
-0.058488235 0.043487262 -0.012797046 -0.2203754 0.17438518 -0.95970023 0.0054874956
-0.055427223 0.043508206 -0.013253027 -0.093323268 0.30554962 -0.94759184 0.005100572
-0.052419368 0.043519024 -0.013223287 0.032073934 0.40568054 -0.91345197 0.0037965022
-0.049548402 0.043368567 -0.012959127 0.1573294 0.50002795 -0.85159814 0.0028910514
-0.046696272 0.042885441 -0.01263566 0.20595092 0.56011784 -0.80240399 0.0031615405
-0.044288147 0.042316079 -0.012316595 0.26325917 0.61398405 -0.74412251 0.0019581229
0.050734237 0.042218938 -0.012049777 -0.27136946 0.59491843 -0.7565915 0.0018173315
0.052871417 0.042581316 -0.012341327 -0.19627529 0.54480857 -0.81526655 0.0031787807
0.05559054 0.04299577 -0.012580779 -0.093213312 0.46454719 -0.88062894 0.0036805363
0.058529425 0.043353543 -0.012561522 0.0411257 0.36609152 -0.92966962 0.0036342377
0.061300989 0.04310764 -0.012348359 0.20414041 0.27317151 -0.94005531 0.0047911517
0.063172035 0.042382799 -0.012064664 0.31877238 0.21690875 -0.92267805 0.0054302253
-0.060309228 0.045397684 -0.012088727 -0.30994582 0.22381258 -0.92403549 0.0043860078
-0.05831708 0.045616765 -0.01225054 -0.14749242 0.3502894 -0.92495584 0.0050190804
-0.055523958 0.045625046 -0.012368973 0.0060601234 0.45293725 -0.89152181 0.0037985586
-0.052874684 0.045442294 -0.012277797 0.12175972 0.53314251 -0.83721781 0.0030426886
-0.050777487 0.045232482 -0.012072689 0.18326135 0.58192623 -0.79232389 0.0020760475
-0.013179825 0.005642843 -0.0094533535 -0.17795496 -0.75980967 -0.62531698 0.0013361747
-0.010262123 0.0053936341 -0.0098561384 -0.14224453 -0.75001377 -0.64594573 0.0011478836
-0.0074066645 0.0051298966 -0.010075581 -0.11195754 -0.75457549 -0.64659208 0.001014436
-0.0044448194 0.0049951915 -0.010336653 -0.083198801 -0.75236386 -0.6534726 0.001066871
-0.0014102925 0.0048316969 -0.010453335 -0.056100816 -0.74112481 -0.66901916 0.0012832523
0.0014707701 0.0047775931 -0.010577069 -0.032382734 -0.7388528 -0.67308837 0.0016349414
0.0045102458 0.0047219829 -0.010606972 -0.0057662693 -0.74037325 -0.67217129 0.0016076267
0.0074920231 0.0048620799 -0.010757222 0.0068839449 -0.7435028 -0.66869742 0.0015635431
0.010429422 0.0047820937 -0.010566492 0.035662837 -0.75912058 -0.64997238 0.0019741843
0.013455409 0.0049286298 -0.01048931 0.070346892 -0.76393449 -0.6414479 0.0010613443
0.016446663 0.005082848 -0.010307371 0.10003055 -0.78186369 -0.6153723 0.0014468143
0.019436086 0.0052899788 -0.010030062 0.12905686 -0.78671843 -0.6036709 0.0011282453
0.022414112 0.0055927937 -0.0096998969 0.15674546 -0.7906788 -0.59182584 0.0011319277
0.024889357 0.0059011867 -0.0094069913 0.1925372 -0.79928434 -0.56927496 0.00076948269
-0.024515193 0.008961739 -0.0092133423 -0.28175619 -0.74709082 -0.60205388 0.00091532397
-0.022149898 0.0085074054 -0.009659986 -0.26492557 -0.73242253 -0.62719357 0.00083113782
-0.01934257 0.008031941 -0.010202369 -0.23653071 -0.71946049 -0.65301597 0.0013473261
-0.016434135 0.0075386371 -0.01061805 -0.19557185 -0.71546102 -0.67072147 0.00099980121
-0.013547845 0.0070959479 -0.010945474 -0.16477071 -0.71021682 -0.68442869 0.001943984
-0.010592488 0.0067847096 -0.011275715 -0.13021003 -0.70092928 -0.70124412 0.0012903699
-0.0075828433 0.0065007079 -0.011508066 -0.10085476 -0.71233565 -0.69455469 0.0012963804
-0.0046136775 0.0063648452 -0.011758924 -0.07700599 -0.68363041 -0.72575438 0.0013222209
-0.001661643 0.0061453562 -0.011826042 -0.051395915 -0.69101894 -0.72100711 0.0017499445
0.0016361746 0.0061121681 -0.011940606 -0.022190018 -0.66909176 -0.74284852 0.0030410332
0.010864797 0.006052779 -0.011917966 0.019783344 -0.69048464 -0.72307646 0.0027651039
0.012991865 0.0061437115 -0.011866544 0.052179541 -0.69087976 -0.7210843 0.0018057792
0.016506471 0.0063573807 -0.011789176 0.080639504 -0.71109068 -0.69846064 0.0011528815
0.019562751 0.0065274406 -0.011548822 0.11416015 -0.70588291 -0.69906843 0.0013958225
0.02268371 0.0068137594 -0.011235972 0.14577201 -0.75936276 -0.63412827 0.0016872567
0.025623918 0.0070769745 -0.010727204 0.18175519 -0.77943301 -0.59954083 0.00099075539
0.02854869 0.0077372249 -0.010600429 0.20833892 -0.76338202 -0.61142689 0.0015068928
0.031334791 0.0081608463 -0.0101097 0.24768591 -0.77232087 -0.5849548 0.0011810811
0.034128472 0.0086107114 -0.0094332928 0.29016918 -0.77960068 -0.55499953 0.0010238079
-0.030613286 0.011742593 -0.0096568149 -0.30102205 -0.72886419 -0.61493313 0.00094024104
-0.028398186 0.0111937 -0.010005559 -0.29187694 -0.71903622 -0.63070977 0.0010505606
-0.025467681 0.010641872 -0.010642928 -0.26218596 -0.71401966 -0.64917988 0.0013736538
-0.022649819 0.0099069392 -0.010989289 -0.25427639 -0.70761007 -0.65926594 0.001162736
-0.019726789 0.0094919652 -0.011612129 -0.21422766 -0.68731332 -0.69405097 0.00093746017
-0.016661808 0.0090239756 -0.011961679 -0.18173569 -0.66704851 -0.72250843 0.0010528828
0.031928446 0.0093937246 -0.011433668 0.22954232 -0.73209411 -0.64136451 0.0013014122
0.034574106 0.0099204434 -0.010948184 0.27793753 -0.74812239 -0.60254759 0.001562493
0.037475731 0.010751118 -0.010574964 0.30467412 -0.7525171 -0.58385938 0.0014392799
0.040171269 0.011414647 -0.0099462895 0.35069206 -0.75098598 -0.55949545 0.0011357786
0.042268325 0.011898782 -0.0092726788 0.37834194 -0.75551426 -0.53484166 0.0018430384
-0.037141476 0.014693235 -0.0096315527 -0.35909438 -0.70373881 -0.61302769 0.00080963102
-0.034474108 0.014000196 -0.010295919 -0.31904644 -0.71368885 -0.62358451 0.0012978435
-0.031579461 0.013209472 -0.010813482 -0.30087203 -0.70474553 -0.64250284 0.0011457469
-0.028745502 0.012613603 -0.011420649 -0.26284146 -0.68010849 -0.68437332 0.0015826756
-0.026552988 0.012253114 -0.011924364 -0.25044075 -0.65566164 -0.71231115 0.0031663273
0.038744316 0.012361852 -0.01189906 0.31192037 -0.6765784 -0.66704381 0.0017723143
0.040765453 0.012749407 -0.011285788 0.32355812 -0.70783049 -0.62792212 0.0012623711
0.043539327 0.013565201 -0.010600911 0.37299526 -0.73483962 -0.56646734 0.00095372787
0.04620159 0.014370035 -0.0098082302 0.42045116 -0.71664864 -0.556449 0.0011851863
0.04820874 0.014977037 -0.0091906562 0.4309276 -0.71596599 -0.54926699 0.00089778437
-0.042611435 0.017578656 -0.009381704 -0.46266165 -0.6740728 -0.57582128 0.0015060545
-0.040249985 0.017034186 -0.010305453 -0.38796183 -0.66316813 -0.64007306 0.0011216203
-0.037764218 0.016167333 -0.010859531 -0.35805824 -0.67387235 -0.64628971 0.0012057333
-0.034981057 0.015510336 -0.011647723 -0.30369186 -0.65658253 -0.69041336 0.0010957463
0.04462675 0.015285572 -0.011929312 0.37582347 -0.66410172 -0.64631701 0.0013459405
0.046772253 0.015813148 -0.01113822 0.39524552 -0.6831696 -0.61405236 0.0011533721
0.049333151 0.016766807 -0.010390542 0.43622339 -0.68352979 -0.58523172 0.0016608816
0.051654156 0.017543001 -0.0094720712 0.48469567 -0.66361129 -0.56981599 0.0012235838
-0.045718119 0.020541949 -0.010130974 -0.45433739 -0.61738533 -0.64219373 0.00080203527
-0.043435875 0.019498171 -0.010709587 -0.41624874 -0.62657708 -0.65889156 0.00090728403
-0.041229296 0.018572286 -0.011250214 -0.37875232 -0.6164794 -0.69028968 0.00081095519
0.050302643 0.018410055 -0.011464261 0.44954097 -0.64349747 -0.61953533 0.00077586458
0.052572038 0.019374112 -0.010736965 0.46385872 -0.63281298 -0.61998612 0.0013161345
0.054820832 0.020217968 -0.0097997002 0.52336639 -0.6298635 -0.57389867 0.0014807923
-0.051206917 0.023757601 -0.009267875 -0.47580895 -0.63195592 -0.61174965 0.001348362
-0.049241241 0.023076197 -0.010028708 -0.46215406 -0.61039215 -0.64330006 0.00091686432
-0.046774026 0.02235724 -0.011126772 -0.44476715 -0.59632993 -0.66826105 0.001407972
-0.044508919 0.021356471 -0.011816874 -0.41372111 -0.57683587 -0.70434028 0.0020334544
0.053595807 0.021285245 -0.011771996 0.48188511 -0.57916617 -0.65753573 0.00080773723
0.05578661 0.022230722 -0.010920488 0.50247663 -0.54785085 -0.66886228 0.001858513
0.058026273 0.023115059 -0.0098403664 0.56468463 -0.5613175 -0.60502398 0.0016412461
-0.054352742 0.026668446 -0.0096150208 -0.51217479 -0.56307423 -0.64855564 0.0010078369
-0.052299391 0.025908815 -0.010467702 -0.47303048 -0.57841516 -0.66458863 0.0015181775
-0.049798008 0.024864286 -0.011334643 -0.44108832 -0.58229464 -0.68291587 0.0013441563
0.056663059 0.024364557 -0.011886504 0.52244323 -0.51066744 -0.68284094 0.00096463884
0.058788743 0.02532679 -0.010973432 0.53398675 -0.46651804 -0.70513761 0.0011329498
0.060844596 0.026081003 -0.0097684301 0.59854263 -0.50820595 -0.61925232 0.0013835746
-0.057324577 0.029408135 -0.0095327375 -0.5469355 -0.51479477 -0.66018778 0.00087681646
-0.05520764 0.028763318 -0.010703531 -0.5083155 -0.51774412 -0.68815434 0.0012264596
-0.052900378 0.027703635 -0.011604945 -0.457277 -0.51134533 -0.72761512 0.0016584991
-0.012566459 0.02972229 -0.011777468 0.18529421 0.68729931 -0.70234305 0.0022704019
-0.010294664 0.029441804 -0.011512853 0.16240427 0.67206037 -0.72246778 0.001800199
-0.0073918658 0.029092828 -0.011202396 0.1334675 0.69061095 -0.71080446 0.0018677883
-0.0044581704 0.028847555 -0.010964389 0.10748155 0.74178171 -0.66197252 0.0012351946
-0.0014733936 0.028631827 -0.010774883 0.087086126 0.72685748 -0.68124455 0.0029496634
0.0015284541 0.02856118 -0.010608335 0.050653204 0.7387445 -0.67207944 0.0021324584
0.0044875988 0.028429046 -0.010684515 -0.0097450363 0.74608576 -0.66577852 0.0024219982
0.0075138956 0.028516022 -0.01066605 -0.043985795 0.75075978 -0.65910918 0.0024138407
0.010460303 0.028714038 -0.010717005 -0.082880102 0.73756731 -0.6701681 0.0024788252
0.013452042 0.028832542 -0.010998383 -0.11906352 0.74111885 -0.66073209 0.0028266984
0.016474275 0.029244035 -0.011170798 -0.15805826 0.75052702 -0.6416595 0.0014735378
0.019293852 0.029640792 -0.011502041 -0.19090836 0.72671169 -0.65988189 0.0012693588
0.021590756 0.029901002 -0.011868685 -0.20944816 0.7002762 -0.68245494 0.0024057149
0.059666231 0.027532822 -0.011738391 0.56208616 -0.39456415 -0.72689641 0.0010883629
0.061607447 0.028463555 -0.010680319 0.58627433 -0.39453226 -0.70754975 0.0017736534
0.063451678 0.029307494 -0.0095395548 0.63915133 -0.42964259 -0.63788146 0.0017958116
-0.060235165 0.032740168 -0.0095627941 -0.58043206 -0.46496925 -0.6685074 0.0017855288
-0.058415443 0.03177347 -0.010379865 -0.53950942 -0.44785038 -0.71299344 0.002190321
-0.056257669 0.031009177 -0.011553541 -0.48907289 -0.42023432 -0.76433682 0.001966425
-0.02165819 0.032682139 -0.011832126 0.26571694 0.66968387 -0.69348258 0.0024426545
-0.019245273 0.032314755 -0.011309071 0.24638142 0.69803214 -0.67234462 0.001327388
-0.01642157 0.031914223 -0.010675729 0.23558338 0.73357165 -0.63747406 0.0017400248
-0.013594057 0.03120031 -0.010517847 0.20294422 0.74526209 -0.63513625 0.0024900539
-0.010584724 0.030844232 -0.010046435 0.18295397 0.74636692 -0.63989395 0.0016820809
-0.0075818752 0.030479059 -0.0096959006 0.14172585 0.76036137 -0.63384879 0.0016382007
-0.0044975383 0.030131271 -0.0095143551 0.11769301 0.76243758 -0.6362682 0.0013013096
-0.0021523491 0.030031255 -0.0092211841 0.086540647 0.77484655 -0.62619764 0.0017677099
0.011260241 0.03000739 -0.0091832383 -0.092332482 0.77613336 -0.6237722 0.00099228055
0.013624921 0.030177685 -0.0094030863 -0.12381627 0.78588295 -0.60585266 0.0019153515
0.016529573 0.030551501 -0.0096166618 -0.16588479 0.77157283 -0.61413157 0.001409675
0.01956448 0.03091763 -0.010097213 -0.20431186 0.75701523 -0.62063247 0.0014428691
0.022534052 0.031347763 -0.010595505 -0.22011621 0.75014758 -0.62356037 0.0021730524
0.025422685 0.032002348 -0.010887737 -0.23710507 0.75403142 -0.61255026 0.00093999022
0.028228268 0.032486495 -0.011413061 -0.2430139 0.72307879 -0.64660746 0.0012829745
0.030423071 0.03273971 -0.011927505 -0.25229028 0.67622823 -0.69214523 0.0022702594
0.062262479 0.031197006 -0.011519511 0.58355349 -0.29039559 -0.75837696 0.0018143252
0.064163737 0.031714082 -0.010158426 0.63878185 -0.34023175 -0.69007254 0.0016758376
