# .PCD v0.7 - Point Cloud Data file format
VERSION 0.7
FIELDS x y z normal_x normal_y normal_z curvature
SIZE 4 4 4 4 4 4 4
TYPE F F F F F F F
COUNT 1 1 1 1 1 1 1
WIDTH 574
HEIGHT 1
VIEWPOINT 0 0 0 1 0 0 0
POINTS 574
DATA ascii
0.022386761 0.035379536 0.0015703755 -0.2679463 0.95900446 0.092278123 0.0028485004
0.02430548 0.035896178 0.0019599085 -0.31268996 0.94586533 0.086970545 0.0029292351
0.070470579 0.034559391 0.0012865666 0.93517345 -0.34934166 0.058403671 0.0038513518
-0.024410956 0.038846251 0.0016604391 0.40625086 0.91030526 0.079401419 0.0024195081
-0.02249719 0.038119808 0.0015074221 0.36138031 0.92871577 0.083014153 0.0023005267
-0.019500189 0.03702046 0.0014929402 0.31597167 0.9431771 0.10285315 0.0027069596
-0.01716065 0.036270384 0.0013553579 0.2764017 0.95802897 0.076042742 0.0026415719
0.023991145 0.036044408 0.00061708986 -0.29165232 0.95388657 0.07098829 0.0050013312
0.025719313 0.036376044 0.0014020907 -0.28454518 0.95522749 0.081083767 0.0028117404
0.028497087 0.037276492 0.001471117 -0.30655381 0.94752115 0.090710059 0.0020647615
0.0314584 0.038322181 0.0015135645 -0.36234042 0.92711687 0.095727444 0.0030602948
0.033257984 0.038920529 0.0024086933 -0.43553284 0.89480138 0.098191932 0.0038194964
0.071475193 0.03751941 0.0014938592 0.96052599 -0.26569116 0.082449928 0.0044090939
0.072011039 0.038574889 0.0010860561 0.97627097 -0.209612 0.05438545 0.0053329724
-0.030656746 0.041667748 0.0015870651 0.45654577 0.88615787 0.079311006 0.0020439471
-0.028517811 0.040667474 0.0014608792 0.41989517 0.90386015 0.082005009 0.0020719802
-0.02586594 0.039497834 0.0014036641 0.37967691 0.92172003 0.079231977 0.0025002209
0.032887425 0.03904824 0.0010662252 -0.38531449 0.91812223 0.092651583 0.0033704415
0.034586232 0.039695159 0.0013896351 -0.43401718 0.89634997 0.09047503 0.0031882478
0.037338689 0.04118279 0.0015037415 -0.50076705 0.85883415 0.10787185 0.0027353005
0.039168809 0.041917745 0.0025950167 -0.53221643 0.83623219 0.13214166 0.0036394338
0.071825862 0.039715536 0.0020945217 0.96354312 -0.18777077 0.19059584 0.006904834
0.072223842 0.040813271 0.001178144 0.98419452 -0.15503842 0.085581563 0.0052760048
-0.036577564 0.04468761 0.0015545189 0.49018702 0.86758405 0.083753273 0.0022189154
-0.034486216 0.043598205 0.0014670297 0.4576726 0.88565266 0.078454092 0.0022526213
-0.03214008 0.042415801 0.0013692599 0.42677712 0.90076822 0.080485351 0.0022271448
0.038783982 0.0421222 0.0011164752 -0.53406525 0.83879864 0.10578864 0.0033223366
0.040491611 0.043120164 0.0014571693 -0.51558238 0.85054052 0.10370924 0.0028675639
0.042687528 0.04452724 0.0015254938 -0.54978365 0.83069509 0.087656006 0.002317559
0.072573274 0.043761462 0.001549506 0.99487573 -0.077955201 0.064383812 0.0039800825
-0.042296644 0.047825847 0.0017501361 0.50162566 0.86030453 0.090817273 0.0027407305
-0.040519673 0.046865005 0.0014781938 0.48408943 0.87050855 0.088725939 0.0028154326
-0.038090538 0.045519654 0.0013964457 0.46371248 0.88143617 0.089672431 0.0026104732
0.044226255 0.045555398 0.0014012336 -0.53227645 0.84056473 0.10066124 0.0034418912
0.046446029 0.046982452 0.0014963757 -0.5427202 0.83365941 0.10230751 0.0034107233
0.048149779 0.047894523 0.002372501 -0.54719758 0.82708544 0.12846997 0.0048175245
0.072737657 0.046262164 0.0012857742 0.99793059 -0.040300436 0.050103206 0.0051077981
-0.048212085 0.050922569 0.0024880709 0.4833177 0.8663063 0.12616406 0.0042000501
-0.04638594 0.050160646 0.001488672 0.48946214 0.86418766 0.11664739 0.0033459964
-0.043751922 0.048690792 0.0014019669 0.47234052 0.87633878 0.094470464 0.0030212158
0.047912568 0.04812241 0.00051668624 -0.5281527 0.84287691 0.10302071 0.0046948087
0.049568295 0.049060617 0.0014177555 -0.55160481 0.82812124 0.099736214 0.0046087666
0.051731512 0.05052295 0.0015847175 -0.57329255 0.81343389 0.098290011 0.0033968412
0.07281962 0.049286913 0.0014050694 0.99835283 -0.02481013 0.051731046 0.0052995207
-0.054309737 0.053931404 0.002818302 0.39454535 0.88959748 0.23010923 0.006198863
-0.052295465 0.053346921 0.0015486352 0.44657502 0.88481647 0.13293071 0.0038306771
-0.049509753 0.051896315 0.0014443509 0.44667664 0.88626653 0.12252174 0.0039443071
-0.04779429 0.051087506 0.00056698709 0.45384231 0.88902348 0.060534034 0.006321887
0.053149175 0.051519156 0.0013593397 -0.53565341 0.83690757 0.11252174 0.0046019726
0.055401336 0.052959446 0.0014654134 -0.55842769 0.82321137 0.10237978 0.0042722109
0.057259474 0.053903062 0.0025292851 -0.55485326 0.79514152 0.24471954 0.0075601395
0.072901346 0.052425958 0.0011798411 0.99989063 -0.01161813 -0.0091598667 0.0076271407
-0.075919315 0.056668986 0.0012298932 -0.5136888 0.85797095 0.003085335 0.018772498
-0.074849792 0.056950044 0.0029115533 -0.56603366 0.81651694 0.11360475 0.0089994483
-0.060590889 0.05672409 0.0017848039 0.49997357 0.85374379 0.14542319 0.010346348
-0.058526281 0.055866156 0.0014542718 0.37816924 0.91555876 0.13689497 0.0091930032
-0.05552271 0.054768492 0.0014571467 0.3339372 0.93079114 0.14870729 0.0046201828
-0.053712424 0.054133415 0.00093847938 0.3908821 0.91459781 0.10354697 0.0070988615
0.056813143 0.054090183 0.00065986149 -0.55003422 0.8296417 0.095691852 0.010644683
0.058571875 0.05512422 0.0013565997 -0.5582127 0.82116622 0.11867817 0.0078216819
0.060512692 0.056540422 0.0016791169 -0.66917449 0.72733808 0.15226561 0.012658516
0.072926626 0.055378158 0.0012626776 0.99895597 0.0023930774 0.045622893 0.011944359
-0.075374976 0.05743726 0.0010387648 -0.49771079 0.86721063 0.015153287 0.0079730013
-0.073436551 0.058489606 0.0014864453 -0.44737563 0.89189398 0.06618306 0.0050218576
-0.071174167 0.059584841 0.0014401305 -0.3713668 0.92388433 0.092327535 0.0047394549
-0.066306122 0.05983945 0.0026010869 0.29086155 0.88180953 0.37122983 0.016045988
-0.064341404 0.059157211 0.0015354088 0.52584869 0.83323264 0.17089903 0.0085840747
-0.061989587 0.057712451 0.0013011344 0.47359958 0.86653644 0.15753759 0.011919219
0.061789881 0.057949424 0.0013586597 -0.7664243 0.61380064 0.18932153 0.015832445
0.063291833 0.059494019 0.0019457862 -0.75868195 0.59784508 0.25881085 0.01836781
0.07284078 0.058544409 0.0017842697 0.92963535 -0.020007545 0.36793733 0.018800482
-0.069642805 0.06032094 0.0015244015 -0.16890897 0.97967005 0.10824221 0.015173849
-0.067467205 0.060647383 0.0013951933 0.15476444 0.97216284 0.1759185 0.017415186
-0.065698318 0.060191143 0.00075632008 0.34292606 0.93705636 0.065779954 0.019803846
0.062994123 0.060192503 0.00072267099 -0.8295759 0.53177512 0.17035018 0.033917185
0.063969515 0.061082311 0.0015550759 -0.88079602 0.4074094 0.2412802 0.023062529
0.073201694 0.061323185 0.0015257945 0.88919938 -0.06958504 0.45219722 0.023063166
0.065049 0.064384989 0.0012599323 -0.9487142 0.27611709 0.15395036 0.020912915
0.066396743 0.065252103 0.0026755997 -0.59052747 0.29202452 0.75232893 0.025548147
0.071943976 0.063097514 0.0028940048 0.19064376 -0.026768997 0.98129427 0.0076628295
0.073463753 0.064308226 0.0017204112 0.85830539 -0.19382159 0.47512648 0.023918638
0.065681763 0.067502864 0.00082299521 -0.97680151 0.21215141 0.029165803 0.018287145
0.066721581 0.067991801 0.0019701016 -0.82188541 0.25005233 0.51183802 0.018818988
0.069517381 0.068234049 0.0029112932 -0.1466767 0.0787533 0.98604459 0.016034795
0.074187659 0.06707406 0.0015381048 0.91659987 -0.30054212 0.26366472 0.013603985
0.075147927 0.068459898 0.00067200058 0.94884193 -0.31133524 -0.052624192 0.020470275
0.065794207 0.069364205 0.0005762931 -0.78860706 0.21462913 0.57622325 0.03647124
0.067094274 0.070368662 0.0015246407 -0.90386111 0.22696483 0.36265969 0.02325655
0.069347061 0.070173487 0.0028203693 -0.24803688 0.039629538 0.96793967 0.010030607
0.074629597 0.069850892 0.0024749101 0.7980234 -0.29505599 0.52545285 0.02961592
0.07573428 0.070524834 0.00092194695 0.97142166 -0.22055942 0.087712839 0.020156488
0.067240342 0.073389813 0.0010339858 -0.91398841 0.31169105 0.25975722 0.037943032
0.069247514 0.072650596 0.0028256609 -0.52653128 0.11799241 0.84192795 0.063816607
0.076385789 0.074577682 0.0012653602 0.54797107 0.83516991 0.047104754 0.032376014
0.068313807 0.076978512 0.0011339939 -0.20286936 0.97859418 0.034604307 0.071025886
0.070512615 0.076583833 0.0014687874 0.13567747 0.98861015 0.065128356 0.032981064
0.073514543 0.075667135 0.0014948854 0.31793681 0.94684643 0.048968703 0.0043585054
0.075323738 0.075110398 0.0014413022 0.35541496 0.93409437 0.033881634 0.005395805
0.062741287 0.023326671 0.0030800477 -0.69658452 0.69150621 -0.19128318 0.010079651
0.064305991 0.026328245 0.0051861927 0.70766282 -0.53096026 0.46614867 0.0016593453
0.065453514 0.0276931 0.0049276492 0.76387906 -0.51026791 0.39511442 0.00309993
0.066587344 0.028884713 0.0043471372 0.7914986 -0.48438099 0.37269953 0.0024956644
-0.0069679297 0.032829914 0.0055390862 0.16288437 0.92818165 0.3345854 0.0022384329
-0.0042629261 0.032654349 0.0049414714 0.1356132 0.93277365 0.33397964 0.0020371221
-0.0014416269 0.032464229 0.004502621 0.10168424 0.94357061 0.31517437 0.0023855038
0.0014923493 0.032250643 0.0044734892 0.053313661 0.95239925 0.30015543 0.0027278867
0.0044789687 0.032158669 0.0044879587 0.013596446 0.94380838 0.33021337 0.0025828441
0.0074694171 0.032189284 0.0044527072 -0.032169778 0.94932467 0.31264657 0.002687535
0.010539041 0.032388154 0.0044666226 -0.090625271 0.94700086 0.30818254 0.0030271895
0.013353001 0.032593016 0.0047332193 -0.14353299 0.93257481 0.3312138 0.0026975777
0.015975058 0.032791477 0.0054506748 -0.19552836 0.92165911 0.33513147 0.0027417156
0.018146498 0.032867204 0.0058497847 -0.24648796 0.85956973 0.4476423 0.00098671333
0.068116322 0.031694695 0.0045542549 0.83342505 -0.42948812 0.34776816 0.002198251
0.069139689 0.032650411 0.0034257546 0.84649813 -0.39871284 0.35280171 0.0039678719
-0.018575409 0.035809077 0.0054173195 0.31590787 0.90364182 0.28919497 0.0024022378
-0.016407417 0.035382934 0.0045792735 0.28927851 0.91637158 0.27673295 0.002192616
-0.013474031 0.034586761 0.004526949 0.2375581 0.92529184 0.29563689 0.00223002
-0.010499741 0.033889163 0.0044748625 0.19562609 0.93716359 0.28888541 0.0020794633
-0.0076721678 0.033423971 0.0041938536 0.15964746 0.94613791 0.2816661 0.0021527628
-0.004902659 0.033167828 0.0036153486 0.12891786 0.95102966 0.28093171 0.0022282072
-0.0026716646 0.033032119 0.0032645396 0.095013164 0.97299093 0.21038334 0.0026007537
0.014210105 0.033124056 0.0034404246 -0.13893098 0.9541654 0.26507813 0.0022564705
0.01665269 0.03338097 0.0041446164 -0.19446923 0.93726367 0.28934151 0.0025365062
0.019495562 0.033975575 0.0044584069 -0.22688174 0.92689407 0.29898494 0.0022261266
0.022482455 0.034767974 0.0045040403 -0.26892412 0.91374201 0.30455768 0.0019721666
0.025288654 0.035520118 0.0047708633 -0.30050063 0.90248698 0.30857202 0.0019460543
0.027335431 0.035813648 0.0056733126 -0.30434459 0.8891151 0.34183133 0.0023698031
0.0686571 0.033936244 0.0056213704 0.81549537 -0.33065882 0.47500736 0.0021576765
0.069933519 0.03519569 0.0041522165 0.88743919 -0.33246616 0.31924587 0.0058109383
-0.027208619 0.038833525 0.0056666173 0.37832066 0.86617583 0.32651621 0.0029949518
-0.025115235 0.038491573 0.0046828487 0.37853113 0.88515788 0.27057272 0.0018526515
-0.022485642 0.037503216 0.0045010899 0.34183434 0.89816409 0.27649692 0.0019216727
-0.019689705 0.036531955 0.0043231002 0.31180182 0.91188878 0.2669051 0.002096405
-0.017702065 0.036102753 0.0035250543 0.29766095 0.92043757 0.25336295 0.0026102487
0.026381219 0.036198705 0.0036491209 -0.28636959 0.91939813 0.26962852 0.0020343026
0.02857466 0.036658064 0.004532645 -0.30195197 0.90204895 0.3084361 0.0022708869
0.031482205 0.037704471 0.0044637173 -0.35588831 0.89058065 0.28321299 0.0022295408
0.03388403 0.038503457 0.0050457767 -0.40183932 0.86014014 0.31414032 0.0028183153
0.036091726 0.038935665 0.0058360579 -0.42551368 0.7892471 0.44274953 0.0010278781
0.070630588 0.037780255 0.0044943248 0.8881951 -0.2431283 0.38986927 0.0035537574
-0.033334095 0.041878797 0.0057402272 0.42711666 0.84344661 0.32583612 0.0034459135
-0.031295303 0.041321658 0.0046157911 0.42463511 0.86513412 0.26688555 0.0018871696
-0.028525228 0.040058423 0.0044671237 0.39083323 0.87993443 0.27011976 0.0019148081
-0.026377441 0.039285928 0.0038865171 0.36828744 0.88971305 0.26976863 0.0019678248
0.035079304 0.039415594 0.0040124077 -0.41573831 0.86535865 0.27984998 0.0030004464
0.037521593 0.040583875 0.0045307316 -0.46093756 0.83386952 0.30364156 0.0026994071
0.039701287 0.041653566 0.0051437304 -0.48732466 0.81029594 0.32547703 0.0028754734
0.071243919 0.040676959 0.0044847997 0.92219597 -0.14560585 0.35826442 0.0032884297
0.072120659 0.041816615 0.0033310989 0.96987951 -0.13142678 0.20508716 0.0018784777
-0.039191954 0.044842135 0.0058001014 0.43722859 0.82769245 0.3517904 0.00332982
-0.037237328 0.044323381 0.0046578851 0.45315266 0.84664321 0.27901247 0.0021049925
-0.034542758 0.04299739 0.0044239727 0.43109348 0.8611877 0.26928446 0.0020797036
-0.0325251 0.042218924 0.0036681595 0.42368731 0.86479741 0.26947078 0.0019415454
0.038995735 0.04208095 0.0030043763 -0.51345009 0.83595014 0.19379494 0.0048203263
0.040810507 0.042648163 0.0043211482 -0.49755055 0.81712312 0.29112419 0.0022961856
0.043301675 0.044111907 0.0046198932 -0.51629215 0.79954684 0.30686685 0.0018948955
0.045246847 0.044853568 0.0056367312 -0.48628214 0.78182054 0.39023879 0.0040350957
0.07142543 0.04390331 0.0048497394 0.89121771 -0.057733491 0.44988647 0.0028893314
0.072261691 0.044314116 0.0032558721 0.98746818 -0.084576219 0.13324206 0.0032350163
-0.045159403 0.047848914 0.005797389 0.42699149 0.79523772 0.43043613 0.0029399211
-0.043032885 0.047435883 0.0047419523 0.46143091 0.8327384 0.30598745 0.0023711254
-0.040533144 0.04617168 0.0044614649 0.45498952 0.84130567 0.29187194 0.0023344967
-0.038501244 0.045276303 0.0038348509 0.44686159 0.84635609 0.28982064 0.0022837382
0.04462596 0.045314021 0.0037009325 -0.51071447 0.8070035 0.29650673 0.0033676722
0.046419129 0.046170976 0.0044389232 -0.50902444 0.7981773 0.32219115 0.0027407175
0.048841406 0.047519069 0.0048385239 -0.51221865 0.79268897 0.33056945 0.0027005777
0.071480088 0.046319321 0.004911046 0.88238406 -0.0035242336 0.47051662 0.0027084255
0.072199106 0.046469111 0.0034916841 0.92331409 -0.029282136 0.38292769 0.0030091081
-0.051190503 0.050855923 0.0058577959 0.422887 0.75314206 0.50392818 0.0043799188
-0.048887134 0.05052964 0.0048889364 0.43872267 0.827878 0.34948593 0.0030180172
-0.04650249 0.049443927 0.0044545815 0.45653462 0.82794487 0.3257046 0.0025655804
-0.044243664 0.048406463 0.0039361496 0.44216025 0.83983481 0.31491557 0.0022079034
0.050060306 0.048611328 0.0041852263 -0.50952721 0.78347284 0.35574192 0.0030444108
0.052401032 0.049936187 0.0046331622 -0.50162745 0.77172267 0.39091426 0.003411056
0.054454226 0.050696123 0.0055632135 -0.47195908 0.76171672 0.44389445 0.0041335872
0.071390055 0.04959726 0.0049826088 0.85939026 0.037705217 0.50992817 0.004012207
0.072236635 0.0496196 0.0033329006 0.89753103 0.01725905 0.44061336 0.0045815487
-0.072729409 0.053618431 0.0052921139 -0.3738955 0.179888 0.90985852 0.0050704172
-0.071736865 0.05201488 0.0058146743 -0.34928769 0.16998357 0.92146826 0.0040143896
-0.057473075 0.053826455 0.0057719438 0.25884882 0.80058497 0.54042667 0.0031533048
-0.05511814 0.053493425 0.0048878947 0.32499966 0.85420215 0.4058497 0.0039033424
-0.052455541 0.052529354 0.0044716741 0.39043954 0.84164244 0.37308839 0.0027249344
-0.050038259 0.051472262 0.0040798928 0.4211058 0.8382749 0.34635973 0.0028600979
0.053627372 0.051266044 0.0035041082 -0.50556594 0.78960818 0.34773842 0.0027415873
0.055619422 0.05207704 0.0043620211 -0.47212985 0.7847392 0.4015941 0.0033003271
0.058041953 0.053313818 0.0047298516 -0.48292449 0.7625249 0.43051106 0.0041596238
0.060314972 0.053874563 0.0058113961 -0.42974931 0.67331558 0.60163254 0.0035937242
0.071305685 0.052520726 0.0048393961 0.82872903 0.077276744 0.55428922 0.0056334413
0.072149657 0.052755892 0.003510654 0.9158231 0.0084050475 0.40149397 0.0061152778
-0.075247578 0.056642052 0.0032131835 -0.70654464 0.42038411 0.56927323 0.050467171
-0.073967002 0.056170762 0.0042424379 -0.52045828 0.61540896 0.59194171 0.026479453
-0.070412442 0.056491408 0.0058860108 -0.15064551 0.49059182 0.85826898 0.009921968
-0.066861987 0.056724686 0.0058048461 0.12159565 0.60577732 0.78628767 0.0047086636
-0.064127453 0.056414008 0.0054553286 0.29513437 0.6804859 0.67069715 0.0050489674
-0.061417725 0.055858847 0.0045674928 0.34987214 0.79338992 0.49811834 0.0080775646
-0.058583394 0.054918494 0.0043633264 0.27104372 0.85427648 0.44356161 0.0039839321
-0.056018185 0.054344147 0.0038046429 0.33002946 0.87724817 0.34859177 0.0027750826
0.059203275 0.054523736 0.0039940909 -0.49317583 0.73583037 0.46403798 0.0046266522
0.061446875 0.055575192 0.004691158 -0.47404492 0.66913819 0.57230723 0.0070234351
0.063702449 0.056407962 0.0055540483 -0.39069143 0.58130968 0.71375006 0.0095725451
0.06871327 0.056726418 0.0059018079 0.2722728 0.27003145 0.92355323 0.027487416
0.070821188 0.055593085 0.0048755384 0.69290721 0.12693179 0.70976603 0.015427882
0.072243474 0.05544747 0.0032645527 0.90279853 0.028541045 0.42911565 0.012336762
-0.073124573 0.058377203 0.0037603027 -0.44453636 0.81224489 0.37768459 0.023829507
-0.070522442 0.059094254 0.0043955273 -0.22252558 0.8139295 0.53665751 0.027673958
-0.06741745 0.058807213 0.0044071949 0.17673522 0.73852021 0.65065545 0.012265318
-0.064608581 0.057979081 0.0039889389 0.39128003 0.744932 0.54034829 0.0063134613
-0.062490404 0.057247613 0.0033538276 0.43538469 0.7752375 0.45765382 0.0092314454
0.062540717 0.057498354 0.0035046951 -0.62764043 0.59581542 0.50107032 0.0089445282
0.064130984 0.05814578 0.0043454156 -0.56994241 0.53199208 0.6262188 0.010063688
0.067250125 0.058632728 0.0053786277 -0.13139732 0.40670523 0.90406066 0.016813744
0.070594281 0.058460344 0.0045267763 0.566607 0.11074675 0.81651181 0.013760766
0.072131671 0.058038879 0.0031676616 0.82411659 0.017644325 0.56614536 0.01928336
-0.069573089 0.06014416 0.0032714859 -0.15752506 0.89906877 0.40848646 0.024583966
-0.06818828 0.060160693 0.0032916509 0.074160591 0.89570653 0.43841752 0.031440936
0.064967863 0.060757887 0.0033535764 -0.7641688 0.37397912 0.52553362 0.01586304
0.06766893 0.061430853 0.0044198493 -0.15036443 0.27866453 0.9485445 0.018644515
0.070738994 0.061208449 0.0039045077 0.55031472 0.08256717 0.83086479 0.018260362
0.072085142 0.061356019 0.0032085623 0.67640579 -0.01358488 0.73640388 0.019487487
0.065798484 0.063129321 0.0032446769 -0.53450167 0.28778502 0.79466206 0.028809952
0.067567281 0.064123929 0.0035981217 -0.39169139 0.22257288 0.89277059 0.018290753
0.070368879 0.064295284 0.0035761099 0.26490909 0.062821269 0.96222484 0.01787575
0.0723176 0.064755015 0.0031366807 0.51368219 -0.0092286794 0.85793084 0.027666191
0.0682166 0.06673523 0.0032332649 -0.47581166 0.16024584 0.86482632 0.02172645
0.0702089 0.067134149 0.0032850502 -0.014144531 0.052827213 0.99850357 0.011693347
0.072653927 0.067671604 0.0032509835 0.46054414 -0.16972744 0.87125868 0.018332558
0.068435863 0.069229625 0.0030409028 -0.37155485 0.11326458 0.92147607 0.023567334
0.070751138 0.070243955 0.0035531526 -0.088572629 -0.15951978 0.98321325 0.01912879
0.073261291 0.070588335 0.0036044649 0.51412737 -0.26341322 0.81626374 0.019865578
0.071135335 0.074363828 0.0045365025 -0.097527571 0.67492986 0.7314083 0.022041326
0.074404068 0.074548185 0.0043562627 0.43149239 0.76314741 0.48106161 0.045619078
0.075632438 0.074633405 0.0033972859 0.50985223 0.84098643 0.18108702 0.054011811
0.068834998 0.076348849 0.0032634076 0.0371891 0.99925172 0.010625453 0.088709563
0.070861347 0.076320805 0.0037704464 0.17767459 0.96097934 0.21201539 0.025436811
0.07337106 0.07564339 0.003907436 0.28115836 0.93537867 0.21451506 0.03295574
0.075207658 0.07512705 0.0033137726 0.40906355 0.90523714 0.1149469 0.024432482
0.062138602 0.026033349 0.0079215206 0.34309438 0.84951383 0.40076482 0.0056472812
0.063770764 0.02696627 0.0069854334 0.69200826 -0.48207229 0.53733689 0.0036207379
0.0017302356 0.029886583 0.0088801607 0.046071921 0.81413817 0.57884067 0.0025043257
0.0045930832 0.029892063 0.0088498211 0.010889638 0.78257614 0.62245965 0.001242012
0.0076709362 0.029899532 0.0088753607 -0.029678294 0.80046046 0.5986504 0.0017717668
0.0098239239 0.029838948 0.0088869827 -0.074383229 0.79355484 0.60393518 0.0018348424
0.064304635 0.028793219 0.0077637308 0.68316215 -0.461458 0.56599116 0.0025094005
0.066251248 0.02959238 0.0060580596 0.73092538 -0.4817026 0.48343632 0.0015941908
-0.015440788 0.032913387 0.0087681189 0.25033897 0.7908265 0.55850148 0.00065791269
-0.013054692 0.032708362 0.0084450776 0.22414824 0.84073585 0.49286997 0.001788217
-0.01035581 0.032375664 0.0078693246 0.19603108 0.85575086 0.47881347 0.0016450668
-0.0075232331 0.031975757 0.0075141899 0.16422594 0.86758602 0.46938726 0.0016298662
-0.0044957711 0.031525325 0.0074562766 0.12725699 0.871916 0.47282988 0.0026818949
-0.001500789 0.031141333 0.0074759959 0.095189482 0.86704898 0.48904499 0.0020275696
0.0014824854 0.030945094 0.0074004978 0.043229237 0.86939621 0.49222091 0.0021548984
0.0044608964 0.030903684 0.0073177475 0.0063614291 0.87062508 0.49190605 0.002102349
0.007500086 0.030904097 0.0073296106 -0.031615674 0.87428117 0.4843891 0.0021260502
0.010523346 0.031028092 0.0074216318 -0.079032317 0.8688696 0.48869157 0.0022017418
0.013480908 0.031353842 0.0074412017 -0.13016319 0.86416507 0.48608249 0.0024441082
0.016507525 0.031863093 0.0074867303 -0.18773282 0.85979921 0.47487026 0.0020024532
0.01932637 0.032346182 0.0078385174 -0.21396197 0.83839458 0.50131303 0.0017527909
0.022003738 0.03262563 0.00854534 -0.23106998 0.78842372 0.57008308 0.001228955
0.024197964 0.032873932 0.0088468986 -0.24653275 0.76798594 0.59111691 0.0024775204
0.065471902 0.031289682 0.0082265772 0.67658424 -0.3565039 0.64431262 0.0022465815
0.066791952 0.031719714 0.0068523586 0.75514656 -0.39247289 0.5250892 0.0028894544
-0.024338834 0.03595819 0.0087300809 0.32164603 0.7616176 0.56256777 0.0010807947
-0.021951055 0.035636086 0.0083049862 0.31206444 0.83320266 0.45649666 0.0016782737
-0.019404814 0.03511788 0.007563455 0.30272517 0.85040212 0.43031824 0.0015253335
-0.016491724 0.034210932 0.0074683293 0.25545666 0.85597962 0.44948944 0.0019550226
-0.013672675 0.033591058 0.0071327793 0.22430775 0.86866409 0.4417111 0.0018174503
-0.010861176 0.033242974 0.0064413864 0.19814207 0.87729925 0.43713358 0.0016813572
-0.0087253451 0.033038426 0.0061194464 0.16349362 0.89349693 0.41824996 0.0013202177
0.020005962 0.03326204 0.006563975 -0.22434372 0.8609637 0.45652086 0.0016853168
0.02264387 0.033681635 0.0071129254 -0.24284673 0.85320085 0.46159926 0.0020577598
0.025520956 0.034379695 0.007403018 -0.25308695 0.8484785 0.46479169 0.0018718923
0.02846498 0.035219662 0.0076094368 -0.28769007 0.83731633 0.46490416 0.0017239949
0.031020762 0.035650328 0.0083878618 -0.29713419 0.79688144 0.52601445 0.0022512851
0.033371143 0.035969287 0.0087952893 -0.32474887 0.7591387 0.56413347 0.0020306462
0.067516834 0.034525163 0.0076040421 0.7499339 -0.296491 0.59134769 0.0020560541
-0.030342955 0.038799398 0.0088232923 0.35473356 0.76903951 0.53173518 0.00094433472
-0.028148867 0.038426306 0.0078996168 0.37115654 0.82220769 0.4315291 0.0019151355
-0.025494272 0.037505444 0.0074384511 0.35086522 0.83236748 0.4290199 0.0021467262
-0.022750668 0.036597807 0.007076133 0.32239982 0.84713703 0.4223946 0.0016746963
-0.020506158 0.036129195 0.0063514779 0.32135954 0.85999441 0.39640585 0.0013111783
0.029433308 0.03619067 0.0064771636 -0.30304939 0.85158676 0.42773944 0.0016951974
0.031693257 0.036656491 0.0070899758 -0.31571582 0.82586247 0.46719867 0.0020463243
0.034422848 0.037626769 0.0073770545 -0.36210266 0.81659418 0.44950601 0.0027914497
0.036965284 0.038421318 0.0081162443 -0.41009209 0.7535643 0.51377559 0.0025742997
0.039180614 0.03884618 0.0088356612 -0.39879629 0.70302373 0.58882862 0.0024277016
0.068313614 0.037608288 0.0079862615 0.76653945 -0.1894884 0.61360526 0.0034142523
0.069407895 0.037814185 0.0066319802 0.7956453 -0.22890666 0.56084782 0.0018735268
-0.036356557 0.041858174 0.0086804209 0.38885134 0.76205111 0.51775736 0.0011741507
-0.034190245 0.041330941 0.0077930591 0.4049778 0.80554765 0.43253449 0.0015015812
-0.031515382 0.04023784 0.0074179098 0.37848109 0.8116836 0.44488397 0.0016553141
-0.029053956 0.039408509 0.0067955456 0.38192755 0.82972139 0.40705514 0.0014193171
0.035715342 0.039065562 0.0061294301 -0.42078799 0.82265472 0.38233075 0.0054686572
0.037866484 0.039625149 0.0070032924 -0.43270609 0.77047056 0.46812463 0.0020952439
0.04041104 0.040744845 0.0075799627 -0.44529536 0.74803966 0.49208611 0.0023983552
0.042639684 0.04151265 0.0083953943 -0.43488503 0.7088564 0.55533558 0.0026024031
0.068409353 0.040821999 0.0084373392 0.69848663 -0.075398274 0.71164 0.0041707112
0.069784284 0.041002579 0.0070127724 0.79373181 -0.10449573 0.59922487 0.0028317475
-0.067134418 0.044760525 0.008986352 -0.5063858 0.054519199 0.86058187 0.00059739139
-0.042425513 0.044792395 0.0088097481 0.37846515 0.73935366 0.55688441 0.0013338396
-0.040171273 0.04431814 0.0078685256 0.40705264 0.78613031 0.46508858 0.0017464332
-0.037569031 0.043252241 0.0074047917 0.39714283 0.79795003 0.45337987 0.0017549592
-0.035187095 0.042395964 0.0067519625 0.41876787 0.8086729 0.41313636 0.0015243553
0.041489206 0.042245179 0.0062715067 -0.47114959 0.75651294 0.45354852 0.0013310194
0.043689594 0.042988181 0.007198045 -0.45089877 0.73946774 0.49987775 0.0021552718
0.046234254 0.044098239 0.0078158537 -0.42965713 0.7297464 0.53185052 0.0024119646
0.048341647 0.044564657 0.0087723797 -0.38725418 0.66944927 0.63393354 0.0018563666
0.068580776 0.043494031 0.0085712345 0.70179373 -0.0098939203 0.71231151 0.0043881251
0.069911793 0.043798454 0.0071048252 0.77328926 -0.02867558 0.63340473 0.003584791
-0.069100715 0.047616705 0.0075824549 -0.44189835 0.10974289 0.8903271 0.0021214732
-0.06789548 0.046589237 0.0084329871 -0.46807069 0.11990178 0.87551898 0.0025355588
-0.048467554 0.047863282 0.0087104496 0.33866504 0.72509694 0.59961677 0.0010981222
-0.04613008 0.04734179 0.0079585351 0.38004178 0.76800317 0.51549911 0.0022417875
-0.04353096 0.046351135 0.0074179266 0.38979539 0.78439295 0.4824802 0.0017920062
-0.041156713 0.045472145 0.0068024243 0.42618069 0.78922856 0.44214058 0.0016163195
0.047259655 0.045493174 0.0067336936 -0.46019757 0.73658866 0.49563634 0.0020911307
0.049565315 0.046399299 0.0073726834 -0.42434916 0.73375946 0.53058904 0.0019193206
0.05205993 0.047271796 0.008098701 -0.38640898 0.69202894 0.60974103 0.0028790205
0.05427397 0.047723167 0.0087914448 -0.30774239 0.64416492 0.70024717 0.0033247098
0.068384513 0.046757728 0.0085500423 0.6071341 0.084111072 0.7901352 0.0042843064
0.069931716 0.04652407 0.0071023591 0.74821335 0.034854285 0.66254205 0.0040593026
-0.070029393 0.049530931 0.0069005652 -0.41758707 0.12784965 0.89959741 0.0017169683
-0.067177579 0.050255638 0.0085460637 -0.22479467 0.34134588 0.91266114 0.0028190557
-0.065526009 0.050724626 0.0088827265 -0.14757866 0.39749911 0.90565729 0.0056123082
-0.057284135 0.050906029 0.0088662971 0.1509316 0.6877175 0.71011567 0.0031366867
-0.054725323 0.050715555 0.0085937344 0.23122439 0.69649374 0.67928755 0.0019252594
-0.052219599 0.050229561 0.007954211 0.3187601 0.7564401 0.57113087 0.0026373339
-0.049547467 0.049408939 0.0074134939 0.35774812 0.76918578 0.52949923 0.0019172715
-0.046984073 0.048522756 0.0068330145 0.40560862 0.77863693 0.47875482 0.0017859699
-0.044974931 0.04806342 0.0061374358 0.39736095 0.78790236 0.47044048 0.0020442125
0.050789278 0.048283916 0.00605046 -0.44714636 0.70207006 0.55421811 0.001401034
0.052760843 0.048784733 0.0068096747 -0.44586241 0.72115785 0.5302245 0.0021971895
0.055426121 0.049672075 0.0075354069 -0.36626157 0.69113898 0.62304044 0.0023169997
0.058203459 0.05030676 0.0083147483 -0.29179734 0.64150494 0.70945448 0.0029817331
0.060747564 0.050701376 0.0087756282 -0.1910768 0.59938008 0.77732444 0.0040283431
0.064737074 0.050743792 0.008925396 0.056225635 0.41808093 0.90666807 0.0058639073
0.06786868 0.049834553 0.0084124329 0.46095124 0.20359731 0.86375469 0.0096721184
0.069837406 0.04947539 0.0069631003 0.68653333 0.10467216 0.71952474 0.0070682154
-0.069588602 0.052389637 0.007240077 -0.17477074 0.32914168 0.927966 0.0050352286
-0.066839375 0.053086519 0.0078849019 0.013730401 0.49125949 0.87090504 0.0040636966
-0.064175561 0.052805685 0.0081959423 0.072862335 0.57221359 0.81686151 0.0045453594
-0.06132488 0.053007241 0.0078326566 0.13119456 0.67235547 0.72850949 0.0037532113
-0.058396224 0.052787956 0.0074775969 0.2025931 0.75585449 0.62260747 0.0028082654
-0.055593058 0.05216226 0.0072392388 0.26573011 0.76678973 0.58431244 0.0021525195
-0.052941728 0.051551074 0.0066440417 0.35616329 0.77899295 0.51605982 0.0017469671
-0.050774507 0.051036738 0.0060465783 0.35647583 0.78213155 0.51107264 0.0014140019
0.056563396 0.05133564 0.0063685169 -0.40299729 0.70786178 0.58010757 0.0023523793
0.058698513 0.051964886 0.0069351671 -0.37554446 0.69886971 0.60872614 0.0021651725
0.061358117 0.052592635 0.0075458088 -0.27314529 0.61278439 0.74154365 0.002967454
0.064330377 0.05266621 0.0081954915 -0.091133282 0.49444008 0.86442107 0.0054808473
0.067349233 0.052680749 0.0077616037 0.26432389 0.33858782 0.90304542 0.0099814832
0.069666602 0.052521229 0.0066145929 0.66802692 0.15529063 0.72775328 0.0092871767
-0.069651939 0.056185611 0.0063463235 -0.085517094 0.51638299 0.85207713 0.0099813305
-0.067282096 0.055766981 0.0066241026 0.13085884 0.57752281 0.80581844 0.0049803378
-0.064523116 0.055022668 0.0067137191 0.1836399 0.63817388 0.74767011 0.006684456
-0.061805058 0.054548368 0.0064328299 0.2326788 0.73239106 0.63989377 0.0057344809
-0.059478182 0.054132778 0.0061732149 0.24159479 0.76373827 0.59861153 0.0031166419
0.062148146 0.054378711 0.0064258045 -0.36185071 0.60202944 0.71177566 0.0064165238
0.064189903 0.055083714 0.0066940179 -0.26597127 0.54956841 0.79198086 0.007176911
0.067464896 0.055293489 0.0067878109 0.17459019 0.35606733 0.91800565 0.016008804
0.069431186 0.055182103 0.0062526991 0.55831474 0.20049082 0.80503917 0.010765501
-0.069837242 0.057342201 0.0060091391 -0.11232544 0.70059216 0.70466554 0.02547887
-0.068132259 0.057085674 0.0061015994 0.17330642 0.63964772 0.74887627 0.0015894183
0.06722305 0.057257514 0.0061238245 0.10684612 0.318744 0.94179946 0.025928631
0.0045199841 0.026811874 0.011927426 0.0075657577 0.64945942 0.76035863 0.0036609704
0.0066523934 0.026805274 0.01191609 -0.00080503285 0.65410823 0.75640053 0.0041357712
0.0092775896 0.026899667 0.011961018 -0.038372394 0.64362568 0.76437795 0.0040351059
0.056261346 0.025261294 0.011798764 0.43474096 -0.39305741 0.8102507 0.0018863459
0.05930198 0.025857078 0.010329142 0.51861817 -0.39901009 0.75619185 0.0034337109
0.060707901 0.025765238 0.0090641975 0.56244016 -0.45028457 0.6934731 0.0038831313
-0.012554822 0.029868241 0.011848859 0.19878943 0.7088837 0.6767323 0.0024826839
-0.010303553 0.029576873 0.01159414 0.17765671 0.71064037 0.68075573 0.00070110935
-0.0073916018 0.02924823 0.011257018 0.14504774 0.73329443 0.66425925 0.0013749361
-0.0044267708 0.029073291 0.010880098 0.11626096 0.76510769 0.6333195 0.0016142881
-0.0014716486 0.0289698 0.010532002 0.088923365 0.75878042 0.645248 0.0021669392
0.001476266 0.028698541 0.010537081 0.05184865 0.76395649 0.64318132 0.0019349367
0.0044970158 0.028839612 0.010234558 0.012263242 0.76921707 0.63887 0.0024953606
0.0073645189 0.028772326 0.010316876 -0.020972785 0.76633048 0.64210415 0.0024802268
0.010488759 0.028740872 0.010533821 -0.06854213 0.75160885 0.65603828 0.0020678518
0.013395193 0.028966857 0.010648464 -0.10785092 0.73859793 0.66546315 0.0021369809
0.016393749 0.029167676 0.0109911 -0.15064667 0.70513749 0.69288284 0.0016802517
0.019282479 0.029423457 0.011432441 -0.17500082 0.66484177 0.72619563 0.0015258651
0.021890653 0.029783526 0.011765657 -0.18959415 0.66960716 0.71810883 0.0020933081
0.02456487 0.029940626 0.011957748 -0.18399169 0.65995622 0.72842634 0.0017830896
0.059188843 0.028232221 0.011657806 0.47955814 -0.3798098 0.79105526 0.0020979671
0.061842989 0.029106928 0.010292749 0.55468178 -0.37124372 0.74465173 0.0019754076
0.063228957 0.029009582 0.009097619 0.64010751 -0.42582917 0.63947785 0.0023871246
-0.021588203 0.03278926 0.011757811 0.27232161 0.68982476 0.67080754 0.0018611059
-0.019241145 0.032464657 0.011368695 0.25737518 0.72983301 0.63332593 0.0011465686
-0.016412478 0.03204928 0.010711766 0.24215786 0.76873958 0.59194499 0.001130136
-0.013546853 0.031443052 0.010398513 0.21194571 0.77469337 0.59575933 0.001567416
-0.010611246 0.030913552 0.010131711 0.18386377 0.77315271 0.60698348 0.0015560134
-0.0075858827 0.030537872 0.0097698504 0.14971684 0.78467625 0.60155463 0.0014732549
-0.0046587363 0.030321321 0.0093970457 0.11829185 0.79371667 0.59667492 0.0014055675
-0.0018738804 0.030128978 0.0092098024 0.087551534 0.79479223 0.60053307 0.0013879571
0.00075923797 0.030066211 0.0090135261 0.061122417 0.78346652 0.61842078 0.0013438762
0.011008766 0.030056002 0.009122327 -0.075826205 0.79437089 0.6026817 0.0022148788
0.014003128 0.03026071 0.0092746532 -0.11615236 0.78892595 0.60341066 0.0017845366
0.016764367 0.030506847 0.0095853051 -0.16302916 0.76215047 0.62653661 0.0017787567
0.019561909 0.030948149 0.0098886034 -0.19832936 0.76066166 0.61810935 0.0016067607
0.022584697 0.031388823 0.010305905 -0.20962352 0.73862612 0.64069462 0.0023360795
0.025380684 0.031848516 0.010736082 -0.22926746 0.72681308 0.64744055 0.0015663152
0.02816811 0.032355271 0.011151053 -0.23254873 0.67332399 0.70182329 0.0017617001
0.030724972 0.032632962 0.011746181 -0.23475054 0.63813365 0.73326504 0.0020851467
0.033127408 0.032848902 0.011920634 -0.24174024 0.60473633 0.75885153 0.0059091528
0.061935503 0.031603392 0.011330571 0.51886642 -0.29970622 0.80059588 0.0011584261
0.064309463 0.031994157 0.0097381789 0.62718081 -0.33620632 0.70257348 0.0014759798
-0.027849037 0.035634167 0.011567615 0.30786809 0.68808031 0.65708655 0.0010696459
-0.025288446 0.035190605 0.010847858 0.31018439 0.75319254 0.58007467 0.0012765002
-0.022545159 0.034432523 0.010398724 0.28665963 0.7650786 0.57661158 0.0017894829
-0.01964638 0.033731915 0.0099425232 0.27005425 0.77805513 0.56718671 0.001542332
-0.017134668 0.033284437 0.0093659954 0.24687043 0.79062897 0.56032205 0.0010835719
0.026129408 0.033287417 0.009364415 -0.23590064 0.75838143 0.60762531 0.0013307461
0.028694415 0.033745315 0.0098293144 -0.25883257 0.74561745 0.61405236 0.0016976249
0.031546865 0.034370098 0.010258233 -0.26598409 0.73031163 0.6292038 0.0024012025
0.034261283 0.034929454 0.010801586 -0.30239215 0.6778093 0.67017436 0.0027854762
0.037028044 0.035462923 0.01152827 -0.31417716 0.62400919 0.7154755 0.0021411725
0.039441075 0.035923868 0.01180518 -0.32573473 0.61343193 0.71944296 0.0013324083
0.062487304 0.033838592 0.011562564 0.48276111 -0.16759439 0.85956603 0.0017233109
0.064686574 0.034920886 0.010448844 0.57603556 -0.20299985 0.79181689 0.0019043502
0.066196695 0.034810964 0.0091796555 0.63725173 -0.2284122 0.73602849 0.002040765
-0.061877258 0.037858035 0.011938817 -0.44389477 -0.0032180487 0.89607316 0.00094478147
-0.036335178 0.03889453 0.011812986 0.32102403 0.66070682 0.67853528 0.0026158514
-0.033994853 0.03860281 0.011443228 0.33230907 0.68942118 0.64363742 0.00093809702
-0.03133592 0.037984412 0.010681805 0.3413406 0.74344629 0.57512963 0.0012696203
-0.028619355 0.037105009 0.010231133 0.33021191 0.75594854 0.56524503 0.0016406184
-0.026007941 0.036451507 0.0095617892 0.32408497 0.76859796 0.5515669 0.0010831228
-0.023802437 0.036001753 0.0090301856 0.32794341 0.78011048 0.53280467 0.00093803933
0.035034772 0.036471173 0.0094788754 -0.32900539 0.73037547 0.59858757 0.0020714882
0.03764889 0.037191365 0.010112952 -0.35828802 0.70340163 0.61388588 0.0022536039
0.040275659 0.037932396 0.01081689 -0.35577455 0.65308338 0.66851074 0.001939734
0.042790838 0.038495056 0.011556518 -0.32083994 0.59238207 0.73901641 0.0021557934
0.045320645 0.038904317 0.011903758 -0.2850492 0.55988795 0.77799255 0.0015927714
0.062613219 0.03770183 0.011883307 0.41674513 -0.061713338 0.90692616 0.0017281306
0.064443991 0.037584376 0.011104093 0.51181394 -0.10833085 0.85223877 0.0019506459
0.066641018 0.038255334 0.0096554263 0.61695462 -0.11889173 0.77796644 0.001974775
-0.064511895 0.041023728 0.010590514 -0.49336913 0.00022764329 0.86982006 0.00072888628
-0.062614091 0.041039228 0.011843307 -0.42759788 0.038719684 0.90313947 0.0023424521
-0.042285398 0.041826829 0.011854179 0.30718833 0.6581943 0.687325 0.0018579516
-0.039933726 0.041456919 0.011410687 0.32155171 0.67052066 0.66858542 0.0012814556
-0.037357524 0.040848244 0.010689297 0.34369916 0.72764844 0.5936318 0.0012261475
-0.034649212 0.040023062 0.010096737 0.35318819 0.74713778 0.56306595 0.0012598276
-0.032333039 0.03940415 0.0094376756 0.36523837 0.75737929 0.54127395 0.0011216681
0.041050192 0.03954152 0.0096467203 -0.39685377 0.68612552 0.60970396 0.0018537171
0.043610219 0.040488303 0.010160287 -0.379123 0.64494616 0.66355872 0.0016803179
0.046158694 0.040997162 0.011004559 -0.33101198 0.60314131 0.72570765 0.0013318921
0.048736792 0.041499212 0.011654127 -0.26206538 0.56450135 0.78272599 0.0018848537
0.051559053 0.041901827 0.011908492 -0.18784061 0.46855542 0.86323333 0.0024841237
0.062632188 0.041212771 0.0119066 0.32441553 0.051265005 0.94452447 0.0029480562
0.064560384 0.040599916 0.011295725 0.44626594 0.017099623 0.89473701 0.0038652939
0.066999331 0.040527567 0.009676205 0.60335732 -0.045045186 0.79619777 0.0029233003
-0.066561006 0.043778162 0.0093657207 -0.50164765 0.048402075 0.8637169 0.00049089512
-0.063756511 0.044215582 0.011230117 -0.33566624 0.22058445 0.9157896 0.0025822772
-0.062631749 0.044077516 0.011809353 -0.30295876 0.21504094 0.92842525 0.0029073171
-0.048453849 0.044832636 0.011803642 0.23963584 0.63744104 0.73228657 0.0017504932
-0.046202838 0.044392139 0.011406017 0.29826733 0.66804278 0.68172973 0.0012379828
-0.043377817 0.043852296 0.010597672 0.33507892 0.70740348 0.62233627 0.001539072
-0.040696453 0.042965498 0.010126121 0.35041016 0.72634125 0.59130448 0.0014291671
-0.038309094 0.042340886 0.0094282804 0.37918139 0.74099642 0.55420732 0.0013697861
0.044681586 0.042189002 0.0091968058 -0.39791414 0.66705883 0.62983876 0.0015657073
0.04679247 0.042771727 0.0097326944 -0.38804376 0.66246682 0.64074939 0.0019450695
0.049372111 0.043662813 0.010171931 -0.34548831 0.63302135 0.69276386 0.0020970751
0.052271307 0.043905541 0.011145309 -0.25450113 0.5411908 0.80146223 0.0017470074
0.05499303 0.044322483 0.011654883 -0.19374613 0.49070862 0.84951013 0.002308774
0.05812066 0.044733502 0.011778588 -0.06312909 0.42589384 0.90256816 0.0034570473
0.061823517 0.044335704 0.011825393 0.12026831 0.28908643 0.94971812 0.0058609359
0.064053677 0.044241752 0.01137082 0.26157415 0.2456478 0.93340033 0.0051469938
0.067065626 0.043699656 0.0098115252 0.57337093 0.055049866 0.81744438 0.0053121233
-0.066462912 0.046598464 0.009378585 -0.45961064 0.12255902 0.87962341 0.0030689924
-0.064289667 0.047095105 0.010516956 -0.25381619 0.3271057 0.91026324 0.0015299174
-0.061241884 0.047101226 0.011573168 -0.095182329 0.44828638 0.88880801 0.0020188643
-0.058197711 0.047486037 0.011721845 0.018881422 0.50821054 0.86102575 0.0022684787
-0.055415839 0.047405679 0.011581185 0.11694848 0.56313998 0.8180443 0.0021161896
-0.052229628 0.047118962 0.011113501 0.21175128 0.61844426 0.75676155 0.0012070418
-0.049364958 0.046726223 0.010450705 0.28059223 0.66653585 0.6906504 0.0011740463
-0.046660338 0.045993298 0.0099720294 0.33386123 0.71116436 0.61869377 0.0011951512
-0.044292223 0.045392975 0.0093734171 0.36685693 0.71735978 0.59229296 0.0015280194
0.050379641 0.045334402 0.009220005 -0.37026355 0.65925908 0.65443289 0.0019400796
0.05269403 0.045953427 0.0097343801 -0.31780878 0.62581557 0.71228677 0.0025010833
0.055344783 0.046637453 0.01020242 -0.28355414 0.58115625 0.7627939 0.0020474065
0.058354456 0.046603732 0.01098993 -0.12172688 0.4784224 0.86965197 0.002649639
0.061484251 0.04667737 0.011156239 0.017671308 0.39831701 0.9170776 0.0037443901
0.064358637 0.046894204 0.010701917 0.22548421 0.30425036 0.92552072 0.0053862045
0.066988669 0.046497144 0.0096095782 0.50444049 0.145078 0.85117114 0.0062134722
-0.066308029 0.049258977 0.0092239548 -0.28200096 0.31989259 0.90451324 0.0023089615
-0.06404414 0.049862396 0.0098030623 -0.082989179 0.48990932 0.8678143 0.0028186494
-0.061430711 0.049899049 0.010202644 -0.024537565 0.54434013 0.83850557 0.0027721045
-0.05848936 0.04961608 0.010361773 0.065547645 0.58270812 0.81003386 0.0026736963
-0.055452622 0.049347971 0.010100461 0.19405726 0.65825593 0.72735202 0.0022321166
-0.052623 0.048741762 0.0097839087 0.2674574 0.68763477 0.67499995 0.0018119855
-0.050151736 0.048226338 0.0093060816 0.32338673 0.70567924 0.63042676 0.0018821261
0.056414459 0.048342906 0.009328085 -0.3029809 0.61970466 0.72399503 0.0026479424
0.058625214 0.048853759 0.0096369581 -0.21339427 0.58630431 0.78147948 0.0042444668
0.061466839 0.04949791 0.0097567253 -0.11241343 0.49877709 0.85940945 0.0044243122
0.064217456 0.049474731 0.0097941719 0.077566475 0.38960564 0.91770953 0.005573038
0.066510268 0.048973124 0.0093206828 0.41406983 0.25511852 0.87376237 0.0070239631
-0.063704647 0.051395085 0.0091990642 -0.0091724461 0.5542677 0.83228791 0.0039767209
-0.061461836 0.051363897 0.0092786513 0.036958139 0.6252839 0.7795217 0.0031311736
-0.058528382 0.051212203 0.0091752373 0.12287944 0.67761803 0.72507554 0.002209906
-0.056972645 0.051020894 0.0090843709 0.15575746 0.70999873 0.68676162 0.0044755521
0.062864795 0.051246911 0.0090324786 -0.19244985 0.51366764 0.83612716 0.0062676026
0.063719831 0.051116973 0.0091734473 -0.033640284 0.47273377 0.88056302 0.0067818775
0.019031905 0.013900802 0.014851331 0.04386941 -0.10829358 0.99315053 0.00095661305
0.024250232 0.014429866 0.014878304 0.078522354 -0.18556088 0.9794904 0.00088115048
0.027866725 0.014595925 0.014514097 0.080953725 -0.21405292 0.97346181 0.00047496308
0.02439449 0.015609033 0.014903735 0.051494144 -0.14599311 0.98794454 0.00021844191
0.028998643 0.01704932 0.014869522 0.045162667 -0.11277736 0.99259341 0.00052551244
0.033490606 0.016779019 0.014633734 0.071717992 -0.2086239 0.97536284 0.00061338866
0.034368943 0.018275939 0.014857823 0.052069642 -0.1477205 0.98765755 0.00052289432
0.037371106 0.020187823 0.014897722 0.043705162 -0.10448039 0.99356616 0.00055874605
-0.0060121929 0.023444947 0.014979858 0.10174185 0.39587402 0.9126513 0.0024191292
-0.0039020649 0.02364956 0.014853749 0.10106288 0.45698667 0.88371342 0.0017482445
-0.0011152902 0.023605142 0.01479731 0.077037804 0.47174102 0.87836528 0.0016064158
0.0013530302 0.023544068 0.014675742 0.05421757 0.48096052 0.87506419 0.0015098217
0.0042448328 0.023350611 0.014651603 0.018498763 0.46587101 0.88465917 0.0016620061
0.0073407791 0.023318028 0.01460855 -0.0090949023 0.46578974 0.88484865 0.0014948018
0.010432628 0.023350783 0.014658479 -0.033396143 0.45790359 0.88837439 0.0014628359
0.013314926 0.023357306 0.01475347 -0.058197603 0.42808393 0.90186316 0.001611172
0.016234115 0.023641132 0.01483129 -0.083088033 0.44540474 0.89146572 0.0015448884
0.018880364 0.02375881 0.014854514 -0.093705602 0.3621605 0.92739373 0.0021367054
0.021379918 0.023439217 0.014977899 -0.071768075 0.24871022 0.96591544 0.002723034
0.040679894 0.02157956 0.014856387 0.044625759 -0.093351714 0.9946326 0.00050207303
0.043312259 0.022699906 0.014864955 0.1103302 -0.13833115 0.9842214 0.0019047507
0.045144577 0.021593153 0.01423131 0.2003188 -0.27664346 0.93986213 0.00080683478
0.049200915 0.022729056 0.013474432 0.27436718 -0.32887155 0.90364057 0.00056199107
0.052324016 0.023542395 0.012783107 0.31353474 -0.32448241 0.89241648 0.00039299345
0.054019891 0.023737334 0.012128104 0.35570741 -0.34023666 0.87046617 0.0015547374
-0.015403416 0.026607107 0.014874555 0.19127904 0.51630408 0.83477092 0.0027816757
-0.013123395 0.026508357 0.014742984 0.17413878 0.51795673 0.83749413 0.0018070593
-0.010374678 0.026175866 0.014446531 0.1537285 0.53981829 0.82762539 0.0014047902
-0.0074319774 0.025875086 0.014136637 0.12987624 0.54273641 0.82980078 0.0010679379
-0.0044577471 0.025687162 0.013846122 0.10245799 0.55835921 0.82324809 0.0010372646
-0.0015387021 0.025589431 0.013577047 0.081491157 0.57017624 0.81747055 0.0019242404
0.0014663009 0.025724838 0.013251109 0.053593747 0.57138509 0.81893027 0.0017656386
0.0044552498 0.025594179 0.013205389 0.021091796 0.59393626 0.80423558 0.0019658948
0.0075001479 0.02560195 0.013191931 -0.01066298 0.59588516 0.80299878 0.0018818587
0.010478448 0.025686726 0.013242247 -0.041894723 0.56491214 0.82408679 0.0020795204
0.013458515 0.025641685 0.013500181 -0.079190314 0.53967041 0.83814365 0.0021260781
0.016443182 0.025712091 0.013754574 -0.10733196 0.50989366 0.85351527 0.0013427142
0.019241631 0.025899958 0.014034407 -0.12373547 0.51174825 0.85017836 0.0018071916
0.022319745 0.026115589 0.014358537 -0.13294491 0.46720105 0.87409884 0.0015618126
0.025055788 0.026196815 0.014693515 -0.13609351 0.43998477 0.88763285 0.0014132586
0.02788157 0.026597979 0.014884168 -0.12989895 0.40423951 0.9053821 0.0026519378
0.030982206 0.026431663 0.014898118 -0.087048717 0.22953571 0.96939975 0.0032335783
0.046681762 0.024883222 0.014803951 0.13563998 -0.1474824 0.9797197 0.0011747346
0.049484745 0.025734773 0.014520053 0.23097482 -0.2592836 0.93777537 0.0031578154
0.052513488 0.02560778 0.01350587 0.31963769 -0.32336468 0.8906554 0.00034910167
0.055506013 0.026159503 0.012573684 0.37965474 -0.33451834 0.86253101 0.0011381599
-0.024074607 0.029953554 0.014678148 0.2305963 0.56510782 0.79213542 0.00054749707
-0.021835264 0.029725891 0.014716448 0.22010495 0.5599001 0.79879022 0.0015814092
-0.019305058 0.029239595 0.014347526 0.21356809 0.56460965 0.79724813 0.0012833194
-0.016427036 0.028758418 0.013926494 0.20486529 0.58481383 0.78487134 0.0010050868
-0.013541869 0.028645821 0.013266301 0.19228451 0.6241886 0.75724185 0.0011449208
-0.010514524 0.028325535 0.012861433 0.16434596 0.67397475 0.72024196 0.001382039
-0.0077684526 0.027939944 0.012615425 0.14009556 0.68075716 0.71898741 0.0013342524
-0.0046006488 0.027505469 0.012466391 0.10993599 0.67998409 0.72493833 0.0014049268
-0.0016434822 0.027314078 0.012250258 0.08134307 0.6779837 0.73056233 0.0015162966
0.0012012627 0.027218381 0.012172161 0.046900503 0.66749114 0.74313921 0.0018405309
0.004402326 0.027115816 0.012114053 0.019412441 0.67964095 0.73328805 0.0016875427
0.0073633674 0.02715533 0.012094017 -0.015447363 0.68850362 0.72506845 0.0013553089
0.010359953 0.027266262 0.012108738 -0.055093188 0.67624015 0.73461831 0.0019419725
0.013666491 0.027276227 0.012323784 -0.090062916 0.65846801 0.74720049 0.0017739048
0.016762683 0.02761806 0.012491084 -0.1272005 0.64377546 0.75456828 0.0018626131
0.019690972 0.02810635 0.012649424 -0.15586442 0.61656916 0.77171814 0.0017478969
0.022614829 0.028499272 0.012946461 -0.16596451 0.58873892 0.79110193 0.0019231761
0.02547716 0.028635234 0.01343601 -0.16384497 0.53164983 0.83096528 0.0014559077
0.028334904 0.028899157 0.013840782 -0.16951604 0.51728195 0.83885854 0.0019408591
0.031281676 0.028852267 0.014378367 -0.15864329 0.46073791 0.87324268 0.0019074728
0.034300886 0.029128686 0.014607951 -0.1452183 0.36922571 0.91792375 0.0031861186
0.036697544 0.029520627 0.014863635 -0.1499667 0.37508798 0.91477817 0.0019794907
0.03990677 0.029377311 0.014900141 -0.079310328 0.18583199 0.97937548 0.0026591453
0.047859736 0.027950391 0.014997985 0.046884213 -0.0022448916 0.99889785 0.001785795
0.04999911 0.028003423 0.014765887 0.15913899 -0.10802514 0.98132837 0.0014678361
0.052679796 0.028699519 0.014342248 0.22789434 -0.10122807 0.96840954 0.0037400443
0.055272795 0.028698293 0.013590372 0.34779081 -0.24298704 0.9055379 0.004607589
