# .PCD v0.7 - Point Cloud Data file format
VERSION 0.7
FIELDS x y z normal_x normal_y normal_z curvature
SIZE 4 4 4 4 4 4 4
TYPE F F F F F F F
COUNT 1 1 1 1 1 1 1
WIDTH 561
HEIGHT 1
VIEWPOINT 0 0 0 1 0 0 0
POINTS 561
DATA ascii
0.046815395 0.039642408 -0.012461565 -0.27474803 0.58130211 -0.76589906 0.0020379936
0.049697638 0.040440883 -0.012797271 -0.20871916 0.52257288 -0.82665229 0.0027113508
0.052442003 0.040472619 -0.013338213 -0.11812361 0.44803998 -0.88617551 0.0031517379
0.055383999 0.040660117 -0.013498121 -0.012068219 0.37830073 -0.92560405 0.0026808542
0.058299784 0.040601343 -0.013386798 0.10171822 0.30887792 -0.94564676 0.0037683714
0.061428867 0.040540513 -0.012661919 0.31299341 0.13676479 -0.93985659 0.0053121615
0.063192807 0.040419869 -0.012116328 0.41296327 0.12053546 -0.90273613 0.0031676681
-0.060229558 0.043812402 -0.012131909 -0.20808738 0.23206617 -0.95018154 0.0048527448
-0.058491256 0.043609202 -0.012593068 -0.17517917 0.23078431 -0.95710546 0.0036576833
-0.05540302 0.043678802 -0.0130292 -0.018458806 0.37800649 -0.92561895 0.0029900428
-0.05242369 0.043644879 -0.012952641 0.085326351 0.45299688 -0.8874194 0.0032363059
-0.049577009 0.043287318 -0.012763999 0.15042941 0.51139665 -0.84607601 0.0030545334
-0.046745557 0.042682443 -0.012507175 0.22214611 0.57470375 -0.7876336 0.0027355968
-0.044528116 0.042270247 -0.012118827 0.27435741 0.62123203 -0.73402905 0.0018816051
0.052902859 0.042382162 -0.012341882 -0.19716947 0.54210329 -0.81685257 0.0022999365
0.055560071 0.042997628 -0.012426849 -0.092170537 0.47001719 -0.87783176 0.0032464054
0.058403794 0.043216448 -0.012456548 0.040083811 0.38402221 -0.92245334 0.0029376671
0.061154127 0.042896081 -0.012251626 0.15733171 0.32977617 -0.93085676 0.0048334133
-0.057846621 0.045466483 -0.012205486 -0.046270374 0.40096396 -0.9149245 0.0031734623
-0.055362578 0.045481607 -0.012248415 0.049665723 0.49533588 -0.8672806 0.0031496249
-0.052920308 0.045278311 -0.01214905 0.13803329 0.5490309 -0.82432514 0.0023745594
0.054770824 0.023034059 -0.011987546 0.43409902 -0.38776824 -0.81313831 0.0005901648
0.0022660838 0.026944779 -0.011900172 0.013764746 0.65340436 -0.75688398 0.0034785483
0.0039900546 0.026929526 -0.01191601 -0.010112783 0.69820863 -0.71582299 0.0011593309
0.0074664433 0.026968863 -0.011971148 -0.040639743 0.70058066 -0.71241504 0.0013464577
0.058534078 0.025888616 -0.011222926 0.52874601 -0.38943419 -0.75416756 0.0027838838
0.060632758 0.025974834 -0.0095383255 0.60798639 -0.42694217 -0.66938251 0.0023840233
-0.015283652 0.029949069 -0.011965491 0.21501529 0.64577436 -0.73262805 0.0042025284
-0.013005398 0.02964171 -0.011663628 0.19031364 0.69281811 -0.69554561 0.0011929992
-0.010342076 0.029306224 -0.011344549 0.16215935 0.65382773 -0.73906267 0.0017492854
-0.0074439663 0.029034374 -0.010965894 0.13412376 0.7173121 -0.68372089 0.0017027361
-0.0043992247 0.02881748 -0.010675942 0.10902215 0.71856779 -0.68685842 0.0019307248
-0.0013972804 0.028632417 -0.01047967 0.076502688 0.73189592 -0.67710835 0.0024790072
0.0014990158 0.028438458 -0.010480888 0.033948433 0.73302996 -0.67934859 0.0022879241
0.0044941227 0.028398143 -0.010472455 -0.010127542 0.73185527 -0.68138486 0.0017735731
0.0075255693 0.02843559 -0.010514509 -0.041167397 0.74328142 -0.66771096 0.0025583978
0.010540381 0.028733516 -0.01046162 -0.078624554 0.75144881 -0.65508997 0.0020327338
0.013414163 0.028881699 -0.010710616 -0.12474437 0.74259436 -0.65802151 0.0027286559
0.016322101 0.029171437 -0.01101574 -0.16457936 0.75350118 -0.63651365 0.0015441071
0.019241363 0.029477263 -0.011483324 -0.19214496 0.67682922 -0.71062124 0.0013472483
0.021417547 0.029771123 -0.0117429 -0.21595763 0.70674098 -0.67370588 0.0024173451
0.059339527 0.028215555 -0.011963104 0.51286954 -0.35561633 -0.78134626 0.0013977806
0.061309777 0.028612772 -0.010641962 0.59326684 -0.39015663 -0.70413935 0.0015832287
0.063305244 0.029357307 -0.0093084928 0.66139448 -0.42694807 -0.61666256 0.0015554553
-0.021883925 0.032635402 -0.011611973 0.26011854 0.6752277 -0.69022149 0.0022512192
-0.019300766 0.032199267 -0.011089177 0.2489375 0.72100216 -0.64667296 0.0013554026
-0.016445456 0.031691268 -0.010571398 0.22768442 0.74610186 -0.62569314 0.0013149719
-0.013588507 0.031126658 -0.010257525 0.19854896 0.74657482 -0.63498378 0.0026332058
-0.010611507 0.030731805 -0.0098498026 0.17927487 0.74784303 -0.63921142 0.0016631173
-0.0077539147 0.030382372 -0.0095257768 0.14178486 0.76072729 -0.63339639 0.0016094547
-0.005035968 0.030166365 -0.0092363395 0.1139226 0.76567662 -0.63305688 0.0012565631
-0.0029414007 0.030000981 -0.0090774614 0.11452965 0.75876248 -0.6412195 0.0015283586
0.013943682 0.030185744 -0.0092265857 -0.12593843 0.77723408 -0.6164794 0.0013493458
0.016621456 0.030415064 -0.0096169533 -0.17057694 0.7733171 -0.61064237 0.0014647581
0.019584117 0.030876098 -0.0099723293 -0.20663136 0.76633137 -0.60830879 0.0016371444
0.02257139 0.031326696 -0.01045829 -0.21936873 0.75768614 -0.61464548 0.0021376354
0.025386183 0.031981789 -0.010728522 -0.24077566 0.75511646 -0.60977554 0.0011351579
0.028316474 0.032418471 -0.011362233 -0.24574311 0.71534163 -0.65413821 0.0010886084
0.03047511 0.032902319 -0.011669842 -0.27118546 0.72425622 -0.6339649 0.0012315884
0.061958145 0.03130313 -0.011423334 0.55483806 -0.28596878 -0.78126603 0.0012515609
0.063987456 0.031777781 -0.0099624041 0.63856661 -0.32910341 -0.69564617 0.0017180947
-0.030360654 0.035853121 -0.01193738 0.30084312 0.66063434 -0.68779039 0.0029572858
-0.02811178 0.035407934 -0.01139633 0.30335146 0.66606802 -0.68141854 0.0010008489
-0.025360176 0.034890607 -0.010656312 0.30038273 0.73106182 -0.61263263 0.0014634818
-0.022643363 0.034109633 -0.01028967 0.27962962 0.73627031 -0.61620891 0.0021205738
-0.019766981 0.033557892 -0.0097004762 0.26733655 0.7501241 -0.60485119 0.0014171203
-0.017525641 0.033131994 -0.009238096 0.24358244 0.76026416 -0.6022175 0.0013608349
0.026128776 0.033300251 -0.0093731657 -0.25082445 0.77678764 -0.5776574 0.0010375878
0.028672552 0.033710781 -0.0099489018 -0.2668241 0.76068932 -0.59174031 0.0013508355
0.03158845 0.034373432 -0.010415257 -0.26978019 0.75942081 -0.59202921 0.0018258962
0.034335002 0.035042346 -0.010909061 -0.30614853 0.72601885 -0.61576766 0.0021216383
0.036863465 0.03561582 -0.011535439 -0.32303393 0.66915619 -0.66923767 0.0020354607
0.062734425 0.034087453 -0.011757025 0.53252292 -0.16302989 -0.83056647 0.002460425
0.064219803 0.034533877 -0.010908335 0.55524367 -0.15061003 -0.81793708 0.0013532203
0.06628301 0.035297189 -0.0092176795 0.69664967 -0.25355837 -0.67110914 0.0023737815
-0.036294259 0.038794249 -0.011848809 0.31199986 0.65647155 -0.68680507 0.002423577
-0.034157269 0.03833003 -0.011284616 0.32114199 0.67098761 -0.66831392 0.00073407218
-0.0314309 0.03768526 -0.010555655 0.33516243 0.7219553 -0.60534853 0.0013615675
-0.028690634 0.036843162 -0.01008305 0.33193821 0.72872913 -0.59897488 0.0017497622
-0.026310524 0.036341742 -0.0093734637 0.32277876 0.75207907 -0.57462245 0.0015983448
0.034987062 0.036440056 -0.0095378831 -0.3308773 0.74626118 -0.57759374 0.0013145497
0.037684474 0.03714003 -0.010272622 -0.35329011 0.71193051 -0.60691106 0.0020244438
0.040295582 0.037965514 -0.010893886 -0.35893705 0.69686127 -0.62092561 0.0015544533
0.042922687 0.038658261 -0.011631437 -0.32561985 0.6322431 -0.70302224 0.0017912382
0.064533755 0.03774618 -0.011258792 0.50983298 -0.043796666 -0.85915786 0.0022783792
0.066387653 0.037863951 -0.0098956842 0.62828684 -0.089712411 -0.77279192 0.0020627845
-0.063298337 0.041571055 -0.010790842 -0.41168505 0.06494879 -0.90900886 0.0023034047
-0.06168998 0.041043654 -0.011595353 -0.34198481 0.074352533 -0.93675941 0.0034389549
-0.042581338 0.041795742 -0.011791271 0.27710226 0.65309733 -0.70475399 0.0017200551
-0.040307209 0.041254349 -0.011294432 0.31276065 0.65679055 -0.68615371 0.00098680693
-0.037462674 0.040556431 -0.010580911 0.32900545 0.68264067 -0.65250069 0.0011293448
-0.034696832 0.039792027 -0.0099339625 0.35476807 0.7198891 -0.59657288 0.0016291958
-0.03252295 0.039275222 -0.0092713265 0.3647871 0.73584652 -0.57049125 0.0016530496
0.040923912 0.039517116 -0.0095759863 -0.40125331 0.69751406 -0.59369183 0.0013667872
0.043666381 0.040373921 -0.010321242 -0.35971975 0.66614693 -0.65333754 0.001319089
0.046238858 0.040983725 -0.011105453 -0.33282238 0.63132995 -0.70046538 0.0017357655
0.048695356 0.041552532 -0.011686265 -0.25910902 0.60951418 -0.74923629 0.0019532929
0.064540833 0.040647313 -0.01130085 0.45615667 0.074983574 -0.88673484 0.003905124
0.066807151 0.040521763 -0.009793086 0.60182554 -0.0030105321 -0.79862189 0.0022795128
-0.06429112 0.043660339 -0.010352313 -0.43718249 0.050097387 -0.89797652 0.001331738
-0.061067246 0.044282459 -0.011761457 -0.25152525 0.19371571 -0.94826645 0.0022734944
-0.049007658 0.04459947 -0.011742095 0.21761975 0.61773849 -0.75567245 0.0020070283
-0.046385199 0.044151496 -0.011221177 0.27034724 0.6175229 -0.73863238 0.001291338
-0.043485358 0.043587446 -0.010460683 0.31522134 0.67922759 -0.66278613 0.0012256297
-0.040699199 0.042767357 -0.0098995389 0.35511658 0.69837153 -0.62142527 0.0015347268
-0.03850555 0.042204082 -0.0092859808 0.37562945 0.72417468 -0.57833689 0.0016139519
0.044671979 0.042236038 -0.0091617182 -0.40371639 0.69760525 -0.59191215 0.0033778918
0.046868239 0.04268384 -0.0097884824 -0.37072688 0.67617559 -0.63666958 0.0014296779
0.049559463 0.043428008 -0.010383694 -0.31620803 0.62109911 -0.71711117 0.001605914
0.052344993 0.043897241 -0.011099813 -0.24468246 0.57078236 -0.78379709 0.0011113245
0.05527401 0.04439345 -0.011577538 -0.16263828 0.51573282 -0.84117091 0.0023395999
0.058185875 0.044612538 -0.011815739 -0.024163427 0.43679002 -0.89923888 0.0037309052
0.061760459 0.044127584 -0.011728087 0.15865998 0.31120411 -0.93700534 0.0044723297
0.064493999 0.043566316 -0.010971694 0.38627246 0.17934671 -0.90478081 0.0061996672
0.066803195 0.043514222 -0.009713931 0.55836785 0.089468941 -0.82475495 0.0033527422
-0.066286266 0.047239255 -0.009173004 -0.44870302 0.10552344 -0.88742912 0.0030607805
-0.064333417 0.047106005 -0.010117041 -0.27433038 0.26324442 -0.92490286 0.0018092699
-0.061394736 0.046559475 -0.01118903 -0.17905255 0.33351469 -0.92558527 0.004535906
-0.058315296 0.046988327 -0.011491264 -0.010506251 0.46037135 -0.88766432 0.0037107924
-0.055387754 0.046986818 -0.011366635 0.098923057 0.52706397 -0.84404844 0.0023187273
-0.05238701 0.046743739 -0.011008867 0.18167482 0.58073366 -0.79356325 0.0012203348
-0.049596529 0.046490733 -0.010332152 0.2623589 0.64414209 -0.71850461 0.0019533292
-0.04673031 0.045782875 -0.0098040169 0.32279706 0.68468016 -0.65346396 0.0016860167
-0.044470012 0.045248318 -0.0092127994 0.35986137 0.70869541 -0.6068365 0.0019940615
0.050646972 0.045222718 -0.0092372587 -0.35840398 0.66498792 -0.65523857 0.0021609627
0.052810732 0.045812894 -0.0097040841 -0.31310308 0.64588046 -0.69627935 0.0021009657
0.055547919 0.046499591 -0.01015862 -0.24896479 0.57607991 -0.77855545 0.0028113257
0.058507588 0.046491515 -0.010794405 -0.085300013 0.49685356 -0.86363208 0.0024278874
0.061402768 0.046647474 -0.0107972 0.051043075 0.41933355 -0.90639609 0.0031113829
0.064053781 0.046463713 -0.010394108 0.1945993 0.3367905 -0.92125094 0.0044551049
0.066599831 0.046443097 -0.0093674157 0.4820599 0.21430428 -0.84952456 0.004931543
-0.066044308 0.048896641 -0.0090569295 -0.38116983 0.25206292 -0.88947958 0.007097858
-0.064005584 0.049862266 -0.0094723208 -0.12565364 0.45800173 -0.88002586 0.0033398764
-0.061346933 0.04970238 -0.0099286055 -0.035003345 0.52918977 -0.84778124 0.0042812177
-0.058503255 0.049526494 -0.010026849 0.056814626 0.57002056 -0.81966376 0.0031667587
-0.055547792 0.049129207 -0.0098791104 0.16412927 0.62327093 -0.76458806 0.0035177122
-0.052684341 0.04861534 -0.0095126592 0.24288799 0.66332281 -0.70781934 0.0024550969
-0.050561775 0.04816829 -0.0091394102 0.30885091 0.68777531 -0.65694469 0.0021370423
0.056676984 0.048194993 -0.0092196455 -0.27608055 0.60553747 -0.74639392 0.0036847685
0.058701839 0.048602384 -0.0094684549 -0.18059686 0.57732505 -0.79629177 0.0037036811
0.061556559 0.049063351 -0.0095519489 -0.041761167 0.49021176 -0.87060237 0.0044214358
0.063994527 0.048958909 -0.0094706444 0.12488022 0.40165541 -0.90723634 0.0051969835
0.066022314 0.048182003 -0.0092806611 0.33886802 0.25834128 -0.9046703 0.012451282
-0.061532758 0.051129397 -0.0091479886 0.046207283 0.63066661 -0.77467704 0.0022722031
-0.0593841 0.051129293 -0.0090308795 0.13998485 0.68888003 -0.71123028 0.0023930105
0.061985057 0.026118966 -0.0082318373 0.64259011 -0.42993858 -0.63421661 0.001951656
0.064007983 0.026744589 -0.0062969993 0.6860736 -0.45618254 -0.56674564 0.0010681403
-0.0014497559 0.029958379 -0.0089312848 0.076313138 0.81806856 -0.57003516 0.0016229898
0.0019147437 0.029803196 -0.0088149421 0.038173582 0.82503927 -0.5637846 0.002114051
0.0044592195 0.029814361 -0.0087485863 -0.0020043084 0.82454985 -0.56578577 0.0020295018
0.0074648648 0.02982088 -0.0088082524 -0.026979335 0.81930238 -0.57272661 0.0027312201
0.00973495 0.029996308 -0.0087756282 -0.079285719 0.77981877 -0.62096417 0.0012245874
0.064059325 0.028366352 -0.0077072927 0.68988323 -0.44136629 -0.57380921 0.0012821124
-0.015533566 0.032922633 -0.0087074423 0.24655885 0.77995622 -0.57521909 0.00070569565
-0.013259284 0.032526627 -0.0083074896 0.21756351 0.81778193 -0.53282166 0.0018864125
-0.010375516 0.032227188 -0.0076473742 0.19796365 0.845025 -0.49673247 0.001437886
-0.0075430158 0.03171958 -0.0074997619 0.15731411 0.85355866 -0.49667871 0.0021268881
-0.0044890787 0.031232649 -0.0075240978 0.11959381 0.85125792 -0.51093769 0.0023374895
-0.001458326 0.030944115 -0.0074054524 0.08359284 0.85714608 -0.50824481 0.0021217545
0.0014551148 0.030808656 -0.0072839293 0.034146242 0.86345607 -0.50326687 0.0022685442
0.0044811242 0.030785074 -0.0072010029 0.0028552043 0.86854047 -0.49561 0.0022024966
0.0075387913 0.030800818 -0.0072481334 -0.025878655 0.86549371 -0.50025082 0.0021900269
0.010577043 0.030924143 -0.007420138 -0.074953385 0.86532164 -0.49558097 0.0019761615
0.013494793 0.031215975 -0.0074867201 -0.13205348 0.86674458 -0.48095277 0.0029508797
0.016460983 0.031714339 -0.0075653717 -0.18847792 0.85960644 -0.47492403 0.002099992
0.019352039 0.032351654 -0.0077095204 -0.22529346 0.84571439 -0.4837459 0.0013386315
0.022132419 0.03267673 -0.0084652826 -0.23951524 0.82037133 -0.51925266 0.0015074154
0.065464109 0.031431835 -0.0082850093 0.71781927 -0.37076864 -0.58929288 0.0026927444
0.066632964 0.031737495 -0.0070083118 0.73358196 -0.3861163 -0.55925995 0.0013566916
-0.024171263 0.035859786 -0.0087947072 0.32621858 0.76192623 -0.55950856 0.0029513158
-0.022119403 0.035483036 -0.008144659 0.30514187 0.81783056 -0.48789498 0.0017027333
-0.019455552 0.034898352 -0.0075001903 0.29770976 0.83799589 -0.45730928 0.001497679
-0.016598193 0.033990577 -0.0074403114 0.24579558 0.83622211 -0.49022141 0.0020770784
-0.01374722 0.033491153 -0.0069028796 0.22196722 0.85291362 -0.47251332 0.0020157469
-0.011227727 0.033130985 -0.0063507636 0.19331056 0.86964816 -0.45424998 0.0012347632
0.020152712 0.033273965 -0.0064220107 -0.22687174 0.86285055 -0.45168361 0.0014564794
0.022683969 0.033640746 -0.0070601539 -0.24472345 0.85387707 -0.45935208 0.0016995693
0.025474185 0.034257252 -0.0074776933 -0.26137727 0.84508276 -0.46638715 0.0018547191
0.028371328 0.035112072 -0.0076361322 -0.29538181 0.84199119 -0.45144245 0.0012984884
0.030931292 0.035616111 -0.0083487015 -0.30972818 0.79518574 -0.52129465 0.0013973893
0.067425273 0.034501076 -0.007590245 0.76436591 -0.28671873 -0.57752681 0.0015326088
-0.030512331 0.038802955 -0.0085869618 0.37172627 0.76928151 -0.51963991 0.0010370023
-0.028270194 0.038244899 -0.0078225648 0.36346897 0.80564815 -0.46778342 0.0016877428
-0.025530698 0.03723434 -0.0074749067 0.32779419 0.81530845 -0.47730815 0.0020413867
-0.022872657 0.036509946 -0.0068700896 0.32245815 0.83249199 -0.45053059 0.0016913596
-0.020585991 0.036022425 -0.0062206448 0.32514969 0.84167516 -0.43111554 0.0013471448
0.029459491 0.036171306 -0.0063633882 -0.30620411 0.85854012 -0.41127598 0.0011422905
0.031697828 0.03658735 -0.0071095922 -0.31924495 0.83559936 -0.44705296 0.0016954982
0.03448189 0.037515629 -0.0075145499 -0.36436436 0.81518501 -0.45023555 0.0027798468
0.037003726 0.038386419 -0.0081155263 -0.41276976 0.77193975 -0.48345649 0.0024590937
0.039032169 0.038872931 -0.0087952074 -0.42921796 0.76300281 -0.4833205 0.0022004927
0.068073019 0.037455965 -0.0079648523 0.7598598 -0.19009109 -0.62167394 0.0021261896
0.069342308 0.037960015 -0.0065598963 0.78924197 -0.210776 -0.57677603 0.0015922403
-0.036683038 0.041770965 -0.0086330147 0.37667871 0.73703104 -0.561158 0.00081787817
-0.034270208 0.041137114 -0.0077291783 0.39935359 0.79409373 -0.4581832 0.0014209151
-0.031589892 0.040025044 -0.0073998296 0.3674162 0.79779166 -0.47805196 0.0016161879
-0.029269069 0.039354492 -0.0066431463 0.38434118 0.81891376 -0.42621851 0.0011501531
0.037898544 0.039588828 -0.0069484352 -0.43157026 0.78221792 -0.44931316 0.0017719315
0.040456761 0.040696565 -0.0075634536 -0.4442831 0.76581162 -0.46491411 0.001681095
0.042715874 0.041461781 -0.0084065376 -0.43085766 0.71086991 -0.55590069 0.001868317
0.068386599 0.040690158 -0.0084241033 0.682733 -0.012196877 -0.73056608 0.0029398492
0.06958387 0.040857755 -0.0071579181 0.72947806 -0.044883713 -0.68252993 0.0017471486
-0.066570312 0.043889105 -0.0089089479 -0.44248599 0.072885774 -0.8938086 0.001913463
-0.042483449 0.044711519 -0.0086328397 0.38204521 0.72027284 -0.57900643 0.0014352724
-0.040240958 0.044156775 -0.0077386764 0.40132505 0.77504283 -0.4881053 0.0018740619
-0.037657734 0.043058377 -0.0073746103 0.38238865 0.78573489 -0.48620942 0.0017268608
-0.035296682 0.042293821 -0.0066203219 0.42107865 0.79458141 -0.43741643 0.0014410834
0.0416051 0.042244289 -0.0061312369 -0.47922105 0.75818157 -0.44216275 0.00099514297
0.043741178 0.042904403 -0.0071884505 -0.45409188 0.75447124 -0.47389212 0.0016753827
0.046353981 0.044019565 -0.0078368997 -0.41897774 0.73295563 -0.53594196 0.0023502454
0.04876842 0.044781659 -0.0086120097 -0.36940938 0.67771059 -0.63580269 0.0012955443
0.068262152 0.043852173 -0.0085800597 0.6459825 0.04371728 -0.76209933 0.0021389704
0.06966798 0.043457039 -0.0072085485 0.71892732 0.028047562 -0.6945191 0.0025233699
-0.067575552 0.046896931 -0.0083720321 -0.44864348 0.10553693 -0.88745761 0.0030789524
-0.048482087 0.047699541 -0.0086012902 0.33096373 0.70404947 -0.62831312 0.0023329032
-0.046207983 0.047158867 -0.0078423051 0.3644461 0.75775963 -0.54127574 0.0024170524
-0.04359901 0.046158057 -0.007358484 0.37744987 0.76726764 -0.51849002 0.001740634
-0.04127856 0.045390774 -0.0066500003 0.42427897 0.77984512 -0.46024874 0.0015719911
0.047298256 0.045402568 -0.0066751628 -0.45363927 0.74003023 -0.49655485 0.0020865544
0.049642425 0.046299201 -0.0073150829 -0.39535013 0.74901891 -0.53166622 0.0017504618
0.052186951 0.047139212 -0.0080467435 -0.35452026 0.68414652 -0.63738441 0.0017423211
0.054400217 0.047714572 -0.0087194555 -0.29821387 0.64339858 -0.70505798 0.0022864926
0.068109885 0.046668213 -0.0083516892 0.53799677 0.14543542 -0.83030599 0.0049172863
0.069761172 0.046260063 -0.0069515263 0.68473738 0.088579595 -0.7233867 0.0032832618
-0.069680102 0.0496861 -0.0068185837 -0.47678933 0.11625022 -0.8712967 0.0012963813
-0.06679222 0.050281085 -0.0083540715 -0.21359105 0.35502869 -0.9101283 0.0053008306
-0.065120593 0.050557241 -0.0088414503 -0.17312056 0.3904981 -0.90417945 0.006178515
-0.057380736 0.050841313 -0.0088738566 0.11377559 0.66818345 -0.73524553 0.0029250111
-0.055039149 0.050567199 -0.0084622912 0.21912789 0.70089614 -0.67876917 0.0026348692
-0.052354351 0.050094333 -0.0077698999 0.31796524 0.7456193 -0.58561927 0.003003645
-0.049586851 0.049159285 -0.0073822103 0.33887938 0.76253337 -0.5510931 0.0021233798
-0.047081668 0.048455913 -0.0066192076 0.40060923 0.76891977 -0.49827164 0.0018453943
0.053014595 0.048703834 -0.0068041249 -0.42883974 0.71591699 -0.55096215 0.0022039006
0.055532042 0.049482498 -0.0074801333 -0.33894953 0.66806078 -0.66242582 0.0019365359
0.05837239 0.050062042 -0.0081995614 -0.25539416 0.61381251 -0.74699926 0.0029267047
0.061418205 0.05047502 -0.0086705061 -0.12813561 0.56711119 -0.81361306 0.0044127242
0.064258195 0.050333079 -0.0088039488 0.039757181 0.44411528 -0.89508718 0.006123513
0.067495376 0.049525648 -0.0080761444 0.38526613 0.27493295 -0.8808983 0.0072412416
0.06962727 0.049395792 -0.0066633327 0.67592162 0.13294724 -0.72488278 0.0053906776
-0.069857679 0.052723292 -0.0065211351 -0.40590262 0.15067223 -0.90141052 0.0062869936
-0.067231826 0.052890986 -0.007489698 -0.046683006 0.47307003 -0.87978715 0.0059105344
-0.064334787 0.052689094 -0.0079097087 0.013238754 0.52444071 -0.85134411 0.004950806
-0.061462041 0.05268478 -0.0077509652 0.073934041 0.6076625 -0.79074651 0.0056570247
-0.0585518 0.052458297 -0.0074842386 0.17821115 0.72934926 -0.66052288 0.0028997988
-0.055627335 0.051961064 -0.007114748 0.26887646 0.75013572 -0.60415387 0.0022349225
-0.053091902 0.051457182 -0.0064791241 0.35209796 0.76335889 -0.54158109 0.0015420619
0.056568347 0.051207613 -0.0062824516 -0.39139274 0.705181 -0.59121192 0.0031140577
0.058632001 0.051775839 -0.0067099351 -0.32917732 0.67936713 -0.6558221 0.003800371
0.06142959 0.05236806 -0.0072865202 -0.25551012 0.59952474 -0.75847524 0.0040649436
0.064051755 0.052405421 -0.0077481642 -0.093923897 0.50181717 -0.85985917 0.002990437
0.067467734 0.052477416 -0.0072008017 0.34245691 0.30106485 -0.88999057 0.013471465
0.069407731 0.05246833 -0.0062444396 0.59075719 0.18977222 -0.7842145 0.0066310558
-0.069621928 0.055138901 -0.0062488057 -0.1193122 0.42224306 -0.89859641 0.0061896541
-0.067353599 0.05505095 -0.0065445495 0.03164814 0.53629267 -0.84343851 0.0056775338
-0.064555109 0.05476895 -0.0065279859 0.12291748 0.6097005 -0.78304315 0.0075263442
-0.06181832 0.054298911 -0.0062942277 0.18996021 0.69897258 -0.68945813 0.0047737914
-0.059958003 0.054005384 -0.0060984488 0.22756308 0.75994354 -0.60885215 0.0020310252
0.062515214 0.054258589 -0.00622048 -0.34887514 0.59727663 -0.72218186 0.0049668164
0.064622134 0.054757938 -0.0064277458 -0.14429814 0.49572289 -0.85640931 0.011132568
0.067270368 0.055040497 -0.0063831937 0.14471839 0.37126768 -0.91717869 0.016120326
0.069006123 0.054246344 -0.0061925761 0.41781858 0.25730693 -0.87133276 0.028430011
0.065467007 0.028247705 -0.0056332699 0.75233203 -0.47938788 -0.45186707 0.0034749955
0.066687152 0.029173503 -0.0045717368 0.78146982 -0.46026054 -0.42126617 0.0020666097
-0.0092117433 0.032895833 -0.0059446697 0.21140672 0.86368865 -0.45754686 0.0010169675
-0.0071293483 0.032751221 -0.0053824293 0.16194576 0.91901422 -0.35942522 0.0025334575
-0.0043276162 0.032563403 -0.0047857282 0.13319509 0.92242002 -0.36249182 0.0020214042
-0.0014633862 0.032328848 -0.0045043007 0.11222959 0.93840986 -0.32678971 0.0024405413
0.0014984919 0.032107193 -0.0045061405 0.047487095 0.94594938 -0.32081878 0.0025948698
0.0044551995 0.032033741 -0.0044841007 0.008503695 0.93305385 -0.35963613 0.0027562408
0.0074703866 0.03205362 -0.0045049321 -0.040052507 0.93725163 -0.34634554 0.0028624767
0.010542295 0.032262672 -0.0045052902 -0.100074 0.94141239 -0.3220681 0.0026504069
0.013428346 0.03251249 -0.0046776305 -0.1494092 0.93110812 -0.33273801 0.0025670498
0.016143916 0.032742899 -0.0053678718 -0.1947573 0.91783446 -0.3459039 0.0023047177
0.018036865 0.032975122 -0.0055940379 -0.20262587 0.92414099 -0.3238923 0.0026887055
0.068310596 0.032128856 -0.0046003605 0.83498001 -0.40356058 -0.37409532 0.0032263706
-0.018777572 0.035736997 -0.0053531639 0.30704498 0.89364928 -0.32728329 0.0025267394
-0.016503975 0.035272699 -0.0045731333 0.27983773 0.9092837 -0.30804878 0.0023531206
-0.013501897 0.034466323 -0.0044894419 0.2348493 0.91523695 -0.32739437 0.0024181837
-0.010517756 0.033745453 -0.0044966615 0.19732626 0.92850363 -0.31455275 0.0021973532
-0.007697551 0.033352554 -0.0040301494 0.15775037 0.93742681 -0.31039616 0.0025139805
-0.0050716843 0.033134211 -0.0034305928 0.13340335 0.94038725 -0.31285024 0.0026442159
0.014232422 0.033074833 -0.0033175827 -0.13677835 0.96349764 -0.23013909 0.00070930016
0.016653642 0.0333318 -0.004001508 -0.19928499 0.93275023 -0.30043712 0.0023932788
0.019531138 0.033878487 -0.0044845068 -0.22951682 0.92447913 -0.30440164 0.0018420797
0.022517942 0.034683641 -0.0044985111 -0.26811224 0.91456413 -0.30280071 0.0014221946
0.025295189 0.035462555 -0.004663296 -0.30535606 0.90565157 -0.2941986 0.0017140041
0.027454229 0.035797898 -0.0056067891 -0.30897766 0.8843562 -0.34992427 0.0011688465
0.068621628 0.033978343 -0.0056135231 0.83209896 -0.32533139 -0.4491891 0.0029509093
0.069660373 0.035034429 -0.0043971147 0.86402339 -0.33323091 -0.37738678 0.0030207776
-0.027231164 0.038860906 -0.0057803239 0.39989433 0.84016407 -0.36634532 0.0035735157
-0.025211832 0.038388662 -0.0046795481 0.38894236 0.8766771 -0.28312764 0.0018993601
-0.022450978 0.037349537 -0.0045103305 0.32675293 0.89398444 -0.30663398 0.0023733536
-0.019722013 0.036449086 -0.0041965614 0.31077629 0.9053545 -0.28939816 0.0019612543
-0.017626496 0.036095578 -0.0032357723 0.27702114 0.93938458 -0.20202942 0.0015078707
0.026439631 0.036150753 -0.0036238183 -0.28431755 0.92062467 -0.26760715 0.0013891187
0.028623069 0.036641844 -0.0043725031 -0.30561206 0.90570259 -0.29377556 0.0021181926
0.031500034 0.037616465 -0.0045080078 -0.34468544 0.89382929 -0.28681216 0.0024986165
0.033986267 0.038511109 -0.0048949607 -0.40511248 0.86172348 -0.30547744 0.0028342437
0.070436217 0.037613153 -0.004562337 0.86898208 -0.24390818 -0.4305566 0.0028522555
-0.033279102 0.041793261 -0.0055626691 0.41873297 0.84236449 -0.33924139 0.0033981111
-0.031329367 0.041194234 -0.004616491 0.43388054 0.85712373 -0.27764452 0.0017002309
-0.028511385 0.039922968 -0.004447062 0.39104989 0.873743 -0.28922853 0.0022714976
-0.026378579 0.039202224 -0.0037802691 0.37884375 0.88015485 -0.28601566 0.0020896029
0.035230592 0.039389681 -0.0040942193 -0.41825643 0.86194605 -0.28654924 0.0025766788
0.037572991 0.040543869 -0.0044593383 -0.46591854 0.82911402 -0.30901423 0.0025548432
0.039735898 0.041601781 -0.0050599235 -0.5139364 0.8059448 -0.29380652 0.0018406484
0.07101012 0.040249724 -0.00453076 0.89826643 -0.17709351 -0.40218824 0.001962529
-0.039384462 0.044857733 -0.0056127189 0.42464572 0.83145261 -0.35827729 0.0036570702
-0.037286829 0.04418771 -0.0046755462 0.44743833 0.84091568 -0.3044008 0.0021265505
-0.034551483 0.04286107 -0.0044182693 0.4300366 0.85459727 -0.29108772 0.0022345067
-0.032574043 0.04216807 -0.0035291417 0.43308744 0.8526746 -0.29220098 0.0019448159
0.040914789 0.042630192 -0.004257224 -0.49020943 0.81587046 -0.30667585 0.0021126256
0.043315928 0.044018295 -0.0045924191 -0.51864797 0.80160159 -0.29738718 0.0015529637
0.045268822 0.044842791 -0.0055324323 -0.50110698 0.78493696 -0.36437052 0.002966285
0.071122661 0.043900274 -0.0052529294 0.79940468 0.0035593163 -0.60078239 0.0016679785
0.072097957 0.043781865 -0.0031298089 0.93045568 -0.080347478 -0.35748643 0.0016283081
-0.045177847 0.047873028 -0.0058306865 0.40807006 0.78498036 -0.46613795 0.0010533978
-0.043168023 0.047351066 -0.0047026412 0.46376896 0.82649857 -0.31909001 0.0020972646
-0.040593524 0.046055723 -0.0044397172 0.44810739 0.83766174 -0.31228599 0.0023376294
-0.038539857 0.045213457 -0.0036986899 0.44701549 0.83785152 -0.31334001 0.0022710154
0.044583604 0.045205921 -0.003664311 -0.50638366 0.80391443 -0.31192505 0.0017182664
0.046605352 0.046136945 -0.0044930847 -0.49737868 0.79639494 -0.34404895 0.002936986
0.048954859 0.047433008 -0.0048522619 -0.50085294 0.77831089 -0.37865356 0.004274901
0.071297124 0.046556026 -0.0050271512 0.77466357 0.069384292 -0.6285556 0.0027639787
0.072129712 0.046547085 -0.0033156499 0.88633174 -0.011503117 -0.46290794 0.0037650119
-0.071028791 0.050709616 -0.0058006044 -0.40589374 0.15069041 -0.90141153 0.0062894914
-0.049077287 0.050440151 -0.0048670922 0.4198994 0.82568383 -0.37673691 0.0032388549
-0.046469633 0.049240351 -0.0044874516 0.45384189 0.82019782 -0.34828594 0.0025236653
-0.04431333 0.048332483 -0.0038361901 0.44342369 0.83412462 -0.32804185 0.0019900624
0.050141972 0.048553854 -0.0041157976 -0.49633685 0.78116095 -0.37873113 0.0028578397
0.052475672 0.049817551 -0.0046173614 -0.48493174 0.77012008 -0.41443488 0.0036497631
0.054771025 0.05072226 -0.0054647983 -0.43666527 0.75182492 -0.49404728 0.0035691597
0.071080163 0.0495665 -0.0050764014 0.7588985 0.08792147 -0.64524627 0.0035332297
0.07216768 0.049311981 -0.0034951144 0.80601066 0.05571508 -0.58927304 0.0023621016
-0.072023548 0.053259343 -0.0053147762 -0.37345362 0.1493565 -0.9155463 0.0045636678
-0.071385317 0.052366424 -0.0056229495 -0.37442985 0.12216333 -0.9191727 0.0045210817
-0.057936803 0.053762782 -0.0056851543 0.23750363 0.77445501 -0.58635443 0.0015862547
-0.055277299 0.053370565 -0.0048142816 0.2953102 0.83750886 -0.4597508 0.0034665149
-0.052487522 0.052341316 -0.00448586 0.37706903 0.82005018 -0.43050748 0.0023420015
-0.050145406 0.051424999 -0.0039324909 0.41745859 0.83263648 -0.36392969 0.0028681252
0.053758118 0.051253062 -0.0034236379 -0.50115603 0.77683681 -0.38127056 0.001925951
0.055757035 0.051992346 -0.0042980942 -0.4494856 0.7749055 -0.44439191 0.0034969866
0.058271155 0.05317026 -0.0047774822 -0.42842138 0.73709869 -0.52262855 0.0066163861
0.060563873 0.053660627 -0.0058045429 -0.32648861 0.62478268 -0.70926142 0.0054011964
0.07090582 0.052549385 -0.0048878081 0.7194711 0.095232621 -0.68796235 0.0063147461
0.072123215 0.052482948 -0.0033885902 0.76776433 0.069441244 -0.6369583 0.0040220651
-0.073281243 0.055773187 -0.0044739856 -0.59219402 0.26700073 -0.76027417 0.016848303
-0.07052619 0.056301456 -0.0056749969 -0.14708348 0.46932036 -0.87069213 0.010346305
-0.067354433 0.056508366 -0.0057474542 0.081013389 0.53801167 -0.83903527 0.0049105668
-0.064282686 0.056248326 -0.0052295192 0.22464405 0.63425291 -0.7397691 0.004286922
-0.061508756 0.055623442 -0.0045544137 0.29986757 0.784805 -0.54236579 0.0079877404
-0.058621544 0.054764371 -0.0042824936 0.27245361 0.84311867 -0.46359453 0.0039161146
-0.056158956 0.054290503 -0.0036663695 0.3321698 0.8639096 -0.37858072 0.0032768815
0.059276193 0.054475605 -0.0037876728 -0.4968029 0.72668111 -0.47446966 0.0052912124
0.061503153 0.055429455 -0.004522312 -0.43531832 0.68411213 -0.58522516 0.0057216715
0.063921459 0.056209039 -0.0053413319 -0.36416334 0.57078212 -0.73592991 0.0083207963
0.067709789 0.056318417 -0.0058269729 0.071106106 0.38431841 -0.9204582 0.016513087
0.070458725 0.055526964 -0.0048300456 0.59442073 0.1166841 -0.79564369 0.014405947
0.072052568 0.055043072 -0.0033519696 0.69243348 0.07777562 -0.71727735 0.0077172592
-0.072920822 0.058160931 -0.0038819399 -0.45504102 0.67992324 -0.57501489 0.033392336
-0.070365556 0.058822121 -0.0043217666 -0.21571767 0.7011708 -0.67957747 0.026865235
-0.067485303 0.058487758 -0.0042970949 0.17033136 0.69797599 -0.69556928 0.013678352
-0.064693861 0.05779415 -0.003850311 0.34041265 0.71967179 -0.60513788 0.0076918672
-0.06273941 0.057205647 -0.0032535552 0.44158515 0.74470782 -0.50041258 0.0075620641
0.062745452 0.057419866 -0.0034986364 -0.58196646 0.57452083 -0.57553536 0.0066713528
0.064267561 0.05833219 -0.0039794953 -0.54975355 0.52585876 -0.64903277 0.013531894
0.067449689 0.058482632 -0.0051191747 -0.0063793384 0.29906797 -0.95421046 0.01952355
0.070470057 0.05850419 -0.0044144671 0.44061673 0.13810325 -0.88700861 0.021969618
0.072223015 0.05866573 -0.0030669575 0.65612853 0.038260061 -0.75367868 0.01887453
-0.069371171 0.060076017 -0.003102771 -0.11322072 0.87377107 -0.47297493 0.025391301
-0.068198293 0.060059175 -0.0030577295 0.10255371 0.89042932 -0.44341668 0.031314328
0.065601707 0.060664147 -0.0035377908 -0.55946469 0.35897428 -0.74708545 0.011023724
0.067497134 0.061430462 -0.0042003514 -0.23056211 0.20057462 -0.95216119 0.024527607
0.070492744 0.061456062 -0.0041199755 0.30984437 0.042763062 -0.94982517 0.023324534
0.072151273 0.061273225 -0.0031991242 0.54117471 -0.013784143 -0.84079719 0.020009406
0.067846619 0.064339995 -0.0037309306 -0.27200738 0.10437344 -0.95661807 0.018345615
0.070434019 0.064424284 -0.0039702528 0.12626523 0.0080885282 -0.99196357 0.025786273
0.072276443 0.064962417 -0.0033476492 0.25266477 -0.052753758 -0.9661147 0.018601557
0.068210579 0.067469075 -0.0034839252 -0.29032764 0.013219094 -0.95683604 0.013118429
0.070440881 0.067428261 -0.0039880453 -0.029545108 -0.048904665 -0.99836642 0.025790019
0.072559372 0.067581609 -0.0035172352 0.29849428 -0.11648944 -0.94727582 0.013906198
0.068552569 0.07055936 -0.0033153365 -0.45513481 0.059887923 -0.88840634 0.021583397
0.070578754 0.070410386 -0.0041351793 -0.006926253 -0.11555173 -0.99327737 0.030199692
0.073032781 0.070669204 -0.0038784335 0.19385746 -0.1101846 -0.9748224 0.015171099
0.068786778 0.073392563 -0.0033033891 -0.65772879 0.1940435 -0.72783244 0.036473449
0.070378378 0.073272459 -0.0042575393 -0.14020343 0.1660798 -0.97609448 0.046647795
0.073954083 0.074182212 -0.0042660665 0.41533369 0.56832999 -0.7102809 0.058175486
0.075385861 0.07453353 -0.003508985 0.15094447 0.95463598 -0.25668246 0.059670344
0.068828903 0.076216072 -0.0032123215 -0.096638158 0.95462155 -0.28170687 0.079561196
0.070731916 0.076221481 -0.0038627845 0.039439876 0.82732379 -0.56033897 0.045612723
0.073268026 0.075598247 -0.0039416575 0.25014615 0.87786674 -0.40838331 0.044266745
0.075214699 0.075093925 -0.0032864306 0.37797239 0.90826833 -0.17940326 0.023818132
0.067946002 0.029622551 -0.0014993555 0.85823333 -0.41625133 -0.30028391 0.0048205866
-0.0010759324 0.032880362 -0.0024961901 0.087145723 0.98234534 -0.16553949 0.0023701026
0.0016388922 0.032808993 -0.0016828073 0.078092895 0.98792446 -0.13381656 0.0027620059
0.0044443179 0.032748058 -0.0015594237 0.015136233 0.99139702 -0.13001089 0.0026325528
0.0074561238 0.032763671 -0.0015763597 -0.057803504 0.98934084 -0.13365398 0.0022576826
0.010302351 0.032868154 -0.0021696629 -0.095879085 0.98192233 -0.1632044 0.0020108949
0.012545741 0.032948021 -0.0027823213 -0.1430058 0.97301233 -0.18109763 0.0018779527
0.068688646 0.031261403 -0.002503346 0.86752784 -0.40398699 -0.29015502 0.0049035824
0.069588713 0.032442197 -0.00089173252 0.88392073 -0.39713395 -0.24691847 0.0023961002
-0.01586845 0.035759915 -0.001740093 0.30378351 0.94668692 -0.10723551 0.0024045815
-0.013523192 0.035172444 -0.0015144603 0.25661117 0.95976412 -0.11403282 0.0023415387
-0.010439456 0.034440357 -0.001503997 0.21141137 0.96536452 -0.15289418 0.0033425037
-0.0075321463 0.033871997 -0.0015232497 0.16281106 0.97722417 -0.13610801 0.0028991327
-0.0045170165 0.033426177 -0.0014789958 0.11742878 0.98630393 -0.11582366 0.0022867913
-0.0016193335 0.033138424 -0.0010693627 0.081757337 0.99197483 -0.096445128 0.0037924408
0.00056101033 0.033025127 -0.00048494022 0.053355128 0.99694347 -0.057069924 0.0034585884
0.0084560579 0.033003092 -0.00016346868 -0.036695104 0.99918395 -0.016879627 0.00086547231
0.010894469 0.033088971 -0.0008116315 -0.076065317 0.99643975 -0.036357898 0.0024635929
0.013578323 0.033319842 -0.0013531498 -0.13101876 0.9836846 -0.12328232 0.0029675048
0.016436221 0.03381177 -0.0015331401 -0.19185521 0.97233617 -0.13324402 0.003502585
0.019474469 0.034552213 -0.0015214648 -0.2497994 0.95907849 -0.1332994 0.0025355602
0.02253782 0.035376552 -0.001539718 -0.27160296 0.95681459 -0.10362276 0.002398917
0.024468511 0.035874072 -0.0021020407 -0.31763628 0.94262099 -0.10282484 0.0024838708
0.070363589 0.034531437 -0.001737818 0.91472524 -0.33521491 -0.2256296 0.0030252421
-0.024519114 0.038819347 -0.0016976179 0.40608874 0.90772521 -0.10548384 0.002248096
-0.022529021 0.038072933 -0.0015084503 0.35997304 0.92659092 -0.1088519 0.0021550488
-0.019488459 0.036956381 -0.0015145721 0.31544903 0.93972147 -0.13196754 0.0029094236
-0.017191762 0.036237422 -0.001276937 0.27485231 0.95551252 -0.10701417 0.0027313847
0.025766172 0.036357597 -0.001364601 -0.28639987 0.95300055 -0.098818526 0.0024752503
0.028462611 0.03722702 -0.0014698766 -0.30615127 0.94513893 -0.11394627 0.0020191928
0.031445902 0.038279682 -0.0015314939 -0.36365494 0.92587662 -0.10250629 0.0028895382
0.03330297 0.038862608 -0.0023256768 -0.41833204 0.90101093 -0.11479361 0.0028265144
0.07144241 0.037525404 -0.0015389954 0.945903 -0.26658028 -0.1849393 0.0032878725
-0.030778481 0.041653052 -0.0016590115 0.45578575 0.88418931 -0.10231593 0.0019469615
-0.028509766 0.040602032 -0.0014943257 0.41776645 0.90303952 -0.099953972 0.0019568021
-0.025937544 0.039464325 -0.0014632343 0.37925038 0.91937435 -0.10449846 0.0023867004
0.032922506 0.039042622 -0.00073172967 -0.39941236 0.91038603 -0.10801427 0.0030635823
0.034656849 0.039686304 -0.0014665 -0.43304291 0.89341086 -0.11954376 0.0031245621
0.037367463 0.041162997 -0.0015385341 -0.50166744 0.85542738 -0.12873924 0.0024416258
0.039435424 0.041988071 -0.0029203075 -0.50830829 0.84189022 -0.18122825 0.0033230544
0.071861684 0.040021364 -0.0022780099 0.95406169 -0.17028362 -0.24651539 0.004403661
0.072220087 0.040871456 -0.001174694 0.97793961 -0.16871427 -0.12316535 0.0048698727
-0.03665844 0.044646874 -0.0016834055 0.48839656 0.86582583 -0.10869471 0.0020867244
-0.03446475 0.043517873 -0.0015146816 0.44864142 0.88820118 -0.099094264 0.001903246
-0.032159805 0.042366933 -0.0013897143 0.42613596 0.89859539 -0.10456842 0.0021731064
0.038768157 0.042155415 -0.0011812532 -0.52707618 0.84212023 -0.11412399 0.0034384851
0.0405045 0.043089405 -0.0014823312 -0.51580459 0.84763837 -0.12431781 0.0028423341
0.04274556 0.04450978 -0.0016645571 -0.54731339 0.82811981 -0.12110176 0.0022977048
0.071972862 0.042004805 -0.0029527629 0.93627435 -0.1606416 -0.31238541 0.0087286113
0.072420985 0.04394567 -0.0016502214 0.99665517 -0.081041746 -0.010526031 0.0039984379
-0.042390417 0.047794208 -0.0017105121 0.49387857 0.86144668 -0.11829454 0.0025689974
-0.040540073 0.046800736 -0.001510156 0.48068738 0.86946356 -0.11389774 0.0026477135
-0.038149357 0.045490038 -0.0013834642 0.46007121 0.88077754 -0.11209534 0.0023543702
0.044237185 0.045526195 -0.0014166714 -0.53103036 0.83604795 -0.13795149 0.0031557977
0.046526585 0.046988323 -0.0015196003 -0.53914183 0.82986021 -0.14372934 0.0031748821
0.048231296 0.047818661 -0.0025115912 -0.53571707 0.830163 -0.15439129 0.0029050158
0.072648346 0.046486676 -0.001671273 0.9829796 -0.030634142 -0.18114255 0.0057959757
-0.048158061 0.050865512 -0.0025189149 0.48033902 0.85969222 -0.17379232 0.0040957839
-0.046417903 0.050097987 -0.0015366753 0.49367365 0.86150759 -0.11870559 0.0027225276
-0.043807793 0.04864331 -0.0014413836 0.47141114 0.87324631 -0.12333908 0.0028921291
0.047891073 0.04817833 -0.00053038902 -0.5690577 0.80877435 -0.14851756 0.0034040231
0.049607456 0.049030706 -0.0014968052 -0.53316748 0.82966959 -0.16547154 0.0038434973
0.051815957 0.050503165 -0.0017015863 -0.5716663 0.80835265 -0.14058334 0.0031809544
0.072697759 0.049124487 -0.0013073883 0.999259 -0.027871091 -0.026547048 0.0060427161
-0.054156322 0.053879041 -0.002627447 0.36941543 0.90937018 -0.19125414 0.0060270485
-0.052322194 0.053268213 -0.0015727426 0.46265471 0.87528968 -0.14077856 0.0026515101
-0.049565773 0.051835731 -0.0014546238 0.45191571 0.87816489 -0.15683925 0.003960738
-0.047816105 0.051082067 -0.00068736769 0.47362688 0.8664366 -0.15800382 0.0041383477
0.053223476 0.051515963 -0.0013524205 -0.52911478 0.83250988 -0.16420999 0.0049274545
0.055470895 0.052925855 -0.001548452 -0.5536992 0.81823188 -0.15464097 0.0049575982
0.057274301 0.053820226 -0.002537763 -0.54079765 0.80794752 -0.23400569 0.0055309352
0.072684109 0.05259585 -0.0016902095 0.96394408 0.0085989945 -0.26596615 0.006160045
-0.075685121 0.056542601 -0.0014509782 -0.52768278 0.82971829 -0.18198481 0.027339844
-0.060698707 0.05665962 -0.0017887863 0.49807474 0.8466469 -0.18737823 0.0095715374
-0.058524955 0.055766378 -0.0015158622 0.37175885 0.91105634 -0.17824611 0.0089750504
-0.055558387 0.054699052 -0.0014586366 0.33849049 0.92139471 -0.19093435 0.004483372
-0.053749386 0.054089319 -0.00069041486 0.40427047 0.90184534 -0.15244825 0.006122706
0.056800067 0.054097049 -0.00065659999 -0.52936631 0.84476435 -0.078386553 0.010005202
0.05865176 0.055080682 -0.0014721383 -0.54164517 0.81263179 -0.21505858 0.0079507558
0.06065144 0.056464251 -0.001945984 -0.65742546 0.7179414 -0.2288053 0.010956511
0.072859257 0.055404037 -0.00086107606 0.9986375 -0.031169929 0.041851953 0.012000436
-0.075365737 0.057395212 -0.0010475398 -0.48083052 0.87024432 -0.10712972 0.01713999
-0.073457241 0.058458943 -0.0015218643 -0.47571293 0.86816579 -0.14136995 0.012289283
-0.071195856 0.059576541 -0.0015617398 -0.36402118 0.92063916 -0.14111058 0.0065582697
-0.066533923 0.059695374 -0.0026064354 0.27589056 0.86359638 -0.42200211 0.015554755
-0.064387247 0.059017584 -0.001582759 0.5200969 0.82501161 -0.22103158 0.0072692484
-0.062101435 0.057651129 -0.0013661841 0.46786472 0.85849237 -0.2099846 0.011190094
0.061939728 0.057950635 -0.0014578294 -0.74967372 0.60113525 -0.27681351 0.014786288
0.063463189 0.059164379 -0.0024729886 -0.69766533 0.55968803 -0.44722733 0.016398063
0.07292746 0.058550023 -0.0015868676 0.91428083 -0.042206548 -0.4028762 0.025079779
-0.069673158 0.060277581 -0.0014256155 -0.1780974 0.97301704 -0.14669375 0.016656375
-0.067497306 0.060556244 -0.0013865056 0.17528385 0.95827907 -0.22578044 0.018925328
-0.065725081 0.060168218 -0.00056569884 0.29871401 0.94718826 -0.11663724 0.019933756
0.06418696 0.06099895 -0.0017758937 -0.82277381 0.3431775 -0.45307001 0.018239873
0.07300958 0.06209866 -0.0022307022 0.58423626 0.0013300074 -0.81158251 0.019361239
0.064936236 0.064361528 -0.00091143267 -0.96554399 0.25990534 -0.013194483 0.013891889
0.066550598 0.065199479 -0.002765391 -0.44204569 0.12718366 -0.8879301 0.031283349
0.073602311 0.064460821 -0.0016295686 0.82662791 -0.22684669 -0.51500177 0.021899927
0.065627754 0.06777551 -0.00036781628 -0.95684105 0.24802847 0.15144974 0.019140203
0.066751197 0.067589924 -0.002106901 -0.85968208 0.22207771 -0.46003076 0.020933684
0.074160628 0.067313679 -0.0018255902 0.8469764 -0.2395765 -0.47458845 0.014224413
0.075122587 0.068260096 -0.00040213822 0.85635096 -0.22864394 -0.46301728 0.015770705
0.067101493 0.070427321 -0.0016386589 -0.900123 0.15450427 -0.40731692 0.013668105
0.074599028 0.069945052 -0.0023989026 0.73055577 -0.24716434 -0.63655174 0.037325449
0.075610317 0.070688888 -0.0011954563 0.87694466 -0.22088353 -0.42682385 0.016270151
0.067628928 0.073479086 -0.0016723905 -0.84891492 0.23151618 -0.47512498 0.035317734
0.076287784 0.074525915 -0.001391102 0.5732882 0.80477148 -0.15389447 0.026983777
0.06826847 0.076835103 -0.0013527541 -0.26455888 0.94569224 -0.1888776 0.084318131
0.070487492 0.076580405 -0.0014794394 0.12281764 0.95844656 -0.25748006 0.049706504
0.073502369 0.075656116 -0.0015190296 0.32642123 0.93740785 -0.12130776 0.017191701
0.075306319 0.075100653 -0.0013974394 0.3383244 0.93492788 -0.10698773 0.019084783
-0.00072862598 0.032921735 0.0025896158 0.097025305 0.98644507 0.13233361 0.0022998333
0.0016791578 0.032864939 0.001650623 0.078054383 0.99235797 0.095568001 0.0030079091
0.0044518947 0.032807168 0.0014538659 0.018875713 0.99521816 0.095836058 0.0029007166
0.0074711661 0.032822251 0.0015006032 -0.056982849 0.99272448 0.10607089 0.0026223527
0.010105681 0.032907885 0.0022595611 -0.087512761 0.9871645 0.13359563 0.0025280295
0.012242435 0.032952741 0.0027496705 -0.10774653 0.9868899 0.12016197 0.0028886434
-0.015738023 0.035786513 0.0016857811 0.30654526 0.94849479 0.079921871 0.0025584397
-0.013493712 0.035211489 0.0014873683 0.25637928 0.96254909 0.088141225 0.002403236
-0.010473247 0.034500796 0.0014632297 0.20651318 0.96969682 0.13053855 0.0038291335
-0.007508399 0.033920005 0.0014913026 0.16568559 0.98000175 0.1102035 0.0031129045
-0.0045055146 0.033471737 0.0014853381 0.11625156 0.98873699 0.094258264 0.0024319035
-0.0015993688 0.033154536 0.0012801974 0.081369102 0.99387103 0.074828506 0.0037528698
0.00059726794 0.033045702 0.00047286449 0.049758125 0.99833411 0.029208694 0.0033691556
0.0088049453 0.033045691 0.00046358432 -0.064291112 0.99483043 0.078607753 0.0047667418
0.010820317 0.033095669 0.0010018061 -0.078005046 0.99537116 0.056138821 0.0040827356
0.013518937 0.033343095 0.0014620172 -0.12939957 0.98725247 0.09267246 0.0038020415
0.016472356 0.033866066 0.001493827 -0.20239098 0.97289217 0.11188722 0.0032317834
0.019486623 0.034607131 0.0014858702 -0.25413242 0.96175379 0.10220741 0.0025591578
0.022508249 0.03541711 0.0014797929 -0.27141351 0.95958459 0.074378446 0.002607553
0.024311582 0.035896059 0.0019628482 -0.31895113 0.94440067 0.079859056 0.0029399544
0.070572831 0.03456682 0.0010182932 0.94275373 -0.33305243 -0.017075283 0.0072371243
-0.024469472 0.038846735 0.0017165998 0.40598887 0.91045743 0.078995205 0.0024009405
-0.022489177 0.038105264 0.0015047895 0.36137956 0.92859864 0.084316276 0.0022387269
-0.01950678 0.037011493 0.0014788978 0.31873339 0.94149923 0.10949039 0.0029602768
-0.017232968 0.036277592 0.001387539 0.27644473 0.95815897 0.074228272 0.0026610177
0.025716489 0.03637981 0.0014244402 -0.28591651 0.95521033 0.076320767 0.0029423917
0.028501207 0.037284866 0.0014967598 -0.30634519 0.94729537 0.093723163 0.0021976787
0.031432983 0.038321689 0.0014990941 -0.36588383 0.92506832 0.10187075 0.0028951701
0.033173934 0.0389149 0.0021517938 -0.42336509 0.90082419 0.096321493 0.0032169826
0.071592718 0.037616432 0.0012727922 0.96130627 -0.27220401 0.042371087 0.003360027
-0.030695364 0.041669641 0.0016260099 0.4559544 0.88657904 0.077994347 0.0020774014
-0.02852493 0.040653139 0.001512467 0.41973966 0.90420103 0.078987233 0.0020852394
-0.025859853 0.03948826 0.0013496986 0.37933424 0.92189163 0.078875355 0.0024961771
0.032929134 0.039032795 0.0012460584 -0.39762944 0.913495 0.086125717 0.0036022025
0.034612123 0.039711643 0.0014542611 -0.42883691 0.89799446 0.098513119 0.0033808697
0.037365083 0.04120779 0.0015329259 -0.49648911 0.86136711 0.10744916 0.0028606711
0.039134286 0.041937511 0.0026779051 -0.52615845 0.83921856 0.13736658 0.004500478
0.071809098 0.039512895 0.0021339045 0.95599306 -0.17059287 0.23869513 0.0086688912
0.072241887 0.040666755 0.0012267373 0.98132282 -0.16782872 0.094016448 0.0048900787
-0.036602128 0.044676293 0.0016273167 0.49078149 0.86739594 0.082206562 0.0022179121
-0.034466844 0.043574657 0.0014563724 0.45884091 0.88649839 0.059880245 0.0020153823
-0.03212532 0.042393435 0.0013856204 0.42580852 0.90142596 0.07821957 0.002258986
0.038735051 0.042189263 0.0011023071 -0.52992386 0.84131169 0.10665524 0.0031397794
0.040481921 0.043125529 0.001478705 -0.51515961 0.85207945 0.092580527 0.0034473818
0.042645548 0.044525266 0.0014513187 -0.53098238 0.84248859 0.090942532 0.002708206
0.072459728 0.043491762 0.0015927514 0.9784103 -0.0839146 0.18886937 0.0068522231
-0.042353038 0.047833204 0.0018463926 0.49436259 0.86453116 0.090507396 0.0027529283
-0.040499717 0.046837766 0.0014998862 0.4834592 0.87090468 0.088273183 0.0028147337
-0.03810567 0.045510646 0.001440494 0.46735466 0.87935024 0.091229215 0.0027269172
0.044233259 0.045571718 0.0013955481 -0.5320977 0.84098214 0.098086938 0.0030644974
0.046492714 0.047028691 0.0015087476 -0.53364891 0.83982337 0.099576965 0.0039889417
0.048183728 0.047742203 0.0027007116 -0.50887108 0.8356269 0.20682812 0.0049551725
0.072651774 0.046480238 0.001494112 0.98816007 -0.036297519 0.14907123 0.0065268702
-0.048208192 0.050805345 0.0025199465 0.47591478 0.87322396 0.10480984 0.0032998065
-0.046419483 0.050166208 0.001481603 0.48666304 0.86626643 0.11287798 0.0035163055
-0.043786597 0.048695222 0.0013984524 0.47267339 0.87619126 0.094173945 0.003038333
0.047816746 0.048145734 0.00048574246 -0.52214324 0.840671 0.14366174 0.0033163801
0.049530584 0.049045112 0.0014369985 -0.55633122 0.82388967 0.10817372 0.0048920852
