# .PCD v0.7 - Point Cloud Data file format
VERSION 0.7
FIELDS x y z normal_x normal_y normal_z curvature
SIZE 4 4 4 4 4 4 4
TYPE F F F F F F F
COUNT 1 1 1 1 1 1 1
WIDTH 554
HEIGHT 1
VIEWPOINT 0 0 0 1 0 0 0
POINTS 554
DATA ascii
0.063233487 0.035548847 -0.0121632 0.54764223 -0.17211401 -0.81881911 0.0027729906
-0.060467791 0.037963528 -0.012172957 -0.50156915 -0.23826022 -0.83166128 0.0028495684
-0.058521174 0.037463732 -0.01280173 -0.45616767 -0.22680447 -0.86050612 0.0041052438
-0.055162378 0.03737893 -0.014189739 -0.34842718 -0.13437031 -0.92765462 0.0029811524
-0.052880321 0.037278663 -0.014814369 -0.23044096 0.013528611 -0.9729923 0.0042188428
-0.050381899 0.038631395 -0.014890921 -0.10057762 0.1385642 -0.98523301 0.0050080866
-0.046944179 0.038687289 -0.014862 0.00259086 0.21651362 -0.97627616 0.0032405744
-0.043157604 0.038301636 -0.014650155 0.16170339 0.43858173 -0.88402379 0.0033793221
-0.040412951 0.037598312 -0.014468788 0.19735132 0.48259169 -0.85332155 0.0015424261
-0.037791252 0.037529249 -0.013776305 0.19762079 0.49556538 -0.84579021 0.0013787546
-0.03484349 0.036922164 -0.013226879 0.25426045 0.54187143 -0.80107862 0.0012509393
-0.031917948 0.036550839 -0.012313142 0.29128984 0.65131348 -0.70067179 0.0016015023
0.043795485 0.036370598 -0.013946003 -0.15165718 0.39814281 -0.90470016 0.0010800031
0.046517011 0.036822021 -0.014381027 -0.13703194 0.41516805 -0.89936513 0.0010155775
0.049625929 0.037584879 -0.014601391 -0.080774777 0.37748221 -0.9224872 0.0022173892
0.052773014 0.038057581 -0.014673255 -0.033495948 0.34850556 -0.93670803 0.0044070426
0.055620443 0.037606567 -0.014674934 0.12988974 0.19006234 -0.97314173 0.0023953463
0.058919493 0.036825769 -0.0141112 0.32123229 0.021826256 -0.94674885 0.0027450763
0.061798599 0.037277624 -0.012976022 0.44034263 -0.05141538 -0.89635634 0.002305106
0.06345018 0.037766736 -0.012258169 0.51578712 -0.059095338 -0.85467625 0.0024691499
-0.060762454 0.040504038 -0.012366458 -0.43914634 -0.094700955 -0.89341044 0.0032391974
-0.058176007 0.039827105 -0.013260371 -0.41378951 -0.10979179 -0.90372777 0.0031975324
-0.056025226 0.040218253 -0.013962393 -0.28627673 0.0048531983 -0.95813465 0.0044851205
-0.052934077 0.040152408 -0.014599361 -0.16300903 0.13033727 -0.97797769 0.0038596657
-0.049555548 0.040622912 -0.014410276 0.014477609 0.33437949 -0.94232726 0.0054980628
-0.046353303 0.040337041 -0.014157209 0.10281856 0.41401872 -0.90444285 0.002756149
-0.043502651 0.040234093 -0.013621796 0.17689441 0.49395648 -0.85130215 0.0026972608
-0.040488102 0.040266339 -0.012661714 0.22522336 0.55261147 -0.80243063 0.0015852978
-0.037589777 0.039414164 -0.012179102 0.29079828 0.64249974 -0.70896441 0.0019670599
0.049570326 0.039984111 -0.013239452 -0.10107574 0.42167932 -0.9010939 0.0010322564
0.052516982 0.040223815 -0.01368074 -0.060034186 0.38874078 -0.91938925 0.0019609905
0.055762656 0.040117703 -0.013947699 0.10477285 0.25755924 -0.96056539 0.001533207
0.058807239 0.040126648 -0.013652619 0.19988286 0.19609618 -0.9599964 0.0035070856
0.062000342 0.039921649 -0.012782891 0.39437065 0.066288993 -0.91655743 0.0022395898
0.063368417 0.040571935 -0.012230681 0.47492462 0.047465447 -0.8787455 0.0020406111
-0.060799193 0.043388613 -0.012316792 -0.38148931 0.034776758 -0.92371881 0.0046222513
-0.058612615 0.043282475 -0.012914884 -0.26564273 0.13622145 -0.95439911 0.0038752586
-0.055473849 0.043158174 -0.013499229 -0.15096162 0.23462316 -0.96029294 0.0038664404
-0.052537173 0.043536812 -0.013310135 0.048082177 0.41774032 -0.90729326 0.0060115429
-0.049530882 0.043315701 -0.013061939 0.12759817 0.4786368 -0.86869186 0.0029565117
-0.04684091 0.042684469 -0.012901288 0.19147114 0.5345152 -0.82318431 0.0023938422
-0.043969136 0.042119801 -0.012520247 0.20434187 0.52016431 -0.82926089 0.00059383665
0.052924037 0.042926315 -0.012293491 -0.11893308 0.47590086 -0.87142032 0.00059004838
0.055661581 0.04297255 -0.012681227 -0.0082493294 0.39149413 -0.92014366 0.0018359133
0.059017628 0.043361198 -0.012545049 0.13707393 0.29455143 -0.94575375 0.0028189376
0.061711252 0.042811912 -0.012423599 0.2726211 0.20726028 -0.93953228 0.0036286789
0.063113958 0.042462058 -0.012247939 0.25733709 0.20712382 -0.94386303 0.0049789851
-0.058481093 0.045558758 -0.012274629 -0.15344326 0.3279745 -0.9321416 0.0078108031
-0.055933539 0.046167135 -0.012188004 -0.0004705856 0.43250683 -0.90163052 0.0034528351
-0.052547149 0.045344632 -0.012354037 0.11801837 0.46195418 -0.87901646 0.0030492232
0.059971262 0.045073558 -0.0120442 0.013625859 0.41287303 -0.91068673 0.0063775769
-0.015491194 0.0059205121 -0.009164786 -0.20636326 -0.76125848 -0.61473554 0.0013114638
-0.013235249 0.0056087966 -0.0094737019 -0.18650474 -0.7589547 -0.62386191 0.0011572932
-0.010413471 0.0052496702 -0.0097786747 -0.1440127 -0.7594806 -0.6343891 0.001283765
-0.0074760695 0.0050448203 -0.010030238 -0.11215521 -0.75300246 -0.64838922 0.0013690157
-0.0044851708 0.0048370906 -0.010267876 -0.087433085 -0.74828088 -0.65759498 0.0011930023
-0.0014796524 0.0047057103 -0.010404052 -0.053099774 -0.74077755 -0.66964853 0.0013209927
0.0015309104 0.0045765569 -0.010443833 -0.033828706 -0.74812144 -0.66269892 0.0018625542
0.0045262608 0.004516853 -0.010503446 -0.0067174821 -0.74929762 -0.66219926 0.00158397
0.0075073559 0.0045228046 -0.010452058 0.018616425 -0.75930095 -0.6504733 0.0015754058
0.010487112 0.0046040202 -0.010459416 0.043234833 -0.76465207 -0.64299142 0.0014441331
0.013441123 0.0047582858 -0.010364833 0.071064673 -0.77204221 -0.63158578 0.0018155798
0.01644592 0.0049592983 -0.010244595 0.098550037 -0.78111023 -0.61656696 0.0015876265
0.019447865 0.0051878649 -0.010005594 0.13387683 -0.78937411 -0.59913731 0.0013166117
0.022321334 0.0055145975 -0.0096966261 0.15901963 -0.79680371 -0.5829379 0.0012600507
0.024910776 0.0057645706 -0.0093255425 0.19801721 -0.80449593 -0.55997813 0.001103067
0.02708322 0.0059571057 -0.0090258531 0.24521199 -0.79238319 -0.55856961 0.0019339201
-0.024491811 0.0088679697 -0.0092722429 -0.29083568 -0.74370158 -0.60193241 0.0016110473
-0.022232538 0.008420133 -0.0096312007 -0.27292088 -0.74064761 -0.61396694 0.0013995139
-0.019365901 0.0079110907 -0.010196234 -0.23771012 -0.7337231 -0.63650948 0.0015968898
-0.016523372 0.0074009099 -0.010506202 -0.19589531 -0.73243529 -0.65204561 0.0015001049
-0.013600647 0.0070062284 -0.010898009 -0.17402658 -0.71198094 -0.68029249 0.0014187967
-0.010586421 0.0066665192 -0.011277706 -0.13030587 -0.6786148 -0.72284329 0.001294703
-0.0076608746 0.0064660492 -0.011518744 -0.1007674 -0.70171505 -0.70529562 0.0012926377
-0.0047830516 0.0062886681 -0.011757637 -0.078930065 -0.6938507 -0.71578026 0.0015169742
-0.0018978855 0.0061435164 -0.011834034 -0.051001254 -0.69684643 -0.71540475 0.0017930648
0.00096057134 0.0060618906 -0.011892293 -0.028896332 -0.69373131 -0.71965396 0.0020516082
0.0047687609 0.006038575 -0.011899815 -0.010211027 -0.70360339 -0.71051949 0.0011450162
0.0075625428 0.0060584494 -0.011936958 0.01666113 -0.68703556 -0.72643268 0.0018697247
0.010960786 0.0061159069 -0.011897515 0.023914687 -0.70012099 -0.71362364 0.0019575539
0.013850436 0.0061666267 -0.011822334 0.054187778 -0.7039302 -0.70819908 0.0017680388
0.016649611 0.0062761181 -0.011739484 0.07940235 -0.69688332 -0.71277553 0.0011676502
0.019598762 0.0064614243 -0.011502706 0.11479574 -0.70962048 -0.69516963 0.0012979138
0.022610964 0.0066764751 -0.01113753 0.14504325 -0.762609 -0.63038874 0.00138538
0.025594918 0.0069926418 -0.010733605 0.18503655 -0.7748093 -0.60450971 0.001105407
0.028476914 0.0075721052 -0.01046611 0.21017282 -0.77583212 -0.59490496 0.0015210517
0.031342071 0.0081455661 -0.010150081 0.25262153 -0.77524626 -0.57894349 0.0013350901
0.034039494 0.0086186649 -0.0095171146 0.28950959 -0.78165174 -0.55245346 0.0012082594
0.036223285 0.0089665679 -0.0090809725 0.31682643 -0.7786299 -0.54162395 0.0018078422
-0.030945385 0.011664279 -0.0094790859 -0.31612837 -0.73858184 -0.59544915 0.0010230549
-0.028275019 0.011074136 -0.010057579 -0.29331949 -0.72864878 -0.61889791 0.0016941709
-0.02553145 0.010417759 -0.010515199 -0.26382309 -0.71513379 -0.64728743 0.0014874275
-0.022633409 0.0098469025 -0.011027742 -0.25031555 -0.70623982 -0.66224426 0.0014988701
-0.019945061 0.0093825962 -0.011545646 -0.21556355 -0.68559414 -0.69533664 0.0010087154
-0.017379822 0.0090332767 -0.011922579 -0.17367232 -0.67882019 -0.71347123 0.0013359137
0.029461026 0.0090772938 -0.011779036 0.19414228 -0.71126479 -0.67558211 0.0023953405
0.031963762 0.00941307 -0.01151247 0.2300985 -0.70862645 -0.66701061 0.0011391032
0.034675919 0.0098712286 -0.010856626 0.27108496 -0.75806659 -0.59316772 0.0014479189
0.037475977 0.010605544 -0.010446263 0.30217293 -0.76235414 -0.57228297 0.0013400839
0.040187892 0.011354431 -0.0098592378 0.3476932 -0.75073195 -0.56170356 0.0011794158
0.042322282 0.011826541 -0.0092695318 0.38021657 -0.75775677 -0.5303207 0.0011281171
-0.039095111 0.01487607 -0.0091610355 -0.39563844 -0.7272194 -0.56091189 0.0011480255
-0.036908019 0.014485989 -0.0095828613 -0.3768656 -0.71648425 -0.58704567 0.001103381
-0.034337129 0.013737354 -0.010186235 -0.33151251 -0.71030354 -0.62094152 0.0015774291
-0.031682201 0.013100888 -0.010775626 -0.3002255 -0.71630228 -0.62990129 0.0015762354
-0.028901974 0.012502302 -0.011339307 -0.2672157 -0.68904901 -0.67365211 0.0016191788
-0.02651047 0.01221488 -0.011820899 -0.25307134 -0.66435468 -0.7032693 0.0015668825
0.038560685 0.012195991 -0.011790683 0.29951668 -0.68044668 -0.66879153 0.0023124083
0.04080851 0.012692335 -0.011181102 0.32928631 -0.70933992 -0.62322342 0.00083387742
0.043480705 0.013441621 -0.010520034 0.36456585 -0.73080647 -0.57707334 0.001446101
0.046057772 0.01430389 -0.0098168198 0.42116007 -0.71605796 -0.55667329 0.0012936258
0.048174907 0.014901957 -0.0091884518 0.43741584 -0.71807253 -0.54133099 0.0011013685
-0.042582754 0.017617431 -0.0094756521 -0.46027237 -0.67910057 -0.57181448 0.0013914397
-0.040231612 0.01681002 -0.01019986 -0.39981747 -0.68590355 -0.60801518 0.0017254878
-0.037687622 0.01601894 -0.010812878 -0.36035696 -0.6858542 -0.63225538 0.0013731705
-0.035248253 0.015486105 -0.011561089 -0.31846094 -0.66271734 -0.67778194 0.0012324705
0.044558048 0.015170604 -0.01177479 0.3648124 -0.65921342 -0.65753287 0.0014861757
0.046829 0.015791077 -0.011038251 0.40274787 -0.68772209 -0.60401356 0.0015966109
0.049375284 0.016710209 -0.010307593 0.43908468 -0.68319976 -0.5834747 0.0018351447
0.051627737 0.01756718 -0.0095121767 0.49088052 -0.66552371 -0.56224066 0.0014432761
-0.04821492 0.020824501 -0.0091772219 -0.50869834 -0.68499792 -0.52154005 0.00066227699
-0.046062745 0.020235932 -0.0097282259 -0.47700995 -0.66350555 -0.57638693 0.0012630021
-0.043706294 0.019420488 -0.01054182 -0.42902362 -0.63653362 -0.64090848 0.0015363517
-0.041112095 0.018536098 -0.011438655 -0.38408285 -0.62820154 -0.67664105 0.00079370197
0.050365251 0.018485168 -0.011504893 0.44639114 -0.6279335 -0.63752204 0.0012229877
0.052607793 0.019326737 -0.01061067 0.47419786 -0.62619555 -0.61888242 0.0018789835
0.05488668 0.020253567 -0.0097754253 0.52367049 -0.62741292 -0.5763005 0.0014430477
-0.051380828 0.023740053 -0.0092673516 -0.50818217 -0.64246041 -0.57358134 0.0011580765
-0.049205154 0.022847062 -0.010024819 -0.48448852 -0.63175136 -0.60511237 0.0015776841
-0.046791293 0.022047943 -0.011031405 -0.44224209 -0.60415065 -0.66289055 0.001722174
-0.04453472 0.021176677 -0.01175366 -0.42187643 -0.60736173 -0.6731509 0.0014074651
0.053681135 0.021386825 -0.011762104 0.48064578 -0.57254088 -0.66421121 0.001776123
0.055779785 0.02216915 -0.01084308 0.50886422 -0.53978807 -0.67058641 0.0015658735
0.05788837 0.023090012 -0.009826038 0.55853504 -0.57217515 -0.60054493 0.0014229807
-0.054593202 0.026519883 -0.0093750218 -0.53634298 -0.61239207 -0.58078575 0.0011190058
-0.052376993 0.025604669 -0.010284672 -0.49268776 -0.60226637 -0.62811935 0.0016966326
-0.049993139 0.024752472 -0.011278467 -0.45662481 -0.58126581 -0.67351592 0.0015060466
0.056621749 0.024297567 -0.011807194 0.49659583 -0.4737412 -0.72729766 0.0012688772
0.05877785 0.02516395 -0.010802041 0.53094393 -0.47701728 -0.70039493 0.0010396176
0.060816482 0.026083926 -0.0097842617 0.58942342 -0.51086998 -0.62577301 0.0016077607
-0.057621188 0.029398104 -0.0094330413 -0.57311434 -0.54825324 -0.60906363 0.001471322
-0.055446833 0.028467711 -0.010422879 -0.51762486 -0.53298408 -0.66932231 0.0016438216
-0.053167962 0.027710015 -0.011488764 -0.48072639 -0.52256536 -0.70415032 0.0010769507
-0.012255031 0.029451419 -0.011859425 0.16952612 0.61954868 -0.76643354 0.00080487202
-0.010229854 0.0290929 -0.01174723 0.1350054 0.62368137 -0.76993191 0.0011161256
-0.0080669532 0.029214699 -0.011123719 0.12790729 0.61238939 -0.78014034 0.00099979679
-0.0046556829 0.028740853 -0.011019267 0.099194512 0.59723967 -0.79590535 0.00098326989
0.059645381 0.027466679 -0.011724476 0.5343166 -0.38464868 -0.75269592 0.0017710708
0.061687853 0.028336531 -0.010503699 0.58858979 -0.41091496 -0.69621181 0.0019803473
0.063492574 0.02922249 -0.0094741415 0.63851231 -0.42678884 -0.64043212 0.0019075475
-0.06042226 0.032585818 -0.0093666846 -0.60978961 -0.5096038 -0.60700953 0.0018371912
-0.058399089 0.03150155 -0.010284562 -0.56123871 -0.47508991 -0.67771727 0.0015144736
-0.056209207 0.030954469 -0.011615761 -0.5169332 -0.45584643 -0.72455782 0.0017305075
-0.023119014 0.032970656 -0.011999016 0.25810257 0.65265882 -0.71233392 0.0033723672
-0.019519623 0.03223522 -0.011409598 0.2267244 0.67222279 -0.70477837 0.0021420387
-0.016222879 0.03128669 -0.011236026 0.20196727 0.63715094 -0.74380642 0.000448053
-0.013855512 0.030944625 -0.010860781 0.19143561 0.64092797 -0.74334633 0.00032564261
-0.010905342 0.03019274 -0.010814594 0.15631512 0.62080717 -0.76822144 0.00091252301
0.062270239 0.031095058 -0.01140748 0.56879628 -0.29903007 -0.76619309 0.0014150963
0.064224556 0.031629577 -0.010082614 0.6391589 -0.3459971 -0.68684924 0.001690225
-0.063160256 0.035624631 -0.0091214404 -0.62130201 -0.41598058 -0.66403615 0.0022302091
-0.06121451 0.03459353 -0.0099802623 -0.60600841 -0.4211548 -0.6748203 0.0021201442
-0.059076387 0.033979639 -0.011297471 -0.52872896 -0.35159945 -0.77254355 0.0015596601
-0.028070111 0.035742708 -0.011342186 0.32374153 0.66180617 -0.67616868 0.002859174
-0.025393337 0.034671962 -0.011242622 0.30585578 0.69498646 -0.65072733 0.0025750205
-0.022936577 0.034043591 -0.010872602 0.24829039 0.7151373 -0.65339923 0.0026306161
-0.019670848 0.033228353 -0.010471407 0.22673842 0.67222625 -0.70477057 0.0021371313
0.062853493 0.033585344 -0.011840515 0.53175402 -0.18588677 -0.8262468 0.0022966461
0.064714186 0.034273282 -0.01067314 0.61527437 -0.23680121 -0.75190604 0.0018968467
0.066415064 0.034754544 -0.0093493583 0.68480366 -0.2617943 -0.68007922 0.002493483
-0.063700289 0.037430972 -0.0093959905 -0.6302942 -0.36621526 -0.68455505 0.0017968821
-0.061723322 0.037213478 -0.010782584 -0.56557965 -0.32039613 -0.75991178 0.0019039267
-0.059788615 0.036904968 -0.011901033 -0.5228731 -0.27054617 -0.80833685 0.0028467062
-0.033893056 0.038782641 -0.011015284 0.3172417 0.64334679 -0.69675153 0.0018097889
-0.031123413 0.037870821 -0.010506131 0.30662492 0.66723877 -0.67880315 0.00082259293
-0.028333895 0.036922321 -0.010150143 0.31573132 0.68963826 -0.65169996 0.0016741954
0.06478817 0.037321415 -0.011277418 0.5701502 -0.10292751 -0.81506717 0.0020442323
0.066802733 0.037392668 -0.0096705761 0.67354864 -0.16130851 -0.72132641 0.0022260603
-0.066223152 0.041439887 -0.0091643594 -0.64579391 -0.27357116 -0.71281767 0.0026499662
-0.064422414 0.040304847 -0.0098789558 -0.60502589 -0.28352121 -0.74401575 0.0026106599
-0.061997134 0.040067323 -0.011561185 -0.50698948 -0.1659306 -0.84583014 0.0036497116
-0.039661385 0.041722342 -0.010836534 0.3121582 0.6453684 -0.69717789 0.00094469421
-0.037346207 0.040925812 -0.010448229 0.31726459 0.65896118 -0.68199223 0.00067189056
-0.034965377 0.040379584 -0.0096953772 0.33667418 0.68727422 -0.64366508 0.0002487686
-0.032198343 0.03947429 -0.009173098 0.32412541 0.69159961 -0.64547098 0.00028208195
0.065010071 0.040401734 -0.011331217 0.52132064 0.013196751 -0.85325885 0.00263694
0.067141093 0.040387016 -0.0097998353 0.64178568 -0.050862912 -0.76519549 0.0024749131
-0.06637729 0.043422889 -0.0093367826 -0.59322733 -0.12823991 -0.79475528 0.0039398326
-0.064545915 0.043586276 -0.010543213 -0.50380462 -0.070479952 -0.8609376 0.0031977179
-0.062389344 0.0432554 -0.011662943 -0.42992535 -0.0041690441 -0.9028548 0.0039639659
-0.046818495 0.044533785 -0.011451394 0.22537702 0.55801362 -0.79864007 0.00091540057
-0.043374855 0.043475796 -0.010845626 0.26894736 0.61325103 -0.74269146 0.0012990022
-0.0408598 0.043209422 -0.0098735886 0.30663115 0.64937496 -0.69590914 0.00071873207
-0.038034946 0.042333186 -0.0092393374 0.33404702 0.67967016 -0.65303987 0.0002752443
0.053090561 0.044210881 -0.011480822 -0.12221387 0.47799799 -0.86981708 0.00057132373
0.055536691 0.044540863 -0.0118426 -0.095130444 0.43722087 -0.89430875 0.0021629485
0.05854233 0.044714708 -0.011886973 0.085439317 0.33029699 -0.94000214 0.001346047
0.062673658 0.044205375 -0.011675991 0.29439604 0.21375278 -0.93147236 0.0034419126
0.065065727 0.043341797 -0.011024949 0.50145108 0.075454034 -0.86188948 0.0026884975
0.067242071 0.043218128 -0.0097354585 0.60662466 0.039378256 -0.79401249 0.0029104196
-0.066534631 0.046361491 -0.0094013298 -0.54702812 -0.012050597 -0.83702749 0.0034442269
-0.064587176 0.046532512 -0.010406232 -0.44834116 0.051009078 -0.89240593 0.0039732195
-0.061523486 0.046165023 -0.011561587 -0.33831832 0.18399391 -0.92286879 0.0042961007
-0.058646332 0.046870742 -0.01179333 -0.089491867 0.36650485 -0.92610228 0.0065627019
-0.055019684 0.047298536 -0.011445813 0.064930432 0.48408073 -0.87261099 0.0022315746
-0.052067943 0.046406474 -0.011578277 0.15260218 0.53319001 -0.83211833 0.0017619368
-0.049611703 0.045921598 -0.011221777 0.1732734 0.56037152 -0.80991369 0.0026532488
-0.046751078 0.046204478 -0.0097151035 0.34340426 0.7017647 -0.62417936 0.0023709841
-0.044332866 0.045391597 -0.0093641896 0.31644186 0.71335316 -0.62529343 0.0019196934
0.055993896 0.046119235 -0.010905856 -0.10637989 0.49207148 -0.86403066 0.00075915939
0.058918074 0.046050992 -0.011327263 0.053462695 0.40015391 -0.91488725 0.0029221096
0.061578475 0.046528775 -0.011084037 0.12273211 0.3685897 -0.92145455 0.004228848
0.064815 0.046197835 -0.010409116 0.40026695 0.21449499 -0.89094239 0.0048246398
0.066930212 0.04576724 -0.0095921913 0.57736367 0.096052937 -0.81081754 0.002912397
-0.0664552 0.049356304 -0.0091594271 -0.49239948 0.10571682 -0.8639251 0.003361661
-0.064605117 0.049376041 -0.0096302424 -0.29588297 0.25993496 -0.91917735 0.0042139306
-0.061825365 0.04964105 -0.010112905 -0.17370467 0.35601225 -0.91819501 0.0069230143
-0.058555298 0.049003281 -0.010674758 -0.052132938 0.42758656 -0.90246987 0.003389742
-0.05528748 0.049428742 -0.0098320125 0.14902915 0.60700881 -0.78059638 0.0034371584
-0.052807506 0.048402708 -0.010036145 0.24763359 0.64521366 -0.72275651 0.0025793037
-0.049699862 0.048222091 -0.0090181464 0.32032552 0.69872445 -0.63966852 0.0018037885
0.059028853 0.04875543 -0.009763035 -0.076780215 0.50920737 -0.85721219 0.00057045306
0.0619734 0.049468316 -0.0095876008 0.073477112 0.41480464 -0.90693891 0.003268396
0.06481149 0.048982736 -0.0095379166 0.27777457 0.31104788 -0.90889519 0.0041873907
0.06654007 0.04870024 -0.0091722701 0.38076439 0.25448942 -0.88896209 0.0061095385
-0.064766407 0.051220309 -0.0090821087 -0.26092017 0.31866997 -0.91124648 0.0077460539
-0.061322916 0.051377218 -0.009021176 -0.041843072 0.52155411 -0.85219163 0.0050449818
-0.059521217 0.051085219 -0.0091319224 0.048616722 0.58461648 -0.80985188 0.0009195109
-0.012319263 0.002944449 -0.0061250003 -0.22660488 -0.87032855 -0.43723962 0.0017983252
-0.009815664 0.0028529326 -0.0062389025 -0.16253635 -0.86973786 -0.46598065 0.0012620606
-0.0073231258 0.0026863702 -0.0066241827 -0.12356758 -0.86886126 -0.47938633 0.0015882639
-0.0043988228 0.002440515 -0.0069375713 -0.091774665 -0.8700304 -0.48438072 0.0018128916
-0.0014808675 0.0023123799 -0.0070879632 -0.05180262 -0.87142861 -0.48777929 0.0019252725
0.0015124553 0.0022622878 -0.0072404197 -0.029364923 -0.87289274 -0.4870277 0.0018709284
0.0045268238 0.0021955629 -0.0072708479 0.0019165807 -0.87625772 -0.48183888 0.0017931251
0.0074891089 0.0022705761 -0.0072443164 0.028033955 -0.87855041 -0.47682619 0.0018992736
0.010510088 0.0023356189 -0.007150888 0.05569791 -0.88328588 -0.4655146 0.0017816056
0.013449506 0.0025124752 -0.0069661308 0.092020877 -0.8844375 -0.4574959 0.0018026453
0.016349712 0.002695774 -0.0066210958 0.1177628 -0.89172143 -0.43699515 0.0013952982
0.018861109 0.0028760128 -0.0063163899 0.16335869 -0.89468694 -0.41575146 0.0013651761
-0.021461595 0.0058702184 -0.0062305005 -0.32273096 -0.83658385 -0.44268745 0.0016280346
-0.01927566 0.005488236 -0.0068411888 -0.26656476 -0.84210187 -0.46883649 0.0016007099
-0.016453413 0.0050519006 -0.0073977723 -0.22251619 -0.83303493 -0.50649714 0.0015829158
-0.013515332 0.004332108 -0.007495502 -0.2051985 -0.84311831 -0.49703631 0.0014260933
-0.010559354 0.0037720762 -0.0076717916 -0.15546243 -0.84219348 -0.51627666 0.0011850185
-0.007619984 0.0035859998 -0.0080710845 -0.11822104 -0.83788204 -0.53289545 0.0015996195
-0.0045981952 0.0034073342 -0.0084398007 -0.090954952 -0.81746429 -0.56875247 0.0012494342
-0.0014912874 0.0032691185 -0.0086089429 -0.054122686 -0.80258685 -0.5940749 0.00094123749
0.0013337167 0.0032032758 -0.0087193139 -0.034780893 -0.79711109 -0.60283005 0.00086658337
0.0046119783 0.003176407 -0.0088133952 -0.003621313 -0.81393605 -0.58094317 0.001254887
0.0076746289 0.0031981252 -0.0087539135 0.022998225 -0.81257051 -0.58240908 0.0011741862
0.010536443 0.0032244127 -0.0086548803 0.049896121 -0.83081639 -0.55430532 0.0014249474
0.013666841 0.0033453947 -0.0084290262 0.083545379 -0.85343122 -0.51446605 0.0017801585
0.016639719 0.0034782768 -0.0080697341 0.10809734 -0.86105788 -0.49688458 0.0016821242
0.019612895 0.0037122776 -0.007669162 0.15959667 -0.8676796 -0.47080883 0.0012020068
0.022495488 0.0042031868 -0.0074969814 0.18105751 -0.87737155 -0.44433931 0.0015057457
0.025502922 0.0048473068 -0.0075014718 0.20738453 -0.86752993 -0.45208779 0.0013521774
0.028338762 0.0054281671 -0.0071096071 0.24093336 -0.8694585 -0.43126911 0.0016041574
0.030739481 0.0057838559 -0.0064458405 0.28642157 -0.87220114 -0.39651975 0.0013028793
-0.030294754 0.0089752395 -0.0060840063 -0.35589728 -0.83078671 -0.42793754 0.00088774489
-0.027951909 0.008618027 -0.0066857692 -0.33778554 -0.82540756 -0.45233101 0.0014858948
-0.02536563 0.0080493595 -0.0073984661 -0.30405161 -0.81391835 -0.49506509 0.0014946861
-0.022545429 0.0071122213 -0.0075775855 -0.3046748 -0.82078934 -0.48319566 0.0014597037
-0.019771056 0.0065195276 -0.008240209 -0.25333616 -0.80512273 -0.5362817 0.0015806662
-0.017329553 0.0061753839 -0.008718174 -0.21907958 -0.77087122 -0.5981319 0.00077163655
0.026769018 0.0061240369 -0.0089024017 0.21965145 -0.80145872 -0.55625278 0.0012146621
0.028999673 0.0063012908 -0.008430033 0.23406026 -0.8440116 -0.48255593 0.001472665
0.031657595 0.0067010256 -0.0077019208 0.28420609 -0.85187382 -0.43992934 0.0013941858
0.034490023 0.0076147872 -0.0075196545 0.30330437 -0.84479702 -0.44082242 0.0016090887
0.037253309 0.0084207691 -0.0070817652 0.32941714 -0.84544665 -0.42036209 0.0015228818
0.039310697 0.0088468054 -0.0063505648 0.38520518 -0.83713138 -0.38836592 0.0016580055
-0.036303353 0.011919579 -0.0061946679 -0.41478732 -0.80561781 -0.42300287 0.0013246831
-0.034121823 0.011401725 -0.0070532034 -0.36695236 -0.80534351 -0.46558326 0.0015986921
-0.03141664 0.010541842 -0.0074980408 -0.33676726 -0.81419712 -0.47293854 0.0017712914
-0.028733054 0.0097026378 -0.0079522515 -0.31877586 -0.80370295 -0.50243759 0.0017998255
-0.026458727 0.0092509491 -0.0086501287 -0.29555076 -0.7640757 -0.57344407 0.00097380864
0.035957042 0.0090813348 -0.0088873841 0.31384251 -0.78302771 -0.53700137 0.0011694123
0.038078878 0.0093817683 -0.008303103 0.32526523 -0.81580949 -0.47818139 0.0012199945
0.040576752 0.010115795 -0.0075727091 0.37923294 -0.82376337 -0.42142177 0.0013232919
0.043288607 0.011207703 -0.0072330493 0.39651743 -0.81501764 -0.42251664 0.0015417561
0.045362588 0.011792782 -0.0064344243 0.4356266 -0.80504781 -0.40265056 0.0015046279
-0.042189233 0.014881378 -0.0063321469 -0.47139183 -0.76788485 -0.43375409 0.0012838258
-0.040053174 0.014389832 -0.0070046075 -0.42887807 -0.77909732 -0.45724282 0.0014937818
-0.037555411 0.013412643 -0.0075297444 -0.40593997 -0.78637403 -0.46564856 0.0015064832
-0.035016194 0.012525924 -0.0082010133 -0.36831048 -0.78230679 -0.50233799 0.0018390395
-0.032727197 0.01201345 -0.008754693 -0.34037778 -0.73880583 -0.58164334 0.0017612333
0.044249978 0.01232265 -0.0084308628 0.39104882 -0.77380997 -0.49829617 0.00098054344
0.046587255 0.013158577 -0.0075894562 0.44670951 -0.78898376 -0.42184737 0.0013333986
0.049114943 0.014339417 -0.0070834444 0.46936885 -0.77342254 -0.42604056 0.001382382
0.051127624 0.014938524 -0.0062275208 0.49034995 -0.76434869 -0.4187218 0.0015725819
-0.045551565 0.017657792 -0.0066249832 -0.50851238 -0.74145961 -0.43778169 0.0011628813
-0.043312594 0.016569564 -0.0073312991 -0.48477221 -0.74802536 -0.45327032 0.0012042883
-0.040938683 0.015561407 -0.008128644 -0.4281866 -0.75313175 -0.49944863 0.0020969415
0.050107192 0.015529353 -0.0081109218 0.47211048 -0.75860679 -0.44902945 0.0018446059
0.05243127 0.016691869 -0.0074097444 0.51618052 -0.739838 -0.43150604 0.0011607547
0.054513413 0.017637417 -0.0065429904 0.53414184 -0.72864133 -0.428689 0.0011548566
-0.051104087 0.02098907 -0.0061089853 -0.54114234 -0.728993 -0.41920659 0.00096198561
-0.04891891 0.020358305 -0.0071400227 -0.53418672 -0.71136761 -0.45672822 0.0013697749
-0.046621818 0.018963395 -0.0074906596 -0.50607669 -0.72450155 -0.46795714 0.002299245
-0.044617493 0.018295417 -0.008560854 -0.4981384 -0.68803036 -0.52770483 0.0017679676
0.053653721 0.018307935 -0.0085440241 0.51947463 -0.6762501 -0.52233315 0.0015966297
0.055654038 0.01918924 -0.0076419991 0.55592322 -0.70286596 -0.4437665 0.0012654186
0.057665352 0.020329768 -0.0068505476 0.58536142 -0.66552335 -0.46306667 0.001112412
-0.054313686 0.023804959 -0.0063831592 -0.56292474 -0.70050871 -0.43863806 0.0010705984
-0.052298337 0.022991123 -0.0072674728 -0.5461964 -0.69810802 -0.46294129 0.0017824847
-0.050175786 0.021789894 -0.0078339372 -0.53495407 -0.71409672 -0.4515419 0.0016062319
0.056760449 0.021159651 -0.0087568806 0.54949617 -0.61761659 -0.5626756 0.0011901766
0.058827206 0.02208549 -0.0077563361 0.59737164 -0.63423699 -0.49080607 0.0018449705
0.060762208 0.023296816 -0.0069660493 0.61776304 -0.61746919 -0.48692971 0.0013031722
-0.057331037 0.026634756 -0.0065171248 -0.59141433 -0.66158652 -0.46101239 0.0012081933
-0.055342548 0.025594145 -0.0074200006 -0.56662595 -0.67806005 -0.46815547 0.0018893048
-0.053267233 0.024544787 -0.0083647761 -0.53916705 -0.65873319 -0.52475673 0.0012939451
0.059849434 0.024162542 -0.0088823643 0.57595825 -0.54158717 -0.61233604 0.0011347439
0.061895218 0.025164902 -0.0077803661 0.64450938 -0.56090844 -0.51960516 0.0024781085
0.063612096 0.026326561 -0.006806836 0.6804629 -0.54337472 -0.49164435 0.0017885873
-0.060360514 0.029613379 -0.0065234443 -0.64756274 -0.5932641 -0.47822601 0.0011831733
-0.058390271 0.02837049 -0.0074933497 -0.61209309 -0.62109768 -0.48946881 0.0018803101
-0.056566916 0.027426248 -0.0084410626 -0.57248837 -0.61752981 -0.53936446 0.0015042977
0.062777467 0.027309904 -0.0086555779 0.62932205 -0.50998211 -0.58640599 0.0022659104
0.064587519 0.028406659 -0.0075273565 0.70693898 -0.46935093 -0.52910012 0.0019110997
0.06623587 0.029623697 -0.0064459583 0.72935992 -0.45749822 -0.50865459 0.0018788545
-0.063152812 0.032647207 -0.0062889368 -0.67887771 -0.55099744 -0.48531106 0.0012700501
-0.061266072 0.031445906 -0.0073980922 -0.65781546 -0.54776007 -0.51695043 0.0020155464
-0.059483241 0.030534977 -0.0085359728 -0.59984142 -0.55240339 -0.57882708 0.0016164461
0.065496758 0.030975854 -0.0084562888 0.68579119 -0.36288244 -0.63087773 0.0017229106
0.066824488 0.031548731 -0.0070595052 0.74708903 -0.40072083 -0.53035909 0.0023388949
-0.064117543 0.034830436 -0.0071198642 -0.69537848 -0.49147159 -0.52431339 0.0020137338
-0.062436562 0.033803344 -0.0082350718 -0.66094577 -0.47521687 -0.58079213 0.002743677
-0.022357203 0.035411082 -0.0087622488 0.28380507 0.72302765 -0.62982988 0.0019397398
0.067671664 0.034264032 -0.0076720212 0.75409341 -0.30098438 -0.58373928 0.0020425876
0.069183379 0.035405673 -0.0062828865 0.79073358 -0.32479656 -0.5188908 0.002995688
-0.066658974 0.038020317 -0.0065129483 -0.70769364 -0.43520862 -0.55656379 0.0026764832
-0.065019876 0.037034959 -0.0078008911 -0.68205404 -0.41984579 -0.59877533 0.003692528
-0.024313986 0.036907703 -0.0077051749 0.3062807 0.73130995 -0.6094079 0.001055166
0.06828852 0.037244014 -0.0081453091 0.7562204 -0.19557588 -0.62440431 0.0023470174
0.069475695 0.037514027 -0.0067318953 0.79674923 -0.21352409 -0.56533021 0.0022286344
-0.069108643 0.041358318 -0.0063149054 -0.75527602 -0.34332064 -0.55829132 0.0030926564
-0.06713929 0.040372878 -0.007428105 -0.70957357 -0.31807992 -0.62875319 0.0020744684
-0.065683104 0.039761078 -0.0086478619 -0.67324275 -0.27851126 -0.684964 0.0026746087
0.068462506 0.040141344 -0.0085412869 0.71207845 -0.094989136 -0.69564456 0.0019283562
0.06981954 0.040359166 -0.0070243827 0.79133838 -0.11990888 -0.59950429 0.0023370683
-0.069474481 0.043834399 -0.0065603647 -0.73799866 -0.25046831 -0.62659687 0.0027430442
-0.067145132 0.042829212 -0.0083995992 -0.70014983 -0.25254577 -0.66784042 0.0033024459
0.068575792 0.043250754 -0.0086253025 0.66866159 0.016181875 -0.74339074 0.0024346272
0.070034429 0.043317527 -0.0070312349 0.77619082 -0.01597234 -0.63029569 0.0027561265
-0.069840111 0.046512347 -0.0069335271 -0.71458924 -0.14474073 -0.68440658 0.0047509647
-0.067787461 0.04662773 -0.0085476004 -0.5466935 -0.018606672 -0.83712608 0.004323957
-0.045431506 0.047995459 -0.0064944951 0.35259494 0.72016597 -0.59752649 0.00089592399
-0.044013385 0.047378819 -0.0063181571 0.35947424 0.72691667 -0.58512425 0.00052539457
0.068312094 0.046261553 -0.0085562095 0.6373294 0.079863422 -0.76644176 0.0033053174
0.06989719 0.046637647 -0.0070653451 0.74815917 0.046133526 -0.66191351 0.0027959712
-0.070162036 0.049560796 -0.0069449283 -0.66992837 -0.067380957 -0.73936176 0.0054061352
-0.06805931 0.049426943 -0.0083085168 -0.49678579 0.063915119 -0.86551648 0.0031163821
-0.054072231 0.050793137 -0.00820114 0.22435991 0.66567755 -0.71171349 0.0029473775
-0.05196771 0.050123442 -0.0078816349 0.30667919 0.68772304 -0.65801597 0.0015143486
-0.049591053 0.049503338 -0.0072947242 0.33738461 0.71434361 -0.61309445 0.00072121731
-0.046856988 0.048615292 -0.0066717765 0.35226184 0.72726375 -0.58906627 0.00066410057
0.062019698 0.050752975 -0.0088011343 0.082553647 0.42550707 -0.90118182 0.0027745999
0.06546855 0.050492637 -0.0089090988 0.19500725 0.32974592 -0.92370981 0.0087147178
0.067908138 0.049525775 -0.0080938721 0.49461135 0.20917921 -0.843566 0.0042096111
0.069934659 0.049421214 -0.0067023942 0.72455168 0.087691523 -0.68361908 0.0032269114
-0.070450239 0.052666042 -0.0065967464 -0.50001478 0.074578814 -0.86279964 0.0054014418
-0.067663543 0.052220386 -0.0078303218 -0.33514008 0.23224676 -0.91309506 0.0079786405
-0.064924918 0.052705415 -0.0081519969 -0.1663947 0.40915728 -0.89716393 0.0087656844
-0.061393753 0.05303736 -0.0076987781 0.065670393 0.60217142 -0.79566139 0.0014602159
-0.057926156 0.051611215 -0.008441126 0.096662201 0.60099399 -0.79338682 0.001676101
-0.052496739 0.05151242 -0.0064773727 0.28896382 0.69380009 -0.65965241 0.0017103796
0.060953755 0.05184653 -0.0079584429 -0.058329429 0.49595332 -0.8663879 0.0013065554
0.064667955 0.052277319 -0.0081352834 0.10796107 0.41227207 -0.90464145 0.0054838015
0.067940809 0.052460123 -0.0072641284 0.50127929 0.20355149 -0.84100288 0.0073631932
0.069476224 0.052157022 -0.0065797698 0.70321977 0.099247217 -0.70401132 0.0038026189
-0.070607342 0.055308532 -0.0062056519 -0.40176797 0.15694559 -0.90219212 0.0065828711
-0.067774594 0.055423133 -0.0066016903 -0.14814416 0.3394874 -0.92887115 0.010796528
-0.06452854 0.054644711 -0.006963776 -0.043991905 0.5095498 -0.85931581 0.0074410159
-0.061833464 0.054550603 -0.0063937628 0.18596479 0.69648725 -0.69305313 0.0060019898
0.062821254 0.054454032 -0.0065431809 -0.031933378 0.46657738 -0.88390374 0.0028083134
0.065368466 0.055219401 -0.0066096121 0.14219384 0.36777461 -0.91897923 0.0055909972
0.068198457 0.055111058 -0.0063878973 0.46975416 0.22021732 -0.85488915 0.0076534366
0.069380991 0.055136994 -0.0061343508 0.52956301 0.19713008 -0.82504708 0.011628024
-0.015368076 0.0029292244 -0.0032741521 -0.26065978 -0.93724024 -0.23159695 0.0014696721
-0.013243972 0.0026371293 -0.0040842942 -0.21607988 -0.92640287 -0.30836233 0.0022551471
-0.010508373 0.0022173186 -0.0044899802 -0.1602907 -0.93529934 -0.31547102 0.0017517265
-0.007519383 0.0017926861 -0.0045024389 -0.12887278 -0.93510765 -0.33009911 0.0021627459
-0.0045179618 0.0013662628 -0.0044869352 -0.095255703 -0.93638241 -0.3378081 0.0023686539
-0.0015151711 0.0011444828 -0.0044726096 -0.050146125 -0.9373616 -0.34472978 0.0024781183
0.001503162 0.0010311197 -0.0045112125 -0.030742306 -0.93759114 -0.34637791 0.0025690307
0.0045405426 0.0009512222 -0.0044962754 0.0065197321 -0.93994063 -0.34127563 0.0024584765
0.0075180973 0.0010661155 -0.0044901674 0.03897249 -0.9403578 -0.33794716 0.0025415348
0.010513957 0.0012089113 -0.0045019533 0.064200595 -0.94302666 -0.32646444 0.002238675
0.013513402 0.0015024347 -0.0045112465 0.10237673 -0.94417286 -0.3131398 0.0020233996
0.016516974 0.00188364 -0.0044971998 0.12509987 -0.94684362 -0.29637355 0.0017585171
0.019499624 0.0023241818 -0.0044826218 0.16357292 -0.94590676 -0.28018621 0.0016280621
0.022182448 0.0027151862 -0.0039400049 0.19695735 -0.94309932 -0.26790214 0.0018078318
0.024383787 0.0029162767 -0.0031736949 0.21476094 -0.96565515 -0.14624545 0.0022318766
-0.024340529 0.0058775004 -0.0033446916 -0.34960881 -0.90232533 -0.25215629 0.0019257631
-0.022322202 0.0054173749 -0.0042481762 -0.32594684 -0.89270633 -0.31118175 0.002153154
-0.019483289 0.0045100283 -0.0045147249 -0.28391376 -0.90067971 -0.32889074 0.0021097253
-0.016533801 0.0037121081 -0.0045761275 -0.25515714 -0.90853977 -0.33083269 0.0020975338
-0.013977371 0.0032931559 -0.005315931 -0.22172019 -0.90434599 -0.36468962 0.0020366241
-0.011563565 0.0030250433 -0.0058353436 -0.16256431 -0.89784056 -0.40921277 0.0015878399
0.02067562 0.0031237297 -0.0058887806 0.17594728 -0.90140742 -0.39560997 0.0010755608
0.022906827 0.0032459034 -0.0051773502 0.20151126 -0.92689353 -0.31664115 0.0018564692
0.025544859 0.0036349648 -0.004561278 0.24120411 -0.92565089 -0.29153216 0.0015547784
0.028500663 0.0044412725 -0.0045014652 0.26299888 -0.91874313 -0.29452109 0.0018326301
0.031441692 0.005297624 -0.0044665048 0.28374767 -0.91987741 -0.27076355 0.0018056178
0.033534158 0.0057644248 -0.003745721 0.32045755 -0.91003019 -0.26296774 0.0017114743
-0.030794047 0.0086639626 -0.0039853547 -0.36264628 -0.88215953 -0.30047014 0.0019454104
-0.028445296 0.0078670541 -0.0045086988 -0.34625125 -0.88264543 -0.31787929 0.0019998897
-0.0255365 0.0067698373 -0.0046048509 -0.34944692 -0.88427591 -0.30974674 0.0018508573
-0.023304434 0.0062527601 -0.0054630819 -0.33137429 -0.87970895 -0.34103265 0.0022150604
0.032720197 0.0061151725 -0.0056558256 0.30661619 -0.897627 -0.31662646 0.0020476272
0.034734543 0.0065220357 -0.0046981 0.34262547 -0.89751214 -0.27763247 0.0016524418
0.037493277 0.0075049084 -0.0044961986 0.34657428 -0.89614719 -0.27713975 0.0014574797
0.0401044 0.0085115116 -0.0042567719 0.38679317 -0.88609517 -0.25539467 0.0018784422
0.042002719 0.0089295385 -0.0030321786 0.36901581 -0.91834885 -0.14304729 0.0031089776
-0.036899388 0.011469606 -0.0042147296 -0.42200404 -0.85429448 -0.30346906 0.0021634873
-0.034456018 0.010386121 -0.0044876584 -0.39074326 -0.86488402 -0.31511179 0.0015960409
-0.031936955 0.0094685853 -0.0048856819 -0.38418669 -0.87111527 -0.3058736 0.0019254629
-0.029826734 0.0090625733 -0.0058761016 -0.37236974 -0.82644045 -0.42229962 0.001695046
0.041304056 0.0093420455 -0.0050619137 0.41729352 -0.86920679 -0.2652275 0.0016758339
0.043513153 0.01019404 -0.0044811163 0.42043942 -0.8697353 -0.25843981 0.0015355892
0.046051744 0.011384324 -0.0042362236 0.44993213 -0.85438734 -0.2599678 0.0017480679
-0.042633642 0.014505032 -0.0041626785 -0.49203295 -0.81548691 -0.30476978 0.0019866165
-0.040518291 0.013485542 -0.0045172032 -0.46720198 -0.83050179 -0.30329689 0.0015532136
-0.038219713 0.012406423 -0.0048829345 -0.44338152 -0.84205067 -0.30718619 0.0020033366
0.047344025 0.012366013 -0.0049311328 0.48258042 -0.83360553 -0.26873407 0.0015733078
0.049522709 0.013471897 -0.0044908947 0.49818063 -0.82323265 -0.27222061 0.0014718547
0.051620007 0.014582478 -0.0041103461 0.51359481 -0.80982202 -0.28356427 0.0020742756
-0.04818891 0.017799621 -0.0033850493 -0.55287969 -0.7976588 -0.2409659 0.0012142225
-0.046150386 0.017012514 -0.0043527526 -0.54374963 -0.78446305 -0.29825175 0.0017927147
-0.044064317 0.015671534 -0.0046091103 -0.53021795 -0.79439706 -0.2963143 0.0016698237
0.050952513 0.015038849 -0.0057656858 0.52351868 -0.77616525 -0.35141963 0.0040270388
0.052949142 0.015720477 -0.004681244 0.54638505 -0.79305732 -0.26930189 0.0014801434
0.055184316 0.017156688 -0.0043298458 0.55736858 -0.78083736 -0.28219357 0.0018413152
0.05702715 0.017877324 -0.0032651913 0.57840568 -0.79524904 -0.18173014 0.0027197946
-0.05148422 0.020684265 -0.0039160079 -0.56530821 -0.7669332 -0.30371055 0.0018430408
-0.049540866 0.019512022 -0.0045687971 -0.57185268 -0.76451427 -0.29749361 0.0018816184
-0.047504272 0.01829741 -0.0052631921 -0.5419926 -0.77505642 -0.32485619 0.0023509597
0.056441706 0.018357513 -0.005116594 0.57641739 -0.76009214 -0.30000478 0.0021444017
0.05836286 0.019626951 -0.0044103344 0.61746514 -0.72978503 -0.29351419 0.0019038873
0.060219798 0.020748517 -0.0034350383 0.6401825 -0.71105826 -0.29079646 0.0019494862
-0.054902077 0.023434907 -0.0041823527 -0.59064251 -0.74901903 -0.30018643 0.0018566728
-0.052763857 0.021985656 -0.0047163563 -0.58743328 -0.75078356 -0.30206981 0.001920135
0.05966033 0.021283241 -0.0054072537 0.63660133 -0.69242895 -0.33953041 0.0017966214
0.061496496 0.022519773 -0.0044668852 0.67207515 -0.67953402 -0.29419133 0.0017843847
0.063262872 0.023757113 -0.0034707084 0.70859742 -0.64510286 -0.28588811 0.00200469
-0.058015727 0.026062315 -0.0042300839 -0.6214397 -0.71733314 -0.3150332 0.0020240808
-0.05617249 0.024706936 -0.0046679536 -0.60135418 -0.74218649 -0.29585868 0.0017676614
0.062772706 0.024281947 -0.0054485132 0.69024807 -0.63351804 -0.34958899 0.0021754848
0.064301737 0.025522957 -0.0044351653 0.73668855 -0.60634911 -0.29938403 0.001830379
0.066102423 0.026858363 -0.0030362364 0.77850497 -0.58355081 -0.23108089 0.0044220481
-0.061012685 0.029124547 -0.0044979737 -0.68407321 -0.64057827 -0.34886003 0.0020812969
-0.059361123 0.027600471 -0.0049724332 -0.66010517 -0.68055236 -0.31797752 0.0021234867
0.065605871 0.027543748 -0.004996995 0.76335764 -0.55543053 -0.32982138 0.0023657673
0.06675455 0.02874277 -0.0042877002 0.78664541 -0.5196895 -0.33333433 0.0024361776
-0.063662499 0.031977169 -0.0043038186 -0.72007614 -0.58817917 -0.36815158 0.002812563
-0.062209837 0.030638576 -0.0049489383 -0.70583957 -0.62072259 -0.34131205 0.0027344998
0.068099491 0.03126866 -0.0046296599 0.82236636 -0.43834004 -0.36272806 0.0024944623
0.069250189 0.032513823 -0.0036159121 0.84148699 -0.41471285 -0.34628445 0.0030013698
-0.066564113 0.035405654 -0.0038728209 -0.77096695 -0.52677572 -0.35793465 0.0023617505
-0.0652197 0.034250215 -0.0048159673 -0.74397475 -0.55755979 -0.36827797 0.0030537029
0.068838686 0.03364794 -0.0055669909 0.82697362 -0.32955813 -0.4555285 0.0021769973
0.069775946 0.0345635 -0.0043378696 0.86683607 -0.33828363 -0.36627781 0.0030355437
-0.069203481 0.038723852 -0.0035902839 -0.81334364 -0.49044353 -0.31294939 0.0016826167
-0.067551292 0.037261955 -0.0043669781 -0.78016198 -0.50419581 -0.37031588 0.0035081515
0.070722513 0.037444409 -0.0044780853 0.88811529 -0.2480693 -0.38692755 0.0027945477
-0.069497027 0.040102325 -0.0039047825 -0.82277161 -0.42991766 -0.37177646 0.0035929817
-0.068468787 0.039749511 -0.0053852471 -0.77998334 -0.41226226 -0.47081396 0.0049477424
0.071274981 0.040233146 -0.0046684244 0.88633025 -0.16413204 -0.43298879 0.0031961729
0.072081685 0.041199911 -0.0033296768 0.91986698 -0.16574708 -0.35548928 0.004012668
-0.072056465 0.044555958 -0.0032334414 -0.88863713 -0.34943923 -0.29701239 0.011364423
-0.070712991 0.04326833 -0.0041452711 -0.84936464 -0.35588342 -0.38977781 0.0086404737
0.071455188 0.043200076 -0.0050150836 0.87842989 -0.060902968 -0.47397426 0.0033050422
0.072228901 0.043351822 -0.0035428698 0.91220653 -0.07827796 -0.4021838 0.0030807457
-0.072405554 0.046820793 -0.0035502268 -0.84716171 -0.28302011 -0.4496851 0.0048280233
-0.071314916 0.046321314 -0.0050954018 -0.82541031 -0.22040278 -0.5197311 0.0062846779
0.071497291 0.046388071 -0.0049596215 0.86887646 0.0080635212 -0.49496341 0.0035309056
0.072253406 0.046385575 -0.00364955 0.88650954 -0.0041143112 -0.46269196 0.0037194716
-0.072867513 0.049626086 -0.0040465468 -0.78823686 -0.22349735 -0.5733512 0.0074255192
-0.071596146 0.04947919 -0.0056421957 -0.72284615 -0.14383353 -0.67587376 0.0056404583
0.071316153 0.049293015 -0.005131762 0.81550014 0.049918208 -0.57660013 0.0044796914
0.072277561 0.049389269 -0.0035850457 0.88200104 0.0099078678 -0.47114334 0.0044735251
-0.075107478 0.053285778 -0.0032479148 -0.74581748 -0.3293125 -0.5790593 0.0092076687
-0.07346309 0.052491959 -0.0043660104 -0.72417313 -0.18897492 -0.66322076 0.0069063865
-0.071807437 0.052683491 -0.0058171749 -0.65706021 -0.062393099 -0.75125164 0.0083068842
0.071268842 0.05258806 -0.0048222351 0.78834039 0.052143753 -0.61302561 0.0051228236
0.072288156 0.052419625 -0.0035631012 0.82677263 0.032866232 -0.56157529 0.0053381422
-0.075242795 0.054907165 -0.0033045951 -0.78553712 -0.34269384 -0.51525944 0.036013979
-0.073217034 0.055455249 -0.0048950617 -0.56336534 0.026246594 -0.82579088 0.011691089
-0.070523582 0.056111544 -0.0057907691 -0.19328204 0.25671384 -0.94696361 0.016158408
-0.066710249 0.056916971 -0.0058876108 -0.14856157 0.33826587 -0.92925006 0.0049622674
-0.06457866 0.056455564 -0.0055037104 0.2388276 0.64360517 -0.7271409 0.0092542069
-0.062702984 0.055800181 -0.0053983466 0.18243286 0.67958891 -0.71054715 0.0093609495
0.065628082 0.056884132 -0.0059132818 -0.021248478 0.36747849 -0.92978925 0.0082882857
0.067608386 0.056742527 -0.005955671 0.27445513 0.25938118 -0.92595673 0.0044924254
0.071081132 0.055497564 -0.0047002938 0.72749132 0.0624341 -0.68327039 0.0060248664
0.072272114 0.05589889 -0.0033936421 0.81619698 0.03824801 -0.57650626 0.0059245327
-0.072920442 0.057425871 -0.0048504123 -0.53215349 0.052902251 -0.84499347 0.01783202
-0.070893869 0.057743087 -0.0053020511 -0.16380541 0.2742306 -0.94761038 0.019380039
-0.067667931 0.058219086 -0.0048005893 0.024471605 0.52435458 -0.85114831 0.0085382015
-0.064667843 0.057973154 -0.0040375898 0.2145661 0.69465065 -0.68660176 0.0067761671
-0.062380165 0.057330392 -0.0033143479 0.22817883 0.69567162 -0.68115747 0.0074673821
0.065209448 0.058642 -0.0046680435 -0.11686179 0.45180267 -0.88443071 0.012680267
0.068344384 0.058938507 -0.0053626774 0.330796 0.19733019 -0.9228406 0.011003812
0.070941366 0.058770582 -0.0043723928 0.71186548 0.040965304 -0.70112026 0.0101655
0.072266862 0.058896117 -0.0034090793 0.79362416 -0.00063472427 -0.60840797 0.016716782
0.065651678 0.061660994 -0.0034700634 -0.35209492 0.32957178 -0.87602031 0.015491265
0.067806289 0.061436802 -0.0045787496 -0.0079009337 0.23765831 -0.9713167 0.019964799
0.070993975 0.061272591 -0.0042590457 0.61224848 0.016707866 -0.7904889 0.016838517
0.072464675 0.061502591 -0.0033548069 0.76292735 -0.040321037 -0.64522564 0.020746052
0.068230495 0.064305529 -0.004110056 0.051107224 0.10874873 -0.99275464 0.015186747
0.070835575 0.064535573 -0.0041504968 0.48936912 -0.026765294 -0.87166595 0.016075563
0.072592877 0.064787775 -0.0034183105 0.57485187 -0.069325268 -0.81531554 0.01564963
0.068229452 0.067391194 -0.0038007761 -0.218564 0.074688837 -0.97296005 0.019038714
0.070824809 0.067281388 -0.0042706253 0.37378684 -0.10251777 -0.92183161 0.015395409
0.072898813 0.067583837 -0.00365652 0.5680095 -0.1382568 -0.81132627 0.015257924
0.06824477 0.070006274 -0.0034529704 -0.35659498 0.042548969 -0.93328965 0.016155625
0.070989534 0.070302971 -0.0043547265 0.17855576 -0.12487895 -0.97597295 0.016489871
0.073461756 0.0705126 -0.0037766886 0.57082683 -0.23605926 -0.78640491 0.017305363
0.07521981 0.071467638 -0.0031280695 0.77727062 -0.24711853 -0.57860422 0.019145044
0.068526201 0.073159657 -0.0034807608 -0.4497675 0.053127419 -0.89156419 0.02222071
0.070895791 0.073436804 -0.0045728707 0.21469517 -0.15596877 -0.96414715 0.019109949
0.07370615 0.073284335 -0.0044161351 0.55921823 -0.16313438 -0.8128112 0.029546713
0.075475559 0.073357001 -0.0034901961 0.70530766 -0.15612969 -0.69149446 0.054928076
0.068638638 0.075630412 -0.0033486951 -0.38781387 0.015804036 -0.92160219 0.026873114
0.070727356 0.075384133 -0.0046989964 0.16037139 -0.099301144 -0.98204899 0.034371834
0.073101349 0.075183995 -0.0050425823 0.30645335 -0.17709567 -0.93526655 0.02914728
-0.015904509 0.0027438558 -0.0012976757 -0.24723692 -0.95574862 -0.15943141 0.0010173297
-0.013491726 0.002116486 -0.0015330102 -0.21900576 -0.9611302 -0.16812278 0.0012758319
-0.01048367 0.0014880538 -0.001520664 -0.15629268 -0.97300214 -0.16982183 0.0025257692
-0.0075049945 0.0010630968 -0.0015248843 -0.1348832 -0.97480869 -0.17763586 0.0036661273
-0.0044980031 0.00064522371 -0.0015276767 -0.10093275 -0.98095727 -0.16593798 0.0040309224
-0.0014887826 0.00043901359 -0.0015085199 -0.053021692 -0.98526311 -0.16262046 0.0043408102
0.0014797021 0.00032664658 -0.0015339354 -0.025473962 -0.99088496 -0.13228025 0.0029333259
0.0045118881 0.00025849653 -0.0015106878 0.010327442 -0.99231219 -0.12332816 0.002618341
0.0075062108 0.00038830179 -0.0015203225 0.042831324 -0.99055213 -0.13027672 0.0031642374
0.010508551 0.00053740531 -0.0014917166 0.074683473 -0.98638886 -0.14649023 0.0031528845
0.013509355 0.00083788065 -0.0015257247 0.11305828 -0.98175436 -0.1528926 0.0043466403
0.016497759 0.0012353765 -0.0015014467 0.13802637 -0.97870898 -0.15191254 0.0034057682
0.019516701 0.0016963738 -0.001525286 0.1721953 -0.97645986 -0.12990338 0.0024235353
0.022490768 0.002320379 -0.0014981008 0.19575116 -0.97360808 -0.11734021 0.0020736642
0.024855686 0.0028096924 -0.0012891875 0.21744733 -0.9715507 -0.093839772 0.0019239442
-0.024812162 0.005697038 -0.0013549618 -0.35036361 -0.91764593 -0.1875401 0.00064307032
-0.022512546 0.0048320629 -0.0014883989 -0.32668412 -0.92497921 -0.19414148 0.00050211896
-0.019487893 0.0037647486 -0.0015188665 -0.29587939 -0.93875474 -0.17662114 0.00054593093
-0.017303342 0.0031942131 -0.0018166951 -0.27738866 -0.94520909 -0.17214914 0.00077209203
0.026266454 0.0031906106 -0.0017629849 0.26791984 -0.95826608 -0.099725284 0.0018375324
0.028492684 0.0038163133 -0.0015010106 0.27985924 -0.95493209 -0.098911129 0.0016247337
0.03150747 0.004714577 -0.0015013233 0.29109773 -0.95181787 -0.09646152 0.0012131942
0.034096677 0.0055835913 -0.0014170146 0.32347265 -0.94188267 -0.090678103 0.0019130547
-0.033090431 0.0089267781 -0.00056625583 -0.38900995 -0.89440948 -0.22068736 0.0020199735
-0.031369638 0.0083568366 -0.001493578 -0.38776752 -0.89868528 -0.20494147 0.00048880745
-0.028466323 0.0071401 -0.0015322873 -0.35711655 -0.90893179 -0.21519946 0.00086234539
-0.026235387 0.0062823533 -0.0016791698 -0.35922191 -0.91135806 -0.20096283 0.00074202282
