# .PCD v0.7 - Point Cloud Data file format
VERSION 0.7
FIELDS x y z normal_x normal_y normal_z curvature
SIZE 4 4 4 4 4 4 4
TYPE F F F F F F F
COUNT 1 1 1 1 1 1 1
WIDTH 566
HEIGHT 1
VIEWPOINT 0 0 0 1 0 0 0
POINTS 566
DATA ascii
-0.0045212735 0.0011191849 0.0045225923 -0.070747897 -0.94571877 0.31719199 0.0037214046
-0.0014826217 0.00096035801 0.0044873278 -0.028829634 -0.9416492 0.33535901 0.0033210579
0.0014932748 0.00092942308 0.0044644778 -0.0042665009 -0.93798625 0.34664625 0.0027378483
0.0045295204 0.0010071304 0.0045102127 0.03017026 -0.9338541 0.35637951 0.0022113326
0.0075218789 0.0012055602 0.0045165527 0.051087152 -0.92816532 0.36864528 0.0022235895
0.010485831 0.001365488 0.0045695901 0.07000652 -0.925385 0.3725073 0.0021892658
0.013556734 0.0015980342 0.0044329222 0.10042024 -0.92292136 0.37166101 0.0027478219
0.016549321 0.0019637912 0.0044701993 0.11576378 -0.92436415 0.36352396 0.003186062
0.019435683 0.0023334723 0.0043701935 0.1501459 -0.92310506 0.35402441 0.0039876266
0.022253552 0.0026933821 0.0038138467 0.20073774 -0.92293346 0.32847869 0.003856661
0.024289362 0.0028925871 0.0032118834 0.22916785 -0.96096647 0.15500195 0.0033475726
-0.027640909 0.0058230027 0.0035785616 -0.31109762 -0.94649374 0.085836239 0.013425724
-0.02536949 0.0053244201 0.0042129126 -0.28903684 -0.93685603 0.19687204 0.01334693
-0.022490406 0.0045198291 0.0044975681 -0.29204705 -0.92299235 0.25058657 0.006409667
-0.01950074 0.0036704168 0.0046998444 -0.26479688 -0.91808891 0.29494971 0.0055238195
-0.016909951 0.0032712237 0.0053498172 -0.22175623 -0.92633653 0.30450743 0.005154781
-0.014545558 0.0030845441 0.0058566001 -0.16501361 -0.88838917 0.4284102 0.00041677011
0.020145422 0.0031181436 0.0057820603 0.14463939 -0.87547106 0.46111822 0.0033251692
0.022787413 0.0033606878 0.0052427049 0.19318196 -0.89952195 0.39184317 0.0043747951
0.025510734 0.0036660598 0.0045193364 0.24268961 -0.91275156 0.3286128 0.0025023685
0.028483717 0.0044674431 0.0044585355 0.25401762 -0.89987141 0.35455108 0.0040044435
0.031435851 0.0053022169 0.0043942495 0.2830202 -0.904019 0.32038915 0.0032844462
0.033555191 0.0057887435 0.0037659456 0.31983554 -0.89892817 0.29938823 0.0027417566
-0.03616472 0.0089274896 0.0033122564 -0.38322487 -0.92103124 0.069571875 0.018423595
-0.034308713 0.0085316226 0.004159356 -0.37845293 -0.91897541 0.11071361 0.013989344
-0.031519827 0.0075811259 0.0044277646 -0.34124067 -0.90909523 0.23895741 0.0071312748
-0.028723329 0.006628185 0.0046820389 -0.35671639 -0.90829241 0.21853675 0.0086157694
-0.02640523 0.0061400719 0.0055045113 -0.29649347 -0.90179819 0.31440672 0.0055854451
0.032676335 0.0061443169 0.005559497 0.29092485 -0.89573163 0.33619553 0.0036896917
0.034760404 0.0065578166 0.004665297 0.34167603 -0.88526887 0.31552586 0.0026176171
0.037481543 0.0074991141 0.0044292468 0.34135246 -0.8876099 0.30923644 0.0022644575
0.040107723 0.008514652 0.0042157699 0.37988466 -0.87680399 0.29479229 0.0027500819
-0.042081296 0.011814978 0.0033943846 -0.43406388 -0.90058035 -0.023315802 0.021742808
-0.040253494 0.011305516 0.0041643162 -0.44031769 -0.89046419 0.11486447 0.019293075
-0.037627745 0.010194213 0.0045775254 -0.42826265 -0.87762141 0.21534097 0.0082624024
-0.035134409 0.0092509063 0.0052037896 -0.41042006 -0.89233249 0.18787794 0.011707193
0.041262716 0.009335625 0.0050088638 0.40964016 -0.86297554 0.29575017 0.0022800199
0.043558702 0.010232043 0.0044978266 0.41296023 -0.86444879 0.28669184 0.0024620623
0.046047181 0.01139605 0.0042501353 0.45021698 -0.84709769 0.28236532 0.0025364535
-0.045732234 0.014476869 0.0041315765 -0.52729213 -0.84810972 0.051701404 0.022082284
-0.043312829 0.0130244 0.0043719127 -0.50899851 -0.84334433 0.17231047 0.010890163
-0.041070879 0.012198295 0.0054978058 -0.43668267 -0.85509032 0.27951518 0.0067930161
0.047362957 0.012398246 0.0049272231 0.48415384 -0.82811904 0.28251362 0.0021769898
0.049549293 0.013494051 0.0044905697 0.49536023 -0.8178106 0.29292336 0.0028057613
0.051651221 0.014565375 0.0040195007 0.50233656 -0.80499446 0.31566113 0.0022896754
-0.051220573 0.017893037 0.0036190362 -0.56555903 -0.82470679 0.0013221413 0.023504386
-0.049119186 0.016785221 0.0043363124 -0.59980607 -0.79652721 0.076007202 0.018945998
-0.047391843 0.015762707 0.0048013935 -0.56178093 -0.82047647 0.10592642 0.016252678
0.052941922 0.015743544 0.0047169277 0.5394727 -0.78355992 0.30822563 0.0023780789
0.055258859 0.017187594 0.0042884215 0.55114424 -0.77809858 0.30133495 0.0022911385
-0.054390773 0.020517567 0.003867551 -0.63053739 -0.77607185 0.011628732 0.020805269
-0.052680481 0.019480644 0.0045994464 -0.5740642 -0.8094542 0.123427 0.017666476
-0.050623648 0.018205341 0.0053169243 -0.5868755 -0.79225039 0.16708222 0.011464948
0.056488782 0.018406855 0.0051132906 0.57794529 -0.76058018 0.29579902 0.0019886661
0.05842039 0.019654224 0.0044334601 0.6063745 -0.74288362 0.2836085 0.0015073152
0.06023797 0.020773629 0.0035202752 0.63902503 -0.70915478 0.29790351 0.0020824866
-0.057622742 0.023355775 0.0039721774 -0.65415919 -0.74883634 -0.10639511 0.015411992
-0.0558092 0.021877751 0.0042924699 -0.61814445 -0.78454971 0.04877653 0.015900558
0.05971333 0.021261489 0.0054992554 0.62551689 -0.69215328 0.36007282 0.0027043622
0.061493471 0.022470536 0.004497854 0.66806316 -0.67687958 0.30907223 0.0030136604
0.063246958 0.023701722 0.0034158451 0.7124157 -0.64559138 0.27509212 0.0028232336
-0.06055177 0.026271142 0.0043884302 -0.73577487 -0.65693486 0.16453519 0.012278947
-0.05902772 0.024761612 0.0043563205 -0.71368861 -0.69961154 -0.034527462 0.0087786699
0.062768064 0.024230763 0.0053221905 0.69149381 -0.63233548 0.34926799 0.0026795038
0.064357795 0.02553221 0.0043800753 0.74500465 -0.5911929 0.30896437 0.0023217772
-0.0633412 0.029645842 0.0043628216 -0.77106726 -0.61545831 0.16329849 0.011991611
-0.061993606 0.028043412 0.0043942141 -0.76180393 -0.63884681 0.10737525 0.0097935218
0.06558308 0.027612532 0.0051746941 0.76241314 -0.53907394 0.35794613 0.0034739238
0.066785038 0.028707728 0.0042566159 0.78381628 -0.51913029 0.34078714 0.0027715701
-0.064557828 0.031414509 0.0044764541 -0.80246592 -0.56861162 0.18091232 0.0090241507
0.06821572 0.031279322 0.0045109484 0.82575107 -0.43926635 0.35380819 0.0024604753
0.069252022 0.032476816 0.00359093 0.84601372 -0.43126464 0.31348279 0.0035870147
-0.066737682 0.034718387 0.0041744011 -0.82876921 -0.50783324 0.23504697 0.0058754012
-0.065761767 0.033225276 0.0042599468 -0.82804298 -0.524234 0.19880502 0.0089153126
0.068911612 0.033500202 0.0055457316 0.83248794 -0.34207255 0.43583274 0.0029534174
0.069873579 0.034621019 0.004327877 0.87316662 -0.36706838 0.32068804 0.0047865906
-0.069122121 0.038707405 0.0031499323 -0.86133391 -0.49989522 0.090601951 0.0014035505
-0.068244085 0.037440628 0.0043078046 -0.85008198 -0.49162835 0.18884449 0.0026811312
0.070843495 0.037530817 0.0044163791 0.89773995 -0.24520342 0.36597571 0.0025505703
-0.06959819 0.040069014 0.0036683958 -0.87549716 -0.47141454 0.10617442 0.0015326844
0.071352258 0.040165868 0.0046922406 0.90530586 -0.20386764 0.37263817 0.0024965936
0.072097763 0.041328687 0.0033143181 0.92216533 -0.17607327 0.34439713 0.0032366135
0.071536586 0.04302606 0.0051626214 0.90270162 -0.092213847 0.4202694 0.0029929494
0.072234884 0.04360646 0.003708927 0.9261269 -0.076675221 0.36933702 0.0035577205
0.071683824 0.04649011 0.0050834371 0.88587672 -0.0043907822 0.46390006 0.003761963
0.072361797 0.04647436 0.0036423525 0.92285019 -0.022603462 0.38449523 0.0027291162
0.071492717 0.049590297 0.0053264294 0.88747776 -0.010542113 0.46072999 0.0036409462
0.072348244 0.049482644 0.0037759659 0.90009737 -0.0083646635 0.43560851 0.0042774715
0.071664691 0.052984934 0.0049054367 0.8842513 0.0068544634 0.46696103 0.0023390148
0.072408125 0.052765414 0.0036846632 0.92253059 -0.032960676 0.38451383 0.0077655818
0.071383804 0.055822942 0.0048805135 0.86100781 0.044881262 0.50660753 0.0039119059
0.072367191 0.05551561 0.0036336712 0.96220464 0.0019769317 0.27232018 0.011048827
0.070833899 0.059481855 0.0046440242 0.79639107 0.025929241 0.60422593 0.0058726682
0.072363891 0.05872516 0.0034535637 0.9600482 -0.041302938 0.27676982 0.014256885
0.071355104 0.061471716 0.0039464105 0.87908208 -0.053676121 0.47363871 0.027724843
0.072420858 0.061828345 0.0033234742 0.87908018 -0.053765062 0.47363207 0.027717585
0.071518824 0.06464833 0.003706095 0.65074182 -0.030357931 0.75869191 0.0098298965
0.072524495 0.064558804 0.0033676617 0.8391301 -0.04314867 0.5422166 0.044892102
0.07105048 0.068086736 0.0037765473 0.31799996 0.056428637 0.94641 0.049263664
0.073130295 0.06755732 0.0033617029 0.79593283 -0.20528387 0.5695169 0.028781246
0.071098462 0.070579685 0.0040944805 -0.011419846 -0.05672102 0.99832475 0.030786682
0.073912688 0.070531875 0.0036412263 0.61211765 -0.29808366 0.73243302 0.01177456
0.075130939 0.071352884 0.0031301253 0.69561291 -0.37654787 0.61182874 0.034782227
0.070523292 0.07337936 0.0043005454 -0.0062586106 -0.061091527 0.99811256 0.031378251
0.074046373 0.073106214 0.0044185827 0.6467604 -0.16105762 0.74549401 0.043152545
0.075628445 0.073298953 0.0035936879 0.8162998 -0.17057994 0.55186695 0.073909529
0.068952516 0.075142346 0.0034800344 -0.0062561659 -0.061089955 0.99811268 0.031374842
-0.015057754 0.0029954589 0.0060602953 -0.22844064 -0.90586585 0.35668182 0.0093245134
-0.012646693 0.0028537654 0.0063395235 -0.16313295 -0.87506723 0.45568085 0.0011893295
-0.010309221 0.0026419722 0.0066766129 -0.12272617 -0.87702811 0.46449971 0.0016027316
-0.0074209361 0.0024727131 0.0070212395 -0.088831596 -0.87829226 0.46979961 0.0016030107
-0.0044303862 0.0023236366 0.0071870848 -0.053709786 -0.87571049 0.47984004 0.0017465305
-0.0014519823 0.0022156246 0.0072031678 -0.020266969 -0.87404913 0.48541465 0.0018579549
0.0015024688 0.0023026047 0.0073600658 0.0076918849 -0.87144727 0.49042889 0.0018823877
0.0044972626 0.0022894319 0.007203449 0.042025141 -0.87051088 0.49035153 0.0015237801
0.0074733892 0.0024209414 0.0070382883 0.060196966 -0.86484855 0.49841079 0.0014715322
0.010467428 0.002512102 0.0068458393 0.078784212 -0.86078358 0.5028367 0.0009565021
0.013302687 0.0026794986 0.0064833742 0.10532362 -0.85189617 0.51301068 0.00065105018
0.015924519 0.0028264096 0.006242366 0.11577053 -0.84794545 0.51728684 0.00052002253
0.018331334 0.0028750617 0.0061985273 0.15764882 -0.8386066 0.52142668 0.0020794079
-0.024694173 0.0058882572 0.0061494554 -0.28191537 -0.87078458 0.40281257 0.00059531379
-0.022355063 0.0055004414 0.006899599 -0.26085401 -0.85979307 0.4389886 0.00097880512
-0.019370465 0.0049256571 0.0074832835 -0.22126818 -0.84651846 0.48419714 0.00088021782
-0.01643583 0.0041958825 0.007468075 -0.19379877 -0.85638571 0.47858703 0.0011366728
-0.013477019 0.0036507491 0.0076042567 -0.16260844 -0.85388362 0.49441001 0.0010650879
-0.010592435 0.003531795 0.008214023 -0.11802749 -0.85119748 0.51140243 0.0015982961
-0.0076683499 0.0033256039 0.0084462566 -0.081018567 -0.83571136 0.54315984 0.0014890208
-0.0046667024 0.0032009294 0.0086267097 -0.044190671 -0.83042997 0.55536771 0.0014949209
-0.0015789984 0.0031126074 0.0086571462 -0.014089678 -0.82598162 0.56352103 0.0017798092
0.00090665417 0.0030858323 0.0086920885 0.0014322527 -0.83067983 0.55674851 0.0017947853
0.0046296306 0.0031235467 0.0086299069 0.04306731 -0.82408965 0.56481987 0.0015117427
0.0076918122 0.0033012647 0.0084502352 0.065275282 -0.81012934 0.5826059 0.0011269118
0.010640692 0.0034479983 0.0083274702 0.083797723 -0.82470095 0.55932653 0.00088515593
0.013550512 0.0036316582 0.007993497 0.1118219 -0.83236092 0.54283613 0.00065575726
0.016524872 0.0038184652 0.0076208394 0.12280763 -0.82276362 0.55495793 0.00066534383
0.019496882 0.0042298748 0.0075480081 0.14989656 -0.80937636 0.56783873 0.00092684099
0.022430932 0.0046631224 0.0074007963 0.16176024 -0.80603659 0.56933171 0.002324759
0.025451882 0.0050605643 0.0071232249 0.18972602 -0.80228806 0.56598407 0.002471756
0.028354263 0.00551491 0.0067303493 0.21551736 -0.8145678 0.53854585 0.0030691156
0.030733652 0.0058675655 0.0062226444 0.27206245 -0.82263964 0.49924538 0.0028170894
-0.033523418 0.0089592319 0.0064781476 -0.3555364 -0.84812605 0.39277998 0.0012712338
-0.031419285 0.0085123209 0.0068317032 -0.31597656 -0.84676826 0.42795134 0.0010053688
-0.028451083 0.0076907207 0.00732949 -0.29112685 -0.84294653 0.45242274 0.0010198293
-0.025518969 0.0068517379 0.0076077883 -0.27060443 -0.84816062 0.45540839 0.0010813517
-0.022832619 0.00644483 0.0083141243 -0.24996135 -0.8357175 0.488974 0.00099671492
-0.020751335 0.0062654163 0.0088000856 -0.2268957 -0.794442 0.5633651 0.00055930787
0.023418421 0.0060968664 0.0086404877 0.16627569 -0.76412976 0.62326413 0.00088984618
0.025685569 0.0064041633 0.008667835 0.17642756 -0.72757864 0.66294998 0.00036976949
0.028675215 0.0066607371 0.0081417514 0.19520247 -0.76307207 0.61613077 0.0021712224
0.031645626 0.0070096832 0.0075276974 0.25081107 -0.79609311 0.55075359 0.002815522
0.034508739 0.0078686932 0.0073650703 0.2758404 -0.79024982 0.54719031 0.0034065831
0.03730889 0.0085147247 0.0068271519 0.32564333 -0.81078076 0.48640627 0.0022057763
0.039329056 0.0088623744 0.0061649936 0.36561614 -0.79630303 0.48189875 0.0028790464
-0.039271317 0.011735519 0.0065048086 -0.40256953 -0.81194931 0.42270094 0.0014170739
-0.037438773 0.011239392 0.0072184042 -0.37723559 -0.81484598 0.44013554 0.0010082928
-0.034557585 0.010038707 0.007450474 -0.35341221 -0.82519442 0.44062912 0.00093818625
-0.031801496 0.0094148628 0.0082589211 -0.30857089 -0.83273286 0.45971721 0.001100219
-0.02932786 0.0091534518 0.0089252898 -0.28695622 -0.7910198 0.54031825 0.00035402615
0.035262823 0.009168651 0.0087558655 0.240707 -0.70366716 0.66851526 0.0015378079
0.037780602 0.009583205 0.0081458846 0.28890786 -0.74927014 0.59592497 0.0040951292
0.040526662 0.010318884 0.0074754632 0.34016302 -0.78923166 0.51127535 0.0026342568
0.043235954 0.011281726 0.0070648566 0.37820217 -0.7856853 0.48955253 0.0025361748
0.045306545 0.011881097 0.0063738748 0.40076005 -0.77665085 0.48600903 0.002721438
-0.045425732 0.014902341 0.0061379024 -0.51288366 -0.79022598 0.33540031 0.0044394648
-0.042932954 0.014018573 0.0070948736 -0.46749765 -0.77468526 0.4258036 0.0013146726
-0.04050177 0.012850962 0.0075015523 -0.40765211 -0.80009991 0.44006807 0.0013283578
-0.038311955 0.012349229 0.0084573235 -0.38293225 -0.79369831 0.47265831 0.0011255251
0.043967921 0.012458677 0.0083263358 0.34870183 -0.73884583 0.57664001 0.0027573656
0.046534762 0.013318074 0.007515864 0.41064015 -0.76454699 0.49683267 0.0022764795
0.049043387 0.014362119 0.0069314279 0.45849165 -0.7493813 0.47771659 0.0018461341
-0.048557624 0.017474791 0.0068122768 -0.52370501 -0.75720155 0.39035735 0.0033833112
-0.046064187 0.016125923 0.007355886 -0.48932335 -0.75741345 0.43230483 0.0012790558
-0.044055741 0.015565527 0.0085166637 -0.46569696 -0.74954003 0.47044244 0.00093043438
0.047782484 0.015282987 0.0089465799 0.38749343 -0.64147133 0.66209018 0.0019142743
0.049956214 0.015645491 0.0080380468 0.44002795 -0.72682279 0.52735567 0.0034398346
0.052291673 0.016714305 0.0073061064 0.47885072 -0.72590047 0.49373117 0.0025075034
0.054439645 0.017660776 0.0065147639 0.51064134 -0.71291411 0.48062348 0.0017512604
-0.052574724 0.020481853 0.006898955 -0.55083531 -0.7840296 0.28614324 0.0051395283
-0.049579803 0.018760407 0.0077860453 -0.52867776 -0.75622141 0.38552424 0.0026444802
-0.047847044 0.018328711 0.0086661894 -0.50983745 -0.69615251 0.50540823 0.0014785652
0.05346334 0.018403456 0.0084624281 0.47398901 -0.65032172 0.59364653 0.0029807456
0.055601701 0.019251892 0.0075367577 0.52454817 -0.69804806 0.48741972 0.0023661174
0.057754729 0.02035743 0.0067389081 0.56224781 -0.66031855 0.49785224 0.0016539638
-0.057219833 0.02388816 0.0062789721 -0.63835895 -0.68934673 0.34248927 0.01035024
-0.05527176 0.022825941 0.0073309103 -0.5913797 -0.68931645 0.41846502 0.0013606283
-0.053246439 0.021524366 0.0079053231 -0.56208736 -0.71216017 0.42057782 0.0011324419
0.056735963 0.021114249 0.0086497646 0.53156239 -0.60617799 0.59159935 0.0030831974
0.058813673 0.022177612 0.0077940691 0.5775643 -0.60746127 0.54535335 0.0035022113
0.060749009 0.023212088 0.0068467618 0.61114216 -0.59940529 0.51693195 0.0021592258
-0.060035571 0.026520396 0.0064375256 -0.67898071 -0.60099518 0.42165148 0.0016510917
-0.058233835 0.025546437 0.0073116557 -0.63995159 -0.64318079 0.42045259 0.0013881666
-0.056344904 0.024432771 0.0083321398 -0.57978469 -0.63705784 0.50794387 0.0013765977
0.061797112 0.025142694 0.0076995627 0.63226718 -0.54922599 0.54643303 0.0031478005
0.063525029 0.026040895 0.0065768599 0.66894364 -0.56811714 0.47933018 0.0017367521
-0.061191931 0.028651988 0.0070773717 -0.69708884 -0.55677378 0.45174119 0.002055133
-0.059512161 0.02760338 0.0081916433 -0.65235275 -0.57414639 0.49476436 0.001934598
0.062735207 0.02735077 0.0087464983 0.6185137 -0.50304621 0.60364336 0.0022655602
0.064573504 0.028370017 0.0074167862 0.68438476 -0.4895505 0.54033118 0.0026114043
0.066234022 0.029414788 0.0063401908 0.71640033 -0.45365512 0.53006369 0.0020916681
-0.063900962 0.031929612 0.006664223 -0.74010056 -0.51049173 0.43777782 0.0037694804
-0.062238995 0.030637937 0.0077812523 -0.71467954 -0.51220608 0.47631732 0.0037677684
0.06552323 0.030806309 0.0083115948 0.69905204 -0.37326095 0.60992014 0.0028098805
0.06697236 0.031656895 0.006928768 0.75919694 -0.42913339 0.48935115 0.0025657099
-0.066406876 0.03502338 0.0062375758 -0.77027261 -0.45867833 0.44305113 0.0033770194
-0.064715549 0.034425572 0.0077166879 -0.76194757 -0.47749186 0.43753558 0.0075621097
0.067785956 0.03435275 0.0076300055 0.75091618 -0.30605119 0.5851987 0.0023961677
0.069160335 0.035398986 0.0063308161 0.79273224 -0.31497169 0.52188927 0.0029809223
-0.066519365 0.036528602 0.0071952716 -0.76084638 -0.38077942 0.52547103 0.0050938465
-0.06546174 0.036598016 0.0086739454 -0.72071862 -0.39315388 0.57095951 0.0067761755
0.068386272 0.03734836 0.0082095154 0.72271514 -0.21100855 0.65814751 0.0015883473
0.069558948 0.037343703 0.0067024594 0.79373735 -0.23313455 0.561809 0.0024887072
-0.067923188 0.039237928 0.0069611981 -0.83269948 -0.31790814 0.45337188 0.0075995973
0.068671972 0.040139921 0.0086274724 0.72247034 -0.13195466 0.67869329 0.0023702919
0.06995362 0.040444225 0.0071352487 0.79271567 -0.13999973 0.59329748 0.0026422911
0.06878297 0.04354462 0.0088156424 0.72471917 -0.041690681 0.68778199 0.0025288351
0.070182875 0.043482505 0.0072856816 0.81679976 -0.064351983 0.57332098 0.0023657847
0.068744786 0.045924183 0.0088779945 0.67376715 0.081850573 0.73439658 0.0068157557
0.070464224 0.046325132 0.0069035059 0.80338854 0.011878692 0.59533674 0.0029343071
0.068522677 0.048759166 0.0085517969 0.67621022 0.079998679 0.73235232 0.0060670781
0.070206374 0.04897701 0.0070064371 0.81314021 0.0065277903 0.58203125 0.0017505877
0.070496902 0.051645573 0.0064550862 0.82843697 0.0016971176 0.56007975 0.0041530873
-0.018754967 0.0058156308 0.0091957543 -0.22059371 -0.7974053 0.56167895 0.00057499844
-0.016241498 0.0055764266 0.0096516917 -0.17905301 -0.79465955 0.58004844 0.00072507234
-0.013467764 0.0052215736 0.0099277869 -0.1442347 -0.78608751 0.60105139 0.0010597319
-0.010406934 0.0050037322 0.010268525 -0.10503107 -0.78205413 0.6142962 0.0013761949
-0.0074854456 0.0047215675 0.01030818 -0.075102657 -0.77809972 0.62363487 0.0011154227
-0.0044552684 0.0046291337 0.010445803 -0.031522248 -0.76579905 0.64230704 0.0012128518
-0.0014869544 0.004519619 0.010381606 0.00059942226 -0.76213056 0.64742303 0.0011978917
0.0015217372 0.0045844507 0.01045674 0.0064082406 -0.74895746 0.66258699 0.0010088786
0.0045322035 0.0046040588 0.010416649 0.035332661 -0.75432551 0.65554917 0.0014094388
0.0075300299 0.0047175405 0.010278155 0.064078905 -0.75831091 0.64873606 0.0011507797
0.010475032 0.0048542828 0.010206315 0.081315547 -0.75186694 0.65428114 0.0013250903
0.013530801 0.0050531267 0.009980225 0.112754 -0.76230007 0.6373266 0.0010860326
0.016414747 0.0053408011 0.0097630424 0.13179784 -0.76295102 0.63287842 0.00093315408
0.019288236 0.0056707957 0.0094206408 0.15121712 -0.7458576 0.64871395 0.00077648024
0.021384496 0.005892898 0.0092457915 0.15374523 -0.74739307 0.64634818 0.00059398945
-0.027658133 0.0085597476 0.009225579 -0.27927822 -0.79364747 0.54048806 0.00056373543
-0.025329253 0.0083104335 0.010015934 -0.25001934 -0.79099637 0.55840403 0.0010038135
-0.022435734 0.0077735134 0.010430776 -0.21651836 -0.78462458 0.58093381 0.0014279342
-0.019527029 0.007053053 0.010590706 -0.20804679 -0.77237469 0.60012817 0.001013204
-0.016652467 0.0067000673 0.011060989 -0.15792325 -0.75493151 0.63650507 0.0014269474
-0.013804334 0.006420515 0.011409807 -0.12663625 -0.73387939 0.66737127 0.0011759327
-0.010886357 0.0062936526 0.011745821 -0.085381426 -0.6996398 0.70937592 0.001140206
-0.0069839107 0.0061514238 0.011836832 -0.04645196 -0.7173751 0.69513685 0.001913185
-0.0056537217 0.0060015693 0.011636041 -0.031489734 -0.72217101 0.69099748 0.0013879669
0.0057615885 0.0060815066 0.011670686 0.050087381 -0.72646415 0.6853767 0.00095571164
0.0080270441 0.006207597 0.01184729 0.060754061 -0.70580107 0.70580012 0.0017817345
0.010504727 0.0062913098 0.011703841 0.077002972 -0.6775853 0.73140192 0.0013767389
0.013557459 0.0064829518 0.011487094 0.10174876 -0.70033526 0.70652515 0.0013733251
0.016585885 0.0067738388 0.01129589 0.1321597 -0.7046603 0.69712818 0.0013987562
0.019653797 0.0069724116 0.010831718 0.15347259 -0.70154923 0.69589865 0.0012989057
0.022523159 0.0073172562 0.010457489 0.17016603 -0.70754868 0.68587053 0.00084168511
0.025434777 0.0078513836 0.010213703 0.1862939 -0.69043839 0.69899172 0.00063012523
0.028355539 0.00819143 0.0097968094 0.1957669 -0.69854021 0.68827099 0.00051264383
0.031155115 0.0084759081 0.0093842838 0.20467547 -0.71029878 0.67348617 0.0014023894
0.033422224 0.0088610016 0.0092158495 0.2262176 -0.71508664 0.66142017 0.0028496599
-0.036248606 0.011806848 0.0092169028 -0.35961309 -0.77422875 0.52081507 0.0006403235
-0.034018055 0.01132619 0.009878559 -0.32828721 -0.76869208 0.54894447 0.00060367183
-0.03142339 0.010694393 0.010408244 -0.28950971 -0.77950352 0.5554803 0.0010663146
-0.028631365 0.0098839281 0.010652984 -0.26803946 -0.77272022 0.57537669 0.0010232357
-0.025696361 0.0094038658 0.011392106 -0.23055542 -0.75328523 0.61595899 0.0012029159
-0.02340536 0.0090960916 0.011830613 -0.21387169 -0.73023987 0.64885181 0.0018452653
0.022438573 0.0091382852 0.01197386 0.16635752 -0.65892071 0.73358613 0.00085849053
0.025903428 0.0094483579 0.011674598 0.18328112 -0.65150797 0.7361694 0.00071649085
0.028705617 0.0098175444 0.01120197 0.19118747 -0.63844121 0.74554694 0.00060295657
0.031576332 0.010273675 0.010823019 0.19886503 -0.62671143 0.75344908 0.00031654129
0.034441918 0.010462768 0.010243659 0.22425565 -0.66153067 0.71560228 0.00130786
0.037405197 0.010957859 0.0098128701 0.26018661 -0.6870243 0.67845458 0.0019445423
0.040164784 0.011656813 0.0093900887 0.29334381 -0.66790217 0.68400002 0.002383766
-0.042027645 0.014693638 0.0094444528 -0.41682988 -0.73083299 0.54049599 0.0008840065
-0.039884023 0.014060725 0.009874817 -0.39575803 -0.75273043 0.52609169 0.00096200343
-0.037595168 0.013408952 0.010491416 -0.35279477 -0.75333655 0.55499542 0.00085754506
-0.034910839 0.012576011 0.011068512 -0.32219392 -0.73382431 0.59807444 0.0010658372
-0.032457564 0.012339924 0.011811754 -0.27371576 -0.69727165 0.66248918 0.0012770637
0.032953564 0.012214893 0.011758357 0.20328933 -0.5823822 0.78708601 0.00022171873
0.034771573 0.012336831 0.01165434 0.20727332 -0.59463239 0.77682054 0.00028551478
0.037675675 0.012855339 0.011274084 0.22754554 -0.58842194 0.77587539 0.00080404786
0.040610179 0.013321865 0.010713327 0.27045235 -0.60831487 0.74619609 0.0016247611
0.043466091 0.013784423 0.010015287 0.33346233 -0.65235305 0.68061626 0.0026711281
0.04589526 0.014480121 0.0094280206 0.37537998 -0.67355239 0.63672364 0.0026616219
-0.045581739 0.017465411 0.0098282993 -0.46431234 -0.72654682 0.50650144 0.0010810263
-0.04326367 0.016465902 0.010414349 -0.43235373 -0.71708155 0.5466848 0.00064329623
-0.040749881 0.015413118 0.011072304 -0.39986748 -0.72489148 0.56092632 0.0006760307
0.043744322 0.015748007 0.011490137 0.28032768 -0.55322313 0.78444928 0.0016201325
0.046676889 0.01623388 0.010630126 0.33535621 -0.58738214 0.73655856 0.0016866246
0.049316913 0.016983924 0.0099403122 0.39965174 -0.63787311 0.65832847 0.0025400047
0.051688984 0.017773466 0.009193873 0.44494882 -0.62557834 0.64083719 0.002715566
-0.05134277 0.020922776 0.0094271377 -0.50010753 -0.67125845 0.54708731 0.00088092609
-0.049127296 0.020082098 0.010050986 -0.49380586 -0.67046523 0.55374384 0.00081626314
-0.046698939 0.018869404 0.010741286 -0.4624944 -0.68749273 0.5598684 0.0012058461
-0.044517569 0.018157935 0.011646191 -0.41040733 -0.665703 0.62322176 0.0022442183
0.047247861 0.018585451 0.011878535 0.33395264 -0.54967219 0.76572591 0.00069504976
0.049797624 0.018820209 0.0111783 0.37078971 -0.54554754 0.75159359 0.0014161969
0.052457798 0.019551767 0.010260603 0.40972558 -0.57587212 0.70745754 0.0022342417
0.05494098 0.020424498 0.0094684269 0.48593065 -0.61025697 0.6256659 0.0015291437
-0.054391127 0.02366725 0.0094537847 -0.55077654 -0.62023783 0.55852509 0.001083585
-0.052326545 0.022622924 0.010204975 -0.51358271 -0.65242511 0.55729187 0.0011755793
-0.05011984 0.021719582 0.011134787 -0.4681679 -0.6454168 0.60353619 0.0015944361
-0.047781002 0.021003237 0.011852477 -0.44548136 -0.62976724 0.63634866 0.0014195737
0.050859544 0.021164684 0.011919991 0.38826668 -0.53865826 0.74772745 0.00036067615
0.053029936 0.021524757 0.011464283 0.3940475 -0.50627792 0.7670784 0.0011019183
0.055508941 0.02240961 0.010567511 0.44469664 -0.51064551 0.73585749 0.00097532134
0.057758298 0.022982555 0.0095068701 0.53454983 -0.5541032 0.63814282 0.0017553143
-0.057631511 0.026428822 0.0095000062 -0.61841679 -0.58888805 0.52035713 0.0009446055
-0.055548191 0.025574705 0.010337688 -0.56708896 -0.58014435 0.58467311 0.0017146146
-0.053389736 0.024549879 0.011352213 -0.52570695 -0.59642178 0.60655856 0.00077298988
0.056257039 0.024428912 0.011563741 0.4247418 -0.42527196 0.79921091 0.0020173828
0.058718871 0.025326865 0.010476816 0.51393664 -0.49320653 0.70186639 0.0019262355
0.060761712 0.02607777 0.0096302181 0.57409775 -0.50104547 0.6475842 0.0015092616
-0.060249791 0.029419694 0.0094566839 -0.62441838 -0.50807089 0.59326696 0.0025786958
-0.058324922 0.028594553 0.010357413 -0.60237467 -0.51155639 0.61274362 0.0007959659
-0.056752145 0.027737733 0.011226214 -0.58667839 -0.53853011 0.60480893 0.00089320546
0.059375085 0.027693965 0.011557328 0.46913949 -0.35643309 0.80799973 0.0020931948
0.061447609 0.028028892 0.010159563 0.57457435 -0.4389841 0.69076574 0.0022196649
0.063374586 0.029348079 0.0094878711 0.62734002 -0.41907933 0.65636653 0.0023832605
-0.060981691 0.03140264 0.0098170293 -0.66419005 -0.48796126 0.5663439 0.0014746306
-0.059535392 0.031204984 0.011468285 -0.6135875 -0.39246243 0.68518883 0.0015941807
0.061956856 0.031281851 0.011434151 0.5084905 -0.30289522 0.80603468 0.0012547087
0.064186841 0.031599957 0.0099465046 0.61303365 -0.3462134 0.71015924 0.001765318
-0.063757718 0.035221886 0.009688776 -0.6752758 -0.35783464 0.64494729 0.0015830032
-0.061779354 0.033802718 0.010899315 -0.63375151 -0.36940685 0.67963058 0.0016391756
0.06270019 0.033559497 0.011786914 0.51948315 -0.20087984 0.83053267 0.0015349962
0.064681739 0.034315895 0.010587061 0.59745169 -0.25350359 0.76078081 0.00245415
0.066357434 0.035107568 0.0095265945 0.67867434 -0.27744526 0.6800186 0.0012945458
-0.063988641 0.03736414 0.010450706 -0.67669821 -0.35313872 0.64604378 0.0016926125
-0.06231004 0.036644116 0.011609445 -0.63485807 -0.33764499 0.69494689 0.0012830534
0.065087505 0.037091069 0.011007108 0.57304668 -0.17209207 0.80125016 0.0016845397
0.066843525 0.037486017 0.0097426241 0.67356241 -0.19738759 0.71228635 0.0018830898
-0.065907933 0.039117146 0.0092562297 -0.73019922 -0.33674446 0.59448487 0.0038955703
0.064966992 0.040329337 0.011475857 0.49871871 -0.036504578 0.86599487 0.0022041623
0.06713862 0.040465765 0.010007927 0.66880202 -0.11302698 0.73479843 0.0015513325
0.065463126 0.04329063 0.011213488 0.48555052 0.051094268 0.87271422 0.0018281913
0.067382395 0.043279588 0.0099645928 0.59624308 0.020610621 0.80253935 0.0036861903
0.065790512 0.047449727 0.010331747 0.5379827 0.10614732 0.83624607 0.0041727647
0.067441203 0.046028826 0.0097505152 0.61629498 0.075050987 0.78393102 0.0033995572
-0.0072702663 0.0059776288 0.012057881 -0.055108674 -0.68489182 0.72655779 0.001262944
-0.0039657014 0.0058346228 0.012112021 -0.02877982 -0.72258961 0.69067794 0.0010651408
-0.0015109116 0.0058501638 0.012162438 -0.0045079351 -0.71702021 0.69703788 0.0011235032
0.0015551489 0.0058439486 0.012149674 0.011036976 -0.71066332 0.70344567 0.0010800998
0.0042150472 0.0058924193 0.012119677 0.040779434 -0.70927078 0.70375574 0.00094035821
-0.021867912 0.0087502245 0.012214651 -0.20213273 -0.70736033 0.6773358 0.0014027565
-0.019264111 0.0085471086 0.012439777 -0.18406251 -0.70238191 0.68759054 0.0017385465
-0.016464897 0.0082034124 0.012711531 -0.13949469 -0.6992808 0.70110464 0.0015295654
-0.013481411 0.0078753298 0.012854229 -0.10763513 -0.67645735 0.72857398 0.0015374157
-0.010680909 0.0076882131 0.013054905 -0.078285441 -0.66454476 0.74313641 0.0012425761
-0.0075835078 0.0076255747 0.01320409 -0.044736058 -0.65239316 0.75655919 0.0013952614
-0.0046201455 0.0074761915 0.013219293 -0.023280853 -0.63323486 0.77360946 0.0011532961
-0.0014666853 0.0074438476 0.013226721 0.0040221075 -0.62679768 0.77917171 0.0009933688
0.0015184861 0.0074323094 0.013162171 0.012858174 -0.62308437 0.78204888 0.0020076667
0.0044379975 0.0072998479 0.012991575 0.03137885 -0.61762917 0.78584325 0.0023307463
0.0074801198 0.0075417254 0.01298099 0.052437447 -0.60579664 0.79388958 0.0021353739
0.010519479 0.0076323822 0.012819223 0.084722638 -0.60422558 0.79229641 0.0018738811
0.013526098 0.0079124598 0.012697543 0.098966174 -0.60341048 0.79126567 0.0016960591
0.016606197 0.0082317041 0.012536411 0.11064589 -0.61316788 0.78216541 0.0019073958
0.019127337 0.0085527003 0.012386937 0.13578893 -0.63929397 0.75687832 0.0020023014
0.022197075 0.0087090516 0.012106808 0.1577667 -0.65977752 0.73471308 0.0013523316
-0.030555386 0.011784298 0.012244081 -0.26692811 -0.72378469 0.63630581 0.0010762445
-0.028072238 0.011318638 0.01264258 -0.24033375 -0.69660628 0.67600262 0.0016073157
-0.025465287 0.010865019 0.013033361 -0.2069151 -0.69828337 0.68526375 0.0012968528
-0.022489244 0.010393935 0.013360568 -0.1737494 -0.66773325 0.72383934 0.0014879322
-0.019617677 0.010247406 0.013876905 -0.15222377 -0.6361959 0.75636148 0.0012467745
-0.016359536 0.0097203115 0.014032654 -0.11422007 -0.61997217 0.77626562 0.0011400632
-0.013805057 0.010010174 0.01453025 -0.097367927 -0.61210936 0.78475577 0.0013482395
-0.010270511 0.0094267009 0.014449115 -0.068033829 -0.60468793 0.79355145 0.0010746293
-0.0071866121 0.0094934665 0.014724598 -0.022164173 -0.55234438 0.83332127 0.0012760616
-0.0043842047 0.0094488068 0.014741876 -0.0094837919 -0.5334906 0.84575278 0.0015229505
-0.0017498631 0.0093544535 0.014665327 0.0034798512 -0.52747458 0.84956372 0.0013990683
0.0018009105 0.0093400655 0.014435987 0.024853855 -0.54271072 0.83955187 0.0012991889
0.0045408448 0.0097191473 0.014518592 0.039170068 -0.54043341 0.84047461 0.001134757
0.0077994531 0.010079201 0.014654098 0.060849864 -0.49243248 0.86822093 0.0013104028
0.010632926 0.0096128257 0.014067619 0.073415831 -0.5233435 0.84895331 0.00090516236
0.013201584 0.010275722 0.01417427 0.090864159 -0.5304144 0.8428548 0.0010225739
0.016744239 0.010344294 0.013842332 0.10228501 -0.54051131 0.83509588 0.0010628403
0.019639311 0.010190207 0.013386454 0.1413126 -0.55888593 0.81711525 0.001660177
0.022528348 0.010363515 0.013073058 0.15474412 -0.55959994 0.814188 0.0023394858
0.025362881 0.01079977 0.012843497 0.16839433 -0.58147806 0.79594386 0.001942318
0.028287502 0.011186938 0.012509099 0.18378998 -0.59638625 0.78137356 0.001242748
0.030899018 0.011718809 0.012211104 0.19429734 -0.60287923 0.77381212 0.00052545994
-0.036738288 0.014399569 0.012248461 -0.33297783 -0.70357418 0.62778109 0.0009795248
-0.034459166 0.013862263 0.012763957 -0.30832204 -0.69051009 0.65431905 0.0015958698
-0.031613443 0.013229717 0.013304255 -0.26347807 -0.66622871 0.69765216 0.0013409784
-0.028712615 0.012923834 0.013940745 -0.22798494 -0.64687169 0.72772247 0.0013854363
-0.02549549 0.012593899 0.014561865 -0.203802 -0.65107077 0.73114401 0.00086929323
-0.023064651 0.012155663 0.014602406 -0.16604961 -0.63644075 0.75324011 0.0007044641
-0.020938395 0.012240562 0.014855704 -0.13981707 -0.62080294 0.77139807 0.00056451291
0.017311253 0.012088248 0.014918289 0.089239925 -0.39823705 0.91293132 0.00057189731
0.019987548 0.012501787 0.014776687 0.10419815 -0.3758015 0.92082357 0.0020670171
0.022973772 0.013306673 0.014684958 0.12579353 -0.45047554 0.88388222 0.0014165501
0.025926495 0.012996842 0.014029452 0.15151624 -0.50755036 0.84819537 0.0011217911
0.028573124 0.013147819 0.013682428 0.16591685 -0.52975678 0.83176279 0.0011414149
0.031477701 0.013277135 0.013164976 0.19636546 -0.55596292 0.8076793 0.00097218965
0.034339581 0.013770081 0.012802086 0.20732015 -0.56180435 0.80087101 0.00041723982
0.037199918 0.014319137 0.012399584 0.21958092 -0.54924315 0.80629778 0.00034656341
0.039574593 0.014790608 0.012248943 0.23577674 -0.56285584 0.7922138 0.00084448216
-0.042536199 0.017670974 0.012385363 -0.39231825 -0.65051436 0.65032107 0.0016570666
-0.04030586 0.016803665 0.012857016 -0.36995271 -0.63977516 0.67366374 0.0014718836
-0.03780226 0.016077725 0.013423424 -0.33467716 -0.66279066 0.66985053 0.0016665263
-0.034686718 0.015661171 0.01430146 -0.26900598 -0.64397693 0.71619099 0.00098542834
-0.032298576 0.015471617 0.014702782 -0.2347115 -0.59789026 0.76644492 0.00088107924
0.028786395 0.015308755 0.014882985 0.12157509 -0.32666859 0.93728715 0.0024601221
0.031806745 0.015735246 0.014653579 0.14297895 -0.37970254 0.91399294 0.0028303263
0.034501735 0.015627064 0.013932046 0.19431148 -0.50591308 0.84041357 0.00069745886
0.037540559 0.016174143 0.013497402 0.21753062 -0.50254756 0.83673561 0.00045994591
0.040510181 0.016571332 0.01296362 0.23057519 -0.50786865 0.83000278 0.00038190174
0.043197811 0.016993113 0.012461699 0.25517875 -0.52106208 0.8144803 0.00088416209
0.045515746 0.017731814 0.012190636 0.30136076 -0.53270614 0.79082602 0.0016601016
-0.046019357 0.020167768 0.012625167 -0.44164044 -0.60706216 0.66062796 0.0011783096
-0.043545872 0.019357424 0.013351309 -0.37747142 -0.61284715 0.6942144 0.0018606193
-0.04085274 0.018827282 0.014281633 -0.33447483 -0.55341578 0.76279587 0.0011647843
-0.038046326 0.018494187 0.014961292 -0.29964185 -0.54938972 0.77999085 0.00058415334
0.038376201 0.018280067 0.014569839 0.1974352 -0.40368691 0.89333993 0.001669436
0.040456716 0.018937286 0.014279905 0.22580604 -0.45726928 0.86018395 0.00067247945
0.043348018 0.019402947 0.013709915 0.24279007 -0.44708854 0.86090928 0.00078971236
0.046286613 0.019366436 0.012873825 0.2839914 -0.47947517 0.83033276 0.00098601531
0.049260076 0.020273596 0.012327998 0.33374247 -0.51485777 0.78964388 0.0014810666
0.051364798 0.020961497 0.012059947 0.38096049 -0.5217573 0.76330763 0.0018685599
-0.05174499 0.023734368 0.012274176 -0.49118719 -0.59614664 0.63509399 0.0014041584
-0.04931359 0.022830438 0.012777021 -0.45925069 -0.57841134 0.67418778 0.0013664863
-0.046777211 0.022273429 0.013840654 -0.40699989 -0.54762554 0.73106587 0.00079777569
-0.044495754 0.021510018 0.014559416 -0.36638892 -0.54207802 0.75624764 0.0027564934
0.043671355 0.021576077 0.014752703 0.22865006 -0.38245544 0.89523572 0.00095430767
0.046646588 0.022202034 0.01420641 0.26671004 -0.38766384 0.88237321 0.000748461
0.049627207 0.022404749 0.0133782 0.30952853 -0.41954783 0.85332972 0.0011772654
0.052353472 0.022778671 0.01259182 0.35189879 -0.42953047 0.83166754 0.0021006295
0.054157287 0.023553172 0.012240048 0.4075664 -0.45404467 0.79229605 0.0016487194
-0.054429311 0.026601547 0.012548874 -0.52853221 -0.51852113 0.67215294 0.0016048078
-0.05222813 0.02556436 0.012950571 -0.48997223 -0.51888537 0.70048928 0.0010967967
-0.04952126 0.024882481 0.014170801 -0.44975135 -0.53885853 0.71228868 0.0017109753
0.047439773 0.024580175 0.014942854 0.21210819 -0.24470964 0.94611168 0.0029321199
0.049511869 0.025128741 0.014493467 0.28988394 -0.34129921 0.89413774 0.00066106365
0.052535534 0.025315996 0.013604735 0.33363169 -0.35696363 0.87250614 0.0010731344
0.055321261 0.025617834 0.012605338 0.38647714 -0.39258996 0.83457088 0.0013371198
0.057403211 0.026557514 0.012127546 0.44634864 -0.41234767 0.79419285 0.0018696471
-0.057046838 0.029995451 0.012742269 -0.52142417 -0.38904136 0.7594496 0.0014470633
-0.055116549 0.027958803 0.012612035 -0.53902179 -0.50100631 0.67708802 0.0017335707
-0.053125832 0.02825029 0.01435828 -0.44275808 -0.37994546 0.8121618 0.00086348032
0.052592941 0.028204417 0.014534432 0.27244678 -0.21025746 0.93891674 0.0030523033
0.055524342 0.028094962 0.013475114 0.3705163 -0.31060538 0.8753525 0.00068677193
0.058202952 0.028582931 0.012522437 0.42839572 -0.32889926 0.84160703 0.0017182223
-0.058115978 0.031484161 0.012700396 -0.57197702 -0.36267197 0.73573864 0.002481299
-0.055506427 0.031353779 0.014309393 -0.45265523 -0.27913207 0.84686989 0.0022344985
0.053415004 0.030926937 0.014866509 0.23615529 -0.1192341 0.96437228 0.0020409019
0.056012768 0.030916477 0.0140412 0.35774496 -0.23859884 0.90282285 0.0016068828
0.058928065 0.031182013 0.012945134 0.4107956 -0.25690863 0.8747828 0.001854748
0.060745377 0.031810608 0.012283582 0.46854022 -0.27746862 0.83873785 0.0018243196
-0.06072538 0.035327602 0.012364022 -0.57749534 -0.31313759 0.75395226 0.001228143
-0.058412075 0.033996537 0.01352368 -0.52512616 -0.27958351 0.8037883 0.00098090549
-0.05649757 0.034063876 0.014598464 -0.46500385 -0.25085565 0.84902459 0.0019922287
0.053293839 0.033051066 0.014995829 0.2036809 -0.058434159 0.97729194 0.0013143328
0.055646796 0.034609351 0.014548239 0.26193115 -0.070833623 0.96248358 0.0011282527
0.05859546 0.034281027 0.013729763 0.32356098 -0.10162339 0.94073427 0.0019721021
0.060842983 0.034055043 0.012773316 0.44335222 -0.20756924 0.87198269 0.0017070021
0.055719636 0.036645081 0.014424722 0.26835585 -0.06765537 0.9609412 0.00092559931
0.058706839 0.037471291 0.013847031 0.32255036 -0.070893094 0.94389379 0.0016198643
0.062036723 0.036887884 0.012628262 0.46969977 -0.15011686 0.86996961 0.0014553765
0.063318722 0.037437346 0.012152229 0.49339435 -0.10685984 0.8632167 0.001730807
0.062186923 0.040556651 0.012682821 0.42366451 -0.028160647 0.90538132 0.0025707004
0.063349843 0.040192727 0.012306385 0.49041575 -0.043412048 0.87040669 0.0023633041
0.062988184 0.04287345 0.01222358 0.45388776 0.034044318 0.89040828 0.0019231245
-0.021790663 0.011845623 0.015023823 -0.1461776 -0.60801405 0.78035319 0.0012975048
-0.019466816 0.011662549 0.015258444 -0.11927048 -0.57516646 0.80929482 0.0016537901
-0.016382502 0.011485822 0.015260352 -0.097949043 -0.5730139 0.81367141 0.0009663761
-0.013519953 0.011077255 0.01538673 -0.074319534 -0.56395304 0.82245582 0.001396019
-0.010012342 0.010730734 0.015391389 -0.036333326 -0.53302538 0.84531873 0.0012682164
-0.007512623 0.010783778 0.015558249 -0.0028744198 -0.45619017 0.88987768 0.0022546896
-0.0044832099 0.010675453 0.015410881 0.0025794855 -0.49813861 0.86709356 0.0011795778
-0.0013814729 0.010702858 0.015369503 0.018658442 -0.48363173 0.87507266 0.0010942885
0.0014311578 0.010888358 0.015446486 0.034241389 -0.4096708 0.91159058 0.0021660842
0.0048801824 0.010898253 0.015215888 0.052767687 -0.46819937 0.88204587 0.0013165597
0.0074905739 0.011211616 0.015298924 0.051820859 -0.41154757 0.90991384 0.0021747025
0.010989874 0.011636022 0.015158172 0.067484863 -0.469704 0.88024086 0.0012340283
0.01336897 0.011729543 0.015117611 0.071930163 -0.38004687 0.92216617 0.00052205194
0.015298498 0.011956422 0.015059648 0.0925598 -0.33872923 0.93632007 0.0024157346
-0.030740812 0.014747299 0.015217385 -0.22436605 -0.60421729 0.76457924 0.0013537741
-0.028586052 0.014268542 0.015223603 -0.20574869 -0.61143082 0.764081 0.0012333704
-0.025954723 0.014120458 0.015509345 -0.169634 -0.56528795 0.8072632 0.0012087733
-0.02268802 0.013494654 0.015678167 -0.13082862 -0.53805906 0.83269227 0.0015667351
-0.019359918 0.012940398 0.015901189 -0.10070837 -0.52548283 0.84482282 0.0014241079
-0.016911209 0.012838428 0.01594995 -0.084555149 -0.50227004 0.86056674 0.0013819219
-0.013448633 0.013331565 0.016587099 -0.02016506 -0.36776868 0.92969865 0.002562684
-0.010593469 0.01336387 0.016632274 0.0026927453 -0.33211127 0.94323641 0.0025830232
-0.0075506689 0.013273604 0.016569929 0.025860481 -0.30250698 0.95279628 0.0025819573
-0.0044315513 0.013367123 0.016501108 0.029404927 -0.27775735 0.96020114 0.0024321468
-0.0014480817 0.013298279 0.016382542 0.034497276 -0.26237372 0.96434951 0.0023702357
0.0015444943 0.013390754 0.016275574 0.03879828 -0.25194645 0.96696317 0.0021127933
0.0045264522 0.013308944 0.016120894 0.045562405 -0.24223095 0.96914822 0.0020355592
0.0074342568 0.013434734 0.016010091 0.047408096 -0.24151728 0.9692378 0.0019601185
0.01052771 0.013254559 0.015800422 0.045654215 -0.24470969 0.968521 0.0018663297
0.01356005 0.013480023 0.015667701 0.066986263 -0.27524 0.95903897 0.001692212
0.01659582 0.01349615 0.015467223 0.081456162 -0.29891002 0.95079845 0.0015072325
0.01948756 0.013847146 0.015348374 0.076371491 -0.31310651 0.94664234 0.0019352272
0.022025432 0.014112077 0.015123139 0.10627725 -0.41995499 0.90130073 0.0012455866
0.025162116 0.01468759 0.015068703 0.10528279 -0.38564196 0.91662192 0.001958847
-0.037119158 0.017556276 0.015277289 -0.28271124 -0.56932509 0.77197361 0.0018496622
-0.033911832 0.016967483 0.015502336 -0.24203718 -0.55690223 0.79453003 0.0014787891
-0.031005913 0.015959511 0.01564917 -0.22270843 -0.58941871 0.7765221 0.0012486516
-0.028155521 0.015926402 0.016188718 -0.16485292 -0.53383344 0.82936442 0.0015002706
-0.025632309 0.016461128 0.017063493 -0.089059241 -0.36627826 0.92623359 0.0024136293
-0.022543732 0.016361589 0.01729965 -0.049724087 -0.30942276 0.94962364 0.0034212491
-0.019492568 0.016487744 0.017455624 -0.031269655 -0.26689476 0.96321827 0.0029411728
-0.016491544 0.016338471 0.017460465 -0.011428574 -0.25814342 0.966039 0.0039428789
-0.013408138 0.016294243 0.017379314 0.012202496 -0.22726305 0.97375697 0.0040041632
-0.01056851 0.016058747 0.017256409 0.035185445 -0.19647716 0.97987688 0.003325193
-0.0076606846 0.016286302 0.017149528 0.047048859 -0.17917754 0.98269117 0.0031733003
-0.0045566964 0.016305931 0.016974792 0.05405866 -0.1629549 0.98515147 0.002686589
-0.0014572602 0.016228432 0.016820949 0.033516828 -0.15281273 0.98768669 0.0021383152
0.0015881751 0.01614647 0.016653402 0.028683854 -0.15653844 0.98725528 0.0014169199
0.0045685531 0.016115924 0.016535977 0.032995228 -0.17832653 0.98341799 0.001398509
0.0074996864 0.016401749 0.016406322 0.045327399 -0.20258781 0.9782145 0.00051352783
0.010510134 0.016283987 0.016302422 0.054181963 -0.16749094 0.98438358 0.0020098961
0.013470302 0.016326418 0.016211357 0.058690697 -0.16220899 0.98500949 0.0021815826
0.016432302 0.016259758 0.016073009 0.046047844 -0.15157759 0.98737222 0.0022027262
0.019489491 0.016201703 0.015909093 0.057316151 -0.17646337 0.98263705 0.0017432297
0.022469912 0.016367227 0.015735928 0.062080849 -0.18971531 0.97987455 0.0017845846
0.025559673 0.016267521 0.015480861 0.07155484 -0.21768799 0.97339195 0.0013927574
0.028400062 0.016713524 0.015363588 0.077079102 -0.25679845 0.96338642 0.0020441764
0.031249817 0.017208045 0.015260731 0.097433873 -0.32172599 0.94180626 0.0028090875
0.033904627 0.01751864 0.015081054 0.13034911 -0.37654373 0.91718262 0.0027038148
-0.043195613 0.020967312 0.015144229 -0.34693119 -0.51691353 0.78258491 0.0016376065
-0.040250774 0.01992785 0.015308581 -0.31662428 -0.53412271 0.78387624 0.0018168072
-0.037362643 0.019187246 0.015866425 -0.27037567 -0.50562561 0.81929225 0.0012905991
-0.034492642 0.018954329 0.016497947 -0.21765436 -0.48553991 0.84668624 0.0016408024
-0.031444538 0.019354196 0.017468415 -0.13732326 -0.35780728 0.92364293 0.0018272951
-0.02846466 0.019130763 0.017756559 -0.056011524 -0.23300001 0.97086239 0.002514947
-0.025363293 0.018874248 0.017842891 -0.0094221067 -0.18152857 0.98334056 0.0020161252
-0.02233834 0.018778596 0.017904919 -0.023843205 -0.17462736 0.98434591 0.0017772343
-0.0197047 0.019512013 0.017883642 0.010068884 -0.14065494 0.99000752 0.00058138935
-0.016498294 0.01907157 0.017726386 0.029624706 -0.17414156 0.98427492 0.00093054865
-0.01380007 0.018865969 0.017575506 0.023073357 -0.17958526 0.98347181 0.0014301867
-0.010483675 0.018590739 0.017367758 0.034786277 -0.14707407 0.98851359 0.001001398
-0.0064783976 0.018340107 0.017114775 0.038921695 -0.12413131 0.99150217 0.00081336318
-0.0039139781 0.018078186 0.016950415 0.044268027 -0.10768788 0.99319869 0.00066675839
0.00035802135 0.018013204 0.016705761 0.041025139 -0.10675008 0.9934392 0.00042418312
0.013327025 0.018948695 0.01618251 0.050993502 -0.12174442 0.99125075 0.0006755963
0.017004257 0.018582379 0.016180217 0.036793176 -0.12451568 0.99153525 0.0010157577
0.019596113 0.019156262 0.016100345 0.060629658 -0.13027105 0.98962289 0.00080545637
0.022681858 0.01898668 0.016039165 0.061651874 -0.13148201 0.98939961 0.00092992448
0.02560965 0.019434735 0.015955079 0.070844941 -0.14394411 0.98704666 0.0014161932
0.028528113 0.019213118 0.0158228 0.043906067 -0.13690206 0.98961109 0.0013092578
0.031518627 0.019387545 0.015692722 0.056014691 -0.16426657 0.9848243 0.0015561522
0.03455044 0.019422632 0.015489949 0.073704191 -0.19809179 0.97740853 0.0020746456
0.03739262 0.019877328 0.015332664 0.10969557 -0.26509193 0.95796305 0.0027743874
0.040074121 0.020498779 0.015143248 0.16154195 -0.34369346 0.92508322 0.0028834238
-0.045831803 0.02334859 0.015371068 -0.37779748 -0.47288245 0.79602218 0.0023900114
-0.042730585 0.021815643 0.015493123 -0.33728015 -0.49468374 0.80095577 0.00203982
-0.040592838 0.022005271 0.016293228 -0.29458496 -0.4805094 0.82603288 0.0015095093
-0.037627678 0.02240443 0.017471528 -0.17001231 -0.29615465 0.9398874 0.0040525696
-0.034748919 0.021793349 0.017820999 -0.1344697 -0.21712187 0.96683818 0.0051742108
-0.032372799 0.021293985 0.017929044 -0.079514697 -0.17910698 0.98061109 0.0025175379
0.025303911 0.021637075 0.015994005 0.046919357 -0.10563491 0.99329746 0.00033498576
0.028461568 0.021819562 0.015982034 0.036218088 -0.11578833 0.99261338 0.00046526687
0.031716567 0.022409653 0.01591726 0.049132343 -0.11356848 0.99231458 0.0010583306
0.034631625 0.022369087 0.015888317 0.071761854 -0.12557741 0.98948503 0.0017157216
0.037586566 0.022408664 0.015774043 0.056045305 -0.12640662 0.99039406 0.0019204108
0.040578458 0.022366034 0.015535722 0.090731286 -0.17295974 0.9807409 0.0023726926
0.043039735 0.022733806 0.015308682 0.1430942 -0.24511211 0.95887649 0.0035150247
0.045386001 0.023604551 0.01515934 0.21926872 -0.29012832 0.93152928 0.0013488196
-0.049139202 0.026225906 0.015422575 -0.38575086 -0.41710746 0.8229323 0.0021460319
-0.046508819 0.025355067 0.016087702 -0.302632 -0.37455025 0.87642795 0.002677358
-0.043597754 0.025238834 0.016984068 -0.24306743 -0.29633665 0.92363566 0.0052647693
-0.040789593 0.025341081 0.017684108 -0.20194654 -0.22043902 0.95426637 0.0027860734
-0.038521152 0.02495545 0.017934768 -0.093293451 -0.13236703 0.98680055 0.0036666242
0.035028167 0.024946701 0.015835766 0.041469097 -0.084222309 0.99558371 0.00047112964
0.037771001 0.025145138 0.015854236 0.049979459 -0.10587455 0.9931227 0.00090129627
0.040505711 0.025419312 0.015832745 0.088508852 -0.1231081 0.98843849 0.0013264649
0.043699183 0.02506477 0.015639871 0.12938555 -0.15096302 0.98003548 0.0027779841
