# .PCD v0.7 - Point Cloud Data file format
VERSION 0.7
FIELDS x y z normal_x normal_y normal_z curvature
SIZE 4 4 4 4 4 4 4
TYPE F F F F F F F
COUNT 1 1 1 1 1 1 1
WIDTH 556
HEIGHT 1
VIEWPOINT 0 0 0 1 0 0 0
POINTS 556
DATA ascii
0.024549378 0.0029304044 -0.0032551326 0.23215768 -0.96234536 -0.14140098 0.0019767829
-0.024310105 0.0058829244 -0.0034252657 -0.36936769 -0.88620478 -0.27965799 0.0032990107
-0.022309998 0.0054388475 -0.0043135821 -0.32016671 -0.89649308 -0.30625722 0.0021047341
-0.019457504 0.004514107 -0.0045428216 -0.28842655 -0.89734513 -0.33403867 0.0021252984
-0.016520897 0.0036521002 -0.004671894 -0.26786432 -0.90616417 -0.32728463 0.0018635634
-0.013945823 0.0032453125 -0.0053655752 -0.21229655 -0.9070704 -0.36352915 0.0020868769
0.02087998 0.0031020553 -0.0059732469 0.17005552 -0.89011097 -0.4228282 0.0013285986
0.022988839 0.0032438049 -0.0053182668 0.19949162 -0.92772943 -0.3154698 0.0018173509
0.025524229 0.003606803 -0.0046024718 0.24468459 -0.92759103 -0.28231934 0.0014797562
0.028493688 0.0043880469 -0.0045682974 0.26140833 -0.92145056 -0.28739262 0.0016336556
0.031482194 0.0052568191 -0.0044579268 0.28773484 -0.91838616 -0.27161667 0.0018164282
0.033630237 0.0058206399 -0.0039691771 0.31836683 -0.9122138 -0.2578924 0.0015365746
-0.030793859 0.0087082377 -0.0040270211 -0.35619003 -0.88131827 -0.3104946 0.0016445005
-0.028568208 0.00797306 -0.0045194174 -0.3488411 -0.88356006 -0.31246048 0.0019395103
-0.025537148 0.0067995847 -0.0046596383 -0.35204488 -0.88140047 -0.3149564 0.0018926832
-0.023190575 0.0062263575 -0.0055295727 -0.3218751 -0.86993885 -0.37363452 0.0018444177
0.032657105 0.0060937456 -0.0058711134 0.29257184 -0.89642543 -0.3329013 0.0017600266
0.034787983 0.0064934702 -0.0048037861 0.34425017 -0.89812493 -0.27361175 0.001425677
0.037516784 0.0074763107 -0.0046047252 0.35128668 -0.89433217 -0.27706987 0.0014588597
0.04018946 0.0085004605 -0.0043037082 0.38198158 -0.88928306 -0.25152671 0.0015638162
-0.036981668 0.011553563 -0.0043467698 -0.40987784 -0.86100417 -0.3011179 0.0020793204
-0.034468167 0.010486024 -0.0046032718 -0.38617736 -0.8622902 -0.3276014 0.0015179917
-0.031913865 0.0094752098 -0.0048792027 -0.37772706 -0.86916101 -0.31918862 0.0013480465
-0.029777609 0.0090748472 -0.0059528113 -0.3678413 -0.83255398 -0.41418198 0.0017536808
0.041357387 0.0092703635 -0.0050921128 0.41905522 -0.87079829 -0.25710487 0.0014349577
0.04351978 0.010117243 -0.0045226081 0.42247698 -0.86920351 -0.25690168 0.0014572944
0.046133686 0.011401619 -0.0043693059 0.44938406 -0.85554183 -0.25710338 0.0016135955
-0.04277337 0.014646684 -0.0041767359 -0.48962474 -0.81261992 -0.31609565 0.0017303219
-0.040601257 0.013506569 -0.0045224489 -0.46925545 -0.82671916 -0.31037855 0.0015937501
-0.03833225 0.012424625 -0.0049772784 -0.43790418 -0.84268188 -0.31325251 0.0023167667
0.047338452 0.012282648 -0.0050545586 0.47558782 -0.8388353 -0.26489913 0.0016664742
0.049457356 0.013342115 -0.0045540533 0.49187753 -0.83050251 -0.26138479 0.0016355299
0.051612604 0.014559264 -0.0042682402 0.51108754 -0.81075829 -0.28541294 0.0017865315
-0.046212014 0.01709955 -0.0044515333 -0.5492245 -0.77314359 -0.31717709 0.0016179279
-0.043950569 0.015729174 -0.0049467343 -0.52003425 -0.7929759 -0.31741706 0.0017079666
0.052971855 0.015633294 -0.004761958 0.54008031 -0.79643768 -0.27202994 0.0013452936
0.055220112 0.01707348 -0.0044232593 0.5601123 -0.77836579 -0.28358564 0.0017486961
-0.051591504 0.020779554 -0.0036364901 -0.5652439 -0.76935446 -0.29764596 0.0015157753
-0.049602475 0.019671727 -0.0045933141 -0.57535416 -0.75757706 -0.30829284 0.0019501215
-0.047624696 0.018327557 -0.0049788202 -0.56607562 -0.76386654 -0.30994561 0.0019072564
0.056492019 0.018323487 -0.0052326419 0.57868922 -0.76182103 -0.29111406 0.0018042102
0.058403749 0.019571343 -0.0045042667 0.61186546 -0.74099994 -0.27665833 0.0017057018
0.06022438 0.020777425 -0.0037030403 0.64237005 -0.70907277 -0.29082036 0.002062944
-0.054803345 0.023451688 -0.0042401236 -0.58561957 -0.74536538 -0.31855941 0.0018846431
-0.052672237 0.022062719 -0.0048105982 -0.57263875 -0.75201529 -0.32643193 0.0019009277
-0.050621919 0.021031637 -0.0057504969 -0.57887262 -0.75096774 -0.3177326 0.0016867741
0.059676092 0.021139363 -0.0056261257 0.63792527 -0.6954543 -0.33074889 0.001693096
0.061560433 0.022435851 -0.0045258366 0.67933476 -0.68026692 -0.27521127 0.0013430485
0.063349187 0.023817072 -0.0035341464 0.70753533 -0.64377624 -0.29145455 0.0015354737
-0.058110941 0.026247194 -0.0043844436 -0.6244216 -0.70656097 -0.33297032 0.0020879942
-0.056133687 0.024745762 -0.0048561082 -0.60295069 -0.73052031 -0.32060957 0.0023247516
0.062758721 0.024304375 -0.0057387999 0.69165343 -0.61233914 -0.38295737 0.0022503112
0.064412989 0.025557481 -0.0045374637 0.74133056 -0.59420168 -0.31201476 0.0026843317
-0.060968988 0.028981559 -0.0043984577 -0.68181747 -0.64852142 -0.33844486 0.0020133043
-0.059405211 0.02778984 -0.0050764647 -0.65465766 -0.6630851 -0.36296219 0.0014848877
0.065624975 0.027519023 -0.005201072 0.76320958 -0.5609352 -0.32072246 0.0020587265
0.066830046 0.028708033 -0.0043540359 0.79000819 -0.51277614 -0.33607692 0.0027462209
-0.063691325 0.032093294 -0.0044138157 -0.72217447 -0.58017921 -0.37663805 0.0018957678
-0.062294841 0.03102445 -0.0052423174 -0.68856859 -0.59109724 -0.42009202 0.0014555625
-0.0075033284 0.032970313 -0.0056909602 0.16965057 0.85869521 -0.48359203 0.0011057755
-0.0011036565 0.032080356 -0.0057114232 0.07155624 0.84466523 -0.5304907 0.0011095222
0.0015330733 0.032016948 -0.0054176948 0.048315793 0.84755832 -0.52849841 0.0017683596
0.0037876526 0.031793851 -0.0057054586 0.018274147 0.83082122 -0.55623931 0.0011335521
0.0096180812 0.03198044 -0.00561688 -0.057023093 0.83579195 -0.54607707 0.0012163604
0.013014699 0.032288089 -0.0055963374 -0.11214652 0.86010122 -0.49764356 0.00076986704
0.016460225 0.032732569 -0.0059224726 -0.18260363 0.84973663 -0.4945741 0.00081770867
0.068176195 0.031264398 -0.0047647492 0.82356745 -0.43491969 -0.36411744 0.00251551
0.069273956 0.032418605 -0.0036875941 0.84372866 -0.41733164 -0.33757412 0.003573712
-0.066645093 0.03554618 -0.0038103135 -0.76485515 -0.52464104 -0.37382939 0.0024224387
-0.064645179 0.033825692 -0.0051434804 -0.71937376 -0.53470737 -0.44338399 0.0025904905
-0.016821168 0.035482097 -0.005130365 0.26763871 0.85226566 -0.44945833 0.0004294446
-0.013363378 0.03455887 -0.004978653 0.21468356 0.86837661 -0.447027 0.00033001826
-0.010810631 0.033804037 -0.0052769468 0.20293561 0.85846633 -0.47101244 0.0010331327
-0.0070284512 0.033332743 -0.004449347 0.15200004 0.86062253 -0.48602971 0.0010813419
0.018811151 0.033491958 -0.0054603298 -0.21571785 0.83704352 -0.50281614 0.00080450973
0.026047744 0.035615858 -0.0053032022 -0.24810728 0.84670579 -0.47067198 0.00039726368
0.027572222 0.035838354 -0.0058751768 -0.29276046 0.84119976 -0.45461446 0.00051057141
0.068811208 0.03339218 -0.0055877473 0.83049577 -0.35455978 -0.42960927 0.0048733726
0.069840543 0.034551378 -0.0044898917 0.86027914 -0.34323484 -0.3769742 0.0029635902
-0.067570493 0.037490927 -0.0045997696 -0.7780661 -0.48785859 -0.39573625 0.003023223
-0.024930829 0.038419414 -0.0052156993 0.35205033 0.83522475 -0.42244548 0.00070043653
-0.02211293 0.037361793 -0.0050481888 0.31953308 0.85200417 -0.41471392 0.0002213952
-0.019619668 0.036472075 -0.0049569723 0.30946597 0.84661543 -0.43298173 0.00036571472
0.02995242 0.036782503 -0.0056105377 -0.30489373 0.84068739 -0.44753158 0.0006693186
0.032358624 0.037656777 -0.0055535976 -0.33093226 0.82906479 -0.45070553 0.00074113737
0.070811063 0.037509862 -0.0046356195 0.88509339 -0.23843141 -0.39970013 0.0027381096
-0.069647282 0.040775985 -0.004215335 -0.8248046 -0.40609041 -0.39343098 0.0050779171
-0.068607584 0.03993959 -0.0053281332 -0.78910619 -0.37066391 -0.48981601 0.0043196604
-0.031417947 0.041447371 -0.0050572441 0.39265868 0.81388187 -0.42827031 0.00052221474
-0.028487151 0.040116578 -0.0048898146 0.37218985 0.82750565 -0.42036787 0.00043409181
-0.025786161 0.039037786 -0.0045284261 0.35879263 0.83182049 -0.42348862 0.00068862987
0.03623338 0.039397936 -0.0056334836 -0.39198497 0.78232491 -0.48406148 0.0014888495
0.071356483 0.040298838 -0.0047636977 0.87507838 -0.13738123 -0.46407354 0.0027154784
0.072098188 0.041115344 -0.0033593376 0.9300403 -0.15917206 -0.33119375 0.0025036023
-0.070458144 0.043418497 -0.004706149 -0.82736123 -0.29616863 -0.47723964 0.0030526887
-0.037440814 0.044536509 -0.0049603516 0.42756155 0.81532431 -0.39043221 0.0024826301
-0.034601629 0.043052286 -0.0049824184 0.38317937 0.83441699 -0.3961336 0.0010849353
0.071540214 0.043498665 -0.0051434836 0.86308092 -0.048862942 -0.50269639 0.0027735846
0.072270386 0.043376539 -0.0036445854 0.90509969 -0.079166643 -0.41776466 0.0021401367
-0.072234958 0.046904106 -0.0034854361 -0.83567941 -0.25518402 -0.48633429 0.0026103964
-0.07123296 0.046448797 -0.0049213739 -0.81499279 -0.21315618 -0.53884256 0.0047887727
-0.042845048 0.04736368 -0.0051551173 0.39433587 0.7567082 -0.52143264 0.00095074845
-0.040206388 0.045920461 -0.0052397368 0.44927233 0.79212904 -0.4131417 0.0030451878
0.046543691 0.046240844 -0.0043489547 -0.43990225 0.74768919 -0.49744034 0.00091757666
0.049265161 0.047608733 -0.0049803425 -0.4534713 0.73702806 -0.50115216 0.001065039
0.071478158 0.046599235 -0.0052954326 0.84295368 0.013544964 -0.53781569 0.0029087665
0.072327383 0.046318527 -0.003812127 0.87355739 -0.0053338869 -0.48669183 0.0032271293
-0.072790653 0.049848869 -0.0039684791 -0.77170247 -0.23231153 -0.59203607 0.0056061633
-0.071513131 0.049327992 -0.0053821332 -0.75473964 -0.14424169 -0.63997066 0.0066402694
-0.0487555 0.0504249 -0.0054216138 0.3821201 0.78188944 -0.49257812 0.00063885882
-0.046700083 0.049621619 -0.0048256638 0.41082153 0.77922171 -0.47332793 0.00044631262
-0.044493265 0.048426025 -0.0048323302 0.40810812 0.78274417 -0.46985036 0.00045113341
0.050204802 0.048471719 -0.004518759 -0.46346807 0.74274707 -0.48324344 0.00059425377
0.052216489 0.049258664 -0.0054779444 -0.42689154 0.71254092 -0.55682045 0.0019527045
0.054176904 0.050269108 -0.005815682 -0.40735179 0.70660621 -0.57859504 0.0019129585
0.071353741 0.049629211 -0.0052407575 0.81282669 0.06283538 -0.57910669 0.0037405684
0.072332323 0.049513545 -0.0037586568 0.85025734 0.033530142 -0.5252983 0.0039169369
-0.073296845 0.052560002 -0.0043992698 -0.70517492 -0.17926253 -0.68599796 0.0079533719
-0.071540512 0.052973401 -0.0057888776 -0.53934473 0.037379757 -0.84125507 0.0067329737
-0.055368245 0.053452276 -0.0054535507 0.29712889 0.80402458 -0.51503295 0.0024023789
-0.052308563 0.052600719 -0.0045614857 0.35948828 0.80421102 -0.47330001 0.0009613795
-0.049781345 0.051462464 -0.004275714 0.37789127 0.80251551 -0.46170029 0.00081432727
0.055715941 0.051520862 -0.0052245017 -0.37970155 0.70128143 -0.60334998 0.00050104607
0.058504906 0.053059798 -0.005299517 -0.36294043 0.65989745 -0.65788275 0.0019458237
0.060453482 0.053991623 -0.0055520302 -0.36742169 0.6386736 -0.67608976 0.0023722067
0.071112871 0.052662704 -0.0051448997 0.7339071 0.091109142 -0.6731118 0.0054715946
0.072352387 0.05251627 -0.0035618965 0.80569732 0.048678022 -0.59032393 0.0053956839
-0.073195569 0.055852544 -0.0047600572 -0.49886158 0.12471797 -0.85766107 0.015164077
-0.071326114 0.055851843 -0.0057337224 -0.26469722 0.21795881 -0.93937713 0.01966037
-0.06738425 0.056775693 -0.0058917287 -0.031184206 0.41997793 -0.90699834 0.010490105
-0.064359628 0.05636888 -0.0055696508 0.20491949 0.64606082 -0.73526418 0.0054634167
-0.062134698 0.05584494 -0.0051010847 0.23648222 0.70058942 -0.67323881 0.0062449002
-0.05862831 0.054892443 -0.0046998584 0.26390749 0.78960884 -0.55395913 0.002070891
-0.055272594 0.054163232 -0.0040274309 0.2970669 0.80408144 -0.5149799 0.0023685074
0.059422761 0.054434624 -0.0041062543 -0.3887279 0.65459001 -0.64838463 0.0012400976
0.061853457 0.055530678 -0.0048075984 -0.39955172 0.6083712 -0.68574268 0.0029094722
0.064209715 0.056336187 -0.005631221 -0.16451108 0.53398603 -0.82933408 0.0076065203
0.068313166 0.056711648 -0.0059496751 0.2346216 0.30702886 -0.92232645 0.025333324
0.07069242 0.05567408 -0.005062242 0.58479887 0.11065801 -0.80359507 0.0096171582
0.072273634 0.055598516 -0.0035377203 0.7597456 0.024741605 -0.64974964 0.0064037652
-0.072773799 0.057443161 -0.0049038799 -0.47584859 0.15969704 -0.8649075 0.025018219
-0.07043799 0.057970744 -0.0052917781 -0.15085614 0.36294457 -0.91951811 0.021934589
-0.0676447 0.058399644 -0.0047533261 0.064144216 0.58065116 -0.81162167 0.01245757
-0.064629048 0.057868112 -0.0042084409 0.25888759 0.67854959 -0.68742102 0.0037264391
-0.062438857 0.057340316 -0.003444687 0.2574797 0.69330984 -0.6730718 0.0049693231
0.062577054 0.057519611 -0.0032439828 -0.42294431 0.5627746 -0.71021324 0.0040351683
0.065113917 0.058549743 -0.0046183253 -0.27903619 0.46878451 -0.83808112 0.011976712
0.067700215 0.058563381 -0.0054336363 0.105598 0.28070807 -0.9539665 0.01597913
0.07059446 0.058501948 -0.0047461228 0.47956863 0.13883528 -0.8664518 0.023788869
0.072393447 0.0586848 -0.0033317872 0.69781947 0.010319836 -0.71619934 0.014820692
-0.067316651 0.060083084 -0.0032066626 0.22496733 0.64890015 -0.7268551 0.0066309683
0.065513246 0.061270729 -0.0034408676 -0.43478125 0.32279152 -0.84069669 0.011676519
0.067774862 0.061481681 -0.0045557669 -0.067450061 0.20247729 -0.97696137 0.01945542
0.070570029 0.061480731 -0.0044361693 0.32978898 0.097526863 -0.93900359 0.024060175
0.072358526 0.061621457 -0.0034353922 0.58574694 -0.016188128 -0.81033236 0.024780409
0.067742355 0.064310335 -0.0039025433 -0.23758453 0.19061376 -0.95248103 0.015332636
0.070556693 0.064524822 -0.0042770752 0.23007771 0.034144871 -0.97257304 0.028863929
0.07262554 0.064570934 -0.003447423 0.48828551 -0.053655777 -0.87103283 0.02929757
0.068128176 0.067288011 -0.0036374691 -0.32936394 0.088467218 -0.94004941 0.013345343
0.070570551 0.067444868 -0.0042613046 0.017697673 -0.0034963863 -0.99983722 0.03009963
0.072957985 0.067607969 -0.0036407064 0.52871484 -0.11327469 -0.84120721 0.01873097
0.068236046 0.07001698 -0.0033829662 -0.4113003 0.02536872 -0.91114676 0.0094920909
0.0705854 0.070447288 -0.0043765479 -0.14332816 -0.086746134 -0.98586619 0.024950569
0.073430233 0.070571363 -0.0039820601 0.40175551 -0.21471462 -0.89021915 0.019809484
0.075211912 0.07154081 -0.0031626939 0.68583727 -0.29200426 -0.66660392 0.0099813873
0.068659872 0.073248759 -0.0034841266 -0.51236796 0.040189255 -0.8578251 0.014353057
0.070574574 0.073511302 -0.0045616948 -0.28408816 -0.059067808 -0.95697695 0.019091209
0.07356941 0.073470011 -0.0046825991 0.34736025 -0.17281595 -0.92166996 0.033921134
0.07564088 0.073472537 -0.0035683808 0.49686262 -0.19202587 -0.84631771 0.043502942
0.06880866 0.075733647 -0.0034387349 -0.43749884 0.056209087 -0.89746046 0.021077648
0.070545197 0.075660773 -0.0045964322 -0.20332648 -0.071187958 -0.97651964 0.030453393
0.072868623 0.075304858 -0.0051320931 0.11155245 -0.16754726 -0.97953248 0.035288766
0.07503666 0.07504604 -0.0042399657 0.2900902 -0.25177139 -0.92328697 0.041475628
-0.01599233 0.0027204009 -0.0014874403 -0.24663131 -0.95872229 -0.14150825 0.0014694427
-0.013525091 0.0021273412 -0.0015859635 -0.21275418 -0.96384501 -0.16043213 0.0016263236
-0.010445965 0.0014901096 -0.001577987 -0.16552697 -0.97288048 -0.16156816 0.0027225502
-0.0074208644 0.0010089568 -0.0015965408 -0.14306101 -0.97506726 -0.16963907 0.0032150708
-0.0043597058 0.00065416686 -0.0016084219 -0.099479362 -0.9834339 -0.15153113 0.0041491189
-0.0014436695 0.00043426527 -0.00158505 -0.057510201 -0.98238057 -0.1778229 0.0032223959
0.0014729109 0.00031367334 -0.0016402992 -0.021146223 -0.98752886 -0.15601137 0.0020339629
0.0044768485 0.00029171162 -0.0017218757 0.018424297 -0.98906082 -0.14635332 0.0029042419
0.0075030108 0.00035429801 -0.0015690019 0.044030853 -0.99648643 -0.071246058 0.0052583478
0.010498886 0.0005435276 -0.0016120691 0.076614365 -0.98260212 -0.16918434 0.0048309965
0.013516179 0.00082734268 -0.0015697745 0.11312018 -0.98661637 -0.11743897 0.0051718228
0.016507251 0.0012087673 -0.0015838066 0.14074169 -0.9790765 -0.14697261 0.0035470149
0.019548832 0.0017019841 -0.0015808145 0.16842352 -0.97712338 -0.12985857 0.0027468847
0.022518657 0.0022845261 -0.0015639393 0.19375984 -0.97402841 -0.11715718 0.0018720757
0.024917824 0.0028093401 -0.0013326734 0.21446185 -0.97129768 -0.10289288 0.0020503635
-0.024794685 0.0057210624 -0.0014933808 -0.35632479 -0.91623628 -0.18314928 0.0010040215
-0.02256503 0.0048786695 -0.0014939191 -0.32844847 -0.92526287 -0.18976346 0.0004313291
-0.019521452 0.0038169958 -0.001595622 -0.30818477 -0.93637657 -0.16799173 0.0007176685
-0.017387884 0.0031719438 -0.0017798012 -0.28747618 -0.94485879 -0.15684146 0.0011000346
0.026311129 0.0031972376 -0.0018185474 0.26090574 -0.96006036 -0.10105625 0.0017711309
0.028454989 0.0037642578 -0.0016038591 0.27771544 -0.95572656 -0.09726698 0.0016560281
0.03150006 0.0046797674 -0.0015267931 0.29224089 -0.95201975 -0.090848915 0.0012237132
0.034220558 0.0055962843 -0.0015209056 0.31627059 -0.94412386 -0.092752501 0.0018022619
-0.031501263 0.0084566372 -0.0016142869 -0.37212127 -0.90171319 -0.22008859 0.00066964474
-0.028523982 0.0072377832 -0.0016403926 -0.35548142 -0.91056776 -0.21094875 0.0011243479
-0.02627199 0.0063332687 -0.0016506631 -0.36406606 -0.9103052 -0.19697778 0.00130678
0.035625134 0.0061317333 -0.0018022008 0.3622072 -0.92718232 -0.095597915 0.0018768519
0.037464604 0.0068303063 -0.001608712 0.36757338 -0.92381859 -0.10699986 0.0016421177
0.040488031 0.0080925422 -0.0015739821 0.39186001 -0.91352093 -0.10920192 0.0015652388
0.042338539 0.0088671111 -0.0010589969 0.41757387 -0.90378469 -0.093836129 0.0027553206
-0.03921853 0.011909371 -0.00095728214 -0.47218293 -0.85005963 -0.23332784 0.00093921943
-0.037495162 0.011159536 -0.0016590731 -0.41901296 -0.87923414 -0.22666134 0.00099992589
-0.034529593 0.0097675128 -0.0016474939 -0.40067503 -0.88538611 -0.23569272 0.00076360977
-0.032774378 0.0091277119 -0.0025912824 -0.38214022 -0.89561236 -0.22770028 0.0008396678
0.04378821 0.0096267527 -0.0015733821 0.44642296 -0.88819867 -0.10867218 0.0017350182
0.046526123 0.011035881 -0.0016074564 0.4531095 -0.88478678 -0.1088306 0.0015231034
0.048274469 0.011924782 -0.0010936059 0.48122391 -0.87008959 -0.10661887 0.0019147139
-0.043041941 0.014220354 -0.0016143769 -0.51919949 -0.82698119 -0.21571721 0.001541467
-0.040548783 0.012753025 -0.0016385037 -0.47023979 -0.85095251 -0.23399656 0.00084896659
0.049672488 0.012804062 -0.0016044626 0.51263392 -0.85164827 -0.10909428 0.0018485136
0.052155513 0.014307817 -0.0015017046 0.52174026 -0.84762084 -0.096571811 0.0017493699
-0.048321865 0.017869186 -0.0016754176 -0.58616132 -0.77804881 -0.22595376 0.00085752038
-0.046440437 0.016538454 -0.0017699 -0.55405873 -0.80221397 -0.2224223 0.0010088644
-0.044561103 0.015317902 -0.002264078 -0.55340749 -0.79867429 -0.23634601 0.0019685244
0.053575005 0.015275322 -0.0017653181 0.55135942 -0.82835859 -0.099120885 0.0018467441
0.055503964 0.016579514 -0.0015425753 0.5751707 -0.81184644 -0.10041845 0.0017778472
0.057273149 0.017850541 -0.0014320539 0.59679508 -0.79416978 -0.1145867 0.0022897276
-0.051673468 0.020384977 -0.0015728706 -0.5929597 -0.77695465 -0.21151912 0.0011934837
-0.049848124 0.0190346 -0.0016587755 -0.58065438 -0.77899003 -0.23667514 0.00076704193
0.05877817 0.01908391 -0.0016036108 0.63009393 -0.77040148 -0.097278379 0.001649137
0.060579184 0.020570276 -0.0014494751 0.65610665 -0.74759966 -0.10304711 0.0023379035
-0.055281609 0.02311484 -0.0015025804 -0.60069078 -0.77260232 -0.20556335 0.0012273784
-0.053076994 0.021526605 -0.002108372 -0.59387106 -0.77555144 -0.21409586 0.0010097193
0.062025368 0.0219716 -0.0016408047 0.69417304 -0.71308875 -0.098123156 0.0017031642
0.063454002 0.023368588 -0.0013996139 0.730883 -0.67346519 -0.11070092 0.002579665
-0.060051747 0.026959738 -0.00054051902 -0.6680178 -0.72470725 -0.16897263 0.0015679121
-0.0583646 0.025630489 -0.0016278393 -0.65044934 -0.73330635 -0.19793314 0.00075011805
-0.056759175 0.024271673 -0.0016413765 -0.63418996 -0.7424854 -0.2156813 0.0010058261
0.064949863 0.02512826 -0.0017003963 0.7687428 -0.62874103 -0.1171284 0.0026075654
0.066267259 0.026686409 -0.0012351357 0.79014879 -0.59752995 -0.13646516 0.0029428797
-0.061429329 0.028508866 -0.0014662454 -0.71263778 -0.67674261 -0.18484272 0.00059838162
-0.059929673 0.027083348 -0.0019786516 -0.68782896 -0.69812268 -0.19878674 0.0013975349
0.067454033 0.028432505 -0.00160041 0.82350975 -0.54952025 -0.14092268 0.0027661438
-0.064008981 0.031515557 -0.0019776716 -0.75406677 -0.63170755 -0.17980219 0.0019557918
0.068683363 0.030411312 -0.0016271706 0.85371733 -0.50401628 -0.13089806 0.002789926
0.069540501 0.031927556 -0.0015541861 0.88425052 -0.4424471 -0.14947069 0.0034668418
-0.066646874 0.034745492 -0.0017063883 -0.7921077 -0.56912524 -0.22059424 0.0018520169
-0.065504946 0.033493031 -0.0023277686 -0.76737326 -0.59799653 -0.23138377 0.0011504604
0.070754759 0.034609448 -0.0015823776 0.91632736 -0.36299768 -0.16904727 0.0026031528
-0.069397397 0.038537167 -0.0010501178 -0.82400471 -0.51038587 -0.24601313 0.0053707664
-0.068095885 0.036774851 -0.0019097925 -0.81361455 -0.5384897 -0.21922638 0.0014958651
0.071693949 0.037471876 -0.0019834745 0.93051541 -0.30584675 -0.20149139 0.0034321074
0.072144367 0.038406756 -0.00075589586 0.95464659 -0.24342351 -0.17144886 0.0042244992
-0.070207506 0.040378116 -0.0021629338 -0.84716231 -0.43157178 -0.30993837 0.0035786573
0.071948655 0.039294124 -0.0029446948 0.93768334 -0.20669347 -0.27933443 0.0034011768
0.072430685 0.040501017 -0.0015468812 0.968876 -0.17444113 -0.17564057 0.0038347137
-0.072355829 0.044808853 -0.00086068996 -0.90380031 -0.32961476 -0.27294546 0.0021434436
-0.071601361 0.043788612 -0.0024446896 -0.86979949 -0.32505611 -0.37119731 0.002916486
0.072819591 0.043450128 -0.0016187455 0.96903145 -0.10432146 -0.22381902 0.0032315296
-0.072682396 0.046485223 -0.0019298301 -0.85454369 -0.27780184 -0.43884081 0.0038562994
-0.038262028 0.045805011 -0.0021220066 0.44653141 0.82080412 -0.35621664 0.0010041412
0.072918437 0.046371926 -0.0021161016 0.92359769 -0.022120137 -0.38272429 0.003213333
-0.073758215 0.049557351 -0.0019724627 -0.82493722 -0.27772745 -0.49228647 0.0054432261
0.073066548 0.049441263 -0.001649475 0.94549078 -0.0022562775 -0.32564104 0.0054361979
-0.075412259 0.052548103 -0.001201615 -0.78060508 -0.2393176 -0.57739317 0.012902626
-0.074534476 0.05162438 -0.0024245195 -0.78552425 -0.27674285 -0.5535025 0.0092302822
-0.052249249 0.053341944 -0.0027784959 0.35950956 0.80420005 -0.47330236 0.00095935352
0.073097087 0.052414507 -0.0017456328 0.8835991 0.012722916 -0.46807125 0.0056062839
-0.075621188 0.054836668 -0.002316602 -0.71037799 -0.13621446 -0.69051337 0.011694336
-0.060317632 0.056664694 -0.0024437478 0.3511256 0.761105 -0.54537147 0.0033235734
0.073024258 0.055642661 -0.0020872506 0.84052759 -0.0006961163 -0.54176825 0.0083844038
-0.064363576 0.059083384 -0.0024451711 0.36945212 0.69024056 -0.62215203 0.0028377112
-0.062016446 0.057757974 -0.00220518 0.36901414 0.7436648 -0.55748653 0.0025522681
0.063549891 0.059305876 -0.0024183923 -0.46648622 0.44477201 -0.76457077 0.0087615289
0.07326559 0.058424126 -0.0018416609 0.78718185 -0.020365478 -0.61638457 0.0092954189
-0.066594861 0.060381033 -0.0022556041 0.28099167 0.689744 -0.66730577 0.0081735728
0.064807713 0.061643407 -0.0023770141 -0.43474761 0.32278368 -0.84071708 0.011683872
0.073442243 0.061475854 -0.0020381857 0.73489672 -0.056588609 -0.67581403 0.01009321
0.065531813 0.064464167 -0.0018934219 -0.47983453 0.21434134 -0.85077417 0.014909741
0.066337369 0.065096356 -0.0027937365 -0.47984883 0.21436015 -0.85076135 0.014903869
0.073987313 0.064522065 -0.0018345305 0.73267025 -0.079472795 -0.67592788 0.013845608
0.065937236 0.066608608 -0.0016615737 -0.61576247 0.17214908 -0.76889616 0.005384862
0.066666335 0.067699529 -0.0023099112 -0.54280972 0.12872697 -0.82993191 0.0085283304
0.074434139 0.067309432 -0.0021738836 0.7423256 -0.22566523 -0.63089448 0.021575006
0.075336628 0.068302773 -0.00095032033 0.8234126 -0.24881467 -0.50998342 0.012160074
0.067408636 0.070311479 -0.0024319328 -0.41143173 0.031382535 -0.91090018 0.0092827296
0.074792705 0.069570161 -0.002657037 0.7695154 -0.30341402 -0.56194842 0.012373004
0.075791419 0.070681266 -0.0016296719 0.78982723 -0.28878298 -0.54108906 0.012187306
0.0677016 0.0734201 -0.0021831049 -0.60696852 0.057966892 -0.79260904 0.00454072
0.076710641 0.072954379 -0.0017701929 0.77394772 -0.23877685 -0.58650708 0.027784243
0.06800811 0.075637899 -0.002257409 -0.54595739 0.054422785 -0.83604354 0.0095682619
-0.018297393 0.0028953569 0.0022952585 -0.24097526 -0.9703508 0.018715233 0.0060111638
-0.016387982 0.0025577571 0.0016541936 -0.22957626 -0.97299266 -0.024082918 0.0027522098
-0.01352721 0.0019355417 0.0015260316 -0.2072847 -0.97813576 -0.016835133 0.0011735564
-0.010508083 0.0013825974 0.0015615782 -0.16697937 -0.98549932 0.030148637 0.0031634644
-0.0075319041 0.00094696105 0.0014445898 -0.1384612 -0.98931015 0.045759767 0.0033386287
-0.004585281 0.00060444872 0.001080138 -0.094955094 -0.99429494 0.048591748 0.004230937
-0.001425554 0.00039261533 0.0014170497 -0.039179064 -0.99394268 0.10267899 0.0059459805
0.0019270036 0.00025868768 0.00099181011 -0.011585624 -0.99942315 0.031925391 0.0020585658
0.0045588897 0.00025570448 0.0011386239 0.023802176 -0.99679101 0.076427095 0.0043235612
0.0073657259 0.00033962587 0.0013810979 0.044106595 -0.99791116 0.047200486 0.0053678066
0.010618336 0.00053458544 0.0012425076 0.085134193 -0.99471498 0.05739554 0.0051800264
0.013774001 0.00085279375 0.001314652 0.1141782 -0.98902053 0.093818069 0.0045334757
0.016575538 0.0012342994 0.0014112912 0.14620301 -0.98711622 0.065008655 0.0046700952
0.019512238 0.0016842285 0.0012334677 0.17671262 -0.9807474 0.083109565 0.0030488493
0.022500152 0.0022666147 0.001308136 0.19437416 -0.97815633 0.073681787 0.0026028247
0.024852971 0.0027746556 0.0011129306 0.22011088 -0.97096217 0.09372133 0.0026244547
-0.027591402 0.0058616432 0.002037975 -0.34526539 -0.92894292 -0.13362953 0.0060817595
-0.025427694 0.0053291037 0.0016468394 -0.32829869 -0.93400836 -0.14088425 0.0033934547
-0.022390781 0.0043505169 0.0015363559 -0.31642962 -0.94381487 -0.095319025 0.0020380267
-0.019551225 0.0034601558 0.0014573544 -0.28114614 -0.9576174 -0.062655248 0.0018836334
-0.017775761 0.0031347119 0.00070534303 -0.2733081 -0.95993918 -0.061802145 0.0019228753
0.026270337 0.0031695708 0.0014912913 0.25567678 -0.96245152 0.091194272 0.0020564201
0.028585486 0.0037879583 0.0013133468 0.2808533 -0.95778936 0.061326861 0.0024711289
0.031475037 0.0046685622 0.0013617048 0.29399216 -0.95217705 0.083230875 0.0016242409
0.03422254 0.0055940147 0.0013463809 0.3179639 -0.94683242 0.049065657 0.0019273061
-0.034167062 0.0084907459 0.0018420471 -0.38356254 -0.90438312 -0.18700515 0.0022809745
-0.031469584 0.0076828729 0.0014106616 -0.35737687 -0.91899681 -0.16651316 0.0042443783
-0.028663062 0.0067071379 0.0012492836 -0.35626265 -0.91948771 -0.16619061 0.003619821
-0.026395103 0.0061815307 0.00076123304 -0.3334043 -0.92801803 -0.16620542 0.0023824598
0.035708454 0.0061339936 0.0013209282 0.36003807 -0.93151277 0.051542167 0.0019500405
0.03741895 0.0068069212 0.0014406709 0.37951264 -0.92095995 0.088334903 0.0019388463
0.040483754 0.0080731222 0.0012889666 0.38320079 -0.91770273 0.1047802 0.0017922207
0.042333916 0.0088722343 0.0011765208 0.41043487 -0.90597212 0.1037193 0.0020260382
-0.04220853 0.011954461 0.002724902 -0.51424062 -0.84717524 -0.1336064 0.012795339
-0.040157203 0.011406399 0.0016464096 -0.4545131 -0.86467767 -0.2138934 0.004510418
-0.037471738 0.010239776 0.0014658821 -0.43507016 -0.87162399 -0.22579992 0.0022235063
-0.034872625 0.009455014 0.00089901895 -0.40333003 -0.89013708 -0.21208701 0.0023062201
0.043767106 0.0095994836 0.0013041649 0.44478434 -0.89051068 0.095695972 0.0019219574
0.046463192 0.01099315 0.0013995174 0.45672691 -0.88519865 0.0884526 0.0016646525
0.048220668 0.011885044 0.00082823023 0.48359936 -0.87215501 0.074009545 0.0016405853
-0.045728892 0.014509358 0.0019947875 -0.53356922 -0.81387484 -0.23002522 0.0041816602
-0.043475121 0.013491735 0.0014832894 -0.51614481 -0.82280314 -0.23788548 0.0041844458
-0.041188661 0.01255278 0.00097788288 -0.47946176 -0.84558558 -0.23473716 0.0039198305
0.049662691 0.012809917 0.0015581503 0.51306701 -0.85388231 0.087448724 0.0017527216
0.052069049 0.014247197 0.0012946256 0.52983755 -0.84470475 0.075802863 0.0016171248
-0.049023796 0.017161177 0.0017507918 -0.57941717 -0.78286105 -0.22672528 0.0026713239
-0.04668868 0.01585347 0.0013078861 -0.56006861 -0.7928434 -0.240255 0.00360839
-0.044786125 0.015119568 0.00074244523 -0.5173744 -0.8259505 -0.22389615 0.0040298752
0.053624492 0.015266433 0.0013270568 0.55284131 -0.82989395 0.075116828 0.0016898158
0.055566877 0.016627615 0.0014441641 0.58382785 -0.80828846 0.076254047 0.0018797256
0.057285164 0.017828988 0.0011501246 0.59848392 -0.79640055 0.086966991 0.0019469833
-0.054425895 0.020846911 0.0023425063 -0.59056914 -0.77230686 -0.23403028 0.0034256561
-0.052359249 0.019758986 0.001782379 -0.59027946 -0.76570517 -0.25547165 0.0032209952
-0.050169822 0.018614804 0.0012099524 -0.59157336 -0.7736854 -0.22683018 0.0026649926
0.058680966 0.019009599 0.0015018709 0.62894815 -0.77435148 0.069310807 0.0018228345
0.060474809 0.020449722 0.0011595777 0.6626873 -0.74701095 0.053106878 0.0018535135
-0.057527836 0.023678714 0.0022189741 -0.64799088 -0.73107421 -0.21363162 0.0031837735
-0.055652898 0.022539064 0.0016812863 -0.61123943 -0.7542094 -0.23990509 0.0040343632
-0.053579424 0.021379923 0.0011744864 -0.58843374 -0.77334428 -0.23597492 0.0031902213
0.061960887 0.021878501 0.0013257721 0.69411129 -0.71794999 0.05250974 0.0017180623
0.063465387 0.02335521 0.0011791624 0.73091334 -0.67959708 0.062557153 0.002188486
-0.06040993 0.026406683 0.0025461873 -0.69487792 -0.69685858 -0.1775748 0.0014998829
-0.05860655 0.025165861 0.001710028 -0.67095077 -0.71483636 -0.19706379 0.0021704882
-0.056945972 0.024206817 0.00025709657 -0.60968232 -0.7549336 -0.24158406 0.003289694
0.064902812 0.025041239 0.0013752598 0.76277953 -0.6431511 0.067261204 0.0021063779
0.066125236 0.026517728 0.0013394147 0.79588223 -0.59881717 0.089383289 0.0027786139
-0.063022941 0.029535631 0.0023361894 -0.76225048 -0.63787907 -0.10992949 0.00084206834
-0.061547685 0.027872076 0.0022277471 -0.70665342 -0.68561012 -0.17487036 0.0011561665
0.067401402 0.028293855 0.0011973806 0.8272664 -0.55625153 0.078832231 0.0026146241
-0.064322501 0.031364821 0.0020877472 -0.7733289 -0.62296891 -0.11777941 0.00068394153
0.068691842 0.030422663 0.0014746062 0.85686475 -0.51449257 0.032865584 0.0021137099
0.069582425 0.031868044 0.00095873949 0.88239688 -0.47048548 -0.0043710019 0.0030470081
-0.066917986 0.03489336 0.001436008 -0.82690567 -0.56232852 -0.0037124194 0.0012747047
-0.065812379 0.033389024 0.001469595 -0.81100905 -0.58313996 -0.047034614 0.00057745341
0.070890456 0.034676857 0.00082911173 0.92516053 -0.37709731 -0.043308515 0.0025778839
-0.069336556 0.038481548 0.0012818334 -0.86039138 -0.50748539 0.046747211 0.0011569905
-0.068357028 0.037019651 0.0016600648 -0.82873875 -0.55913639 0.023636054 0.00060397101
0.071682572 0.036994271 0.0012229842 0.94748652 -0.31978837 -0.0021479072 0.0037758127
0.072195396 0.038623881 0.00085323013 0.97132748 -0.23605908 -0.028266514 0.0040934691
-0.070303231 0.040023744 0.00048003599 -0.87346709 -0.48486391 -0.044297703 0.0047212485
0.07243681 0.040291257 0.0013909083 0.98137128 -0.15413211 0.11469013 0.0030706653
-0.071794786 0.043205917 0.00039245118 -0.89601994 -0.40302441 -0.18633185 0.0037337972
0.07292027 0.04345081 0.0012211296 0.98954588 -0.095608324 0.10797256 0.0036444394
0.073122628 0.046582825 0.0012660975 0.98889345 -0.02054205 0.14719969 0.0056741768
-0.074045308 0.049377728 0.00029844613 -0.8692528 -0.33512497 -0.36344296 0.0048955227
0.073115028 0.049534436 0.0015980835 0.98784339 -0.029983718 0.15253346 0.0055718981
0.073266216 0.052432623 0.001065798 0.99961126 -0.021049386 -0.018283222 0.013751207
0.07329195 0.05558325 0.0013243433 0.99003905 -0.069687076 -0.1223374 0.011967351
0.073603258 0.058575444 0.00095995702 0.95531535 -0.096209735 -0.27949303 0.0055149505
0.073964156 0.061536692 0.00080733764 0.94165772 -0.086446628 -0.32528111 0.0063065747
0.074486554 0.064325765 0.00065054733 0.93016416 -0.20234451 -0.30635187 0.012011188
0.074607015 0.066597499 0.0015498444 0.95868921 -0.22088617 -0.17923267 0.0053479862
0.075417221 0.068173215 0.00038704977 0.85151553 -0.25785103 -0.45654592 0.016065232
0.075952448 0.070571512 0.0011788545 0.95831221 -0.28569043 -0.0043360139 0.018904828
0.076928906 0.072872229 0.001199896 0.95334977 -0.22424959 -0.20208022 0.046105273
-0.018251978 0.0029347921 0.0033006391 -0.21610025 -0.95369065 0.20922457 0.010328489
-0.016148493 0.0026561115 0.0040148906 -0.19705342 -0.96407044 0.17815176 0.0061161565
-0.013499338 0.002235461 0.0043284995 -0.17435399 -0.95211756 0.2511431 0.0036413178
-0.010838208 0.0016741318 0.0039137392 -0.15790689 -0.97170067 0.17567894 0.0026867623
-0.0073904768 0.0013562544 0.0042790221 -0.097853482 -0.94966012 0.29760757 0.0032972873
-0.0045745699 0.0011144341 0.004239813 -0.070791915 -0.95813257 0.27743566 0.0043834848
-0.0014362384 0.0010436676 0.0044448199 -0.022328625 -0.94465989 0.32729053 0.0025490345
0.0015799914 0.001089162 0.0046479264 -3.1206207e-05 -0.93679351 0.34988278 0.002617362
0.004518664 0.001119165 0.0045968662 0.024448309 -0.93079787 0.36471584 0.0027121324
0.0076019522 0.0010990584 0.0042294366 0.056468103 -0.93133026 0.3597711 0.0019344285
0.010282077 0.0013484495 0.0044052396 0.072615758 -0.92797351 0.3655026 0.0020454011
0.013278808 0.0015551734 0.0042995256 0.10990538 -0.91944796 0.37753969 0.0027877293
0.01641136 0.0019090216 0.0042321738 0.12316526 -0.91804922 0.37685016 0.0033079069
0.019451857 0.0023381757 0.0041771973 0.14945774 -0.92112613 0.3594287 0.0040695546
0.022548035 0.0027218666 0.0035549861 0.21194389 -0.95030135 0.22805077 0.0024969077
-0.027497508 0.0058340612 0.0034652248 -0.2899867 -0.95435154 0.071559861 0.010748874
-0.02483109 0.0050475067 0.0037369905 -0.28570637 -0.94767261 0.14243801 0.0091682635
-0.022679314 0.0046065501 0.0045063579 -0.28838423 -0.93447852 0.20876883 0.0066117328
-0.019364856 0.0035574129 0.004264357 -0.27539945 -0.93632078 0.21785 0.0059285103
-0.016255118 0.0032331068 0.0054885894 -0.21036232 -0.93470722 0.28647885 0.0040910821
-0.014128617 0.0030237089 0.0059568863 -0.15949681 -0.92471355 0.3456381 0.004071773
0.020467006 0.00311168 0.0055417512 0.16301924 -0.88848907 0.4289661 0.0055189813
0.022942094 0.0033245382 0.0049726404 0.19548906 -0.90411502 0.37994748 0.0048922519
0.025573939 0.0036695756 0.004312926 0.22776756 -0.91055673 0.34497586 0.0030143848
0.028134668 0.004271734 0.0040659807 0.25101388 -0.93587226 0.24725492 0.002254779
0.031445518 0.0053103422 0.0042874338 0.27318543 -0.90843278 0.31641671 0.0026473389
0.033483084 0.0057350816 0.0036141358 0.31221011 -0.89574921 0.31647798 0.0028964272
-0.03368672 0.0081896558 0.0035534552 -0.3489224 -0.9371475 0.0027852275 0.0094249416
-0.031407107 0.0074060317 0.0039114524 -0.35555345 -0.92397839 0.14087462 0.012735832
-0.028836191 0.0067375079 0.0047168117 -0.32931423 -0.92465121 0.19123878 0.010043612
-0.026439561 0.0062528499 0.0055745956 -0.27725437 -0.918118 0.28317723 0.0051441691
0.032572433 0.006164182 0.0055492548 0.26492882 -0.89601487 0.35632858 0.0035778591
0.034656562 0.0065184422 0.0046218615 0.32195896 -0.8865757 0.33215359 0.002418282
0.037454158 0.0075192759 0.004458758 0.34400395 -0.8784042 0.33176398 0.0027662003
0.040302258 0.0086015314 0.0041402457 0.38908118 -0.89332294 0.22492197 0.0020753837
-0.040138692 0.01118474 0.0039195288 -0.44170851 -0.89521307 -0.059052918 0.0099402787
-0.038093075 0.01014738 0.003747276 -0.43064451 -0.9019022 -0.033432405 0.0038188926
-0.035309542 0.0093321837 0.0050184331 -0.39300588 -0.89964956 0.19020256 0.014115853
0.041434884 0.009234732 0.0044623949 0.40576538 -0.88577169 0.22530653 0.0017364891
0.043245245 0.0099284854 0.0040217931 0.41937995 -0.88075322 0.21998668 0.00180728
0.046165772 0.011432486 0.0041442877 0.44656441 -0.84777075 0.28612053 0.0020855758
-0.045785386 0.014549898 0.0041732807 -0.51639831 -0.85357934 0.068812788 0.020568313
-0.043515164 0.013216011 0.0043652998 -0.50072515 -0.83759373 0.21842866 0.0081649795
-0.041554332 0.012296879 0.0049705356 -0.48632857 -0.86198163 0.14308119 0.019849189
0.04731404 0.012355519 0.0049364567 0.4761261 -0.83137691 0.28655955 0.0018766588
0.049510162 0.01341274 0.0043907976 0.47993863 -0.83081096 0.28180146 0.0019391315
0.051615812 0.014525464 0.0039556185 0.50660729 -0.80573583 0.30682057 0.0018731029
-0.049015749 0.016626529 0.0036353001 -0.59783804 -0.79501498 -0.10266843 0.0088158268
-0.047130831 0.015639096 0.0046661636 -0.58083004 -0.80384439 0.12833853 0.010023672
0.053205296 0.015682008 0.0041399784 0.5474388 -0.81088418 0.20682707 0.0011773604
0.05526673 0.017133905 0.0042533162 0.55178452 -0.77747202 0.3017799 0.0017841945
-0.054515198 0.020762049 0.0039532515 -0.58118552 -0.81067032 0.070972107 0.024799025
-0.052586664 0.019442825 0.0043015564 -0.57993197 -0.81414634 -0.029063677 0.018376876
-0.050555419 0.018337743 0.0053238478 -0.55810213 -0.8168484 0.14587934 0.016028391
0.056699105 0.018457314 0.0048791794 0.58981055 -0.7455287 0.31033927 0.0017803523
0.058441047 0.019571709 0.0042156186 0.61693281 -0.72698742 0.30146828 0.0020574844
0.060282189 0.020741306 0.0034097235 0.63564283 -0.71062672 0.30160901 0.0022172602
-0.057532471 0.023189144 0.003729749 -0.72519702 -0.68700373 0.045990605 0.021781767
-0.055887409 0.021922227 0.0037265457 -0.64675295 -0.76210362 -0.030144902 0.0078392783
0.059615184 0.02121111 0.0055366885 0.63208961 -0.70366484 0.3245281 0.0017909372
0.061460502 0.022345439 0.0043427609 0.65533561 -0.69111979 0.3047764 0.002243185
0.063119888 0.023693657 0.0036780084 0.70446986 -0.64699286 0.29175758 0.0018724443
-0.06043902 0.026352663 0.0043983469 -0.71926868 -0.69373697 0.037171531 0.0084978053
-0.058871765 0.024788413 0.0044393768 -0.68544412 -0.71001333 0.16139232 0.010877698
0.062773734 0.024289951 0.0055169733 0.69036007 -0.62515491 0.36412144 0.0024202941
0.064270526 0.02536555 0.0042738719 0.73290408 -0.61618006 0.28839871 0.0011052957
-0.063305117 0.029518634 0.003613608 -0.77525157 -0.62074649 -0.11687125 0.00091004319
-0.061958112 0.027887076 0.0036244134 -0.73149109 -0.66555214 -0.14819276 0.0016462972
0.065327041 0.027439062 0.0054360656 0.75560033 -0.57801855 0.30816019 0.0019963491
0.067041628 0.028785845 0.003837269 0.79533476 -0.54908043 0.2568137 0.0028615226
-0.064131349 0.030776609 0.0035629128 -0.76948321 -0.62653106 -0.12391291 0.0011538002
0.068242863 0.031208182 0.0045099123 0.82450211 -0.42927164 0.36867622 0.0023226317
0.069293693 0.032542769 0.0037453354 0.84089106 -0.4074558 0.35620505 0.0029812302
-0.06668555 0.034663081 0.0038552023 -0.83177239 -0.55511266 0.0021830457 0.0010004131
-0.065972634 0.033395048 0.0030886377 -0.82164073 -0.56876403 -0.037603118 0.00036245518
0.06877844 0.033741508 0.0059130895 0.77849716 -0.35436523 0.51804203 0.0016916275
0.069931976 0.034604192 0.0043267105 0.86815178 -0.33077437 0.37000114 0.0020079014
-0.068495147 0.037745301 0.0035713047 -0.83675081 -0.54648596 0.034659583 0.00053135422
0.070931159 0.037475988 0.0043613892 0.89248627 -0.27231526 0.35960084 0.0025238544
0.071506061 0.040258337 0.0045095328 0.92505616 -0.19748168 0.32445672 0.002196067
0.07217472 0.041323349 0.0033127877 0.96527082 -0.1744297 0.19449055 0.0036966496
0.071912304 0.043427818 0.0045814044 0.94079375 -0.1090806 0.32094955 0.0020165392
0.072498351 0.043394811 0.0031479262 0.97394776 -0.08320982 0.21095473 0.0052920887
0.071756229 0.046533279 0.0051222104 0.94873822 -0.032177176 0.3144207 0.00051915308
0.072579771 0.046470806 0.0033912808 0.97665882 -0.036690168 0.21163988 0.0042119836
0.072258681 0.049520355 0.004123935 0.9782874 -0.030956808 0.20492813 0.0039795586
0.072554804 0.052504361 0.0033743074 0.99068016 -0.051579092 0.12606557 0.004107092
0.075609505 0.073001184 0.0033809391 0.9712227 -0.23004204 -0.061702151 0.021537855
-0.010439043 0.0025823275 0.0063886717 -0.12222818 -0.88645095 0.44639111 0.00086595886
-0.0071286652 0.0025258767 0.0070134187 -0.078474663 -0.88576984 0.45744234 0.0012337286
-0.0045049838 0.0022858013 0.0069473479 -0.039817039 -0.88348693 0.46676058 0.0010332346
-0.0016037129 0.0021765013 0.0069734249 -0.029323459 -0.89656222 0.44194606 0.0021360137
0.0016531334 0.0023126146 0.0072842399 0.010885322 -0.8727684 0.48801315 0.00078007521
0.0047954083 0.0022165608 0.0069598183 0.04456871 -0.87307465 0.48554537 0.0011220848
0.0077195955 0.0024184808 0.0069826143 0.060285918 -0.86632156 0.4958353 0.00092332077
0.010479223 0.0025972242 0.006833686 0.087815486 -0.87043071 0.48439538 0.00061769824
0.013367997 0.0027074264 0.0064342991 0.1076352 -0.87199163 0.47754073 0.0017148459
0.015976498 0.0027466803 0.0060983817 0.11811133 -0.85012031 0.51317173 0.00069140672
-0.024560489 0.0058632963 0.0060680374 -0.28531253 -0.87248319 0.39669886 0.00038941775
-0.022588588 0.0056124963 0.0068957983 -0.27771235 -0.89962816 0.33696434 0.0021698575
-0.019183453 0.0046791686 0.0069571463 -0.23734424 -0.89767647 0.37127432 0.0022934761
-0.016277991 0.0040965071 0.0071861423 -0.19347498 -0.90451413 0.38002846 0.0018904012
-0.013477746 0.0035662767 0.0072541274 -0.16413459 -0.87063092 0.46374741 0.00079513359
-0.010423814 0.0033099458 0.007690582 -0.11781703 -0.87152433 0.475988 0.0012564107
-0.0077709258 0.0031866673 0.008053394 -0.0964716 -0.87460101 0.47514868 0.0013218739
-0.0051586465 0.0032456054 0.0085507557 -0.048104353 -0.88374501 0.46548972 0.0012835598
-0.00010765262 0.0034646587 0.0089731058 -0.0066443752 -0.85727668 0.51481307 0.00070381223
0.00059802912 0.0034400779 0.0089494735 -0.0074009197 -0.85734838 0.51468337 0.00071009679
0.0040961257 0.0031390726 0.0086589688 0.022435868 -0.86789149 0.49624702 0.0012666923
0.0077660163 0.0031532259 0.008223867 0.072128795 -0.85868621 0.50740063 0.00095425581
0.010773357 0.0034505457 0.0082054492 0.097652577 -0.84133798 0.53161484 0.0010498576
0.013726162 0.0035653876 0.0077721314 0.12460828 -0.83627385 0.53396523 0.0007408883
0.016383272 0.0039660521 0.0077370512 0.13178059 -0.82349527 0.5518055 0.00069384696
0.019330556 0.0042198496 0.0073809582 0.14788966 -0.81245458 0.56395584 0.00085281039
0.022511931 0.0044934675 0.0069938302 0.16844718 -0.80686325 0.56621313 0.0020154626
0.025611334 0.0051029753 0.006979092 0.1785543 -0.79343629 0.58187389 0.0027494768
0.028383005 0.0054774098 0.0065688761 0.20141664 -0.84938061 0.48783591 0.0056998674
0.030696714 0.0058954381 0.006270966 0.27251038 -0.85736215 0.43665579 0.00098707934
-0.031143473 0.0085575851 0.0069426787 -0.31026244 -0.84049219 0.44419608 0.0012572714
-0.028798558 0.0078561325 0.0072902497 -0.30928874 -0.89353472 0.32547837 0.0041709663
-0.025505748 0.0069287317 0.0075249495 -0.2667307 -0.84257609 0.46788916 0.0010059883
-0.022793233 0.0065158806 0.0083079562 -0.24731459 -0.83837265 0.48576412 0.0011366204
-0.019956626 0.006017664 0.0088106086 -0.20940663 -0.81086308 0.5464887 0.00041087563
0.022671007 0.0061230883 0.008876564 0.17456748 -0.76879615 0.61520618 0.00078895595
0.026854945 0.0065436065 0.0084680812 0.19140548 -0.76425576 0.61585474 0.0026123398
0.02889831 0.006306407 0.0075320886 0.21456434 -0.79032069 0.57389492 0.0040696361
0.031646833 0.0067001707 0.0069704615 0.28754562 -0.82743198 0.48236272 0.0019139536
0.034473553 0.0077677369 0.0071832133 0.29303819 -0.82995766 0.47465664 0.0017833912
0.037274286 0.0084598176 0.0066784779 0.31373176 -0.84026146 0.44219112 0.0029942209
-0.039092623 0.01160255 0.0062677441 -0.42419225 -0.83448803 0.35169697 0.0081970636
-0.037258059 0.011118511 0.0070427316 -0.3764044 -0.81809783 0.4347823 0.00098501553
-0.034539513 0.010192279 0.0074989698 -0.34425485 -0.83216101 0.43473747 0.00079957518
-0.03193 0.0094558215 0.00804995 -0.31429005 -0.83038664 0.46008682 0.00093900127
0.035565525 0.0093187913 0.008725334 0.30560705 -0.81823468 0.48692533 0.0011517642
0.037810668 0.0096282773 0.0080849119 0.32455748 -0.80830562 0.49122754 0.0016810854
0.040506601 0.010212043 0.0072951196 0.35929739 -0.80985057 0.46373206 0.0011540917
0.043292824 0.011210203 0.0068408363 0.38459039 -0.80429852 0.45298353 0.0014986095
0.045265459 0.011997671 0.0065271016 0.4094612 -0.79484618 0.44784054 0.0011083524
-0.043210384 0.014245702 0.007012615 -0.47204262 -0.77294463 0.42394862 0.00077298348
-0.040564116 0.012977132 0.0074268938 -0.42609662 -0.79220235 0.43687209 0.0010371549
-0.038175963 0.012396348 0.0085239867 -0.36949763 -0.77299559 0.51570278 0.00045148015
0.043823164 0.012503345 0.0083524613 0.39255837 -0.7950775 0.46233082 0.0015638254
0.046615917 0.013262495 0.0073589962 0.42472586 -0.77387065 0.46982133 0.0018578244
0.04909879 0.014274142 0.0067234808 0.46389109 -0.76893109 0.43994334 0.00089105504
-0.048459359 0.017648902 0.006968759 -0.52381861 -0.74100423 0.42015088 0.00085495034
-0.046403904 0.016449898 0.0073348377 -0.49023727 -0.75896192 0.42853737 0.00079989358
-0.044303816 0.015633978 0.0082673952 -0.47744939 -0.76342356 0.43500194 0.00083095481
0.049867526 0.015647473 0.0080582704 0.47145671 -0.75108385 0.46217051 0.0014862268
0.052377813 0.016631056 0.0071265544 0.49321169 -0.74261039 0.45306954 0.0011551804
0.054277919 0.01747008 0.0064225523 0.51428366 -0.73942125 0.43447497 0.001947806
-0.05208382 0.020384036 0.0070719463 -0.5557003 -0.72730088 0.40277863 0.00054198707
-0.049830753 0.01903341 0.0075815376 -0.53096461 -0.73556846 0.42073241 0.00057378976
-0.047872834 0.018052071 0.008315607 -0.5177325 -0.73896068 0.43114981 0.00059333519
0.05370805 0.01877382 0.008809533 0.4908928 -0.65688509 0.57229912 0.000569091
0.055500221 0.018939909 0.0072057014 0.54695791 -0.70287567 0.45475578 0.0013215755
0.057626519 0.020322684 0.0067677917 0.56941104 -0.68539608 0.45387584 0.0011481314
-0.055078406 0.022806186 0.0071526901 -0.59732908 -0.71313477 0.36692885 0.00024051021
-0.053002402 0.021649214 0.0080004865 -0.55718124 -0.7242499 0.40621582 0.00053132919
0.056469403 0.021024734 0.0088891322 0.53113353 -0.61814457 0.57947773 0.0011495745
0.058830842 0.021731079 0.0072341724 0.5983656 -0.67387122 0.43342385 0.0021120836
0.060785286 0.022997988 0.0064872457 0.63971972 -0.64260739 0.42168048 0.0019883588
-0.058277804 0.025396591 0.0066896169 -0.66930145 -0.70026886 0.24831253 0.0053617302
-0.05661688 0.024334874 0.0074811555 -0.62607723 -0.7148096 0.31156787 0.0035541854
0.061893988 0.025306344 0.007827037 0.62857479 -0.54063076 0.55911732 0.0018162619
0.063608795 0.026176849 0.0066846958 0.66261101 -0.5463295 0.51231915 0.0025005895
0.064750738 0.028406365 0.0073176222 0.68402582 -0.47685751 0.55201048 0.001716004
0.066358104 0.029567869 0.0062892418 0.71427339 -0.45696658 0.53008974 0.0016694721
0.065463178 0.030979134 0.0084128361 0.71724379 -0.41954702 0.55636466 0.0015524853
0.066961288 0.031444035 0.006904935 0.75576025 -0.41076279 0.51000041 0.0016500622
0.068030164 0.034060277 0.007177467 0.77845132 -0.35439172 0.51809275 0.0017256271
0.069266275 0.035371155 0.0062061325 0.81432033 -0.33925343 0.47094539 0.0010897908
0.068821929 0.037049837 0.0076495702 0.79935843 -0.28225631 0.53043151 0.0027333903
0.069679342 0.037426479 0.006641516 0.86424994 -0.28719738 0.41302505 0.0018926129
-0.018079318 0.0058916016 0.0093425233 -0.19880132 -0.81440485 0.54518139 0.00047881645
-0.015481412 0.0056025367 0.0097191501 -0.16634281 -0.8007341 0.57546061 0.00028519533
-0.013353379 0.0054030102 0.0099642053 -0.15817878 -0.81599987 0.55598891 0.00051375804
-0.01100803 0.0045136744 0.0094341701 -0.11250242 -0.83573502 0.53748506 0.00085608853
