# .PCD v0.7 - Point Cloud Data file format
VERSION 0.7
FIELDS x y z normal_x normal_y normal_z curvature
SIZE 4 4 4 4 4 4 4
TYPE F F F F F F F
COUNT 1 1 1 1 1 1 1
WIDTH 555
HEIGHT 1
VIEWPOINT 0 0 0 1 0 0 0
POINTS 555
DATA ascii
-0.042431213 0.044792637 -0.0087080076 0.37665609 0.73444432 -0.56455439 0.0012180842
-0.040188733 0.044237301 -0.0077659171 0.40033388 0.78103077 -0.47929502 0.0018445733
-0.037438717 0.043406185 -0.0068616392 0.42785615 0.82510686 -0.3689684 0.00088103756
-0.035231598 0.042456031 -0.0065820822 0.43435881 0.82927471 -0.35161886 0.00071823515
0.041464798 0.042294543 -0.0064001153 -0.45766771 0.77789021 -0.43061247 0.0010878991
0.043673851 0.043047298 -0.0072485697 -0.46067765 0.75677699 -0.46375063 0.0021682768
0.046158276 0.044199996 -0.0077933939 -0.4396019 0.74211287 -0.50598288 0.0023128572
0.048457094 0.044741265 -0.008833345 -0.37293568 0.6837889 -0.62717754 0.0015002772
0.068245724 0.044016734 -0.0086962981 0.65349585 0.060381562 -0.75451791 0.0014544786
0.069561936 0.043436632 -0.0074803163 0.68526834 0.047827397 -0.7267186 0.0009858472
-0.070083797 0.046170082 -0.0066287792 -0.76270592 -0.19690666 -0.61604172 0.0042095142
-0.067915916 0.046502769 -0.0083419131 -0.54918039 -0.0061069252 -0.8356815 0.0030120949
-0.048625551 0.047739461 -0.0088393446 0.32513523 0.70945907 -0.62526387 0.0014501112
-0.046173967 0.047273621 -0.0078816283 0.38300201 0.76656812 -0.51544434 0.0021248166
-0.043574013 0.046227679 -0.0074400506 0.38877335 0.77856398 -0.49263927 0.0019625186
-0.041280292 0.045485333 -0.0067157354 0.42743182 0.78263944 -0.45252353 0.0016430967
0.047303446 0.045544893 -0.0068010199 -0.45695564 0.7412383 -0.49168831 0.0020127979
0.049533427 0.046464384 -0.0073976787 -0.42849433 0.7369104 -0.5228343 0.0016715367
0.052156217 0.047268044 -0.0082941744 -0.37201446 0.6748634 -0.63731039 0.0011264195
0.054361191 0.047835398 -0.0087790834 -0.32171836 0.66887015 -0.6701566 0.0021544632
0.06809862 0.047145694 -0.0085547995 0.48238614 0.19964369 -0.85290444 0.0035302448
0.069375731 0.047137596 -0.0074956412 0.54190642 0.18165164 -0.82057303 0.0028823144
-0.070028953 0.049562018 -0.0068337764 -0.59120196 0.015685661 -0.80637103 0.0051489756
-0.067777283 0.049597785 -0.0083155036 -0.46644658 0.10947251 -0.87774903 0.0050726254
-0.065593831 0.050621964 -0.0088476464 -0.19859549 0.30552372 -0.93124378 0.0075332136
-0.057893362 0.050921291 -0.0088299597 0.09468428 0.63669187 -0.76528323 0.0049034324
-0.054822154 0.050631396 -0.00852664 0.22662997 0.69092155 -0.68648839 0.0021806625
-0.05220801 0.050156143 -0.0078260927 0.3079918 0.74468982 -0.59209633 0.0025096911
-0.049553663 0.04925859 -0.0074286954 0.33968189 0.76528454 -0.54676843 0.0019840025
-0.047020476 0.04851786 -0.0066725132 0.40128615 0.77369571 -0.49026975 0.0018144939
0.050541107 0.048103742 -0.0061599473 -0.46870828 0.7348085 -0.49027449 0.0015016081
0.052831747 0.048787203 -0.0069406503 -0.42470077 0.72264272 -0.54535919 0.0024377021
0.055506106 0.049787544 -0.0075123846 -0.36001152 0.70175451 -0.61476201 0.0018620582
0.058129303 0.05031636 -0.0082840463 -0.3299154 0.67005569 -0.664967 0.0022320754
0.060973968 0.050556261 -0.0087135276 -0.18210627 0.58327556 -0.79159766 0.0035385548
0.064868569 0.050447613 -0.0088589713 0.088974476 0.408678 -0.90833133 0.010355223
0.067245707 0.049885318 -0.0083583537 0.4124727 0.2583935 -0.87355542 0.0074824733
0.069663137 0.048740186 -0.0070254318 0.54686171 0.18208578 -0.81718236 0.0057539325
-0.070107885 0.05245997 -0.0066926614 -0.49037504 0.10008643 -0.86574537 0.006251419
-0.067691289 0.052372295 -0.007766841 -0.35368153 0.21795022 -0.90961915 0.010274121
-0.064432159 0.052559357 -0.0081954626 -0.0019148539 0.53886539 -0.8423897 0.0085710408
-0.06130106 0.052820381 -0.0078090201 0.15451397 0.67283338 -0.7234782 0.0048255189
-0.058510531 0.052697744 -0.0073188427 0.20921557 0.73876208 -0.64067113 0.0036947406
-0.055709817 0.052059211 -0.0071732313 0.25528291 0.76758611 -0.58791345 0.002714711
-0.053087704 0.05152826 -0.0065917848 0.34019482 0.77875566 -0.5270741 0.0020350702
0.056212861 0.051357687 -0.0062447558 -0.42440704 0.72224307 -0.54611689 0.0030011067
0.058616437 0.051941473 -0.006900853 -0.37745607 0.69809639 -0.60843098 0.0023181024
0.061132539 0.052754048 -0.007320412 -0.32881469 0.64401418 -0.69074351 0.0030362722
0.064025119 0.052955773 -0.0077508017 -0.14423214 0.52799726 -0.83690864 0.0051289694
0.066947535 0.052976459 -0.0074729808 0.069281742 0.42421377 -0.90290791 0.0070268051
0.069319993 0.05304791 -0.0064602643 0.36420643 0.28124249 -0.88783807 0.006522906
-0.070094667 0.054863419 -0.0063357949 -0.4389067 0.16208285 -0.88379306 0.0096603073
-0.06781318 0.055105526 -0.0067084953 -0.13558252 0.42084622 -0.89694256 0.0054680202
-0.064500801 0.054882824 -0.0066637578 0.14522547 0.61523563 -0.77485144 0.0077291541
-0.06159611 0.054374468 -0.0064312541 0.19796723 0.69284487 -0.69337934 0.0053564571
-0.059279729 0.05403696 -0.0061863996 0.23667614 0.75444865 -0.61220235 0.0035211968
0.062178969 0.054440282 -0.0063579031 -0.42297712 0.65274066 -0.62850612 0.0059927097
0.064578354 0.055039488 -0.00659309 -0.25620848 0.54608202 -0.79759115 0.008988753
0.067272447 0.055647027 -0.0064779967 -0.025425211 0.37975478 -0.92473775 0.015824975
0.069608472 0.054573968 -0.0061884765 0.16459535 0.32907122 -0.92984974 0.0070467922
-0.015538273 0.0029402962 -0.0032797642 -0.26592311 -0.93615711 -0.22998862 0.0021001715
-0.013350711 0.002611307 -0.0041439077 -0.20376197 -0.93408298 -0.29320651 0.002075573
-0.010495512 0.0021552276 -0.0044236938 -0.15464713 -0.94174761 -0.29865649 0.0015177331
-0.0075101452 0.0017045994 -0.0043662153 -0.12792987 -0.93870032 -0.3201184 0.0023702329
-0.0046335692 0.0013297305 -0.0044188397 -0.089742288 -0.94013822 -0.32876498 0.0024132116
-0.0014706332 0.0011281772 -0.0044437591 -0.043280724 -0.94114935 -0.33520851 0.0026124278
0.0015473522 0.0010189766 -0.0044809589 -0.037277203 -0.94010812 -0.33883202 0.0028524504
0.0044579371 0.00093586417 -0.004389842 0.010620537 -0.94656825 -0.32232872 0.0023285025
0.0075874534 0.0010984568 -0.0044854544 0.042966299 -0.94219226 -0.33230665 0.0027639731
0.010591712 0.0012186053 -0.0043900749 0.069754772 -0.95095086 -0.30137476 0.0015486656
0.013669405 0.0016276748 -0.0046426421 0.10774317 -0.94783032 -0.30001524 0.0017035939
0.016541645 0.0019373747 -0.0044327062 0.13003719 -0.94960314 -0.28520912 0.0019103849
0.018961329 0.0023259216 -0.0045545585 0.15685432 -0.94553345 -0.2852425 0.0013845094
0.021694053 0.0027666797 -0.004109771 0.19978148 -0.94415528 -0.26202717 0.0022399635
-0.024260908 0.0058403988 -0.0036227657 -0.35061592 -0.89224154 -0.28455836 0.0028135853
-0.022295391 0.0053782398 -0.0044915527 -0.32114723 -0.89762259 -0.30189088 0.0020582874
-0.019488858 0.004391979 -0.0044412329 -0.2881884 -0.90728664 -0.30623266 0.0015194006
-0.016536117 0.003619852 -0.0045553111 -0.2513054 -0.91191572 -0.32443091 0.0021885454
-0.013823377 0.0032664821 -0.0055906773 -0.20963049 -0.91112369 -0.35483617 0.001692548
0.020769844 0.003087058 -0.0057314364 0.19284253 -0.9416132 -0.27600071 0.0019481663
0.023139466 0.0033280039 -0.0049567046 0.21196775 -0.93562216 -0.28227806 0.0030601483
0.025073159 0.0036966864 -0.0047625359 0.23178685 -0.93778861 -0.25850999 0.0041817371
0.027858036 0.0042956872 -0.0040978892 0.258921 -0.93356216 -0.24783403 0.0014374353
0.031710085 0.0056180214 -0.004670952 0.29837787 -0.9249981 -0.23526405 0.0013624158
0.033601627 0.0058859903 -0.003406716 0.29964986 -0.9348833 -0.1902715 0.0036667082
-0.030859638 0.0086253136 -0.0041642422 -0.36133522 -0.8844986 -0.29512563 0.0023050555
-0.028549794 0.0077660093 -0.0044781854 -0.34600952 -0.88779795 -0.30346707 0.0019204607
-0.025663715 0.0067004142 -0.0046243006 -0.35081726 -0.8880958 -0.29700676 0.0018647054
-0.02350127 0.0062362151 -0.0055883219 -0.31261477 -0.88295096 -0.35024229 0.003317744
0.034758516 0.0062609129 -0.0031274944 0.30302975 -0.94587868 -0.11613138 0.0029267152
-0.03712447 0.011400731 -0.0041765803 -0.42490646 -0.86363709 -0.27126637 0.0022074915
-0.034504358 0.010259469 -0.00446278 -0.38946992 -0.87673187 -0.28223109 0.0016301009
-0.032045096 0.0093633998 -0.004872825 -0.37184158 -0.87347752 -0.31427839 0.0018734024
0.043469638 0.01003179 -0.0032437707 0.44858104 -0.89334673 -0.026582876 0.0004165963
-0.042883843 0.01448101 -0.0041858861 -0.49514261 -0.82242715 -0.28008461 0.0018117572
-0.040444471 0.013207535 -0.0043456256 -0.44901574 -0.85270405 -0.26698446 0.0021679776
-0.038411044 0.012373919 -0.0050511966 -0.43714714 -0.850465 -0.29259467 0.0020680535
-0.04819794 0.017932612 -0.0035585104 -0.55235672 -0.78634763 -0.27669394 0.0018469018
-0.046417881 0.016940134 -0.0042727115 -0.54517019 -0.78954035 -0.28180769 0.0021377476
-0.044241667 0.015594823 -0.0047282479 -0.53605527 -0.79807913 -0.27516261 0.0015364499
-0.051548325 0.020580273 -0.0040980102 -0.56969368 -0.76851779 -0.29125506 0.0016602362
-0.049885362 0.019680381 -0.0047501633 -0.55698752 -0.74691939 -0.36314785 0.0018066959
-0.047693215 0.018232182 -0.0053522796 -0.55314189 -0.76725954 -0.32457179 0.0033402059
-0.054938562 0.023277491 -0.0043819132 -0.59288996 -0.74788547 -0.29857802 0.0017762778
-0.053221688 0.022304066 -0.0050009671 -0.57616472 -0.73843211 -0.35036021 0.0014170823
-0.058255646 0.026247531 -0.0046360884 -0.63687307 -0.6891368 -0.34566319 0.0015753554
-0.056254417 0.024783811 -0.0050822697 -0.60427445 -0.71640861 -0.34872782 0.0011536627
-0.061115157 0.028981835 -0.0044546649 -0.6875183 -0.63602746 -0.35041082 0.0019377576
-0.05947642 0.027537033 -0.0050333091 -0.65564907 -0.67336035 -0.34162891 0.0014928766
-0.063897617 0.031983215 -0.0043100649 -0.72095412 -0.60312116 -0.34127709 0.0023636473
-0.062483121 0.030650072 -0.0048216102 -0.70951492 -0.62067646 -0.33369046 0.0022399398
-0.0069669406 0.032783754 -0.0054753418 0.15879238 0.93003857 -0.33138075 0.0022833352
-0.0042232936 0.032610055 -0.0049313051 0.13622676 0.93361759 -0.33136165 0.0019747349
-0.0014082547 0.032470547 -0.0044049332 0.10308763 0.94478923 -0.31104061 0.0025575585
0.0015764263 0.032244552 -0.0044150944 0.050808914 0.95072597 -0.30584064 0.0025649131
0.0046044812 0.032105178 -0.0045928843 0.0067000682 0.95028186 -0.31131887 0.0026510465
0.0074741589 0.032177329 -0.0045116632 -0.03253413 0.95141047 -0.30620205 0.0025294151
0.0105465 0.032381866 -0.0045374958 -0.099782132 0.95000917 -0.29584819 0.0029120015
0.013365762 0.032601021 -0.0048337602 -0.15308702 0.93653911 -0.31537104 0.0022440499
0.01608998 0.032805283 -0.0055843573 -0.19545694 0.92593378 -0.3231768 0.002589209
0.018049465 0.032922372 -0.0055623832 -0.19774505 0.9264254 -0.32036364 0.0031684758
-0.066532232 0.035253432 -0.004110964 -0.7610026 -0.54373765 -0.3538706 0.0020385443
-0.065239467 0.034034755 -0.0048263394 -0.74199426 -0.57510722 -0.3445231 0.0018842589
-0.018550713 0.035749428 -0.005418337 0.30891305 0.90696418 -0.28633672 0.0026026496
-0.016120832 0.035405014 -0.0044518234 0.28501639 0.91573924 -0.28317374 0.0020356816
-0.013393304 0.03464004 -0.0043592225 0.26138875 0.91994876 -0.29218188 0.0020630094
-0.010430687 0.033919554 -0.0042365529 0.20409355 0.93364841 -0.29435757 0.0022005634
-0.0076086679 0.033416849 -0.0041376404 0.15664998 0.94612873 -0.28337479 0.0022093779
-0.004845608 0.033193972 -0.003483593 0.12947513 0.95096684 -0.28088856 0.0023387766
0.014085375 0.033170737 -0.0035096998 -0.14635204 0.95491159 -0.25831184 0.0020819358
0.016680617 0.033397298 -0.004256878 -0.19205652 0.94099784 -0.27863482 0.0024055366
0.019469112 0.034058113 -0.0043647671 -0.23620346 0.92857289 -0.28628737 0.0022852414
0.022493271 0.034880266 -0.0044514071 -0.27050689 0.92360926 -0.27161002 0.0015597189
0.025119614 0.035533845 -0.0047318507 -0.29423386 0.91584921 -0.27321529 0.0019158495
0.027363237 0.035840712 -0.0055231396 -0.28075817 0.91494912 -0.28990176 0.0024884834
-0.069221213 0.038690239 -0.0034152977 -0.80141473 -0.46973056 -0.37025356 0.002887242
-0.067755856 0.037427679 -0.0045629921 -0.78184277 -0.49956325 -0.3730396 0.0033081223
-0.065833747 0.036051266 -0.0059615187 -0.72201496 -0.48917845 -0.48928404 0.0052809576
-0.027254393 0.03882106 -0.0058261026 0.37754431 0.84647906 -0.37541121 0.0025693281
-0.024786685 0.038561329 -0.0041409531 0.38675267 0.89707851 -0.21371123 0.0025090494
-0.022423822 0.037493251 -0.0044669956 0.35761887 0.89179093 -0.2771602 0.0019059721
-0.019609813 0.036590658 -0.0040857051 0.29884848 0.91655487 -0.26573813 0.0021997984
-0.01752037 0.036128759 -0.0036385418 0.26638249 0.92460889 -0.27228421 0.0023031735
0.026279569 0.036221631 -0.0036799212 -0.27738521 0.9258979 -0.2564576 0.0018292209
0.028532704 0.036743596 -0.0043352013 -0.30531538 0.9134171 -0.26916856 0.0020033272
0.031495485 0.037763283 -0.0044529452 -0.35726127 0.8962028 -0.2630302 0.0020513977
0.033820983 0.038590051 -0.0049939132 -0.40830037 0.87014192 -0.27594179 0.0026437971
0.071108095 0.038978111 -0.0035011654 0.96037257 -0.19948712 -0.19465208 0.0032915741
-0.069793798 0.040726151 -0.004307685 -0.82498735 -0.39470121 -0.40448347 0.0030037845
-0.06861084 0.039762884 -0.0055432632 -0.80883163 -0.39578047 -0.43491274 0.004028501
-0.033427048 0.041825596 -0.0056631044 0.41025436 0.83913606 -0.35713032 0.0023910673
-0.031337 0.041264068 -0.0046563558 0.42236668 0.85830063 -0.29142138 0.0022204004
-0.028551418 0.040018074 -0.0045467876 0.38664615 0.89281255 -0.23106392 0.0014103571
-0.026137276 0.039283779 -0.0038061552 0.37232774 0.89862269 -0.23205456 0.0027518633
0.035010066 0.039442085 -0.0041022296 -0.41426015 0.87107188 -0.26386037 0.0021454245
0.037636381 0.040750921 -0.0044062948 -0.47546688 0.84136552 -0.25697348 0.0024226943
0.039598022 0.041612864 -0.0051430231 -0.50445777 0.81634814 -0.28124392 0.0023536144
0.071262263 0.040886566 -0.0039558262 0.9690448 -0.141744 -0.20214055 0.0023699056
-0.072137557 0.044910751 -0.0033483605 -0.8674351 -0.35989496 -0.34355786 0.014478294
-0.070774198 0.043441791 -0.0045128469 -0.83276302 -0.31719071 -0.45375738 0.0035775241
-0.039235875 0.044826806 -0.0056537432 0.44057545 0.82453698 -0.35501 0.0039433115
-0.037890378 0.044398338 -0.0052363281 0.4588722 0.84692347 -0.26862034 0.00142193
-0.034713008 0.043139469 -0.0041974839 0.43556929 0.86750442 -0.24024047 0.0019442964
-0.032548834 0.042228706 -0.0037438395 0.42529982 0.85878313 -0.28567731 0.0022985367
0.040711321 0.042660687 -0.0041862554 -0.50679761 0.82109505 -0.26260072 0.0022237685
0.043085683 0.044088103 -0.0044266656 -0.52051795 0.81421071 -0.25714207 0.0022639362
0.045320548 0.044768356 -0.0055376384 -0.51906168 0.78099453 -0.34730762 0.00303496
0.071204938 0.044198819 -0.004996622 0.87371659 -0.016840382 -0.4861438 0.0014081413
-0.072457455 0.046899706 -0.0036483407 -0.85083437 -0.27876002 -0.44539177 0.0033274286
-0.071402751 0.046148781 -0.0049995729 -0.8336637 -0.24676302 -0.49407774 0.0046007303
-0.045001183 0.047889218 -0.0058372794 0.44828042 0.8142336 -0.36887434 0.0043261242
-0.042998441 0.047488473 -0.0044755265 0.49092647 0.83927464 -0.23368621 0.0020619261
-0.040567018 0.046059642 -0.0047119479 0.47167578 0.84010887 -0.26784146 0.0015071955
-0.038470443 0.045243569 -0.003751928 0.44299722 0.84826207 -0.29018074 0.0021090517
0.044564135 0.04533514 -0.0036185291 -0.5248214 0.79869008 -0.29437506 0.002813597
0.046497248 0.046248667 -0.0044796169 -0.50694865 0.79953462 -0.32209852 0.0028213898
0.048706267 0.047510777 -0.0048572952 -0.51715386 0.78828216 -0.33341137 0.0031718847
0.071361259 0.046723418 -0.0047477032 0.8533352 0.040294237 -0.51980311 0.0020556699
0.072022952 0.045221124 -0.0030344178 0.95994222 -0.057533033 -0.27422789 0.00097623887
-0.07288859 0.049860213 -0.004186816 -0.82281154 -0.25518325 -0.50780177 0.0059303432
-0.071361311 0.049800087 -0.0056641675 -0.63779116 -0.035581995 -0.76938707 0.0057748109
-0.051130008 0.05097308 -0.0058940682 0.40743217 0.75133342 -0.51913124 0.0039492073
-0.048928034 0.050465524 -0.0048828744 0.42858323 0.82568032 -0.36683565 0.0031962513
-0.046245668 0.049486227 -0.003898043 0.46642438 0.85093474 -0.24157478 0.0018589201
-0.04443159 0.048585825 -0.0037034515 0.46860689 0.85310328 -0.22939576 0.0018295848
0.05001742 0.048654888 -0.0041739093 -0.50606972 0.79198569 -0.34154359 0.0028004735
0.05236258 0.049965024 -0.0045818365 -0.48826787 0.78975892 -0.37131563 0.0030445911
0.054483134 0.050713446 -0.0056019584 -0.43759063 0.74047452 -0.51010966 0.0038485224
0.071508184 0.049420744 -0.0042853141 0.88344729 0.022740297 -0.46797845 0.0053532743
0.072209418 0.049260184 -0.0032277866 0.91322273 0.0047371853 -0.40743306 0.00220958
-0.075034976 0.053688299 -0.0033232612 -0.82321388 -0.12863123 -0.55296743 0.017949644
-0.073435605 0.052779801 -0.0043508741 -0.75545996 -0.16605292 -0.63380331 0.0072229006
-0.071594089 0.052223902 -0.005685315 -0.50660831 0.024989344 -0.86181408 0.0065386579
-0.057590947 0.053771634 -0.0056094513 0.27067047 0.79643488 -0.54076695 0.0049880836
-0.055118147 0.053558033 -0.0044777957 0.35095528 0.89676744 -0.26951542 0.0030123771
-0.053123001 0.053014655 -0.0038650774 0.38847217 0.88129079 -0.26910198 0.0027919062
-0.050119031 0.05143144 -0.0040800315 0.40875635 0.83460867 -0.36925155 0.0030779766
0.05352756 0.051232073 -0.0034570831 -0.49308559 0.79610503 -0.35083258 0.0020537947
0.055600636 0.052105807 -0.0043106345 -0.46771133 0.78953743 -0.39733696 0.0039989129
0.058044318 0.053262286 -0.0048761452 -0.48007104 0.75531209 -0.44613385 0.0061621373
0.06032937 0.053823479 -0.0058253063 -0.36530805 0.65008211 -0.6662907 0.0050216643
0.070886582 0.052689932 -0.0050837384 0.58117133 0.1933869 -0.79046917 0.0062185111
0.072081283 0.052909408 -0.0036898195 0.74296582 0.056071494 -0.66697663 0.001374244
-0.075311653 0.055485766 -0.003314238 -0.86009353 -0.085297912 -0.5029546 0.021772958
-0.073619246 0.055552769 -0.0044941311 -0.61510217 0.1767339 -0.76838434 0.017130008
-0.07102263 0.055959795 -0.0057578566 -0.41260222 0.15777253 -0.8971439 0.0088187447
-0.067312136 0.056642026 -0.005793713 0.029749244 0.52641916 -0.8497045 0.0065120962
-0.064266339 0.056356344 -0.0053550652 0.30481935 0.73090029 -0.61063075 0.0065999273
-0.061416246 0.055787157 -0.0045386292 0.35293463 0.78335303 -0.5116592 0.0080549698
-0.058696721 0.05501613 -0.0041334489 0.34743702 0.88537854 -0.30885673 0.0048025968
-0.056160435 0.054282133 -0.0036219337 0.33668318 0.86498678 -0.37207827 0.0035718079
0.059029996 0.054595966 -0.0038422812 -0.47549596 0.74668837 -0.4651452 0.0052310182
0.061362382 0.055649195 -0.004552857 -0.48473936 0.68726391 -0.5410139 0.0069903205
0.063594647 0.056537528 -0.0052846773 -0.45385134 0.59815991 -0.66047227 0.0067636734
0.067014679 0.056708187 -0.0059195883 0.028824981 0.35426092 -0.93470228 0.019996982
0.070880763 0.055833146 -0.0046448633 0.65868318 0.13187566 -0.74077338 0.0085685635
0.07222046 0.055135302 -0.0033420366 0.55878645 0.15727681 -0.8142615 0.011601392
-0.075095832 0.057176948 -0.0030846235 -0.73932791 0.65298945 -0.16431403 0.054131497
-0.073253684 0.058119539 -0.0038624986 -0.5730052 0.73761207 -0.35720241 0.012263866
-0.070753261 0.059306238 -0.0039461465 -0.32450628 0.8943128 -0.30805919 0.015635639
-0.067385405 0.058796719 -0.0041538156 0.20467448 0.75739819 -0.62004536 0.010735936
-0.0645983 0.057905927 -0.0038853623 0.36551932 0.75066417 -0.55036259 0.0055326121
-0.062597439 0.057202667 -0.0033673265 0.41667914 0.78495991 -0.45849371 0.0098169688
0.062523827 0.057483904 -0.0034883458 -0.61424822 0.59907925 -0.51361775 0.0078669889
0.064241089 0.058526848 -0.0041425894 -0.62633121 0.53743702 -0.56468636 0.011619331
0.066963643 0.058918647 -0.0052198973 -0.32308069 0.40005642 -0.85765594 0.016192326
0.069883853 0.058551632 -0.0049722316 0.16758853 0.19413976 -0.96655262 0.023129385
-0.069486387 0.060127549 -0.0033128087 -0.20199062 0.95697492 -0.2083237 0.020348009
-0.068449982 0.060110409 -0.0032250059 0.10985913 0.89654112 -0.42912129 0.028025385
0.065232851 0.061214529 -0.003445246 -0.75178146 0.36607313 -0.54846603 0.0078652101
0.067273699 0.061622698 -0.004311943 -0.45696667 0.26551032 -0.84893215 0.017993808
0.07015375 0.061560709 -0.0044886088 -0.05705123 0.18867496 -0.98038101 0.017126929
0.072248548 0.06182225 -0.0033417083 0.17614728 0.010165472 -0.98431134 0.014317938
0.065840565 0.063744463 -0.0031987475 -0.90947104 0.26481798 -0.32052109 0.017601438
0.066961728 0.065168895 -0.0034711473 -0.75370383 0.22847956 -0.61622036 0.010434013
0.070157468 0.064358234 -0.0042278152 -0.11744317 0.11435074 -0.98647404 0.024613241
0.072233312 0.06511052 -0.003608641 -0.053005099 0.011746046 -0.99852514 0.01393063
0.067722045 0.067862652 -0.0035754365 -0.7664966 0.19359703 -0.61237508 0.0079989061
0.070261717 0.0675366 -0.0042067813 -0.18839699 0.031133851 -0.98159933 0.022933751
0.072560951 0.06781894 -0.0038381722 -0.044179812 -0.041421365 -0.99816453 0.0098263025
0.068077676 0.070544824 -0.0034109151 -0.81110841 0.14125378 -0.56758314 0.017258599
0.070043124 0.070562638 -0.0042591989 -0.47068024 0.03883994 -0.88144857 0.023559714
0.072969973 0.070307001 -0.0039944323 -0.016190447 -0.034507513 -0.9992733 0.010799944
0.06822896 0.074031435 -0.0032348849 -0.83248377 0.29543057 -0.46871272 0.049048532
0.070193231 0.073581986 -0.0044328128 -0.56827676 0.13166057 -0.81223577 0.035116639
0.073846005 0.07424777 -0.0044622067 0.35786954 0.54639006 -0.75722337 0.063662976
0.075391576 0.074822746 -0.0033738092 -0.10338887 0.97925353 0.17427959 0.034339081
0.068565153 0.075849622 -0.0034006138 -0.67376322 0.59243196 -0.44166455 0.084342584
0.070562288 0.076315857 -0.0038379058 -0.21323504 0.95004398 -0.22791927 0.065196216
0.072985068 0.075797759 -0.003973356 0.15918723 0.96609116 -0.2032911 0.033526309
0.075311661 0.075156927 -0.0034441962 0.53388178 0.70654511 -0.46450433 0.056990299
-0.015957428 0.0027295509 -0.001338016 -0.24752912 -0.95763236 -0.1472062 0.00087264203
-0.013447005 0.0020660039 -0.0015020609 -0.19829977 -0.96722096 -0.15862209 0.0016493634
-0.010422349 0.0014874047 -0.001518711 -0.14841935 -0.97589427 -0.16000667 0.0025986684
-0.0075141257 0.0010800795 -0.0015735471 -0.13034341 -0.97802526 -0.16271831 0.0038512549
-0.0046053315 0.00067951716 -0.0015547738 -0.093287908 -0.98990643 -0.10668944 0.0050510922
-0.0016447913 0.00049858936 -0.0015501832 -0.048419651 -0.98503613 -0.16540664 0.0049154218
0.0014241196 0.00037418993 -0.0014908203 -0.022103498 -0.99501026 -0.09729328 0.0060519688
0.0043657571 0.00034230849 -0.0016842019 0.016529465 -0.98709077 -0.15930666 0.0051405635
0.0075457566 0.00047590706 -0.0015311001 0.047647648 -0.99126947 -0.12294106 0.0033303658
0.010386016 0.00063278328 -0.0016405368 0.083985597 -0.98893666 -0.12227316 0.0034095324
0.013295393 0.00093008031 -0.0015835635 0.12037612 -0.98571622 -0.1177841 0.0030565043
0.016305685 0.001337846 -0.0015984452 0.13609892 -0.98212945 -0.12999561 0.0032113781
0.019483129 0.0018377264 -0.0016137609 0.18773605 -0.9771505 -0.099660248 0.0019512207
0.023166995 0.002563409 -0.0009818963 0.21128958 -0.97203714 -0.10247281 0.0025829342
0.024518896 0.002877567 -0.0011962099 0.21741299 -0.9710198 -0.099258095 0.0026324196
-0.02486812 0.0056460826 -0.001368629 -0.35076326 -0.91849512 -0.18257014 0.00055362284
-0.022531003 0.0047762785 -0.0015904489 -0.32316455 -0.92804033 -0.18521839 0.00039225089
-0.019620674 0.0037541082 -0.0015007399 -0.28948146 -0.94245321 -0.16727965 0.00042812084
-0.017352521 0.0031665652 -0.0018043154 -0.2740958 -0.94783527 -0.162726 0.00064462842
0.02575554 0.0032269387 -0.0018216253 0.23739153 -0.96609223 -0.10154402 0.0027427282
0.028479766 0.0040074321 -0.0014814384 0.27506012 -0.95894033 -0.069104396 0.0013947564
0.031728797 0.0050106682 -0.0019659866 -0.283838 -0.21742703 0.93389583 0.0073022344
0.033678934 0.0056655398 -0.0014759813 0.31887728 -0.94521773 -0.069862954 0.0014624752
-0.033244453 0.0089257993 -0.00062383572 -0.36939383 -0.89757174 -0.24065162 0.0023978329
-0.031548657 0.0083439443 -0.0015230752 -0.38343132 -0.89919859 -0.21076588 0.00085359951
-0.028528444 0.0070758788 -0.0014844489 -0.35355583 -0.91085792 -0.21292272 0.00091750419
-0.026357576 0.0062424727 -0.0016133433 -0.35785764 -0.91276741 -0.19696069 0.00077938498
0.035373501 0.0063364538 -0.0016838671 0.34131303 -0.93755716 -0.067022629 0.0017478741
0.037568916 0.0072034621 -0.0019256539 0.37504336 -0.92622209 -0.038147237 0.00034503656
0.040133025 0.008261322 -0.0016250476 0.40664846 -0.91316378 -0.027731657 0.00029121659
-0.03914994 0.011787079 -0.00068580231 -0.44083399 -0.86129206 -0.25266841 0.0032503775
-0.037590638 0.011051456 -0.0015184588 -0.43256792 -0.87632376 -0.21199448 0.0016924636
-0.034568928 0.0096174572 -0.0015148721 -0.39171416 -0.890486 -0.23150536 0.0013809567
0.041731913 0.0090658171 -0.0020420875 0.4182747 -0.90804207 -0.022492308 0.0002522034
0.043644089 0.0098941969 -0.0013859434 0.44859686 -0.89333898 -0.026578164 0.00040943813
0.046458434 0.011299055 -0.0009420116 0.46332845 -0.88564426 0.031000834 0.0019703349
-0.043327149 0.014145611 -0.0014221733 -0.51178688 -0.83540553 -0.20042902 0.002166749
-0.040637761 0.012666494 -0.001557815 -0.44998282 -0.85833228 -0.24653827 0.0027382709
0.047446575 0.012082355 -0.0026934387 0.4829914 -0.87557584 -0.0092878118 0.00063568068
0.049614422 0.013110902 -0.00086760957 0.5116275 -0.85626799 0.071011111 0.0020450675
0.051603716 0.014173466 -2.6350685e-06 0.54746991 -0.81859028 0.17374346 0.00065256952
-0.048362136 0.017626539 -0.0014525638 -0.57365477 -0.78805703 -0.2233524 0.0022794744
-0.04642934 0.01627963 -0.0014967714 -0.5459711 -0.8047595 -0.23297566 0.0020986854
-0.044728518 0.015127057 -0.0017750732 -0.55737317 -0.79870206 -0.22673808 0.0018283863
0.05635649 0.017478101 -8.9817506e-05 0.6053254 -0.78352702 0.14023767 0.0018500956
-0.051927857 0.02026175 -0.0015274656 -0.59122807 -0.78310764 -0.19285184 0.0015278393
-0.049900822 0.01875357 -0.0016106183 -0.58069485 -0.78117514 -0.22925749 0.0019681677
0.057910822 0.018853055 -0.0014728485 0.65317708 -0.75185239 0.089875989 0.0033861271
-0.05532879 0.02285568 -0.0015256943 -0.60240817 -0.77514404 -0.19041054 0.00062175794
-0.053400524 0.021390747 -0.0017082063 -0.60177368 -0.77310389 -0.20044662 0.001028035
0.062152006 0.022812035 -0.0025674058 0.72252518 -0.69122952 0.012617884 0.0026108054
-0.060147043 0.026782092 -0.00096443971 -0.68231183 -0.70724946 -0.18506411 0.00063478888
-0.058495674 0.025466558 -0.0015901543 -0.64713514 -0.73641986 -0.19723575 0.0003525111
-0.056767479 0.024123976 -0.0021836788 -0.62817043 -0.75421655 -0.19120491 0.00023570393
0.065167725 0.02607603 -0.001788463 0.78178149 -0.62265527 0.033437815 0.0026768392
-0.063097909 0.029917814 -0.0012712202 -0.73488092 -0.65862292 -0.16175883 0.0011463945
-0.061669182 0.028648065 -0.0019913833 -0.73001415 -0.6639902 -0.16185249 0.0015354344
0.066917464 0.028389219 -0.0013231664 0.83346587 -0.54982346 0.05503485 0.0017088883
-0.064710103 0.031903978 -0.0014344635 -0.76730609 -0.62869096 -0.12644798 0.0015035282
-0.062884763 0.030032702 -0.0027198684 -0.72607642 -0.66542929 -0.17325422 0.0010327605
-0.0030481494 0.032997452 -0.0026259855 0.088616155 0.98833346 -0.12387188 0.0019924033
-0.0010164001 0.032913599 -0.002487587 0.10221858 0.98273516 -0.15421718 0.001489884
0.0016178222 0.032819178 -0.0017929341 0.064980857 0.99151266 -0.11260577 0.0029791316
0.0044748001 0.032781493 -0.0015004324 0.016976567 0.99130607 -0.13047607 0.0020447157
0.0074959015 0.032770742 -0.0018153318 -0.043071255 0.99022061 -0.13269491 0.0032533568
0.010209408 0.032892831 -0.0022388615 -0.09186057 0.98604536 -0.1388386 0.0019959551
0.0123127 0.032952782 -0.0026586785 -0.1157502 0.98141462 -0.15305969 0.0030260999
0.068287246 0.030618519 -0.0014784388 0.85925382 -0.51152641 0.0048635462 0.001666451
0.069225788 0.032305673 -0.0014590557 0.89537817 -0.43968758 0.07051833 0.003910346
-0.066991612 0.03479987 -0.0015720937 -0.80993134 -0.57587391 -0.11126763 0.0025831079
-0.065830193 0.033260033 -0.0018578438 -0.77888185 -0.60966343 -0.14715192 0.0017592435
-0.015570722 0.035824127 -0.0017815458 0.30393964 0.948695 -0.087169483 0.0017825986
-0.013508341 0.035262294 -0.00146753 0.26634559 0.95943409 -0.09244629 0.0018313294
-0.010446173 0.034474052 -0.0014441741 0.21990302 0.96739924 -0.12562379 0.0026527781
-0.0074789585 0.033889938 -0.0015064785 0.16432665 0.97814828 -0.12736835 0.0025874716
-0.0044758273 0.033449829 -0.0014487533 0.12923299 0.98427922 -0.12038828 0.0020535514
-0.0016322418 0.033168998 -0.0010398917 0.08420755 0.99375707 -0.073184766 0.0034511951
0.0010236535 0.033059597 -0.00047434322 0.043751642 0.99800617 -0.045491498 0.0023036378
0.0039926236 0.033004519 -0.00012877944 0.013096391 0.99991423 -0.00013868172 0.0010425274
0.0085408138 0.033034872 -0.00030682134 -0.039958846 0.99898535 -0.020773103 0.0020650788
0.010881644 0.03312036 -0.00088983896 -0.080261745 0.9958607 -0.042656083 0.0027489134
0.01357213 0.03337878 -0.0014544515 -0.13513477 0.98452824 -0.11154754 0.0024529919
0.016495289 0.03387747 -0.0015548184 -0.20019327 0.97230232 -0.12062711 0.0030135401
0.019513115 0.034604758 -0.0015359394 -0.26085529 0.9605217 -0.096708678 0.0014683832
0.022395426 0.03543181 -0.0013386228 -0.27553767 0.95933759 -0.061241392 0.0016522114
0.024389893 0.035906464 -0.0020824934 -0.3090457 0.94643342 -0.093565792 0.001968879
0.070242375 0.034516402 -0.0011333665 0.94486982 -0.32281858 0.0548568 0.0044437051
-0.069474049 0.0384591 -0.0015900983 -0.85195231 -0.51027471 -0.11745998 0.0032500173
-0.068522424 0.03698137 -0.0015481551 -0.8327539 -0.54518872 -0.096386224 0.0025661555
-0.024370894 0.038857888 -0.0019596207 0.40331861 0.91086131 -0.087555125 0.0016041066
-0.0224388 0.03812867 -0.0014070431 0.36778432 0.92683238 -0.075607114 0.0020430682
-0.019436954 0.037000086 -0.0014629132 0.30935806 0.94285184 -0.12380617 0.0032935792
-0.017029095 0.036308907 -0.0013429159 0.27357966 0.95847541 -0.080492146 0.0018130752
0.023806751 0.036006298 -0.00013144298 -0.2535567 0.9670797 -0.021585729 0.0041790153
0.025673462 0.036373496 -0.0013613786 -0.28524426 0.95467758 -0.085008539 0.0023725058
0.028449811 0.037299417 -0.0013402528 -0.30657333 0.94904435 -0.072990783 0.0017313744
0.031507257 0.03835398 -0.0016677442 -0.37124601 0.92556638 -0.074184127 0.00271965
0.033215966 0.038895857 -0.0022258442 -0.42228413 0.90088677 -0.10039525 0.0025555138
0.071269356 0.03755128 -0.0012189441 0.96000606 -0.27993095 -0.0051972102 0.0032306644
-0.070649602 0.040362947 -0.0015206652 -0.89658344 -0.44274506 -0.010715811 0.0027964802
-0.030631283 0.041620664 -0.0016995822 0.44201049 0.89107686 -0.10299904 0.0025224187
-0.02856949 0.040652465 -0.001614782 0.40699416 0.90902215 -0.089635424 0.0021925068
-0.025896223 0.039574344 -0.0013108124 0.37067601 0.925143 -0.081913017 0.0018400599
0.032772921 0.039039541 -0.00084580982 -0.39706352 0.91528577 -0.067768365 0.0034717731
0.034568392 0.039750263 -0.0015550019 -0.43690705 0.89530599 -0.08683034 0.0031415045
0.037274588 0.041162744 -0.0015829238 -0.49280804 0.86417216 -0.10171895 0.0027044131
0.039114051 0.041947961 -0.0022078459 -0.52769655 0.8424269 -0.10887348 0.0029818518
0.071871221 0.04033798 -0.0017726657 0.97939581 -0.19688173 -0.04496019 0.0035135166
0.072152607 0.041188028 -0.00071850442 0.98643047 -0.16315077 0.018351847 0.0048853862
-0.072465494 0.044413459 -0.0011037006 -0.93721294 -0.34782928 0.025430907 0.0044042128
-0.071760498 0.042732276 -0.0011842634 -0.91985005 -0.39197451 0.015226251 0.004153512
-0.036597949 0.044655561 -0.0017125257 0.46902859 0.87639666 -0.10927504 0.0027071154
-0.034591615 0.043649483 -0.0016092868 0.45177281 0.89080882 -0.048590723 0.00079873466
-0.032038387 0.042393908 -0.0012958768 0.43953508 0.89736015 -0.039416928 0.0013210492
0.038707074 0.042149715 -0.00096743176 -0.52345026 0.84693456 -0.093282826 0.0026076215
0.04049601 0.043154519 -0.0014631259 -0.52156049 0.84875554 -0.087114118 0.0025277068
0.042660031 0.044540301 -0.0015755991 -0.55429626 0.82921606 -0.071808212 0.0019386237
0.071998343 0.04267269 -0.002673673 0.9728449 -0.11678296 -0.19983631 0.0021186676
0.072373651 0.043582324 -0.0012305127 0.98343748 -0.098043956 -0.15244049 0.0035347303
-0.073235817 0.046655595 -0.0011270959 -0.94109428 -0.33678728 0.030263511 0.0050424961
-0.042395428 0.047817539 -0.0020094453 0.50257856 0.85996348 -0.088755988 0.0021123362
-0.040440444 0.04677191 -0.0016230794 0.48007271 0.87305146 -0.085506178 0.0023423606
-0.03799757 0.045434833 -0.001379784 0.46409327 0.87864435 -0.11225682 0.002893293
0.044096414 0.045511637 -0.0013667344 -0.5412963 0.83779186 -0.071435764 0.002503871
0.046351258 0.046996072 -0.0015374466 -0.55975628 0.82428926 -0.084971048 0.0025766145
0.048151776 0.04791832 -0.002414389 -0.54248619 0.82457906 -0.16055562 0.0035111774
0.072534516 0.046546757 -0.0011524949 0.99845439 -0.046311438 -0.030724311 0.0025328884
-0.075104654 0.050796658 -0.00062172685 -0.91737801 -0.36146623 -0.16661245 0.029821984
-0.074161902 0.04920828 -0.0010615279 -0.92395478 -0.38110068 0.032708902 0.0086575979
-0.048153441 0.050937697 -0.0025455181 0.47466478 0.87471426 -0.097817764 0.0021798152
-0.04638752 0.050140586 -0.0014361423 0.48334143 0.87251604 -0.071391709 0.0024858841
-0.043626375 0.048617173 -0.0012612366 0.48363072 0.87290215 -0.064366952 0.0023844899
0.047841273 0.048160702 -0.00094575895 -0.5650568 0.82123619 -0.079258747 0.0026772837
0.04954695 0.049158826 -0.0014383357 -0.53324825 0.84067899 -0.094367445 0.0029398382
0.051606532 0.050517723 -0.0015759708 -0.55792189 0.82734799 -0.064948604 0.0029700543
0.072698846 0.04905121 -0.00066271273 0.99578363 -0.051668242 0.075798348 0.0054228292
-0.07579346 0.052965533 -0.0010797293 -0.9682824 -0.19779073 -0.15266964 0.018953262
-0.074744992 0.051500991 -0.0023296487 -0.8933894 -0.31596863 -0.31940442 0.014329794
-0.054259386 0.053880554 -0.0025787964 0.35327938 0.91659808 -0.18719445 0.0059033311
-0.052413568 0.053358823 -0.0015654603 0.40910339 0.90756494 -0.094658658 0.0035079462
-0.049560338 0.051863372 -0.0016063299 0.46588814 0.88259858 -0.062992267 0.0023746891
-0.04771487 0.051069465 -0.00016724035 0.45830879 0.88698977 -0.056587689 0.0045595709
0.053134218 0.051584877 -0.0012473135 -0.53747618 0.83910441 -0.083804026 0.0043884292
0.055408213 0.053033028 -0.0014160861 -0.55411977 0.82733583 -0.092014544 0.0051594493
0.05727442 0.053824145 -0.0025382219 -0.57201201 0.78437704 -0.23990625 0.0074867918
0.072719932 0.052473556 -0.0012888658 0.99593711 -0.0060050781 -0.089851506 0.010777998
-0.076172955 0.05596048 -0.001205034 -0.95545131 0.28233412 -0.086024649 0.04133958
-0.060396906 0.056744639 -0.0013620434 0.47587445 0.87792343 -0.052858774 0.0098436484
-0.058329232 0.055797525 -0.0014098315 0.4077006 0.90834689 -0.093199551 0.0062226765
-0.055551879 0.0546869 -0.0013097198 0.35853419 0.92693686 -0.11064011 0.004835743
-0.053737018 0.054073855 -0.00062869239 0.37557539 0.92162138 -0.097760364 0.0054348628
0.056875639 0.054174688 -0.00089942146 -0.56992978 0.8160491 -0.09614516 0.0097253956
0.05849541 0.055223484 -0.0012635799 -0.56422961 0.82228112 -0.074153341 0.0080372728
0.060511459 0.056569446 -0.0017375087 -0.68393612 0.71351331 -0.15208544 0.013565825
0.072809055 0.05524857 -0.0017787152 0.89265293 0.068244182 -0.4455485 0.014260869
-0.075401641 0.05734735 -0.0013496346 -0.80502182 0.58154845 -0.11722285 0.039283223
-0.073472075 0.058485474 -0.0014294029 -0.5165543 0.85102808 -0.094460644 0.0098191062
-0.071203172 0.059632219 -0.0013650291 -0.36857232 0.92912322 -0.029738311 0.0067316308
-0.066303022 0.059754614 -0.0025246891 0.28355688 0.89525712 -0.34367174 0.016864389
-0.064233802 0.059161801 -0.0012271553 0.48376986 0.87025034 -0.092902988 0.0071020732
-0.061699323 0.05756171 -0.0010918221 0.49991664 0.86363184 -0.064987428 0.0089368764
0.06198018 0.058377281 -0.0011750828 -0.80375892 0.58739245 -0.094560757 0.019116415
0.063311651 0.059492569 -0.0022083132 -0.76326364 0.58856952 -0.26648548 0.021540854
0.07287813 0.05796716 -0.0014172046 0.98687124 -0.0084592737 -0.16128737 0.015300024
-0.069721423 0.060329106 -0.0013759229 -0.19654784 0.9795773 -0.042395014 0.018075272
-0.067692332 0.060691092 -0.0013190478 0.071701765 0.986615 -0.14645691 0.019134635
-0.065691814 0.06019032 -0.00076499593 0.30050927 0.95364696 -0.015860673 0.017633362
0.062877499 0.060099065 -0.00070448214 -0.83988363 0.49233502 0.228477 0.011977327
0.063974023 0.061497647 -0.00126412 -0.88327426 0.44537881 -0.14650719 0.021426739
0.073552564 0.061468404 -0.00065144326 0.87318897 -0.091082148 0.47879538 0.018312981
0.064960442 0.064435326 -0.001176083 -0.95335174 0.28152418 -0.10892534 0.020522254
0.066167012 0.065406032 -0.0027711962 -0.89314687 0.22345051 -0.39033133 0.014022678
0.073672496 0.063988872 -0.0011326435 0.98627728 -0.16233644 -0.030065708 0.0099056559
0.065536134 0.067305982 -0.00084609794 -0.96430039 0.22503716 -0.13958173 0.023802595
0.066407889 0.067711592 -0.0023928317 -0.94052821 0.23324622 -0.24698754 0.022828555
0.074713647 0.067453653 -0.00063797331 0.84022361 -0.25293776 0.47963196 0.010107472
0.065865807 0.069367178 -0.00070467574 -0.96150529 0.25778782 0.095147066 0.045617905
0.066572033 0.070655927 -0.001348615 -0.96817869 0.21314408 -0.13114755 0.025622699
0.075459927 0.070009597 -0.00050751364 0.94930857 -0.15484221 0.27356398 0.031495288
0.067048967 0.073545188 -0.0013396889 -0.97276342 0.22001313 -0.072976731 0.023643916
0.076285727 0.074521497 -0.00098955957 0.51860303 0.8496483 0.095648296 0.016294874
0.06773936 0.076474436 -0.001293953 -0.77889693 0.62665772 0.024892971 0.059220333
0.070485994 0.076652609 -0.001253343 -0.015434551 0.98644167 -0.163385 0.045508355
0.073533639 0.075719185 -0.0016620577 0.26509297 0.96257883 -0.056281149 0.006366062
0.075374179 0.075152978 -0.0016537785 0.3472141 0.93490624 -0.073435113 0.022428812
-0.018601667 0.0029166858 0.0023605605 -0.25095636 -0.96767199 0.025139039 0.006695753
-0.016671045 0.0025194853 0.0019148331 -0.22357753 -0.96598446 0.12995064 0.0047690514
-0.013772125 0.0019242823 0.0018938243 -0.19127226 -0.97129381 0.14143293 0.0017743533
-0.010433519 0.0013774319 0.001419672 -0.14615169 -0.98344088 0.10716224 0.0044643381
-0.0069255647 0.00097663188 0.0018452965 -0.10344723 -0.97566128 0.19334862 0.0026536735
-0.004712027 0.00070092682 0.0017630309 -0.078037553 -0.96990752 0.23062888 0.0043245438
-0.0012865518 0.00050861173 0.0017880875 -0.035640534 -0.97423172 0.22271572 0.0031131019
0.0014465754 0.00037931895 0.0013776086 -0.011403944 -0.99557263 0.093300797 0.0043342924
0.0046221879 0.00043834245 0.001867426 0.032712508 -0.97463286 0.22140613 0.004267015
0.0073835999 0.00057259551 0.0019709491 0.053575281 -0.95678568 0.2858161 0.0026999176
0.010689362 0.00077528832 0.0021786222 0.086276866 -0.95397019 0.28722319 0.0035573468
0.013148115 0.00095804175 0.0017445198 0.10567059 -0.95228201 0.28634351 0.0035162868
0.016408777 0.0014080191 0.0018024502 0.1313782 -0.9581247 0.25443441 0.0022814418
0.019374069 0.0018328532 0.0015749289 0.17843507 -0.95705992 0.22846717 0.0038916487
0.022302819 0.0025636477 0.0021201801 0.19772537 -0.94046313 0.2764667 0.002968173
0.024587469 0.0028804697 0.000982258 0.22660124 -0.9569844 0.18119816 0.0023547048
-0.02777439 0.0057480838 0.0022092764 -0.32637244 -0.94447958 -0.037937827 0.01286516
-0.024958722 0.0049917353 0.0020441953 -0.30250895 -0.95235711 0.03878497 0.003397312
-0.022546222 0.0042087217 0.0019254786 -0.30845708 -0.94722062 0.087335423 0.0022438494
-0.019529516 0.0033087374 0.0017768177 -0.2806074 -0.95648545 0.079969585 0.0024746805
-0.017884932 0.0031364015 0.00023441564 -0.23152536 -0.97074115 -0.063699663 0.0028662619
0.025294308 0.0032114724 0.0021422091 0.22098751 -0.9359051 0.27431032 0.0032244367
0.028690863 0.0041286792 0.0019266603 0.28070396 -0.94047117 0.19162273 0.0017515394
0.031452596 0.0049301628 0.0017073754 0.29542124 -0.93215835 0.20930156 0.0022775179
0.033745956 0.0056475624 0.0010837303 0.3245374 -0.93103755 0.16686696 0.001553419
-0.036188126 0.0088509005 0.002637553 -0.36220133 -0.92385983 -0.12366556 0.016897943
-0.034468025 0.0083206696 0.002274876 -0.37052554 -0.92785454 0.042386737 0.0071010054
-0.031265557 0.0073183379 0.0019016768 -0.36588103 -0.92987359 0.038291425 0.0042294967
-0.028799608 0.0066569517 0.0011417025 -0.37020573 -0.91872013 -0.13748142 0.0050579989
-0.026573302 0.0061479011 0.00040299393 -0.31663939 -0.93862122 -0.13685679 0.0046498827
0.035261851 0.0062989658 0.0017541265 0.36054254 -0.91588265 0.17654444 0.0016085175
0.037664048 0.0072071683 0.0016399305 0.37627304 -0.91106325 0.16847084 0.0017225235
0.040422827 0.0083952267 0.0016059127 0.400567 -0.89441043 0.19893745 0.0023763154
-0.04220701 0.011881888 0.0023743603 -0.43474767 -0.88831532 -0.1479542 0.015977107
-0.039907899 0.010937449 0.0022713095 -0.42057762 -0.90725452 0.0019328019 0.010014477
-0.037454423 0.0099146813 0.0019036635 -0.44902286 -0.89325649 -0.021706149 0.0044582579
-0.034887642 0.0095266886 0.00043695292 -0.40661442 -0.89003539 -0.20615943 0.0041650073
0.041930474 0.0090957927 0.0014647312 0.43162945 -0.89636344 0.10113651 0.0026545636
0.044084147 0.010174756 0.0018979212 0.43392423 -0.86294907 0.25889862 0.0011146279
0.04647775 0.011394084 0.001621732 0.47497207 -0.86448538 0.16451913 0.0014528285
-0.045973539 0.014342986 0.002220595 -0.58065766 -0.80915874 -0.089993916 0.014020339
-0.043657027 0.013380604 0.0014046538 -0.52794045 -0.81874239 -0.22569853 0.0095590167
-0.040947326 0.012589994 0.00040961278 -0.43430606 -0.86445731 -0.25316358 0.0065308893
0.047682665 0.012208862 0.002637943 0.48669505 -0.8549149 0.17957859 0.0013536916
0.049408808 0.013057278 0.0014428559 0.49396643 -0.85725492 0.1452966 0.001950489
0.051743101 0.014484514 0.0016373093 0.53777015 -0.8248533 0.17441422 0.00077372987
-0.051315032 0.017901229 0.0028372474 -0.56706172 -0.80921489 -0.1536625 0.0149695
-0.049267501 0.016904041 0.0018863892 -0.55575866 -0.80815238 -0.19499244 0.0099253142
-0.046806782 0.015894689 0.00094288925 -0.56967604 -0.79559988 -0.20613095 0.0056845695
-0.044826381 0.015072155 0.00021939308 -0.53340346 -0.80380595 -0.26339465 0.0067154812
0.053345062 0.015635034 0.0019135544 0.54582739 -0.80768383 0.22297807 0.0011996124
0.055502377 0.017060712 0.0013578136 0.5855372 -0.78918874 0.18527631 0.0011634928
-0.054542325 0.020505359 0.002520046 -0.6348989 -0.759399 -0.1421849 0.010407571
-0.052389771 0.019567564 0.00153693 -0.59980041 -0.76153243 -0.24557661 0.0083412509
-0.050146289 0.018647514 0.00054640393 -0.60164309 -0.7527917 -0.26707733 0.0044944938
0.056614865 0.018014027 0.0027842827 0.5947783 -0.78536767 0.17157072 0.0034104965
0.058448054 0.019305695 0.0014632407 0.60676169 -0.7597813 0.23360795 0.0019594927
0.060251083 0.020778855 0.0012806191 0.66908133 -0.736462 0.099769972 0.0032860574
-0.057704866 0.023391232 0.0024304637 -0.68758374 -0.72550905 -0.029414719 0.006919126
-0.05573697 0.022456594 0.0012648297 -0.62983042 -0.74796885 -0.20941904 0.0049656751
-0.053644251 0.02133856 0.0005673407 -0.56537849 -0.79314375 -0.22642925 0.0045753112
0.061810695 0.022299148 0.0014495383 0.70929712 -0.69059163 0.14135377 0.003653093
0.063168779 0.023552921 0.00070163811 0.73883027 -0.66593236 0.10326659 0.0032335257
-0.060417518 0.026363475 0.0020648765 -0.73094934 -0.66617125 -0.14808404 0.0012460669
-0.058852401 0.024907719 0.0018801347 -0.69818687 -0.71383524 -0.054536283 0.0014251702
0.06516967 0.026108354 0.0017240315 0.77661753 -0.59528887 0.20614639 0.0021071485
0.066083111 0.026962796 0.00021685545 0.79756671 -0.53936762 0.27012953 0.0014195247
-0.06323304 0.029590255 0.0021494441 -0.76150501 -0.64198858 -0.089223653 0.0013994713
-0.061818331 0.028163569 0.0016767863 -0.74019706 -0.66032445 -0.12680684 0.0006980176
0.065937191 0.027250338 0.0025251138 0.78616011 -0.58811116 0.18994099 0.0064221923
0.0672144 0.028851073 0.0015288705 0.82102525 -0.53448951 0.20059536 0.0019186453
-0.064805195 0.031680677 0.0014838548 -0.78216863 -0.61983752 -0.063354194 0.0010729328
-0.00087041623 0.032924429 0.0026515897 0.090089478 0.9754914 0.20074974 0.0027153122
0.0017024712 0.032868356 0.0018884037 0.069426224 0.98173159 0.17715281 0.0040430222
0.004506187 0.032845855 0.0015003111 0.017469946 0.98474848 0.17310424 0.0034588999
0.0075604683 0.032834474 0.0017566022 -0.059339877 0.9811303 0.18401654 0.0043867244
0.010202287 0.032903366 0.0024484778 -0.093979299 0.97421855 0.20510021 0.0030050445
0.012304491 0.032949649 0.002823306 -0.14458525 0.97185981 0.18596628 0.0028916812
0.068472385 0.030945223 0.0016141187 0.86792737 -0.47153759 0.15605903 0.0032395418
0.069250897 0.032378938 0.0015300955 0.88897347 -0.42047536 0.18145709 0.0031506815
-0.067197151 0.034806192 0.0017867383 -0.83776021 -0.52192789 0.16046549 0.0023061133
-0.065948322 0.033128399 0.0012180763 -0.80383247 -0.59485388 0.0014954985 0.0017815852
-0.015643161 0.035860613 0.0020083031 0.30015031 0.94123 0.15490645 0.0030011879
-0.013465506 0.035284981 0.0015693908 0.27274084 0.95359981 0.12751408 0.0028496657
-0.010424436 0.034521013 0.0015851551 0.21280223 0.95769042 0.19376358 0.0042296457
-0.0074069519 0.033988528 0.0017091602 0.16021791 0.97100466 0.17742652 0.0041377638
-0.0044349451 0.033503927 0.0017095357 0.12258976 0.98060781 0.15290545 0.003392207
-0.0017326201 0.033216104 0.0011399395 0.085370444 0.99202108 0.09276934 0.0050360505
0.00076765107 0.033055246 0.00066482654 0.045442481 0.99779803 0.048312742 0.0036848739
0.0034655242 0.033013906 5.5397588e-05 0.030704748 0.99585021 -0.085671932 0.0026695502
0.0085525466 0.033033017 0.00058578572 -0.050110102 0.99835145 0.027988823 0.0028967361
0.010758008 0.033120926 0.0010512506 -0.078402303 0.99424857 0.07295838 0.005506081
0.013516339 0.033403881 0.0015978522 -0.13426624 0.97660154 0.16799408 0.0036149384
0.016430631 0.03390922 0.0016135212 -0.19251613 0.96641439 0.17023708 0.003910006
0.019506609 0.034647353 0.0016032478 -0.25404736 0.95402765 0.15903193 0.0027606324
0.022534214 0.035474271 0.0015577879 -0.27065501 0.95653617 0.10855558 0.0035395278
0.024284456 0.035896234 0.002251026 -0.29302186 0.94642955 0.13568062 0.0036306286
0.070213482 0.034581728 0.0015813934 0.91906691 -0.35360882 0.17400245 0.003584529
-0.069465697 0.038301837 0.0013964177 -0.87150133 -0.47562093 0.1194578 0.0034354781
-0.068479761 0.036750343 0.0015045691 -0.85587496 -0.50762516 0.09896794 0.0022302591
-0.024379186 0.038904861 0.0019959991 0.40785557 0.90607661 0.11260147 0.0032520015
-0.022468515 0.038149342 0.0017173876 0.3661167 0.92007709 0.13934398 0.0028676002
-0.019447971 0.037039142 0.0015962649 0.30352053 0.93860829 0.16398095 0.0041401279
-0.017046958 0.036330033 0.0015851228 0.27254462 0.95282483 0.13358223 0.0029124273
0.023932908 0.036051314 0.00074454979 -0.24790224 0.96432984 0.092803687 0.0040318491
0.02569152 0.036411043 0.0015706705 -0.28275794 0.94949335 0.13605294 0.0036470219
0.028545341 0.03733141 0.0015229791 -0.31609637 0.93768919 0.14429854 0.0034762761
0.031377487 0.038349338 0.0016260702 -0.36795849 0.9186725 0.1436919 0.0037416914
0.033096887 0.038896568 0.0025037206 -0.41748157 0.8992759 0.13042991 0.0043317964
0.071219504 0.037577156 0.0017114597 0.94882417 -0.27470395 0.15578972 0.0033282666
-0.070619643 0.040453721 0.0016153774 -0.89239496 -0.43196648 0.13052283 0.003298393
-0.030667456 0.041691106 0.0017628954 0.46529761 0.87947112 0.10014337 0.0035016562
-0.028447956 0.040652558 0.001585442 0.39764678 0.91223222 0.098536611 0.0029325204
-0.02590994 0.039600417 0.0015095427 0.36884958 0.92059505 0.1282762 0.0029464769
0.032805614 0.039082926 0.00092566403 -0.39854977 0.9083519 0.12670787 0.003992931
0.034557436 0.039779592 0.0014597338 -0.42614269 0.89625949 0.12296926 0.0037113933
0.037337732 0.041200582 0.0015533115 -0.48949659 0.86313987 0.12402667 0.0032964104
0.039127093 0.041935541 0.0024304574 -0.48976439 0.86500955 0.1090386 0.0043183812
0.071807802 0.040131919 0.0019202544 0.96156305 -0.22794022 0.15310042 0.0040608677
