# .PCD v0.7 - Point Cloud Data file format
VERSION 0.7
FIELDS x y z normal_x normal_y normal_z curvature
SIZE 4 4 4 4 4 4 4
TYPE F F F F F F F
COUNT 1 1 1 1 1 1 1
WIDTH 566
HEIGHT 1
VIEWPOINT 0 0 0 1 0 0 0
POINTS 566
DATA ascii
-0.014155728 0.0019941293 0.0029316584 -0.1800341 -0.91379243 0.36410323 0.001000356
-0.005043929 0.00079496804 0.0022220691 -0.061872128 -0.920986 0.38465139 0.0013649237
0.0051100836 0.00058591407 0.0025788131 0.041997749 -0.91881126 0.39245653 0.00030971639
0.0066128261 0.00052074523 0.002054953 0.049279902 -0.91771775 0.39416444 0.00035191359
0.011255329 0.0009471997 0.0028406926 0.088322297 -0.92624909 0.36641759 0.00078799925
0.013625917 0.0010985777 0.0021711565 0.10800086 -0.91477948 0.38924849 0.00060007285
0.016801842 0.0015145548 0.0021402028 0.12502737 -0.92172736 0.36713332 0.00066593586
0.022013627 0.0026718061 0.0029798101 0.15409763 -0.88735825 0.43456799 0.0025727996
-0.024112752 0.0045678932 0.002906549 -0.27762052 -0.89996481 0.33614025 0.00014211609
-0.022593649 0.004059853 0.0028000637 -0.26639318 -0.90648031 0.32760972 0.00033364122
-0.019130966 0.0030451585 0.0028490522 -0.24305896 -0.90893531 0.33876088 0.0007690136
0.024213651 0.0031077303 0.0028234499 0.19904818 -0.87731689 0.43668631 0.0010823749
-0.034604356 0.0082762577 0.0027585994 -0.36040926 -0.87425959 0.32523131 0.00070979516
-0.030703055 0.0068022842 0.0027554608 -0.32200408 -0.88312137 0.34118927 0.00030810313
-0.039271772 0.010461589 0.0029972037 -0.39882123 -0.85953045 0.31960779 0.00033433212
-0.037313361 0.0094948011 0.0029051639 -0.39982882 -0.85885543 0.3201628 0.00031981012
0.044812646 0.010657798 0.0028713669 0.4241457 -0.80871201 0.40753576 0.00022931238
-0.058711562 0.024043005 0.0029691325 -0.65825653 -0.6877262 0.30615523 0.0013625219
-0.064959869 0.031827871 0.00079886173 -0.77884191 -0.62714714 -0.0095836651 0.002252942
-0.000889302 0.032890987 0.0026011507 0.090377726 0.95727611 0.27468964 0.0018592642
0.0015085551 0.032853879 0.0018581082 0.062582456 0.96417445 0.25778121 0.0029388224
0.0045016892 0.032830879 0.0014476359 0.0071682059 0.96790087 0.25123009 0.0030396972
0.0078178039 0.032805786 0.0019332495 -0.07601776 0.9714343 0.22480398 0.0050905985
0.010315537 0.032895993 0.0024733113 -0.095372356 0.96652317 0.23819548 0.0029210087
0.012327382 0.032917202 0.0027525837 -0.15615582 0.9662717 0.20477892 0.0020816657
-0.067125902 0.034606177 0.00117737 -0.81277883 -0.57996011 0.055108152 0.0014553338
-0.015721215 0.035755493 0.0022900198 0.28997073 0.92828745 0.23280753 0.0019114536
-0.013517466 0.035145264 0.0015519442 0.26933938 0.95574731 0.11833619 0.0030483564
-0.010402363 0.034435995 0.0018588537 0.20877571 0.94146669 0.26467553 0.0027123867
-0.0072121574 0.033880215 0.0019413403 0.14810744 0.95664185 0.25079992 0.0028738973
-0.0044200127 0.033408098 0.001948824 0.12679739 0.96430725 0.23245184 0.0029531731
-0.0016114477 0.033113644 0.00088921806 0.078613147 0.99205416 0.098226808 0.0060952646
0.00032992891 0.033003118 0.00047277412 0.054783814 0.99372703 0.097495429 0.0064196233
0.0088735633 0.033021618 0.0012270096 -0.15937032 0.98384237 0.081579953 0.0060289083
0.010917448 0.033118445 0.00096484239 -0.086545728 0.99532163 0.042948581 0.0036959331
0.013541711 0.033412952 0.0015360763 -0.13460849 0.96982849 0.20325643 0.0030279004
0.016500635 0.033930007 0.0015488993 -0.19470352 0.96372741 0.1825375 0.003513667
0.019419968 0.034648102 0.001489946 -0.25684801 0.95159376 0.16881485 0.0027400535
0.022628209 0.035527892 0.0015528863 -0.27295947 0.95066071 0.1474354 0.0030260466
0.024270035 0.035930876 0.0022584724 -0.3124342 0.93817848 0.14901686 0.0030188833
-0.069506042 0.03818864 0.0015321149 -0.86412638 -0.48231727 0.14372098 0.0043381988
-0.068648413 0.036829263 0.0014653766 -0.83982825 -0.53835666 0.069718398 0.0014828024
-0.024532355 0.038815215 0.0017922608 0.4097352 0.90635568 0.10313318 0.0030528728
-0.022478729 0.038028672 0.0019958201 0.34995416 0.91030085 0.22109836 0.0017947796
-0.019315777 0.0368893 0.0019117943 0.29855201 0.92328459 0.24168628 0.0027907076
-0.017103516 0.036217991 0.0019753033 0.2765404 0.93401057 0.22616307 0.0021760459
0.025702497 0.036456898 0.0013376055 -0.28938645 0.94742376 0.13654131 0.0030683754
0.028579125 0.037379958 0.0014900161 -0.30949622 0.93437177 0.17652614 0.0032625208
0.031575192 0.038451564 0.0015658011 -0.3691341 0.92180336 0.11840016 0.0035917771
0.033034012 0.038885817 0.0025245543 -0.41383457 0.895935 0.16137382 0.0053021726
-0.070729695 0.040448725 0.0017216741 -0.87770075 -0.45912412 0.1372826 0.002566091
-0.030834142 0.041599058 0.0016050388 0.46323884 0.88039696 0.1015432 0.0026963521
-0.028510666 0.040509105 0.0015054176 0.40821126 0.90935344 0.080249101 0.0027597246
-0.026362333 0.039657515 0.0018761962 0.37218952 0.90098196 0.22294943 0.0020183425
0.034534831 0.039813861 0.0014287587 -0.43713689 0.89159876 0.1181645 0.0033948955
0.037313916 0.041236479 0.001567877 -0.49242491 0.85872048 0.14183404 0.0030153694
-0.07231193 0.044075515 0.0014255549 -0.91861475 -0.31721243 0.23563378 0.0026520416
-0.071732029 0.042827155 0.0021576975 -0.89970076 -0.37646154 0.22094195 0.0032888579
-0.036761869 0.044593915 0.0016892259 0.48350441 0.86882001 0.10665521 0.0027597498
-0.034412827 0.043435674 0.0014642065 0.45305693 0.88807338 0.077879414 0.0020449336
-0.032492138 0.042495806 0.0018912712 0.42658699 0.87486249 0.22943221 0.0017906458
0.038758051 0.042198952 0.00071627717 -0.52986103 0.84366113 0.086504713 0.0045878682
0.040468231 0.043163437 0.0014011384 -0.52095217 0.84230512 0.1383145 0.0029310214
0.042593226 0.04451561 0.0015705709 -0.54859787 0.82810259 0.11526674 0.0023582545
-0.073093198 0.046534233 0.0015941011 -0.91867 -0.29566792 0.26196554 0.0053687044
-0.042618543 0.047800615 0.0017757157 0.51252055 0.8503564 0.11923369 0.003235725
-0.040634423 0.046730123 0.0015031836 0.4810186 0.86895752 0.11633552 0.003511199
-0.038253102 0.04541954 0.0013967064 0.45010704 0.88581353 0.11286322 0.003152543
0.044148907 0.04555811 0.0014298066 -0.52865762 0.84005296 0.12178729 0.0027523024
0.046391297 0.0470508 0.0014654348 -0.55308461 0.8191734 0.15183005 0.0037143293
-0.075189389 0.050898157 0.00020232089 -0.849181 -0.38139835 0.36527646 0.0061519123
-0.074119344 0.049518254 0.001799544 -0.87616879 -0.34370378 0.33792892 0.0092433803
-0.048229326 0.050832614 0.0022960091 0.43248236 0.88700753 0.16179213 0.0061696353
-0.046344899 0.049930859 0.0020282494 0.45340621 0.84862036 0.27251858 0.0024677666
-0.043853331 0.048557587 0.0013686689 0.46715319 0.87537163 0.12446835 0.0037137598
0.04783595 0.048131209 0.00074869179 -0.53829581 0.83649695 0.10252073 0.0056950729
0.049528286 0.049150463 0.0014727903 -0.53031826 0.8309496 0.16818267 0.003369119
0.051686157 0.050542127 0.0017366767 -0.55183423 0.81831694 0.16073741 0.0039530904
-0.075593941 0.052694689 0.0016257075 -0.83678603 -0.2068288 0.50696248 0.015362658
-0.074658491 0.051578667 0.0026983479 -0.78441805 -0.28926587 0.54864711 0.008634205
-0.054365333 0.05384884 0.0026126923 0.35076317 0.88331187 0.31100684 0.0037595085
-0.052652664 0.053357538 0.0017934793 0.39848599 0.87669176 0.2694819 0.0021948668
-0.049650535 0.051701732 0.0021315005 0.43419385 0.85942513 0.26993361 0.0026346596
0.053123847 0.051558793 0.0013762655 -0.52243966 0.83675849 0.16398764 0.0038912415
0.055452693 0.05302994 0.0015471688 -0.54688883 0.81497449 0.1916489 0.0050713234
0.057216249 0.053808063 0.0026368846 -0.52397615 0.78731298 0.32494196 0.0091423495
-0.076129749 0.055984139 0.0016027222 -0.73397493 0.48047391 0.48002669 0.031644762
-0.06058041 0.056598373 0.0018950661 0.43675241 0.83386797 0.33750784 0.0055837408
-0.058544982 0.055671357 0.0018763723 0.36102146 0.8753162 0.32169101 0.0044982973
-0.055874594 0.054604329 0.0018769889 0.34452349 0.8999418 0.26722339 0.0031833623
0.05687362 0.054245383 0.00064904406 -0.57397026 0.80257684 0.16256873 0.0063990732
0.058571737 0.055220276 0.0014918922 -0.55975455 0.79264379 0.24164136 0.0074727908
0.06057243 0.056591284 0.0018644993 -0.67147487 0.70003754 0.24304096 0.011369358
0.072124645 0.055923443 0.0029258931 0.4944526 0.19099157 0.8479616 0.0076524983
-0.075418174 0.057367492 0.0017134747 -0.67200994 0.63322508 0.38396445 0.060754143
-0.073520228 0.058562282 0.0016116301 -0.52276582 0.82434922 0.2171732 0.016216064
-0.071160346 0.059649926 0.0014883177 -0.35889369 0.92047101 0.15468855 0.0074793748
-0.066300854 0.059638366 0.0024986058 0.32131368 0.80121946 0.50478208 0.0083408384
-0.064572044 0.058952391 0.0019116418 0.43375918 0.79562622 0.42288521 0.0055661523
-0.062132914 0.0574857 0.0017549372 0.43331322 0.82387173 0.36534229 0.0064927163
0.061949473 0.05823344 0.0013348246 -0.74050593 0.60745806 0.28748158 0.020333519
0.063409902 0.059444442 0.0023158693 -0.72453308 0.56216675 0.39877361 0.022872733
0.072010055 0.059625961 0.0029459645 0.3811675 0.11056262 0.91787106 0.012757033
-0.069582433 0.060369052 0.0019809508 -0.15949796 0.95651889 0.24419653 0.022198642
-0.06754759 0.060448799 0.0017978793 0.095991775 0.95459288 0.28202483 0.02783568
-0.06572184 0.060045186 0.00042646658 0.28521344 0.95353436 0.097085513 0.015040517
0.062820978 0.06002453 0.00048842165 -0.76543987 0.58243424 0.27362782 0.010070522
0.064207174 0.061504934 0.0016008409 -0.77698851 0.44183466 0.44840926 0.029090732
0.072668746 0.061604239 0.0022013222 0.2840853 0.060097776 0.95691371 0.011168424
0.0650957 0.064361893 0.0013359463 -0.84449464 0.29411694 0.44757581 0.026902646
0.066424958 0.064950384 0.0027059261 -0.6737377 0.26610231 0.68939614 0.021024024
0.071905226 0.063224219 0.0029476713 0.22100718 0.0052746623 0.97525793 0.0083086165
0.072659709 0.064675331 0.0025662347 0.18489228 0.019316329 0.98256892 0.011819178
0.065589882 0.067238323 0.00086850068 -0.9038052 0.23905972 0.3549459 0.032255869
0.067002095 0.067681096 0.0022991013 -0.58984292 0.26229995 0.76373035 0.03948532
0.069339767 0.068344086 0.0028797248 -0.22298889 0.03528893 0.97418207 0.011490719
0.073359311 0.067124046 0.0024137963 0.11695842 -0.089797199 0.98906881 0.0094500948
0.065839916 0.069435038 0.00044280835 -0.81080985 0.27298844 0.51774955 0.048412763
0.067205399 0.070498556 0.0016633129 -0.77266777 0.19182721 0.60513371 0.034157969
0.069253258 0.07067585 0.0027760675 -0.46555197 -0.0048497929 0.88500726 0.027153457
0.074273922 0.070225358 0.0026209638 0.2625708 -0.15761313 0.95195311 0.012436864
0.067523725 0.073493779 0.0015243323 -0.83337116 0.050119713 0.55043668 0.022178248
0.069215372 0.072724059 0.0027501583 -0.48870283 -0.060350731 0.87036043 0.009610232
0.075944565 0.073861793 0.0017503942 0.43683764 0.53212363 0.72527057 0.010464087
0.067857459 0.076232709 0.0014418525 -0.86871731 0.26280889 0.41983548 0.060477663
0.069812976 0.076637968 0.0020397054 -0.48621416 0.65623581 0.5770185 0.047397643
0.073452011 0.075599805 0.0015901735 0.31386378 0.94361407 0.10527134 0.0043301778
0.075147234 0.075078271 0.0010061105 0.32832441 0.94143087 0.076882929 0.0052186945
-0.015988719 0.0025629732 0.0038932301 -0.19795392 -0.90554321 0.37524101 0.0011618329
-0.013254712 0.0023506281 0.0046784789 -0.16221541 -0.90750378 0.38745725 0.0012506566
-0.010549732 0.0019314537 0.0046096188 -0.1365048 -0.89976531 0.41447425 0.00080219237
-0.0076152841 0.0017374168 0.0051046838 -0.072653256 -0.91496319 0.39694321 0.0020788715
-0.0044035101 0.0013054088 0.0046446905 -0.040075652 -0.9096595 0.41341695 0.0025215449
-0.0014893874 0.0010795619 0.0043499093 -0.03262601 -0.90651381 0.42091364 0.0024675177
0.0015477632 0.0010247378 0.0042064642 0.041765366 -0.90612316 0.4209471 0.00077598344
0.0045115119 0.0012900901 0.0046517099 0.06205301 -0.90570211 0.41934854 0.00087628642
0.0076707625 0.0014925301 0.0046317233 0.047468692 -0.90856236 0.41504356 0.00096694054
0.010210137 0.0016341797 0.0046782396 0.07074707 -0.90985894 0.40884185 0.0012250742
0.013359735 0.0019781762 0.00473365 0.11682533 -0.90090072 0.41800684 0.0015084596
0.016476935 0.0023598687 0.0048054913 0.098456882 -0.89695948 0.4310104 0.0019121581
0.019183172 0.0026022387 0.0044607064 0.134259 -0.88715881 0.44150168 0.0024379659
0.021086996 0.0027409624 0.0038987417 0.16699047 -0.88585538 0.43286765 0.0028144924
-0.027137985 0.0055795871 0.0031197844 -0.29841939 -0.89006209 0.34458005 0.00043802493
-0.025252679 0.0054296781 0.0044541899 -0.27019185 -0.88625884 0.37622023 0.00059942575
-0.02245561 0.0046260394 0.0046600844 -0.26259407 -0.88804197 0.37739369 0.00060798472
-0.019492093 0.003679883 0.0045341579 -0.24132347 -0.89728206 0.36965919 0.00066268485
-0.016732452 0.0032659951 0.0052011255 -0.2142635 -0.90397149 0.37003621 0.00090900867
-0.014659557 0.0031164475 0.0058452925 -0.19097961 -0.88978231 0.41450486 0.002096151
0.020061161 0.0033442201 0.0056722974 0.16089213 -0.85813773 0.4875586 0.0014326178
0.022611689 0.0035887684 0.0051458264 0.18284675 -0.86967587 0.45850947 0.0019470234
0.025705978 0.0041648075 0.0048965053 0.1840782 -0.86198449 0.47233248 0.0019119112
0.028506428 0.0050129979 0.0050086761 0.21367939 -0.85355526 0.47516787 0.0018265117
0.03122366 0.0054946635 0.00418757 0.25453275 -0.82074243 0.51146352 0.0011706356
-0.033963814 0.0084499419 0.0042811939 -0.34273753 -0.87227446 0.34880996 0.00079843652
-0.031542268 0.0076887198 0.0046182857 -0.32183748 -0.86901444 0.37581179 0.00097379211
-0.028605619 0.0066214437 0.0046806666 -0.31312591 -0.87008268 0.38066837 0.00074728427
-0.026178051 0.0061500785 0.0055240109 -0.27733123 -0.88043708 0.38460121 0.00050359598
0.03173859 0.0062059779 0.0055771307 0.26227874 -0.81563568 0.51570183 0.001225453
0.034573428 0.0069426419 0.004887349 0.29608333 -0.8293041 0.47390866 0.00054967409
0.037182141 0.0079909358 0.0051008528 0.31884435 -0.79531616 0.51556826 0.0013532053
0.039365388 0.0088431593 0.0050846972 0.34456071 -0.80439067 0.4839769 0.0010953546
-0.042193137 0.011904469 0.0031271286 -0.44235083 -0.82931525 0.34141183 0.00065133785
-0.040417455 0.011433041 0.0043893056 -0.41013402 -0.84583688 0.34110132 0.0004568478
-0.037469327 0.010197422 0.0048348685 -0.38735124 -0.85766727 0.33818024 0.00045243738
-0.035235614 0.0092635807 0.0051011904 -0.35464653 -0.8616519 0.36301771 0.00068744959
0.040998597 0.0098207295 0.0054703872 0.3599669 -0.79160744 0.49374241 0.00090089615
0.043071754 0.010504462 0.0047605261 0.41218081 -0.80117393 0.43385175 0.00082090445
0.045797374 0.011688767 0.0042438428 0.42606166 -0.80777395 0.40739754 0.00025077371
-0.045742754 0.014494812 0.0044048955 -0.49050334 -0.79177463 0.36400479 0.00028583765
-0.043603089 0.013258137 0.0046871011 -0.46868575 -0.80130982 0.37180138 0.00042033294
-0.041645132 0.012445481 0.0054558199 -0.420479 -0.8219831 0.38411099 0.0013034411
0.047182724 0.012683233 0.0047906418 0.42801198 -0.79623973 0.42756066 0.00082158978
0.049495183 0.014158107 0.0051415195 0.46536878 -0.75548202 0.46117118 0.0017042699
-0.049358446 0.0169007 0.0045183389 -0.52399671 -0.76218486 0.38013381 0.00030295915
-0.047177911 0.015599197 0.0048805256 -0.50061864 -0.77407146 0.38754928 0.00019303405
0.053009454 0.016088687 0.0042256583 0.5114063 -0.74773139 0.42351088 0.00032131115
-0.054524578 0.020637613 0.0044334619 -0.59699339 -0.73054987 0.33150551 0.001849948
-0.052469086 0.019241899 0.0047280001 -0.55041367 -0.73444718 0.39702928 0.00027326716
-0.05055514 0.018189143 0.005518192 -0.53971976 -0.742356 0.39700159 0.00044022856
0.055609271 0.018073905 0.0045997617 0.50550628 -0.70465779 0.49791649 0.0018949949
-0.057510316 0.023276435 0.0049063028 -0.63214302 -0.69083148 0.35092327 0.0021218429
-0.055849098 0.021950744 0.005034958 -0.60751611 -0.7117632 0.35258657 0.0022432532
-0.060586344 0.026181519 0.0046423157 -0.67034358 -0.64726967 0.36287943 0.0026261783
-0.059057113 0.02478273 0.0049819662 -0.64757621 -0.66476268 0.37247235 0.0027528754
-0.063507132 0.02966577 0.0047794869 -0.71583474 -0.55608761 0.42231184 0.00074065506
-0.06212369 0.028111087 0.0049798433 -0.69581789 -0.57974827 0.42394516 0.00091607647
0.065592043 0.029081656 0.0059481259 0.68919313 -0.41305414 0.59531426 0.00085552252
-0.064755879 0.031532079 0.0048580533 -0.80570537 -0.5331009 0.2581518 0.012926378
-0.0093932478 0.032866124 0.0057190866 0.19102961 0.91255122 0.36160466 0.0020173714
-0.0073060784 0.032722894 0.0053652958 0.16365258 0.91156095 0.37719294 0.0010067816
-0.0043352395 0.032538772 0.0047777537 0.12726711 0.91808182 0.37540495 0.0010507382
-0.001496939 0.032274358 0.0045987233 0.10165168 0.92581832 0.36404324 0.0013634947
0.0015876882 0.032046113 0.0046169814 0.04123649 0.93718249 0.34639356 0.0020183558
0.0046639815 0.031787474 0.005044309 0.0042574825 0.92263752 0.38564453 0.0016458927
0.00750054 0.031967539 0.0047108908 -0.031358883 0.9272759 0.37306294 0.0023767997
0.010609146 0.03220785 0.0046548136 -0.10909533 0.93145061 0.34712806 0.0023992585
0.01344967 0.032501906 0.0047612409 -0.14164446 0.91963983 0.36633235 0.0021195428
0.016260212 0.032715648 0.0054258746 -0.19787836 0.89924967 0.39012071 0.0017092539
0.01807059 0.032883294 0.0057826475 -0.20696926 0.88156807 0.42426577 0.0022028584
-0.066923745 0.034801062 0.0045783361 -0.83005339 -0.47550493 0.29138717 0.0068824319
-0.065739274 0.033271439 0.0053526321 -0.81962341 -0.50012666 0.27944741 0.0050058882
-0.018883744 0.035664104 0.0054269712 0.29783079 0.88915598 0.34741685 0.0015740375
-0.01655376 0.03526793 0.0047655134 0.27029464 0.89885926 0.34495339 0.0012900559
-0.013527896 0.034423023 0.0046164705 0.24534726 0.9015606 0.35636109 0.0011495933
-0.010584351 0.033704121 0.0045895986 0.19616443 0.91528052 0.35182542 0.0012424832
-0.0077751428 0.033416875 0.0039483532 0.15885758 0.92408657 0.34760362 0.0013623154
-0.005404802 0.033254206 0.003291999 0.13256694 0.92563397 0.35444021 0.0013836934
0.014082052 0.033093929 0.0034432656 -0.14152384 0.94483906 0.29538128 0.0019632163
0.016607715 0.033408385 0.0039434745 -0.18999632 0.92214096 0.33698294 0.0027129941
0.01956005 0.033918601 0.0044800956 -0.23564152 0.91210908 0.33545512 0.0022242852
0.022487836 0.034738198 0.0044769193 -0.26193163 0.89775014 0.35417017 0.0022316962
0.025312295 0.035456445 0.0046847798 -0.28893313 0.89765 0.33277956 0.0020723995
0.027518742 0.03584284 0.005444074 -0.30359876 0.8859542 0.35058945 0.0023030296
0.067937128 0.033112634 0.0058097867 0.76083708 -0.32653338 0.56080568 0.0012074105
-0.069224991 0.038447078 0.0038164428 -0.84598631 -0.42445284 0.32271805 0.0047456971
-0.068223886 0.037312854 0.0048380238 -0.84084296 -0.40371019 0.36055678 0.0081244903
-0.027485382 0.038855463 0.0057598855 0.36200231 0.86757416 0.34098294 0.0012791709
-0.025270553 0.038354751 0.0048567094 0.36315396 0.86882806 0.33653694 0.0011994004
-0.022335853 0.037255675 0.0045808353 0.33406192 0.87963855 0.33858323 0.0012458352
-0.019654404 0.036367573 0.0043895142 0.29449224 0.89713734 0.32927024 0.0013913478
-0.017751498 0.036095444 0.003192662 0.27319077 0.94618171 0.17351356 0.003488759
0.026296908 0.036245093 0.0034505725 -0.27448785 0.92278254 0.2704235 0.0013719676
0.02863043 0.036695614 0.0043032663 -0.3078202 0.89557654 0.32123104 0.0021913312
0.031473119 0.037640736 0.0044910465 -0.36284271 0.87078899 0.33177069 0.0023062562
0.03387231 0.038564648 0.0048302789 -0.40148571 0.85045671 0.33990079 0.0026370713
0.070200704 0.03767959 0.0047974507 0.76391006 -0.2099687 0.61020869 0.0016946689
-0.069841944 0.040594824 0.0045926147 -0.84008974 -0.31919888 0.4385902 0.0030768502
-0.068820871 0.039168198 0.0054910979 -0.83855623 -0.37760797 0.39272863 0.0054098358
-0.033745971 0.041845948 0.0055495445 0.42639732 0.83386201 0.35051331 0.0019610394
-0.031502742 0.041099466 0.0049161352 0.41460934 0.843593 0.34124771 0.001358047
-0.02859278 0.039839856 0.0046442882 0.38163033 0.86213827 0.33328044 0.001432305
-0.026221849 0.03929472 0.0034106195 0.36162713 0.87405288 0.3244341 0.0011620066
0.035204995 0.039477553 0.0040879739 -0.40380552 0.85315633 0.33025062 0.0022742185
0.037597332 0.040603902 0.0044652191 -0.45518574 0.82764727 0.32833812 0.0032075364
0.03975049 0.041663155 0.0050347666 -0.50649625 0.80178565 0.31717697 0.0027350395
-0.07212662 0.04492778 0.0031255179 -0.91909248 -0.28394687 0.27320915 0.0051774895
-0.070879437 0.043535545 0.0046453807 -0.84140462 -0.2453357 0.48150674 0.0040557981
-0.039463475 0.04472772 0.0055802143 0.43442559 0.81579846 0.38176867 0.0035814326
-0.03747629 0.044151377 0.004812981 0.4224816 0.824579 0.37626961 0.0012254833
-0.034731813 0.042894986 0.0045200307 0.42233232 0.84187949 0.33596772 0.0013374122
-0.032867998 0.042193864 0.0039482703 0.42059925 0.85700327 0.29772756 0.0036798264
0.040923204 0.042728107 0.0041791215 -0.49547091 0.80774486 0.31946343 0.0027004972
0.043364212 0.044100109 0.0046309736 -0.49869144 0.79783863 0.33876309 0.0030361982
0.045180012 0.044769168 0.0057155504 -0.45428953 0.79702157 0.39796683 0.0042060511
-0.072369084 0.046753202 0.0037002475 -0.83497071 -0.25034985 0.4900499 0.0046017123
-0.071396433 0.046343908 0.0050991913 -0.81158507 -0.181932 0.55518508 0.0056658066
-0.045175623 0.047872018 0.0055266214 0.48922148 0.78045231 0.38930267 0.003301685
-0.043368887 0.047313064 0.0048185829 0.43071803 0.81547189 0.38663623 0.0015969452
-0.040650412 0.045984797 0.0044775736 0.42718124 0.8186087 0.3839218 0.0012634095
-0.038651872 0.045181308 0.0035531328 0.44773498 0.83514661 0.31947386 0.0018017946
0.044542473 0.045320421 0.0035089317 -0.50350815 0.80149198 0.3226299 0.0021028826
0.046524543 0.046210606 0.0044467277 -0.49267438 0.79437196 0.35531005 0.0034760435
0.04889752 0.047479078 0.0049774391 -0.48937079 0.77961659 0.39078653 0.0042593977
0.070555329 0.046861541 0.0058004553 0.65639383 0.11042429 0.74629331 0.0028744086
-0.072779067 0.049514148 0.0042863642 -0.77678645 -0.23091096 0.58590353 0.0077544241
-0.07155209 0.04916222 0.0056669679 -0.75311095 -0.13790376 0.643278 0.0074211713
-0.051369939 0.050900981 0.0058734664 0.36051193 0.76295763 0.53658813 0.0021057862
-0.049034096 0.050408117 0.0047336258 0.42697749 0.81244451 0.39701909 0.0016010399
-0.046558596 0.049179725 0.0045238622 0.43926829 0.81286067 0.38249299 0.0014887168
-0.044315845 0.048320256 0.0037120441 0.43836477 0.82118106 0.36537364 0.00094506121
0.050052121 0.048649322 0.0041127033 -0.51422262 0.77766699 0.36167547 0.00320383
0.052361012 0.049841661 0.0046531945 -0.48151854 0.77033538 0.41799903 0.0039022043
0.054543715 0.050643649 0.005578205 -0.43918526 0.72398412 0.5319429 0.0033218169
0.070998929 0.049644418 0.0050148927 0.65093225 0.11474703 0.75041348 0.0025884083
-0.075290129 0.053921651 0.003020541 -0.81125516 -0.11344762 0.57358056 0.025897196
-0.072872505 0.053261325 0.0050659655 -0.52698803 0.033334434 0.84921873 0.0071464945
-0.071797594 0.052573346 0.0058590923 -0.50676596 0.071451478 0.85911751 0.0072229397
-0.057868227 0.0536898 0.0056174244 0.2574805 0.80365813 0.53650469 0.0023884284
-0.05539766 0.053303115 0.0048204064 0.33731955 0.84576118 0.41340488 0.0014463244
-0.052512411 0.052262623 0.0045468914 0.36259475 0.8227905 0.43765381 0.0016502847
-0.050292067 0.05138123 0.0040054587 0.41034254 0.81911808 0.40082985 0.001537557
0.053677607 0.051278625 0.0034904536 -0.48055694 0.78967583 0.38141459 0.0020243078
0.055685598 0.052045912 0.0043718335 -0.46461725 0.77532703 0.42778373 0.0041553574
0.05817141 0.053179175 0.0049466006 -0.42955449 0.73774666 0.52078104 0.0062159151
0.060363837 0.053840693 0.0056886799 -0.39778003 0.69311976 0.601129 0.0043803989
0.070515722 0.053009741 0.0054030158 0.5318417 0.20608905 0.82138401 0.003239275
-0.075306341 0.055822693 0.0032751372 -0.74079376 0.29574519 0.60312468 0.043296419
-0.073519289 0.05564132 0.0047804057 -0.56781524 0.23813795 0.78795701 0.017591059
-0.071071669 0.056036375 0.0058135288 -0.32356733 0.24147616 0.91487342 0.0097005479
-0.066935085 0.056586772 0.0057934336 0.12396948 0.58095521 0.80443931 0.008485958
-0.064339384 0.056245718 0.0052941712 0.26240653 0.70425552 0.65967196 0.0079927063
-0.061554164 0.055626664 0.0046073962 0.30531815 0.787278 0.53569978 0.006302055
-0.058743477 0.054704268 0.004382405 0.29380417 0.8397848 0.45655301 0.0029777433
-0.056412552 0.054247718 0.0036387523 0.33074036 0.85178763 0.40628639 0.0015101405
0.059162349 0.0545616 0.0038752265 -0.50376391 0.72688878 0.4667491 0.0050965701
0.061529528 0.055541422 0.0046137334 -0.44815755 0.65695733 0.60626882 0.0072734524
0.064113952 0.056364957 0.005472492 -0.28719535 0.56504494 0.7734617 0.0077408492
0.067770362 0.056735825 0.0059048771 -0.044902526 0.40546882 0.91300535 0.012204445
0.070228785 0.055731356 0.005128419 0.38146845 0.25810158 0.88761783 0.0082806088
-0.073163152 0.057938211 0.0041656476 -0.52833402 0.54044843 0.65481186 0.018114621
-0.07043568 0.058549438 0.0046904027 -0.21843849 0.65821439 0.72044319 0.021658607
-0.06759581 0.058422022 0.0044622412 0.20518252 0.71493095 0.66841143 0.0074708229
-0.064824134 0.057769902 0.0039676707 0.34819308 0.70833969 0.61401659 0.0052671582
-0.062907428 0.057184078 0.0033691819 0.39735186 0.72352314 0.5644694 0.0051034675
0.062552981 0.057404637 0.0034439676 -0.53038996 0.61855578 0.57971984 0.0075006164
0.064525507 0.058420163 0.0042501907 -0.47928351 0.49446607 0.72511429 0.01650417
0.067219861 0.058670413 0.0051429062 -0.16710135 0.39856416 0.90178919 0.013445125
0.07026507 0.05861732 0.004458305 0.39453045 0.25092685 0.8839578 0.0070304722
-0.069410995 0.060042106 0.0031142319 -0.19285473 0.87876987 0.43654388 0.026220912
-0.068728305 0.060065042 0.003123506 0.035468567 0.94354546 0.32933861 0.026632976
0.065456234 0.061042566 0.003455925 -0.57209826 0.33978242 0.7464928 0.01038771
0.067273743 0.061652232 0.004045466 -0.33531761 0.29768452 0.89383781 0.020928303
0.07037361 0.061466165 0.0037981835 0.2096675 0.22358468 0.95186627 0.015973523
0.067636408 0.064367056 0.0034029305 -0.39294437 0.27325472 0.87802428 0.030458795
0.070401125 0.064394295 0.0033707644 0.089951627 0.07145226 0.99337971 0.018224215
0.06826131 0.066679068 0.0031377575 -0.24152219 0.14757618 0.95910805 0.02181492
0.070604362 0.067284718 0.0032287773 -0.13826932 0.050167087 0.98912328 0.014943735
0.072268218 0.067395009 0.0031610855 0.074534148 -0.049036175 0.99601209 0.012669584
0.070648573 0.070525751 0.0034121666 -0.28274271 -0.10379116 0.95356387 0.016530713
0.072559401 0.070705809 0.0036414638 -0.16563891 -0.12393244 0.97836828 0.013657662
0.068818465 0.074693322 0.0030326676 -0.59627056 0.046097115 0.80145901 0.040388212
0.070436187 0.073603906 0.0038697261 -0.40886474 -0.079412535 0.90913326 0.012970741
0.073556021 0.07404884 0.0042736046 0.20306294 0.10578343 0.97343481 0.079020537
0.075455993 0.074151851 0.0032214713 0.23077826 0.59281385 0.77156532 0.031272329
0.068883896 0.076012984 0.003169161 -0.65097529 0.26906633 0.70981306 0.065415055
0.070273131 0.075853705 0.0038764242 -0.40226299 0.12366591 0.90713358 0.043396976
0.07280913 0.075643875 0.0042868052 -0.11344865 0.31698251 0.94162172 0.033489291
-0.010041868 0.0025675809 0.0062465025 -0.12866229 -0.86592853 0.48333612 0.00085215736
-0.0074730613 0.0025436038 0.0068021296 -0.086628973 -0.86897469 0.48721507 0.0013669966
-0.0042654793 0.0022526588 0.0067021381 -0.036353763 -0.86669934 0.49750447 0.0013737293
-0.0015458934 0.0024380668 0.0072054183 -0.0091370242 -0.86625707 0.49951503 0.0019229997
0.0014802512 0.0023654352 0.0070713684 0.0060983067 -0.86646849 0.49919456 0.00195006
0.0043797833 0.0024634327 0.0070831422 0.043062322 -0.86711949 0.49623534 0.0017056522
0.0073040649 0.0025478704 0.0068507795 0.062678739 -0.85827899 0.50934142 0.0014951974
0.01051443 0.0026257709 0.0065937475 0.084035926 -0.87883675 0.46966368 0.00056152558
0.013575757 0.002775969 0.0061125821 0.10869558 -0.88474667 0.45322028 0.0016184105
0.015684865 0.002971027 0.0060698576 0.13586228 -0.86239564 0.48766303 0.0027055433
-0.022281947 0.0055330042 0.0068444884 -0.25838426 -0.85096824 0.4572643 0.0010546366
-0.019491447 0.0051046195 0.0075482363 -0.22527297 -0.84990364 0.47635701 0.0010039939
-0.016516225 0.0044273208 0.0076270658 -0.19391209 -0.84978688 0.49016362 0.0014317436
-0.013464523 0.0038449399 0.0076487996 -0.14922041 -0.85245758 0.50104839 0.00078349328
-0.010446703 0.0036221577 0.0080820546 -0.11588152 -0.83547616 0.53716946 0.0017623914
-0.0074804691 0.003331349 0.0082045682 -0.078294531 -0.8384046 0.53939575 0.0010536463
-0.0045462288 0.0032832439 0.0084478753 -0.034463029 -0.83792627 0.5446943 0.001598129
-0.001378684 0.0034721077 0.0087750554 -0.015050274 -0.79977834 0.60010684 0.0007344007
0.0016701628 0.0034092313 0.0087823151 0.0074332384 -0.83901966 0.54405046 0.002461602
0.0045669749 0.0033372547 0.0085639926 0.045450144 -0.83241355 0.55228794 0.0019313743
0.007578705 0.0034733927 0.0083113499 0.066116057 -0.83463049 0.54682785 0.0015169834
0.010537175 0.0035147185 0.0080049997 0.086681582 -0.83144021 0.54881108 0.00078593614
0.013522089 0.0037858754 0.0077561438 0.11392166 -0.82794929 0.54911005 0.00040980772
0.016561322 0.004127942 0.0076223225 0.12755027 -0.81663269 0.56288725 0.00036006371
0.019443352 0.0046154829 0.007618031 0.15404601 -0.79607868 0.58525938 0.00096884777
0.022296019 0.0050685331 0.0075249635 0.16953254 -0.78562009 0.59502929 0.0010390023
0.025296668 0.00533156 0.0070717959 0.18795869 -0.79146808 0.58159256 0.0018480039
0.02785705 0.0056759622 0.006655647 0.23342909 -0.80493987 0.54551148 0.002189971
-0.031102464 0.0084960088 0.0069308602 -0.30991793 -0.84303498 0.43959403 0.00098751858
-0.028356671 0.0078537287 0.0075695533 -0.2785984 -0.83661836 0.47164884 0.00080172002
-0.025396086 0.0069398563 0.0076762391 -0.26739731 -0.84507972 0.46296766 0.0011255369
-0.02266686 0.0064698858 0.008261607 -0.24960351 -0.83592224 0.48880684 0.001123719
-0.020393699 0.0062060701 0.008869186 -0.21346992 -0.79772794 0.56396878 0.00048162896
0.023177363 0.0063508041 0.0088274321 0.16607369 -0.73150223 0.66130483 0.00027374263
0.025737789 0.006576261 0.0084213819 0.17830549 -0.76386601 0.62025464 0.0014870347
0.028606795 0.0068993634 0.0079857782 0.20864812 -0.77226961 0.60005468 0.001818431
0.031525679 0.0074808276 0.0076862606 0.23652139 -0.78384459 0.57414746 0.0042349161
0.034388714 0.0081298994 0.0072609708 0.27192563 -0.78318608 0.55917448 0.0022831704
0.037220571 0.008822876 0.006749345 0.31884417 -0.79531664 0.5155676 0.001352707
-0.039696019 0.011828284 0.0061758771 -0.41022974 -0.83757538 0.36080343 0.00064510375
-0.037192285 0.011210963 0.0073571536 -0.37843123 -0.81278235 0.44291615 0.0010268782
-0.034539416 0.01016433 0.0076157106 -0.34944132 -0.82180709 0.45002657 0.0009776646
-0.031832229 0.0094760377 0.008209032 -0.29971606 -0.82805711 0.47380564 0.0010826665
-0.029884456 0.009160744 0.0087939929 -0.28841043 -0.81168061 0.50793111 0.0025034193
0.034738939 0.0091966894 0.0085054431 0.24303131 -0.75767696 0.60569084 0.0031013144
0.037663475 0.0099760331 0.0081522698 0.29899859 -0.7705037 0.56296003 0.0023855267
0.040345758 0.010867113 0.0077504129 0.34983459 -0.77909023 0.52022517 0.0016957315
0.042952307 0.011632378 0.0071552573 0.38722131 -0.77468663 0.49992022 0.0021302053
-0.043215163 0.014262627 0.0073033352 -0.46171665 -0.76845849 0.44304547 0.0010965887
-0.040564302 0.013063363 0.007805666 -0.3996008 -0.79608822 0.45449191 0.00098152715
-0.038106494 0.012212973 0.0083390521 -0.36601776 -0.79951841 0.47623664 0.00086478062
0.041910134 0.01239411 0.0088512562 0.30484408 -0.7088722 0.63605845 0.0043328442
0.04395413 0.012893852 0.0082591567 0.3518196 -0.74600148 0.56542444 0.0030016513
0.046494514 0.013768483 0.0074821538 0.39734 -0.77651709 0.48902157 0.0015351322
0.048781529 0.01445704 0.0065699625 0.43056017 -0.75734895 0.49095875 0.001506574
-0.048578463 0.017435227 0.0068983599 -0.50792682 -0.74156511 0.43828246 0.0011289231
-0.046491273 0.016507236 0.0076252078 -0.48651055 -0.75285232 0.44330677 0.001233552
-0.044326503 0.015590983 0.0083572278 -0.46645829 -0.75670546 0.45805407 0.001620057
0.047345091 0.015281808 0.0088981055 0.39592338 -0.66008633 0.6383813 0.0017799638
0.049621694 0.015923319 0.0079735424 0.44332442 -0.6763714 0.5882051 0.0031741888
0.052077636 0.01710852 0.0072943587 0.49565631 -0.71045494 0.49957839 0.0016867539
-0.052158996 0.020266378 0.0072323368 -0.53666657 -0.71716464 0.44459412 0.0011932375
-0.049809933 0.018927265 0.0078733219 -0.5328365 -0.72834957 0.43080425 0.00097313634
-0.047973141 0.018126836 0.0086694732 -0.50178689 -0.71857405 0.48151976 0.00063735311
0.05339203 0.018768394 0.0082708579 0.49090061 -0.64446753 0.58624077 0.0047798208
0.055492539 0.019515378 0.0072345859 0.50923002 -0.66025847 0.55203593 0.0028001212
0.057276808 0.020602059 0.0067797583 0.53678882 -0.65029621 0.53756177 0.0026208616
-0.057144571 0.023616023 0.0061417464 -0.6154983 -0.68985826 0.38112646 0.0032926125
-0.055216622 0.022760559 0.0074211606 -0.56073302 -0.69972628 0.44267547 0.00098347419
-0.053226855 0.021679865 0.0082585374 -0.5563553 -0.68390572 0.47195524 0.0019418404
0.056571893 0.021127012 0.0081351018 0.53504074 -0.64742416 0.54274619 0.0028158657
0.05844238 0.022268774 0.0075207097 0.53784293 -0.57729715 0.61437201 0.0013239346
0.060530558 0.023327351 0.0064491546 0.57824206 -0.5613817 0.5920192 0.0011526395
-0.060218766 0.026811481 0.0063932892 -0.65784913 -0.59386718 0.46320218 0.00094277959
-0.058336303 0.025665654 0.0074966475 -0.61448306 -0.63566029 0.46727565 0.001289629
-0.056400701 0.024505699 0.00844754 -0.59412718 -0.64058065 0.4864867 0.00075124204
0.05921001 0.024356846 0.008952314 0.52531916 -0.53615075 0.66074365 0.00217897
0.06128037 0.025335541 0.0076845633 0.59415454 -0.51895428 0.61454612 0.0012368636
0.063186623 0.026071833 0.0062170005 0.63724887 -0.49177143 0.59335893 0.00092327752
-0.063131876 0.029988229 0.0060239057 -0.70651174 -0.53524846 0.46297982 0.00076939823
-0.06122946 0.028823853 0.0074287266 -0.68168688 -0.54621196 0.48678082 0.0020143811
-0.059430208 0.027554996 0.0084202019 -0.63187242 -0.57765442 0.5167715 0.0018221415
-0.00015066334 0.029738605 0.0089994166 0.067050651 0.7746852 0.62878215 0.0018708284
0.0015311796 0.029776027 0.0087575233 0.040461306 0.84113544 0.53930891 0.0029539838
0.0042885058 0.029775409 0.008741755 0.011743597 0.80754197 0.58969319 0.0019470572
0.0076111201 0.029772013 0.0087770727 -0.029582255 0.79467297 0.60631651 0.001543352
0.010560084 0.029844441 0.0088679716 -0.065053858 0.8307032 0.55290157 0.0027813828
0.012852032 0.029980399 0.0089045428 -0.10972548 0.81762922 0.5651927 0.0025409763
0.062472779 0.027751302 0.0086064199 0.62599015 -0.42889497 0.65129519 0.0019538258
0.063985161 0.028508654 0.0074338061 0.6506024 -0.44276977 0.6169858 0.00092319521
-0.06377393 0.031916123 0.0070962887 -0.71107501 -0.47236133 0.520814 0.0015756838
-0.062405448 0.031140275 0.008235014 -0.70274752 -0.46186146 0.5411377 0.0026484129
-0.015412105 0.032910537 0.0086221341 0.24725808 0.80477941 0.53962356 0.00061710068
-0.013218076 0.03259857 0.0083056297 0.22414617 0.84378278 0.48763621 0.001653038
-0.010382377 0.032270223 0.0076231179 0.19932091 0.85609454 0.47683686 0.001183673
-0.0075121103 0.031647414 0.0076737632 0.15157272 0.85462403 0.49663216 0.0027984125
-0.0044869715 0.031230584 0.0075743841 0.12332304 0.86190259 0.49184886 0.0023393566
-0.0014013844 0.03090735 0.0074997977 0.096141018 0.8602078 0.50079882 0.0020213989
0.0018207418 0.030655257 0.0075456942 0.035954617 0.8509295 0.52404803 0.002439359
0.0045090541 0.030649254 0.0074541098 0.018695854 0.85006368 0.52634805 0.0023953298
0.007581085 0.030698925 0.0074058049 -0.035835747 0.85490662 0.51754278 0.002500403
0.010515968 0.030851305 0.0074725351 -0.074139744 0.85050076 0.52072227 0.0023562408
0.013549827 0.031108176 0.0075931977 -0.12547386 0.83880466 0.52977633 0.0025065609
0.016459083 0.031599026 0.0076408521 -0.17764334 0.84597033 0.50276929 0.0022079563
0.019277832 0.032213189 0.0077215438 -0.22295284 0.82977903 0.51162368 0.0015447657
0.022289477 0.032604828 0.0083390968 -0.22864245 0.78448868 0.57645482 0.0012901734
0.024216063 0.032924876 0.0087466314 -0.25923058 0.76764065 0.58611214 0.001873806
0.065019757 0.031138228 0.0081718387 0.67632085 -0.3711026 0.63629627 0.0010560135
0.066767313 0.031929493 0.0065688449 0.67853594 -0.36473095 0.63762093 0.0012317542
-0.06633345 0.035467289 0.0065583116 -0.7472707 -0.42942667 0.50712854 0.0014418818
-0.064794779 0.034330137 0.007746873 -0.74123412 -0.43357119 0.51243341 0.0013852344
-0.024307882 0.035951365 0.0087215574 0.32494098 0.76740617 0.55272162 0.0014410092
-0.02202291 0.035499785 0.0081201596 0.31759897 0.83074617 0.45715615 0.0011440141
-0.019451439 0.034843791 0.0075946925 0.28733939 0.84503043 0.45095417 0.0009818275
-0.01656721 0.033934504 0.0075582135 0.25039443 0.84638995 0.47002843 0.0013763503
-0.013807222 0.033443443 0.0069604702 0.23490755 0.85461074 0.4630971 0.0014728131
-0.011588309 0.03320986 0.0061955126 0.19835362 0.89667422 0.39576647 0.00052917335
0.020428812 0.033295099 0.0064524948 -0.22864924 0.84999174 0.47458783 0.0010919332
0.022719793 0.033662517 0.006949292 -0.23605011 0.84481275 0.48017877 0.0014656648
0.025490254 0.034169231 0.0074548819 -0.25195056 0.82027221 0.51349229 0.0022495254
0.028387668 0.03503029 0.0075822477 -0.28687724 0.82291561 0.49041957 0.0018184449
0.031154692 0.035560507 0.0082765864 -0.29909164 0.79837459 0.52263016 0.0029444799
0.033095364 0.035929654 0.0087135853 -0.33457196 0.77450675 0.53684354 0.0026677619
0.065809421 0.033583157 0.0086803315 0.69210148 -0.30128559 0.65591359 0.0011318024
0.066989012 0.034472812 0.0078114765 0.70708627 -0.29032114 0.64478111 0.0011478656
-0.066949546 0.037853241 0.007295303 -0.74314541 -0.34223697 0.57498598 0.0031573314
-0.065601215 0.037074383 0.0085237678 -0.67823303 -0.28785512 0.67612094 0.0015721817
-0.030490236 0.038783766 0.008673558 0.37126923 0.79033595 0.48736861 0.0011831234
-0.028284274 0.038243897 0.007820609 0.36664277 0.81573904 0.44737327 0.0011543622
-0.025524676 0.037129141 0.0076500261 0.33469498 0.82048899 0.46344048 0.0013178277
-0.022953924 0.036441326 0.0069405027 0.32474253 0.83624321 0.44185928 0.0010130989
0.029680053 0.036247972 0.0063446392 -0.31531915 0.82739729 0.46474463 0.0016834888
0.031770617 0.03664783 0.0069581182 -0.32393956 0.81523472 0.48005775 0.0023373731
0.034524016 0.037501868 0.0075064562 -0.35044625 0.78922302 0.504296 0.0035119841
0.037132796 0.038370643 0.0080752773 -0.39287135 0.76184249 0.51502234 0.0032974295
0.039146811 0.03892101 0.0087993452 -0.385196 0.6861496 0.61710835 0.0019112431
0.067822494 0.037274662 0.0079844417 0.73853785 -0.20731197 0.6415478 0.0016436813
0.069100566 0.038141433 0.0068023899 0.74701113 -0.22044078 0.62720037 0.0019567388
-0.069137551 0.041251574 0.00625965 -0.76853949 -0.28553286 0.57255399 0.0029235801
-0.067661539 0.04044681 0.0076525053 -0.73337972 -0.23347609 0.63846934 0.0021989755
-0.036643956 0.041783459 0.0086166831 0.39183369 0.76997942 0.50358516 0.001445432
-0.034226324 0.041076772 0.0077763228 0.41045442 0.80140376 0.43506229 0.00084896956
-0.031593464 0.039904781 0.007565062 0.376726 0.8042807 0.45957604 0.0014459277
-0.029571071 0.039291769 0.0068454137 0.38337931 0.81112993 0.4416883 0.001083597
0.037981939 0.039651956 0.0068884254 -0.42932746 0.76563811 0.47903684 0.0022526046
0.040451899 0.040634189 0.0075599048 -0.43874475 0.75730658 0.4837248 0.0016996696
0.042878021 0.041522201 0.0083420323 -0.40385556 0.69960469 0.58945221 0.0023102611
0.068225175 0.040888689 0.0083760591 0.66439795 -0.063845009 0.74464703 0.0026538165
0.069695696 0.040915638 0.0067548617 0.73509037 -0.12475874 0.66639137 0.0035894285
-0.069581121 0.043640032 0.0065596569 -0.73202169 -0.1865972 0.65522957 0.0031672823
-0.067719907 0.044018216 0.008377647 -0.60810947 -0.032814775 0.79317468 0.0019536873
-0.042615529 0.044633865 0.0086925123 0.38449878 0.72176576 0.57551271 0.0010787747
-0.040330011 0.044061322 0.0078750188 0.38963208 0.77752477 0.4936012 0.002172797
-0.037646532 0.042957902 0.0075030811 0.38349175 0.79116076 0.47644389 0.001630684
-0.03531903 0.042229593 0.0066589378 0.40631324 0.80837256 0.42596164 0.00072282914
0.041638654 0.042204391 0.0062900283 -0.46350691 0.74932843 0.47293583 0.001352796
0.04378419 0.042893216 0.0072069126 -0.4469049 0.72973543 0.51745743 0.0026641537
0.046336528 0.044008005 0.00778468 -0.41605982 0.71593279 0.56065542 0.0025640905
0.048721466 0.044685096 0.0086304331 -0.37262055 0.65106881 0.66125888 0.0019877527
0.068204403 0.043841824 0.0086076595 0.60304236 0.031585917 0.79708356 0.0048734453
0.069464698 0.043661565 0.0073139356 0.68098408 -0.011422806 0.73220909 0.0019396753
-0.069464855 0.047288246 0.0072579994 -0.57947773 0.013494891 0.81487632 0.0044315918
-0.068010233 0.046675429 0.0083468333 -0.51671761 0.044986162 0.85497314 0.0028696698
-0.048550725 0.047622941 0.0086751413 0.31985179 0.70289612 0.63532025 0.0012794714
-0.046220012 0.047139775 0.0077684289 0.39150795 0.76360202 0.51345253 0.0018022778
-0.043553814 0.046015516 0.007450663 0.39378628 0.77682418 0.49140272 0.0017679203
-0.041420422 0.045339528 0.0067891059 0.41651827 0.78159624 0.46434882 0.0014093296
0.047374204 0.045493763 0.0066664219 -0.46101478 0.72578394 0.51059085 0.0025106042
0.049674045 0.046354007 0.0073424983 -0.40520516 0.71712309 0.56704789 0.0020755872
0.05224238 0.047117073 0.0081555592 -0.34968671 0.64671445 0.67784917 0.001438772
0.054389704 0.047811341 0.0086600389 -0.31438449 0.65833104 0.68393171 0.0017597945
0.068103872 0.04666185 0.0085307797 0.59912586 0.099640302 0.79443061 0.0029732333
0.069456339 0.046552327 0.0072637936 0.60652447 0.10657635 0.78788924 0.0030977069
-0.070049584 0.049601812 0.0069330372 -0.50077677 0.055085439 0.86382186 0.0054107816
-0.067574076 0.04965955 0.0083724279 -0.40139043 0.18990569 0.89600307 0.0089503052
-0.065519348 0.050619017 0.0089028971 -0.18798685 0.3079468 0.93264663 0.0087403748
-0.057903152 0.050856363 0.0088126222 0.11131406 0.65718907 0.74546075 0.004221702
-0.055249497 0.050546132 0.0085261762 0.21706697 0.70086879 0.67945927 0.0018660435
-0.052416213 0.0500324 0.0078570396 0.30323735 0.74951124 0.58845556 0.0027551004
-0.049628034 0.049110003 0.007389769 0.34373689 0.76432395 0.54557657 0.0015180497
-0.047261328 0.048478685 0.0066800117 0.40844414 0.77046382 0.48944756 0.0015093589
0.052951608 0.048751395 0.0068091513 -0.43451995 0.69961029 0.56721944 0.0021198441
0.05543882 0.049484063 0.0075416001 -0.33300012 0.66323364 0.67024779 0.0019289703
0.058183122 0.050145548 0.0082082748 -0.27748471 0.60777891 0.74404776 0.00279966
0.060865466 0.050585601 0.0087216673 -0.15430096 0.53860861 0.82830667 0.0037233594
0.065241501 0.05057662 0.00885644 0.18985987 0.36162478 0.91278732 0.0095864311
0.067531034 0.049627505 0.0083025768 0.4701418 0.18664394 0.86263013 0.0055609783
0.069626212 0.049649 0.0067712506 0.57663095 0.14284225 0.80442089 0.0025182548
-0.070258364 0.052577138 0.0066989069 -0.38588578 0.14657934 0.91082752 0.0073946672
-0.067515649 0.052449353 0.0077094943 -0.21937957 0.31077173 0.92482078 0.014323133
-0.064491153 0.052611619 0.0080119241 -0.038132869 0.48952454 0.87115526 0.009529124
-0.061488975 0.052578554 0.0078741806 0.09453465 0.62346816 0.77611256 0.0057620457
-0.058596075 0.052370943 0.0075133098 0.18225476 0.73432183 0.6538766 0.002452374
-0.05571159 0.051912017 0.0071474174 0.27031061 0.76017654 0.5908162 0.0023801338
-0.053049847 0.051408388 0.0064248564 0.34547952 0.76637203 0.54158819 0.0018901076
0.05654937 0.051194053 0.0063472237 -0.41465917 0.68639183 0.59743124 0.0031675638
0.058759749 0.051874388 0.0068741101 -0.35571685 0.66634101 0.65532821 0.0028998188
0.061457291 0.052438591 0.0075025521 -0.27063391 0.59912479 0.75352961 0.0038056036
0.064390488 0.052547634 0.0079925908 -0.061276738 0.48303792 0.87345266 0.0068138391
0.067400627 0.052399971 0.0075974525 0.34064716 0.33000615 0.88037235 0.012437413
0.069492936 0.052670166 0.0064226747 0.46334663 0.20259994 0.8627069 0.0078328028
-0.070052713 0.055218421 0.006320314 -0.22895271 0.33002809 0.91578496 0.010761651
-0.067517348 0.055218548 0.0066217054 -0.045521382 0.45534715 0.88914949 0.010146767
-0.064630911 0.054826505 0.0065589892 0.11761168 0.59116626 0.79792851 0.010044318
-0.061806828 0.054291129 0.0063664322 0.198911 0.69556797 0.6903764 0.0048379311
-0.059924316 0.054074574 0.0061262478 0.27366167 0.76802963 0.57899904 0.0061432547
0.062348545 0.054260273 0.0063854717 -0.33763522 0.61675733 0.71106464 0.0054190238
0.06454771 0.054868862 0.0066681243 -0.18881923 0.53036046 0.82647747 0.0072584138
0.066921838 0.055430975 0.0065174834 0.016234856 0.40912849 0.9123323 0.015782481
0.069437347 0.054285049 0.0061886278 0.40609035 0.23520418 0.88304567 0.0036332032
-0.016235517 0.0055846446 0.0094540454 -0.17300455 -0.79018909 0.58793765 0.00060546899
-0.013359088 0.0053082905 0.009827828 -0.13598816 -0.78273863 0.60731173 0.00090575014
-0.010453282 0.0051449174 0.010191646 -0.10326356 -0.77418971 0.62447333 0.00099730433
-0.0074580945 0.0048511638 0.010201466 -0.067091852 -0.75973403 0.64676344 0.0010146517
-0.0045089177 0.0048017907 0.010374355 -0.033858523 -0.74845243 0.66232365 0.0011892589
-0.0014004407 0.0049173213 0.010540023 -0.004725568 -0.7535153 0.65741342 0.0016805184
0.001547181 0.0049096164 0.010521841 0.014200942 -0.74873573 0.66271651 0.0015067469
0.0045196316 0.0048418045 0.010347419 0.043781098 -0.74947214 0.66058671 0.0018328697
0.0074814241 0.0049949251 0.010257727 0.067401178 -0.74015522 0.66904962 0.0011388462
0.01047943 0.0050640912 0.010098735 0.087300368 -0.74838048 0.65749937 0.0014007093
0.013399203 0.0052600564 0.0098761553 0.11559548 -0.75021237 0.65101397 0.0013217115
0.016238276 0.0054079117 0.0094547793 0.13553078 -0.74953836 0.64793807 0.00097860151
0.019270616 0.005964309 0.0093465904 0.15260962 -0.74008965 0.65496391 0.00057256257
-0.027619092 0.0086815665 0.0093000969 -0.28114212 -0.78897381 0.54633278 0.00048287975
-0.025285646 0.0083123166 0.0098737245 -0.24712202 -0.78447551 0.56879598 0.00074879522
-0.022349473 0.0078784181 0.010434308 -0.221508 -0.7721988 0.59551936 0.0011402533
-0.019557979 0.0072395392 0.010643538 -0.19558652 -0.7796995 0.59482318 0.0006253593
-0.016644431 0.0068224519 0.010997713 -0.16032742 -0.76965505 0.61800188 0.00097483792
-0.013599041 0.0065505076 0.011353714 -0.12224349 -0.70862013 0.69492018 0.0014555342
-0.010584525 0.0063697924 0.011626468 -0.082952745 -0.69210571 0.71701366 0.0014156537
-0.0074842493 0.0060994201 0.011636836 -0.049507797 -0.72893357 0.68279195 0.0012072598
-0.004525024 0.0060497993 0.011760634 -0.02264972 -0.71680981 0.69690078 0.0012895358
-0.0025200364 0.0060128113 0.011776233 3.8137143e-05 -0.71980274 0.6941787 0.0013423833
0.0050252229 0.0063512935 0.011918545 0.028077174 -0.66453761 0.74672717 0.0031730949
0.0074258186 0.0062948093 0.011665894 0.057046384 -0.71065873 0.70122027 0.0014197824
0.010419094 0.0064495001 0.011534628 0.079525299 -0.71337914 0.69625139 0.0013902615
0.013495343 0.0066422885 0.011299003 0.10888623 -0.64549142 0.75596607 0.0022030761
0.016496127 0.0069533968 0.011108176 0.13362004 -0.65759152 0.74143052 0.0020006266
0.019486804 0.0073779756 0.010881267 0.16215414 -0.68797463 0.70738745 0.0021483034
0.022411112 0.0077835708 0.010569202 0.16990086 -0.69568717 0.69796354 0.0010593676
0.025438329 0.0080315489 0.0099823382 0.18782367 -0.70479482 0.6840955 0.00027989483
0.028464764 0.0083498713 0.0095392279 0.19173187 -0.70251775 0.68535227 0.000572989
0.030968294 0.0086593088 0.0092079481 0.21328734 -0.72580278 0.65400213 0.0018925794
-0.034184542 0.011344741 0.0097196968 -0.33248585 -0.76499337 0.55157804 0.00075056253
-0.031392686 0.010831852 0.01049242 -0.27384785 -0.77319998 0.57198703 0.0013968198
-0.02860757 0.010034714 0.010735364 -0.26416698 -0.77431118 0.57502878 0.00081808097
-0.025848564 0.0095510827 0.011352079 -0.22577754 -0.72553217 0.6500982 0.0013020212
-0.023313239 0.0091810003 0.011772166 -0.20493636 -0.73077196 0.65113246 0.0022683607
0.02369537 0.0093680676 0.011824089 0.16067821 -0.65289795 0.74020725 0.0012695597
