# .PCD v0.7 - Point Cloud Data file format
VERSION 0.7
FIELDS x y z normal_x normal_y normal_z curvature
SIZE 4 4 4 4 4 4 4
TYPE F F F F F F F
COUNT 1 1 1 1 1 1 1
WIDTH 670
HEIGHT 1
VIEWPOINT 0 0 0 1 0 0 0
POINTS 670
DATA ascii
-18.886255 11.824522 -1.3882737 0.053608466 -0.23762937 -0.96987545 0.0075470647
-18.883839 11.8246 -1.3868089 0.046612546 -0.057930712 -0.99723178 0.007196778
-18.888029 11.828702 -1.3889971 0.0090582957 -0.027593961 -0.99957818 0
-18.886353 11.827556 -1.3882476 0.54858613 -0.81822002 0.1719567 0
-18.883863 11.827506 -1.3867826 0.017142164 0.027693752 -0.99946952 0
-18.88802 11.830632 -1.3889568 -0.18752426 -0.32614264 -0.92653418 0
-18.88645 11.830591 -1.3882461 0.045352552 -0.024330124 -0.99867469 0.020816691
-18.883865 11.830474 -1.3867888 0.19496757 0.32390872 -0.92578113 0
-18.886574 11.833595 -1.388272 0.26163149 0.95505351 0.13936178 0
-18.883789 11.833469 -1.3867629 0.83704895 0.36783451 -0.40502688 0
-18.886467 11.836435 -1.3882304 0.065823682 0.60582352 0.79287142 0
-18.883673 11.836584 -1.3867412 0.3496995 0.9356162 -0.048296485 0
-18.886709 11.839499 -1.3884175 0.053585246 0.51201487 0.8573035 0
-18.883801 11.839531 -1.3869345 0.083504841 -0.092704564 -0.99218589 0.014908869
-18.886589 11.842487 -1.3884501 0.060894318 0.017342126 -0.99799359 0.0033693218
-18.88353 11.842556 -1.3869352 -0.019024109 0.54772145 0.83644444 0
-18.886471 11.845509 -1.3884922 0.21604583 -0.94391376 0.24970171 0
-18.883419 11.84549 -1.3870132 0.95793068 0.27663064 0.076448321 0
-18.881945 11.845792 -1.3861603 0.12785698 -0.11770102 -0.98478377 0
-18.886246 11.848414 -1.3884898 0.23642486 -0.46984848 -0.85049731 0
-18.883385 11.848434 -1.3871574 0.89456636 0.066466644 -0.44196507 0
-18.881786 11.848839 -1.3863053 0.97175771 0.22655708 -0.066020414 0
-18.905331 11.850454 -1.3886882 0.049580798 -0.088343374 -0.99485534 0
-18.886078 11.851414 -1.3885658 0.099723071 -0.13240096 -0.98616701 0.0080058975
-18.883369 11.851522 -1.3873459 -0.44066772 -0.88619721 0.14306109 0.0050609708
-18.881445 11.851547 -1.386348 0.86901033 0.0012465338 0.49479234 0
-18.904692 11.855014 -1.388248 0.081200533 0.13647084 -0.98731065 0
-18.885942 11.854424 -1.388747 0.26146716 -0.95574313 -0.13486987 0
-18.883583 11.854446 -1.3877201 0.23781136 -0.45988461 -0.85554188 0
-18.881241 11.854725 -1.3865752 0.15443014 0.20400861 -0.96671188 0.0049484768
-18.885483 11.857481 -1.3888512 0.77779406 -0.007186912 -0.62847823 0
-18.883322 11.857568 -1.3879318 0.14621194 -0.21599303 -0.96538544 0
-18.88081 11.857489 -1.3866613 0.41389534 0.23104367 -0.88051659 0
-18.903786 11.859776 -1.3880537 0.11870354 -0.037953734 -0.99220413 0
-18.902908 11.859881 -1.3888502 -0.090620682 -0.15208277 -0.98420465 0.0085907755
-18.885138 11.859355 -1.3889252 -0.052824046 -0.2653043 0.96271664 0
-18.883608 11.86052 -1.3883958 0.34999362 -0.92186302 0.16635235 0
-18.880524 11.860571 -1.386941 0.31965119 0.52340549 -0.78985435 0
-18.902214 11.863687 -1.3885169 -0.082180619 -0.03481476 -0.99600923 0.012312757
-18.883163 11.863457 -1.3885701 0.028471977 -0.096082993 -0.99496609 0.0043795779
-18.880341 11.86342 -1.3872614 0.022542974 0.30065438 -0.95346671 0.0084225917
-18.878597 11.863799 -1.3863717 0.11970232 0.021141799 -0.99258471 0.013207505
-18.901186 11.867413 -1.3885003 -0.14701666 -0.10611038 -0.98342597 0.021195589
-18.882751 11.866331 -1.3888083 0.66597629 0.6948474 -0.27140844 0
-18.88055 11.866446 -1.3878295 0.46934763 -0.88173896 -0.047426336 0.0030185294
-18.878162 11.866714 -1.3866353 0.038244121 -0.078925855 -0.99614662 0
-18.901117 11.870238 -1.3876488 0.050901569 -0.340716 -0.93878734 0
-18.899876 11.870665 -1.388772 0.0084739486 -0.032534171 -0.99943471 0
-18.882166 11.868582 -1.3888941 0.32122445 -0.84260434 -0.43224159 0
-18.880432 11.869501 -1.3882692 0.29077139 -0.94774246 0.13128692 0
-18.877661 11.869583 -1.3868897 0.34918094 0.57341546 -0.74112582 0
-18.875954 11.870521 -1.3860277 0.12047458 0.086853586 -0.98890966 0
-18.899401 11.873487 -1.3883015 0.11166753 0.018576106 -0.993572 0
-18.88014 11.872412 -1.3886167 0.81547284 0.49339291 0.30260119 0
-18.877485 11.872438 -1.387329 -0.36322904 -0.92830026 -0.079518542 0.021378694
-18.875599 11.872993 -1.386398 0.050713062 -0.16518627 -0.9849577 0.019163966
-18.898455 11.876371 -1.3882704 -0.42034593 -0.16073976 -0.89301294 0
-18.879498 11.875362 -1.3888626 0.2847212 0.39435452 -0.87373817 0
-18.87738 11.875443 -1.3878922 0.57054102 -0.11260065 0.8135134 0
-18.875044 11.87565 -1.3866777 -0.096340515 -0.34299082 -0.9343853 0
-18.898113 11.87904 -1.3876952 0.2057703 0.4387736 -0.87472069 0
-18.877289 11.87842 -1.3885009 0.30076125 -0.93562531 0.18479143 0
-18.874493 11.878452 -1.3870921 0.10697094 0.075389199 -0.99139982 0.0070896894
-18.872776 11.879279 -1.3863633 -0.0078787375 -0.18165554 -0.98333067 0
-18.897978 11.881176 -1.3869542 -0.038664352 -0.228084 -0.97287345 0
-18.896612 11.881694 -1.3881999 0.021309551 -0.088569686 -0.99584204 0
-18.876617 11.881374 -1.3888612 0.93961042 0.34127718 0.025732527 0
-18.874483 11.88143 -1.3878467 0.90984863 0.30398259 -0.28243595 0
-18.872009 11.881643 -1.3866022 0.044187512 -0.99786496 -0.048092734 0
-18.897221 11.884338 -1.3863654 0.060106445 0.052255746 -0.99682325 0
-18.895512 11.884646 -1.3880717 -0.10744438 -0.18915202 -0.97605187 0.048799209
-18.874273 11.884348 -1.3884836 0.039019104 0.025998134 -0.99890018 0
-18.871471 11.884443 -1.3871132 0.025355715 -0.14632143 -0.98891205 0
-18.869606 11.88539 -1.3863331 -0.047506336 -0.32254866 -0.94536 0
-18.894711 11.887324 -1.3876848 -0.015153363 0.17624004 -0.98423058 0.12163679
-18.893265 11.888231 -1.3887413 0.050473314 -0.056909967 -0.99710268 0
-18.873688 11.887029 -1.3888445 0.80289608 0.53804713 -0.25663817 0
-18.871454 11.887438 -1.3879163 0.21510862 0.12659757 -0.96834975 0
-18.868851 11.887724 -1.3866565 0.069894426 -0.0085324068 -0.99751794 0.013468982
-18.894453 11.890286 -1.3865303 0.43002415 -0.0089729466 -0.90277284 0
-18.892527 11.890991 -1.3881788 0.067376629 0.17055072 -0.98304266 0
-18.871288 11.890308 -1.3885927 0.12491306 -0.56053054 -0.81865877 0.0056520635
-18.868477 11.890457 -1.3873413 0.9357444 0.3185842 -0.15128319 0
-18.86628 11.891163 -1.3864418 0.36644524 0.79691362 0.48025674 0
-18.891945 11.893604 -1.3874818 0.072973073 -0.043669123 -0.99637741 0
-18.870373 11.892612 -1.3887963 0.043814451 -0.98339963 -0.17608377 0.00082727108
-18.868397 11.893436 -1.3882334 0.60287791 0.79311645 -0.086629085 0
-18.865582 11.893518 -1.3869399 0.0086443303 -0.024038957 -0.99967366 0.013560787
-18.863665 11.894461 -1.3863146 0.93059731 0.3660416 0.0014349299 0
-18.891918 11.89525 -1.3866848 -0.14305685 0.86254859 -0.48532945 0
-18.890236 11.896466 -1.3877711 0.0030433212 -0.13822676 -0.99039596 0
-18.867783 11.896015 -1.3887374 -0.1428532 -0.048001278 -0.98857921 0.0027762337
-18.865456 11.896465 -1.3879265 0.45955142 0.88734436 -0.037847377 0.0043447185
-18.86264 11.896797 -1.3867164 0.29727554 -0.38961139 -0.87168241 0
-18.860872 11.897982 -1.3863055 -0.1126212 0.090264022 -0.98952967 0
-18.889196 11.899328 -1.3872898 0.14949517 0.16332543 -0.97518003 0
-18.887264 11.900423 -1.388628 0.31585136 0.17793748 -0.93197435 0
-18.865002 11.899328 -1.3886465 0.15162314 -0.9515304 -0.26758224 0
-18.862457 11.899475 -1.3876398 0.023224168 -0.25897884 -0.96560377 0
-18.859821 11.899762 -1.3865559 -0.16057816 -0.73467833 -0.65913767 0
-18.888514 11.901622 -1.3866496 0.49935135 0.86639768 -0.0018095047 0
-18.88657 11.90272 -1.3880103 -0.25290611 -0.40624204 -0.87806946 0
-18.862247 11.902287 -1.3885393 0.042129211 -0.1097273 -0.99306846 0.017918523
-18.859505 11.902378 -1.3874888 -0.13236527 -0.2954354 -0.94614869 0
-18.856838 11.902824 -1.3865004 -0.0055276952 -0.12522511 -0.99211299 0.0097915744
-18.885817 11.905324 -1.3870925 0.10194824 0.10226125 -0.98951972 0
-18.88435 11.905214 -1.3886184 -0.10410135 -0.29460955 -0.94993067 0
-18.859245 11.905157 -1.3884978 0.96719521 -0.24725533 0.058293477 0.012204829
-18.856522 11.905424 -1.3875232 -0.056221858 -0.99269241 -0.10677458 0
-18.853821 11.905883 -1.3865637 0.3266643 0.28389114 0.90149665 0
-18.883585 11.908197 -1.3873909 0.069957137 0.035829779 -0.99690634 0
-18.88179 11.908886 -1.3887228 -0.063608393 -0.11885028 -0.99087268 0
-18.858356 11.907289 -1.3889923 -0.054037008 -0.35691878 -0.93257123 0
-18.856121 11.907978 -1.3885075 0.99730122 0.0082912873 -0.072949193 0
-18.853424 11.908461 -1.3876936 -0.24591205 -0.48081002 -0.84163469 0.030070707
-18.850664 11.908829 -1.3867018 0.011670412 0.16267829 -0.98661011 0
-18.84864 11.90975 -1.3862934 -0.78281611 0.62206912 0.015128961 0
-18.882608 11.910768 -1.386518 0.0092776855 -0.12014437 -0.99271309 0
-18.8806 11.91171 -1.3877695 -0.020204959 0.067778103 -0.99749583 0.081983015
-18.852823 11.910685 -1.3885552 0.61296231 0.33279401 -0.71660691 0
-18.850409 11.911419 -1.3880121 -0.056809742 -0.30740547 -0.94988132 0
-18.847637 11.911685 -1.386965 0.19378382 -0.97981399 -0.049116485 0
-18.845686 11.912491 -1.3863851 -0.21596996 -0.46713668 -0.85740328 0.015097342
-18.87966 11.91419 -1.386701 -0.086933613 -0.28898752 -0.95337754 0
-18.877996 11.914481 -1.3880538 -0.084928155 -0.17991234 -0.98000962 0
-18.875591 11.915953 -1.3889884 -0.013459278 0.023791337 -0.9996264 0
-18.849663 11.9133 -1.3886714 -0.020888358 -0.028384335 -0.9993788 0.012813221
-18.847294 11.914143 -1.3882127 0.71134645 -0.70256954 -0.019554151 0
-18.844505 11.91456 -1.3871934 0.94752145 -0.023397028 -0.31883475 0
-18.84247 11.915331 -1.3865173 -0.053074103 -0.75751239 -0.65065974 0
-18.876928 11.917014 -1.3869263 0.0026533545 -0.14542165 -0.98936623 0
-18.874769 11.917979 -1.3881183 -0.061680239 0.21928144 -0.97371006 0
-18.844124 11.917109 -1.3885534 0.97634763 0.2043021 0.070752218 0
-18.841448 11.917424 -1.3874903 0.09416011 0.096412614 -0.99087763 0
-18.838976 11.918331 -1.3867683 0.012814337 -0.14672227 -0.98909473 0.00906213
-18.873772 11.920435 -1.3869174 -0.16811146 0.01451141 -0.98566121 0
-18.87191 11.920843 -1.3881673 0.042964458 -0.0607711 -0.99722666 0
-18.840986 11.919756 -1.3887126 0.121472 -0.99255282 0.009135644 0
-18.838482 11.920492 -1.3880422 0.61425853 0.53564662 0.57945585 0
-18.835949 11.921058 -1.3870925 0.057652533 -0.071120687 -0.9958002 0
-18.870937 11.923026 -1.3870542 0.05411024 -0.0044399952 -0.99852514 0
-18.868586 11.924023 -1.3879986 0.21595788 0.18442166 -0.95882785 0
-18.837715 11.922642 -1.3888023 0.14530717 0.14915545 -0.97807896 0
-18.8353 11.923365 -1.3881917 0.10171073 0.015175217 -0.99469829 0
-18.832741 11.9238 -1.3870909 0.52778757 0.58975416 -0.61125314 0
-18.830507 11.924823 -1.3864355 0.14125757 0.15753385 -0.97735834 0
-18.86805 11.92564 -1.386844 0.011832639 -0.03827532 -0.99919719 0
-18.865597 11.92664 -1.3877017 0.044780653 -0.048206471 -0.99783313 0
-18.8633 11.927485 -1.3884491 0.17738284 0.083945766 -0.98055524 0
-18.834538 11.925598 -1.3887815 -0.020438807 -0.98390615 0.17751323 0
-18.832478 11.926317 -1.3883469 0.05206256 -0.022086712 -0.99839956 0
-18.829651 11.926419 -1.3874447 0.1539629 0.46053541 -0.87418681 0
-18.826801 11.927457 -1.3871504 -0.011822524 0.25047362 -0.96805125 0
-18.864685 11.9285 -1.3864644 0.13326129 0.78157794 -0.60940742 0
-18.862259 11.929339 -1.3872334 0.028183727 0.19809061 -0.97977847 0.075407095
-18.859741 11.929993 -1.3881379 0.15504667 0.41961998 -0.89435989 0
-18.857475 11.930677 -1.3887141 0.25429088 -0.57930386 -0.77443093 0
-18.831635 11.928547 -1.3888054 -0.13432151 -0.36139476 -0.92268711 0
-18.829477 11.92925 -1.3886166 0.98931223 -0.053838491 0.13550922 0
-18.826555 11.92927 -1.3882465 0.025523206 0.021265013 -0.99944806 0
-18.823639 11.929382 -1.387835 0.46827415 0.866754 -0.1716297 0
-18.820629 11.929829 -1.3880004 -0.10596921 -0.58215827 -0.8061403 0
-18.817327 11.930105 -1.3881574 0.036390569 0.055149823 -0.99781471 0
-18.81448 11.929984 -1.3873457 -0.21588476 -0.94304425 -0.25310346 0
-18.811642 11.930127 -1.3873168 -0.016429871 -0.17629533 0.98420018 0
-18.808517 11.930471 -1.3880639 0.014003421 -0.032786895 -0.9993642 0
-18.859148 11.931613 -1.3868126 0.20524582 0.44874048 -0.86977363 0.036991075
-18.856482 11.932387 -1.3874856 0.061974719 -0.088941842 -0.99410689 0
-18.853687 11.933195 -1.3880494 0.048704591 -0.16752312 -0.98466438 0
-18.850988 11.933648 -1.3886682 0.56576478 0.62644327 -0.53617072 0
-18.828136 11.931087 -1.3889207 0.05264093 0.14084266 -0.98863155 0
-18.826214 11.931049 -1.3888996 0.11465427 -0.043376472 -0.99245805 0
-18.823582 11.93108 -1.3889761 0.015993748 0.086365834 -0.99613512 0
-18.80752 11.932469 -1.3875853 0.26987296 0.22049205 0.93731099 0.016334226
-18.806938 11.933737 -1.3866637 0.90077138 -0.43398634 0.016335592 0
-18.855488 11.934182 -1.3860886 0.002034941 0.021381536 -0.99976933 0
-18.853197 11.934689 -1.3866717 0.03422505 0.50115645 -0.86467969 0
-18.850403 11.935193 -1.3872993 -0.031048711 -0.21050599 -0.97709936 0
-18.847515 11.935685 -1.3877366 0.020219715 -0.019175967 -0.99961168 0.038033817
-18.844519 11.936034 -1.3880985 -0.0086272322 0.0085388925 -0.99992633 0
-18.841393 11.936233 -1.3882829 0.018680453 0.025568949 -0.99949855 0
-18.838478 11.936135 -1.3881437 -0.012376028 -0.03227229 -0.99940252 0
-18.835506 11.935923 -1.3880467 0.03891097 0.056922961 -0.99762005 0
-18.8325 11.935836 -1.3879452 0.076924145 0.10612705 -0.9913727 0
-18.829586 11.935911 -1.3881322 0.035223737 -0.27114114 -0.96189487 0
-18.826826 11.936176 -1.3884673 0.013972399 0.18104483 -0.98337561 0.0047144531
-18.824306 11.936737 -1.3886967 0.11540703 0.074684031 -0.99050677 0
-18.80731 11.935623 -1.3875958 0.03705563 -0.35734046 0.9332388 0
-18.806915 11.934962 -1.3866647 0.050956305 -0.099530742 -0.99372888 0
-18.847164 11.937203 -1.3862077 0.21631907 0.25404307 -0.94269204 0
-18.844263 11.937461 -1.3866284 0.76009947 0.62375337 -0.18215507 0.021015352
-18.841457 11.937654 -1.3867272 0.89132893 -0.28441465 -0.35304549 0
-18.83857 11.93758 -1.3866365 0.25860929 0.83680522 -0.4825747 0.0036388708
-18.835541 11.937425 -1.3864902 0.31655407 0.48526606 -0.81505239 0.02371748
-18.832558 11.937402 -1.3864042 0.035741866 0.087274566 -0.99554294 0
-18.829414 11.937916 -1.3863842 0.48067567 0.85284048 -0.20399512 0.010825295
-18.826603 11.938286 -1.3865502 -0.22215952 0.96942317 -0.1042298 0
-18.823261 11.938942 -1.3867862 0.85869855 0.25393543 0.44514444 0
-18.820595 11.939301 -1.3871832 0.86944646 0.49384621 0.013370901 0
-18.81765 11.939392 -1.3881239 0.0026010512 0.015311733 -0.99987942 0
-18.814663 11.939609 -1.3885511 -0.037924718 -0.10163375 -0.99409878 0
-18.811527 11.93978 -1.3887554 0.048626181 -0.018370435 -0.99864811 0
-18.807945 11.93851 -1.3875049 0.16357087 -0.081664242 0.98314571 0.019489851
-18.81744 11.940155 -1.3866683 0.71730602 -0.69651747 0.018316397 0
-18.814575 11.940293 -1.3870265 0.061011318 0.91776425 0.39241108 0
-18.811474 11.940389 -1.3872353 -0.9884488 -0.14787082 -0.033212855 0
-18.808722 11.940389 -1.3869792 -0.20858277 0.97212756 -0.10705682 0
-18.891695 11.765002 -1.3845927 0.089690827 0.16552851 0.98211807 0
-18.889595 11.765137 -1.3842391 0.046371441 0.062842987 -0.99694556 0
-18.887201 11.765594 -1.3835133 0.00082808704 -0.31107861 -0.95038384 0
-18.888653 11.766408 -1.3855577 0.14588819 0.98081404 0.12930809 0
-18.886398 11.767578 -1.3849504 -0.23985222 0.83692998 0.49195445 0
-18.884176 11.768085 -1.3836558 0.69012797 0.52335346 0.49982449 0
-18.885654 11.770142 -1.3855624 0.55862433 0.28720066 -0.77810967 0
-18.883692 11.770721 -1.384222 0.44113365 0.89738727 -0.0098598935 0
-18.885197 11.77246 -1.3858328 0.060385149 -0.013328265 -0.99808615 0.0046658712
-18.883062 11.773579 -1.3841366 0.16722409 -0.01709508 -0.98577064 0
-18.881805 11.77435 -1.3830079 0.03832287 0.010551932 -0.9992097 0
-18.882927 11.776546 -1.3847848 0.14199056 0.058764979 -0.98812211 0.0060102264
-18.881657 11.776657 -1.3833609 0.5092805 0.76848918 -0.38737303 0.0011253408
-18.882816 11.779596 -1.3851686 0.2092687 0.35871717 -0.90968597 0.0040870239
-18.881535 11.77963 -1.383553 0.12521498 0.10899826 -0.98612404 0.016323723
-18.88265 11.782585 -1.3855186 0.010265764 0.60157073 0.79875356 0
-18.881491 11.782771 -1.3841227 -0.57267499 -0.53391588 -0.6220749 0
-18.882275 11.785425 -1.3857272 -0.0092379572 -0.09624745 -0.99531454 0
-18.88121 11.785588 -1.3840718 0.085196309 -0.0011258649 0.99636358 0.017146243
-18.882023 11.78702 -1.3858558 -0.013399723 -0.048862666 0.99871564 0
-18.881121 11.788586 -1.384394 0.55121511 0.57115108 0.60823369 0
-18.880913 11.791534 -1.3842927 0.1890392 0.95677853 -0.22099541 0.0029253066
-18.880861 11.794533 -1.3842801 0.045700151 0.27132794 0.9614014 0
-18.880922 11.79749 -1.384298 0.0097810794 0.0620525 0.99802494 0
-18.8811 11.800427 -1.3843571 0.18954621 0.37665382 0.90675473 0.020942474
-18.881386 11.803464 -1.3845695 0.59341484 0.73053622 -0.33789882 0
-18.882153 11.806784 -1.3856444 0.73308748 0.67958903 0.027230544 0
-18.881395 11.806451 -1.3842064 0.39722559 0.70402539 0.5886935 0.01814626
-18.882307 11.809445 -1.3856806 0.13246094 0.9143213 -0.38271502 0
-18.881527 11.809437 -1.3841151 0.13441621 0.99069351 0.02141555 0.0048881676
-18.882166 11.812879 -1.3850712 0.33175582 -0.039001733 -0.94255871 0
-18.881691 11.812102 -1.384129 -0.27968419 0.22022471 -0.93449342 0.018735025
-18.882318 11.81541 -1.3852361 0.50768286 0.21872632 -0.8333168 0
-18.881638 11.815627 -1.3837261 0.99932396 -0.022179212 0.029321918 0
-18.882256 11.818526 -1.3850498 0.467859 0.56872487 -0.67650574 0
-18.881609 11.818469 -1.3836175 0.33086306 -0.24783398 -0.91055369 0.016518949
-18.882257 11.821467 -1.3850589 -0.0053904131 -0.25169161 0.96779251 0
-18.88158 11.821674 -1.3839643 0.057837013 -0.092391051 -0.99404168 0
-18.882238 11.823952 -1.3850714 0.13756421 0.4469468 -0.88392001 0
-18.881653 11.824758 -1.3840574 0.91642469 0.12715204 -0.37947083 0.026412433
-18.882421 11.827268 -1.3856108 0.087820947 -0.98631829 -0.13951243 0.031523649
-18.88147 11.827609 -1.3839732 0.32012206 0.77222854 -0.54880321 0.025760802
-18.882278 11.83041 -1.3854879 0.2347368 0.9550671 -0.18095721 0
-18.881351 11.83056 -1.384066 0.28759611 0.94102722 -0.17820299 0
-18.88229 11.83331 -1.385674 0.25990796 0.49852994 -0.82699192 0
-18.88129 11.833354 -1.3842479 -0.043697234 -0.24700204 -0.9680292 0
-18.882286 11.836597 -1.3857944 -0.52542138 -0.8357864 0.15935344 0
-18.881079 11.836468 -1.3843161 0.46645334 0.82799047 -0.31121227 0.016617639
-18.882265 11.839475 -1.3859491 -0.13826177 -0.45665455 -0.87883472 0
-18.880701 11.83949 -1.3840952 0.30018917 0.37303475 -0.87791312 0
-18.882191 11.841061 -1.3859979 -0.031775311 -0.057580214 -0.9978351 0
-18.88051 11.842647 -1.3844486 0.076674037 -0.23061019 0.97002065 0
-18.880074 11.845244 -1.3842502 0.21731161 0.45823425 0.86185676 0.0096064759
-18.879908 11.848386 -1.3847035 -0.16135389 -0.72407782 -0.67057896 0
-18.878824 11.848623 -1.3834713 -0.0021590232 -0.070156507 -0.99753368 0.01382247
-18.879887 11.85134 -1.3852708 -0.51645833 -0.85619318 0.014283162 0
-18.878593 11.851067 -1.383654 -0.33771318 -0.87865984 -0.33750069 0
-18.879742 11.854294 -1.3856056 0.24812514 -0.95631552 0.15457883 0
-18.87816 11.854523 -1.3840284 0.69508713 0.22988065 -0.68118191 0
-18.879366 11.857309 -1.385774 0.044816952 -0.10975322 -0.992948 0
-18.877441 11.857674 -1.3839017 -0.11162957 -0.94883448 0.29538423 0.008597563
-18.877176 11.860188 -1.3844013 0.70596468 0.11081967 0.69952339 0.0029012098
-18.875839 11.86142 -1.3832586 0.003019966 0.16323727 -0.98658222 0.017075494
-18.877007 11.863422 -1.3852212 0.40539673 0.25275028 -0.87850487 0.034368787
-18.875435 11.863811 -1.3837993 0.069693707 0.033105239 -0.99701893 0
-18.876703 11.866352 -1.3856547 -0.93620235 0.3377299 0.097280413 0
-18.874878 11.866882 -1.3841685 0.89367884 0.41577655 -0.1687243 0
-18.876137 11.868862 -1.3858571 -0.22838564 0.021062545 -0.9733429 0
-18.874361 11.869551 -1.3845859 0.10832841 -0.66242743 -0.74125224 0
-18.872875 11.870831 -1.383461 0.72315049 -0.69038373 0.020583302 0
-18.874098 11.872397 -1.3852844 0.33122158 0.46895891 0.81876111 0
-18.872475 11.872665 -1.3838837 0.15140608 0.77578712 -0.61256075 0.025672842
-18.873562 11.875181 -1.3856871 0.45095316 0.88625115 -0.10583086 0.0065607037
-18.871737 11.875681 -1.3843384 0.053390682 -0.018903635 -0.99839473 0
-18.871181 11.878404 -1.3849084 0.52688777 0.84680098 0.07292033 0.020468259
-18.86964 11.87915 -1.3836368 0.23141064 -0.95570296 0.18188184 0
-18.870634 11.881289 -1.3856268 0.94660121 0.32214686 0.01294185 0
-18.868958 11.88155 -1.3842497 0.25584632 -0.84195149 0.47503728 0.01166134
-18.868238 11.884285 -1.3849447 0.099393599 -0.024743771 -0.99474055 0
-18.866642 11.885199 -1.3837996 0.0448828 0.0040035741 -0.99898428 0
-18.89724 11.888474 -1.3842453 0.01487524 0.1490877 -0.98871207 0.033888124
-18.896835 11.887162 -1.3854499 -0.12975939 0.5101732 -0.85022694 0.023155242
-18.867596 11.887008 -1.3856578 0.22702467 -0.97258675 -0.050347466 0
-18.865734 11.887674 -1.3843766 -0.060200367 -0.92870313 -0.36590499 0
-18.896048 11.891296 -1.3840945 0.0073941359 -0.21729876 -0.97607714 0
-18.864983 11.890125 -1.3851151 -0.20891994 -0.97775197 0.01880255 0.0076041576
-18.863243 11.890913 -1.3839216 0.0086407186 -0.11251783 -0.99361217 0
-18.894699 11.893412 -1.3845156 0.087090865 0.075711407 -0.99331915 0
-18.893267 11.894773 -1.3854325 0.022998611 -0.027321741 -0.99936217 0
-18.864315 11.892332 -1.3857825 0.53160477 0.60624784 -0.59148949 0
-18.862354 11.893307 -1.3848016 0.044591922 -0.12000696 -0.9917711 0
-18.860678 11.894421 -1.3839316 0.1038066 -0.247012 -0.96343619 0.029165344
-18.893122 11.896626 -1.3844818 -0.049811274 -0.10245331 -0.99348992 0
-18.861599 11.895649 -1.3856952 -0.32348582 0.59269249 -0.73761272 0
-18.85957 11.896547 -1.3845174 0.58954847 0.58392584 -0.55808884 0.0307007
-18.857857 11.897438 -1.3832743 0.088337108 -0.12220281 -0.9885661 0.024506031
-18.891901 11.899255 -1.3842726 -0.18743448 0.015216715 -0.98215926 0
-18.890829 11.89971 -1.3852738 0.11999224 0.12273952 -0.98515832 0
-18.858814 11.898811 -1.385586 -0.42373145 -0.90198296 0.082936391 0
-18.856861 11.899683 -1.3843856 -0.04997446 -0.14962164 -0.98747957 0
-18.891434 11.901786 -1.3831054 -0.033076517 -0.33832544 -0.94044775 0
-18.889545 11.902531 -1.3848823 0.020589439 0.038869031 -0.9990322 0
-18.855797 11.90185 -1.3852775 0.36712772 0.68566626 0.62855315 0
-18.853884 11.903 -1.384362 0.52495003 0.18244945 -0.83134806 0.031997725
-18.888725 11.90448 -1.3844649 0.018588105 -0.024963021 -0.99951553 0.037683941
-18.887251 11.905996 -1.3850716 0.06132688 0.050485533 -0.99684012 0
-18.852768 11.904988 -1.3852561 -0.0084986761 -0.016390068 -0.99982953 0
-18.85107 11.905862 -1.3842397 -0.18250079 -0.98318034 0.0070694275 0
-18.886118 11.908551 -1.3844509 0.097242668 0.069031164 -0.99286383 0
-18.849836 11.907625 -1.3849487 0.99981612 -0.0026647467 0.018993292 0.02048824
-18.847904 11.909066 -1.3844163 0.71083862 0.70213199 0.041460797 0.031354774
-18.88505 11.910621 -1.3840425 0.1457254 0.028341239 -0.98891908 0
-18.883451 11.911649 -1.3849335 -0.18207049 -0.33421546 -0.92474347 0
-18.846523 11.910751 -1.3850659 -0.93589443 -0.34410164 0.075469777 0
-18.84483 11.911813 -1.3843243 0.044940345 0.053817064 -0.99753898 0
-18.842983 11.912887 -1.3832479 0.082373023 -0.34138322 -0.93630773 0
-18.882595 11.913923 -1.383895 0.082651757 0.0067763035 -0.99655551 0
-18.880957 11.914593 -1.3850361 -0.050155241 -0.16985567 -0.98419178 0
-18.843426 11.913334 -1.38486 0.006495445 -0.056349795 -0.99838996 0
-18.841444 11.914784 -1.3843918 0.50194716 0.51909256 -0.69180346 0
-18.839626 11.9158 -1.3832097 0.023760024 -0.087074317 -0.99591845 0
-18.879747 11.916698 -1.3844272 0.1616438 -0.026579592 -0.9864912 0
-18.878031 11.918175 -1.3848352 0.043959003 -0.10341454 -0.99366647 0
-18.840599 11.916147 -1.3855424 0.039058089 0.0089511648 -0.99919683 0
-18.83839 11.917511 -1.3846333 -0.31644592 -0.9115054 -0.26271626 0.046947166
-18.836641 11.918666 -1.383829 0.089355752 -0.012405932 0.99592251 0
-18.876919 11.920352 -1.3839104 0.10433429 -0.17428333 -0.9791525 0
-18.875027 11.921124 -1.3851037 0.11133317 0.0095520448 -0.99373722 0
-18.837175 11.919183 -1.385986 0.05818601 -0.23484401 -0.97029001 0
-18.835361 11.92014 -1.3845952 -0.087762848 -0.56317258 -0.82166559 0.0074994043
-18.833157 11.921762 -1.3835466 -0.075523861 0.014809309 -0.99703401 0.021086138
-18.874001 11.923368 -1.3838786 0.019682581 0.09400966 -0.99537671 0
-18.871866 11.92429 -1.384995 0.48740324 0.76688129 0.41752997 0
-18.83239 11.922787 -1.3849785 0.69719166 0.71686149 -0.0057863481 0
-18.830275 11.924463 -1.3842964 0.02880034 0.0037323413 -0.99957824 0
-18.870831 11.926156 -1.3839648 0.45139286 0.80479574 -0.38541976 0
-18.868729 11.926929 -1.3849893 -0.070529178 -0.430035 -0.90005308 0
-18.866997 11.927717 -1.3855988 0.03715359 0.10396734 -0.99388653 0
-18.828924 11.925516 -1.3852687 0.70866996 0.70374727 0.050266571 0
-18.826603 11.927127 -1.384501 0.027793646 0.035852827 0.99897057 0
-18.867661 11.928862 -1.3837502 0.082751259 0.26042944 -0.96194011 0
-18.865574 11.929596 -1.3846204 0.00018900204 -0.14337979 -0.98966771 0
-18.863377 11.93044 -1.3853079 0.061577402 0.20444913 -0.97693849 0.027491348
-18.82534 11.928032 -1.3833203 0.43182272 -0.85134119 0.297905 0
-18.823561 11.92874 -1.3843095 -0.0097183157 -0.13038588 -0.99141568 0.068164393
-18.820568 11.92955 -1.384606 0.80386883 0.40896925 0.43190181 0
-18.817593 11.930187 -1.3845494 0.20193741 0.12472657 -0.97142404 0
-18.814571 11.930591 -1.3846163 -0.0062398813 -0.057471029 -0.99832773 0
-18.811396 11.930694 -1.3850069 -0.029715966 -0.10872444 0.99362773 0
-18.808807 11.930705 -1.385432 -0.24498416 -0.54823637 0.79963726 0.013785272
-18.864597 11.931124 -1.3836238 0.0022192081 0.020422336 -0.999789 0
-18.862312 11.932028 -1.3842398 -0.33493245 0.059511725 -0.9403609 0
-18.859737 11.933002 -1.3848726 -0.030662753 -0.17487368 -0.98411334 0
-18.857244 11.93364 -1.385716 -0.0032006521 -0.10660734 -0.99429607 0
-18.813745 11.931108 -1.3834049 -0.024798602 -0.15375273 -0.98779815 0
-18.81148 11.931201 -1.3836308 0.12988393 0.074401356 -0.98873389 0
-18.807535 11.93254 -1.3846561 0.16615158 0.3654573 -0.91587913 0
-18.806948 11.933816 -1.3854169 -0.43548554 -0.8871457 -0.15272497 0
-18.858835 11.934553 -1.3836086 0.54877442 0.43122774 -0.71616298 0
-18.856346 11.935291 -1.3842866 0.0068817302 -0.019120619 -0.99979347 0
-18.853655 11.936099 -1.3848394 0.035544842 0.11694545 -0.99250209 0
-18.851168 11.936545 -1.3855196 0.14113939 -0.076138362 -0.98705757 0
-18.807146 11.935626 -1.384256 0.1347768 0.38439673 -0.91327673 0.018438552
-18.806946 11.93527 -1.3849826 0.32079998 0.61091995 0.72378463 0.036702216
-18.852863 11.937433 -1.3835832 -0.030914163 0.025232792 -0.9992035 0
-18.850252 11.937869 -1.3842605 0.06884589 0.1415887 -0.98752868 0
-18.847446 11.938426 -1.3845531 0.21303596 0.73226905 -0.6468367 0
-18.844471 11.939008 -1.384575 -0.011879357 -0.18523462 -0.9826225 0
-18.840931 11.939374 -1.3844688 0.95917434 -0.06763541 -0.274609 0
-18.838243 11.939192 -1.3843596 -0.55281496 -0.8293311 0.081274815 0
-18.835449 11.938943 -1.3842881 0.08131808 -0.81677902 0.57119113 0
-18.832495 11.938656 -1.384244 0.22993253 0.95604444 -0.18196154 0
-18.82954 11.93865 -1.3843503 0.3979713 -0.91632462 -0.044362064 0
-18.826534 11.938949 -1.3843991 0.94651508 -0.31910986 0.047728725 0
-18.823566 11.939337 -1.3845506 -0.037683945 -0.99195826 -0.12082492 0
-18.820553 11.939672 -1.3845158 -0.84321558 -0.5155229 0.15239254 0
-18.817696 11.939808 -1.3839732 0.25295749 0.56876236 0.78263777 0
-18.81456 11.939877 -1.3835838 -0.59668303 -0.79569483 0.1041104 0
-18.811724 11.939919 -1.3834822 0.17487103 -0.95058632 0.25652647 0.019075105
-18.807594 11.938422 -1.3844748 0.42339268 0.90575147 0.018785829 0
-18.843052 11.940126 -1.3831029 0.02638087 0.18673401 -0.98205626 0
-18.841068 11.940136 -1.3831203 0.18662892 -0.9817673 0.036092021 0.013373547
-18.838997 11.940048 -1.3831667 0.0099164052 -0.12168449 -0.99251932 0
-18.819429 11.940035 -1.3857286 0.63192755 0.50421441 0.5885877 0.011767529
-18.817123 11.940111 -1.3854469 -0.086083144 0.78058338 0.61909556 0
-18.8144 11.940155 -1.3851247 -0.19468281 -0.95412403 0.22747763 0
-18.811487 11.940186 -1.3848721 0.1311866 -0.98650348 0.097984537 0
-18.808683 11.940322 -1.3848034 -0.10641417 -0.26267055 -0.95899951 0
-18.892736 11.763785 -1.3814611 0.3781527 0.86241585 0.33651066 0
-18.88938 11.764129 -1.3814182 0.0042745885 -0.066187553 0.99779809 0
-18.886475 11.765164 -1.3813508 0.062814258 0.11357464 0.9915418 0
-18.884888 11.765642 -1.3802742 0.10778078 0.098080195 0.98932481 0
-18.885239 11.766232 -1.3824669 0.1116578 0.096195802 -0.98907983 0
-18.883223 11.767924 -1.3813251 0.33177251 -0.12466891 0.93508542 0.036027782
-18.882401 11.770389 -1.3816317 0.089018948 -0.027605707 -0.99564725 0
-18.881821 11.771267 -1.3807621 -0.018303968 -0.077424541 -0.99683017 0
-18.88209 11.772727 -1.3823133 0.13247013 0.98247784 -0.13110681 0.032851845
-18.881601 11.77361 -1.3813347 0.46643087 0.88147938 -0.073732026 0.014947745
-18.881117 11.776475 -1.3813454 0.65208429 0.74445242 -0.1434457 0
-18.880796 11.779572 -1.3815007 0.45355266 0.72378731 -0.52002096 0.019804263
-18.88056 11.782529 -1.3815145 0.3088344 0.9483164 -0.0729196 0.021257771
-18.880302 11.785426 -1.381341 0.44035578 -0.31185105 0.84192377 0.032221198
-18.880102 11.788571 -1.3814321 0.29860425 -0.1907817 0.93511385 0.034299698
-18.879961 11.791615 -1.3814126 0.11529832 -0.045654852 -0.9922812 0
-18.879929 11.794445 -1.3813877 0.13898821 0.061006144 -0.98841304 0
-18.880011 11.797423 -1.3814081 0.13548687 -0.10852183 0.98481792 0
-18.880188 11.800538 -1.3814574 0.64610517 0.76204759 -0.042797685 0.047643989
-18.880384 11.803525 -1.381543 0.27159092 0.56812584 0.77683425 0.046268504
-18.880548 11.806462 -1.3815056 0.98069215 0.15492377 -0.11933823 0
-18.880716 11.809498 -1.3815136 0.010801978 -0.12392412 0.99223292 0
-18.880861 11.812551 -1.3816004 0.10639329 0.19776347 -0.97445893 0
-18.880867 11.815488 -1.3814472 0.20304111 -0.032324817 0.9786365 0
-18.880884 11.818503 -1.3814577 -0.011156434 -0.041219864 -0.99908775 0
-18.88088 11.8215 -1.3816137 0.59050745 0.53177488 -0.60705554 0.015369918
-18.880699 11.824523 -1.3814421 0.038124803 -0.079664797 0.99609238 0.017478647
-18.880608 11.827489 -1.3816546 0.80220699 0.53952312 -0.25569236 0.029275864
-18.880323 11.830528 -1.3814306 0.91653669 0.28446972 -0.28113571 7.3737036e-05
-18.880096 11.833571 -1.3814926 0.086514376 0.080144219 0.99302173 0
-18.8799 11.836442 -1.3817002 0.40213352 0.16167991 0.90119267 0
-18.879517 11.839458 -1.3815665 0.30403975 -0.15358502 -0.94019759 0
-18.878899 11.840269 -1.3804235 0.47708938 -0.41999763 -0.7720024 0
-18.879381 11.84235 -1.3821884 0.27698192 0.15789548 0.94781333 0.020543104
-18.878771 11.842723 -1.380752 0.032542929 -0.54307353 -0.83905435 0.016940366
-18.879129 11.844979 -1.382603 0.31243044 0.48215383 0.81848329 0.014091033
-18.878489 11.845729 -1.3812312 -0.12070918 -0.22582075 -0.96666139 0.021125684
-18.878164 11.848516 -1.3816996 0.29868779 0.4355455 0.8491677 0.020695331
-18.877563 11.851485 -1.3815521 0.12842505 0.97488225 0.18196602 0
-18.876915 11.854522 -1.3814731 0.51130337 0.85924584 -0.016291324 0.016382324
-18.876389 11.857208 -1.381718 0.67550015 0.13785265 -0.7243591 0
-18.875696 11.858262 -1.3805341 0.021617381 -0.1588732 0.98706234 0
-18.87619 11.85944 -1.3826504 0.14899385 0.71247494 0.6856969 0
-18.875399 11.860642 -1.3814788 0.35076001 0.48451531 -0.80138153 0.011801898
-18.874573 11.863488 -1.381516 0.18889663 -0.15667039 -0.9694187 0
-18.873726 11.866371 -1.3816351 0.21183114 0.39183298 -0.89531809 0
-18.872814 11.867552 -1.380553 -0.10490027 -0.31473684 -0.94336456 0
-18.873262 11.868652 -1.3824216 0.44696397 -0.40547442 0.79737931 0
-18.872469 11.869919 -1.3815526 0.92705303 0.28739309 -0.24078579 0
-18.871519 11.872399 -1.3814764 0.017441008 -0.37551168 0.9266535 0.023633266
-18.8706 11.875175 -1.3819451 0.52994531 0.086031564 -0.84365672 0.0067901765
-18.869644 11.876151 -1.3808622 0.86207169 -0.5063951 0.019913033 0
-18.870012 11.877265 -1.3828967 0.067787655 0.11898223 0.99057966 0
-18.869131 11.878465 -1.3817953 0.3144092 0.026136542 -0.9489277 0.035578664
-18.867712 11.88125 -1.3818853 0.074178673 0.066121995 -0.99505043 0
-18.866734 11.882298 -1.3808384 0.93193907 0.34376204 -0.11539994 0.020603444
-18.86726 11.883012 -1.3828878 -0.070528254 -0.22234845 0.97241294 0
-18.865837 11.884518 -1.3815944 -0.053460769 -0.29651335 -0.95353121 0
-18.864574 11.887032 -1.3820212 0.37483293 0.87003487 -0.32021791 0.049635142
-18.863438 11.88818 -1.3811572 0.16270296 -0.98553628 0.047392655 0.020360176
-18.862202 11.890434 -1.3816469 0.34768072 0.031160668 -0.93709505 0.068084195
-18.860847 11.89157 -1.3805876 -0.19985899 0.96294874 0.18106943 0
-18.897127 11.893846 -1.3810455 0.16654706 -0.080996908 -0.98270118 0
-18.861347 11.892585 -1.3828166 0.088843137 0.13319419 -0.98709995 0
-18.859829 11.89369 -1.381609 0.58748847 0.80612797 -0.070816256 0
-18.89535 11.896788 -1.3814665 0.11669655 -0.054003671 -0.99169832 0.10379923
-18.858414 11.895719 -1.3818455 -0.098696314 -0.68977541 -0.71726495 0
-18.857101 11.897097 -1.3814087 0.24161398 0.0046165185 -0.97036147 0.040568613
-18.89518 11.898396 -1.3804117 -0.0036895233 0.014530685 -0.99988765 0.04410731
-18.855795 11.899015 -1.3818799 -0.033988718 -0.097924948 -0.99461323 0.030188834
-18.85442 11.90022 -1.3811625 0.24902463 0.75854349 -0.60216147 0
-18.891273 11.903362 -1.382062 0.29693285 0.72070432 -0.62643141 0
-18.85305 11.902188 -1.3817937 0.80457807 0.5866397 0.092238814 0
-18.851341 11.903603 -1.3809525 0.071032591 -0.2914677 -0.95393974 0
-18.891626 11.90452 -1.3805374 0.14766428 0.35507554 -0.92310166 0.039894197
-18.889114 11.906391 -1.3825153 0.12247957 0.27672541 -0.95311165 0
-18.850149 11.905254 -1.3817189 0.02768801 -0.13734294 -0.9901365 0.022892423
-18.848507 11.906465 -1.3808057 -0.074322313 -0.032352898 -0.99670929 0
-18.889051 11.90851 -1.3806124 0.065537274 -0.025574954 -0.99752235 0
-18.887663 11.908833 -1.3823237 0.93159455 0.35009569 -0.097799011 0
-18.847305 11.908136 -1.3818064 0.13228257 0.095121652 -0.98663729 0
-18.845612 11.90955 -1.3812686 -0.015789971 -0.108 -0.99402547 0
-18.886063 11.911854 -1.3815953 0.211371 0.31010658 -0.92690682 0
-18.884285 11.912961 -1.3828411 0.10011438 -0.17745398 -0.97902364 0
-18.844116 11.911192 -1.3817363 0.53297055 0.49992698 -0.68265313 0
-18.842445 11.912445 -1.3807174 0.36426869 0.45112348 -0.81473678 0
-18.885141 11.914163 -1.3804675 0.22616109 0.032364499 -0.97355211 0
-18.883741 11.914648 -1.3818221 0.0070607308 -0.081058532 -0.99668437 0
-18.881771 11.915907 -1.3829651 0.469363 0.88261771 0.026160473 0
-18.841152 11.913973 -1.3818306 0.061784025 0.0525892 -0.99670309 0.047249898
-18.839474 11.91536 -1.3813176 0.81922716 0.57236606 -0.035552613 0
-18.882593 11.916707 -1.3811421 -0.062545851 -0.082595147 -0.99461859 0
-18.880789 11.918019 -1.3819536 0.049478047 -0.085656978 -0.99509543 0
-18.838051 11.916763 -1.381628 0.49874172 0.69011408 0.52440381 0
-18.836288 11.918459 -1.3816595 -0.018239819 0.18179834 -0.98316664 0.026064146
-18.879679 11.920238 -1.3808891 0.038119003 -0.036030255 -0.99862343 0
-18.878101 11.920837 -1.3821136 -0.054609045 -0.2082224 -0.97655582 0
-18.834724 11.920059 -1.3810319 -0.19853507 -0.68291241 -0.70300382 0.0085933339
-18.833324 11.921404 -1.381472 0.22426607 0.29002815 0.93037003 0
-18.877163 11.922842 -1.3809463 0.22900209 0.93695998 -0.2639395 0
-18.875107 11.924151 -1.3818276 -0.049354065 0.39078462 -0.9191581 0.090356357
-18.832281 11.922646 -1.380944 -0.18003866 -0.6784355 0.71225798 0
-18.830448 11.924501 -1.3811994 -0.056821633 0.046618812 0.99729538 0
-18.873901 11.926064 -1.3808877 0.13452233 0.093113966 -0.98652601 0
-18.871933 11.926794 -1.3821138 0.12738428 0.070632704 -0.9893353 0
-18.828884 11.926016 -1.3810029 0.23355369 -0.97131747 -0.044665936 0
-18.827297 11.927283 -1.3815088 0.31805015 0.57638359 -0.75274575 0
-18.870897 11.928609 -1.3809211 0.0026699081 -0.080266759 -0.99676985 0
-18.868643 11.929722 -1.3817694 0.33849889 0.44831437 -0.82730454 0.033170942
-18.866657 11.930527 -1.382628 0.21763535 0.65080088 -0.72738791 0
-18.826054 11.928473 -1.3809636 0.88892418 -0.45748663 -0.022799786 0.035984576
-18.823681 11.929846 -1.3811711 0.069801293 0.0010698981 0.99756032 0
-18.820719 11.930478 -1.382008 0.028168004 -0.24048081 -0.97024506 0
-18.818037 11.930827 -1.3825785 0.098029777 -0.011147057 0.99512106 0
-18.867443 11.931704 -1.3803527 0.0025234374 0.00070551923 -0.9999966 0
-18.865362 11.932391 -1.3813753 -0.043944158 -0.012920417 -0.99895048 0
-18.862827 11.933366 -1.3822153 0.34299892 0.88841724 -0.30506828 0
-18.820621 11.93132 -1.380507 0.71826029 0.6880272 -0.10354117 0
-18.817417 11.931931 -1.3808377 -0.10163054 0.95603013 -0.27509576 0
-18.814449 11.932409 -1.380917 -0.56078321 -0.81463778 0.14794381 0
-18.8116 11.932749 -1.3809276 0.8595857 0.50531065 -0.075984217 0
-18.807997 11.933113 -1.3818554 -0.040757053 -0.05154524 0.99783862 0.024112368
-18.862089 11.934696 -1.3810022 -0.030377522 -0.023991849 -0.99925053 0
-18.859449 11.935765 -1.3815492 0.022072995 0.90918487 -0.41580737 0
-18.856916 11.936533 -1.3822662 -0.077588752 -0.033926748 -0.99640805 0
-18.816748 11.936845 -1.3800768 0.010536385 0.017332429 0.9997943 0
-18.814178 11.936554 -1.3801572 -0.0070082289 0.029935317 0.99952728 0
-18.811382 11.936183 -1.3802333 0.0050073038 0.076114908 0.99708652 0
-18.807625 11.935489 -1.3814455 0.38897657 -0.010924254 -0.92118287 0
-18.806986 11.935704 -1.3827834 0.093087584 -0.019489128 -0.99546713 0
-18.855659 11.938237 -1.3805265 0.30362406 0.91498876 0.26572186 0.012870942
-18.85351 11.938392 -1.3816772 0.18267879 0.011046536 -0.98311061 0.08597973
-18.851233 11.939591 -1.3811848 0.089442931 0.90455288 0.41687411 0.024825754
-18.84766 11.939737 -1.3824792 0.13048357 -0.0085466141 -0.99141365 0
-18.837532 11.939897 -1.38254 0.099727444 0.73382616 0.6719774 0.020848379
-18.835476 11.939595 -1.3814931 -0.072996058 0.96944559 -0.23419403 0
-18.83255 11.938895 -1.3814844 -0.86547208 -0.49547851 -0.073886335 0
-18.829559 11.938508 -1.3815041 0.57952577 0.64289325 -0.50083768 0.018411778
-18.826511 11.938555 -1.3814067 0.24454674 0.49506289 0.83373231 0.016759209
-18.823376 11.938708 -1.3815465 0.6132226 0.76989967 0.17667077 0
-18.820274 11.938855 -1.3817188 0.24210316 0.636042 0.73269141 0.024697606
-18.817196 11.938938 -1.3816702 0.15819806 0.98339647 -0.088908605 0
-18.814188 11.939083 -1.3818482 -0.78380257 -0.62076581 -0.017419584 0
-18.811474 11.939134 -1.3819784 0.48534578 0.86663485 -0.11568739 0.028521525
-18.807997 11.938285 -1.3819404 -0.33921149 0.20809045 0.9174062 0
-18.849697 11.94028 -1.3804492 0.46985871 0.65504974 0.59172857 0.014282426
-18.847393 11.940693 -1.3808892 0.1448863 0.7429859 0.65343696 0.0025027024
-18.84449 11.94084 -1.3812841 0.090804048 -0.97733074 -0.19125709 0.065170892
-18.841572 11.940693 -1.3814039 0.49285957 0.8664732 -0.079458892 0
-18.838623 11.940292 -1.3814394 0.1058125 0.72168589 -0.68408567 0
-18.836903 11.940057 -1.3810922 0.40369403 0.81428373 -0.41710097 0
-18.808855 11.940021 -1.3829907 -0.069490515 0.025580218 -0.99725461 0
-18.894426 11.763201 -1.3781428 0.35019901 0.93407285 0.069775037 0
-18.892427 11.763251 -1.3784615 -0.0095735341 -0.15182655 0.98836082 0
-18.889437 11.763636 -1.3783673 0.048477307 0.013988581 -0.99872637 0
-18.886343 11.764594 -1.3783705 0.00070135249 -0.232952 -0.97248799 0
-18.88439 11.765569 -1.3783213 0.15156165 -0.029314796 -0.98801303 0
-18.882984 11.767619 -1.3785747 -0.23548013 -0.72488683 -0.6473701 0
-18.882198 11.769726 -1.3785464 0.14761907 0.11889957 -0.98187137 0
-18.881788 11.771251 -1.3781338 -0.20232925 -0.55633348 -0.8059504 0
-18.881338 11.773434 -1.3785576 0.67743176 0.71900451 0.15530208 0.048065722
-18.880741 11.776591 -1.3784848 0.45188016 0.54495001 -0.70628166 0
-18.880348 11.77959 -1.3785448 0.09726274 0.74079889 -0.664648 0.057969511
-18.880056 11.782523 -1.3783485 0.46748105 -0.12322989 -0.87537181 0
-18.879812 11.785565 -1.3784336 0.17238151 -0.98384613 0.04828516 0
-18.879578 11.788547 -1.3785235 0.22483172 0.32014936 -0.92030156 0.017697683
-18.879431 11.791519 -1.3784534 0.012570161 0.89479256 -0.44630516 0
-18.879414 11.794505 -1.3784562 0.089576349 0.9504382 -0.29773039 0
-18.879494 11.797513 -1.3785032 0.86918014 0.48292822 0.10633006 0.048662495
-18.879616 11.800443 -1.3784548 0.0055051013 -0.074197307 -0.99722838 0
-18.879789 11.803378 -1.3785843 0.037483793 0.97167617 0.23332474 0.04437485
-18.879936 11.806541 -1.3785166 0.16948424 0.46335018 -0.86981696 0.033779401
-18.880018 11.809588 -1.3783971 0.21610723 0.95719945 -0.19252747 0
-18.880081 11.812551 -1.3783928 0.49222076 0.8616578 -0.12354975 0.014349298
-18.880117 11.81544 -1.3784264 -0.004793507 -0.99210298 0.12533419 0.053461213
-18.880098 11.818436 -1.3784323 0.67741501 0.67383653 -0.29504785 0
-18.880039 11.821462 -1.378528 0.4652693 0.86570472 -0.18460739 0
-18.8799 11.824504 -1.3785267 -0.1851227 -0.2263779 -0.95628589 0
-18.879725 11.827554 -1.3785766 0.69910556 0.69105983 0.18354209 0.0032803242
-18.879471 11.830474 -1.3784443 0.22896008 0.13506521 -0.96402001 0
-18.878958 11.831624 -1.3772445 -0.011909168 -0.10413837 -0.99449158 0
-18.879316 11.833402 -1.3788618 -0.092778146 0.30361846 -0.94826585 0
-18.878857 11.833708 -1.3776143 0.097043179 0.0040997476 -0.99527174 0
-18.879173 11.836334 -1.3793899 -0.069398157 0.81580853 -0.57414311 0.0042754742
-18.878725 11.836734 -1.3778356 0.058089249 -0.1531218 -0.98649859 0
-18.879137 11.838826 -1.3794711 -0.062521607 -0.068896666 0.99566275 0
-18.878527 11.83944 -1.378334 0.032486964 0.062242471 -0.99753225 0.019585524
-18.878141 11.842498 -1.378534 -0.019060221 -0.13606735 -0.99051619 0
-18.877684 11.845329 -1.3784599 0.4089309 0.67408311 -0.61513203 0
-18.877165 11.848409 -1.3784804 0.30059633 -0.1760959 -0.93735373 0
-18.876654 11.851372 -1.3786007 0.73163903 -0.5321992 0.42599103 0
-18.875931 11.852493 -1.3771776 0.021257956 0.064015575 -0.99772245 0
-18.876266 11.853955 -1.3791243 -0.12445938 -0.066695072 -0.9899807 0
-18.875685 11.85505 -1.3779322 0.0083678355 -0.22684215 -0.97389555 0
-18.876068 11.856456 -1.3796166 -0.019516597 -0.00028021651 0.99980944 0
-18.875202 11.857597 -1.3784004 -0.043650176 -0.94435376 0.32602239 0
-18.874443 11.860471 -1.3784302 0.62661713 0.5685854 0.53297424 0
-18.873652 11.863335 -1.3786646 0.090389177 -0.076855347 -0.99293661 0
-18.87282 11.864453 -1.3774657 0.094138958 0.012925625 -0.99547517 0
-18.873207 11.865323 -1.3792529 -0.38321471 -0.87226421 -0.30381191 0.0091776913
-18.872482 11.866656 -1.378328 0.44458517 0.07302741 -0.89275479 0
-18.871523 11.869571 -1.3785225 0.58324569 0.79302293 -0.17589504 0.027974082
-18.870569 11.872333 -1.3788334 0.077762395 -0.21829483 -0.97277975 0
-18.869738 11.873482 -1.377615 -0.030913636 0.40542716 -0.9136045 0
-18.87009 11.874599 -1.3799078 0.20449494 -0.96745968 0.14900859 0
-18.869102 11.875676 -1.378479 0.6538415 0.75658852 0.0080661112 0
-18.867903 11.878331 -1.3784871 0.26230395 -0.15782043 -0.95199227 0.01172867
-18.866812 11.879675 -1.3774631 -0.043212019 -0.12084244 -0.99173075 0
-18.867092 11.880702 -1.3797796 0.6158092 -0.7878772 0.005338883 0
-18.866228 11.881564 -1.3782386 0.64225894 0.05978401 -0.76415271 0
-18.864876 11.884242 -1.3785996 -0.093607381 -0.046785392 -0.99450928 0
-18.863796 11.885566 -1.3780441 0.62696886 0.30717894 -0.71592677 0.093315601
-18.864124 11.886162 -1.379869 0.92418921 -0.38183078 -0.0089230249 0
-18.862606 11.887636 -1.3784206 -0.03012502 -0.036745239 -0.99887049 0
-18.861404 11.889677 -1.3788598 0.95280653 0.28855249 0.094324641 0
-18.86034 11.890945 -1.3783922 -0.037948348 -0.181063 -0.98273909 0.019054305
-18.858963 11.893124 -1.3788683 -0.19333367 -0.61171955 -0.76708621 0
-18.857677 11.894501 -1.3781753 0.5406366 0.83579928 -0.095664158 0
-18.856377 11.89646 -1.3786418 0.21995831 0.070839092 -0.97293377 0
-18.854706 11.897921 -1.3770893 -0.038959794 -0.56813294 -0.82201409 0.065560058
-18.895472 11.899134 -1.3793335 0.097587526 -0.019846229 -0.99502903 0.049256779
-18.855162 11.898415 -1.379504 -0.42624858 -0.90280414 0.057069398 0
-18.853775 11.899612 -1.3784773 0.59877652 0.78381175 -0.16463892 0
-18.85236 11.901491 -1.3788865 -0.026578499 -0.16344343 -0.98619461 0
-18.851158 11.90266 -1.3779426 -0.51240432 -0.83742118 -0.19017798 0.018294128
-18.84955 11.904604 -1.3787143 0.010846271 -0.083930016 -0.99641258 0
-18.848068 11.906112 -1.378356 0.27023003 0.21136533 -0.93930852 0.035020962
-18.891325 11.907011 -1.3784504 -0.018502623 0.084824391 -0.99622416 0
-18.889603 11.909665 -1.3785151 0.040913653 -0.011534191 -0.9990961 0
-18.846724 11.907606 -1.3786535 -0.04488932 -0.13236156 -0.99018455 0.086508587
-18.845173 11.909214 -1.37857 0.21178503 0.97482508 -0.069736533 0
-18.88929 11.911191 -1.3772469 -0.01455483 -0.22474553 -0.97430879 0
-18.887663 11.911527 -1.3795912 0.0097061154 -0.025121428 -0.99963731 0
-18.843822 11.910683 -1.3784875 -0.1050202 -0.9935227 0.043398578 0
-18.84227 11.912218 -1.3783916 -0.41646948 -0.90901768 -0.015494548 0
-18.886492 11.914355 -1.3781279 -0.3247667 -0.44186383 -0.83623141 0
-18.884939 11.915582 -1.3791169 0.064222485 0.075039335 -0.99511033 0
-18.840693 11.913926 -1.3783053 -0.096961208 -0.33370683 -0.93767709 0
-18.839272 11.915284 -1.3784405 -0.038954899 -0.1001092 0.99421364 0
-18.883677 11.917678 -1.3784189 -0.0096981544 0.20329005 -0.97907054 0
-18.837702 11.916923 -1.3786616 0.05979633 -0.39334393 -0.91744471 0.009417682
-18.836281 11.918503 -1.3782177 0.72642547 0.68713379 -0.012383291 0
-18.882414 11.919924 -1.3773527 -0.030908521 -0.09524788 -0.9949736 0
-18.880836 11.920952 -1.378399 -0.17991397 -0.032577366 -0.98314279 0
-18.834948 11.919892 -1.3785375 0.061360858 -0.21337296 -0.97504199 0
-18.83342 11.921659 -1.3783796 0.57045293 -0.82093298 0.02554494 0
-18.879177 11.922615 -1.3786433 0.055802874 0.20963991 -0.97618502 0.031858701
-18.877829 11.923831 -1.3788475 0.031426422 -0.18698609 -0.9818598 0
-18.832058 11.923346 -1.3782673 0.070749834 -0.72053283 0.68980205 0.043100443
-18.83062 11.924609 -1.3788065 -0.10344494 -0.23582035 -0.96627527 0
-18.876921 11.925419 -1.3778611 0.28808397 -0.38478711 -0.87689596 0
-18.874886 11.926873 -1.3785623 0.97794002 -0.11704113 0.17301624 0.051325601
-18.872776 11.927951 -1.3797702 -0.33224395 -0.19837783 -0.92209554 0
-18.831272 11.925035 -1.3770912 0.049208041 0.11882695 0.99169487 0
-18.829491 11.926332 -1.3784215 0.95024765 0.15763168 0.26866636 0
-18.82774 11.927723 -1.3794098 0.87524247 -0.47896942 -0.067371614 0
-18.8734 11.928534 -1.378015 0.14838184 0.12434349 -0.98108184 0
-18.871586 11.929685 -1.378585 0.056694493 -0.054641936 -0.99689519 0
-18.869637 11.930578 -1.3795981 -0.097442269 -0.097835258 -0.99042082 0
-18.828228 11.928294 -1.3774182 0.19798972 0.97909105 -0.046698701 0
-18.826582 11.929522 -1.3782248 -0.3489432 -0.89954209 -0.26279792 0
-18.824493 11.930344 -1.3793194 0.47786435 0.54507244 0.68886977 0
-18.87014 11.931398 -1.3775916 0.050635628 -0.19349936 -0.97979289 0
-18.868275 11.932224 -1.378533 -0.18149993 0.19320175 -0.96422553 0
-18.866041 11.933564 -1.3789552 0.12166101 0.021137809 -0.99234664 0
-18.825693 11.932256 -1.3772476 -0.17724982 -0.1258748 0.97608298 0
-18.823282 11.932379 -1.3782516 0.14689024 0.91167134 -0.38376892 0
-18.820507 11.932727 -1.3790231 0.37402642 0.68253058 -0.62789822 0
-18.817707 11.933168 -1.3794209 -0.63617563 -0.76346415 0.11136821 0
-18.814625 11.933573 -1.379688 0.17111875 0.98448896 -0.038728818 0
-18.812073 11.933865 -1.3798194 -0.62222511 0.75101638 -0.22093047 0
-18.865221 11.934516 -1.3780751 0.031725034 0.083159201 -0.99603122 0
-18.862473 11.935779 -1.3786483 -0.054677635 0.19586647 -0.97910506 0
-18.860083 11.936728 -1.3793169 0.22154541 0.06025558 -0.97328669 0.10952935
-18.829351 11.936022 -1.3773137 0.42181364 0.85633397 0.2979351 0
