# .PCD v0.7 - Point Cloud Data file format
VERSION 0.7
FIELDS x y z normal_x normal_y normal_z curvature
SIZE 4 4 4 4 4 4 4
TYPE F F F F F F F
COUNT 1 1 1 1 1 1 1
WIDTH 566
HEIGHT 1
VIEWPOINT 0 0 0 1 0 0 0
POINTS 566
DATA ascii
0.010754251 0.0045006094 0.013688792 0.92799616 -0.0035754582 -0.37257254 0.020822307
-0.045498483 0.0075103939 0.013639501 -0.94985312 0.0095218169 -0.31255135 0.019477919
-0.044864528 0.0075093759 0.013498843 -0.97659403 0.0016297129 -0.21508446 0.024162535
0.010794538 0.0075170859 0.013682611 0.94335097 -0.0093876608 -0.33166355 0.021651277
-0.045569524 0.010564031 0.013871926 -0.94500691 0.0066983048 -0.32698193 0.020509185
-0.044854674 0.010654609 0.01339784 -0.97175586 0.040598135 -0.23247032 0.024429748
0.01082003 0.010456763 0.013682633 0.92932713 -0.17145942 -0.32703638 0.029176131
-0.045685161 0.013526656 0.013929887 -0.92456883 0.023014419 -0.38031939 0.021171356
-0.044881236 0.013608086 0.013458551 -0.97074032 -0.0094029084 -0.23994753 0.025018295
0.011107933 0.01306076 0.012901616 0.7413851 -0.47530648 -0.47374249 0.046715554
0.012648302 0.014372543 0.013569025 0.83950692 -0.42384702 -0.33997303 0.017568395
-0.045709036 0.01642446 0.014066824 -0.91702664 -0.0042275153 -0.39880359 0.018332217
-0.04487605 0.016204886 0.013436713 -0.97722453 -0.023404235 -0.21091338 0.023214966
0.013546534 0.016167006 0.012853662 0.75423574 -0.4978925 -0.42805552 0.021436142
-0.045552384 0.019403465 0.01366285 -0.95181429 0.047089774 -0.30303803 0.022399485
-0.044864066 0.019662401 0.013461761 -0.97555608 0.023970773 -0.21843924 0.0250936
0.014733884 0.018829249 0.012504488 0.7632724 -0.32081473 -0.56079686 0.013015012
0.01538497 0.019811448 0.013639059 0.91236955 -0.2561444 -0.31933019 0.017723819
-0.045382503 0.022409081 0.014129854 -0.90952444 0.0720734 -0.40935406 0.018119587
-0.044707481 0.022754107 0.012882595 -0.94498116 0.08601138 -0.31561455 0.019374497
0.015887205 0.022557534 0.013419362 0.92411792 -0.12415334 -0.36137515 0.013141489
-0.045769285 0.025635425 0.014463982 -0.87724745 -0.008054805 -0.47997078 0.0038435885
-0.044630848 0.02554192 0.012860624 -0.92042589 0.066067189 -0.38529372 0.012690602
0.015894709 0.025773173 0.013661806 0.97088313 0.12362178 -0.20519163 0.019667396
-0.045838229 0.028521191 0.014498286 -0.87585396 0.0022587979 -0.48257104 0.0037965542
-0.044684906 0.028503628 0.013000899 -0.89083201 0.0012056353 -0.45433125 0.0019613556
0.015465858 0.028931079 0.013278087 0.87021893 0.29246071 -0.39646652 0.009623603
-0.045745451 0.031378407 0.014452064 -0.87746865 0.019306941 -0.47924533 0.0047062784
-0.044661138 0.031542849 0.012938063 -0.89556515 0.015692022 -0.44465369 0.0023798854
0.014279391 0.031946797 0.01294982 0.82590896 0.40806359 -0.38904819 0.011207715
0.015233775 0.030868625 0.013941048 0.91865349 0.33822522 -0.20415579 0.012846163
-0.045560811 0.03417683 0.014486367 -0.89793748 -0.014668618 -0.43987846 0.0099181877
-0.044663154 0.034231309 0.012942076 -0.8939817 -0.071807265 -0.4423126 0.011567475
0.011383106 0.035657175 0.012924305 0.82318729 0.50380725 -0.26180321 0.03765389
0.012982476 0.034426168 0.013182089 0.78658146 0.49320123 -0.3715401 0.025308795
-0.051130172 0.03899882 0.013325739 -0.63270557 -0.77305084 -0.045564964 0.025035843
-0.048609406 0.038277376 0.013209495 -0.49268901 -0.86422151 -0.10187565 0.0098026451
-0.046605419 0.037305497 0.013710496 -0.64329714 -0.70873553 -0.2895906 0.03027612
-0.044775445 0.036508072 0.012914672 -0.68964666 -0.65807712 -0.3021951 0.043008931
0.010981909 0.036641214 0.013409759 0.87769628 0.38824898 -0.2809127 0.05599986
0.012173647 0.036239844 0.014300124 0.91609299 0.36156693 -0.17332943 0.043607213
-0.051674131 0.040566012 0.01344722 -0.8888914 -0.45189115 -0.075276442 0.016899712
-0.050367888 0.039794549 0.012636985 -0.79005152 -0.59597331 -0.14364716 0.0090369489
0.011039346 0.039068654 0.014158542 0.90756691 0.28505173 -0.30833083 0.06150819
-0.05232792 0.043509983 0.013228735 -0.9656319 -0.22492908 -0.13023797 0.0055764625
-0.050935507 0.042277083 0.012057798 -0.91649812 -0.3592234 -0.17603934 0.0093999365
-0.052806176 0.046537496 0.013240829 -0.98923749 -0.11474687 -0.09078709 0.0062048221
-0.05301917 0.049563799 0.013349641 -0.99535298 -0.0079642413 -0.095963724 0.0053170491
0.017150443 0.050344124 0.014485741 0.51135278 -0.025485026 0.85899299 0.00050406874
0.019983893 0.049940851 0.012564406 0.51268041 -0.022694359 0.85827959 0.00054693868
-0.052903842 0.052444085 0.013381368 -0.99015063 0.092021167 -0.105517 0.0048377644
0.016988128 0.052726913 0.014641534 0.4936614 0.022149444 0.86937207 0.00041222791
0.019392835 0.052663546 0.013266703 0.50213379 -0.010701654 0.8647238 0.0008423446
0.021249708 0.052488733 0.012166638 0.50836521 -0.016952908 0.86097473 0.00073266588
-0.052424174 0.055505954 0.013225174 -0.96734077 0.21007308 -0.14184913 0.0047196131
0.017000876 0.055558644 0.014444865 0.48108369 0.071959302 0.87371641 8.9902467e-05
0.019569758 0.055423893 0.013046844 0.48093465 0.060259074 0.8746832 0.00019430261
0.021199238 0.055967197 0.012105252 0.49107233 0.034721106 0.8704266 0.00054677855
-0.051829245 0.05847282 0.013489887 -0.90578169 0.41199735 -0.099084787 0.022756878
-0.050726175 0.059206698 0.012120254 -0.87018311 0.4349992 -0.23142396 0.019122941
0.016677173 0.058719344 0.01428282 0.46362707 0.1132317 0.87876534 5.2237647e-05
0.0193833 0.058561165 0.012859997 0.47067344 0.10036135 0.87658095 5.2608837e-05
0.021163274 0.057514172 0.01203206 0.48321205 0.092780985 0.87057334 0.00013817205
-0.051249582 0.060248919 0.013737802 -0.72508961 0.68566328 -0.064115822 0.026675498
-0.049194641 0.061001457 0.013481247 -0.57654792 0.81609279 -0.039813306 0.018017171
-0.046854179 0.062553115 0.013354728 -0.45804682 0.88872886 -0.018819837 0.0039341054
0.014784649 0.06216272 0.014773672 0.45228451 0.14456157 0.88007998 0.0001134038
0.016623834 0.061453409 0.013930095 0.46052352 0.13419496 0.8774451 4.7800684e-05
0.019159416 0.061490402 0.012596449 0.46282846 0.130528 0.87678522 9.1104506e-05
-0.045333304 0.063131735 0.013450487 -0.34398919 0.93660223 -0.066691279 0.0054943962
-0.043503437 0.063804463 0.013407737 -0.33010051 0.93901002 -0.096405119 0.0046646763
-0.040447228 0.064906582 0.013356315 -0.33751309 0.93361217 -0.12022194 0.0025078338
-0.03801652 0.065743327 0.013180845 -0.32301322 0.93628883 -0.13793343 0.0024883684
0.014157571 0.064767525 0.014612813 0.45086041 0.1795626 0.87434673 0.00012159528
0.016460456 0.0644878 0.013490106 0.45414096 0.16874285 0.8748039 6.1932653e-05
0.018691918 0.064400032 0.012345303 0.45147607 0.16945854 0.87604409 6.419597e-05
-0.036744509 0.066216052 0.013822339 -0.27257022 0.9542135 -0.12321568 0.0028077527
-0.034572534 0.066761941 0.013454731 -0.24372374 0.95664561 -0.15946105 0.0021835412
-0.031689052 0.067457229 0.013328787 -0.23563427 0.96152675 -0.14121932 0.0016981186
-0.028558951 0.068184145 0.013471356 -0.23484097 0.96910214 -0.07543771 0.0018212225
-0.02581702 0.068795852 0.013496527 -0.22951663 0.97297347 -0.025392229 0.0023769729
0.01168582 0.068634227 0.014810663 0.43447974 0.33116382 0.83759052 0.0043090447
0.013567951 0.06761916 0.014232527 0.42993733 0.26719809 0.86241466 0.0013579438
0.016308904 0.06759391 0.012876792 0.43847206 0.2424877 0.86541432 0.00097897055
0.018180706 0.06657885 0.012156637 0.45083243 0.22957467 0.86258078 0.00086923025
-0.024363065 0.069123201 0.013099189 -0.1981422 0.98014635 -0.0072645862 0.0029919918
-0.02251971 0.06946262 0.013455232 -0.15150878 0.98749977 0.04346665 0.0035257095
-0.019617954 0.069958203 0.01341457 -0.14032568 0.97340262 0.18109654 0.0062271501
-0.016581986 0.070455536 0.013299385 -0.16028254 0.93933356 0.30325237 0.0051588146
-0.013531975 0.070991017 0.013213893 -0.17808974 0.91232693 0.36870536 0.004385307
-0.010815039 0.07127282 0.013534677 -0.19027781 0.84087396 0.50668061 0.004439712
-0.0074712024 0.071640231 0.014044753 -0.16306439 0.83470106 0.52600765 0.00308598
-0.004672091 0.071676172 0.014695426 -0.15008222 0.74212831 0.65323883 0.0010122297
-0.0023285812 0.071892112 0.014940954 -0.11154194 0.69676977 0.70856917 0.0022989842
0.0080119185 0.071611963 0.014697157 0.22759967 0.65954763 0.71637654 0.0026629274
0.010649309 0.070861176 0.014117437 0.33402109 0.50196117 0.79778749 0.0040704738
0.013401488 0.07056728 0.013080938 0.35033491 0.47477123 0.80737704 0.0037066545
0.015759399 0.069674864 0.012450881 0.39445272 0.37680149 0.83810961 0.0027173064
-0.0098152766 0.072127335 0.012528925 -0.19325441 0.87731218 0.43929034 0.003837622
-0.0074750567 0.072606102 0.012591067 -0.20274822 0.90868747 0.36493871 0.0070392271
-0.0044500642 0.072938554 0.013028626 -0.16471435 0.8545655 0.49253112 0.0029950307
-0.0014953745 0.073323555 0.013273469 -0.14760633 0.84724158 0.51028824 0.0022382857
0.0016405763 0.073783614 0.013224736 -0.1228009 0.8596673 0.49587515 0.0033968843
0.0044082548 0.074245758 0.012861225 -0.023877826 0.88284051 0.46906543 0.0029907941
0.0073316861 0.073477507 0.013248425 0.14975742 0.79912937 0.58220702 0.0027141853
0.0098407492 0.073251896 0.01263117 0.22594792 0.74754077 0.62460411 0.0028229004
0.012573218 0.07233867 0.012259067 0.31234086 0.63127333 0.70988536 0.0045197173
-0.013409909 -0.069085263 0.015399027 -0.078584075 -0.83652544 0.54226357 0.0017031023
-0.0099944249 -0.069319613 0.015622823 -0.073619828 -0.74894994 0.65852416 0.0014861289
-0.0074673872 -0.069670036 0.015746139 -0.13017115 -0.71931034 0.68238413 0.0012952074
-0.0047542569 -0.069899566 0.016053006 -0.12703799 -0.66541523 0.73558414 0.0012182642
-0.0016485649 -0.070236914 0.016218776 -0.06966427 -0.65411258 0.75318241 0.0027013894
0.0014456013 -0.071138687 0.01568724 -0.039548349 -0.66299719 0.74757659 0.0024373792
0.004179562 -0.070479691 0.016185302 -0.017136334 -0.68473762 0.72858816 0.0036828264
-0.036023322 -0.066080682 0.01579552 -0.20906435 -0.97767806 -0.020920614 0.015822224
-0.034489755 -0.066440679 0.016194467 -0.28878438 -0.9249714 0.24704525 0.0014292974
-0.031317908 -0.067157269 0.016568873 0.50377482 -0.17349763 0.84623253 0.0049154926
-0.028674033 -0.067691222 0.016267037 0.80736893 -0.22546503 0.5452714 0.0054485025
-0.025542423 -0.068280481 0.016628796 -0.20515949 -0.97830719 0.028718119 0.00060204096
-0.022594029 -0.068721659 0.016484102 -0.065086752 -0.9887538 0.13464583 0.0019181619
-0.019973112 -0.068741731 0.016456576 0.089593336 -0.96300316 0.25416124 0.0047160038
-0.016611749 -0.068591326 0.016354624 0.044055976 -0.94131202 0.33465028 0.0092719365
-0.013679344 -0.068362243 0.01665014 0.0070922626 -0.89583725 0.44432572 0.010722069
-0.011150394 -0.067956015 0.017283075 -0.019247899 -0.86559594 0.50037307 0.0071230656
-0.0071973503 -0.068261437 0.017093949 -0.079198316 -0.70925641 0.70048773 0.0019974967
-0.0042807939 -0.068440922 0.017322877 -0.086597972 -0.60463876 0.79177827 0.0025030598
-0.0019934508 -0.068219393 0.017725747 -0.04977271 -0.59333038 0.80341876 0.0016527944
0.0015321001 -0.06828405 0.017791349 -0.050466422 -0.58737594 0.80773926 0.0012805375
-0.042910639 -0.063366793 0.01650542 -0.35595852 -0.85249209 0.38281938 0.0067221597
-0.040585082 -0.064281091 0.01644095 -0.050083958 0.045520157 0.99770713 0.0024956218
-0.037945561 -0.065271109 0.016589846 -0.2396092 0.10297994 0.96539235 0.0022604959
-0.035834782 -0.065912023 0.017507838 -0.28869289 -0.94960904 0.12206227 0.0025713607
0.0084452908 -0.064550288 0.017440589 0.43379983 -0.15698424 0.88722807 0.00021991765
0.01067495 -0.065048143 0.016203161 0.44013554 -0.17600788 0.88051236 0.0001624611
-0.048633233 -0.060722597 0.016573796 -0.63559926 -0.69399863 0.33820012 0.011417717
-0.046283882 -0.061899468 0.016707215 -0.49852484 -0.74408901 0.44475222 0.0071539679
-0.044219602 -0.062626511 0.017172633 -0.40078142 -0.79365677 0.45769337 0.0060336976
0.010232718 -0.061054468 0.0172075 0.43401837 -0.14788646 0.88868314 0.00016293704
0.012954311 -0.06187937 0.015665561 0.45399609 -0.1555448 0.87732172 9.6119402e-05
-0.051628046 -0.05815326 0.016136114 -0.89404708 -0.43353361 0.11282033 0.019274909
-0.049365819 -0.059533 0.016549937 -0.57505351 -0.78358328 0.23518208 0.0099354386
0.010393666 -0.058404516 0.017537158 0.42733744 -0.12095948 0.89596403 0.00022365675
0.013404901 -0.058329161 0.015977692 0.45340061 -0.1248941 0.88251311 0.0001303215
-0.052292876 -0.055429261 0.01638505 -0.9681415 -0.22964749 0.099820226 0.009295743
0.010947598 -0.0557198 0.017564209 0.42519948 -0.1051418 0.89897203 0.00016186452
0.013237453 -0.055146001 0.016451843 0.4456327 -0.11217731 0.88815981 0.00020317221
-0.052776348 -0.052393287 0.016405042 -0.98692042 -0.11067299 0.11721607 0.0033969346
-0.052926153 -0.04950238 0.016414315 -0.98636895 -0.012283412 0.16408955 0.0033071623
-0.052824751 -0.0463631 0.016460441 -0.97756886 0.11403233 0.17707542 0.0038726637
0.014045498 -0.045170348 0.015980983 0.59858209 0.49021849 0.63354987 0.0037856384
0.015628107 -0.046021122 0.015170126 0.58083516 0.49778134 0.6440841 0.00097821513
-0.0523475 -0.043438297 0.01665912 -0.95282447 0.22939239 0.19875751 0.01047999
0.013199156 -0.043059357 0.015389557 0.62936455 0.55643272 0.54247856 0.0052225641
-0.05163946 -0.040514175 0.016392138 -0.83411962 0.50745082 0.21618979 0.028126139
-0.049732517 -0.039382938 0.017172445 -0.57900631 0.75817537 0.29986954 0.016163325
0.011010228 -0.040544864 0.016068025 0.79327726 0.50229383 0.34411067 0.0087256292
0.012421541 -0.041750416 0.015029115 0.68417215 0.4879348 0.54205924 0.0082051754
-0.051187932 -0.038913738 0.01554711 -0.67290682 0.71515769 0.18906571 0.031139474
-0.049055472 -0.038354732 0.016180325 -0.5577715 0.81083167 0.17732163 0.017973896
-0.046854436 -0.036973745 0.016546519 -0.72411442 0.68785191 -0.050181981 0.024828516
0.010844981 -0.037587769 0.015474932 0.9571799 -0.25953701 -0.12824602 0.061366573
-0.045830023 -0.034347694 0.016448235 -0.96889091 0.14880624 -0.19775528 0.01771659
0.013234211 -0.034227498 0.015601768 0.85662127 -0.51233572 -0.060927343 0.0072619962
-0.045836411 -0.031498421 0.016452935 -0.98221892 0.0036048756 -0.1877047 0.0038436032
0.014672598 -0.031719804 0.016096478 0.92104548 -0.38905215 -0.017709821 0.0086144367
0.01530383 -0.030305622 0.01646577 0.93316519 -0.35779226 0.034459669 0.0089374231
-0.045845766 -0.028520055 0.016492693 -0.97701448 -0.031404555 -0.21084692 0.0047459309
0.015821043 -0.028383676 0.016269356 0.97570473 -0.21810828 -0.020713419 0.006690939
-0.045827966 -0.025489453 0.016424829 -0.94313407 -0.1036387 -0.31584352 0.0089397123
0.016309256 -0.025481928 0.016039282 0.99601245 -0.087299265 -0.018384723 0.008083229
-0.048111945 -0.022278227 0.017320205 -0.98676515 -0.085501872 -0.1377822 0.020590018
-0.046437763 -0.022430832 0.016504005 -0.89269668 -0.098601162 -0.43973905 0.0044015283
0.015959308 -0.022208435 0.01658552 0.98621505 0.15126973 0.067062318 0.003615645
-0.048102356 -0.019543514 0.017219914 -0.97880793 -0.0021215032 -0.20476963 0.018879812
-0.046489123 -0.019541387 0.016279828 -0.89085215 -0.031298004 -0.45321396 0.0045798146
0.014660185 -0.018492797 0.017162951 0.92835951 0.30888659 0.20673092 0.0051411404
0.015491031 -0.019526102 0.016190821 0.95850503 0.26955771 0.092772402 0.0053048492
-0.048107926 -0.016598105 0.017300006 -0.98520297 -0.0040620524 -0.17134397 0.019103987
-0.046635929 -0.016500372 0.016430618 -0.90498829 -0.011616832 -0.42527792 0.0058707148
0.014236756 -0.01645571 0.016602511 0.8816905 0.46421489 0.084418163 0.0056014047
0.015156751 -0.017726406 0.015860684 0.9300254 0.36602971 0.032788113 0.008682563
-0.048113376 -0.01356413 0.017405644 -0.98503172 0.0037104413 -0.17233364 0.018830962
-0.046622939 -0.013541759 0.016420567 -0.90449864 0.0044990527 -0.42645285 0.0060180714
0.011687059 -0.012288116 0.016253388 0.86300868 0.46977505 0.18581542 0.021339843
0.012706836 -0.013580468 0.016429814 0.73224312 0.64941573 0.2051322 0.018680902
-0.048109226 -0.010670571 0.017251872 -0.91759801 -0.018871617 -0.39706141 0.031432379
-0.046564382 -0.010509453 0.016354142 -0.89970714 -0.023451971 -0.43586352 0.0055723423
0.011029067 -0.010979145 0.016353145 0.95006633 0.13765188 0.28004625 0.026757479
-0.048098937 -0.0074019637 0.017180987 -0.93014061 -0.0020997876 -0.36719751 0.0271245
-0.04659484 -0.0074965921 0.016342252 -0.90437841 -0.004130146 -0.42671144 0.0064959847
0.010686751 -0.0074345674 0.01662172 0.99467325 0.090388648 0.049548905 0.010165839
-0.048100889 -0.0044179754 0.017209731 -0.92580283 0.000475031 -0.37800646 0.026926
-0.046602346 -0.0044531045 0.016376926 -0.90160263 -0.0080778394 -0.4324899 0.0056469445
0.010520721 -0.0052121156 0.016804669 0.98128754 0.076694936 0.17661461 0.012160131
-0.048107542 -0.0014900248 0.017290376 -0.96846718 -0.0090824617 -0.24897547 0.019294718
-0.046636887 -0.0015112173 0.016381767 -0.90960467 -0.034683131 -0.41402483 0.0061070947
0.010674844 -0.0013632379 0.01552681 0.98941368 -0.03647159 0.14046513 0.022315904
-0.048113864 0.0015228253 0.017396007 -0.98670977 0.020774426 -0.16115889 0.010632253
-0.046996802 0.0015295458 0.016088724 -0.90296018 -0.023619378 -0.42907467 0.0076590953
0.010762304 0.0020239181 0.016328361 0.99140024 0.036051292 0.12580071 0.0086169448
-0.048116229 0.0044629136 0.017434109 -0.97611159 -0.007263388 -0.21714836 0.0095069911
-0.047012746 0.0044799936 0.016061841 -0.89827722 -0.0026701593 -0.43942109 0.0088591389
0.010644991 0.0037290899 0.01653536 0.98629439 -0.0039206673 0.1649484 0.0083926022
-0.048115753 0.0074309688 0.017354906 -0.98529059 -0.021280091 -0.16955721 0.0089725479
-0.047006886 0.0075054532 0.016097514 -0.91043955 0.0069377501 -0.4135839 0.0086531145
0.010760384 0.0081386007 0.016333811 0.99258441 -0.080571175 0.091018796 0.0099984994
-0.048100788 0.010608401 0.017222293 -0.97656536 0.010221097 -0.2149782 0.011653468
-0.047034796 0.010545284 0.016184391 -0.90569896 -0.0044346014 -0.42389822 0.0091977734
0.010837153 0.010943539 0.015995912 0.93173522 -0.29909465 -0.20594132 0.028818885
-0.048106667 0.013573821 0.017298624 -0.98091567 -0.0032149591 -0.19440733 0.012827165
-0.047030535 0.013493119 0.016217263 -0.90029156 0.020397961 -0.43480918 0.009358664
0.011569675 0.01263455 0.016045436 0.88488472 -0.34864581 -0.30890968 0.039175082
0.012689595 0.014088397 0.016503338 0.88199478 -0.44658023 -0.15050362 0.026455326
-0.048112899 0.016501199 0.017384382 -0.99022639 0.012065915 -0.13894624 0.0089431964
-0.046983004 0.016453546 0.016156813 -0.90711844 -0.014467821 -0.42062673 0.0095017701
0.014372335 0.016738098 0.016181529 0.9032439 -0.42880228 0.016705671 0.0045265853
-0.048112422 0.019424671 0.017337095 -0.9845553 0.0015926149 -0.17506622 0.0097916508
-0.046993516 0.019508736 0.016086042 -0.90922117 0.025328375 -0.41554219 0.0082807634
0.014746664 0.018051496 0.01763903 0.9260779 -0.36738959 0.086050004 0.0059568183
0.015550681 0.019615963 0.016222436 0.95304203 -0.30187148 0.024175381 0.0046649757
-0.048117738 0.022143465 0.017406505 -0.96803492 0.035725571 -0.24825796 0.013937631
-0.047023673 0.022584945 0.01620191 -0.90111375 0.039023358 -0.43182313 0.0079388237
0.016178692 0.02257348 0.016335685 0.99088877 -0.13330767 0.019197172 0.0054402268
-0.046867043 0.025511097 0.016285345 -0.93254751 0.041948535 -0.35860229 0.0089521045
0.016179413 0.02559554 0.015906036 0.99771202 0.062096853 0.026734289 0.0058571189
-0.04685213 0.028531997 0.016322905 -0.95186394 0.024229722 -0.30556154 0.0090426393
0.015629103 0.028678279 0.016375836 0.97006971 0.21946192 0.10392849 0.0029209442
-0.046826325 0.031485833 0.016342858 -0.94845229 0.028193107 -0.31566346 0.0099500325
0.014438756 0.032114908 0.016459059 0.90508145 0.41886228 0.073362313 0.0043733018
0.015269872 0.030362269 0.015712198 0.94078469 0.33133182 0.071717478 0.0042219926
-0.046848096 0.034406755 0.016227335 -0.96707618 -0.052035064 -0.24911033 0.021413168
0.011665369 0.03577001 0.017059937 0.78575516 0.60621589 0.12284597 0.0017354088
0.013329263 0.034218479 0.015955701 0.84158814 0.54011619 -0.0019891353 0.0032254108
-0.048644971 0.038493473 0.01650345 -0.72394073 -0.67824572 0.12606521 0.027467828
-0.047213029 0.03690844 0.016481115 -0.89192629 -0.4448669 -0.080999665 0.031416841
0.0089396331 0.038901314 0.017747331 0.72914046 0.30972838 0.61026442 0.01830552
0.010927001 0.037244055 0.016366854 0.88879132 0.45505238 0.054564789 0.028752888
-0.051593825 0.040757116 0.016257675 -0.87271601 -0.46603924 0.1455134 0.019112926
-0.049266916 0.039462131 0.016593143 -0.62249303 -0.76896816 0.14556909 0.010241778
0.0087074582 0.040521596 0.017655987 0.6571117 0.1698204 0.73441488 0.038161315
0.0093889106 0.040790744 0.017119557 0.65709019 0.16982667 0.7344327 0.038155086
-0.052276466 0.043406188 0.016374689 -0.95858806 -0.23281625 0.1640289 0.010618214
0.0085297991 0.042825289 0.017936014 0.51175725 -0.077551819 0.85562271 0.0056514661
0.010103187 0.044151299 0.017299192 0.46533063 -0.12738971 0.87592191 0.0013159964
-0.052773025 0.046458744 0.016420046 -0.98463231 -0.11035418 0.1353557 0.0038208906
0.010973282 0.046409339 0.017326532 0.45538476 -0.15760937 0.87623286 0.00015419954
0.01258072 0.046947636 0.016595332 0.46413064 -0.12563403 0.87681174 0.0012111203
-0.052877594 0.049441151 0.016573442 -0.98286527 -0.014124963 0.18378346 0.0035921666
0.01138315 0.049088441 0.017634036 0.46074325 -0.076506019 0.88422996 0.0010782911
0.013375655 0.049659982 0.016674692 0.47594994 -0.072556674 0.87647426 0.0010187271
0.015380377 0.049789563 0.015525264 0.48860648 -0.069368608 0.86974227 0.00083068904
-0.052791115 0.052629128 0.016649868 -0.97854483 0.11886619 0.1682879 0.0035525816
0.011246091 0.052627385 0.017779978 0.45080119 0.033915341 0.89197981 0.0003922637
0.013771682 0.052470818 0.016440265 0.4765875 0.03554713 0.87840813 0.00023741055
0.015735492 0.052793585 0.015315297 0.4832814 0.030238654 0.87494266 0.00027965
-0.052400745 0.055652261 0.016389716 -0.96323508 0.21929079 0.15520853 0.0079018129
0.011235079 0.055439152 0.01754228 0.44313619 0.089431033 0.89198232 0.00023606446
0.013476087 0.055451222 0.01636241 0.46487698 0.086981781 0.88109225 5.8793266e-05
0.015308057 0.05580755 0.015343608 0.47363085 0.081352852 0.87695813 5.248138e-05
-0.051636774 0.058547787 0.016452339 -0.83712071 0.49367639 0.23561108 0.022924166
-0.049581129 0.059612501 0.017172793 -0.57319814 0.75614291 0.3157402 0.012850101
0.010803152 0.058409378 0.017416812 0.43484867 0.11469243 0.89316982 0.00020597126
0.013371852 0.058606822 0.016054627 0.46083963 0.11735435 0.87969023 4.2928415e-05
0.015289497 0.057913274 0.015116918 0.46404099 0.113395 0.87852579 5.8981532e-05
-0.051303919 0.060115576 0.015455838 -0.66038209 0.70546257 0.25732875 0.024842357
-0.04883888 0.060948756 0.01641082 -0.55286074 0.79887623 0.23694268 0.012646237
-0.046384297 0.062336128 0.016590793 -0.4518702 0.87151086 0.19047873 0.0040906556
-0.044633497 0.062817186 0.017392954 -0.38547131 0.89073384 0.24084222 0.0055227266
0.0084977243 0.062894389 0.017863275 0.36140013 0.15664198 0.919159 0.00099239754
0.010350983 0.061567042 0.01717853 0.43821758 0.14403357 0.88725406 0.00016237432
0.013304761 0.061279938 0.015688114 0.45578781 0.14410792 0.87834531 7.3701973e-05
-0.045145463 0.063075237 0.015627453 -0.40328193 0.89360374 0.19706853 0.0053347177
-0.043292206 0.063699983 0.016277999 -0.36049798 0.91935629 0.15756011 0.0043683685
-0.040508188 0.064826056 0.016286317 -0.35938764 0.92683452 0.10871217 0.0025614351
-0.038191549 0.065689608 0.016445938 -0.3508932 0.92974597 0.1115637 0.0024186508
0.0081939809 0.064708889 0.017645052 0.35907468 0.21034189 0.90929741 0.0013034845
0.0105156 0.06442146 0.016551265 0.43312341 0.18540719 0.88205916 0.00025515756
0.012758484 0.064437807 0.015396805 0.44515422 0.1847425 0.87618941 0.00012288021
-0.036659945 0.06624788 0.016173763 -0.29920837 0.95046473 0.084208906 0.002183767
-0.034476623 0.06686753 0.016433509 -0.26063514 0.96308368 0.067373022 0.0014710454
-0.031489711 0.067578234 0.016451286 -0.23312052 0.97160226 0.040544037 0.00061668741
-0.028451238 0.068196394 0.016520996 -0.19869174 0.97915232 0.042217396 0.00027413148
-0.02555001 0.068731941 0.016475249 -0.16468614 0.98425949 0.064122766 0.00036504699
-0.023677617 0.068961762 0.017255485 -0.092618272 0.99251127 0.079643965 0.0010900033
-0.018468315 0.068935141 0.017666304 0.062474295 0.98064542 0.18555762 0.001727353
-0.016497005 0.06880641 0.017280649 0.096405655 0.9507609 0.29454988 0.0039815255
-0.013538752 0.068602078 0.017050289 0.040690165 0.8930763 0.44806138 0.007215465
-0.011034709 0.068446994 0.017162628 -0.030487338 0.85361493 0.52001166 0.0066654957
-0.0074908212 0.068354405 0.017388679 -0.044188879 0.70179188 0.71101022 0.0041688629
-0.0047862567 0.06847585 0.017568007 -0.067203477 0.63835883 0.76679963 0.0019113976
-0.0015816423 0.068679348 0.01774325 -0.058501214 0.59755969 0.7996875 0.001501758
0.0016073694 0.068692014 0.017781259 0.038809586 0.50278783 0.86353821 0.0022608463
0.0047043297 0.068178087 0.017681435 0.17223707 0.3993431 0.90047735 0.0039870101
0.007504914 0.067590058 0.017135533 0.32033244 0.33684692 0.88539326 0.0032360677
0.010430593 0.067495868 0.015835319 0.41560534 0.29637408 0.85990381 0.0018152872
0.012422328 0.066630334 0.015072901 0.42503721 0.26730323 0.86480772 0.0012784954
-0.024234656 0.069058612 0.015445346 -0.15650049 0.98566645 0.063002743 0.00054103619
-0.022431184 0.069182023 0.016402537 -0.0963981 0.99065804 0.096457779 0.0018262276
-0.019626662 0.069225416 0.016304335 0.021678027 0.98145932 0.19044077 0.0033348359
-0.016668243 0.069269933 0.015811533 -0.0024915666 0.93824089 0.34597367 0.0061237146
-0.013393208 0.069351725 0.015615632 -0.039859142 0.87247759 0.48702577 0.0054933396
-0.010406107 0.069579311 0.015718834 -0.092776664 0.78264439 0.61551619 0.0023727103
-0.0074939043 0.07025376 0.01563571 -0.15670349 0.7914452 0.59081173 0.0025459684
-0.004365481 0.070272185 0.016154112 -0.11493024 0.68842822 0.71614069 0.001758959
-0.0020673552 0.071104251 0.015829211 -0.1225834 0.75804538 0.64057833 0.0018640799
0.0013704818 0.070649877 0.016469561 -0.026097924 0.61890668 0.78503078 0.0026378066
0.0044017253 0.070953228 0.016087592 0.064935602 0.64495915 0.76145321 0.0027115371
0.0073188501 0.070278674 0.015881691 0.27078554 0.51392084 0.81397825 0.0034949596
0.0096872486 0.069624916 0.015311701 0.36024073 0.4661414 0.80804628 0.0036969038
-0.00078165997 0.072090097 0.015040747 -0.10250514 0.73648769 0.66863936 0.0011614732
0.001518451 0.072226167 0.015095107 -0.043093883 0.73082829 0.68119955 0.0017428898
0.0041244128 0.072212525 0.01510149 0.044171993 0.73032701 0.68166798 0.0023063608
-0.033836674 -0.066230752 0.01903379 -0.30327946 -0.94971073 0.077916697 0.0019311301
-0.031602904 -0.066821426 0.019463448 -0.24927357 -0.96086806 0.12081072 0.00069865672
-0.02858218 -0.067531936 0.019506527 -0.22115932 -0.97012287 0.099750549 0.00047364444
-0.025491677 -0.068065263 0.019786028 -0.052704327 -0.9952575 0.081761271 0.0012010098
-0.022834262 -0.068456881 0.019177949 0.12859608 -0.9874385 0.091804475 0.0019713922
-0.019624103 -0.068352133 0.019552272 0.064114705 -0.98824131 0.13881037 0.0022622913
-0.016926333 -0.067978606 0.019222038 0.12269253 -0.9628998 0.24035506 0.0031806063
-0.013668783 -0.067622155 0.018544033 0.10551409 -0.92144829 0.37389815 0.0039467453
-0.0090739606 -0.066783786 0.018668938 -0.024538422 -0.7372663 0.67515647 0.002408402
-0.0081661744 -0.067122474 0.018151645 -0.036082979 -0.71116811 0.70209539 0.0038653444
-0.0048532058 -0.066933639 0.018398229 -0.023183893 -0.62835968 0.77757746 0.0031391692
-0.0017905488 -0.066806883 0.018551547 -0.057670832 -0.56559527 0.82266402 0.00084373
0.0012425457 -0.067245267 0.018337999 -0.025517592 -0.55828696 0.8292554 0.00042084968
-0.042173445 -0.063106082 0.018496666 -0.41761893 -0.82093346 0.38943887 0.0036625492
-0.040248737 -0.063670516 0.019108472 -0.39579341 -0.85079712 0.34567595 0.0015109451
-0.037507392 -0.064790316 0.019342026 -0.35096246 -0.9255513 0.14205715 0.0014560329
-0.035135638 -0.065633319 0.019737041 -0.3906644 -0.86453283 0.31617144 0.0012019863
-0.0026659986 -0.065355778 0.019356389 -0.042377334 -0.55619669 0.82996953 0.00068468385
0.0073270481 -0.063889138 0.018054493 0.41867787 -0.15063763 0.89555413 0.00058747787
-0.04843998 -0.060169816 0.018627178 -0.53845251 -0.69444484 0.47729996 0.012291337
-0.045889538 -0.0610466 0.018970214 -0.43448946 -0.84844673 0.30225325 0.0064102099
-0.043356035 -0.062075105 0.019257499 -0.43177921 -0.70917004 0.55735493 0.0020792745
-0.041425586 -0.062653154 0.020147283 -0.4497517 -0.78256023 0.43049142 0.0021168841
0.0070785359 -0.061325766 0.018555233 0.38852054 -0.13401429 0.91164243 0.00036717812
-0.051329561 -0.057653118 0.018553184 -0.71341795 -0.54607415 0.43913317 0.016714294
-0.048904631 -0.058703292 0.019467654 -0.60513312 -0.58079928 0.5445053 0.015481927
-0.046946168 -0.059475113 0.020453203 -0.46891853 -0.68993521 0.55145699 0.0073921718
0.0056928471 -0.058410697 0.019445021 0.37793422 -0.12005968 0.91801494 5.7961097e-05
0.0077302246 -0.058420591 0.018697962 0.38451102 -0.11846295 0.91548777 0.00010188201
-0.051546615 -0.055159982 0.019374026 -0.89317507 -0.24440931 0.3774949 0.012182589
-0.05019284 -0.056087542 0.020664267 -0.66631645 -0.40475193 0.62625736 0.011291045
0.0047933883 -0.055408314 0.020210771 0.37711272 -0.10968409 0.9196496 4.4991848e-05
0.0072731287 -0.055598758 0.019212887 0.38685179 -0.10701581 0.91591126 0.00012239056
0.0093322005 -0.054840919 0.018423777 0.40437031 -0.096882276 0.90944958 0.00026738428
-0.051895749 -0.052529056 0.019538509 -0.93186897 -0.082454614 0.35330075 0.0056195436
0.0051724184 -0.052751407 0.020401713 0.3809053 -0.097658806 0.91944218 8.7467983e-05
0.0077189105 -0.05244524 0.019366357 0.39007056 -0.10142513 0.91518193 5.4201922e-05
0.010590393 -0.053048447 0.018023452 0.41161579 -0.092394345 0.90666187 0.0001567491
-0.052144282 -0.049498927 0.019358261 -0.93195558 0.001126145 0.36257076 0.0066796509
0.0048935348 -0.049993493 0.020792022 0.3653917 -0.079533547 0.92744994 0.00047290407
0.0065130177 -0.050191093 0.020099927 0.38657072 -0.09545812 0.9173063 0.00011185912
-0.052043382 -0.046456404 0.019405551 -0.91785353 0.10317783 0.38327441 0.0067918124
-0.051596534 -0.043579169 0.019464422 -0.85846895 0.26456466 0.43935931 0.014275322
-0.050388977 -0.042545062 0.020632621 -0.7290253 0.35515359 0.58513933 0.013076249
-0.051274695 -0.041125532 0.018643051 -0.78398806 0.48069221 0.39280748 0.015289275
-0.04930371 -0.04030624 0.019552607 -0.69588602 0.58423191 0.41763112 0.01300434
-0.047419731 -0.039356142 0.019851554 -0.71066475 0.51162314 0.48290524 0.032410543
-0.048427399 -0.038453661 0.018879803 -0.69011831 0.66534346 0.28470105 0.017597066
-0.047195747 -0.037356563 0.019622918 -0.76662487 0.58199018 0.27124485 0.022884198
-0.045900367 -0.034338754 0.019609388 -0.9775182 0.15090774 0.14725798 0.01495734
0.011867858 -0.035356894 0.018841453 0.83360922 -0.54433727 0.093768887 0.0036837633
-0.045924116 -0.03152737 0.019450052 -0.99155456 -0.012834516 0.12905382 0.0063483841
0.013798645 -0.031867441 0.020103738 0.89876032 -0.40581831 0.16595598 0.0032363525
-0.04594342 -0.028491842 0.019362798 -0.98988044 -0.11524018 0.082803518 0.013004003
0.014736902 -0.029361516 0.020559806 0.94325334 -0.27041227 0.1927444 0.001755506
0.015251411 -0.02835127 0.019401446 0.94773448 -0.25799072 0.18772376 0.0016865009
-0.048085902 -0.024235616 0.01898434 -0.9709754 -0.22893795 0.069239706 0.026716005
-0.04684573 -0.025205616 0.019304361 -0.97102684 -0.23757878 -0.025752623 0.014185647
0.015666982 -0.025477737 0.019630615 0.97609752 -0.083312027 0.20073037 0.0017073834
-0.048097245 -0.022534456 0.018836681 -0.99366099 -0.076821744 0.082074717 0.02421058
-0.047769818 -0.022408966 0.019565854 -0.98880726 -0.11987881 -0.088821225 0.0149722
0.014752622 -0.021845132 0.020639902 0.95915157 0.19891582 0.20114869 0.00028913392
0.015569131 -0.023032213 0.019158138 0.98009193 0.095733054 0.17393911 0.002182439
-0.048093595 -0.019508734 0.018889654 -0.98700809 0.00020677262 0.16067037 0.0029788034
-0.04777639 -0.019403061 0.019495167 -0.99626225 -0.027864629 -0.081762105 0.013992954
0.014721926 -0.019326566 0.019905476 0.92944992 0.30280176 0.21079345 0.0016263848
0.015304118 -0.02005272 0.019061174 0.94882101 0.2594738 0.18003361 0.0015257762
-0.04810068 -0.016491182 0.018855007 -0.99966478 -0.005178622 -0.025367504 0.019343495
-0.047744166 -0.016441021 0.019753432 -0.99906158 -0.00056241645 0.043308575 0.015695047
0.013628834 -0.01650551 0.019532545 0.87184006 0.44623479 0.20191434 0.0014682548
-0.048094459 -0.013565088 0.01892191 -0.9996022 0.0044181468 -0.027856065 0.01913953
-0.047753066 -0.013450235 0.019701313 -0.99989295 0.014619788 -0.00057551113 0.010108073
0.010620725 -0.012691324 0.020061284 0.72782779 0.63989776 0.24657157 0.013140998
0.012336264 -0.01423562 0.019155124 0.80672002 0.56589442 0.17019506 0.002343717
-0.04809615 -0.010514283 0.018835083 -0.99959248 0.0073250942 -0.027591472 0.018689256
-0.047761109 -0.010439068 0.019636398 -0.99830282 -0.010536222 -0.057275079 0.015650846
0.0081036855 -0.010711594 0.020594515 0.65108496 0.71370882 0.25827914 0.019645538
0.0098055406 -0.011545767 0.019650543 0.72504759 0.6247012 0.28992146 0.024751186
-0.048096284 -0.0075865211 0.018843014 -0.99993998 0.002453577 -0.010680463 0.015327753
-0.047761701 -0.007357629 0.019599212 -0.99996388 -0.0081248712 -0.0024805032 0.01151617
0.0072934078 -0.0073523712 0.020670455 0.29914445 0.17135419 0.93869609 0.02391755
0.01032037 -0.0069961981 0.018399946 0.96042103 0.14889818 0.23541622 0.01171714
-0.048105083 -0.0045601451 0.01879219 -0.9882735 -0.0012617087 0.1526888 0.0027193283
-0.047740173 -0.0044838898 0.019779122 -0.9990496 -0.0061370442 0.043153077 0.0153716
0.0081310812 -0.0044577299 0.019517116 0.71764106 0.014254016 0.69626731 0.012302842
0.010085276 -0.0043799118 0.018285155 0.97992164 0.017595869 0.19860519 0.012863429
-0.048102833 -0.001474874 0.018827433 -0.98740345 -0.0027008625 0.15819989 0.0027294033
-0.047757268 -0.0014736933 0.019693367 -0.99999434 0.0014417111 -0.0030579951 0.011503989
0.0082101449 -0.0021037199 0.019483976 0.71181011 -0.0075650709 0.70233124 0.011648178
0.010092585 -0.0014447481 0.018304778 0.97828132 -0.010823498 0.20699853 0.012184132
-0.048093483 0.0016079622 0.018941645 -0.99931228 -0.0067451536 0.036460932 0.0072661387
-0.047768183 0.0014641098 0.0196041 -0.9994185 -0.020169679 -0.027491717 0.012602238
0.0077233892 0.00061438163 0.020559721 0.29052392 -0.0045696585 0.95685685 0.00012518941
0.010115985 0.00093691295 0.018433295 0.97609305 0.0054802187 0.21728389 0.0088951588
-0.048090674 0.0045414604 0.018974733 -0.99876696 -0.00088156154 0.049637601 0.0056934073
-0.047771152 0.0045060036 0.019554146 -0.99988228 0.014835029 0.003910155 0.010639451
0.0087182829 0.0046229027 0.01863171 0.9757607 -0.021361515 0.21779516 0.01150925
0.0098939193 0.0046387482 0.018852234 0.98464131 -0.018573981 0.17359848 0.0070142131
-0.048092887 0.0075109494 0.01886655 -0.99772668 0.0015036758 -0.067373671 0.0084825829
-0.047742154 0.0074762702 0.019781537 -0.99806708 -0.0048471252 0.061956529 0.010530459
0.01006042 0.0068814135 0.018840648 0.98440063 -0.016766889 0.17514087 0.0076402491
-0.048084736 0.010567831 0.018972714 -0.99901414 0.0022886524 0.044333369 0.0054793563
-0.047758013 0.010540061 0.019686587 -0.99975353 -0.017296815 0.013917603 0.0089444304
0.010158287 0.010257802 0.018905792 0.94689256 -0.32062364 0.024392379 0.010648274
-0.048099481 0.013586277 0.018839087 -0.99886304 -0.0015343747 0.04764764 0.0059238672
-0.04777468 0.013547481 0.019554544 -0.99971592 -0.0018001375 -0.023765421 0.012118747
-0.048091028 0.016501598 0.018951226 -0.99893856 -0.0032378493 0.045948703 0.0056585246
-0.047761522 0.016516203 0.019629989 -0.99993193 0.010286745 0.0055001103 0.011044912
0.013215713 0.015845627 0.019497471 0.86629939 -0.46018645 0.19430315 0.0019489825
-0.048096519 0.019406205 0.018853337 -0.99854696 -0.0016340981 0.053864047 0.0056952289
-0.047743276 0.019517107 0.019819822 -0.99812591 -0.017544299 0.058625631 0.010906463
0.014526423 0.018615581 0.019832892 0.91917157 -0.33439231 0.20809944 0.0021110345
0.01525796 0.020417891 0.01921032 0.94924074 -0.25972134 0.17744532 0.001188752
-0.048095252 0.022531062 0.018836629 -0.99666661 0.062690198 0.052208334 0.015362429
-0.04777639 0.022554766 0.019578641 -0.99814135 0.043725077 -0.042448882 0.016932737
0.015573899 0.022759739 0.019824725 0.97157472 -0.13950011 0.19126502 0.002352416
-0.048077941 0.024581894 0.018982442 -0.99366885 0.084471241 0.074073784 0.01772595
-0.047451165 0.025484599 0.019423785 -0.99341977 0.10620829 0.042858414 0.011188598
0.015608343 0.025285883 0.019226933 0.98557138 0.03993044 0.1644832 0.0023420982
-0.047121782 0.028450269 0.019546043 -0.9981398 0.060008474 0.01076472 0.010015823
0.014547112 0.028940987 0.020006916 0.94024479 0.26863995 0.2092184 0.00099504099
0.015241856 0.028461821 0.018806977 0.95621979 0.23035558 0.18049936 0.0017302552
-0.047113169 0.031513922 0.019604806 -0.99890375 -0.012137869 0.04521054 0.010109963
0.013692293 0.031636849 0.019394852 0.90600842 0.38053 0.18532605 0.0011956095
0.015060515 0.030802695 0.018144436 0.9172411 0.36128843 0.16774799 0.0025762585
-0.047135364 0.034294829 0.019459879 -0.99776417 -0.066820718 0.0012823064 0.016420549
0.011279328 0.035386335 0.019694297 0.73374939 0.64755076 0.20564508 0.00097239466
0.012902189 0.034047306 0.018717058 0.83558625 0.52463281 0.16296004 0.0030299849
-0.04853468 0.03872652 0.018534152 -0.77865255 -0.5558458 0.29109392 0.022987304
-0.047366362 0.037292898 0.019604402 -0.94489688 -0.31131265 0.10126354 0.01624788
0.0079895882 0.038529951 0.020123243 0.62122148 0.57669973 0.53056693 0.036853705
0.0098471791 0.037145913 0.019366469 0.65081549 0.66352838 0.36901128 0.029202206
-0.051227201 0.041447435 0.018698666 -0.86279291 -0.37663385 0.3372466 0.012023142
-0.048869871 0.040129248 0.019369893 -0.7462067 -0.57242942 0.33985314 0.021149332
-0.047827251 0.039079271 0.020581055 -0.71913755 -0.52751732 0.45229048 0.024671106
0.0051117404 0.040970325 0.020479854 0.51434082 0.50657898 0.69197637 0.035545524
0.0071583255 0.040383026 0.019255839 0.59735578 0.39375669 0.6986571 0.035331573
-0.051583327 0.043640133 0.019208178 -0.89947182 -0.25136885 0.35744119 0.011845179
-0.05055628 0.04319147 0.020599399 -0.83206648 -0.25748622 0.49129033 0.0094039841
0.0049550436 0.043255284 0.020124029 0.53537631 0.11706248 0.8364619 0.018940564
0.0073199151 0.043448381 0.018746406 0.51873255 0.053355083 0.85327005 0.012462949
-0.052011807 0.046440277 0.01928401 -0.92864597 -0.10198036 0.35667428 0.0061297226
0.0050305901 0.046174604 0.020433269 0.45963541 -0.065590136 0.8856824 0.0015754648
0.0075421007 0.046679169 0.019217283 0.45714805 -0.13633887 0.87887853 0.00045073708
0.009647483 0.046625964 0.018099302 0.45932445 -0.15532148 0.87458354 0.00019624899
-0.052162528 0.049505427 0.019474588 -0.91902798 -0.013917729 0.39394656 0.0083655268
0.005153548 0.049554728 0.020674225 0.41913652 -0.020279763 0.90769672 0.0011249364
0.0074308529 0.049668442 0.019673225 0.42340636 -0.035853948 0.9052301 0.0010083042
0.0098015377 0.049520299 0.018492104 0.43937019 -0.068172462 0.89571553 0.0012440713
-0.051976576 0.052467339 0.019646265 -0.91736233 0.096046492 0.38629183 0.0069971271
0.0049167778 0.052615903 0.020610534 0.38921374 0.084944092 0.9172225 0.00029950021
0.0073859887 0.052513681 0.019583087 0.40473381 0.061392281 0.9123714 0.00035796117
0.0098992158 0.052328847 0.018466841 0.43376657 0.042662296 0.90001476 0.0006133155
-0.051663674 0.05541512 0.019307699 -0.85262907 0.28119558 0.44040051 0.014344085
-0.050467759 0.0559812 0.02080483 -0.71339482 0.343034 0.61106092 0.010210978
0.0027979258 0.056218408 0.020921232 0.35484916 0.15192179 0.92249763 0.00042829767
0.0045520174 0.055566732 0.020374609 0.35353982 0.1315337 0.92612553 0.00038671415
0.0076429723 0.055528566 0.019124597 0.38594821 0.10611049 0.91639763 0.00023462143
0.0097040758 0.055354483 0.018274916 0.42184794 0.093669154 0.90181512 0.00015460129
-0.051260736 0.057904463 0.018758889 -0.77946383 0.4836742 0.3981148 0.014316628
-0.049140695 0.058565196 0.019765925 -0.59045416 0.57935303 0.56188422 0.010294857
-0.047226965 0.059613798 0.020616181 -0.47705728 0.64782995 0.59391302 0.0076038004
0.0020079275 0.05879087 0.02069192 0.28870147 0.19340599 0.93768096 0.00087171322
0.0044846395 0.058459543 0.019969638 0.31671268 0.15182333 0.93629205 0.0008265354
0.007421135 0.058594465 0.018905044 0.36567441 0.12040184 0.92292237 0.0003627025
0.0092954803 0.058208618 0.018147191 0.42128879 0.11278453 0.89988637 0.00017181879
-0.048482962 0.060501598 0.01863745 -0.55343872 0.70648086 0.44112405 0.0071447617
-0.046314511 0.061063875 0.019305756 -0.45736215 0.7490676 0.47928855 0.0056030951
-0.043739289 0.062137362 0.019641535 -0.41852707 0.79572505 0.43778619 0.0025724545
-0.041646648 0.06269341 0.020593537 -0.44654009 0.77899319 0.44019502 0.00187454
-0.0032884742 0.062632471 0.020899005 0.27856177 0.39210394 0.87673128 0.0040253913
-0.0011974964 0.06202203 0.020661822 0.19308576 0.31945345 0.92772168 0.0022901318
0.0014230947 0.061524253 0.020232569 0.2325663 0.24706426 0.94067645 0.0016171541
0.0044325315 0.061584175 0.019472186 0.27047321 0.18084329 0.94558972 0.0009440101
0.007294212 0.061498463 0.018570933 0.34771398 0.15122756 0.92532444 0.00068214315
0.0090301223 0.060128439 0.018059483 0.42261291 0.12547205 0.89758295 0.00025908736
-0.0425472 0.06331978 0.018502083 -0.40207583 0.8344332 0.37690356 0.0031104248
-0.040316079 0.063970394 0.019357426 -0.39619577 0.85011595 0.34688863 0.0029721332
-0.037514456 0.065265425 0.019292822 -0.3840428 0.89297581 0.2347452 0.0014274589
-0.03563996 0.065828867 0.019989187 -0.35270214 0.90929478 0.22087149 0.0017337492
-0.009416813 0.0655846 0.020678541 0.32099533 0.75053412 0.5776335 0.0082002059
-0.0072206352 0.065159477 0.020354923 0.20920162 0.62489122 0.75216061 0.0087833107
-0.0044340845 0.064622767 0.020142179 0.1828738 0.51484448 0.83755141 0.0048652543
-0.0014983914 0.064552628 0.019792769 0.10485869 0.37200198 0.92229021 0.0031092931
0.0014038832 0.064576522 0.019430263 0.14183691 0.30754882 0.94090176 0.002372911
0.0043792911 0.064584039 0.018903311 0.23084258 0.24154948 0.94253141 0.0015862646
0.0067358338 0.06434384 0.018297227 0.32828525 0.22098498 0.91836506 0.0016170833
-0.036216017 0.066106483 0.018303685 -0.32109815 0.94000751 0.11524711 0.0023125068
-0.034262922 0.066514581 0.019238295 -0.30397654 0.94067073 0.15078762 0.0010440401
-0.031466451 0.067304365 0.01950754 -0.25993365 0.95916128 0.11155283 0.00073451578
-0.028547736 0.067986451 0.019469682 -0.20289327 0.97571027 0.082605712 0.00043247029
-0.025525237 0.068526052 0.019488614 -0.15335327 0.98518652 0.076748766 0.00019252926
-0.022754133 0.06887009 0.019832764 -0.053935405 0.99438411 0.091056488 0.0013909483
-0.019561131 0.068778232 0.019687491 0.081407703 0.98772931 0.13328034 0.0011713414
-0.016694855 0.068409301 0.019313838 0.16314636 0.9631176 0.21398072 0.0030208547
-0.013859 0.067804433 0.01948344 0.15733033 0.94531751 0.28569561 0.0034852058
-0.010393769 0.067105837 0.019103469 0.090210959 0.8107897 0.57834417 0.0065773153
-0.0074800267 0.067030899 0.018718319 0.022756996 0.68854839 0.72483331 0.0053829621
-0.0043446156 0.067068599 0.01862142 -0.0072157891 0.5953837 0.8034091 0.0038303912
-0.0013200125 0.067235149 0.018567834 -0.00084188452 0.52273411 0.85249537 0.0023326124
0.0013812521 0.067251042 0.018482376 0.078748375 0.41239244 0.90759635 0.0024737376
0.0042745862 0.066788174 0.018322406 0.21007216 0.34412035 0.9151234 0.0028730785
-0.0220029 0.069055028 0.018580245 -0.031307139 0.99582899 0.085699894 0.0016861052
-0.020733019 0.069051698 0.018553387 0.026907424 0.99470311 0.099205606 0.0015717812
-0.033257082 -0.066032507 0.021446552 -0.38028815 -0.90705419 0.18064789 0.0018131844
-0.031090558 -0.066617236 0.022195885 -0.37768343 -0.91504902 0.1415644 0.00097343512
-0.028324895 -0.067374043 0.022081397 -0.29220629 -0.95019644 0.10836218 0.00078540388
-0.025931751 -0.067797542 0.022471869 -0.10698539 -0.99214071 0.064892434 0.00030630166
-0.022643782 -0.068229251 0.022548195 -0.030521234 -0.99696964 0.071553886 0.0010234507
-0.019719761 -0.068080731 0.02202474 0.079133213 -0.99275738 0.090391859 0.00127936
-0.016650148 -0.06736359 0.022564627 0.25866708 -0.9530856 0.15722364 0.0026470034
-0.014686075 -0.066501744 0.023834424 0.31121537 -0.93768919 0.15454444 0.0020866529
-0.039594904 -0.063223638 0.021046173 -0.45035905 -0.77918029 0.43595287 0.0026459689
-0.037361637 -0.063824698 0.022370163 -0.46993527 -0.82029498 0.3260015 0.0030227751
-0.034575567 -0.065213554 0.022524938 -0.42888641 -0.8729136 0.23254751 0.001856782
-0.032746613 -0.065858394 0.023425974 -0.38380235 -0.90529388 0.18204042 0.0014908715
-0.042959888 -0.060554843 0.021831295 -0.47012445 -0.63821471 0.60964328 0.0040305126
-0.040528383 -0.061522167 0.022659263 -0.5097909 -0.68308574 0.52297896 0.0023571614
-0.038327273 -0.062712468 0.023356972 -0.54736561 -0.70625657 0.44899067 0.00300652
-0.04880986 -0.057214078 0.021314243 -0.50912333 -0.49003515 0.70757258 0.0081129344
-0.046380132 -0.058242336 0.021882147 -0.44657475 -0.49913007 0.74259019 0.0059561981
-0.043531835 -0.058699071 0.023054421 -0.50170577 -0.46815744 0.72740632 0.009023279
-0.041523594 -0.059780005 0.023726083 -0.57212782 -0.54817003 0.61006504 0.003513894
-0.051122472 -0.054282688 0.021206293 -0.72404349 -0.29018998 0.62574011 0.013470909
-0.049129605 -0.055460922 0.02191226 -0.57210475 -0.33180314 0.7500686 0.014252577
-0.046663702 -0.055208076 0.023298219 -0.42247379 -0.23971918 0.87409991 0.0040684799
-0.044560466 -0.056035161 0.023496186 -0.49571779 -0.37265131 0.78447109 0.0090229306
-0.051145833 -0.052023605 0.021572694 -0.7725963 -0.1436689 0.61842883 0.015561785
-0.049748093 -0.052453797 0.022473268 -0.57405919 -0.11927963 0.81007922 0.010044096
-0.046710189 -0.052476667 0.023724886 -0.40186957 -0.092400111 0.91102308 0.0031422607
0.002026991 -0.051151056 0.021880569 0.36540914 -0.079500087 0.92744595 0.00047526989
0.0037442518 -0.051866639 0.021102803 0.37400883 -0.09505564 0.92254096 0.00015555049
-0.051204063 -0.049435303 0.021627331 -0.83948964 0.043576304 0.54162556 0.013630393
-0.050077103 -0.049864866 0.022398558 -0.75786066 -0.016412517 0.65220994 0.0041994988
-0.046755835 -0.049724553 0.023707148 -0.41426972 -0.030846067 0.90963131 0.001452375
0.0013778002 -0.048987009 0.02223192 0.34620824 -0.072567426 0.9353469 0.00059021811
0.0033442411 -0.04948217 0.021414105 0.3653886 -0.079529822 0.92745143 0.00046690952
-0.051199526 -0.047033835 0.021460755 -0.80710095 0.10610855 0.58080035 0.013099657
-0.050193716 -0.046047892 0.022115998 -0.71418285 0.1430223 0.68519157 0.0083245682
-0.047511693 -0.046580311 0.023687614 -0.45152557 0.014373817 0.89214242 0.003763194
-0.0013772642 -0.045143753 0.023312436 0.64179188 0.066320382 0.76400578 0.0087026525
0.00069127884 -0.047125001 0.022491017 0.60546464 0.17433108 0.77654445 0.012009431
-0.051056914 -0.04447379 0.021408509 -0.71733516 0.27107221 0.64183336 0.012981055
-0.049068045 -0.043399498 0.022141807 -0.73839092 0.47091478 0.48271942 0.017064173
-0.04646473 -0.043903988 0.023419049 -0.27499545 -0.025230521 0.96111447 0.011029199
-0.044557903 -0.043198824 0.023712687 -0.58378768 0.16373758 0.79522455 0.034031596
-0.048531476 -0.040917307 0.021592809 -0.70694631 0.4578265 0.53909349 0.015696462
-0.047145508 -0.040004667 0.022364613 -0.71934777 0.32634613 0.61321861 0.018160343
-0.044426654 -0.04131468 0.023671044 -0.63479179 0.04846951 0.77116156 0.040466905
-0.046337526 -0.037588276 0.022360068 -0.79268473 0.34722736 0.50108296 0.015070655
-0.04464208 -0.03712973 0.022976099 -0.7953186 0.25640464 0.54929501 0.020781899
-0.045406837 -0.035231669 0.021430952 -0.85306859 0.22014588 0.47308534 0.019165978
-0.04465938 -0.034691222 0.023000807 -0.85751218 0.11961871 0.50036412 0.013556763
-0.045304179 -0.031282403 0.021731814 -0.92970181 0.00020210778 0.36831307 0.013390305
