# .PCD v0.7 - Point Cloud Data file format
VERSION 0.7
FIELDS x y z normal_x normal_y normal_z curvature
SIZE 4 4 4 4 4 4 4
TYPE F F F F F F F
COUNT 1 1 1 1 1 1 1
WIDTH 562
HEIGHT 1
VIEWPOINT 0 0 0 1 0 0 0
POINTS 562
DATA ascii
-0.045433059 0.010541351 0.014077398 -0.95311183 -0.00040995059 -0.30261797 0.022876503
-0.044797678 0.010497523 0.012952094 -0.99385059 -0.0013830931 -0.11072097 0.017547892
0.010909845 0.010454355 0.014150503 0.88461423 -0.08880803 -0.45778903 0.016697986
-0.045416955 0.013549391 0.0140716 -0.95208347 0.0016089689 -0.30583417 0.022746876
-0.044809237 0.01354434 0.012941785 -0.99341798 0.0032354239 -0.11450019 0.017254954
0.010932528 0.013369913 0.01286867 0.69731265 -0.55786341 -0.45004842 0.036279831
-0.045413204 0.016410131 0.014099076 -0.95267284 -0.0010650533 -0.30399555 0.022355538
-0.044821203 0.016575625 0.01293153 -0.99367601 0.0020014355 -0.11226761 0.016540758
0.012857542 0.015331122 0.012092149 0.56093895 -0.58162314 -0.58911967 0.032612
-0.0454133 0.019432805 0.014023103 -0.94925517 0.029792899 -0.31309259 0.025011871
-0.044823691 0.01958691 0.012921412 -0.99293387 0.017280903 -0.1174039 0.01713598
0.014851215 0.018830296 0.01234513 0.52671283 -0.27598876 -0.80399239 0.0051894272
-0.045394614 0.022411559 0.014206816 -0.93454492 0.082293369 -0.34619883 0.021582654
-0.044700298 0.022987243 0.012998346 -0.94968563 0.076773562 -0.30364946 0.018858712
-0.04537775 0.025517253 0.01428614 -0.86877638 0.013207655 -0.49502847 0.0027021328
-0.044650178 0.025485998 0.012904614 -0.93045014 0.084280722 -0.35659394 0.011559007
-0.045412622 0.028509811 0.014309981 -0.87456143 0.00017122322 -0.48491478 0.0020535032
-0.044648267 0.02848706 0.012900182 -0.89941645 -0.00097350898 -0.43709162 0.0018679693
0.015549186 0.028681435 0.012502383 0.50727147 0.23510849 -0.82909572 0.013471586
-0.045392111 0.031596601 0.014288284 -0.87516874 0.00022478896 -0.48381776 0.0020228657
-0.044646576 0.031480275 0.012895621 -0.89874953 0.00085183926 -0.43846151 0.0019037605
0.014182059 0.032102961 0.012252159 0.59883988 0.38488102 -0.70232284 0.017104354
-0.045389865 0.034582384 0.014281766 -0.87664038 -0.10764854 -0.46894935 0.014087819
-0.044639058 0.03455808 0.012876294 -0.90361691 -0.12568858 -0.40948614 0.014108928
0.01070592 0.035522014 0.012924779 0.65357047 0.61079097 -0.44696769 0.066749632
0.013051914 0.034403976 0.012545603 0.57779908 0.4285959 -0.69458896 0.060434345
-0.048569173 0.038412262 0.012716834 -0.55670971 -0.8267867 -0.080609933 0.0095064808
-0.046270728 0.037033267 0.013725471 -0.74970728 -0.57871777 -0.32097459 0.033778898
-0.044740647 0.036261335 0.013140259 -0.71406186 -0.60203177 -0.35731417 0.035019912
0.010442248 0.036334351 0.012300687 0.60663611 0.33433264 -0.72125888 0.094524048
-0.051611736 0.040562466 0.013248743 -0.85219771 -0.50283504 -0.14462365 0.022730194
-0.050630897 0.039909825 0.012264505 -0.81646103 -0.53673714 -0.21284869 0.019424463
-0.052257359 0.043514647 0.013163196 -0.96525872 -0.22196189 -0.13787125 0.0055981814
-0.050935507 0.042277083 0.012057798 -0.91649812 -0.3592234 -0.17603934 0.0093999365
-0.052693155 0.046525992 0.013067015 -0.98270088 -0.13434513 -0.12747654 0.00431938
-0.052905716 0.049489666 0.013204964 -0.99299276 -0.013589285 -0.11739172 0.002811692
-0.05278255 0.052382179 0.013141297 -0.98679531 0.098992802 -0.1282009 0.0027465238
-0.052339129 0.055466436 0.013122443 -0.97039175 0.20036615 -0.13488284 0.0039825221
-0.051735476 0.058425322 0.01335053 -0.90671325 0.39929748 -0.13576691 0.021620246
-0.050760075 0.059074014 0.012068436 -0.83943743 0.47129655 -0.2705999 0.023545682
-0.051301628 0.060161918 0.01339186 -0.69137901 0.72159433 -0.036010645 0.024589067
-0.049080543 0.061018027 0.013311375 -0.59014708 0.80479503 -0.063493676 0.01998345
-0.046971511 0.062526099 0.012980519 -0.45218146 0.8909443 -0.041833676 0.0041505368
-0.045273691 0.063165739 0.013134375 -0.36060843 0.92551911 -0.11565498 0.0048033511
-0.043402769 0.063862652 0.013126833 -0.32105544 0.93094045 -0.17399247 0.001992132
-0.040285408 0.064988315 0.013179151 -0.32628483 0.92858166 -0.17684551 0.0017071336
-0.037948973 0.065795079 0.013011063 -0.30279812 0.93253982 -0.19667935 0.0017862913
-0.036834802 0.066246659 0.013697486 -0.26404774 0.95573288 -0.12982091 0.0034357917
-0.034910351 0.066714585 0.013390569 -0.25444791 0.94388038 -0.21058534 0.0014632995
-0.032148212 0.067354843 0.012984317 -0.25507325 0.94393373 -0.20958702 0.0012701502
-0.028692879 0.06820707 0.013409266 -0.23727664 0.96854728 -0.074940048 0.0019486562
-0.025820399 0.068843506 0.013435706 -0.22055201 0.97516567 -0.020217346 0.00291293
-0.024116511 0.069237292 0.012679589 -0.20274398 0.97912997 -0.01412456 0.0028736759
-0.022552088 0.069482036 0.013539151 -0.14821409 0.9844231 0.094571494 0.0026195291
-0.019538319 0.070001103 0.01332089 -0.14106089 0.97121131 0.19196486 0.0068121459
-0.01648685 0.070426464 0.013348543 -0.12344498 0.93959373 0.31925699 0.0062410147
-0.013535905 0.07075467 0.013551141 -0.12323133 0.87984586 0.45900482 0.0050605112
-0.01067977 0.071204923 0.01366619 -0.14821067 0.81766862 0.55628389 0.0042699552
-0.0074821473 0.07128191 0.014475042 -0.16266361 0.75134343 0.63954961 0.0011838782
-0.0044044736 0.071664579 0.014800328 -0.15130724 0.72707182 0.66968107 0.0013959935
-0.010040152 0.072227344 0.012256066 -0.20390502 0.86393577 0.4604755 0.0042232303
-0.0074104271 0.0724767 0.012806465 -0.17382513 0.85100859 0.49554947 0.0039856471
-0.0044074268 0.072765023 0.013312921 -0.16754179 0.84171879 0.51326329 0.0037841576
-0.0014758452 0.07324259 0.013392484 -0.15668383 0.82868654 0.53733498 0.0031627668
0.0014407656 0.073763713 0.013214249 -0.10808287 0.83849549 0.53408194 0.0025219247
0.0041894671 0.073782824 0.013443038 -0.026527131 0.82531631 0.56404734 0.0036182178
-0.030279966 -0.067296952 0.017226543 0.27677977 0.9605431 0.027385138 0.0060992274
-0.028586846 -0.067634113 0.016974032 0.26931918 0.96164012 0.052110597 0.0078113331
-0.025479307 -0.068204574 0.017024983 0.15454598 0.98554939 -0.06934008 0.00040457555
-0.022285637 -0.068718016 0.016230587 0.1422347 0.98666954 -0.079073124 0.0004841664
-0.020542316 -0.068791695 0.016080562 0.16025645 0.98099846 -0.10936132 0.00081423728
-0.042621095 -0.063266851 0.01708081 0.35236767 0.93577492 0.012741266 0.011682496
-0.041304469 -0.063683718 0.017606705 0.36114502 0.93173265 -0.038059551 0.0033933825
-0.038960185 -0.064650223 0.017652724 0.32510877 0.94550073 0.018242141 0.0026079724
-0.048623715 -0.060672075 0.016767297 -0.57745516 0.56848955 0.58597356 0.014358817
-0.045851186 -0.061966408 0.016906358 0.37632269 0.92641956 0.011316768 0.0091022514
-0.044280235 -0.062474579 0.017348135 0.36941946 0.92923182 0.0075791003 0.0098483069
-0.05160249 -0.058205333 0.01610522 -0.85056132 -0.50781488 0.13663627 0.023881605
-0.052257974 -0.055735566 0.016095132 -0.95318377 -0.29262826 0.07621979 0.015349011
-0.052786 -0.052555263 0.016096193 -0.99029267 -0.13812818 0.015524602 0.0030995337
-0.052913513 -0.049374737 0.016550953 -0.9778254 -0.0081508905 0.20926318 0.0024481348
-0.052821584 -0.046201684 0.015992502 -0.99327415 0.096627899 0.063792281 0.0029643434
-0.052238692 -0.043522168 0.016930642 -0.94822425 0.24358207 0.20381027 0.02016644
0.013558442 -0.043075651 0.015083559 0.57253915 0.6310029 0.5234828 0.0028927899
-0.051614102 -0.040642474 0.016410353 -0.86433351 0.47352678 0.16941081 0.03257576
-0.04972285 -0.039346077 0.017207533 -0.64766705 0.7132597 0.26793277 0.020535428
-0.051202636 -0.038870037 0.015456052 -0.69996464 0.68742448 0.1936418 0.034683771
-0.048906803 -0.038289975 0.016329912 -0.56619769 0.82066691 0.076980017 0.017441934
-0.046897884 -0.037071127 0.016555233 -0.64265144 0.76609838 0.00961156 0.024224671
-0.045824453 -0.034478098 0.016540566 -0.95850337 0.16375402 -0.23335768 0.014264286
-0.045807138 -0.031467345 0.01646601 -0.96598434 0.02334173 -0.25754496 0.0042745071
-0.045812715 -0.028546512 0.016492598 -0.96215504 -0.031096032 -0.27072263 0.0028831745
-0.04586288 -0.025501681 0.016526982 -0.93077475 -0.103184 -0.35072982 0.0057787644
-0.046607818 -0.022282438 0.016671671 -0.89237571 -0.10835757 -0.43809158 0.0030092867
-0.046665601 -0.019495072 0.016416507 -0.89978278 -0.016866682 -0.43601197 0.0018157446
-0.046775311 -0.016418882 0.016519912 -0.92108041 -0.0034146535 -0.38935736 0.0062160976
-0.04681842 -0.013530649 0.016576 -0.92147833 -0.00076063577 -0.38842899 0.0066246153
0.0118687 -0.01246 0.016422478 -0.90837955 -0.36878711 0.19708548 0.041549366
0.012325294 -0.013055153 0.016755562 -0.90837955 -0.36878711 0.19708548 0.041549366
-0.046833463 -0.010537174 0.016570041 -0.92112845 -0.001273658 -0.38925666 0.0065800925
0.011415204 -0.011866168 0.016093666 -0.87962222 -0.34377012 0.32876575 0.045820892
-0.046823479 -0.0074720657 0.016567245 -0.92111832 -0.0030983787 -0.3892704 0.0065902798
-0.046792362 -0.0044750003 0.016542809 -0.92151231 0.0010619825 -0.38834772 0.0067186374
-0.046838664 -0.0015443896 0.016541651 -0.92324519 -0.023388105 -0.38349879 0.0087144878
-0.047118239 0.0014793226 0.016429547 -0.92532301 -0.025512327 -0.37832049 0.010616642
-0.047087077 0.0045158495 0.016365051 -0.92700928 -0.00022321916 -0.37503827 0.012136271
-0.047101572 0.0075747333 0.016395988 -0.92789668 -3.9400322e-05 -0.37283739 0.011992673
-0.047037855 0.01054913 0.016282031 -0.9277966 3.9981685e-05 -0.37308639 0.011933582
0.011005283 0.011924305 0.015120579 0.8607946 -0.25150689 -0.44246697 0.052853599
-0.047069348 0.013535686 0.016351432 -0.92744476 -0.00053826737 -0.37395978 0.011659019
0.011642967 0.012838187 0.016634332 0.8590436 -0.33897707 -0.38358662 0.061663136
0.012191845 0.013420244 0.016439866 0.8590436 -0.33897707 -0.38358662 0.061663136
-0.047051951 0.016476274 0.016314657 -0.92733771 -0.0030189028 -0.37421346 0.011592261
-0.047062248 0.01950283 0.016313184 -0.92554313 0.005173895 -0.37860686 0.010850891
-0.046980593 0.022536885 0.016334789 -0.91143262 0.035746746 -0.4098936 0.0074796882
-0.046773039 0.02548195 0.016290508 -0.91425276 0.026333647 -0.40428755 0.0077300314
-0.046745073 0.02851858 0.016293462 -0.93803716 0.0088287378 -0.34642237 0.010816099
-0.046733223 0.031456944 0.016237415 -0.9395206 0.00092077302 -0.34249136 0.011109308
-0.0467408 0.034438394 0.016263116 -0.95261252 -0.12189204 -0.27869639 0.023597628
-0.04857821 0.038520105 0.016501524 -0.75350845 -0.654311 0.064046994 0.036182091
-0.046937287 0.036871139 0.016295997 -0.87756908 -0.43412414 -0.20349135 0.037613325
-0.051568784 0.04065793 0.015953897 -0.79072356 -0.59623492 0.13878089 0.02457854
-0.048535015 0.039158087 0.01656945 -0.59065717 -0.80688769 -0.0075156735 0.0095522748
-0.05220145 0.043189269 0.01633062 -0.9398495 -0.30138949 0.16077089 0.019978926
-0.052743584 0.046364564 0.016303832 -0.99030536 -0.13653408 0.025568442 0.0032382917
-0.052800268 0.049576811 0.016725197 -0.98034775 -0.0074066855 0.19713801 0.0030804449
-0.052789964 0.052954763 0.016156698 -0.99012661 0.13647625 0.03199343 0.0035352779
-0.052272707 0.056126215 0.016211867 -0.95610875 0.28073099 0.083941408 0.016954161
-0.051512312 0.058689799 0.016672555 -0.84437943 0.50093722 0.18996121 0.026151836
-0.049430624 0.059688993 0.017245505 -0.54939896 0.76630497 0.33307284 0.013966081
-0.051262289 0.060077425 0.015649196 -0.64214146 0.74485171 0.18124665 0.023982771
-0.048617374 0.06114836 0.016519526 -0.58233982 0.80082488 0.1398567 0.016760522
-0.046655215 0.062100779 0.016724436 -0.47668225 0.84532851 0.24123406 0.0045852088
-0.044652425 0.062753744 0.01758714 -0.37552571 0.88961416 0.25993684 0.0057274308
-0.04527545 0.063039236 0.015725952 -0.39332524 0.91115701 0.12283371 0.0042008325
-0.043233555 0.063708648 0.016367078 -0.38241127 0.89594138 0.22594418 0.0042098882
-0.04045273 0.064866975 0.016288247 -0.3635239 0.92156428 0.13627058 0.0026117021
-0.038316973 0.065665059 0.016519317 -0.35522541 0.92547256 0.13158838 0.0027245055
-0.036770348 0.06623622 0.016228316 -0.29995129 0.94894004 0.097683758 0.0022940794
-0.034395315 0.06691619 0.016444175 -0.26228657 0.96201891 0.075666644 0.0017753394
-0.031611163 0.067596085 0.016420892 -0.23343594 0.97134703 0.044638719 0.00069923239
-0.02864835 0.068196811 0.016467292 -0.20337296 0.97817707 0.042533573 0.00033186653
-0.025508901 0.068772331 0.01651697 -0.15883039 0.98466879 0.072113819 0.00014696937
-0.018323077 0.068982035 0.017419148 0.053946231 0.9798032 0.19254997 0.0017330566
-0.01681298 0.068909317 0.017184887 0.077823371 0.96261513 0.25945276 0.0047292262
-0.013668739 0.068651468 0.016981829 0.058896966 0.87818539 0.47468054 0.0038508377
-0.010251706 0.068519108 0.017043214 -0.058533382 0.75796664 0.64966184 0.0024506184
-0.0074392073 0.068438783 0.017359894 -0.058292817 0.71123874 0.70052934 0.0028125923
-0.0050980677 0.068559065 0.017491305 -0.064119071 0.63330084 0.77124494 0.0017990462
-0.0013483298 0.068745717 0.017738838 -0.082748882 0.61507702 0.78411281 0.0012646108
-0.022694295 0.069177218 0.016562402 -0.08520063 0.99352741 0.075127855 0.0013564915
-0.019507103 0.069247425 0.016096491 -0.028549144 0.98116386 0.19105622 0.0055534481
-0.016860655 0.069361657 0.015526869 -0.023098454 0.93074405 0.36494109 0.0055211722
-0.013414831 0.069307126 0.015752662 -0.014963974 0.88348931 0.46821228 0.0071639749
-0.010409898 0.069494039 0.015841179 -0.089344375 0.78296375 0.61561787 0.0024939119
-0.0074004461 0.069916785 0.015949897 -0.12105363 0.72284287 0.68032664 0.001720006
-0.0042353552 0.070260458 0.016216198 -0.10701521 0.68125701 0.72417998 0.0020288955
-0.0016403451 0.070719428 0.016219622 -0.088733919 0.64453197 0.75941092 0.0031998283
0.0012339894 0.070797578 0.016414374 -0.082737476 0.65866178 0.74787641 0.0039108405
0.0042328713 0.071685061 0.015636522 -0.063991971 0.7678833 0.63738549 0.0019006226
-0.00069537613 0.072156623 0.015024277 -0.10364449 0.74170721 0.66266751 0.00093041058
0.0011881697 0.072312884 0.015047762 -0.065704577 0.76552457 0.64004302 0.0020638707
0.003667634 0.072351336 0.015079516 -0.05331967 0.77361292 0.63141114 0.0017550224
-0.033939332 -0.066182308 0.018714888 -0.28052256 -0.95686758 -0.075575523 0.0038327179
-0.031724602 -0.066728309 0.019368684 0.27404603 0.95647246 -0.10029562 0.00072406558
-0.028637221 -0.067459017 0.019367859 0.21590574 0.97357631 -0.074390285 0.00030821163
-0.025421686 -0.06798166 0.020244397 0.17808783 0.98158395 -0.069120571 0.00027956563
-0.023285752 -0.06842947 0.018571032 0.14193611 0.98672611 -0.07890331 0.00048895221
-0.040270559 -0.063708968 0.018795395 0.3791585 0.86653364 -0.32458946 2.5401985e-05
-0.037462123 -0.064824171 0.019053094 -0.31403619 -0.94779325 -0.055401102 0.0022941609
-0.035077125 -0.065565914 0.01979517 0.30691734 0.94560975 -0.10781439 0.00063466438
-0.045117162 -0.061648268 0.018458141 -0.33469844 -0.93930691 -0.075362682 0.0056131156
-0.043102618 -0.062580392 0.018405948 0.38844588 0.86724204 -0.31144994 5.5863333e-05
-0.051198546 -0.057674576 0.01865346 -0.74650139 -0.52737874 0.40571851 0.017717129
-0.048819173 -0.058743954 0.01966076 -0.63641942 -0.51578206 0.57353222 0.024504256
-0.051555023 -0.055292591 0.019275501 -0.85467988 -0.2629742 0.44762355 0.01638704
-0.050922215 -0.055682834 0.020664092 -0.76564175 -0.33056509 0.55183291 0.016808204
-0.051899508 -0.052468263 0.019578038 -0.9194473 -0.098355792 0.3807137 0.0071645714
-0.052074391 -0.049541127 0.019507134 -0.92127556 -0.0047315755 0.3888818 0.0089565832
-0.051990643 -0.046514921 0.019474162 -0.90508622 0.1248955 0.40647277 0.0080183046
-0.051632311 -0.043629088 0.01930603 -0.85044932 0.26782238 0.45277721 0.013296598
-0.050224982 -0.042645823 0.020716693 -0.70592791 0.28676304 0.64763635 0.0068468261
-0.051225618 -0.04075291 0.018328704 -0.74466145 0.57509345 0.338743 0.019653646
-0.049396835 -0.04054204 0.019694213 -0.69835359 0.58204615 0.41656283 0.01809342
-0.048532337 -0.038590968 0.018658193 -0.65572023 0.72030932 0.22624207 0.023221321
-0.047249187 -0.037228599 0.01937362 -0.70694035 0.67346263 0.21606345 0.02937972
-0.045936149 -0.034467835 0.019515635 -0.96793652 0.18134595 0.17381769 0.015282378
-0.045942415 -0.031484604 0.019489467 -0.98814505 -0.0012352139 0.15351826 0.005417231
-0.045949865 -0.028515674 0.019463396 -0.98047894 -0.038536895 0.19281076 0.018653324
-0.046904929 -0.025123399 0.019309988 -0.97124994 -0.17897478 -0.15697652 0.012499074
-0.047777139 -0.022462659 0.019408021 -0.95706898 -0.096709788 -0.27325118 0.012769056
-0.047776971 -0.019443862 0.019416388 -0.97516268 -0.047005735 -0.21644428 0.0085920449
-0.047772273 -0.016494669 0.019477028 -0.98564637 -0.0060353545 -0.16871524 0.012885673
-0.047769152 -0.013627227 0.019522294 -0.97764432 0.014786883 -0.20974492 0.006599599
-0.047769256 -0.010539584 0.019526392 -0.98782462 -0.0037131463 -0.15552725 0.01151097
-0.047776062 -0.0074407905 0.019474208 -0.98726386 0.0036735034 -0.15904906 0.011669192
-0.047775686 -0.0044541447 0.019481298 -0.98686343 0.0014563206 -0.16155009 0.011554458
-0.047763251 -0.0014056172 0.019548416 -0.98891032 -0.015206851 -0.14773335 0.010458507
-0.047760192 0.0014907572 0.01954871 -0.99084008 -0.011117202 -0.13458161 0.0088924263
-0.047756851 0.0044980152 0.019570589 -0.99227875 0.0053553386 -0.12391154 0.0073666833
-0.04775928 0.0075629819 0.019556507 -0.99141699 0.0077104024 -0.13051029 0.0076297037
-0.047761645 0.010480439 0.0195425 -0.99153227 -3.2006287e-06 -0.12986046 0.007851013
-0.047758758 0.013464908 0.019564116 -0.99168813 -0.0020718654 -0.12864822 0.0083958935
-0.047771547 0.016497724 0.019480413 -0.99181312 -0.0044883164 -0.12761848 0.0080263829
-0.047764938 0.019561786 0.019531282 -0.99181455 0.014255336 -0.12688857 0.0085431691
-0.047775093 0.022579074 0.019455802 -0.97707051 0.065357268 -0.20263657 0.014797373
-0.047435652 0.025325652 0.019389283 -0.99184865 0.074788436 -0.10316439 0.008623803
-0.047056455 0.02856423 0.019823827 -0.99673051 0.057611607 -0.056649692 0.0071952604
-0.047061555 0.031592943 0.019801166 -0.99975914 0.00052368623 -0.021940943 0.0067997929
-0.04707747 0.034445122 0.019722231 -0.98555237 -0.15507466 -0.068105981 0.018249338
-0.048463389 0.038759228 0.018569538 -0.72032118 -0.6321367 0.28555316 0.013643449
-0.04721117 0.037084103 0.01955492 -0.93919718 -0.33885884 -0.055528831 0.017871387
-0.051196896 0.041507166 0.018881237 -0.74103516 -0.47866952 0.47089541 0.015686
-0.048662513 0.039681025 0.019029079 -0.75050473 -0.63964021 0.16614163 0.023796968
-0.047827251 0.039079271 0.020581055 -0.71913755 -0.52751732 0.45229048 0.024671106
-0.05148105 0.043672547 0.01952409 -0.84831321 -0.26152346 0.46040234 0.015988393
-0.050904047 0.042830408 0.020459408 -0.76350218 -0.31363374 0.56453383 0.017777894
-0.051892929 0.046478719 0.019629102 -0.90993226 -0.099565618 0.40262893 0.0098589687
-0.052096348 0.049479727 0.019589093 -0.90041232 -0.0064059407 0.43499041 0.018706495
-0.051963098 0.052456543 0.019598903 -0.89474738 0.13379642 0.42605826 0.012034579
-0.051580992 0.055325866 0.019509058 -0.84325558 0.28378561 0.45649293 0.015603727
-0.050061632 0.056530662 0.020733347 -0.56657559 0.3760471 0.733199 0.0073056719
-0.051266551 0.057693198 0.018874614 -0.73273689 0.49183825 0.47031036 0.015237458
-0.048993822 0.058663968 0.01967907 -0.54498613 0.59972483 0.58593541 0.010429142
-0.047128011 0.059580021 0.020684171 -0.47728118 0.64230478 0.59970599 0.008571622
-0.048407476 0.060449023 0.018753823 -0.51085156 0.72180027 0.46694231 0.0051823361
-0.046225987 0.060988866 0.019482391 -0.44295275 0.73955828 0.50680029 0.0054050554
-0.043537855 0.062066652 0.019922946 -0.41175711 0.79743832 0.44107616 0.0021447046
-0.041819952 0.06266579 0.020500202 -0.4509047 0.78080547 0.43246716 0.0020806063
-0.042512093 0.063349687 0.018492717 -0.41246259 0.82354718 0.38941586 0.0038123964
-0.040417522 0.06396272 0.019290823 -0.38578954 0.84956729 0.35972467 0.0025734869
-0.037515994 0.065233156 0.019384261 -0.39620256 0.87724465 0.27104488 0.0012211339
-0.035773855 0.065762185 0.020129083 -0.34976709 0.91047782 0.22066543 0.0017771249
-0.034390341 0.066455498 0.019403014 -0.31061694 0.93653744 0.16252637 0.0010642344
-0.031530514 0.067319706 0.019463561 -0.26907876 0.95606166 0.11637323 0.00095465273
-0.028447341 0.068046324 0.019377332 -0.19731688 0.97647297 0.086986184 0.00052310439
-0.0253188 0.068572894 0.019754453 -0.15436059 0.98524183 0.073968954 0.00028145971
-0.022744128 0.068926141 0.019917617 -0.050635602 0.99593872 0.074445754 0.0013894236
-0.020154845 0.068866089 0.019722499 0.075851828 0.98914725 0.12583448 0.00091686024
-0.016080299 0.068479344 0.018512983 0.077829629 0.96260852 0.25947523 0.0047228364
-0.010147432 0.067418486 0.018647764 0.0187607 0.81506175 0.57907033 0.005985836
-0.00749639 0.067368753 0.018435445 -0.058295246 0.71112621 0.70064342 0.0028895831
-0.0040696901 0.067426361 0.018415565 -0.064114124 0.63330579 0.77124137 0.001787164
-0.00087365118 0.067271024 0.018572185 -0.045397043 0.59832418 0.79996705 0.00068052293
-0.022117607 0.069046974 0.01838119 -0.039703287 0.99564576 0.084339984 0.0016667208
-0.03065533 -0.066755265 0.021607831 0.2441542 0.96492505 -0.096480146 0.0007543253
-0.028053451 -0.067425817 0.021346178 0.19230357 0.97851253 -0.074381486 0.00038851923
-0.02687881 -0.067606524 0.022194481 0.19234705 0.97850245 -0.074401446 0.0003182386
-0.042881511 -0.0606094 0.021739576 -0.52651733 -0.50533783 0.68367624 0.0049974802
-0.040640369 -0.060952045 0.023186218 -0.55374074 -0.57488126 0.60239756 0.002750583
-0.037762761 -0.062915236 0.023573581 -0.58551311 -0.6955387 0.41641366 0.000920714
-0.048888806 -0.057157997 0.021000449 -0.48783514 -0.52040184 0.70085585 0.012190946
-0.043313324 -0.058485262 0.023243356 -0.52574766 -0.49140424 0.69434232 0.0043823654
-0.041158825 -0.059712414 0.023985032 -0.55365008 -0.57502121 0.60234725 0.002739816
-0.04918864 -0.055138625 0.02198658 -0.56475264 -0.2975879 0.76973754 0.017080046
-0.046527673 -0.055415601 0.023220083 -0.41325086 -0.28714195 0.86416042 0.0022262707
-0.044720136 -0.056440704 0.023559686 -0.50556391 -0.36879167 0.7799986 0.01019678
-0.051114764 -0.052208528 0.02143147 -0.84815931 -0.11168991 0.51783305 0.014735722
-0.049667995 -0.052460138 0.022468774 -0.51565272 -0.11555496 0.84896964 0.011811884
-0.046495516 -0.052353613 0.023727495 -0.39758462 -0.10440375 0.91160649 0.0027816603
-0.051274817 -0.049684696 0.0214012 -0.86280429 0.0023140588 0.50553292 0.013797457
-0.049664307 -0.049567759 0.022519358 -0.54131013 -0.027252968 0.84038132 0.014234061
-0.046560425 -0.049556449 0.023691669 -0.41239879 -0.027706267 0.91058201 0.0011715426
-0.051181804 -0.046707261 0.021373082 -0.71361554 0.12677997 0.68897003 0.0089161377
-0.049628314 -0.046463042 0.022452129 -0.61222231 0.13983302 0.77822274 0.0080104694
-0.04758276 -0.046556823 0.023623124 -0.44602469 0.0057585859 0.89500219 0.0038331924
-0.049408987 -0.043647546 0.022007007 -0.66906589 0.45640466 0.58655399 0.017897852
-0.047314301 -0.043366004 0.023458904 -0.57006252 0.1654316 0.80477399 0.0034654534
-0.048370205 -0.040834621 0.021885492 -0.69468659 0.48945469 0.52710968 0.018824361
-0.046923939 -0.040226106 0.022763645 -0.69110286 0.25568587 0.67601895 0.010900453
-0.046329357 -0.037480291 0.022382306 -0.82325804 0.30806023 0.47680724 0.011357453
-0.044656903 -0.036561169 0.022950035 -0.81700051 0.34519872 0.46189615 0.0097515034
-0.045347042 -0.034469582 0.021672288 -0.87148929 0.14304462 0.46908924 0.015495281
-0.044591285 -0.034555469 0.023036325 -0.85934907 0.16057214 0.48552632 0.020899471
-0.045361292 -0.031479243 0.02164047 -0.90419579 -0.00016271282 0.42711827 0.0045516877
-0.044615395 -0.031555798 0.023000712 -0.87116736 0.0010653251 0.4909851 0.0036697306
-0.045374397 -0.028504506 0.021608846 -0.8813594 -0.13859843 0.45165926 0.015413214
-0.044639889 -0.028571146 0.022965249 -0.87157655 -0.14888112 0.46710673 0.014526504
-0.046391994 -0.025177086 0.022435501 -0.87788618 -0.28049651 0.38812056 0.0088271247
-0.044480346 -0.026872225 0.023216907 -0.78715926 -0.37864479 0.48683512 0.024539374
-0.046881184 -0.022521634 0.022571318 -0.91731775 -0.096489012 0.38628754 0.0078271301
-0.04690627 -0.019499991 0.022519061 -0.90681189 -0.0010291621 0.42153433 0.0052832416
-0.046930108 -0.016494639 0.022467181 -0.90297687 -0.0018833186 0.42968497 0.0050784964
-0.046931624 -0.013459323 0.022458058 -0.89765012 -0.0030463112 0.44069827 0.0052744956
-0.046940472 -0.010436242 0.022448529 -0.89769799 -0.0015856229 0.44060853 0.0051655145
-0.046965875 -0.0074766688 0.022397043 -0.89347464 -0.00082720671 0.44911304 0.006581014
-0.047000684 -0.0044854814 0.022320958 -0.89460778 -0.0029995174 0.44684222 0.0065037818
-0.046962447 -0.0015370502 0.022407526 -0.89538211 -0.0018205916 0.44529489 0.0062989458
-0.046903376 0.0014800502 0.022567047 -0.89580178 -0.0014567433 0.44445145 0.0060589397
-0.046955507 0.0045071458 0.022455033 -0.89747506 -0.0021123071 0.44106019 0.0059863878
-0.046926931 0.0075222505 0.022515882 -0.89886266 0.00053664891 0.43823019 0.0057175742
-0.046937119 0.010555961 0.022493746 -0.9004485 0.0033838444 0.43494964 0.0054148859
-0.046840239 0.013500981 0.022666035 -0.90317047 0.0043044868 0.42926061 0.0050641219
-0.046853714 0.016479466 0.022653406 -0.90281832 0.00038223228 0.43002203 0.0049914331
-0.046888649 0.019483339 0.022570394 -0.90429652 0.003492676 0.42689067 0.004881416
-0.046890371 0.022475343 0.022581067 -0.9046002 0.049242571 0.42340717 0.0055314307
-0.046581902 0.025505831 0.02251113 -0.89942533 0.09881752 0.42575726 0.0063543883
-0.046230424 0.02852332 0.022529913 -0.89830971 0.05441764 0.43597978 0.0088428957
-0.046293814 0.031514648 0.022409976 -0.90237969 -0.00045971258 0.43094161 0.0070435321
-0.046249382 0.034490835 0.022504261 -0.89838475 -0.016911598 0.43888375 0.0074790078
-0.046429895 0.037484806 0.022364995 -0.86355859 -0.10912736 0.49229854 0.012250749
-0.048563175 0.041180246 0.021465058 -0.64005828 -0.47465581 0.60417485 0.010476478
-0.046831984 0.040260248 0.022718629 -0.7515443 -0.20605114 0.62667704 0.01310821
-0.048912246 0.043410752 0.022047695 -0.62236613 -0.31656602 0.71585357 0.0087983385
-0.047175847 0.043204285 0.023407573 -0.55856174 -0.15987979 0.8139087 0.003287327
-0.051155798 0.046859182 0.02139681 -0.80982256 -0.10489226 0.57722187 0.019071203
-0.04934847 0.046492804 0.02263863 -0.5705117 -0.10365137 0.81472254 0.007614668
-0.051183775 0.049683955 0.0216102 -0.67392862 -0.0021272693 0.73879337 0.014332888
-0.048939075 0.0494368 0.022725442 -0.52756 -0.009643767 0.84946311 0.012124138
-0.047440082 0.049698096 0.023539864 -0.43914309 0.011142526 0.89834809 0.0012323532
-0.051155388 0.052550461 0.021403311 -0.81064856 0.11800221 0.57351941 0.018519612
-0.049268767 0.052585497 0.022620071 -0.54131842 0.13829805 0.82936609 0.0089308228
-0.046138812 0.052872244 0.023885429 -0.42242327 0.089697435 0.90194958 0.002026503
-0.049172934 0.055494834 0.021993337 -0.56390679 0.3553063 0.74549752 0.0068122344
-0.046357919 0.055566907 0.023418237 -0.43390268 0.28777808 0.85376364 0.0026088525
-0.044448655 0.056211889 0.023970479 -0.50747979 0.25205523 0.8239736 0.0050351783
-0.048627391 0.057730846 0.021472037 -0.54172629 0.46382564 0.70099819 0.0085268179
-0.046358485 0.058393028 0.022057666 -0.42562282 0.51578116 0.74351525 0.0065289489
-0.043750506 0.058682345 0.023218486 -0.45204884 0.45968539 0.76442218 0.0058114976
-0.043140713 0.060734507 0.021972608 -0.44382802 0.63430661 0.63298643 0.0049365079
-0.040755466 0.061847575 0.022604549 -0.47106224 0.74475038 0.47270212 0.0018859066
-0.038682587 0.062893733 0.023333248 -0.53665531 0.690642 0.48478314 0.0032308034
-0.039541122 0.063279964 0.021636685 -0.46681523 0.77170008 0.43192884 0.0047225514
-0.037447434 0.064179957 0.022309966 -0.45823476 0.80497473 0.3768774 0.0022164015
-0.034897905 0.065469362 0.02259231 -0.43251315 0.86547673 0.25274992 0.0022777852
-0.033455312 0.066230774 0.022203526 -0.39991653 0.89620453 0.19205262 0.0018473548
-0.03157752 0.066864155 0.022470046 -0.31410503 0.93992984 0.13367848 0.0013132421
-0.028597316 0.067731164 0.022715855 -0.23571962 0.96762985 0.090159439 0.00067846727
-0.025743945 0.068305127 0.022670457 -0.15656835 0.98512948 0.070755355 0.00026162755
-0.022732113 0.068661921 0.022501741 0.0061745038 0.99613792 0.087584883 0.00288118
-0.017373914 0.068239205 0.02110118 0.082665153 0.9904269 0.11054922 0.00089909561
-0.036248527 -0.063145868 0.025300447 -0.6019752 -0.64344305 0.47287104 0.0034137527
-0.034264639 -0.064279236 0.025944699 -0.60194772 -0.64347446 0.47286326 0.0033686799
-0.039562702 -0.0609373 0.024327267 -0.57068819 -0.58795136 0.57326102 0.0028736682
-0.037843481 -0.061285019 0.025987687 -0.66174161 -0.58088595 0.47399318 0.0027479134
-0.042088561 -0.057931155 0.024484325 -0.54741156 -0.46123731 0.69828415 0.0042576073
-0.040321667 -0.058401313 0.025823699 -0.66221601 -0.44656762 0.6017037 0.0042554564
-0.043103136 -0.055302877 0.024856808 -0.54997343 -0.27382696 0.78901714 0.010051271
-0.041366283 -0.055528753 0.026265478 -0.62514484 -0.23510697 0.74425721 0.0044514798
-0.043464247 -0.052406453 0.025206503 -0.56403875 -0.10195278 0.81943023 0.0061737266
-0.041768529 -0.052507836 0.026619475 -0.66565204 -0.12419909 0.73585463 0.0015850171
-0.045094825 -0.049443893 0.024279512 -0.45878193 -0.049002212 0.88719672 0.0029938638
-0.043165598 -0.049474556 0.025555722 -0.60529381 -0.049809873 0.79444218 0.0037131961
-0.041981596 -0.050533082 0.026583228 -0.64851022 -0.081408881 0.75684029 0.0022476006
-0.046107046 -0.046141341 0.024204977 -0.47883821 -0.020141225 0.87767214 0.0033506101
-0.043338507 -0.046462648 0.025702888 -0.58458912 -0.031775553 0.81070703 0.0028128438
-0.045969836 -0.043479521 0.024176145 -0.5226683 0.085804045 0.84820724 0.0033239617
-0.043584712 -0.043470059 0.025596172 -0.55541289 0.035516117 0.83081591 0.0015230281
-0.045404676 -0.040752523 0.02416053 -0.62233835 0.11461376 0.77431178 0.005732582
-0.043569352 -0.040505115 0.025570344 -0.57170051 0.07513801 0.81701463 0.0031501364
-0.041630395 -0.039999049 0.026988354 -0.50761116 0.062422473 0.85932201 0.0053668623
-0.045281604 -0.03708607 0.024137218 -0.82317352 0.37184304 0.42908984 0.020977387
-0.043928109 -0.036897309 0.025369015 -0.79104811 0.36444992 0.49134421 0.021980871
-0.041142773 -0.037347373 0.026426077 -0.49308127 0.14014083 0.85862184 0.005586504
-0.043271847 -0.034392938 0.024868611 -0.77975833 -0.064512111 0.62274808 0.02246248
-0.040963795 -0.034711551 0.026178863 -0.6546759 -0.074730821 0.75220662 0.022063417
-0.042927649 -0.031559736 0.025381628 -0.76254302 -0.024038151 0.64649075 0.023075201
-0.04185896 -0.03034173 0.0264783 -0.5120641 0.29522631 0.80661756 0.031720366
-0.043249171 -0.028596619 0.024883069 -0.76197904 -0.069676332 0.64384252 0.023177739
-0.041115351 -0.0288164 0.026215812 -0.47056395 0.34193859 0.81341726 0.033470552
-0.038609359 -0.02854391 0.026936024 -0.29515013 0.44641334 0.84474939 0.018463271
-0.045425594 -0.02464273 0.024755191 -0.70099318 -0.34119523 0.62625432 0.015298565
-0.043929745 -0.025367843 0.025616327 -0.64001799 -0.31976002 0.69866341 0.014946197
-0.04185557 -0.026966032 0.025714088 -0.63392067 -0.26544014 0.7264201 0.046382222
-0.045616593 -0.022496106 0.024720376 -0.78420085 -0.075415969 0.61590701 0.0062048468
-0.044314049 -0.022532441 0.026095591 -0.63340741 -0.050432071 0.7721734 0.0041947397
-0.045646764 -0.019559367 0.024680588 -0.78501242 0.0023140889 0.61947566 0.0034521152
-0.044365048 -0.019481424 0.02605004 -0.62817657 0.0046909149 0.77805668 0.0024850415
-0.045590762 -0.016387336 0.024742234 -0.77527726 0.0043627904 0.6316061 0.0047704726
-0.044324577 -0.016660262 0.02609247 -0.60713428 -0.0011982187 0.79459834 0.0034250615
-0.045457691 -0.013447201 0.02490285 -0.77852464 0.002017295 0.62761086 0.004421033
-0.044176981 -0.013559898 0.026236054 -0.61013669 -0.0020045263 0.79229367 0.0029061986
-0.04552073 -0.010456106 0.024827546 -0.77918857 0.0050140591 0.62676954 0.0041267765
-0.044199422 -0.010506606 0.026214711 -0.61584574 0.0053870445 0.78784835 0.0024678363
-0.045556333 -0.0074812812 0.024786359 -0.76963717 0.0056004855 0.63845694 0.0050966297
-0.043927033 -0.0075286953 0.026420968 -0.62390637 0.0050478587 0.78148288 0.0021889051
-0.045616142 -0.004428512 0.024710732 -0.77101666 -0.0029975434 0.63680792 0.0047151074
-0.043983404 -0.0044563035 0.026373468 -0.59589565 0.002203143 0.80305892 0.0046863197
-0.045622613 -0.0014855094 0.024703683 -0.77132237 -0.0084273303 0.63638884 0.0044286051
-0.04404394 -0.0013985026 0.026325954 -0.60410106 -0.00052440853 0.7969076 0.0043283491
-0.04562835 0.0014422995 0.024696635 -0.77219939 -0.0029361297 0.63537359 0.0040961327
-0.044102278 0.0015475163 0.026280183 -0.61229461 -0.00075945945 0.79062933 0.0039406768
-0.045688353 0.0044475612 0.024621665 -0.77314687 0.0013285932 0.63422561 0.003777138
-0.044155829 0.0044763261 0.026234908 -0.62463146 0.00057652529 0.78091943 0.0034570296
-0.045743406 0.0074345423 0.02454743 -0.77695274 -0.0017750316 0.62955654 0.0035965871
-0.044211224 0.0074834069 0.026188411 -0.62984091 -0.0020530499 0.77672148 0.0033565615
-0.045703951 0.01043762 0.024605168 -0.77888149 -0.0037712003 0.62715983 0.0033762159
-0.04427401 0.010569969 0.026140362 -0.63106734 -0.0049485043 0.77571237 0.0028037527
-0.0455961 0.013571461 0.024759434 -0.77647763 -0.00080736831 0.63014436 0.0038452912
-0.044362757 0.013545683 0.026060866 -0.62768114 -0.00031232098 0.77847052 0.0024919154
-0.04560839 0.016473247 0.024742691 -0.76928777 0.0010160632 0.63890165 0.0047694594
-0.044341084 0.016498029 0.026082493 -0.61048204 0.0031304748 0.79202396 0.0031822096
-0.045622442 0.019563505 0.024719371 -0.77404755 0.0024860783 0.63312262 0.0042652772
-0.044394527 0.019374568 0.026039891 -0.61314726 -0.0047553633 0.78995436 0.0026422171
-0.045447737 0.022455905 0.024928913 -0.77670413 0.048609428 0.62798721 0.0044544674
-0.04417501 0.02249632 0.026247079 -0.62462217 0.037048679 0.78004777 0.0020557973
-0.045468438 0.025077553 0.024676599 -0.7637943 0.10232589 0.63729727 0.0038235311
-0.043937251 0.025642611 0.025977897 -0.60775286 0.11653794 0.78552872 0.0024811358
-0.045173999 0.028376937 0.024318427 -0.74390286 0.047968529 0.66656399 0.0066849892
-0.043579269 0.028515194 0.025884517 -0.63499612 0.035616044 0.77169394 0.0053125382
-0.045211155 0.031603664 0.024273835 -0.77244663 0.0013574397 0.63507825 0.0018686447
-0.043635372 0.031493846 0.025839144 -0.68123156 -0.03252656 0.73134512 0.0067759571
-0.045241576 0.034544051 0.024233317 -0.77164108 -0.0088815819 0.63599622 0.0017319506
-0.043622933 0.034505971 0.02584956 -0.66170371 0.055391625 0.74771655 0.0074396981
-0.04527789 0.03747027 0.024192788 -0.76834834 -0.01867508 0.63975942 0.0038408013
-0.043683954 0.037533842 0.025748864 -0.63616621 0.027199974 0.77107251 0.0059767817
-0.04538215 0.040402699 0.024149781 -0.65455765 -0.079847492 0.75178373 0.006286649
-0.043622114 0.040419411 0.02558475 -0.60148299 -0.013303253 0.7987749 0.0026209694
-0.04193633 0.041172419 0.026790723 -0.56453872 -0.0075917495 0.82537174 0.00099529431
-0.045753203 0.043661389 0.024260022 -0.56337869 -0.062604323 0.82382357 0.0024953515
-0.043384716 0.043485943 0.025735348 -0.57389748 -0.039477624 0.8179751 0.00088770117
-0.041938987 0.04275725 0.026765805 -0.57845086 -0.034406904 0.8149913 0.00085396878
-0.045930672 0.046579853 0.024297513 -0.46049386 0.0086722039 0.88762057 0.0016982243
-0.043110278 0.046521302 0.025906526 -0.57920086 0.0048514656 0.81517047 0.0026968257
-0.045770027 0.049382001 0.024015695 -0.47109309 0.054749697 0.88038278 0.0018423472
-0.043475673 0.049384747 0.025369728 -0.55612338 0.067112684 0.82838565 0.0048736907
-0.041975714 0.049839944 0.026653448 -0.63251829 0.042568944 0.7733748 0.0020716712
-0.043386105 0.052445542 0.02530768 -0.5892117 0.10237172 0.80146724 0.0052418248
-0.041824605 0.052653432 0.026615597 -0.63018602 0.0943987 0.77068448 0.0038843914
-0.043044824 0.055314682 0.025079349 -0.55595934 0.2552731 0.79104042 0.010205606
-0.041423816 0.055816729 0.026291052 -0.64385301 0.22233248 0.73213506 0.0048639062
-0.042441931 0.058061037 0.024431253 -0.61300629 0.40303671 0.67954743 0.0042940709
-0.040748857 0.058681685 0.025551686 -0.63977945 0.3676559 0.67491585 0.0049373936
-0.0389934 0.059893295 0.026618306 -0.66132396 0.54609358 0.51422995 0.0023497168
-0.039801311 0.060821373 0.024738792 -0.6398707 0.58376068 0.49978888 0.0018252919
-0.037923742 0.061933279 0.025699696 -0.61149555 0.63843316 0.46741453 0.0052551604
-0.036752079 0.06352251 0.024812622 -0.5763396 0.7306236 0.36608997 0.0033249245
-0.034586824 0.064712174 0.025552742 -0.54702681 0.79078114 0.27463955 0.0026521622
-0.032472234 0.06578882 0.026388381 -0.44026777 0.87268585 0.21114852 0.0026789363
-0.031332877 0.06653931 0.025333967 -0.3839156 0.91042441 0.15406573 0.0022357232
-0.028423956 0.067522407 0.025758799 -0.28373477 0.95234102 0.11198768 0.0016717886
-0.025282701 0.068199106 0.025509963 -0.11795659 0.93587333 0.33200499 0.039226599
-0.022680581 0.068462715 0.025160585 -0.040782884 0.98618764 0.1605328 0.0061771185
-0.02007222 0.068320379 0.025444321 0.045017369 0.98548514 0.16368411 0.0059794243
-0.034788005 -0.063341632 0.027316976 -0.63852578 -0.60671693 0.47347587 0.0048309015
-0.036877647 -0.06109434 0.027669221 -0.63850808 -0.60673857 0.47347209 0.00480241
-0.03547091 -0.062315755 0.028115574 -0.63852578 -0.60671693 0.47347587 0.0048309015
-0.026771259 -0.060462415 0.02928758 0.17508261 0.40202546 -0.89873338 0.01698694
-0.039322484 -0.057926111 0.027342077 -0.66538239 -0.43343192 0.6077854 0.0037388625
-0.038334105 -0.058954798 0.027811687 -0.67608219 -0.43604186 0.59395319 0.0023592191
-0.026668534 -0.058727991 0.029304896 -0.18553136 -0.22936162 0.95549536 0.0082826037
-0.040207747 -0.055551972 0.027548702 -0.67232156 -0.25199646 0.69604713 0.0017967976
-0.041058131 -0.052416794 0.027498789 -0.66028988 -0.14244878 0.73737758 0.0022477719
-0.035033751 -0.051824272 0.029362747 -0.35134003 0.030484116 0.93575156 0.01119431
-0.041198496 -0.049344961 0.027648475 -0.64251107 -0.020635523 0.76599854 0.0015916554
-0.035283905 -0.049502045 0.029314145 0.023675878 -0.0085669588 -0.99968302 0.022758378
-0.041121583 -0.046480171 0.027650248 -0.62471104 0.0093838777 0.78079969 0.0013394249
-0.03496499 -0.046559084 0.029279744 -0.079836339 0.069040067 -0.99441427 0.021590447
-0.030121459 -0.045038834 0.029461902 -0.07973773 -0.063351423 -0.99480075 0.01361521
-0.028631594 -0.045182429 0.029527921 -0.18471514 0.20144404 -0.96192551 0.015271563
-0.040747449 -0.043383807 0.02765036 -0.54876661 0.037163772 0.83514911 0.0022967411
-0.033550587 -0.044815782 0.029311724 -0.051075004 0.018921928 -0.99851555 0.023442633
-0.03159805 -0.044898074 0.029396515 -0.064202681 -0.13356908 -0.9889577 0.014859687
-0.026261261 -0.0431365 0.028696369 -0.1266598 0.15847546 -0.97920519 0.011994315
-0.04048796 -0.040896662 0.027590843 -0.50765258 0.062466264 0.85929441 0.0053778836
-0.038814779 -0.039933298 0.028188109 -0.38785675 0.14473405 0.91028523 0.01162209
-0.026540309 -0.041087463 0.029035976 -0.22173114 0.20896737 -0.95245361 0.0077416813
-0.040846795 -0.037673369 0.027526891 -0.53361058 0.051968977 0.84413213 0.011702651
-0.038585573 -0.037613705 0.028161192 -0.33605173 -0.021709112 0.94159329 0.032026786
-0.035696059 -0.036943078 0.028269101 -0.33618551 -0.021685604 0.94154614 0.032007013
-0.026172718 -0.037376035 0.029785387 -0.098508924 0.1825366 -0.97825176 0.0090703256
-0.022684127 -0.036281954 0.029918408 -0.098474704 0.18249962 -0.97826207 0.0090794284
-0.019617431 -0.036517531 0.029488225 -0.098462023 0.18249352 -0.97826451 0.0090668434
-0.040136978 -0.033196833 0.028299805 -0.52167493 0.031109728 0.85257703 0.035864595
-0.038999211 -0.033766914 0.028627057 -0.22658254 -0.046143744 0.9728983 0.021889705
-0.042198297 -0.031569067 0.027380278 -0.7314803 -0.0079337778 0.6818164 0.029255973
-0.040738788 -0.031395361 0.028021568 -0.44410253 0.29503167 0.84600788 0.034565188
-0.040153369 -0.029511394 0.027903078 -0.45419481 0.30483073 0.83712924 0.032797288
-0.037712496 -0.029279515 0.028066628 -0.19266158 0.32190132 0.92696333 0.014312095
-0.035350371 -0.029281583 0.028054237 -0.19268589 0.32190898 0.9269557 0.014303537
-0.032876279 -0.029508056 0.028268281 -0.10020963 0.14317988 0.98461038 0.018524064
-0.04277144 -0.024449363 0.027249198 -0.56911021 -0.27057439 0.7764684 0.010567114
-0.041213639 -0.024308125 0.028024351 -0.40073332 -0.24206728 0.88363808 0.013870936
-0.042874914 -0.022336166 0.027212951 -0.59022409 -0.045374148 0.80596328 0.0047780871
-0.041061703 -0.022310914 0.028088406 -0.55554527 -0.1409824 0.81944704 0.016830711
-0.042945933 -0.01936676 0.027164977 -0.5657568 0.0068630488 0.82454365 0.0031055424
-0.041203987 -0.019299071 0.028034654 -0.51737338 0.0010463048 0.8557592 0.00085117621
-0.042529803 -0.016345028 0.027401406 -0.56039703 0.0042980034 0.82821298 0.0030417882
-0.040631093 -0.01633908 0.028277677 -0.51344097 0.0011033927 0.85812426 0.00067739084
-0.042609513 -0.013400393 0.027352745 -0.55193001 -0.0064271986 0.8338657 0.0025668347
-0.040796671 -0.013345999 0.028222511 -0.41729251 0.023152368 0.90847731 0.0057154768
-0.042688616 -0.010471435 0.027304357 -0.56301302 -0.0036529766 0.82643998 0.0026152648
-0.040959753 -0.010370754 0.028167743 -0.37920898 0.0169889 0.9251551 0.0057366192
-0.03761062 -0.01010174 0.02883862 -0.30225965 0.00040042895 0.95322555 0.001341278
-0.042312924 -0.0074692755 0.027536636 -0.44200683 0.0045728688 0.89700007 0.0032236227
-0.041105546 -0.007419569 0.02811408 -0.37286958 -0.0013874137 0.92788273 0.0051944903
-0.038723968 -0.0072970288 0.028743973 -0.3507711 -0.022930179 0.93618047 0.003134673
-0.042401604 -0.0045647398 0.027487542 -0.54346973 0.014532549 0.83930302 0.0043386952
-0.040210027 -0.0043540546 0.028367251 -0.43688163 -0.0048152409 0.89950615 0.0027557125
-0.042489249 -0.0016758582 0.027438736 -0.5351221 -0.0041893171 0.84476441 0.0044998205
-0.040401593 -0.0014114336 0.028310981 -0.4754965 -0.0022025134 0.87971491 0.00097410334
-0.042584736 0.0014838387 0.027385367 -0.54617149 -0.0070007714 0.83764416 0.0040213414
-0.040587831 0.0015123516 0.02825525 -0.48262873 -0.010718572 0.87575948 0.00095017179
-0.04267931 0.0046256185 0.027332311 -0.55899388 -0.0063833543 0.82914728 0.003854454
-0.040851854 0.0045534279 0.028170515 -0.49969909 -0.0019339912 0.86619693 0.00081574032
-0.042765465 0.0074660345 0.027284328 -0.57099265 -0.0050721411 0.82093954 0.0037230493
-0.040949322 0.0075869123 0.028140645 -0.51073682 -0.00024015675 0.8597371 0.00073529891
-0.042858455 0.010572539 0.027231894 -0.57416648 -0.0038850331 0.81872946 0.0031795921
-0.041088499 0.010442107 0.028088067 -0.57420343 -0.0038817681 0.81870347 0.0031535875
-0.042781468 0.013874187 0.027269648 -0.56478214 0.0059068264 0.82521892 0.0027532529
-0.041169725 0.013436652 0.028059272 -0.56482464 0.0058979299 0.82518989 0.0027319544
-0.04253149 0.016541936 0.027410293 -0.56402659 0.0032552758 0.82575017 0.0027823474
-0.040701639 0.016687369 0.028261449 -0.45276231 0.033765435 0.89099175 0.0043847128
-0.042654585 0.019461436 0.027335443 -0.56374228 -0.0067070127 0.8259235 0.0028339068
-0.040860515 0.019504368 0.028207954 -0.40565667 0.032967336 0.91343081 0.0049103587
-0.038079087 0.020702885 0.028828327 -0.31651771 0.029784402 0.94811893 0.0013134719
-0.042655062 0.022494635 0.02733401 -0.55539894 0.044024471 0.83041793 0.0028015606
-0.041031417 0.022583693 0.028149603 -0.3547453 0.043150198 0.93396676 0.0037249636
-0.038513236 0.02251002 0.028778309 -0.3019796 0.056550141 0.9516356 0.0013882031
-0.042389058 0.025083205 0.027331779 -0.56099063 0.10988185 0.8204971 0.0020800519
-0.040962525 0.025630124 0.027781228 -0.37466401 0.10334702 0.92138284 0.0043827011
-0.038461167 0.02554859 0.028507527 -0.29829621 0.078283466 0.95125765 0.0015414222
-0.042042833 0.027024126 0.027007807 -0.49537417 0.13258186 0.85850251 0.010141282
-0.040917642 0.028532289 0.027543204 -0.43264434 -0.0021243975 0.90156221 0.010585844
-0.038663838 0.028307337 0.028157461 -0.40705076 -0.010971607 0.91333967 0.007370119
-0.042171657 0.03219137 0.027431447 -0.56033462 0.050763387 0.82670921 0.0084820371
-0.04037568 0.031470943 0.028217917 -0.45269963 -0.010946218 0.8915959 0.0073988829
-0.040581744 0.034418225 0.027878201 -0.37506539 0.059729774 0.92507207 0.01170386
-0.038142771 0.0346343 0.028588753 -0.30497676 0.017550008 0.95219815 0.0070602489
-0.035497118 0.034591127 0.028707195 -0.30495763 0.017533872 0.95220453 0.0070693693
-0.026016541 0.034862418 0.029388132 -0.10260624 0.023957446 0.99443352 0.00058367354
-0.040434502 0.037514113 0.027674153 -0.47296345 0.040867474 0.88013375 0.0031336858
-0.027281499 0.037454598 0.029286478 -0.092694417 -0.046910509 0.99458897 0.0022513526
-0.040505681 0.0404636 0.027622836 -0.57700163 0.009919838 0.81668282 0.00084705919
-0.02720415 0.039619669 0.029252687 -0.10318211 -0.026859637 0.99429983 0.002980426
-0.026439412 0.041183472 0.029297698 -0.1031836 -0.026868753 0.99429935 0.0029803135
-0.04093603 0.043625962 0.027529709 -0.5463956 -0.031896431 0.83691961 0.0012529497
-0.041082479 0.046668775 0.027713088 -0.59639275 -0.0050783805 0.80267674 0.0030565637
-0.037929885 0.046938136 0.029303705 -0.5534097 -0.010875231 0.83283818 0.0026038918
-0.041204885 0.049434166 0.027668471 -0.61368221 0.010081587 0.78948879 0.0047979518
-0.038812865 0.049553685 0.029348949 -0.53584415 0.077744208 0.84073001 0.0082706716
-0.041032564 0.052431665 0.02765598 -0.61550117 0.10815921 0.78067917 0.0032503463
-0.037986528 0.052442543 0.029279102 -0.42140821 0.10794366 0.900424 0.011109048
-0.040356904 0.055450082 0.027661713 -0.54152709 0.17599438 0.82205498 0.0089266011
-0.036475513 0.054037943 0.029346639 -0.41266108 0.15691565 0.89726716 0.0089259148
-0.034942534 0.054594368 0.029263049 -0.3281962 0.1899821 0.92530757 0.0037944054
-0.02463848 0.056703266 0.029333878 -0.081727214 0.14152871 0.98655474 0.0043991553
-0.039521977 0.057830717 0.027495258 -0.6624372 0.41984794 0.62040693 0.0047541228
-0.03856777 0.059210293 0.027762039 -0.68964869 0.42759842 0.58441794 0.0028997459
-0.02708178 0.059448928 0.02943207 -0.14443906 0.12343156 0.98178512 0.0049670767
-0.026322931 0.058197875 0.029489277 -0.10353301 0.13607563 0.98527378 0.0036754543
-0.037188154 0.061260562 0.02762044 -0.6442349 0.5953325 0.48014653 0.0059515885
-0.035828907 0.062519945 0.028049985 -0.60945195 0.66076314 0.43813291 0.0041452851
-0.027331568 0.061354686 0.029386848 -0.14438696 0.12348856 0.9817856 0.0049695233
-0.034475747 0.06393782 0.027682099 -0.5564431 0.75627464 0.34412184 0.0037690296
-0.032278452 0.065535828 0.027615473 -0.48728502 0.84314203 0.22729899 0.0060557923
-0.02705227 0.063124694 0.029111678 -0.21464302 0.24422053 0.94566631 0.020625252
-0.025926143 0.064689197 0.02913581 -0.16303453 0.3707689 0.91430312 0.040254992
-0.030749686 0.066359267 0.027616788 -0.2517336 0.79263783 0.55529761 0.072099499
-0.028716734 0.067175366 0.027690331 -0.16946301 0.62380844 0.76298451 0.038356364
-0.025354981 0.06802053 0.027627498 -0.099019706 0.79818481 0.59421897 0.06562642
-0.022984441 0.066883117 0.028714964 -0.033759367 0.79053581 0.61148465 0.057125766
-0.026770983 -0.060462568 0.030141469 0.17508261 0.40202546 -0.89873338 0.01698694
-0.026642429 -0.058604702 0.030116312 -0.18553863 -0.22936448 0.95549327 0.0082785124
-0.035033394 -0.051824462 0.030196344 -0.35159028 -0.010657111 0.93609339 0.0071701095
-0.035161752 -0.049151495 0.030329989 0.023672041 -0.0085655181 -0.99968308 0.022758117
-0.034813296 -0.046497751 0.030367333 -0.010569057 -0.044724405 -0.99894345 0.021788901
-0.033549808 -0.044816189 0.030143242 -0.05108222 0.018932365 -0.99851501 0.023443598
-0.03144462 -0.044977646 0.03023966 -0.064202681 -0.13356908 -0.9889577 0.014859687
-0.026446575 -0.040042125 0.030378142 -0.21924977 0.22132668 -0.95023376 0.0088021765
-0.026139686 -0.037392322 0.030346761 -0.098488398 0.18252064 -0.97825676 0.0090711629
-0.022488629 -0.036376834 0.030491948 -0.098474704 0.18249962 -0.97826207 0.0090794284
