# .PCD v0.7 - Point Cloud Data file format
VERSION 0.7
FIELDS x y z normal_x normal_y normal_z curvature
SIZE 4 4 4 4 4 4 4
TYPE F F F F F F F
COUNT 1 1 1 1 1 1 1
WIDTH 548
HEIGHT 1
VIEWPOINT 0 0 0 1 0 0 0
POINTS 548
DATA ascii
0.039441291 -0.0073570013 -2.7647475e-06 -0.28414738 0.41067445 -0.86637557 0.0031209998
0.041885857 -0.0072134999 -0.0011038139 -0.51537228 0.38110089 -0.7675634 0.003371998
0.061108585 -0.0072533055 -0.00063241657 0.72644275 0.10166688 -0.67966515 0.00061233144
0.062541023 -0.0073678861 0.00082610699 0.72211486 0.063343227 -0.68886697 0.00066599128
-0.064211011 -0.0040792311 0.00076803274 -0.69083881 0.03643249 -0.72209024 0.00059216178
-0.062735334 -0.0043561044 -0.00064317253 -0.67626613 0.075159132 -0.73281318 0.0014367393
-0.046437215 -0.00338588 -0.0014849558 0.61786157 0.3386386 -0.70962733 0.00031265139
-0.044553939 -0.0043854439 -0.00024463166 0.55631638 0.34909531 -0.75408524 0.0033670445
-0.042004079 -0.005224911 0.00080062228 0.30635008 0.4122951 -0.85799915 0.0031288525
-0.032580905 -0.0057256627 0.0010658597 -0.069635674 0.44836575 -0.89113349 4.4481316e-05
-0.029432289 -0.0054805498 0.00090951181 -0.079959877 0.46410352 -0.88216466 9.7670629e-05
-0.02636471 -0.0052842167 0.00074436713 -0.092078239 0.48422351 -0.87008578 0.00014945367
-0.023449428 -0.0049425275 0.00059401977 -0.10615724 0.50002497 -0.8594799 8.0012273e-05
-0.020404696 -0.0047017364 0.00034650241 -0.11525961 0.51466888 -0.84960657 5.3845197e-05
-0.017464448 -0.0043482063 0.00016087445 -0.10863073 0.53008556 -0.84095705 9.1805639e-05
-0.014482787 -0.0043072202 -0.00017854117 -0.10358039 0.544159 -0.83256352 5.3626827e-05
-0.011479015 -0.0043879468 -0.00058164541 -0.086210772 0.55567801 -0.8269158 8.2916253e-05
-0.0086206328 -0.0042284573 -0.00074763189 -0.064177983 0.57166427 -0.81797373 4.0807186e-05
-0.0055880141 -0.0041279988 -0.00090494723 -0.042546146 0.5800814 -0.81344658 4.3847165e-05
-0.002682433 -0.0040691206 -0.00097233558 -0.0052912612 0.58376914 -0.8119024 0.00011553071
0.00032044994 -0.0040694526 -0.00090455258 0.047402736 0.57826328 -0.81447196 0.00018411837
0.0033623613 -0.0042958371 -0.00075855397 0.08745224 0.57410526 -0.81409782 5.0797426e-05
0.0063339509 -0.004344604 -0.00045383268 0.089905672 0.55949503 -0.82394308 4.7869205e-05
0.0093478775 -0.0043465546 -0.0001178775 0.092696331 0.54779673 -0.8314603 5.6372301e-05
0.012325599 -0.004387327 0.00015971356 0.085600801 0.52739704 -0.84529573 0.00010798854
0.015380855 -0.0046232492 0.00031606772 0.082810812 0.51028901 -0.85600674 9.2538976e-05
0.018314332 -0.0047928942 0.00046303181 0.073533773 0.49525863 -0.86562788 8.6293658e-05
0.021361277 -0.0049427156 0.00061868515 0.068011738 0.48086101 -0.8741551 5.5060369e-05
0.024438212 -0.0051743533 0.00071736786 0.064383969 0.46924555 -0.88071752 2.9925675e-05
0.027359411 -0.0053745797 0.00082304992 0.065637432 0.45960182 -0.88569629 1.6105474e-05
0.030209227 -0.0055418615 0.00095462252 0.074089423 0.45058355 -0.88965458 1.8162307e-05
0.032686632 -0.0057258392 0.0010844962 0.066745065 0.44139704 -0.89482605 6.3595173e-05
0.039918911 -0.0052252524 0.00084549107 -0.2958568 0.41467866 -0.86052912 0.0031417201
0.042472761 -0.0043858979 -0.00016271439 -0.52615196 0.36125264 -0.76984447 0.0037920447
0.044390284 -0.0036128596 -0.0015133723 -0.61674219 0.33295777 -0.71327984 0.00045966852
0.060682807 -0.004344916 -0.00068969838 0.67373604 0.073848255 -0.73527288 0.0014531437
0.062328193 -0.0041342359 0.00086936203 0.68270302 0.033927895 -0.72990787 0.00052404258
-0.064186655 -0.0013381731 0.00078922359 -0.63388747 -0.014504866 -0.77328926 0.00082891592
-0.062578887 -0.0012878818 -0.00058527046 -0.60536373 0.00063454121 -0.79594868 0.0013687992
-0.060984913 -0.00052420906 -0.0017604186 -0.58691478 0.041035324 -0.80860817 0.0034933568
-0.046991825 -0.0011699558 -0.0010695095 0.62339681 0.29497179 -0.7241326 0.00053159264
-0.045300696 -0.0015097813 0.00042010553 0.62080789 0.28676513 -0.72963232 0.00042697668
-0.014480981 -0.002434918 0.0010327693 -0.087446809 0.54255986 -0.83545303 5.2708081e-05
-0.011338851 -0.0021909487 0.00087001722 -0.076721571 0.5566445 -0.82720047 5.4308344e-05
-0.0083373282 -0.0020970921 0.0007024064 -0.058680445 0.56800705 -0.82092917 4.9411086e-05
-0.005428466 -0.0018861676 0.00067648536 -0.039953176 0.57583863 -0.81658661 3.8204471e-05
-0.0026882933 -0.0018861685 0.00058678642 -0.0025686689 0.57852066 -0.8156637 0.00011022871
0.00024459744 -0.0019184173 0.00063599146 0.046994548 0.57571453 -0.8162992 0.00014743562
0.0033398382 -0.0021603939 0.00074435037 0.076926902 0.56933963 -0.81849527 4.0395182e-05
0.006082735 -0.002297628 0.00091309554 0.080070667 0.5569635 -0.8266682 5.9195314e-05
0.0088278539 -0.002434965 0.0010812526 0.076720886 0.54313833 -0.8361308 5.0779821e-05
0.043221995 -0.001509691 0.00052544184 -0.61862719 0.28929082 -0.73048699 0.00051397108
0.045054637 -0.0011969387 -0.0011054217 -0.58238727 0.29840201 -0.75616223 0.0032791351
0.058889624 -0.00025192014 -0.0018032446 0.57649547 0.062542267 -0.81470329 0.0028812098
0.060402669 -0.0013402499 -0.00073877571 0.60585403 0.032533769 -0.79491037 0.0026388618
0.062235963 -0.0012774529 0.00082131021 0.65230638 -0.016087446 -0.75778472 0.0005155995
-0.064653859 0.0014034349 0.00098740321 -0.62264889 -0.10113797 -0.7759378 0.00084280298
-0.062758699 0.0016181413 -0.00052032655 -0.54015803 -0.07262487 -0.83842403 0.0030065966
-0.060994051 0.0016559251 -0.0016941135 -0.48051172 -0.044038408 -0.87588191 0.0034501543
-0.049547229 0.0024733732 -0.0017115627 0.39594725 0.23738387 -0.88705951 0.006530493
-0.047768071 0.001622636 -0.00073442317 0.58289987 0.22075859 -0.7819804 0.003078633
-0.045841545 0.0011680477 0.00087491132 0.63683206 0.21997918 -0.73895466 0.00087176933
0.043801006 0.00096445571 0.00089300133 -0.63863492 0.22218212 -0.73673636 0.00080722349
0.045605451 0.0015505833 -0.00061077101 -0.59028286 0.2195586 -0.77676255 0.0030664352
0.047383428 0.0026565555 -0.0015626752 -0.41355288 0.21154383 -0.88556385 0.0064955009
0.058895186 0.0016553763 -0.0017628525 0.52404618 -0.043560095 -0.85057521 0.0045162626
0.060611445 0.0016643672 -0.00064339244 0.55743039 -0.077295125 -0.8266176 0.0036463258
0.062449347 0.0012196292 0.00082351232 0.62061787 -0.1004286 -0.77765524 0.00083529559
-0.064971752 0.0046871197 0.00056383002 -0.59314954 -0.20109147 -0.7795741 0.0008818644
-0.062827662 0.0045555504 -0.00091512105 -0.48839989 -0.1827358 -0.85327202 0.0045734956
-0.060978077 0.0035619875 -0.0018099799 -0.4242534 -0.098388746 -0.9001826 0.0035657482
-0.049761295 0.004748533 -0.0014187963 0.45705906 0.11341822 -0.88217533 0.006484176
-0.047579985 0.0044831713 8.8077504e-05 0.64521396 0.13780226 -0.75147152 0.0016332086
0.045542225 0.0044756294 0.00013552059 -0.64855939 0.14145416 -0.74790466 0.0015016336
0.047678877 0.004749483 -0.001356521 -0.46407753 0.11328463 -0.87852079 0.0062504252
0.06078244 0.0045277849 -0.00094966759 0.49273878 -0.19019882 -0.84913659 0.0040894011
0.062941618 0.00457749 0.00056523539 0.59336728 -0.19842459 -0.78009164 0.00096128834
-0.067386046 0.0085307341 0.00092417456 -0.59377474 -0.31331804 -0.74112308 0.00045421658
-0.065432839 0.0076078009 -0.00013251801 -0.53547269 -0.29879728 -0.78992987 0.0008313859
-0.063258395 0.0070658429 -0.0014232253 -0.46581513 -0.27682957 -0.84046519 0.0045034923
-0.049865026 0.0076594586 -0.0013031802 0.50906837 0.0018984231 -0.86072403 0.0055669108
-0.047847178 0.0074195019 0.0002301858 0.68759388 0.044438221 -0.72473437 0.0022712471
0.04580684 0.0073629259 0.00028426701 -0.68832141 0.04821457 -0.72380167 0.0023730982
0.047816578 0.0076011401 -0.0012554494 -0.5087356 -0.00071340083 -0.86092252 0.005090022
0.061289299 0.0070570367 -0.0014077141 0.43637592 -0.31936461 -0.84117913 0.0039087944
0.063385308 0.0076321196 -0.00020051433 0.5335995 -0.32301247 -0.78162301 0.0012445587
0.065302894 0.0082574841 0.00096527196 0.59466875 -0.31325743 -0.74043149 0.0003451735
-0.06798628 0.010734708 0.00031850359 -0.59094363 -0.34738052 -0.7280882 0.00027950873
-0.065946728 0.010213635 -0.00097018026 -0.53601176 -0.36084473 -0.76320541 0.0009407425
-0.04955608 0.010582302 -0.0012801564 0.56525344 -0.081947066 -0.8208369 0.0043533868
-0.047853384 0.010431743 0.00028909824 0.72753066 -0.026003079 -0.68558222 0.0021741081
0.046019733 0.010426896 0.00011830812 -0.6869449 -0.025449704 -0.7262637 0.002735802
0.047542192 0.010500856 -0.001239325 -0.65734261 -0.075503245 -0.74979997 0.0032525635
0.063946314 0.010193994 -0.0010240867 0.56902176 -0.36513025 -0.73681343 0.00011630511
0.065945074 0.010733389 0.00032201561 0.59253985 -0.34728986 -0.72683311 0.00021071022
-0.070336059 0.013791627 0.00085654703 -0.62858063 -0.33113813 -0.70372856 7.8012468e-05
-0.068564646 0.013507796 -0.00055213657 -0.60194129 -0.3520028 -0.71677107 0.00028778723
-0.06682355 0.012831905 -0.0015868002 -0.58499599 -0.3614018 -0.72606373 0.00020601427
-0.049369734 0.013176494 -0.0014682329 0.65857178 -0.093378916 -0.7467019 0.0050757662
-0.047990866 0.01357188 -8.803932e-05 0.74034315 -0.043570068 -0.67081559 0.0014204056
0.045795228 0.01349667 0.0001777251 -0.76234096 -0.054440625 -0.64488178 0.00091057428
0.047221672 0.01365668 -0.0013828629 -0.70516288 -0.095791355 -0.70254481 0.0022373467
0.064629667 0.012556454 -0.0016775682 0.58801931 -0.36190102 -0.72336775 0.00016269692
0.066464551 0.013505309 -0.00062153977 0.60523307 -0.35221058 -0.71389127 0.00023397089
0.068228059 0.013787425 0.00073910819 0.62556666 -0.33286789 -0.70559579 0.00010406727
-0.071115725 0.016661005 0.00024669582 -0.6540814 -0.31774035 -0.68645358 0.00012554607
-0.069430046 0.016206147 -0.0011010515 -0.63642925 -0.32616511 -0.69898081 0.00012507029
-0.048019227 0.016473884 -0.00035606022 0.75382459 -0.041233104 -0.65578067 0.0015192667
0.045908 0.016512008 -0.0001840716 -0.77211678 -0.024436017 -0.6350106 0.00072686822
0.04694815 0.015565468 -0.0013916745 -0.7457574 -0.066908404 -0.66284937 0.001140961
0.067425422 0.016123485 -0.0010711316 0.63630944 -0.32577923 -0.69926977 0.0001127279
0.069078416 0.016692758 0.00019151915 0.65003741 -0.31039098 -0.69362009 0.00015285845
-0.073426142 0.02032136 0.00097895123 -0.70472765 -0.27068734 -0.65581042 9.9495832e-05
-0.071585238 0.019472118 -0.00053346087 -0.66494411 -0.29803923 -0.68485177 6.9177113e-05
-0.069693349 0.018272219 -0.0018246426 -0.63956445 -0.32284486 -0.69765931 0.00022641727
-0.048094723 0.01954451 -0.0005670134 0.78847665 -0.02017884 -0.61473358 0.0010929701
0.04600409 0.019494144 -0.00040510646 -0.78361237 -0.0046424111 -0.62123269 0.00091305742
0.069591448 0.019424578 -0.00053006609 0.67408174 -0.29508677 -0.677154 0.00019620157
0.071312517 0.020313932 0.00083241321 0.69572735 -0.2804043 -0.66131461 0.00015688642
-0.073697075 0.02275162 0.00032342633 -0.70562023 -0.2629717 -0.65798634 6.6299923e-05
-0.072224386 0.022218408 -0.0010631585 -0.68672502 -0.27202293 -0.67410105 0.00011755094
-0.047998291 0.022537889 -0.00035487092 0.81108749 0.017968308 -0.58464879 0.00060339592
0.045973435 0.022443242 -0.00030059449 -0.81955171 0.036599997 -0.57183522 0.00010356139
0.070144251 0.02212372 -0.0011328766 0.68374395 -0.27271801 -0.67684484 0.0001411945
0.071658455 0.022639122 0.00027376472 0.70315212 -0.26428342 -0.66009957 0.00013769476
-0.074196279 0.025575127 -0.00024746405 -0.71949232 -0.24564314 -0.64960772 8.0279613e-05
-0.072809987 0.025184421 -0.0016473188 -0.70874029 -0.25396836 -0.65816957 5.8635331e-05
-0.048234753 0.025439637 -0.00046987832 0.82543766 0.057227179 -0.56158501 0.00033234217
0.046194442 0.02538766 -0.00039011415 -0.82449543 0.05907369 -0.56277663 0.0003995946
0.046950765 0.026747173 -0.0013679668 -0.83189833 0.075419456 -0.54977918 0.00020122061
0.070726134 0.024823178 -0.0016142084 0.69722563 -0.25529474 -0.66985154 8.3920349e-05
0.072262019 0.025570314 -0.00021925429 0.72158676 -0.24324369 -0.64818591 5.9261267e-05
-0.076119378 0.029074607 0.00069659657 -0.7457757 -0.21934299 -0.6290527 2.509321e-05
-0.074772961 0.028314255 -0.00060835527 -0.73165637 -0.22772563 -0.64251077 9.6243981e-05
-0.04906382 0.029489679 -0.0011533751 0.83819491 0.087963484 -0.53823024 0.00025769765
-0.04824635 0.028436152 -5.3247903e-05 0.84162259 0.10224932 -0.53029847 7.8175384e-05
0.046096008 0.028355079 0.00019224256 -0.84014344 0.10289966 -0.5325135 9.6311749e-05
0.047114242 0.028894732 -0.0012974523 -0.83247751 0.087017268 -0.54718292 0.00020015865
0.072843224 0.028387997 -0.00060326455 0.7357409 -0.22584081 -0.63849932 4.1280608e-05
0.074156091 0.028807515 0.00079225155 0.74587756 -0.21879141 -0.62912399 0
-0.076815829 0.03177188 0.0006490607 -0.76183695 -0.19830228 -0.616669 0.00013014386
-0.075423837 0.03141753 -0.00091080944 -0.74617302 -0.19998214 -0.63500625 4.4678549e-05
-0.049358249 0.031546481 -0.0011803571 0.83914167 0.12343225 -0.52972227 0.00014111289
-0.048407283 0.031514149 0.00034288631 0.84575027 0.13497572 -0.51622474 0.00012133141
0.046334479 0.031525861 0.00049586443 -0.8481968 0.13392293 -0.51247126 0.00010209325
0.047328327 0.031553164 -0.0010904733 -0.83810192 0.12263421 -0.53155059 0.0001252932
0.073326163 0.031272911 -0.0010208988 0.74486548 -0.19997044 -0.63654321 4.4007462e-05
0.074758261 0.031734925 0.00055013306 0.76131022 -0.19830412 -0.61731863 4.8727419e-05
-0.076988555 0.034662325 1.9968138e-05 -0.7620253 -0.17341772 -0.62389404 0.00012123666
-0.075772598 0.034113348 -0.0013231053 -0.74737102 -0.17463218 -0.64104623 5.8604404e-05
-0.049619682 0.034605194 -0.00075041607 0.84129375 0.15922292 -0.51659745 0.00010589798
-0.048647299 0.034363858 0.00074971176 0.84875906 0.1651603 -0.50232476 4.77543e-05
0.046639107 0.034287777 0.00077580672 -0.84864169 0.16726996 -0.50182474 0.00011235898
0.047547426 0.03452621 -0.00061507861 -0.83996195 0.15983981 -0.5185703 0.00012311123
0.0736669 0.033832986 -0.0014180794 0.74715847 -0.17316867 -0.64169049 0.00014039739
0.074919105 0.034624733 -0.00010169216 0.76027775 -0.17110787 -0.62665766 1.5595311e-05
-0.077233449 0.037600674 -0.00046107161 -0.76932818 -0.13282812 -0.62489265 0.00034194411
-0.050032794 0.037552129 -0.00044241094 0.84115869 0.18467455 -0.50827897 0.00011570347
0.048084226 0.037515745 -0.00049412239 -0.84166026 0.19209114 -0.50468707 5.5509074e-05
0.075279854 0.037468843 -0.00040808646 0.76680255 -0.13454756 -0.62762308 0.00016772111
-0.07758531 0.040545989 -0.00050540257 -0.78704011 -0.042989515 -0.61540216 0.00054459705
-0.050711501 0.040526144 -0.00039630674 0.83546901 0.21899453 -0.50401688 0.00010131794
0.048687551 0.040548466 -0.00026683125 -0.83622706 0.22490251 -0.50014311 7.9302328e-05
0.075725779 0.040650241 -0.00035045797 0.7944845 -0.031551968 -0.60646427 0.00074374425
-0.077489041 0.043556195 -0.00067685463 -0.80421042 0.030835561 -0.59354419 0.00068411668
-0.052437712 0.044190109 -0.0014623507 0.80735415 0.25893569 -0.53021842 0.0002725214
-0.051328927 0.043366551 -0.00011590857 0.82763076 0.25695732 -0.4989993 0.0001838552
0.049327984 0.043445915 -5.4577831e-06 -0.8283124 0.25254866 -0.50011772 0.00017476358
0.050397545 0.044011809 -0.0014302337 -0.81341511 0.25416055 -0.52321929 0.00015938534
0.075528316 0.043455157 -0.00065942819 0.80683607 0.026309099 -0.59018934 0.00041197261
-0.077447586 0.046520505 -0.0002768928 -0.8199923 0.15549769 -0.55084759 0.0014293825
-0.052847676 0.046844304 -0.00058731542 0.80235362 0.33003128 -0.49730071 0.0004584495
-0.051800717 0.045857348 0.00048744644 0.81057358 0.3322337 -0.48227707 0.00040610306
0.049686208 0.045667142 0.00058619829 -0.81270552 0.31952786 -0.48724914 0.00053095742
0.050860845 0.046802647 -0.00058509118 -0.80308193 0.33252713 -0.4944545 0.00053395209
0.075459138 0.046442755 -0.00032421295 0.82052594 0.14815818 -0.55207455 0.0013197948
-0.076842174 0.04930139 -0.00019302813 -0.8028844 0.27803808 -0.5273248 0.0018739386
-0.075558297 0.05045462 -0.0015133673 -0.75781202 0.29272217 -0.58312488 0.0033493477
-0.05556095 0.050994292 -0.0015597596 0.67035437 0.50604665 -0.5427171 0.0019061558
-0.053925369 0.049441662 -0.00036672712 0.76367652 0.40489814 -0.50284749 0.001088114
0.051918551 0.049437601 -0.00031230703 -0.75625068 0.41412407 -0.50654334 0.00092970167
0.053303726 0.050644398 -0.0014475142 -0.70679611 0.4730013 -0.52603137 0.0022754713
0.073636301 0.050172269 -0.0015963271 0.73725003 0.26590756 -0.62109226 0.0019504739
0.074702159 0.049267169 -0.00048442034 0.79606849 0.28277615 -0.53508186 0.0019999635
-0.076384954 0.05181057 0.00064774312 -0.78228521 0.4380143 -0.44291455 0.0028090037
-0.074966982 0.05274608 -0.00063342543 -0.70281994 0.45897806 -0.54349178 0.003234992
-0.056177732 0.05275872 -0.00053311349 0.69504082 0.53605956 -0.47912258 0.0023569395
-0.054541722 0.051428128 0.00050696183 0.72106481 0.50412095 -0.47531858 0.0012522636
0.052474178 0.051449902 0.00068539835 -0.72358888 0.49968755 -0.47616342 0.0010493085
0.054221209 0.052724916 -0.0005851551 -0.69792736 0.53314042 -0.47818264 0.0022420378
0.072865985 0.052772582 -0.00078432052 0.70019013 0.45932111 -0.54658753 0.0032252434
0.074245155 0.051774621 0.00035514391 0.77046299 0.43728626 -0.4638617 0.0020622876
-0.073656656 0.055171993 9.8223099e-06 -0.63047624 0.56870162 -0.52827853 0.0027534757
-0.071897045 0.055817887 -0.0010667994 -0.42682847 0.667799 -0.60980493 0.0042011761
-0.069194078 0.056994379 -0.0015352025 -0.25354797 0.7279743 -0.63699824 0.0069556674
-0.062109396 0.056670394 -0.0015118197 0.26584363 0.75989622 -0.59319878 0.0040275734
-0.059355758 0.055733528 -0.00062957348 0.48447266 0.69639665 -0.52945071 0.0044896626
-0.057591945 0.054843694 9.2659961e-05 0.58079231 0.66615814 -0.46788213 0.0023141089
0.055433746 0.054701921 0.00012626511 -0.61366034 0.63025552 -0.47560385 0.0019871001
0.057297286 0.055698041 -0.00057602965 -0.48921484 0.69474369 -0.52725703 0.0039763586
0.060030688 0.056680668 -0.0014355376 -0.27561513 0.76046467 -0.58798802 0.0040564323
0.067388304 0.057003967 -0.0014643922 0.22669952 0.74536383 -0.62692904 0.0063331029
0.069867693 0.055880964 -0.0010293925 0.49566221 0.6451183 -0.58149922 0.0051201996
0.071642518 0.055142209 -6.7441841e-05 0.6383037 0.57503265 -0.51176727 0.0028734745
-0.070844807 0.057603754 0.00026714255 -0.42179543 0.74592835 -0.51544112 0.0033290444
-0.06839253 0.058184579 -0.00020538387 -0.22524732 0.79882061 -0.55780751 0.0063450104
-0.065542541 0.058240231 -0.00041430211 0.041071143 0.82345295 -0.56589615 0.0042829406
-0.062557012 0.057775363 -0.00011990394 0.31284159 0.81984526 -0.47956631 0.0041542421
-0.060484625 0.057279713 0.00057277537 0.41419598 0.76059169 -0.49994197 0.0033219962
0.058412272 0.057296671 0.00069809414 -0.46620336 0.77650142 -0.42391035 0.003352731
0.060479239 0.057786662 -3.7243823e-05 -0.32452768 0.81534374 -0.47947502 0.0039575445
0.063543864 0.058194771 -0.00049581483 -0.048709437 0.82449317 -0.56377161 0.0045659258
0.066294774 0.058177166 -0.00025933981 0.21123193 0.80273944 -0.55766517 0.0067557241
0.068733081 0.057584733 0.00012744928 0.3941958 0.73863685 -0.5468322 0.0042661703
-0.056388784 -0.045389976 0.0028402107 -0.23085597 -0.86676276 -0.44207221 0.0065853647
-0.05361177 -0.04565445 0.0023314576 -0.11093488 -0.85452324 -0.50742835 0.0061288145
-0.050561838 -0.045901719 0.0024518594 -0.037592113 -0.86789435 -0.49532422 0.0086765047
-0.047397759 -0.045694973 0.0024426365 0.14856328 -0.89298302 -0.42486516 0.006388736
-0.044550631 -0.045393787 0.0028786347 0.2387041 -0.87903512 -0.41269553 0.0059734695
0.042717192 -0.045373924 0.0026780041 -0.20303002 -0.89080012 -0.40651432 0.0071912357
0.045314055 -0.045700375 0.002496683 -0.15628833 -0.89549118 -0.41673672 0.0069835638
0.048472323 -0.04590163 0.0024509416 0.034051593 -0.86371708 -0.50282532 0.008080232
0.051500078 -0.045720961 0.0024737464 0.10403641 -0.85008311 -0.51627046 0.0054700254
0.054280084 -0.04537484 0.002687362 0.21488175 -0.85322267 -0.475223 0.0057774126
-0.059910446 -0.043723367 0.0017911907 -0.56837344 -0.72983056 -0.37986723 0.016360518
-0.057318326 -0.04470928 0.0015101776 -0.2235546 -0.86286557 -0.45330599 0.0060281153
-0.043858305 -0.044700306 0.0014183567 0.20395197 -0.87112826 -0.44669807 0.0075604985
-0.041423298 -0.044041917 0.0020283987 0.55929297 -0.74273556 -0.36815116 0.034395549
-0.040020078 -0.043057911 0.0014614608 0.63806701 -0.67884523 -0.36337256 0.038037434
0.037921336 -0.042773411 0.0013563529 -0.62518984 -0.68054169 -0.38210037 0.032063447
0.039264239 -0.043991987 0.0020368025 -0.57829779 -0.73307335 -0.35801566 0.034204539
0.041775003 -0.044706419 0.001480892 -0.21494426 -0.87279183 -0.43821624 0.0083409781
0.055220626 -0.044702955 0.0014455662 0.20372127 -0.85477686 -0.47734073 0.005117293
0.057808399 -0.043714207 0.0016963481 0.5190298 -0.72860217 -0.4469305 0.015599829
-0.06239846 -0.040541757 0.0025046365 -0.81480974 -0.47324252 -0.3348532 0.010747563
-0.038868845 -0.040104561 0.0026701353 0.84167743 -0.4254072 -0.33257747 0.026648236
0.037169337 -0.040485401 0.0021855282 -0.85972452 -0.38544679 -0.33511877 0.013146701
0.060275581 -0.040521596 0.0022681626 0.84940833 -0.43150127 -0.30382901 0.019348735
-0.063524537 -0.037635684 0.0022961721 -0.90719056 -0.30410638 -0.29073101 0.0032786198
-0.038100481 -0.037607022 0.0024181674 0.74285728 -0.5144518 -0.42837185 0.034122568
-0.035490502 -0.036608431 0.003203983 0.093874112 -0.71925884 -0.68837076 0.01321279
-0.032459259 -0.03660842 0.0032038316 0.00081329321 -0.71589249 -0.69821012 0.0014903126
-0.029602809 -0.036646176 0.0032454589 0.00042984489 -0.71554399 -0.69856751 0.0015334153
-0.026588826 -0.036572777 0.0031631952 -0.055736419 -0.72681582 -0.68456721 0.0061499379
-0.023550792 -0.03687137 0.0022512008 -0.1149996 -0.7876423 -0.60530549 0.0075202482
-0.020552041 -0.037055235 0.0019032835 -0.084453024 -0.81316656 -0.57587129 0.0086825686
-0.017529769 -0.037055217 0.0019030914 -0.018668348 -0.82776189 -0.56076896 0.0067430399
-0.014507505 -0.03705522 0.0019030914 -0.01247042 -0.83415735 -0.55138552 0.0060412162
-0.011485241 -0.037055217 0.0019030914 -0.0026619108 -0.83776242 -0.54602838 0.0059617767
-0.0084629776 -0.03705522 0.0019030914 -0.0023448281 -0.83739173 -0.5465982 0.0059380475
-0.0054407138 -0.037055217 0.0019030914 -0.0010769594 -0.83756649 -0.54633421 0.0060928334
-0.0026932007 -0.037055217 0.0019030914 -0.0016219126 -0.83734494 -0.54667246 0.0060911621
0.00032906327 -0.03705522 0.0019030914 1.2211694e-05 -0.83757269 -0.54632586 0.005933064
0.003351327 -0.03705522 0.0019030914 0.002053905 -0.83758563 -0.54630226 0.0059246458
0.0063735908 -0.03705522 0.0019030914 0.0021328856 -0.83757448 -0.54631907 0.0059340089
0.0093958536 -0.037055217 0.0019030914 0.0022031891 -0.83757478 -0.54631823 0.0059184628
0.012418118 -0.03705522 0.0019030914 0.0076488107 -0.83585221 -0.54890132 0.0059311385
0.015440383 -0.037055217 0.0019030914 0.018252747 -0.82887536 -0.5591355 0.0067208856
0.018462656 -0.037055239 0.0019032835 0.086695626 -0.81520563 -0.57264614 0.0084577221
0.021461418 -0.036871389 0.0022513773 0.11439728 -0.7879039 -0.60507905 0.007460935
0.024408149 -0.036570646 0.0031614574 0.055856615 -0.75845724 -0.64932477 0.0048935846
0.027422091 -0.036643911 0.0032429337 4.1725663e-05 -0.74778563 -0.66394031 2.4897208e-05
0.030369872 -0.03660842 0.0032038316 1.1921808e-05 -0.74851012 -0.66312331 3.6686382e-05
0.033401117 -0.036608439 0.0032040458 -0.092361845 -0.75311083 -0.6513781 0.012392532
0.036073517 -0.037611861 0.0024438668 -0.73576337 -0.5315007 -0.41971323 0.035382066
0.060751311 -0.037492525 0.0022265809 0.91833794 -0.23192145 -0.32073015 0.020409582
0.062392745 -0.036087543 0.0036005126 0.76223415 -0.030501064 -0.64658242 0.0096226521
-0.064457797 -0.034189928 0.0027935305 -0.90957958 -0.18114725 -0.37396616 0.00016628303
-0.063630536 -0.035650045 0.001501073 -0.91084212 -0.19837122 -0.3619608 0.00037877096
-0.037280466 -0.035102822 0.0015235291 0.5515334 -0.58085454 -0.59868097 0.021401104
-0.035633381 -0.035102822 0.0015235291 0.1587529 -0.70942575 -0.6866678 0.013468977
-0.032613784 -0.035102874 0.0015242022 2.8736471e-05 -0.74467254 -0.66742998 0
-0.029594161 -0.035102911 0.0015246765 -1.8802632e-05 -0.74460304 -0.66750759 0
-0.026574457 -0.035102844 0.0015238122 -0.088703148 -0.72277713 -0.68536496 0.0041529676
-0.024652846 -0.035102822 0.001523544 -0.168558 -0.69608301 -0.69789439 0.003185116
0.022563461 -0.035102822 0.0015235291 0.16921923 -0.69264328 -0.70114917 0.0033648084
0.02448507 -0.035102837 0.0015237179 0.090806246 -0.7227782 -0.68508828 0.0043157325
0.027504776 -0.035102911 0.0015246765 3.1738848e-05 -0.74458766 -0.6675247 3.1958646e-06
0.030524435 -0.035102911 0.0015246765 -3.4235472e-05 -0.74462974 -0.66747773 0
0.033544004 -0.035102833 0.0015236452 -0.15229477 -0.70801115 -0.68958431 0.012156619
0.035191078 -0.035102822 0.0015235291 -0.51835275 -0.64619035 -0.5601325 0.023388358
0.061080419 -0.034555234 0.0027705231 0.75035185 0.0059795147 -0.66101158 0.010001055
0.062633149 -0.034689285 0.0033540176 0.75030994 0.0060354364 -0.66105872 0.010002302
-0.06498047 -0.031410411 0.0027570957 -0.90494925 -0.15367787 -0.39679974 0.00051169883
0.061761718 -0.031637844 0.0030448721 0.82179201 -0.015268243 -0.569583 0.012000129
0.062439378 -0.030040311 0.0039241062 0.86084193 -0.11011996 -0.49681458 0.013245203
-0.06529332 -0.028538391 0.0024380004 -0.90436393 -0.11849025 -0.40998283 0.00015149334
0.062352631 -0.028899502 0.0033221887 0.86285806 -0.11093037 -0.49312311 0.013609523
-0.065712556 -0.025552457 0.0025876299 -0.89317381 -0.096490175 -0.43923828 0.00032752089
0.062992088 -0.026176305 0.0039286958 0.90682471 -0.13442945 -0.39949664 0.023081765
-0.066099815 -0.022530664 0.0027233534 -0.88328588 -0.077734843 -0.46234545 0.00057566946
-0.066256687 -0.019496592 0.0025464464 -0.86809498 -0.058752906 -0.49290904 0.0011094104
0.063759513 -0.019460695 0.0016522453 0.90001065 -0.067280397 -0.43064404 0.0089584924
-0.06728258 -0.016238283 0.0038818107 -0.83822232 -0.052628167 -0.54278332 0.00081404136
-0.066228732 -0.016463453 0.0023588561 -0.82568955 -0.00078505045 -0.56412429 0.0006128159
0.064100392 -0.016454665 0.0020965012 0.80083412 0.01251621 -0.59875542 0.00023564186
0.065140218 -0.015399272 0.0035295384 0.88702822 -0.074144974 -0.45572302 0.011049709
-0.06724938 -0.013472306 0.0036610588 -0.7997492 -0.024716876 -0.59982538 0.0011555539
-0.066064015 -0.013295957 0.0021737809 -0.79093897 0.021341586 -0.61152273 0.00047423629
0.06411235 -0.013433195 0.0021773414 0.78372252 0.030821098 -0.62034589 0.00024696378
0.065131381 -0.013467284 0.0034707892 0.7728166 0.017671928 -0.63438332 0.00026076083
-0.067257039 -0.010438956 0.0037119933 -0.76233244 -0.0067286119 -0.64715064 0.00066147908
-0.065928072 -0.010409097 0.0021832353 -0.75782156 0.030952845 -0.65172726 0.00031462667
0.063900694 -0.010271068 0.0021382598 0.7572946 0.037362754 -0.65200388 0.00040236532
0.065146036 -0.01043618 0.0035682167 0.75224805 0.010749637 -0.65879232 0.00038066719
-0.067257755 -0.0074042547 0.0037167417 -0.7254135 -0.011202429 -0.68822217 0.00046853209
-0.065947756 -0.0073866346 0.0023167478 -0.72410816 0.025158398 -0.6892274 0.00055265735
0.063836843 -0.0073848036 0.0021711513 0.72640198 0.035987414 -0.68632716 0.0003929949
0.065147251 -0.0074024894 0.003576301 0.71826887 -0.0063951886 -0.69573629 0.00024838705
-0.067333587 -0.0041722176 0.0036963057 -0.68598604 -0.036276851 -0.72670978 0.00049077871
-0.065679811 -0.0043008383 0.0021191845 -0.68268067 -0.0016722643 -0.73071486 0.00065149623
-0.043295301 -0.0029839138 0.0012700603 0.52901149 0.34470409 -0.77545208 0.0034207159
-0.041265834 -0.0038085456 0.0017173215 0.28968197 0.39868718 -0.87013388 0.0031213996
-0.038563259 -0.0044334084 0.0019354929 0.094182275 0.42874488 -0.89850289 0.001581214
-0.035613075 -0.0043141455 0.0019397204 -0.033535175 0.43955466 -0.89758956 9.4877723e-05
-0.032591484 -0.0041215802 0.0018708495 -0.059696097 0.44628343 -0.89289832 7.4053991e-05
-0.029661803 -0.003874003 0.0017597125 -0.065227814 0.46227726 -0.88433307 7.2250194e-05
-0.026700389 -0.0036906458 0.0016645849 -0.075486906 0.47836035 -0.87491322 0.00010287468
-0.023655485 -0.0033338417 0.0015397497 -0.091348171 0.49301207 -0.86521363 8.7265827e-05
-0.020802615 -0.0031213195 0.0013645374 -0.10144012 0.51085335 -0.85366195 6.3385414e-05
0.01376655 -0.0029836157 0.0011546955 0.071217649 0.52218455 -0.84985375 7.7376193e-05
0.01541759 -0.0029839734 0.0012938544 0.066969156 0.51167065 -0.8565678 5.3074767e-05
0.018660087 -0.0032037238 0.0014055566 0.060097255 0.49796569 -0.86511189 4.1785279e-05
0.021565204 -0.0033337781 0.0015229873 0.056967501 0.48542422 -0.87242079 3.5732268e-05
0.024489706 -0.0035336236 0.0016012188 0.055760559 0.47067702 -0.88054186 3.0925046e-05
0.027572546 -0.003764984 0.00167692 0.058562126 0.46189183 -0.88500077 2.5236219e-05
0.030584468 -0.0039987816 0.0017720883 0.066103727 0.45345667 -0.88882351 3.0444149e-05
0.033574942 -0.0042163166 0.0019158694 0.057286613 0.44024616 -0.89604777 8.1643826e-05
0.03642806 -0.0044271997 0.0019470368 -0.060782906 0.43563682 -0.89806795 0.0023239229
0.039126597 -0.0038445352 0.0017533646 -0.27932632 0.40108749 -0.87241369 0.0031250631
0.041211754 -0.0029840777 0.0013306186 -0.50525934 0.34247854 -0.79209942 0.002802728
0.063847989 -0.0043611899 0.0022470946 0.68914354 -0.00063203234 -0.72462457 0.00063691632
0.065347716 -0.0040932852 0.0036852737 0.68451107 -0.031508423 -0.72832119 0.00039842899
-0.067522079 -0.0013349546 0.0036389637 -0.66616523 -0.075874224 -0.7419346 0.0003992698
-0.065676339 -0.0013946528 0.0020452235 -0.64668268 -0.050485127 -0.76108658 0.00056757382
-0.043881062 -0.0011409023 0.0016515917 0.52723128 0.32008088 -0.78713113 0.0032975017
-0.041506846 -0.0013353958 0.0027113184 0.32738587 0.38912898 -0.86104423 0.004238137
-0.038538881 -0.0013344586 0.0034066807 0.12389681 0.40799761 -0.90453726 0.0025454592
-0.035505831 -0.0013344327 0.00339875 -0.0065949564 0.44107538 -0.89744574 0.00028086646
-0.03246377 -0.00133458 0.0032656132 -0.041931506 0.45571202 -0.88913906 6.6159657e-05
-0.029575996 -0.0012735022 0.0031253709 -0.053756658 0.46285403 -0.88480306 3.7916401e-05
-0.02655603 -0.0013940462 0.0028949734 -0.063596271 0.47710165 -0.87654406 7.5213371e-05
-0.02361376 -0.0013352479 0.0026686918 -0.076319456 0.48911738 -0.86887252 8.4341889e-05
-0.020574484 -0.0013355443 0.0024024174 -0.083377063 0.50670868 -0.85807604 9.0422298e-05
-0.017534355 -0.001335982 0.0020209895 -0.087236151 0.52630717 -0.84580767 0.00011646718
-0.014508474 -0.0010616322 0.0019282881 -0.070762344 0.5474475 -0.83384287 4.8730228e-05
-0.011551313 -0.00085604127 0.0017945905 -0.065604083 0.56021976 -0.82574207 5.701296e-05
-0.0085394597 -0.00075552339 0.00164656 -0.04978399 0.57176644 -0.81890458 2.7278709e-05
-0.0054382924 -0.0005133833 0.0016565548 -0.034289457 0.57985598 -0.81399715 2.2012724e-05
-0.0026919809 -0.00051365898 0.0015697047 -0.00093086733 0.58537591 -0.81076145 9.9886471e-05
0.00043377071 -0.0005768502 0.0016074936 0.042161506 0.58248425 -0.81174779 0.00013238048
0.0033493428 -0.0007876954 0.001693891 0.065759346 0.56945258 -0.81938976 4.6694844e-05
0.0064721303 -0.00098697294 0.0018220033 0.066406295 0.55574477 -0.82869655 5.4844248e-05
0.0094715636 -0.0011863628 0.0019363725 0.061326187 0.54231793 -0.83793217 4.1039286e-05
0.012423225 -0.0013359392 0.0020646402 0.061024029 0.52588004 -0.84836674 5.8512785e-05
0.015454714 -0.001335687 0.0022816942 0.053628784 0.51086521 -0.85798645 5.1228817e-05
0.018487694 -0.0013354933 0.002463432 0.049777955 0.49855706 -0.86542648 4.6064091e-05
0.0215223 -0.0013353128 0.0026293574 0.047050994 0.48746839 -0.87187201 3.555389e-05
0.024458416 -0.001394192 0.002753621 0.047376718 0.4763982 -0.87795222 3.2339954e-05
0.027477166 -0.0012737099 0.0029795086 0.050622385 0.46554932 -0.883573 3.4330777e-05
0.030363867 -0.0013347573 0.0031186892 0.058181889 0.45430437 -0.88894451 4.7777739e-05
0.033410817 -0.0013345191 0.0033260193 0.040574446 0.44568145 -0.89427161 0.00012159418
0.036450867 -0.0013344348 0.0034225103 -0.091661565 0.40845439 -0.90816474 0.0034367284
0.039422218 -0.0013353247 0.0027627246 -0.3498826 0.35649696 -0.86630946 0.0031976388
0.041798916 -0.0011407649 0.0017255867 -0.52149618 0.3259165 -0.78855574 0.0035701068
0.063756891 -0.0013711232 0.0020954544 0.65612626 -0.049420152 -0.75303125 0.00055604032
0.065414928 -0.0013350975 0.0035213069 0.66380763 -0.074714981 -0.74416208 0.00041035467
-0.067724898 0.0015005264 0.0034156465 -0.62922794 -0.13858023 -0.76476645 0.00056646322
-0.065894246 0.0014106906 0.0019561914 -0.61313504 -0.12516777 -0.77999902 0.00070041511
-0.044390682 0.001484945 0.0022237864 0.55068868 0.2579526 -0.79385287 0.0032958633
-0.041916817 0.001134483 0.0035949582 0.34569082 0.39135775 -0.85284048 0.0033066017
-0.039697424 0.0003222216 0.0040409314 0.15486054 0.3780905 -0.91272444 0.0052726287
-0.032247417 0.00032252708 0.0041031288 -0.038836058 0.45046476 -0.89194912 2.4693019e-05
-0.029477315 0.00032186398 0.003965924 -0.044390135 0.46134883 -0.88610762 2.2841403e-05
-0.026315682 0.00056708581 0.0039242753 -0.053564902 0.47963291 -0.8758328 5.2319032e-05
-0.023571337 0.00067235564 0.003797858 -0.063663282 0.48918235 -0.86985499 5.0126397e-05
-0.020632284 0.00087256695 0.0037033106 -0.071915731 0.50802654 -0.858334 0.00015315619
-0.01749929 0.0010555994 0.003538128 -0.070696369 0.52627718 -0.84736902 0.00015349415
-0.014552992 0.0011465139 0.0033790604 -0.062925912 0.54678309 -0.83490634 5.4085493e-05
-0.011473055 0.0013761383 0.0033206106 -0.058456633 0.56100857 -0.8257435 3.544585e-05
-0.0084845293 0.0014210372 0.0031708525 -0.043427724 0.57574135 -0.81647778 2.1462718e-05
-0.0054521346 0.0014200378 0.0030371011 -0.028381867 0.58224165 -0.81252027 2.6774107e-05
-0.0026971879 0.0014194524 0.0029582535 -0.001574636 0.58026272 -0.81442779 9.5387724e-05
0.00033271546 0.0014199794 0.0030287472 0.03969821 0.57809103 -0.81500602 8.3231578e-05
0.0033646901 0.0014214366 0.0032266378 0.053745333 0.56961298 -0.82015395 5.5719785e-05
0.0063059716 0.0012996023 0.0033397134 0.058715571 0.55264997 -0.83134258 3.7567788e-05
0.0094324602 0.0011469045 0.0034367191 0.052838665 0.54012185 -0.83992642 5.5265347e-05
0.012368607 0.0010724454 0.0035574972 0.049117368 0.52702945 -0.84842652 5.0746745e-05
0.015504346 0.0008719422 0.0036023245 0.045022391 0.5146507 -0.85621703 4.4046559e-05
0.01854462 0.00087281771 0.0037434795 0.039850224 0.50252068 -0.86364627 3.2278487e-05
0.021479579 0.00067209284 0.0037525776 0.038033105 0.49098226 -0.87033898 2.8137127e-05
0.02434388 0.00059725536 0.0038353577 0.038654417 0.48016846 -0.87632424 2.1999278e-05
0.027164483 0.0005425532 0.0039266814 0.042090502 0.46903861 -0.88217419 2.2342609e-05
0.030425111 0.00032190571 0.0039761411 0.04829324 0.45699763 -0.888156 2.6139007e-05
0.032643229 0.00032254442 0.0041037942 0.025089927 0.4496617 -0.89284652 0.00028084713
0.03761179 0.00032244512 0.0040837573 -0.14536549 0.37716416 -0.91466719 0.006396716
0.039915539 0.0011478411 0.003623201 -0.40569416 0.32778272 -0.85321212 0.0050976332
0.042418595 0.001501115 0.0022224151 -0.57537943 0.26980916 -0.77210212 0.0034931318
0.063789815 0.0014099238 0.0018544422 0.60938406 -0.12506148 -0.78294998 0.00063266931
0.065666579 0.0014212129 0.0033605285 0.64334816 -0.13794909 -0.75304264 0.00045448745
-0.068330221 0.0044631581 0.0031952281 -0.61895001 -0.22665162 -0.75201726 0.00064628373
-0.066328652 0.0043378845 0.0016758448 -0.58175528 -0.21527031 -0.78435928 0.00084325945
-0.046245433 0.0051589971 0.0015007105 0.68866003 0.16159837 -0.70684749 0.00055874506
-0.044688463 0.0043313554 0.0028356407 0.64833289 0.18412495 -0.73875737 0.0013544851
-0.042820651 0.0032665026 0.0039804126 0.54278874 0.32017571 -0.77644563 0.0063325865
-0.0015970157 0.0030843904 0.0041531669 -0.0025209731 0.58392501 -0.8118037 6.5684035e-05
-0.0010446931 0.0030843755 0.0041520344 0.0047663106 0.58377182 -0.81190372 5.6975347e-05
0.040914129 0.0033584228 0.0039674835 -0.52951443 0.32685962 -0.78280097 0.0058985557
0.042551488 0.0043701092 0.0029916801 -0.65127313 0.20256534 -0.73130745 0.0021417297
0.044156544 0.0047016917 0.0015054258 -0.68800062 0.16224992 -0.70734018 0.00050238782
0.064352766 0.0044080163 0.0016632996 0.59940213 -0.22300179 -0.76875699 0.00087856804
0.066224724 0.0044616424 0.0030900105 0.61303902 -0.22874232 -0.75621426 0.00073287258
0.067989461 0.0058453223 0.0041138278 0.6077773 -0.24114126 -0.75660932 0.0004941299
-0.070586979 0.0078271516 0.0038342462 -0.63300955 -0.28689778 -0.71901917 0.00028939667
-0.068713926 0.0074656471 0.0024180873 -0.60068518 -0.3056576 -0.7387495 0.00063254748
-0.066903286 0.0066201603 0.0013598249 -0.57929069 -0.30731437 -0.75497031 0.00040502215
-0.046364788 0.0074523739 0.0017706709 0.73185134 0.092447117 -0.67516464 0.00088123576
-0.045008808 0.0073863328 0.0032418557 0.7225979 0.12982549 -0.67896807 0.00090495322
0.042986687 0.0074161454 0.0033056857 -0.72215641 0.13411626 -0.67860371 0.0010743637
0.044354744 0.0075530829 0.0018144458 -0.73317593 0.095209427 -0.6733411 0.0008985388
0.064817421 0.0063462695 0.0013831899 0.57401657 -0.2912617 -0.76529187 0.00049568008
0.066666283 0.0074395775 0.0023650615 0.60966259 -0.30375928 -0.73214883 0.00029170827
0.068491317 0.0076790215 0.0037945653 0.62951088 -0.29416084 -0.71915603 0.00020988345
-0.07123448 0.010760209 0.0031114663 -0.63911045 -0.31890944 -0.69988179 0.00022008555
-0.06931451 0.0099491999 0.001783687 -0.61101139 -0.33615229 -0.71670544 0.00015502019
-0.046390243 0.010480586 0.0020170431 0.77314156 0.015876997 -0.63403475 0.00091720431
-0.04530751 0.010360564 0.0033537154 0.76226443 0.046486292 -0.64559424 0.0010551909
0.043280303 0.010414241 0.0034290552 -0.76077217 0.046380259 -0.64735967 0.0010773463
0.044557076 0.010475605 0.001841308 -0.74030071 0.015355644 -0.67210048 0.0013023132
0.067233786 0.0098682744 0.0017431512 0.59954202 -0.32926786 -0.72947383 0.00013099842
0.069126211 0.010756799 0.0029933103 0.63123238 -0.31742573 -0.70766276 0.00027760703
-0.073517017 0.014024071 0.0037513124 -0.69405222 -0.2989893 -0.65490216 0.00067003455
-0.07174626 0.013370829 0.0023699761 -0.64520824 -0.31656 -0.6953389 0.00019102904
-0.046379197 0.013499742 0.0019102261 0.78705859 -0.025474219 -0.6163519 0.00014635078
-0.045163706 0.013555295 0.003492326 0.79500622 -0.0058778492 -0.60657281 0.00017011142
0.043329917 0.013548167 0.0032893466 -0.79064727 -0.008248372 -0.61221641 0.00013926356
0.044370469 0.013402001 0.0019666785 -0.78638428 -0.026234632 -0.61718035 0.00014034346
0.069636725 0.013366473 0.0022448441 0.64117348 -0.31728733 -0.6987313 0.00015167915
0.071405075 0.014019117 0.0036142315 0.68847495 -0.29981938 -0.66038662 0.00058055646
-0.073995881 0.016664712 0.0031239833 -0.70642048 -0.28411606 -0.6482656 0.00080359791
-0.072440639 0.016358756 0.0016611364 -0.66818589 -0.29885668 -0.68133134 0.00018384034
-0.046369195 0.016518073 0.0018135802 0.80353242 -0.010582468 -0.59516692 0.00021422759
-0.045299619 0.016421681 0.0032758121 0.81166083 0.0130227 -0.58398378 0.00021961708
0.043327697 0.016579144 0.0032674419 -0.80875766 0.010757269 -0.58804363 0.00027314902
0.04429321 0.016523501 0.0019432252 -0.80257612 -0.010988408 -0.59644854 0.00013915834
0.070343599 0.016234884 0.0016141132 0.6659081 -0.2981784 -0.68385386 0.00011922305
0.071909286 0.016583413 0.0030339235 0.70319086 -0.28605896 -0.65091699 0.00076233398
-0.076119058 0.020470118 0.0039096819 -0.75349772 -0.25458243 -0.60615921 0.00069819903
-0.074614272 0.019486558 0.0026105475 -0.72295493 -0.26754287 -0.63699049 0.00035926708
-0.072921842 0.018414689 0.0012472019 -0.6803661 -0.28451285 -0.67539215 0.00012286914
-0.046373244 0.01954167 0.0018528685 0.81805182 0.017928652 -0.57486504 0.00020250323
-0.045413252 0.019608999 0.0032295752 0.82456857 0.036364984 -0.564592 0.00014853071
0.043336023 0.019614905 0.0033500567 -0.82409954 0.037656281 -0.56519204 0.00015491201
0.044295333 0.019547123 0.001963912 -0.818169 0.018023653 -0.57469523 0.00017343297
0.072500199 0.01947939 0.0024630507 0.71355373 -0.27213585 -0.6455875 0.0003977576
0.073996477 0.020460231 0.0037149386 0.74867791 -0.25814429 -0.61060864 0.00053837785
-0.07671044 0.023028461 0.0036028768 -0.76140809 -0.24180949 -0.60148633 0.00083014095
-0.075281121 0.022373209 0.0022164173 -0.74533892 -0.24964318 -0.61818135 0.0007100355
-0.046389177 0.022572329 0.0020069974 0.83000237 0.047601018 -0.55572498 0.00012834411
-0.045458257 0.022526138 0.0034271823 0.83569771 0.065658383 -0.54525071 0.0001353683
0.043381263 0.022532919 0.0035499274 -0.8406226 0.06841132 -0.53728354 0.0001926361
0.044369213 0.022681106 0.0020660805 -0.82976711 0.048690885 -0.55598181 0.00017557085
0.073292829 0.022415446 0.0021650619 0.74122262 -0.25196427 -0.62217599 0.00054968864
0.07459119 0.023018625 0.0034291442 0.75769448 -0.24458693 -0.60504228 0.00071226957
-0.076977476 0.025653182 0.0029415833 -0.78337181 -0.22458401 -0.5795607 0.0013519856
-0.075603001 0.025125561 0.0015258716 -0.7335735 -0.23648866 -0.63713658 9.5005038e-05
-0.046588469 0.025727596 0.0020970795 0.83996868 0.079148784 -0.5368315 0.00013625005
-0.045530833 0.025287902 0.0037109265 0.84845674 0.095642857 -0.52055115 0.00010444692
0.043556668 0.025426054 0.0037126937 -0.8467232 0.098998614 -0.52274191 0.00013385082
0.044584475 0.025601523 0.0021058051 -0.83994967 0.079755068 -0.53677142 0.00016723738
0.073626213 0.025016788 0.0015426223 0.73277229 -0.23638053 -0.638098 7.2347895e-05
0.074913062 0.025610205 0.002842844 0.78234231 -0.22688146 -0.58005637 0.0012430343
-0.077451237 0.028515667 0.0025180639 -0.78480005 -0.21822123 -0.58005893 0.0007984254
-0.046736944 0.028472429 0.0023819236 0.84660208 0.10621428 -0.52152026 8.8661123e-05
-0.045759831 0.028199779 0.0039267363 0.85808915 0.12610477 -0.49777564 0.00025759015
0.043680903 0.02793066 0.0040297653 -0.86000258 0.12666371 -0.4943195 0.00026813257
0.044766169 0.028613685 0.0023859604 -0.84661818 0.1074222 -0.52124679 0.00013806694
0.075533748 0.028573684 0.0025573717 0.7846657 -0.21668299 -0.58081686 0.00083703885
-0.079419412 0.03233321 0.0038436898 -0.83254689 -0.20403008 -0.51501197 0.0024620749
-0.078186281 0.031346265 0.0024764785 -0.78858286 -0.19911101 -0.58180064 0.00061047584
-0.046997927 0.031484809 0.0027060923 0.85364312 0.14233628 -0.50103271 0.00014376716
0.044957869 0.03145292 0.0027884636 -0.85490316 0.14269222 -0.49877796 0.00012256941
0.076133437 0.031412724 0.002347623 0.78825694 -0.19874704 -0.58236647 0.00059056643
0.07728938 0.032315485 0.0036152648 0.81813604 -0.19594407 -0.54061013 0.00093543448
-0.079510674 0.034693949 0.0031938488 -0.81808972 -0.16807559 -0.54998153 0.00095285097
-0.078309625 0.034365401 0.0017221583 -0.77489179 -0.17040773 -0.60869032 0.00014841084
-0.047599904 0.03452988 0.002657936 0.85562056 0.17491983 -0.48715132 0.00010785555
0.045620527 0.034438457 0.0026037679 -0.8553434 0.17776141 -0.48660919 0.00012768627
0.07624656 0.034356285 0.0016120792 0.77435666 -0.1695596 -0.60960758 0.00012222228
0.07744351 0.034602124 0.0031037177 0.81743926 -0.16987891 -0.55039471 0.0010165258
-0.079857066 0.037477389 0.0029664659 -0.83719921 -0.10432366 -0.5368557 0.0014251166
-0.078872718 0.037782606 0.0015425429 -0.80645412 -0.11875681 -0.57924825 0.00089032477
-0.049320895 0.038709402 0.0011775539 0.8486259 0.19831142 -0.49041486 0.00017965413
-0.048187945 0.037492108 0.0027370029 0.85804766 0.19713457 -0.47422788 5.7320387e-05
0.046166483 0.037442546 0.002828408 -0.8567571 0.19857335 -0.47595781 5.4475604e-05
0.047242533 0.038444377 0.0012775258 -0.84742802 0.19991712 -0.49183232 0.00013090351
0.076904021 0.038185615 0.0014499471 0.80234134 -0.12492624 -0.58364528 0.00082391058
0.077780999 0.037408222 0.0028381436 0.83420169 -0.11823227 -0.53863597 0.0014570178
-0.080107048 0.0405371 0.0030615404 -0.85999697 0.0015458444 -0.51029682 0.0012724354
-0.078969531 0.040642794 0.001315782 -0.81143659 -0.027234655 -0.5838055 0.0010002967
-0.049532354 0.040638626 0.0016732303 0.84484684 0.21856041 -0.48832884 0.00011386715
-0.048642963 0.040451594 0.0032114596 0.85651827 0.22268128 -0.46560666 2.3300005e-05
0.046661347 0.040430974 0.0032285368 -0.85495311 0.22444199 -0.46763337 8.3197629e-05
0.047464121 0.040657178 0.0018644634 -0.84972799 0.21853711 -0.47979566 6.9018446e-05
0.076860726 0.039535038 0.0012066708 0.81370813 -0.032230068 -0.58037949 0.0014631279
0.077968091 0.040510472 0.0027860925 0.85652989 0.0096539771 -0.51600713 0.0010561411
-0.079886392 0.043471266 0.0030256822 -0.87234998 0.1156893 -0.47499633 0.0015353874
-0.078995474 0.043402005 0.00146157 -0.84849483 0.081246115 -0.52292979 0.0011324347
-0.049902555 0.043699902 0.0025217938 0.84425777 0.26397902 -0.46641591 0.00021177311
-0.04902555 0.04250966 0.0035001384 0.8489849 0.24324256 -0.46910304 0.00016480587
0.046945222 0.042242154 0.0035832273 -0.85276896 0.24149321 -0.46310484 0.00018095353
0.047874723 0.04352928 0.0025543822 -0.84592283 0.26074308 -0.46521768 0.00015911875
0.076905794 0.044225238 0.0014598813 0.84823716 0.069591641 -0.52502471 0.0010136416
0.077908963 0.043282036 0.0029679053 0.87913787 0.097311474 -0.46652669 0.0024783672
-0.079374187 0.046415631 0.0030725049 -0.87766367 0.21126603 -0.43020117 0.00087501743
-0.07848838 0.047271155 0.0016984389 -0.87084687 0.18838102 -0.4540247 0.0022788437
-0.050777931 0.046487853 0.0026548463 0.82119143 0.34498003 -0.45456943 0.00085668341
0.048706654 0.046472989 0.0028143534 -0.82657218 0.34908319 -0.44149661 0.00072822435
0.049987122 0.04749912 0.0012860642 -0.80508143 0.33546191 -0.48919243 0.00057414232
0.076359056 0.047520161 0.0014723883 0.86128682 0.22478937 -0.45569158 0.002180144
0.07730303 0.046333566 0.0028063022 0.88067162 0.21754272 -0.42082384 0.0010674144
-0.078238524 0.049523152 0.002506448 -0.86609477 0.30081484 -0.39923707 0.0015874249
-0.052682236 0.049889281 0.00216226 0.79230189 0.44836628 -0.41379398 0.0013071944
-0.051566437 0.048911385 0.0032156305 0.79309165 0.44478029 -0.41614431 0.0014332533
0.04949908 0.048933558 0.0034074779 -0.79372948 0.44623709 -0.41335934 0.0017992652
0.050641898 0.049801119 0.0021901499 -0.79010183 0.44729552 -0.4191252 0.0015165121
0.076066241 0.04946791 0.002035052 0.85624874 0.30408606 -0.41757604 0.0016358027
-0.076832131 0.052561749 0.0022845734 -0.79768628 0.45649576 -0.39409167 0.0025061946
-0.055413723 0.053580895 0.0016474173 0.69338673 0.61544389 -0.37475824 0.0020790743
-0.054126956 0.052533697 0.0026910459 0.74617428 0.55307931 -0.37057689 0.0018880748
0.052031152 0.052382801 0.0026932457 -0.75161821 0.53856975 -0.38080525 0.0013869387
0.053306267 0.053288192 0.0015018181 -0.7328496 0.55920106 -0.38758951 0.0011556227
0.074928425 0.052273653 0.0021877685 0.80646002 0.42031583 -0.41588098 0.0017079577
-0.074827217 0.05555312 0.0023250584 -0.70332652 0.58917797 -0.39774498 0.0033463398
-0.072907962 0.05681099 0.0011626825 -0.55610645 0.63506895 -0.53612792 0.0039515924
-0.058711831 0.05669618 0.0016721037 0.546009 0.76473302 -0.34213707 0.0037645998
-0.056526773 0.055287339 0.0027001719 0.65046144 0.68776637 -0.32230008 0.0018532847
0.054402426 0.055213522 0.00283247 -0.65324217 0.67454046 -0.34390387 0.0014447154
0.056646243 0.056720361 0.0018530433 -0.5344677 0.76901156 -0.35066447 0.0031894797
0.07271155 0.055561781 0.0020913729 0.6963008 0.58540928 -0.41528443 0.0040126517
0.074013405 0.054958969 0.0038142549 0.7608121 0.56894583 -0.31219476 0.005315009
-0.073203906 0.057603553 0.0029652463 -0.58288234 0.73910052 -0.33760718 0.0081525547
-0.071639232 0.058348451 0.0023700739 -0.46905121 0.7626105 -0.44543943 0.0053569414
-0.068806492 0.059548788 0.0024308609 -0.18898009 0.89494818 -0.40417108 0.0030140951
-0.065669969 0.059714396 0.0023063566 0.10228644 0.92712063 -0.36053392 0.0040698657
-0.062530182 0.059049278 0.0024659755 0.3323032 0.86594653 -0.37377959 0.0043007857
-0.05981547 0.057848595 0.0027408386 0.488538 0.81085861 -0.3222405 0.0026856591
0.057627283 0.057730243 0.0027411203 -0.48212767 0.80670965 -0.34171981 0.0030219939
