# .PCD v0.7 - Point Cloud Data file format
VERSION 0.7
FIELDS x y z normal_x normal_y normal_z curvature
SIZE 4 4 4 4 4 4 4
TYPE F F F F F F F
COUNT 1 1 1 1 1 1 1
WIDTH 555
HEIGHT 1
VIEWPOINT 0 0 0 1 0 0 0
POINTS 555
DATA ascii
-0.018244533 0.0036782552 -0.0016099636 0.34111905 -0.077998556 -0.93677855 0.0017240354
-0.015333995 0.0036884118 -0.00026575755 0.35386965 -0.050000325 -0.93395728 0.013346712
-0.011488505 0.0036933115 0.00037871068 -0.034260835 0.012749309 -0.99933159 0.047482386
-0.0096264873 0.0038899081 4.0543731e-05 0.076788872 0.10093645 -0.991925 0.0444142
-0.0056787562 0.0039552804 -0.00069735944 -0.093041375 -0.3079192 -0.94685215 0.073555306
-0.0035279533 0.0040417253 -0.0010888567 -0.19445619 0.076490752 -0.97792429 0.080785021
-0.00019990571 0.0044858814 -0.0016642744 -0.31399906 0.079201564 -0.946114 0.13173547
0.0026385053 0.0045055854 -0.0021667245 -0.30842608 -0.09029495 -0.94695306 0.14168626
0.0050001559 0.0034927549 -0.0024614308 -0.22275689 0.053832579 -0.97338653 0.027424784
0.07110592 0.0047681849 -0.00036235387 0.65503401 0.71081436 -0.25626826 0.0026217443
-0.033121739 0.0067053684 -0.0003687921 -0.53308505 -0.055297855 -0.84425259 0.0027678579
-0.030077836 0.006637109 -0.0018667122 -0.34227446 -0.12013444 -0.9318884 0.0016847749
-0.028019926 0.0056883539 -0.002425889 -0.17381269 -0.11036707 -0.97857451 0.0018474791
-0.020269964 0.0063606543 -0.0024037932 0.21453977 -0.069565304 -0.9742347 0.0015095152
-0.018236337 0.0066383281 -0.0017880639 0.34937587 -0.073202454 -0.93411881 0.0012593494
-0.015330896 0.0066592027 -0.00034450321 0.44896325 0.0090819821 -0.89350408 0.0021826769
-0.0089176614 0.0055320193 0.00027209567 -0.16330628 0.19487688 -0.96713698 0.049719069
-0.0060861004 0.0059210728 4.1886233e-06 -0.14888938 0.55764371 -0.81661826 0.0096132299
-0.003122082 0.0061733727 -0.00035909936 -0.15991536 0.33300871 -0.92926443 0.095121771
-0.00020347664 0.0063849143 -0.00071589882 -0.14929542 0.61887348 -0.77117211 0.0078902561
0.0028278281 0.0065708659 -0.0010697329 -0.089234717 0.6057601 -0.79062754 0.012842162
0.0058785127 0.0067962552 -0.0014544656 -0.31622839 0.48410746 -0.81586736 0.026913345
0.0083655547 0.0072497479 -0.0018535266 -0.65075719 0.3469747 -0.67536926 0.04159965
0.066731252 0.0078534 -0.0016019517 0.48899236 0.80685008 -0.33148068 0.0046625845
0.06885279 0.0066500972 -0.00095506245 0.58486146 0.76777625 -0.26164204 0.0015467292
0.070508882 0.005304418 -0.00071646506 0.60795617 0.75025254 -0.25982755 0.00070723431
-0.034849025 0.011271752 0.00046758121 -0.63228071 0.031943768 -0.77408057 0.0098963622
-0.033137172 0.0098940637 -0.00064170081 -0.5062049 -0.068909779 -0.85965574 0.0028564681
-0.030453349 0.009773748 -0.0020419564 -0.37675023 -0.09230151 -0.92170477 0.0021263168
-0.018108377 0.0097929873 -0.0019118309 0.40469158 -0.042924616 -0.91344529 0.0023237367
-0.015328612 0.0098994803 -0.00040180422 0.54714644 -0.015055935 -0.83690155 0.0022957867
0.0073696868 0.0085648224 0.00043646758 -0.69302291 0.52600396 -0.49299005 0.024347173
0.0085321944 0.009719573 -0.0012143822 -0.84548074 0.22254358 -0.48542431 0.03868692
0.039725214 0.01074787 -0.0016501942 0.35517445 0.70357895 -0.61548984 0.027853021
0.041796509 0.01075338 -0.001817531 -0.021390196 0.74942327 -0.66174555 0.0094077941
0.044625562 0.011133498 -0.0019835916 -0.15321575 0.72756219 -0.66871387 0.00054104743
0.046853323 0.011200704 -0.0023669177 -0.10694614 0.75472456 -0.64726615 0.0005340848
0.054916911 0.011200257 -0.0023850375 0.088482969 0.75876278 -0.64532924 0.0010135247
0.057028331 0.011120334 -0.00199796 0.1645007 0.74012291 -0.6520412 0.0039647543
0.059958633 0.0107619 -0.0014640987 0.23217389 0.74853438 -0.62112123 0.0046089506
0.062796161 0.010197645 -0.00079716556 0.36311731 0.7814247 -0.50746554 0.0040090028
0.065217525 0.0089227613 -0.0010395776 0.47954619 0.80370104 -0.35227829 0.0036516492
-0.034839936 0.012892356 0.00035936292 -0.59291446 0.25911894 -0.76243675 0.024441293
-0.033121023 0.012857862 -0.00084254332 -0.4636057 0.31816846 -0.8269453 0.024545893
-0.030602256 0.013002606 -0.0020466023 -0.42122284 0.20065115 -0.88448316 0.016654054
-0.028155703 0.013888068 -0.0024058395 -0.15475002 0.49319571 -0.85604346 0.041447271
-0.017914217 0.012780452 -0.0019700204 0.37675959 0.20999306 -0.90219456 0.021699211
-0.015327742 0.012869908 -0.00042261416 0.54800141 0.16867799 -0.81929368 0.012179158
0.0086951349 0.012848688 -0.0011679553 -0.93961102 0.11431275 -0.32258889 0.0030134993
0.03912897 0.012639048 -0.0009339177 0.69533503 0.37429032 -0.61352748 0.052674595
0.042051028 0.012140891 -0.00015542563 -0.056589585 0.70461965 -0.70732504 0.015851337
0.0450822 0.01264669 -0.00038703764 -0.23168336 0.56934893 -0.78877407 0.013438141
0.047940083 0.012798008 -0.00087588746 -0.18544669 0.57464838 -0.79711282 0.014495503
0.050860249 0.012909573 -0.0010870039 0.0012910629 0.57160902 -0.82052511 0.010675149
0.053859189 0.012793927 -0.0010146243 0.16895355 0.57235032 -0.80241501 0.013662549
0.056758858 0.012829505 -0.00035219826 0.26766592 0.52042037 -0.81087446 0.014994436
0.059581969 0.011955913 2.3675617e-05 0.32637629 0.58679903 -0.74104345 0.013688788
-0.032764912 0.014616318 0.0001203781 -0.43814754 0.56547475 -0.69875968 0.017397286
-0.030041995 0.014960596 -0.00050917128 -0.24963231 0.70864904 -0.65992445 0.0037524095
-0.027109034 0.015326738 -0.0008155792 -0.14819698 0.71979833 -0.67817986 0.0031658299
-0.024058672 0.015353169 -0.0011280696 0.00073192111 0.70773673 -0.70647585 0.002055513
-0.02102479 0.015314493 -0.0010722009 0.10210546 0.68373883 -0.72254807 0.0046226643
-0.018188352 0.015105886 -0.00088157179 0.24085592 0.66153765 -0.71018052 0.011577082
-0.015473302 0.014904365 -0.00016500801 0.36408213 0.61988252 -0.69511867 0.017856158
0.0091832597 0.015603909 -0.0010064803 -0.79812759 0.48820615 -0.35305396 0.030465674
0.011205614 0.016972808 -0.001424002 -0.40212718 0.84006113 -0.36413053 0.0050482219
0.038302425 0.015770122 -0.0013103872 0.82360053 0.38648358 -0.41510543 0.017463872
0.048307519 0.015699083 0.00029577781 -0.16524883 0.39196262 -0.90501833 0.019546269
0.050893553 0.015857551 4.2024069e-05 -0.075739525 0.3350299 -0.93915844 0.016925287
0.053881772 0.015861636 0.00015649479 0.13500983 0.2986612 -0.94476128 0.022077905
0.055777874 0.015480116 0.00042032776 0.22106235 0.29391557 -0.92991674 0.023596767
0.012655681 0.017891157 -0.00092587108 -0.35642797 0.87947792 -0.3154006 0.0063011814
0.015373792 0.018248221 -0.00099888304 -0.26936176 0.90175694 -0.33805135 0.0039496017
0.017586449 0.019312888 -0.0013204156 -0.46867445 0.82123262 -0.32545555 0.020423157
0.019705979 0.01981204 -0.0021929317 -0.55527067 0.57567984 -0.60022265 0.019766724
0.028036207 0.019806318 -0.0023202323 0.46534514 0.69008213 -0.55429286 0.018083692
0.030142501 0.019417722 -0.0013852827 0.31133997 0.88807696 -0.33821112 0.0081914067
0.03294323 0.019024359 -0.00086242845 0.2168773 0.91976142 -0.32711321 0.0018761585
0.035782333 0.018390203 -0.0011262498 0.4336592 0.78776473 -0.4374544 0.014857451
0.037773613 0.017905559 -0.00057553966 0.59345502 0.73180062 -0.33508053 0.034847602
0.048217993 0.017760385 0.00030235713 -0.15042412 0.40375206 -0.90241724 0.021455418
0.051174566 0.017933981 0.00013297377 -0.069671631 0.50598007 -0.85972673 0.028974388
0.053875517 0.018022895 0.0001057242 0.062190473 0.38953817 -0.91890824 0.036282964
0.05571074 0.018123623 0.00036462396 0.20284437 0.26527381 -0.94259429 0.020448282
-0.028896842 0.023181073 0.0004931814 -0.38035014 0.47150779 -0.79562187 0.078742109
-0.026974771 0.022617975 7.0631038e-05 -0.19953342 0.47336358 -0.85797048 0.061778821
-0.024135627 0.022902552 -0.00012941891 0.0055471365 0.38998446 -0.9208048 0.049697712
-0.022121891 0.022902153 0.00033539301 0.21923083 0.46743953 -0.85640997 0.066352442
0.018858856 0.021125965 -0.0009585591 -0.54076749 0.69510716 -0.4737052 0.023223257
0.019703392 0.020884877 -0.002253629 -0.49386451 0.7219224 -0.48469162 0.023921587
0.027323119 0.021063553 -0.0015859832 0.44688147 0.79725969 -0.40580037 0.015073696
0.029247748 0.020441711 -0.00021478767 0.3370496 0.86802858 -0.36458734 0.0065895207
-0.028887833 0.024527147 0.0003648079 -0.23627326 0.62841082 -0.74113083 0.071144484
-0.027230157 0.024498131 -0.00015558396 -0.19953628 0.47336254 -0.85797036 0.06177897
-0.024159972 0.024641974 -0.00027032848 0.025317008 0.65380102 -0.75624287 0.048709247
-0.021928446 0.024789795 0.00022315839 0.21923222 0.46743938 -0.85640961 0.066352196
0.01432329 0.025185155 -0.0023033612 -0.30761313 0.75429392 -0.5800128 0.04797947
0.01508447 0.027423436 -0.00091844518 -0.19276892 0.89032215 -0.41251272 0.021635436
0.017758777 0.027307108 -0.0010562236 -0.16686147 0.91590255 -0.36507496 0.018429859
0.02059669 0.027792402 -0.0011767703 -0.10838012 0.94159925 -0.31881762 0.00063658279
0.02377237 0.027920477 -0.0015769228 -0.041517224 0.95116204 -0.30588752 0.0011861392
0.026754927 0.02794113 -0.0012538605 -0.023338925 0.95388699 -0.29925734 0.00072628655
0.029634373 0.028124925 -0.00079709291 0.15827876 0.92411566 -0.34779045 0.020336919
0.031564195 0.0270954 -0.0018565529 0.23915498 0.87977046 -0.41086358 0.034165803
-0.056869842 -0.043200381 0.0012043244 0.75380915 -0.65079623 -0.090752311 0.00084204046
-0.055953898 -0.042241231 0.0024816222 0.77384675 -0.63172442 -0.045667812 0.0014066551
-0.05430958 -0.040056624 0.0023816205 0.80428791 -0.59300148 -0.038341489 0.00024529677
-0.053175773 -0.038392521 0.0020135618 0.83507603 -0.54937053 -0.028983623 0.00022351377
-0.052258544 -0.036963277 0.0011836416 0.83507603 -0.54937053 -0.028983617 0.00022348447
-0.0507369 -0.034503251 0.0020593232 0.85686713 -0.51506323 -0.022102302 3.4558652e-05
-0.049683675 -0.032714181 0.0023378558 0.86358786 -0.50350225 -0.026485043 6.3786734e-05
-0.049046651 -0.031567685 0.0015364117 0.87546122 -0.4813793 -0.042913329 0.00021185858
-0.04767701 -0.02909667 0.0019022115 0.89129132 -0.44966096 -0.058350634 0.0011186365
-0.046803415 -0.02718509 0.00088380044 0.92398816 -0.35473925 -0.14284931 0.0029553699
-0.046105549 -0.025894415 0.001931747 0.91347384 -0.37399408 -0.16029346 0.0030959798
-0.04511001 -0.023178948 0.0019392348 0.92382574 -0.28783637 -0.25238121 0.0031168738
-0.044276953 -0.020061817 0.0018311385 0.90538043 -0.22623311 -0.35931164 0.0033352408
-0.080340669 -0.017150261 0.00059939688 -0.68821001 0.60868591 -0.39480168 0.0013210613
-0.043893136 -0.017189546 0.0015514172 0.89526665 -0.11248109 -0.43109807 0.0060796384
-0.043217778 -0.016972223 0.0028971615 0.89537084 -0.1861196 -0.40456232 0.0026607648
-0.078355394 -0.014002247 0.0015748306 -0.68080074 0.60876077 -0.4073337 0.0018583859
-0.043859605 -0.014193799 0.0012304639 0.83758354 0.0053190091 -0.54628348 0.0030439952
-0.042931408 -0.014245756 0.0027605328 0.85610229 -0.06928058 -0.51214159 0.0028417821
-0.077314667 -0.012167912 0.002420343 -0.66340393 0.6117757 -0.43084309 0.0024888481
-0.075352654 -0.01076779 0.0015774751 -0.59362549 0.64709407 -0.47841221 0.0024474068
-0.073331416 -0.0098450119 0.00076912111 -0.46280861 0.67886716 -0.5700416 0.0039715129
-0.044027429 -0.011050181 0.0012806957 0.77206331 0.10501485 -0.62680948 0.0030638704
-0.042921506 -0.011250071 0.0026631732 0.8047027 0.025066763 -0.59314859 0.0039211353
-0.074513741 -0.0089880461 0.0028826422 -0.5721187 0.61888874 -0.53819782 0.0052693938
-0.072110996 -0.0081913248 0.0018455889 -0.38008177 0.68602973 -0.62040401 0.0010792757
-0.069367588 -0.0074450788 0.0011857511 -0.30732736 0.68692267 -0.65854931 0.00014891157
-0.067342989 -0.0071334029 0.00057883328 -0.29185572 0.68346 -0.66910589 6.3810287e-05
-0.044548083 -0.0081595909 0.0014531929 0.67469049 0.19387197 -0.71218431 0.0028682479
-0.04295443 -0.0082642371 0.0029850374 0.72909468 0.12764324 -0.67240477 0.0041417363
0.033288077 -0.0071811685 0.0033010221 -0.2528055 -0.80641919 -0.53458154 0.017113108
0.035546008 -0.0078828372 0.0019926107 -0.42032528 -0.79957175 -0.42896581 0.01590877
-0.071203887 -0.00645243 0.0031637675 -0.41508734 0.68794179 -0.59534734 0.0014028737
-0.068974935 -0.0059523084 0.0025881971 -0.32754472 0.69484812 -0.64023477 0.00031608299
-0.066058435 -0.0052856812 0.0019878387 -0.27687436 0.69875008 -0.65961266 0.00010397236
-0.063252456 -0.0046178489 0.0015846998 -0.23778342 0.69487625 -0.67867965 5.8743353e-05
-0.060424957 -0.0041853776 0.001074343 -0.21011533 0.69204211 -0.69060063 9.2342118e-05
-0.05787614 -0.0038855234 0.0006355769 -0.15935177 0.68237031 -0.71342683 0.00048627352
-0.047649104 -0.0045649651 0.00087888865 0.33994088 0.45370382 -0.82376766 0.00418022
-0.045035176 -0.0052576251 0.0020908373 0.56314504 0.30142748 -0.76942134 0.0021097714
-0.04325752 -0.0058186548 0.0032838932 0.65780365 0.23333758 -0.71613395 0.004989814
-0.032069545 -0.0039094994 0.0030276603 -0.3457922 -0.8074196 -0.47801805 0.011630184
-0.029980889 -0.0041427081 0.0021671248 -0.26544639 -0.8421005 -0.469473 0.0059152334
-0.027111964 -0.0044832909 0.0018522041 -0.1730655 -0.84839761 -0.50026971 0.0066782902
-0.024120951 -0.0047159679 0.0021227603 0.035303652 -0.91244417 -0.40767547 0.008305666
-0.021111937 -0.0042589153 0.0017243973 0.16945368 -0.89460242 -0.41348743 0.0061989403
-0.018346358 -0.0039959685 0.0025969823 0.28086093 -0.85840321 -0.42925647 0.0099717909
0.0060472549 -0.0039125169 0.0033280603 -0.087971367 -0.86417919 -0.4954347 0.0029130403
0.0090381578 -0.0040453551 0.0029876134 -0.099706881 -0.82603693 -0.55472642 0
0.011901841 -0.0042033102 0.0027085072 -0.16734044 -0.89132994 -0.42134073 0.015657486
0.01493918 -0.0048177526 0.0030781305 -0.19910601 -0.93288302 -0.30014324 0.016735423
0.017573886 -0.0051816241 0.0031464822 -0.097272806 -0.80726147 -0.5821228 0.00074784609
0.020748695 -0.0055441493 0.0031152838 -0.11520119 -0.78892392 -0.60359567 0.0011248243
0.024127485 -0.0057884441 0.002872664 -0.10952243 -0.8102529 -0.57575613 0.0015482296
0.027073452 -0.0058818758 0.0024830257 -0.11527973 -0.80265319 -0.58519948 0.0011949536
0.029833408 -0.0058752447 0.0019773818 -0.11042674 -0.80495584 -0.58296829 0.00069248216
0.032900188 -0.0060683442 0.0017136261 -0.34950098 -0.81605315 -0.46033281 0.020937297
0.034537461 -0.0063410783 0.0018252558 -0.42034629 -0.79956329 -0.42896101 0.01590885
-0.062716268 -0.00309219 0.0029763584 -0.24979596 0.69815785 -0.6709528 4.8829799e-05
-0.05994403 -0.0026345169 0.0024935775 -0.22264802 0.69467753 -0.68399632 7.9905411e-05
-0.057087366 -0.0022477289 0.0020433171 -0.18113932 0.68443775 -0.70621067 0.00034128863
-0.054139342 -0.0021005878 0.0015123691 -0.096674331 0.66533369 -0.74026018 0.0010201129
-0.05100847 -0.0020621847 0.0014953702 0.10535911 0.59539461 -0.79649532 0.0051760161
-0.04818318 -0.0023266939 0.0019561574 0.29133913 0.50323552 -0.81355739 0.0041645113
-0.045702897 -0.0024868934 0.0029503959 0.42489266 0.42208168 -0.80082035 0.0049214456
-0.03542487 -0.0015501089 0.00299977 -0.56814593 -0.57917017 -0.58461279 0.010749824
-0.033128545 -0.0023368536 0.0017896397 -0.4744508 -0.59683996 -0.64705372 0.014847539
-0.030446028 -0.0032384121 0.00094438856 -0.25507972 -0.79932898 -0.54406571 0.0095441416
-0.019696645 -0.0033431584 0.00053320592 0.25938204 -0.80767041 -0.52951801 0.0061810743
-0.017797887 -0.0030474134 0.001126782 0.30221531 -0.80696785 -0.50741374 0.0060508042
-0.015091479 -0.002199545 0.0019984073 0.38092431 -0.71917117 -0.5811106 0.037211098
-0.012170425 -0.001999852 0.0022086152 0.13083708 -0.75139087 -0.64675605 0.053610656
-0.0091690533 -0.0019969479 0.0016976907 -0.089407556 -0.67714596 -0.73039693 0.063082434
-0.0062321457 -0.0020370195 0.0012233634 -0.24879214 -0.5968163 -0.76283211 0.069061488
-0.0033452269 -0.0024183623 0.00098908972 -0.15606572 -0.77568501 -0.61151952 0.039521441
-2.9003713e-05 -0.0028977005 0.0012077568 -0.078670703 -0.84102219 -0.53525001 0.02993154
0.0027772035 -0.0033656692 0.0031017936 -0.066381417 -0.89534414 -0.44040039 0.0032068957
0.0060383058 -0.0033604538 0.0025072969 -0.07528469 -0.88682616 -0.45592946 0.0024414677
0.0090199523 -0.0033556963 0.0019647782 -0.11051714 -0.90789431 -0.40436849 0.0051490273
0.011183798 -0.0033522332 0.0015699295 -0.17793177 -0.90882564 -0.3773278 0.012704705
-0.056071136 -0.00064347778 0.0033652312 -0.19635266 0.68960798 -0.69705558 0.00014917058
-0.053914409 -0.00043829414 0.0030095852 -0.12310505 0.67638737 -0.7261855 0.0012642856
-0.051043145 -0.00012978772 0.0030043921 0.021214133 0.63635445 -0.77110505 0.0028830948
-0.048347127 -0.00043858285 0.003129249 0.22834897 0.5608775 -0.79578453 0.0045079086
-0.035842419 0.00083113462 0.0023071184 -0.64988804 -0.27264047 -0.70944536 0.0072707823
-0.034051698 0.00039687892 0.00094360812 -0.60537255 -0.21118939 -0.76741326 0.0038582578
-0.014116799 0.00035574939 0.00093059987 0.23607565 -0.25402802 -0.93794352 0.021554455
-0.012173321 0.00067010568 0.0011091153 0.030549858 -0.22327122 -0.97427744 0.02642964
-0.0091191679 0.00044662924 0.0009101117 -0.020607837 -0.15306017 -0.988002 0.052603658
-0.0068836152 0.0011468614 0.001835546 0.34237117 0.62123895 -0.70487177 0.13933906
-0.036080293 0.0037066741 0.0021709711 -0.7003634 -0.05980365 -0.71127677 0.0021926658
-0.034325406 0.0036954442 0.00068096584 -0.55303842 -0.080176249 -0.82928908 0.0027000345
-0.013747428 0.0036956589 0.00069473451 0.18562958 0.030210439 -0.98215532 0.022168597
-0.012797767 0.0036952393 0.00063436758 0.0064011733 0.0039489423 -0.99997181 0.031733289
-0.0087646935 0.003025285 0.0018424517 0.79327613 0.17684503 -0.58261371 0.10257655
-0.0029266239 0.0029282402 0.0017438484 0.60436028 -0.54984993 -0.57655334 0.11525513
-0.00021526427 0.0028936272 0.0024248282 0.47296104 -0.87986487 -0.046322517 0.19436872
0.0027732546 0.0028904313 0.0018520034 -0.84996641 0.46431306 -0.24893858 0.15738693
-0.036062878 0.0066924631 0.0019687777 -0.71654689 -0.06004893 -0.69494945 0.0033915383
-0.034313366 0.0053185294 0.0005354411 -0.61345536 -0.068741918 -0.7867319 0.00045773503
-0.013747538 0.0066742669 0.00069787353 0.44153836 0.10150687 -0.89148206 0.016998202
-0.01214477 0.0066854996 0.0014057136 0.13524303 0.16554144 -0.97688556 0.031668983
-0.0092479382 0.0071254089 0.0015166574 0.011488897 0.37461555 -0.927109 0.066744328
-0.0062552257 0.0075369808 0.0013782294 -0.11948036 0.66178572 -0.74011093 0.0097140633
-0.0033154432 0.007790063 0.001158678 -0.12228869 0.67423451 -0.72832239 0.0090450319
-0.00020972465 0.0080324989 0.00094446586 -0.10646664 0.79032326 -0.60336894 0.0022729249
0.0016868178 0.0080263615 0.00059383875 -0.078162476 0.72315174 -0.68625236 0.0092507768
0.068668947 0.0074977004 0.0013414351 0.58986139 0.75727338 -0.28035778 0.0016014772
-0.036046855 0.0096758809 0.0017826837 -0.7391454 -0.057365637 -0.67109847 0.0037318731
-0.013748949 0.0099245682 0.00073812669 0.65506822 0.050912444 -0.75385255 0.0049321987
-0.012315113 0.0096093677 0.0021410398 0.59677202 0.21189313 -0.77392793 0.038856056
-0.0083918665 0.0086195935 0.0033505685 0.18358804 0.82690585 -0.53152817 0.01647781
-0.0062054284 0.0086120199 0.0029476532 -0.089015827 0.7944091 -0.60082477 0.0024947415
-0.0030858004 0.0088564623 0.0027787457 -0.099923044 0.81339699 -0.5730626 0.0018865492
-0.00011605269 0.0089479703 0.0023908499 -0.09582103 0.82015151 -0.56406546 0.0015511047
0.0027743168 0.0091418065 0.0021821335 -0.084708601 0.81699365 -0.57039094 0.00097343948
0.0060050506 0.0093265567 0.0018986352 -0.40855968 0.71311498 -0.56968939 0.044557486
0.0077460785 0.010394128 0.0015463359 -0.90214723 0.27262414 -0.33437473 0.03879771
0.063556232 0.010923283 0.00098242611 0.38690937 0.71790689 -0.57871485 0.0056978175
0.065993004 0.0098273121 0.0019081361 0.53542984 0.76010358 -0.36818141 0.0045768772
0.067771651 0.0086047873 0.0025633401 0.61845595 0.72528338 -0.30245042 0.0030509266
-0.036331374 0.012666307 0.0019379943 -0.6611011 0.3013227 -0.6871317 0.018925291
-0.013753412 0.01290709 0.000865323 0.68430215 0.14129925 -0.71537757 0.0088015506
-0.01244197 0.012675108 0.002240885 0.73116243 0.1703088 -0.66060305 0.0087239686
0.0079345023 0.01266993 0.0020046113 -0.92293239 0.3043122 -0.23577501 0.028729731
0.039927728 0.013194028 0.001383476 0.55473977 0.60359526 -0.57265735 0.059855696
0.041742627 0.013495514 0.0013467548 -0.13534376 0.65373844 -0.74451864 0.026008345
0.044294666 0.013806475 0.00075025111 -0.28623629 0.44146928 -0.85039616 0.016001014
0.058099847 0.013804959 0.00070125144 0.24939437 0.50239033 -0.82789272 0.01489697
0.060081717 0.01328248 0.0013341783 0.37320194 0.48936164 -0.78819132 0.012668585
0.062714234 0.012587765 0.002328794 0.49804828 0.53588247 -0.68174624 0.02119738
0.064735115 0.011513652 0.0028751814 0.59956545 0.61246198 -0.51518124 0.0042726574
-0.035880998 0.014908597 0.0023907605 -0.59261394 0.49473599 -0.63564539 0.018251508
-0.033061478 0.015799262 0.0019908408 -0.35358936 0.72931415 -0.58572638 0.0053675016
-0.03014441 0.016374702 0.0014006081 -0.18633513 0.85370928 -0.48627114 0.0015019968
-0.027028669 0.016700262 0.00088779908 -0.095175117 0.8302905 -0.54914421 0.0033993619
-0.024568625 0.016686799 0.00052951043 -0.018767253 0.84725112 -0.53086096 0.0052891392
-0.020799385 0.016837763 0.00093587628 0.037380781 0.85608023 -0.5154894 0.0022930312
-0.018043432 0.016592558 0.0012203613 0.1118124 0.86087859 -0.49637288 0.0045012687
-0.014870135 0.016100287 0.001753414 0.46067962 0.62121099 -0.63393313 0.026917428
-0.012566771 0.015323572 0.0024924721 0.60186911 0.53905976 -0.58920985 0.026505653
0.0090032462 0.016614629 0.0010115928 -0.77750134 0.56075168 -0.28469154 0.030934714
0.039687071 0.015227647 0.0027464009 0.63056773 0.46246207 -0.62330824 0.093167469
0.041922152 0.015670821 0.0024191621 -0.36477739 0.44508857 -0.81782252 0.016986521
0.045059811 0.015898317 0.0011812658 -0.28300348 0.35511863 -0.89095438 0.013025892
0.047139626 0.016269106 0.00062060636 -0.19156586 0.34767711 -0.91783619 0.013573445
0.05732787 0.016019691 0.00093312096 0.30873245 0.19387148 -0.93118095 0.0067978832
0.060023967 0.015777189 0.0020203539 0.42427355 0.1854226 -0.8863467 0.0078804195
0.062078167 0.015492709 0.003174664 0.58812004 0.13416158 -0.7975685 0.0084819449
-0.026900867 0.017509066 0.0030857581 -0.13017367 0.786017 -0.60434443 0.025536593
-0.024162913 0.017589904 0.0028327438 -0.0054349238 0.75879449 -0.65130746 0.033994872
-0.021842193 0.017559685 0.0030529923 0.072530009 0.86642373 -0.49401337 0.0045215669
-0.017714757 0.01749265 0.0026622885 0.11065593 0.87070787 -0.47919005 0.0035895705
-0.01601004 0.017328149 0.0031036963 0.27045232 0.84012675 -0.47015151 0.0060327356
0.0093071684 0.017589524 0.0028264872 -0.72840703 0.64883268 -0.22008938 0.030556532
0.01194731 0.018524192 0.001742024 -0.3047376 0.91214633 -0.27408782 0.003812874
0.015264098 0.019182468 0.0019017039 -0.3820661 0.8875795 -0.25734809 0.01189482
0.016601667 0.019970588 0.0013208813 -0.42732787 0.86159569 -0.27394122 0.013467967
0.031227099 0.019958951 0.0010632104 0.30543581 0.91097486 -0.27718925 0.0073239454
0.032916632 0.019817883 0.0019486523 0.22293004 0.94074589 -0.25553721 0.0078973994
0.035913657 0.019461229 0.0020621619 0.2572844 0.93659544 -0.23789431 0.0071567153
0.038068473 0.018637441 0.001850707 0.54561961 0.77401298 -0.32125244 0.071263999
0.042026471 0.017855758 0.0026803841 -0.11130367 0.65015006 -0.75160921 0.092765599
0.044967912 0.018054912 0.0014923178 -0.30780193 0.54960549 -0.7766543 0.040662788
0.047805339 0.01858495 0.0020857374 -0.2363039 0.77867812 -0.58122361 0.035414394
0.050631337 0.018707288 0.0018953211 -0.13350211 0.75431639 -0.64279383 0.036573369
0.053833488 0.018914772 0.0019980296 0.083976977 0.74930388 -0.6568802 0.051829077
0.057217591 0.018610127 0.0015249066 0.279439 0.63175446 -0.72304916 0.048543997
0.060109001 0.018516254 0.002205614 0.29002926 0.59317368 -0.75101805 0.054294232
0.062141806 0.018418679 0.003142715 0.40766048 0.3605684 -0.83892989 0.036196284
-0.031779051 0.022757836 0.0027913577 -0.56679064 0.37926355 -0.73137373 0.055845443
-0.030162537 0.022924466 0.001342806 -0.54245126 -0.16428903 -0.82386637 0.0088306163
-0.028363282 0.022104092 0.00060550636 -0.28482795 0.45325673 -0.84464866 0.079362437
-0.020713188 0.023027746 0.0010116128 0.44079956 0.10130539 -0.89187056 0.010476231
-0.019227413 0.023262896 0.0020475811 0.68479508 -0.60516071 -0.40600032 0.086682178
0.017712658 0.020726558 0.0020185439 -0.51224315 0.82307935 -0.24524973 0.0087353783
0.028050859 0.021645419 0.0022986061 0.38464588 0.87318516 -0.29932463 0.0038830843
0.029631218 0.020847382 0.0015139049 0.34822479 0.88295221 -0.31485704 0.0086918194
0.033283662 0.020601876 0.0032390631 0.19876781 0.94987631 -0.24130124 0.0063335234
-0.032052543 0.024663327 0.0028067431 -0.51678592 0.59964573 -0.61102968 0.063601822
-0.03031016 0.024851011 0.0013046302 -0.57400239 0.37722629 -0.72678852 0.060350507
-0.02716732 0.026034821 0.0029927571 -0.12545291 0.87045383 -0.47599554 0.013696957
-0.024961689 0.02600833 0.0025431491 -0.018748371 0.86263585 -0.50547779 0.015420847
-0.020388957 0.024834037 0.0010084249 0.44081426 0.10127771 -0.89186639 0.010473988
-0.0187003 0.024810802 0.0024049464 0.46151906 0.57795018 -0.6730333 0.077378288
-0.020300228 0.026506038 0.001775655 0.30085233 0.60653287 -0.73593855 0.079118796
-0.018720997 0.026706826 0.0028483695 0.46152353 0.57794762 -0.67303234 0.077378027
0.015695402 0.02828113 0.0012310273 -0.14714992 0.94050598 -0.30626017 0.018459674
0.017480051 0.028307687 0.002048322 -0.053169906 0.95704561 -0.28502029 0.0027579432
0.021241259 0.02869131 0.001984877 -0.075207062 0.96205759 -0.26227701 0.001664602
0.023901891 0.028621562 0.00091465563 -0.035523467 0.96228886 -0.26970017 0.00045847328
0.026919132 0.028661579 0.0015285676 -0.016882436 0.95253587 -0.303958 0.0014942047
0.029356964 0.028930187 0.0014861748 0.021238742 0.93585724 -0.35173881 0.0037842174
0.028108682 0.029317878 0.0032401807 -0.051717047 0.95262259 -0.29972589 0.0015733008
0.028621361 0.029283874 0.0027284152 -0.051689744 0.95262557 -0.29972094 0.0015746122
-0.053343281 -0.038706303 0.0055162436 0.8330794 -0.55315322 0.00044580933 0.00039585234
-0.051553309 -0.03586705 0.0043091155 0.84941506 -0.52772123 0.0020996849 0.00010998428
-0.049134571 -0.031797171 0.004632873 0.86602592 -0.49987736 0.011031991 5.0131857e-05
-0.047362972 -0.028601907 0.005900336 0.88050497 -0.47362223 -0.019823518 0.00026303006
-0.046706893 -0.027443148 0.0049211211 0.88409913 -0.46696162 -0.017764209 0.00023892616
-0.04582369 -0.025767639 0.0043408698 0.90220368 -0.42304778 -0.084018566 0.0014898167
-0.044483565 -0.022913177 0.0045824177 0.92350698 -0.35368159 -0.14847314 0.0017541517
-0.043887109 -0.02111382 0.0040989793 0.93396825 -0.3125585 -0.17323524 0.0032565347
-0.043268196 -0.019890154 0.0051656789 0.9222858 -0.33255064 -0.19697434 0.003457844
-0.042550817 -0.017164165 0.0047737141 0.9210943 -0.24140345 -0.30546615 0.0023014185
-0.078858666 -0.013205849 0.0043102927 -0.73653978 0.58709091 -0.33590692 0.0015370941
-0.041831214 -0.014243394 0.0049990439 0.91013455 -0.14515853 -0.38805172 0.0036283487
-0.077541217 -0.011036463 0.0048744804 -0.72630429 0.60010618 -0.33519322 0.0026754504
-0.076557271 -0.010459029 0.0036572344 -0.66180193 0.61708695 -0.4257015 0.0032679192
-0.041536931 -0.011249056 0.0048265313 0.8832193 -0.060976889 -0.46497896 0.0043893526
-0.075070329 -0.0081515219 0.0047849086 -0.67784697 0.61087584 -0.40908951 0.00084719143
-0.073323645 -0.0071913088 0.003878457 -0.53020197 0.669451 -0.52030873 0.0013119634
-0.041498329 -0.0083007161 0.0047948058 0.82309949 0.019628119 -0.56755787 0.0049742078
-0.040295448 -0.0072373832 0.0065041608 0.80974317 -0.054426409 -0.58425498 0.0037909015
0.01623279 -0.0072363699 0.006447 -0.10010793 -0.79853278 -0.59356862 0.00061314035
0.0178675 -0.0072310888 0.0061455849 -0.10817658 -0.78578854 -0.60896158 0.0012618465
0.021091532 -0.0074459976 0.0058868858 -0.10679769 -0.78486502 -0.61039424 0.0014539639
0.023955129 -0.0080458997 0.005697533 -0.095102876 -0.7975803 -0.59566861 0.002665316
0.02693373 -0.0081715714 0.0054301885 -0.11561273 -0.8033241 -0.58421242 0.0015420056
0.029852271 -0.0081674559 0.0049219751 -0.13623457 -0.78779483 -0.60068256 0.0011796159
0.032726493 -0.0083516296 0.0045839404 -0.19314797 -0.80830497 -0.55618054 0.015922926
0.035266474 -0.0086987829 0.0042216643 -0.25489643 -0.85088801 -0.45936623 0.020852365
-0.074029759 -0.006312592 0.0058624172 -0.61828732 0.63347137 -0.46522546 0.0048790267
-0.071959987 -0.0053673186 0.0049914089 -0.46285713 0.68677562 -0.56044853 0.0035911093
-0.06926658 -0.0044682068 0.0043298262 -0.32635817 0.69625884 -0.63930738 0.00028061296
-0.067046769 -0.0039178366 0.0038581765 -0.28279421 0.6985594 -0.65729904 8.7676075e-05
-0.041876893 -0.0052258344 0.0048264111 0.68924528 0.18614814 -0.700207 0.003806323
-0.04029534 -0.0061396891 0.0065030283 0.75416404 -0.13960473 -0.64167529 0.0067638298
-0.033039428 -0.0041477825 0.0049654911 -0.41158134 -0.82578695 -0.38558632 0.0047797463
-0.030097669 -0.004836801 0.0046376609 -0.26968437 -0.84211814 -0.46701971 0.0064278725
-0.028311176 -0.0050081993 0.003804577 -0.2006091 -0.87241071 -0.44570798 0.006475368
-0.0215302 -0.0050172196 0.0045243031 0.17185393 -0.92700309 -0.33336404 0.0016518795
-0.018507648 -0.0044664377 0.004131896 0.28370935 -0.92665672 -0.24660955 0.0046050884
-0.01659805 -0.0039207423 0.0041485555 0.32260165 -0.86130232 -0.39253831 0.0069375429
-0.010930499 -0.0039435709 0.0064253188 -0.072381191 -0.83964443 -0.53829193 0.00092824834
-0.0090017635 -0.0039400421 0.0060737082 -0.099658974 -0.82599294 -0.55480069 2.5951908e-07
-0.0058581824 -0.0041874242 0.0058768061 -0.099670842 -0.8259756 -0.55482423 0
-0.0028647589 -0.004282949 0.0054812529 -0.099683225 -0.82598865 -0.55480278 0
-0.00022610289 -0.0044803224 0.005301083 -0.099711686 -0.82599354 -0.55479026 0
0.0028830376 -0.0046766754 0.0050344835 -0.099736027 -0.82600391 -0.55477041 0
0.0057922476 -0.0050245905 0.0050293333 -0.099732012 -0.8260181 -0.55475008 0
0.0087009165 -0.0053727226 0.0050251498 -0.099710204 -0.82600939 -0.55476695 1.2598964e-07
0.011899849 -0.0057538208 0.0050178743 -0.10450701 -0.81522405 -0.56963849 0.0003051348
0.014703725 -0.0060070283 0.0048908177 -0.098207779 -0.81337494 -0.57339019 0.00039053924
0.017730009 -0.0061501414 0.0045600659 -0.097271711 -0.80726147 -0.5821231 0.00074826687
0.020803694 -0.0063806656 0.0043515046 -0.115198 -0.78892529 -0.60359454 0.0011244857
0.023613594 -0.0065587121 0.0041123307 -0.098809212 -0.81619889 -0.56925923 0.0012123004
0.026501831 -0.0066431751 0.0037195389 -0.11561719 -0.80332226 -0.58421403 0.0015423332
-0.068909824 -0.002932671 0.0058304495 -0.3578124 0.69424075 -0.62449986 0.00055095262
-0.065974653 -0.0024013217 0.0050105168 -0.29016247 0.69928432 -0.65330482 0.00018074673
-0.063217431 -0.0018406078 0.0044751945 -0.2560297 0.69834119 -0.66840732 5.7365785e-05
-0.060481526 -0.0013465856 0.0039975601 -0.22892864 0.69813776 -0.67837703 7.7833349e-05
-0.058542728 -0.0011888975 0.0035072393 -0.21453133 0.69430304 -0.68696398 4.8453825e-05
-0.04437298 -0.0019633579 0.0039628004 0.43774608 0.30998144 -0.84397268 0.0071338415
-0.042093102 -0.0022899252 0.0052789529 0.40367961 0.1801254 -0.8969937 0.018577473
-0.039640252 -0.0018397277 0.00634528 0.090582095 -0.27848989 -0.9561581 0.10460022
-0.036240462 -0.0022887532 0.0050079259 -0.50951946 -0.57445693 -0.64061624 0.022942556
-0.03404177 -0.0033722008 0.0038468665 -0.42267841 -0.78703499 -0.4493539 0.0080742491
-0.014740152 -0.0033876384 0.0056047193 0.12656572 -0.93101454 -0.34233466 0.012249622
-0.012008902 -0.0033892875 0.005793286 0.022748183 -0.9052847 -0.42419574 0.010490494
-0.0089819692 -0.0033844525 0.0052425093 -0.092719421 -0.87556189 -0.47412494 0.0028488224
-0.006236928 -0.0033800805 0.0047430522 -0.064467646 -0.88773483 -0.45581892 0.0027382167
-0.0032247412 -0.0033752655 0.0041949875 -0.10173272 -0.90376419 -0.4157652 0.0043090745
-0.00049263658 -0.0033708932 0.0036970354 -0.067906387 -0.89347422 -0.44395107 0.0052651665
-0.064982347 -0.00065115932 0.0064332909 -0.29831541 0.70060134 -0.64820188 0.00014555571
-0.062831216 -0.00026605651 0.0059843394 -0.26255125 0.70116609 -0.66289747 6.5633416e-05
-0.05994153 0.00014865561 0.0053502596 -0.24008127 0.69916767 -0.67344308 4.9178565e-05
-0.057109695 0.00072142435 0.005015207 -0.20623285 0.69658744 -0.6871928 7.8793375e-05
-0.054199405 0.001190634 0.0046673701 -0.14492145 0.69134688 -0.70783991 0.00039252031
-0.051119097 0.0014709509 0.0043818164 -0.01768429 0.67123127 -0.74103701 0.0018008937
-0.047973942 0.0011614603 0.004411425 0.10745654 0.62711793 -0.77147657 0.0015706748
-0.045156267 0.00065242825 0.0048093046 0.25353605 0.43342978 -0.86478788 0.013558168
-0.042149514 0.0007207375 0.0058385893 0.2045072 0.26445329 -0.94246554 0.018410921
-0.039127801 0.00071979873 0.0057395115 -0.21837644 -0.010785447 -0.97580498 0.055263586
-0.037232116 0.00026403274 0.0039389753 -0.68255126 -0.2198309 -0.69699222 0.010413664
-0.053736333 0.0027966565 0.0061473208 -0.16575862 0.70762211 -0.68687332 0.00023343718
-0.051189311 0.0029123891 0.0058150445 -0.045657516 0.70294315 -0.70977914 0.0017468235
-0.048190106 0.0029131109 0.0059461896 0.076288626 0.66048074 -0.74695736 0.0018926484
-0.045403797 0.0028457167 0.0061583496 0.10288451 0.59750068 -0.7952407 0.0075439336
-0.04199772 0.0027189404 0.0062778252 -0.050223485 0.48562482 -0.87272346 0.027087932
-0.038945019 0.0036561326 0.0053748558 -0.56456274 0.16833767 -0.80804163 0.033110034
-0.0081454497 0.0034518037 0.0045531667 0.93067068 0.19760445 -0.30790356 0.034553692
-0.0069263796 0.002771507 0.0050642244 -0.11213288 0.91814744 -0.38004148 0.031261198
-0.0022954643 0.0035032514 0.0041060452 0.15295842 -0.85842049 -0.48961005 0.22134236
-0.00022275071 0.0037236158 0.0044108578 0.95005244 -0.017663714 -0.31158996 0.23268256
0.0025070892 0.0037199319 0.0039216462 -0.053933088 -0.42977396 -0.90132427 0.12961143
-0.038508493 0.0067357165 0.004960434 -0.75472528 0.10882023 -0.64695281 0.013916207
0.069752619 0.0075534848 0.0047937059 0.70608377 0.66180694 -0.25190759 0.0024201269
0.070984386 0.0064719091 0.0056622452 0.707587 0.67296594 -0.21549334 0.0014025642
-0.03851473 0.0097451545 0.0050271875 -0.85437864 0.02137517 -0.51921117 0.0037123426
-0.011122735 0.010259401 0.0035771257 0.55764806 0.40529889 -0.72440422 0.036677666
-0.0094503704 0.0097424351 0.0048592077 0.35832468 0.70414025 -0.61301708 0.049390242
-0.0059824502 0.0099480804 0.0050423522 -0.075748004 0.84356195 -0.53166294 0.00050769799
-0.0031515798 0.010194246 0.0049281162 -0.12986885 0.79322284 -0.59492147 0.0016381466
-0.00030142663 0.010322668 0.0046215267 -0.089981996 0.80723816 -0.58332646 0.0018500928
0.0027813739 0.010552138 0.0044357381 -0.069734395 0.80756891 -0.58563602 0.0015335924
0.0055490257 0.010661548 0.0041137929 -0.27786672 0.84708011 -0.45304021 0.05642492
0.0074191322 0.010815151 0.0040230579 -0.35179508 0.8184942 -0.45421082 0.055216014
0.066789865 0.010643976 0.0044777119 0.69155627 0.58055365 -0.42977598 0.0060172495
0.068010166 0.0094717555 0.0050183139 0.69282335 0.64368749 -0.32505739 0.004181854
-0.038443405 0.012615468 0.004994459 -0.85828745 0.20315574 -0.4712435 0.010410703
-0.01089566 0.012858167 0.0043209377 0.82279342 0.20029688 -0.53187603 0.0046327491
-0.01008689 0.01242953 0.0056589036 0.72922379 0.29372013 -0.61803001 0.028156072
-0.0021499209 0.011692874 0.0063242591 -0.17651321 0.77408218 -0.60798025 0.0024467723
-9.1251335e-05 0.01182095 0.0059683151 -0.080698259 0.77163666 -0.63092369 0.0024370474
0.0025124387 0.011823189 0.0060511683 -0.027712792 0.7838347 -0.62035078 0.0025347134
0.0057984362 0.011676928 0.0056928131 -0.1826911 0.89742905 -0.40155339 0.055989303
0.0074379323 0.011669055 0.0053867525 -0.62743658 0.70139527 -0.33818331 0.02680108
0.063824102 0.013728481 0.0041130506 0.65965641 0.41774598 -0.62477344 0.0084700221
0.065737024 0.012666622 0.0051574982 0.70303029 0.39271039 -0.59289718 0.0085920272
-0.038253166 0.015220216 0.0051653259 -0.70366371 0.55703878 -0.44109538 0.027648687
-0.036242243 0.016228979 0.0049594785 -0.52258909 0.69301087 -0.49662519 0.025816202
-0.034046758 0.016632097 0.0039087464 -0.27764654 0.85528088 -0.43750083 0.0026999884
-0.011391716 0.016055994 0.0046503334 0.67726129 0.49150476 -0.54748523 0.030368708
-0.010103842 0.014709182 0.0062916703 0.81097656 0.36290821 -0.45892784 0.014961528
0.03969596 0.016449535 0.0038886149 0.33661526 0.52303195 -0.78302479 0.079121254
0.063542195 0.015833102 0.0043103439 0.59167683 0.13188675 -0.79531401 0.0081477137
0.065263659 0.015791722 0.0058729923 0.73059994 0.10078546 -0.67532665 0.0062180283
-0.034760058 0.017438181 0.0059356517 -0.35445172 0.85003144 -0.38962868 0.0037569236
-0.033030838 0.017396413 0.0048607537 -0.27802837 0.85981005 -0.42828351 0.0023438628
-0.029915372 0.018214952 0.0051541575 -0.41010341 0.69183958 -0.59428382 0.036164492
-0.027156737 0.019131508 0.0048255096 -0.34066144 0.49517733 -0.79921788 0.026725814
-0.024053574 0.019335812 0.0046112961 0.11614563 0.57814074 -0.80762833 0.031062528
-0.021078654 0.018959003 0.0048412536 0.3727096 0.57199323 -0.73069227 0.01869305
-0.018537559 0.018509796 0.0053279013 0.15244687 0.8471902 -0.50894862 0.016904745
-0.015067281 0.017982056 0.0047670961 0.26013532 0.86521322 -0.42864394 0.0062936042
-0.012512291 0.017583828 0.0056522316 0.48774102 0.73743635 -0.46722195 0.018000461
0.0096237157 0.018320691 0.0051714205 -0.71204704 0.70167977 -0.025190517 0.04011165
0.012067834 0.019292213 0.0044442615 -0.28355807 0.93871689 -0.1959728 0.0029274293
0.014233014 0.019750297 0.0050878902 -0.30056155 0.93867326 -0.16898291 0.0038497341
0.032538492 0.020102568 0.0042458302 0.19879115 0.94987148 -0.241301 0.0063190917
0.036167093 0.020147406 0.0052397377 0.2668179 0.93567944 -0.23089448 0.007334548
0.039422084 0.018357329 0.0044739922 0.21345514 0.74611658 -0.63067186 0.087774083
0.04194409 0.01903634 0.0048303581 -0.13528325 0.81400979 -0.56487739 0.03023438
0.045062963 0.019437639 0.0050786412 -0.22150102 0.84908915 -0.47956744 0.026169406
0.047967765 0.019888574 0.0055727218 -0.20655002 0.79521012 -0.57006842 0.035716232
0.050910208 0.019861361 0.0049594915 -0.01943397 0.84412193 -0.53579885 0.027345411
0.053903442 0.019856142 0.0048322747 0.10412846 0.88264209 -0.45836681 0.021024896
0.056658704 0.020000247 0.0049995682 0.112498 0.90256399 -0.41559902 0.0096560977
0.059917036 0.020128967 0.0048312848 0.046168625 0.90493172 -0.42304495 0.0066985521
0.063438267 0.018935688 0.0043239775 0.49689522 0.28901306 -0.8182705 0.046968412
0.065247096 0.018800804 0.0057594529 0.67091542 0.14810093 -0.72659391 0.022541407
-0.03238254 0.0227971 0.0035545654 -0.68343657 -0.69807595 -0.21355177 0.20378053
-0.02875665 0.021841593 0.0063122041 0.06278944 -0.45014527 -0.89074498 0.11929905
-0.027041828 0.021241875 0.0052422904 -0.12479305 0.98355412 -0.13056818 0.22144838
-0.024008449 0.021496963 0.004859841 0.15494785 0.62880713 -0.76196641 0.031888582
-0.021878572 0.021548532 0.0059278808 0.43362007 0.63043839 -0.64383316 0.023672011
0.03238732 0.020938367 0.0054324013 0.17986993 0.9582715 -0.22217679 0.0060910708
0.034876656 0.020742066 0.0062619871 0.21346821 0.9571839 -0.19552542 0.0053516659
0.045960806 0.021485288 0.0060316487 -0.27908948 0.84147519 -0.46263224 0.024033122
0.04788037 0.021567062 0.0054887929 -0.20050251 0.81127101 -0.54921591 0.036897618
0.050903726 0.021499401 0.0049003526 -0.014198485 0.84352708 -0.53689897 0.027339527
0.053337812 0.021433521 0.0050895796 0.15469976 0.85143209 -0.50113016 0.018421765
0.063122116 0.0207408 0.0062349043 0.17057452 0.83650726 -0.52073026 0.040875539
0.064987749 0.020723512 0.0058619804 0.45330745 0.64008272 -0.62032771 0.049389888
-0.033297483 0.024772724 0.0047708279 -0.47226867 0.64345956 -0.60243016 0.051205311
-0.02912049 0.026075296 0.0036797947 -0.15600207 0.85375684 -0.49675202 0.028076679
-0.017205732 0.025206933 0.0046338406 0.67041314 0.58273423 -0.45931157 0.060232136
-0.032766633 0.026697978 0.0049663461 -0.43418267 0.72967625 -0.52825934 0.058323719
-0.029800111 0.026732894 0.0055467789 -0.17502075 0.88364708 -0.43420681 0.01394891
-0.027027193 0.026975274 0.0050213258 -0.10630681 0.92352319 -0.36851564 0.00053687202
-0.024115847 0.026972419 0.0045663104 -0.072730757 0.94153768 -0.32896355 0.0018516313
-0.021416681 0.0270411 0.0049791536 0.096687168 0.92868686 -0.35803956 0.030626312
-0.017736237 0.027260046 0.005207852 0.5280565 0.75904894 -0.38078991 0.075249024
0.01832634 0.028811447 0.0038281609 -0.050783947 0.95724744 -0.28477785 0.0025390813
0.01969043 0.028812714 0.0038476265 -0.058374397 0.96420455 -0.2586543 0.002056649
0.018074678 0.029393543 0.0043794117 -0.050796818 0.95724815 -0.28477272 0.0025385898
0.02097946 0.029716391 0.0054900828 -0.059477713 0.9638564 -0.2596983 0.0016848568
0.02386299 0.029737208 0.0054299035 -0.068304434 0.95618886 -0.28467086 0.0014356709
0.026694469 0.0296987 0.0044858423 -0.055086762 0.95441866 -0.29334363 0.001116579
0.028696753 0.02990941 0.0039315349 -0.051717047 0.95262259 -0.29972589 0.0015733008
-0.0512053 -0.035093233 0.0082429182 0.85749906 -0.51437259 0.010778599 0.00011778065
-0.048091974 -0.029808603 0.007504297 0.87285388 -0.48797211 0.003066384 0.00034331705
-0.04450874 -0.023203745 0.0074303127 0.90137905 -0.424016 -0.08789888 0.0006959801
-0.043687005 -0.021555208 0.0074629611 0.91886085 -0.35598531 -0.17020373 0.0016599094
-0.042776238 -0.019541444 0.0075217714 0.92217141 -0.33400482 -0.19504015 0.0029373588
-0.041794073 -0.017168442 0.007792043 0.92322767 -0.31372389 -0.22187354 0.0012814605
-0.041004766 -0.014323438 0.00735411 0.93119562 -0.22902688 -0.28358662 0.0027322012
-0.040384848 -0.013450971 0.00860231 0.92011815 -0.24901535 -0.30228099 0.0026850393
-0.0784171 -0.011115723 0.0078904461 -0.74361438 0.57753623 -0.33688208 0.0021849903
-0.040014777 -0.010978479 0.0078995153 0.89946944 -0.17712085 -0.39947838 0.0041282163
-0.076922387 -0.0088986019 0.0072303093 -0.7235086 0.58273703 -0.37007141 0.0038057379
-0.07598491 -0.0074402578 0.0076253242 -0.72274828 0.58104956 -0.37418759 0.0025372608
-0.039499182 -0.0081990678 0.0079880133 0.85930151 -0.20252678 -0.46966353 0.0036725681
-0.0046617766 -0.0067366594 0.0094569456 -0.12203516 -0.80727798 -0.57741642 0.0030225858
-0.003001356 -0.0067316676 0.0091513693 -0.094538875 -0.7871896 -0.60942167 0.0012291074
-3.248651e-05 -0.006935087 0.0089209694 -0.092642054 -0.79027641 -0.60570675 0.0010028007
0.002795442 -0.0072798762 0.0089259073 -0.10526675 -0.78800547 -0.60660219 0.0013346452
0.0058294786 -0.0075535811 0.0087888129 -0.097867377 -0.79822564 -0.59435505 0.0027606383
0.0089331586 -0.0082039032 0.0085951872 -0.10695487 -0.79850137 -0.59241569 0.0026110311
0.011886023 -0.0082337726 0.0082784556 -0.1101115 -0.807096 -0.58006167 0.0015008777
0.014841469 -0.0082655232 0.0077701737 -0.10481573 -0.79549938 -0.59682029 0.00064117991
0.017918019 -0.0085383719 0.0074893716 -0.10818178 -0.78578681 -0.60896295 0.001261592
0.020769082 -0.0087394034 0.0070981574 -0.11432265 -0.77533644 -0.62111491 0.0012710582
0.02375157 -0.0085243918 0.0068216599 -0.095103666 -0.79757982 -0.59566921 0.002665404
0.025568413 -0.008336314 0.0065670437 -0.10624278 -0.79596639 -0.59594464 0.0022784758
-0.074686401 -0.0056706304 0.0078947004 -0.6549862 0.62748092 -0.42102361 0.0017130551
-0.073001899 -0.0043189512 0.0073408163 -0.64903438 0.62471437 -0.43415019 0.0014090304
-0.039155517 -0.0051299287 0.0076458477 0.65937132 -0.25591296 -0.70692152 0.020751832
-0.036940172 -0.0042449581 0.0089412164 0.52819312 -0.63650781 -0.56202292 0.05784395
-0.017505843 -0.0048362506 0.0089350678 0.0097374814 -0.92493618 -0.37999773 0.018951325
-0.015040604 -0.0045810714 0.0081126168 0.006319941 -0.9137243 -0.40628576 0.011593388
-0.012176963 -0.0048618778 0.008016197 -0.078008592 -0.8427254 -0.53266168 0.00086914538
-0.0089557525 -0.0052455985 0.0080087129 -0.11025729 -0.80759776 -0.57933515 0.00057345669
-0.0060902545 -0.0055537219 0.0079528652 -0.096716829 -0.80800635 -0.58118117 0.00094593951
-0.003063661 -0.0056451652 0.0075452602 -0.099667534 -0.82597637 -0.55482376 0
-0.00023393682 -0.0058782315 0.0073838714 -0.098185182 -0.80956048 -0.57876712 0.00073232298
0.0026342222 -0.0063125463 0.0075149382 -0.099119313 -0.81235528 -0.57467753 0.0005600616
0.0056913435 -0.0064554624 0.0071780742 -0.11763484 -0.79583621 -0.59397542 0.0012827414
0.0088329799 -0.006696173 0.0069722361 -0.11618926 -0.8150506 -0.56762016 0.0015505687
0.011022149 -0.0066895867 0.0065681762 -0.12120748 -0.80842996 -0.57597721 0.0013528172
-0.071588069 -0.0026035504 0.0080824606 -0.52575535 0.67165363 -0.52197951 0.0027799101
-0.069229074 -0.0017106729 0.007376092 -0.34842795 0.69913435 -0.62434697 0.00063746027
-0.066953644 -0.0012011314 0.0067575402 -0.29722106 0.70381474 -0.64521664 0.00015854856
-0.038655918 -0.0027773322 0.0069843275 0.31808609 -0.45296016 -0.83285558 0.08365114
-0.036867198 -0.0030742879 0.0074730818 0.13308117 -0.88432544 -0.44750193 0.12467175
-0.068758078 -0.00015516463 0.008837942 -0.39882338 0.69130319 -0.6025278 0.0010429708
-0.066057272 0.00047148857 0.0081524104 -0.30961743 0.70509946 -0.63794345 0.00029025541
-0.063259199 0.0011810954 0.0076853023 -0.27033448 0.70212132 -0.65874499 0.0001008469
-0.060366943 0.0017657867 0.0071688094 -0.23937514 0.70535576 -0.66721272 7.9470497e-05
-0.058165595 0.0020937538 0.0067460812 -0.21208709 0.70857495 -0.67300868 6.0055489e-05
-0.062744498 0.0027654381 0.0091519486 -0.27388579 0.71381217 -0.64456099 0.00012749289
-0.059994895 0.0032692016 0.0086267088 -0.24166188 0.72283763 -0.64738351 0.0001775237
-0.05695837 0.0036142701 0.0079923626 -0.21174832 0.73055327 -0.64919531 0.00015918248
-0.054259371 0.0041160495 0.0076976991 -0.1768077 0.72765732 -0.66276228 0.00030602966
-0.051083572 0.0042949454 0.007220238 -0.065365329 0.72157437 -0.68924439 0.0013078511
-0.048064556 0.0042952835 0.0072619743 0.032518849 0.68917245 -0.72386736 0.00023643189
-0.044999022 0.0041865385 0.0073867789 0.0084743053 0.61831951 -0.7858811 0.0024690363
-0.042142317 0.0040195379 0.0071393172 -0.20047215 0.47426215 -0.85725516 0.020646017
-0.040319126 0.0042905477 0.0067527913 -0.37514469 0.24783193 -0.89322215 0.045843415
-0.0079183765 0.004289947 0.0067054457 0.97967815 0.14608139 -0.1374438 0.069163874
-0.006831083 0.0037455242 0.0072793146 0.69599354 0.019155303 -0.71779251 0.19995885
-0.053607013 0.0055070189 0.0090832282 -0.18738383 0.74073023 -0.64514029 0.00024187333
-0.050874233 0.0058795284 0.0088415034 -0.094604105 0.73675728 -0.66950637 0.0012896857
-0.048147481 0.0059998869 0.0089152046 0.0015768099 0.71047664 -0.70371908 0.00065214495
-0.045269344 0.0057517462 0.0088186283 -0.03105149 0.66789275 -0.74360949 0.0014155174
-0.042004324 0.0061769527 0.0086774696 -0.24555846 0.55716926 -0.79326129 0.011430172
-0.040115327 0.0067732227 0.0074977926 -0.76126063 0.22246838 -0.60908949 0.023443289
0.070396118 0.0081721023 0.0089003872 0.83463639 0.47790051 -0.2738488 0.0076690558
-0.039869271 0.0098047014 0.0078091328 -0.86408609 0.19926411 -0.46222186 0.012069887
-0.0084738787 0.010885702 0.0069859256 0.53883588 0.57061905 -0.61971754 0.054238494
-0.0068197758 0.010878392 0.0066783852 0.050712202 0.75946879 -0.6485641 0.029986022
0.068784177 0.0099578816 0.0076401611 0.8206389 0.44738123 -0.35553038 0.0067751831
-0.039712526 0.012838352 0.0080887508 -0.91028988 0.20330083 -0.36061203 0.012190504
-0.0090074204 0.012632543 0.0078875367 0.68535256 0.52319348 -0.50651807 0.052299201
-0.0059425686 0.011987312 0.0082937889 -0.13828817 0.8198995 -0.55555493 0.012812635
-0.0030407771 0.012743471 0.0078833234 -0.22181508 0.78744853 -0.57508516 0.0020240236
-0.00032718549 0.013476729 0.007858621 -0.092025422 0.79473156 -0.59994417 0.0027962185
0.0028761702 0.013275828 0.0078066881 0.033502966 0.82012099 -0.57120848 0.0011097519
0.0058214129 0.013113026 0.0079846811 -0.0065251938 0.84509218 -0.53458077 0.00096476794
0.0074694762 0.013104089 0.0076748361 -0.0050575947 0.84938592 -0.52774799 0.0007537097
