# .PCD v0.7 - Point Cloud Data file format
VERSION 0.7
FIELDS x y z normal_x normal_y normal_z curvature
SIZE 4 4 4 4 4 4 4
TYPE F F F F F F F
COUNT 1 1 1 1 1 1 1
WIDTH 556
HEIGHT 1
VIEWPOINT 0 0 0 1 0 0 0
POINTS 556
DATA ascii
-0.0048678657 -0.0050638653 0.012256294 -0.49637508 -0.50184286 -0.70835412 0.00014033247
-0.080732092 0.00050378975 0.013944342 -0.41629899 -0.80503213 -0.42263272 0.0036744096
-0.078564003 -0.00014551985 0.013293483 -0.30851805 -0.82950264 -0.46555567 0.0033713286
-0.075744286 -0.0010604946 0.013477963 -0.15871193 -0.85035843 -0.5016982 0.0034702835
-0.072777234 -0.0011696842 0.01322721 0.0093335593 -0.78864723 -0.61477506 0.0018955078
-0.069674522 -0.0008505939 0.013210407 0.17784126 -0.72666419 -0.66357487 0.0039828261
-0.066860929 -0.00057467585 0.013865623 0.27061298 -0.65202147 -0.7082631 0.0020411534
-0.064126275 0.00012665737 0.014589881 0.41937798 -0.53537279 -0.73314255 0.0015660543
-0.012363427 -0.00024547148 0.014320313 -0.51348907 -0.51836538 -0.68383205 3.26708e-05
-0.010143418 -0.00084549165 0.013147245 -0.5132184 -0.51157331 -0.68912959 4.5765046e-05
-0.0082146861 -0.001718778 0.01231414 -0.51294899 -0.50521189 -0.69400603 3.1021391e-05
-0.084340923 0.0030215667 0.013303527 -0.51096427 -0.76143551 -0.39891282 0.0012684981
-0.081995718 0.001554791 0.01321354 -0.42953274 -0.79927051 -0.42031941 0.0032879091
-0.080159806 0.001069557 0.012336551 -0.37009844 -0.80255157 -0.4679082 0.0023637002
-0.066250905 0.0013874584 0.012562934 0.34353366 -0.55950493 -0.75428039 0.0018446146
-0.063752145 0.0023522493 0.013413069 0.44316295 -0.4683744 -0.76435071 0.0011821176
-0.061378665 0.0029070736 0.014587565 0.48181143 -0.44137067 -0.75700045 0.00013279785
-0.017812887 0.0038651638 0.01515752 -0.53520685 -0.30309567 -0.78847104 0.028818388
-0.015484347 0.0029369006 0.014177009 -0.5835281 -0.33734694 -0.73870963 0.022829166
-0.012977555 0.0020437248 0.013034967 -0.51020187 -0.47544992 -0.7166878 0.0021873729
-0.01100431 0.0010694378 0.012360155 -0.52697635 -0.465857 -0.71082574 0.0020597116
-0.087983049 0.0066473149 0.012413322 -0.66029924 -0.60534906 -0.44447428 0.0016050651
-0.086039752 0.0046951436 0.012459963 -0.58863646 -0.67216927 -0.44910526 0.0019410041
-0.062779717 0.0050364714 0.012568072 0.47630063 -0.39703411 -0.78453916 8.0996862e-05
-0.060746267 0.0054952288 0.013583076 0.48718235 -0.39562744 -0.77854496 6.9576636e-05
-0.05866969 0.0059659653 0.014651752 0.49753076 -0.40824774 -0.76537371 0.00012261384
-0.018042002 0.005386896 0.014882346 -0.59716916 0.11838598 -0.79333079 0.028975001
-0.01570729 0.0054587447 0.013465571 -0.57105237 0.21542563 -0.79214329 0.019026637
-0.013255087 0.0066523165 0.012981801 -0.59205407 0.17829838 -0.7859273 0.013299078
-0.089655273 0.0088784806 0.012407391 -0.78936791 -0.49244627 -0.36659926 0.0070887539
-0.088637084 0.007209938 0.012893199 -0.68201488 -0.58445513 -0.4396224 0.0032790757
-0.060134228 0.0080237547 0.012718819 0.48954025 -0.36776531 -0.79063207 8.0114129e-05
-0.057838194 0.008378787 0.014004708 0.49674878 -0.37508041 -0.78265917 6.1356157e-05
-0.055812407 0.0090537891 0.014960459 0.50920045 -0.36940268 -0.7773394 0.00022209361
-0.01511694 0.0082484121 0.014528639 -0.53118044 0.22037674 -0.81809622 0.0085190833
-0.012977554 0.0083286697 0.013028416 -0.55032903 0.24836028 -0.79715443 0.0060546431
-0.09161374 0.012254637 0.013785957 -0.84666377 -0.39249557 -0.35931545 0.0037232968
-0.059509184 0.0099910758 0.012223302 0.48931095 -0.35169196 -0.79805243 1.1904113e-05
-0.057405997 0.011121294 0.013045293 0.51231986 -0.30180421 -0.80401659 0.00073462533
-0.055052742 0.011662312 0.014407528 0.53552103 -0.27881783 -0.79716873 0.0011725615
-0.014832899 0.011274294 0.014765562 -0.57312328 0.11735196 -0.81102294 0
-0.01270627 0.011405864 0.01328189 -0.57314575 0.11736789 -0.81100476 8.3302064e-07
-0.011002105 0.012780126 0.01227638 -0.57034826 0.047487717 -0.82002914 0.0080154426
-0.056911651 0.014218809 0.012463284 0.59533387 -0.10896958 -0.79605484 0.0021850853
-0.054973241 0.01449473 0.013865682 0.61387086 -0.074934371 -0.78584182 0.0036308274
-0.014438644 0.014523799 0.014957541 -0.54379892 -0.032608513 -0.8385818 0.0056669023
-0.012719994 0.014491696 0.013738113 -0.57542425 -0.059709191 -0.81567258 0.011210728
-0.01084721 0.014696568 0.012444235 -0.57336676 -0.021142397 -0.81902599 0.010645543
-0.056832284 0.017725652 0.012465642 0.62675452 0.085878134 -0.77446997 0.0025473696
-0.055025116 0.017255429 0.013895172 0.63937277 0.13517314 -0.75692183 0.0039551593
-0.015114056 0.017443795 0.014519806 -0.40363219 0.03707765 -0.91416973 0.025255781
-0.012893124 0.017301189 0.013312357 -0.59260494 0.00057384494 -0.80549306 0.021856202
-0.010823959 0.017064821 0.012571642 -0.55287009 0.16717222 -0.81632602 0.036756404
-0.057142116 0.02083697 0.013084271 0.66323078 0.26882729 -0.69846749 0.0024532978
-0.055375665 0.019963684 0.014367736 0.64710885 0.33007416 -0.68724173 0.0033006521
-0.014440115 0.019013133 0.015000998 -0.53685433 0.42307979 -0.72992527 0.053194031
-0.01247687 0.019389197 0.014134333 -0.29250103 0.58501279 -0.75644112 0.014229156
-0.010068635 0.020305991 0.013617993 -0.40108508 0.72313285 -0.56232518 0.032642797
-0.0071039936 0.021157414 0.012582784 -0.34754801 0.83061755 -0.43506885 0.012878065
-0.003942553 0.021624317 0.012629185 -0.25587869 0.8276881 -0.49945822 0.009395659
-0.059758943 0.024324894 0.012694636 0.62052083 0.5426634 -0.56610096 0.00096986262
-0.057969742 0.02330015 0.013799158 0.63428098 0.48906979 -0.59874737 0.0047087809
-0.055973392 0.022384819 0.015124082 0.63193667 0.46211773 -0.62217617 0.00093647192
-0.0060076453 0.022327974 0.013827979 -0.31945637 0.86588013 -0.38496655 0.011497551
-0.0043123704 0.022266924 0.012436161 -0.25587839 0.82768846 -0.49945781 0.0093958322
-0.00096440897 0.022814419 0.012206792 -0.23395103 0.83779627 -0.49331969 0.010609154
-0.062813006 0.027414586 0.012713742 0.54325664 0.73542982 -0.40498784 0.0032707038
-0.060803402 0.026167683 0.01352693 0.60736489 0.63767362 -0.47379342 0.0047374256
-0.059074674 0.025348211 0.014534642 0.60521513 0.60671383 -0.51537657 0.0033973013
-0.084270246 0.029577997 0.013420372 -0.33135715 0.86983687 -0.36549443 0.0044820965
-0.081561267 0.030445766 0.013889923 -0.23651077 0.90755928 -0.34698522 0.002451963
-0.069059663 0.03064999 0.012684176 0.26092839 0.89481455 -0.36224759 0.0048424061
-0.066672131 0.030093104 0.013710213 0.37038663 0.86909509 -0.32785279 0.0029966552
-0.064015433 0.028794255 0.013825157 0.46884131 0.81523913 -0.33996016 0.005603605
-0.062096018 0.027976524 0.014763444 0.54264015 0.78073585 -0.30982783 0.0027211166
-0.076296367 0.031200787 0.012569079 -0.11354574 0.91819137 -0.37951526 0.0052449424
-0.072123609 0.031205848 0.012648254 0.11925727 0.8927604 -0.43446121 0.0034971989
-0.070396781 0.031296901 0.014072795 0.22626589 0.92363131 -0.30936888 0.0038829271
0.011522586 -0.026974715 0.017555751 -0.29819596 -0.65193772 -0.69717747 0.0064781718
0.014228093 -0.027397458 0.016837159 -0.30973548 -0.63774157 -0.70523018 0.0061128708
0.016910166 -0.027553527 0.016022872 -0.27379879 -0.67278665 -0.68730801 0.0055930829
0.020115539 -0.028197005 0.016189702 -0.19387934 -0.71469325 -0.67203009 0.0071012364
0.022642875 -0.028190583 0.016096659 -0.19219565 -0.7567389 -0.6248256 0.0059485636
0.0059309732 -0.023372028 0.017867273 -0.43414345 -0.49172574 -0.75480145 0.00026696586
0.0082095945 -0.024274159 0.017240256 -0.3826744 -0.50739026 -0.77208507 0.00028983073
0.010962187 -0.024736762 0.016267437 -0.34308025 -0.51783174 -0.78367484 0.00025711037
0.013879765 -0.025598653 0.015624096 -0.30374643 -0.5365932 -0.78727746 0.00028008971
0.0031546734 -0.020781986 0.017824464 -0.45700225 -0.48946953 -0.74267662 9.9833414e-05
0.0052633248 -0.021446057 0.017037593 -0.43349382 -0.4879458 -0.7576226 0.00021999671
0.0078970129 -0.021783916 0.015855504 -0.38579422 -0.48525631 -0.78465861 8.7476285e-05
-4.4733984e-05 -0.017773632 0.01788751 -0.51090348 -0.50271487 -0.6973201 0.00021737616
0.0022515522 -0.01856445 0.016909152 -0.44529083 -0.49462369 -0.74636686 0.00017381206
0.0048827445 -0.019095285 0.015758066 -0.41244841 -0.4886958 -0.76880616 7.3885283e-05
-0.0030561211 -0.014572784 0.017857391 -0.53368717 -0.50554335 -0.67794096 6.8933412e-05
-0.00091774855 -0.015483376 0.016906269 -0.51186287 -0.50356019 -0.6960054 0.00012897351
0.0014573499 -0.016179891 0.015794227 -0.45709142 -0.50126898 -0.73470867 0.00060593872
-0.0056885369 -0.011555874 0.017685551 -0.53588605 -0.50640672 -0.67555791 5.2206404e-05
-0.0037478735 -0.012442291 0.016818032 -0.52589941 -0.50648659 -0.68330163 0.00012643071
-0.0017276888 -0.013183616 0.015838526 -0.51052248 -0.50922412 -0.6928618 8.2442297e-05
-0.0085133957 -0.00873728 0.017821787 -0.54531163 -0.51699603 -0.65981078 2.9077646e-05
-0.0064871414 -0.0095220981 0.016775796 -0.53779143 -0.5106132 -0.67086107 7.5450305e-05
-0.0045911195 -0.010184756 0.015795855 -0.52920276 -0.50848681 -0.67925376 4.8411704e-05
-0.011903837 -0.0053516566 0.017926652 -0.53657192 -0.52812928 -0.65815645 4.4170705e-05
-0.0096957376 -0.0064044422 0.016965861 -0.53662455 -0.51742113 -0.66656536 4.0701179e-05
-0.0074181007 -0.0071126353 0.015687888 -0.52775723 -0.51032579 -0.67899919 3.7385595e-05
-0.075534448 -0.0026410492 0.016851516 -0.24413618 -0.89980304 -0.36159638 0.005930909
-0.072644792 -0.0032469574 0.016617082 -0.1430302 -0.89431798 -0.42395476 0.0030411019
-0.06978602 -0.0034171944 0.016645804 -0.0076128594 -0.87423319 -0.48544648 0.0032902439
-0.066852726 -0.0031443327 0.016753195 0.1719598 -0.80533057 -0.56733805 0.0037799273
-0.063946106 -0.0027361955 0.017330302 0.30153283 -0.71012825 -0.63623565 0.0032717744
-0.061975751 -0.002339799 0.017929731 0.39175901 -0.64072853 -0.66029668 0.0019791697
-0.014728348 -0.0025283978 0.01795405 -0.51705855 -0.53985631 -0.66423315 0.00015584753
-0.012688955 -0.0033287494 0.016970625 -0.52330148 -0.52696198 -0.66967648 3.5019035e-05
-0.010532894 -0.0040020831 0.015792254 -0.52835917 -0.51222533 -0.67709804 4.3815318e-05
-0.08098612 -6.8385038e-05 0.015855569 -0.42274907 -0.82362062 -0.37806401 0.0022020659
-0.078548297 -0.0013046988 0.01584187 -0.34509042 -0.87701625 -0.33429787 0.003124872
-0.076763585 -0.0017484165 0.015272318 -0.19454265 -0.88100475 -0.43125832 0.0027546717
-0.065830357 -0.0017493776 0.015366226 0.2173482 -0.71911371 -0.66002673 0.0034048024
-0.063571006 -0.0012290467 0.016012402 0.34963587 -0.63555092 -0.68835294 0.0040383437
-0.061023783 -0.00045857683 0.016926099 0.44250351 -0.54642981 -0.71105921 0.0019004561
-0.058945756 0.00029625633 0.017793117 0.48256981 -0.51437265 -0.70890558 0.00066178723
-0.017542131 0.00029669836 0.0177081 -0.49784383 -0.54641467 -0.67348546 0.00015108267
-0.015504051 -0.00051071588 0.016904727 -0.50485641 -0.54258412 -0.67135876 6.775395e-05
-0.013343541 -0.0011920145 0.01580633 -0.51104689 -0.52733243 -0.67878681 6.9761467e-05
-0.083598174 0.0016186052 0.015793143 -0.47841561 -0.79865062 -0.36506939 0.0010724891
-0.060203616 0.0020617326 0.015826253 0.49412644 -0.44183093 -0.7487486 0.00011883111
-0.057889793 0.0026253446 0.017065538 0.50581747 -0.4479495 -0.73721772 0.00019867807
-0.055754371 0.0037307069 0.017856134 0.51157439 -0.43579242 -0.74052447 9.4521449e-05
-0.02111898 0.0034952075 0.017748324 -0.5597316 -0.31817767 -0.76515591 0.0094009545
-0.018831996 0.0024599587 0.016916018 -0.52647471 -0.4544965 -0.71851039 0.0060831816
-0.016304549 0.0016696579 0.01573824 -0.5151388 -0.50393063 -0.69331521 0.0016342151
-0.05738708 0.0053214063 0.015846504 0.50331759 -0.40979025 -0.76075184 8.5675267e-05
-0.055079658 0.0057490584 0.017163113 0.50730264 -0.4121806 -0.75680327 4.466543e-05
-0.052957658 0.0066970252 0.018076239 0.51640564 -0.42368183 -0.74419016 0.0001150422
-0.021572651 0.0052808113 0.017400069 -0.51884252 0.066141985 -0.85230732 0.026744027
-0.01932653 0.0056188693 0.016228851 -0.53787082 0.11810067 -0.83471388 0.025709597
-0.016989596 0.006675493 0.015624865 -0.51212722 0.21279165 -0.832133 0.017062444
-0.056566391 0.0072348081 0.015372782 0.50858361 -0.39287651 -0.76615328 0.00017099606
-0.054509554 0.0082598068 0.01621604 0.51049966 -0.37163216 -0.77542222 0.00023114684
-0.052159328 0.0086675882 0.017595097 0.53609854 -0.34963137 -0.76834643 0.001031273
-0.018929185 0.0083076488 0.017231356 -0.53325307 0.26799059 -0.80238533 0.0074561564
-0.01680029 0.0084923664 0.015753597 -0.56525069 0.24714313 -0.78702724 0.007573755
-0.053957652 0.010699015 0.015468805 0.55511189 -0.25990936 -0.79012525 0.0026088711
-0.051943306 0.011470719 0.016662899 0.57709199 -0.22690202 -0.78452551 0.0025547496
-0.050026596 0.011967044 0.017966516 0.57362676 -0.19513911 -0.79553324 0.0028748773
-0.018379299 0.011440167 0.017295817 -0.5649575 0.089913145 -0.8202064 0.00060477038
-0.016286889 0.011504613 0.015826389 -0.55896866 0.098415926 -0.8233276 0.00053684594
-0.051896304 0.014557931 0.016262759 0.59940386 -0.020297281 -0.80018938 0.0025632458
-0.049860582 0.014475162 0.017885879 0.62053305 0.020624798 -0.78390902 0.0026477606
-0.023586558 0.015737575 0.018148867 -0.32927808 -0.65035301 -0.68455589 0.011008445
-0.021859048 0.015436326 0.017487137 -0.28323615 -0.57534033 -0.7673074 0.0084422538
-0.018365391 0.014714573 0.017356161 -0.36081937 -0.24732234 -0.89924473 0.029131263
-0.015879553 0.014550691 0.015979329 -0.47782186 -0.1100837 -0.8715319 0.014090586
-0.053742234 0.018460345 0.015236436 0.66843855 0.21116638 -0.71316105 0.0050195591
-0.051933516 0.017381826 0.016581673 0.6526466 0.23165828 -0.72137851 0.0024211134
-0.05012545 0.016863247 0.018008061 0.63160855 0.23606123 -0.73847532 0.0025627948
-0.024201848 0.017643176 0.017691705 -0.44278708 -0.19639798 -0.87485272 0.0045903348
-0.021820076 0.01738531 0.016711639 -0.26282287 -0.26977149 -0.92636251 0.017285608
-0.018902918 0.017315444 0.015892968 -0.32302347 -0.29995844 -0.89759725 0.01801772
-0.016357707 0.017314937 0.015631173 -0.42737269 -0.094670914 -0.89910507 0.029754667
-0.054080274 0.020940032 0.016117146 0.65204757 0.37706873 -0.65776384 0.0012157123
-0.052355338 0.019922771 0.017202083 0.65346968 0.38114282 -0.65399361 0.0022370431
-0.024573592 0.020320131 0.017526893 -0.39793059 0.092542373 -0.91273606 0.01325994
-0.021809131 0.020475123 0.016496297 -0.23752813 0.14228773 -0.96090305 0.0087483283
-0.018916996 0.020500246 0.015977696 -0.12577599 0.25299433 -0.95925719 0.014959138
-0.015882595 0.020459699 0.016090475 -0.054014504 0.48721796 -0.87160832 0.03385644
-0.012929905 0.020949354 0.016338725 -0.18698396 0.74276829 -0.64290917 0.016647972
-0.0098998602 0.021640362 0.015768087 -0.29206061 0.82548749 -0.48298144 0.014740419
-0.0078471182 0.021654448 0.01643952 -0.32958978 0.83502448 -0.44057322 0.012504592
-0.056993127 0.024287289 0.015781773 0.60640883 0.56721282 -0.55725926 0.003931778
-0.05515945 0.023352718 0.016899688 0.62663954 0.55415845 -0.54793376 0.0049802149
-0.052944832 0.021944817 0.017968504 0.6400249 0.50368196 -0.58023494 0.0058830688
-0.024300078 0.022507239 0.017914094 -0.36830214 0.46412998 -0.80556619 0.010422944
-0.021858988 0.02305324 0.017492751 -0.1749351 0.53666931 -0.82545978 0.0095229587
-0.018746037 0.023043344 0.017272022 0.019292217 0.58565748 -0.81032902 0.0065552592
-0.015882501 0.022832612 0.017608492 0.13329056 0.64852923 -0.74942881 0.0065598758
-0.013408025 0.022128895 0.017868904 -0.031154035 0.76646191 -0.64153373 0.034944229
-0.0099954261 0.022457328 0.016776798 -0.18413514 0.84295303 -0.50549424 0.015378997
-0.0077237831 0.022417277 0.015863894 -0.31982121 0.83586937 -0.44613546 0.015380279
-0.060047884 0.027174234 0.016207442 0.50888431 0.79206288 -0.33715448 0.002915482
-0.057922874 0.025917931 0.016883144 0.54988414 0.71516526 -0.43146959 0.0043535652
-0.066578873 0.030614737 0.016612781 0.38828361 0.88946521 -0.24101365 0.0012349958
-0.063562527 0.029306818 0.016389273 0.44969058 0.85354429 -0.26313588 0.0014104031
-0.061561495 0.028303932 0.016574387 0.517232 0.80036575 -0.30312663 0.0020537497
0.010088935 -0.029095139 0.020971326 -0.25908703 -0.79085869 -0.55445153 0.0024178657
0.0055561159 -0.026784142 0.02040082 -0.40883449 -0.65152025 -0.63904279 0.0072032111
0.0080744391 -0.027291749 0.019482723 -0.35432282 -0.64961213 -0.67265099 0.0047706254
0.011042628 -0.028260717 0.019156972 -0.28969127 -0.69810331 -0.65477532 0.0049814265
0.014027204 -0.028996449 0.019565156 -0.28815106 -0.70681357 -0.64605224 0.003847938
0.0027895251 -0.024130784 0.020339752 -0.49628809 -0.50323856 -0.70742422 0.00029190065
0.005102938 -0.024627538 0.019164467 -0.44059819 -0.50525457 -0.74201816 0.00047687534
0.0071159443 -0.025338352 0.018462915 -0.39385545 -0.53510123 -0.74735838 0.0011101698
-0.00042843109 -0.021121101 0.020689325 -0.54589164 -0.50551242 -0.66817629 0.00010065363
0.0018639781 -0.021807829 0.019378744 -0.49455678 -0.49557003 -0.71401966 0.00045249931
0.0041008312 -0.022701789 0.018498031 -0.44870305 -0.49103391 -0.74669349 0.00019733769
-0.003266342 -0.017696505 0.020345517 -0.5501138 -0.51186728 -0.65982324 0.00013040983
-0.0011653048 -0.018844934 0.019570276 -0.54135215 -0.50297344 -0.67376226 5.0370574e-05
0.0008966655 -0.019688064 0.018535323 -0.50634378 -0.4982619 -0.70381176 0.00017979351
-0.0061087105 -0.014867099 0.020585306 -0.56191128 -0.51157224 -0.65003812 0.00010173489
-0.0040639001 -0.015628023 0.01943825 -0.53934652 -0.50888956 -0.67092234 7.511508e-05
-0.0018365242 -0.01676714 0.01855324 -0.51969802 -0.49969304 -0.69297969 0.00019334114
-0.0087577086 -0.011834714 0.020502113 -0.56144661 -0.51530248 -0.64748824 5.570678e-05
-0.0067386096 -0.01263574 0.019389821 -0.55341488 -0.50849015 -0.65967405 5.6695884e-05
-0.0049454253 -0.013370384 0.018444775 -0.54293782 -0.50772321 -0.66890627 0.00013760777
-0.011984902 -0.0088137621 0.020822434 -0.55392873 -0.53671026 -0.6364786 3.1331958e-05
-0.009780474 -0.009729703 0.019671513 -0.55651659 -0.52307105 -0.64551216 4.4647673e-05
-0.0075859018 -0.010640978 0.018555172 -0.54786056 -0.51358229 -0.66036505 7.1448478e-05
-0.06944292 -0.0052096434 0.020564569 -0.12412527 -0.93920636 -0.32013193 0.0036720925
-0.066842116 -0.005204428 0.02026826 0.031962838 -0.90765208 -0.41850471 0.0030399247
-0.064366117 -0.0052140392 0.020815661 0.18068258 -0.85448343 -0.4870441 0.0030401086
-0.015011556 -0.0055907904 0.020689441 -0.53074336 -0.5461989 -0.64805728 8.4431165e-05
-0.012900813 -0.0066140792 0.019764129 -0.54160047 -0.53999311 -0.64426422 3.6832036e-05
-0.010797277 -0.0076311463 0.01882023 -0.54505455 -0.53167474 -0.64825737 3.7455557e-05
-0.078124344 -0.0023615696 0.019860921 -0.31345555 -0.90520924 -0.28695282 0.0019236415
-0.076007783 -0.0032018162 0.019082038 -0.26756755 -0.91293299 -0.30815732 0.0025802255
-0.072842948 -0.0042444877 0.019352768 -0.18986826 -0.9329322 -0.30592072 0.0018733243
-0.069771908 -0.0046166591 0.019032739 -0.078639455 -0.92386216 -0.37455902 0.0058074337
-0.066390589 -0.0044524367 0.018865027 0.094506569 -0.87476039 -0.47525027 0.0030812372
-0.063632436 -0.0041776043 0.019370783 0.22480243 -0.81966192 -0.52689499 0.0014316065
-0.060852289 -0.0033294098 0.019707084 0.38822916 -0.69217217 -0.60842085 0.0028136175
-0.05830618 -0.002725767 0.02065157 0.44428527 -0.63016325 -0.63679266 0.0021878236
-0.017847333 -0.0027484084 0.020564754 -0.50914162 -0.56384975 -0.65026778 0.00011379152
-0.015812505 -0.00357458 0.019641239 -0.5201062 -0.54832685 -0.65484899 8.2619626e-05
-0.013811991 -0.0044231652 0.01872756 -0.52769321 -0.54289657 -0.65330178 0.00010216654
-0.059808552 -0.0016406662 0.018615043 0.45149374 -0.59711713 -0.66302681 0.0024321699
-0.057732273 -0.00072270713 0.019387448 0.48180366 -0.53608716 -0.69316363 0.0012457995
-0.055523604 -9.7554177e-05 0.020547125 0.50731778 -0.52361864 -0.68443561 0.0002385933
-0.021026045 -0.0001697205 0.020719165 -0.49764043 -0.57709241 -0.64754802 8.4498868e-05
-0.018779799 -0.00065778429 0.019457158 -0.5006665 -0.55673623 -0.66285574 6.9556918e-05
-0.016634699 -0.0015931166 0.018574594 -0.51096374 -0.55361712 -0.65758955 0.00011860798
-0.056787848 0.0014229778 0.018580902 0.50865394 -0.47330645 -0.71920246 0.00015336231
-0.054670162 0.0022964138 0.019546341 0.51544583 -0.47718897 -0.71176279 0.00014520662
-0.052439086 0.0032293154 0.020539986 0.52218038 -0.45888796 -0.71885288 7.8415724e-05
-0.024466095 0.0031207376 0.020413885 -0.57451463 -0.25029701 -0.77928454 0.022920484
-0.022104636 0.0022489929 0.019442728 -0.54974484 -0.40908793 -0.72830468 0.012159947
-0.020038128 0.0012337777 0.018797604 -0.49477398 -0.55721956 -0.66686207 9.3084534e-05
-0.053949207 0.0048158178 0.018490497 0.51570976 -0.42857033 -0.74186993 0.00014989974
-0.051677488 0.0055372803 0.019647807 0.51963288 -0.42723534 -0.73989975 6.6356726e-05
-0.049484838 0.0063413568 0.020726053 0.52255106 -0.43781516 -0.7316134 0.0003840292
-0.026579332 0.0053007752 0.020938193 -0.59172153 0.034302361 -0.80541235 0.039675523
-0.024731249 0.0054232706 0.019765951 -0.57252485 0.10538948 -0.81308568 0.03363112
-0.02242836 0.0060753138 0.018820599 -0.6163677 0.10347286 -0.78063065 0.023886938
-0.051112261 0.00783394 0.01873499 0.5356192 -0.36138695 -0.76322448 0.00093581557
-0.048922669 0.0084953718 0.019927589 0.55020881 -0.35211936 -0.75715405 0.0015298418
-0.046859533 0.0093756476 0.020977257 0.54943091 -0.32069537 -0.77154404 0.0015071792
-0.02398221 0.0082997065 0.020801445 -0.54900235 0.24541917 -0.79897803 0.0075185229
-0.021954529 0.0084083239 0.019383868 -0.54690427 0.25445536 -0.797589 0.0047973362
-0.020202009 0.0092418306 0.018265827 -0.54675609 0.24155816 -0.8016904 0.0041428385
-0.048635472 0.011317034 0.019150781 0.59099305 -0.17078368 -0.78839087 0.0037167144
-0.04653937 0.01139669 0.020704584 0.60278618 -0.15266225 -0.7831623 0.0044801068
-0.023741256 0.010987408 0.021019449 -0.57516646 0.083219945 -0.81379229 0.00037328139
-0.021975862 0.01124904 0.019809438 -0.57320052 0.086949736 -0.81478888 0.00028768502
-0.020024871 0.011789929 0.018508753 -0.52752763 -0.044801891 -0.84835571 0.03199004
-0.048289087 0.01453659 0.019197602 0.62641305 0.045279462 -0.77817506 0.0021125812
-0.046515699 0.014246979 0.020635087 0.65253562 0.07941477 -0.7535851 0.0030809706
-0.027191512 0.015366705 0.020615622 -0.47783381 -0.58742034 -0.65315562 0.0082667619
-0.024783237 0.015091231 0.019324074 -0.44558385 -0.52165765 -0.72754955 0.020777347
-0.021980044 0.013802472 0.019895876 -0.4043026 -0.43632475 -0.80384082 0.038743403
-0.019862929 0.014265096 0.018572489 -0.38457108 -0.38146532 -0.84058863 0.032544099
-0.048718158 0.017539846 0.019499585 0.63635194 0.28221554 -0.71792096 0.0033741009
-0.046893846 0.016810235 0.020852728 0.64460993 0.27473649 -0.7134409 0.0021813326
-0.029424682 0.018093264 0.020981787 -0.63756853 -0.18260783 -0.74843889 0.0068790619
-0.027600154 0.017533908 0.019823534 -0.55186003 -0.2741878 -0.78757322 0.0025840248
-0.025477115 0.017107528 0.018596021 -0.48447761 -0.26636684 -0.83326477 0.0028782231
-0.051038381 0.020715581 0.018996952 0.64731944 0.3868899 -0.65672958 0.0021173547
-0.049363375 0.01996804 0.020137848 0.63655084 0.43337303 -0.63795841 0.002887147
-0.02962826 0.020148687 0.020835755 -0.65565443 0.0057081608 -0.75503951 0.011992704
-0.027613694 0.020301657 0.019284079 -0.5435155 0.0068335976 -0.83937132 0.0058994293
-0.025851391 0.021390926 0.018231271 -0.43370461 0.12051236 -0.89295977 0.013831142
-0.054207481 0.024256688 0.019066487 0.58196968 0.65318459 -0.48441839 0.0055887755
-0.052124653 0.022921478 0.019861026 0.60047811 0.5950231 -0.53420377 0.0035864941
-0.029427286 0.022074904 0.021020947 -0.6278162 0.34176883 -0.69931453 0.020823298
-0.027459905 0.022968289 0.020004507 -0.54234797 0.46086174 -0.70247078 0.0076622604
-0.024992999 0.023833083 0.019221092 -0.3338643 0.58342391 -0.74037236 0.0089201704
-0.021925036 0.024527166 0.018811084 -0.12617293 0.73439604 -0.66689032 0.0030633344
-0.018808259 0.024522392 0.018712236 0.045670215 0.73413098 -0.67747027 0.0017063747
-0.015560213 0.024220852 0.019105135 0.19043984 0.70187634 -0.68636888 0.00098307361
-0.012899002 0.023722256 0.01973366 0.22426416 0.79262966 -0.56696016 0.025855957
-0.010770137 0.023426946 0.020743111 0.31107089 0.79632038 -0.51875687 0.02658111
-0.057709657 0.026994174 0.019443156 0.49627143 0.81178647 -0.30776194 0.0048094792
-0.055395484 0.025794744 0.020088578 0.53310573 0.74901056 -0.39342275 0.0033289017
-0.024292754 0.025470654 0.020705579 -0.30539867 0.74175936 -0.59709692 0.0027942252
-0.021849759 0.025765277 0.020399068 -0.13260463 0.78033793 -0.61113721 0.0023442474
-0.018740304 0.025699722 0.020124929 0.026085623 0.77316463 -0.63366878 0.0019541893
-0.015891735 0.025718061 0.020600827 0.16963154 0.73080301 -0.66117477 0.0015398028
-0.013791244 0.025487084 0.021033255 0.29407758 0.69285631 -0.65838325 0.0016540659
-0.062629938 0.029322114 0.018567203 0.44098881 0.87125355 -0.21551353 0.0007079076
-0.060472209 0.028461432 0.019345777 0.47906727 0.84210491 -0.24769688 0.0015942735
0.00614083 -0.029282007 0.023633866 -0.33156955 -0.79279584 -0.51140624 0.0024960695
0.0081169959 -0.029176062 0.022124218 -0.34394312 -0.74321455 -0.57387739 0.0065987841
0.0023931304 -0.02716971 0.022974545 -0.44757244 -0.66178453 -0.60143179 0.0073773935
0.0049345829 -0.028079445 0.022055309 -0.3853378 -0.71250796 -0.58638483 0.007328413
0.0069672111 -0.028552193 0.021342633 -0.34391654 -0.74325532 -0.5738405 0.0065963562
-0.00062545587 -0.024301833 0.023223128 -0.56288588 -0.51092911 -0.64970058 0.00019947557
0.0014674522 -0.024988499 0.021991257 -0.52032393 -0.52284378 -0.67520165 0.00045517879
-0.0034966075 -0.021137899 0.023332171 -0.57694674 -0.5144375 -0.63441825 0.00013469311
-0.0013825839 -0.022151548 0.022211518 -0.56019831 -0.50189626 -0.65899783 0.00015867746
-0.0062313154 -0.018075243 0.023304822 -0.58226794 -0.52280927 -0.62260306 8.3891762e-05
-0.0040856828 -0.018878175 0.022016447 -0.56297541 -0.51451957 -0.64678311 8.4357293e-05
-0.009006598 -0.014972158 0.023289355 -0.5825997 -0.52286685 -0.6222443 6.1890401e-05
-0.0070847822 -0.015883571 0.022284579 -0.57608944 -0.52198941 -0.62900555 9.287081e-05
-0.012123262 -0.01213217 0.023817865 -0.58014929 -0.53427559 -0.61479789 4.7185273e-05
-0.0099990936 -0.012785917 0.02239456 -0.57318121 -0.52747554 -0.62708288 6.9736365e-05
-0.0078244247 -0.01375379 0.021219788 -0.56501955 -0.51524407 -0.64441949 2.6934191e-05
-0.015100815 -0.0084951287 0.023262702 -0.55260861 -0.55556279 -0.6212678 5.8411835e-05
-0.013063895 -0.0096444795 0.022482876 -0.55654156 -0.54860127 -0.62393761 9.5116397e-05
-0.011058959 -0.010732629 0.02164476 -0.56233954 -0.53639024 -0.62933278 7.9069898e-05
-0.071842894 -0.005255077 0.023154555 -0.17497809 -0.95024592 -0.25771159 0.0015294667
-0.069795191 -0.0056193061 0.022234488 -0.12030026 -0.94901919 -0.29135966 0.0033247436
-0.066606484 -0.0060050506 0.022516806 0.029518805 -0.93825519 -0.34468216 0.0028267696
-0.063646495 -0.0059624403 0.022758573 0.09881793 -0.92685163 -0.36218932 0.0036984608
-0.060948979 -0.0055357865 0.022865389 0.27121881 -0.81761414 -0.50788522 0.0027528317
-0.058755469 -0.0052620904 0.023553826 0.33271188 -0.79292864 -0.51045763 0.0033342214
-0.018229119 -0.0056182388 0.02348139 -0.53629106 -0.56792277 -0.62438416 0.00019011185
-0.016020501 -0.0065724426 0.022364955 -0.54054928 -0.55499345 -0.63228846 0.00010689319
-0.014091797 -0.0075034983 0.021529434 -0.54732931 -0.5443809 -0.63567293 9.1902541e-05
-0.073351867 -0.0046633519 0.021897374 -0.26187047 -0.93214202 -0.25007007 0.0015218009
-0.060072839 -0.0045169927 0.021646475 0.28645906 -0.77304518 -0.56598783 0.0031579977
-0.057530127 -0.0038860859 0.022492185 0.41062731 -0.71128982 -0.57048386 0.0030253092
-0.055116598 -0.0029301033 0.023190886 0.46487871 -0.63903201 -0.61280167 0.0022113945
-0.021166468 -0.0029209852 0.023366688 -0.50776988 -0.59060127 -0.62718409 3.9693899e-05
-0.018920943 -0.0037709633 0.022340912 -0.52213025 -0.56689489 -0.63718933 8.7835746e-05
-0.016936142 -0.0046565719 0.021482704 -0.53280449 -0.56449032 -0.63045222 0.00016682972
-0.054426681 -0.00096196076 0.022044027 0.50224769 -0.54340017 -0.67265409 0.0007021295
-0.052148115 -0.00029338058 0.023280015 0.52288127 -0.53588957 -0.66288579 0.00018696107
-0.024401434 -0.00029201142 0.023473391 -0.48675948 -0.6014148 -0.63353413 8.5753934e-05
-0.022128131 -0.00090022583 0.022227677 -0.49591467 -0.58965117 -0.6374796 0.00010252144
-0.019770257 -0.0018080956 0.021222262 -0.50654477 -0.57101971 -0.64602548 7.2749899e-05
-0.053349927 0.0010355824 0.021370886 0.51653898 -0.51507884 -0.68401855 0.00026162178
-0.051441796 0.002029656 0.022102775 0.52119297 -0.48553169 -0.70186669 0.00010918468
-0.049179826 0.0028719378 0.023214035 0.52258426 -0.49358898 -0.6951803 0.00020067469
-0.029798513 0.0036959662 0.023738233 -0.52917379 -0.42063683 -0.73691231 0.0096578822
-0.027659506 0.0028455404 0.022921881 -0.4973157 -0.47028357 -0.72904766 0.0056980876
-0.025325371 0.0017919007 0.022199709 -0.49992871 -0.54872155 -0.6700567 0.0024271004
-0.023184696 0.0010360592 0.021248041 -0.48836878 -0.57116115 -0.65975052 0.00016146307
-0.048552979 0.0053063827 0.022008078 0.51806027 -0.45247504 -0.72586495 0.00021773906
-0.046234887 0.0059601548 0.023247804 0.524674 -0.43451035 -0.73206413 0.00038334687
-0.030162059 0.0053150542 0.023471152 -0.65219295 0.093220539 -0.75229937 0.026007384
-0.02801992 0.0056486791 0.022307068 -0.59036684 0.20184824 -0.78148854 0.023331547
-0.025482854 0.006728238 0.021634657 -0.53568298 0.23643975 -0.81064171 0.01502245
-0.047662869 0.0072952621 0.021401582 0.55697507 -0.36599547 -0.7455374 0.0015020195
-0.045629572 0.0083393343 0.02235008 0.58692646 -0.32725579 -0.74055451 0.0021199731
-0.043493003 0.0087226192 0.023752561 0.55123693 -0.32345989 -0.76909786 0.0027381738
-0.027583569 0.0084582828 0.023369603 -0.54096651 0.23606984 -0.80723375 0.0060263895
-0.025424212 0.0085103409 0.021851214 -0.55512255 0.25788867 -0.79077959 0.0076588453
-0.045004487 0.011188177 0.021934235 0.609806 -0.093044199 -0.78707016 0.0028324765
-0.043065805 0.011377212 0.023441 0.59865695 -0.082163475 -0.79678041 0.0032537009
-0.027311109 0.011320145 0.023591345 -0.56391215 0.0011844509 -0.82583392 0.011100334
-0.025155615 0.011345726 0.022071138 -0.55393982 -0.012344593 -0.83246523 0.0089438828
-0.044987097 0.014537105 0.021961531 0.63039637 0.10142551 -0.76961899 0.0026018736
-0.043194402 0.014347447 0.023463123 0.62756509 0.13997729 -0.76587754 0.0036630156
-0.030195819 0.01543398 0.023029432 -0.59072614 -0.5475809 -0.5926193 0.010334329
-0.027782252 0.014331072 0.022709478 -0.49944806 -0.50661856 -0.7027725 0.02269616
-0.025017748 0.013529187 0.022030575 -0.54702455 -0.43127716 -0.71747071 0.028910682
-0.045578972 0.017682603 0.022445757 0.62594479 0.34847653 -0.69767988 0.0042611896
-0.043685399 0.016930476 0.023805264 0.64022326 0.34334806 -0.68718731 0.0026141633
-0.032484103 0.018480379 0.023962824 -0.746494 -0.17173754 -0.64284754 0.0039746491
-0.030826064 0.017497526 0.022542486 -0.70911783 -0.21638332 -0.67106658 0.0021178583
-0.028876692 0.016397264 0.021297155 -0.58548605 -0.4761816 -0.65609235 0.017233491
-0.048164994 0.020886971 0.022108104 0.61045259 0.54210341 -0.57746994 0.004398399
-0.046452109 0.019959183 0.023063563 0.62601501 0.50318736 -0.59574139 0.0034167292
-0.032481782 0.020196222 0.023930823 -0.79377526 0.19012305 -0.57773185 0.013722788
-0.031091254 0.020520378 0.02232516 -0.75795895 0.17548564 -0.62825394 0.016254134
-0.053329747 0.024926703 0.0212014 0.54800498 0.73828214 -0.3932302 0.0066852346
-0.051170975 0.023837188 0.022226069 0.55201906 0.72107154 -0.41872528 0.002784353
-0.049272969 0.022727128 0.022917468 0.58257002 0.64131945 -0.49932098 0.0018366099
-0.030353459 0.022961071 0.022679601 -0.67784148 0.49501547 -0.54359055 0.0081479196
-0.028239936 0.024192533 0.021713508 -0.51548892 0.61711645 -0.59450692 0.012939993
-0.0094637657 0.02396564 0.022170227 0.45865545 0.59014261 -0.66435444 0.0023578366
-0.0074880989 0.023710793 0.023622442 0.56743413 0.50170165 -0.65292722 0.00086059212
-0.057172179 0.027548756 0.022343947 0.45055285 0.85706788 -0.2498735 0.0007769466
-0.054597024 0.026336787 0.022788744 0.49965099 0.80472356 -0.32057583 0.0014666051
-0.052522324 0.025246158 0.023057619 0.52057129 0.77627039 -0.35554159 0.0033234439
-0.027626898 0.025367767 0.022919903 -0.46857962 0.73077565 -0.49638709 0.0037176206
-0.024879072 0.026399802 0.022588681 -0.32040566 0.8079161 -0.49458244 0.0023672199
-0.021744039 0.027242402 0.022560682 -0.16115467 0.82380444 -0.54348463 0.0026355693
-0.018669888 0.027250962 0.022097982 -0.0038327582 0.78682327 -0.61716646 0.0010759282
-0.015756097 0.027190572 0.022299308 0.11745701 0.74885231 -0.6522454 0.0015601221
-0.012845683 0.026713513 0.022703184 0.2824131 0.69444925 -0.66180289 0.0013922704
-0.010208745 0.025720989 0.023156969 0.46113744 0.57569408 -0.67522484 0.0025538621
-0.060768325 0.028927129 0.021525739 0.4790315 0.84213108 -0.24767739 0.0015924782
-0.059167948 0.028403889 0.02234116 0.45479926 0.84836417 -0.27099064 0.0010554127
-0.020467831 0.028497364 0.023998199 -0.14674234 0.82473761 -0.54614526 0.0037378354
-0.018739471 0.028482059 0.023726944 -0.054799758 0.79806411 -0.6000756 0.0020230694
-0.015881609 0.028485784 0.023792986 0.082349442 0.76251203 -0.64171165 0.0023228477
-0.014175283 0.02850261 0.02409145 0.10359465 0.74054724 -0.66397136 0.0012163576
0.0052933833 -0.029353354 0.024650453 -0.33835316 -0.80985183 -0.47922552 0.0021176187
-0.002749135 -0.026644949 0.027111797 -0.53979522 -0.64561027 -0.54019308 0.0035043273
-0.00083710474 -0.027247606 0.025855197 -0.53711963 -0.61962521 -0.57233477 0.0031904883
0.0016404784 -0.028461054 0.025219636 -0.44225386 -0.70736146 -0.55140841 0.0051712091
-0.0056297905 -0.0231856 0.027076541 -0.6119473 -0.52194041 -0.59422117 9.4545678e-05
-0.0036678286 -0.024245378 0.026039561 -0.60527366 -0.5159477 -0.60616982 0.00013752484
-0.0015860046 -0.025356745 0.024897167 -0.56194937 -0.5402016 -0.62641448 0.00089058036
-0.0063706236 -0.021115597 0.026038276 -0.60518253 -0.52222121 -0.60086519 0.00015607908
-0.0043481993 -0.022016646 0.024829797 -0.59176183 -0.51296443 -0.62184036 5.8904716e-05
-0.0090693654 -0.01822825 0.026237737 -0.60236108 -0.53715867 -0.59044194 9.9453428e-05
-0.0073767286 -0.018903958 0.02513524 -0.59723705 -0.52412099 -0.60712856 0.00010645237
-0.011945159 -0.015086835 0.026240222 -0.59323311 -0.54421234 -0.59321785 6.6031913e-05
-0.01000342 -0.016002042 0.025177293 -0.59115064 -0.53684014 -0.60194981 9.3915849e-05
-0.015413119 -0.011897905 0.026730914 -0.57103097 -0.56171799 -0.59866232 1.8785373e-05
-0.013166284 -0.013005403 0.0255668 -0.58367318 -0.54978853 -0.59754354 7.9257952e-05
-0.018282264 -0.0087668989 0.026498692 -0.54932314 -0.57509899 -0.60622209 0.00012402338
-0.016069518 -0.0097562969 0.025353007 -0.5618611 -0.55969203 -0.60914439 4.7578465e-05
-0.013994239 -0.010814139 0.024392722 -0.56300086 -0.55371362 -0.61353993 5.5280969e-05
-0.067487292 -0.0064264573 0.024593113 -0.059554178 -0.95451367 -0.29215923 0.0029692885
-0.06371627 -0.0070359772 0.026303444 0.090282135 -0.95182335 -0.29305527 0.0016452532
-0.06078456 -0.0066375858 0.025539231 0.14399058 -0.93600887 -0.32117605 0.0026505485
-0.057738412 -0.0059610191 0.025581358 0.32543749 -0.81748897 -0.47518656 0.0030164851
-0.055318944 -0.0055285916 0.026436443 0.36574435 -0.7900787 -0.49194169 0.0025585755
-0.021306224 -0.0058330745 0.026279306 -0.51711553 -0.59749359 -0.61285633 6.6232969e-05
-0.019043716 -0.0068127522 0.025307354 -0.53571862 -0.57853889 -0.61505967 0.00011627331
-0.017042233 -0.0075640567 0.024213372 -0.55621803 -0.56091571 -0.61318439 5.2679065e-05
-0.054418921 -0.0042256447 0.025192562 0.43415847 -0.70442963 -0.56150264 0.003595467
-0.052050062 -0.0031776493 0.025908194 0.48596886 -0.64795423 -0.58650625 0.0021566302
-0.049969722 -0.0024402775 0.026838539 0.48644614 -0.63540179 -0.5996955 0.0021595005
-0.026368041 -0.002442155 0.027002214 -0.47267973 -0.61919522 -0.62703359 7.2408169e-05
-0.024306579 -0.0031880201 0.026163867 -0.4964802 -0.60327214 -0.62415558 6.8897287e-05
-0.021996453 -0.0040608398 0.025135042 -0.51049 -0.59619921 -0.61963409 5.0322011e-05
-0.05123635 -0.0013672559 0.024896992 0.50005853 -0.57712024 -0.6456576 0.00082259433
-0.049024697 -0.0004186884 0.025858507 0.52213502 -0.5502094 -0.65164763 0.00046778441
-0.046912417 0.00024637219 0.026975013 0.51922607 -0.55380255 -0.6509279 0.00017731865
-0.030106122 0.00043881324 0.026902853 -0.46416664 -0.62312663 -0.62949383 7.9853678e-05
-0.027735928 -0.00046556618 0.026073109 -0.46396917 -0.62191272 -0.63083851 2.5869171e-05
-0.025369825 -0.0011406819 0.025032545 -0.47400925 -0.61235607 -0.63272053 9.1923408e-05
-0.048145939 0.0018004077 0.024786253 0.52045226 -0.5185234 -0.67842674 0.00018902784
-0.04594598 0.0025925739 0.025870539 0.51121396 -0.51221824 -0.69013971 0.00010071287
-0.043814898 0.003510186 0.026715619 0.51115251 -0.5285998 -0.67772073 0.00037346955
-0.033241287 0.0033177654 0.02646012 -0.55956686 -0.31642103 -0.76600432 0.026251005
-0.030876346 0.0024543884 0.025540188 -0.54527444 -0.4441452 -0.71092248 0.0095355883
-0.028461348 0.0013807995 0.02481596 -0.46245959 -0.60712993 -0.64616132 7.6880271e-05
-0.045145553 0.0050351685 0.024676071 0.52435958 -0.46153757 -0.71556276 0.00055264047
-0.042874821 0.0056814617 0.025842853 0.50062591 -0.45256326 -0.73794323 0.0018847998
-0.040746648 0.0066290274 0.026742471 0.40508583 -0.41457343 -0.81488299 0.012771838
-0.033713125 0.0054609026 0.026117301 -0.52920562 0.029166428 -0.84799218 0.03110962
-0.031360317 0.0058751395 0.024886116 -0.61369407 0.12167709 -0.78011179 0.023754463
-0.042294551 0.0082713813 0.024834596 0.56924385 -0.30347371 -0.76411074 0.0036675131
-0.04015423 0.0086143296 0.026293769 0.52946347 -0.28547612 -0.79885656 0.0040266155
-0.032704547 0.008503722 0.026995424 -0.49528196 0.23555852 -0.83618653 0.013666233
-0.030888747 0.008487612 0.025709677 -0.56124818 0.27943164 -0.77904975 0.0044245501
-0.029080858 0.0084715681 0.024429964 -0.57964861 0.25565237 -0.77372438 0.0040452997
-0.041784968 0.011145834 0.024490155 0.63268477 -0.059472796 -0.77212232 0.0029085714
-0.039817292 0.011365389 0.026013294 0.60608351 -0.033577032 -0.79469198 0.0058321306
-0.030918915 0.011368194 0.026147297 -0.55896944 -0.027295554 -0.82873887 0.020288315
-0.028808927 0.011340092 0.024652584 -0.59085083 -0.0058939178 -0.8067593 0.010023537
-0.041950528 0.014585393 0.024559291 0.65422046 0.15915468 -0.73936814 0.0032730666
-0.040024552 0.014131472 0.026104104 0.58779263 0.21415408 -0.7801525 0.0084457146
-0.032597546 0.015375894 0.025523452 -0.72902197 -0.38958997 -0.56280243 0.0088329613
-0.030904092 0.014135737 0.025948606 -0.63020158 -0.41720453 -0.65481782 0.021154229
-0.028595442 0.013561232 0.024672544 -0.50923127 -0.46195182 -0.72614324 0.025517728
-0.04257749 0.017772181 0.025353692 0.62454748 0.4181169 -0.65963531 0.0058117928
-0.040677574 0.016698159 0.026510801 0.63606644 0.40316454 -0.65793455 0.0029646349
-0.033423942 0.017404888 0.025649967 -0.81171381 -0.29615816 -0.50339943 0.020141367
-0.0453877 0.020914104 0.025186986 0.59069008 0.610044 -0.52813965 0.0043948945
-0.043567847 0.019993607 0.02614663 0.61348468 0.57704741 -0.5391224 0.0041081184
-0.033436071 0.020440795 0.025558045 -0.85015285 0.22625917 -0.4754439 0.0083950199
-0.050303906 0.02452315 0.024671642 0.49148053 0.81741238 -0.30047289 0.0029068431
-0.048515797 0.023600154 0.025368065 0.54636288 0.74377745 -0.38507473 0.0036318048
-0.046458744 0.022628885 0.026301391 0.53085029 0.73241073 -0.42634791 0.0036669904
-0.03283298 0.02248396 0.026121287 -0.7661857 0.51084191 -0.38987184 0.018568154
-0.031265337 0.023812639 0.025239201 -0.67570043 0.6147759 -0.40679193 0.011675315
-0.0062399264 0.024098953 0.025132764 0.60627615 0.47327647 -0.63909209 0.0019769669
-0.0048165265 0.023921728 0.026541524 0.60768765 0.48356074 -0.62998796 0.0024134379
-0.054369546 0.026839223 0.025115905 0.44966719 0.86349684 -0.22841354 0.0013893258
-0.051781375 0.025625153 0.025420131 0.46052352 0.85381699 -0.24272341 0.0028415981
-0.029702192 0.02512018 0.025159596 -0.56365156 0.75607592 -0.3326351 0.002615894
-0.027694402 0.026550539 0.025683891 -0.48351508 0.80615342 -0.34107175 0.0022050033
-0.02565755 0.027198082 0.02467191 -0.37089357 0.83861339 -0.39895564 0.0030802765
-0.0091947047 0.026875645 0.024812549 0.44120932 0.58780974 -0.67809594 0.004096908
-0.0069633601 0.026105452 0.025903724 0.56091815 0.52190322 -0.64264125 0.0020533963
-0.0050539849 0.025215339 0.02710676 0.60768872 0.48358127 -0.62997121 0.0024155527
-0.024255445 0.028344648 0.025811184 -0.34321219 0.83367115 -0.43266356 0.0027625046
-0.021613743 0.029250983 0.025703255 -0.25813743 0.8349883 -0.48596266 0.0019585723
-0.01881538 0.029731547 0.025505226 -0.087138586 0.8070724 -0.58398718 0.0014615117
-0.01593627 0.029719081 0.025295844 0.034531064 0.77800125 -0.6273132 0.0014753639
-0.012688835 0.029322764 0.025464734 0.2300535 0.74375266 -0.62762046 0.0036883045
-0.0098430933 0.028609293 0.025975946 0.38747689 0.6760487 -0.62675339 0.0038837681
-0.0079271439 0.028073113 0.026683806 0.49198669 0.58891988 -0.64118832 0.0056700185
-0.018019551 0.03097837 0.027119992 -0.15327361 0.83245444 -0.53247237 0.0017638599
-0.015993703 0.030963147 0.026872018 0.0047276132 0.79410011 -0.60776854 0.0032717567
-0.013694531 0.030972198 0.027019419 0.11581147 0.77357906 -0.62302756 0.0059901373
-0.0056683011 -0.026241574 0.029869942 -0.61321574 -0.58130109 -0.53484154 0.0016451522
-0.0038796775 -0.026978055 0.028696818 -0.58435267 -0.60850078 -0.5368973 0.0021163546
-0.0013716971 -0.028452808 0.028279565 -0.53111827 -0.67003047 -0.51862568 0.0020674132
0.00070823496 -0.028962735 0.027298329 -0.45209169 -0.73931563 -0.49902451 0.0035555225
-0.006487946 -0.024268487 0.028956452 -0.62557399 -0.53898132 -0.56405354 0.0003033182
-0.0046782242 -0.025150297 0.02780181 -0.61051297 -0.52142125 -0.59614921 8.9125468e-05
-0.0092151575 -0.021238193 0.029189898 -0.62344646 -0.53647238 -0.56878108 8.8214845e-05
-0.0075030765 -0.022019075 0.02799573 -0.62571156 -0.52665478 -0.5754301 8.4839485e-05
-0.01202745 -0.018097132 0.029222941 -0.60579014 -0.55597138 -0.56913453 8.5178668e-05
-0.010315054 -0.018967146 0.028225755 -0.61191928 -0.5401805 -0.57771945 0.00010488
-0.015087003 -0.015105499 0.029433733 -0.58991927 -0.56483877 -0.57702029 8.6161665e-05
-0.012964861 -0.016129622 0.028291771 -0.59607422 -0.55510974 -0.58012831 6.0425686e-05
-0.018403793 -0.011736244 0.029436177 -0.5561868 -0.58290946 -0.59234518 9.7972516e-05
-0.016277783 -0.012894916 0.028492143 -0.57089454 -0.57023102 -0.59069109 5.7314246e-05
-0.014290143 -0.013986278 0.02761632 -0.58683735 -0.55320531 -0.59125781 0.00012641512
-0.02129077 -0.008836004 0.029253727 -0.52806216 -0.59844339 -0.60250801 0.00013140385
-0.019323302 -0.0097773615 0.028380604 -0.54930484 -0.58040953 -0.60115635 9.6463846e-05
-0.060185391 -0.0076962002 0.030072777 0.15336362 -0.9427321 -0.29620239 0.0017158802
-0.057702582 -0.0069927014 0.028140007 0.16215579 -0.93796515 -0.30647504 0.0019834309
-0.054687764 -0.0063504903 0.028632527 0.28070673 -0.87758732 -0.3886441 0.0040043192
-0.052028582 -0.0056787878 0.029287634 0.35100618 -0.80489767 -0.47847086 0.0041835867
-0.02655049 -0.0053769536 0.030099569 -0.48610887 -0.62211365 -0.61373681 2.8501363e-05
-0.024371065 -0.0061321319 0.029119654 -0.49818373 -0.61341727 -0.61280686 5.3931701e-05
-0.022146711 -0.0069936067 0.028163992 -0.51279038 -0.6037972 -0.61030722 0.00010080598
-0.051316243 -0.0044010375 0.027928321 0.43188581 -0.69800884 -0.57119018 0.0031663957
-0.048886616 -0.0034756665 0.028824637 0.46035108 -0.65424114 -0.60003787 0.0019543052
-0.046629578 -0.0026674359 0.02983986 0.50328761 -0.58855009 -0.63270086 0.00028002763
-0.029620387 -0.0026663532 0.029743878 -0.47263649 -0.63270521 -0.61343211 3.2177239e-05
-0.027515119 -0.0034385333 0.028893514 -0.48128128 -0.62285036 -0.61678678 3.0421232e-05
-0.025206817 -0.0043135835 0.027972747 -0.48720071 -0.6191588 -0.6158554 4.9640981e-05
-0.048204802 -0.001641143 0.027573893 0.50363618 -0.59959126 -0.62196541 0.00030603108
-0.045837905 -0.00072725047 0.028703297 0.49539927 -0.57412469 -0.65188986 0.00035063978
-0.043458283 0.00019228394 0.029814562 0.43540132 -0.56771499 -0.69865966 0.0019412293
-0.033145431 -7.1810326e-05 0.029643765 -0.41717625 -0.64505911 -0.6402052 0.0013133582
-0.030818265 -0.0007824502 0.028691472 -0.45808393 -0.63708365 -0.61990607 2.6475767e-05
-0.028484363 -0.0015267051 0.027668856 -0.46832547 -0.62287074 -0.62666041 6.6948247e-05
-0.044765167 0.0012422078 0.027788334 0.49423367 -0.55565321 -0.6685676 0.00032537934
-0.042636976 0.0023562931 0.028481642 0.43393648 -0.56849879 -0.69893366 0.0025683313
-0.039883938 0.002962607 0.02940586 0.17590196 -0.52014089 -0.83577031 0.0096157202
-0.036831889 0.0028996724 0.029121684 -0.24684708 -0.46928546 -0.84784293 0.042103764
-0.034247227 0.0020193569 0.028342579 -0.43301442 -0.57271117 -0.6960606 0.0062237326
-0.031974331 0.0012045715 0.027528523 -0.4615165 -0.62302512 -0.63153946 8.3466432e-05
-0.041578475 0.0046647498 0.02743841 0.48336315 -0.44343391 -0.75480223 0.0020449369
-0.039577108 0.0054979143 0.028034883 0.35006952 -0.31286368 -0.88293135 0.02053942
-0.036828313 0.0056301975 0.028109167 -0.030584551 -0.23597297 -0.97127819 0.065026358
-0.034511793 0.0067842766 0.028023986 -0.3369945 0.15246622 -0.92907959 0.042722259
-0.038697932 0.0080287289 0.027469117 0.26287425 -0.17162777 -0.94944251 0.018887833
-0.036837708 0.0085189082 0.028239334 0.094391532 -0.047764629 -0.99438864 0.033325635
-0.03422714 0.0085172327 0.028072987 -0.25047928 0.14977211 -0.95646662 0.040149756
-0.036812969 0.011401384 0.027935049 0.32300645 -0.0087189032 -0.94635653 0.014008642
-0.033955149 0.011408474 0.028290303 -0.25691041 0.025289273 -0.96610433 0.020785781
-0.038649235 0.014996931 0.027461743 0.46222091 0.16079319 -0.87206501 0.026886379
-0.036820836 0.014290413 0.028027318 0.31213772 0.19485013 -0.92984056 0.017268777
-0.034026477 0.014256512 0.028603503 -0.4356392 -0.11582872 -0.89263779 0.062167868
-0.032156661 0.013986047 0.027390121 -0.49379748 -0.25561172 -0.83115983 0.037535898
-0.041376848 0.018884908 0.027334897 0.61591136 0.5363701 -0.57702708 0.0043540597
-0.039477386 0.017577307 0.028175151 0.51872313 0.40499264 -0.75293237 0.011142472
-0.03689554 0.017206496 0.028940024 0.044215232 0.36406162 -0.93032473 0.074417196
-0.034889966 0.016967375 0.028251426 -0.39746577 0.16121495 -0.90334415 0.098257907
-0.042615812 0.020820595 0.028253919 0.55855989 0.67894644 -0.47648984 0.0048501478
-0.040066954 0.019597469 0.029482381 0.41691691 0.72049087 -0.55414194 0.011823358
-0.036993373 0.018983368 0.030141069 -0.013465887 0.81414938 -0.58049929 0.062741004
-0.034642201 0.020185929 0.028217915 -0.81522161 0.17536063 -0.55196244 0.012244598
-0.048250943 0.024550904 0.028282424 0.45105699 0.86054164 -0.23667632 0.001709474
-0.045704011 0.023242334 0.028673748 0.48842794 0.81102771 -0.32198179 0.0046865614
-0.043626942 0.022447314 0.029760657 0.50985557 0.78289586 -0.35654086 0.0043889047
-0.0038134623 0.024101945 0.027949695 0.6076811 0.48357892 -0.62998021 0.0024039326
-0.054090671 0.026969548 0.027592359 0.43532056 0.87931424 -0.19313844 0.00062397303
-0.05149984 0.026053498 0.028488992 0.44197324 0.87355286 -0.20387483 0.0013028047
-0.049798727 0.025254514 0.027908323 0.46868211 0.85480458 -0.2228145 0.0016411545
-0.029915348 0.025856504 0.028383024 -0.56992322 0.77757972 -0.26562634 0.0023125466
-0.027873885 0.027283374 0.028064175 -0.5045619 0.81647742 -0.2806811 0.0021476122
-0.0056332136 0.026379 0.027324794 0.60769033 0.48357135 -0.62997717 0.0024138785
-0.0047718766 0.025528591 0.02761635 0.60769099 0.48356542 -0.62998104 0.0024157469
-0.026750747 0.028177913 0.028584329 -0.51632434 0.80456805 -0.29339269 0.0020076009
-0.024584794 0.029481869 0.028630486 -0.42966303 0.82503086 -0.3670336 0.001188285
