# .PCD v0.7 - Point Cloud Data file format
VERSION 0.7
FIELDS x y z normal_x normal_y normal_z curvature
SIZE 4 4 4 4 4 4 4
TYPE F F F F F F F
COUNT 1 1 1 1 1 1 1
WIDTH 552
HEIGHT 1
VIEWPOINT 0 0 0 1 0 0 0
POINTS 552
DATA ascii
0.0088729942 -0.007851325 -0.020179044 -0.91671836 0.24899752 -0.31245437 6.2735315e-05
0.0096835019 -0.0064964616 -0.021431856 -0.91278076 0.25563657 -0.3185612 4.9752187e-05
0.010543319 -0.0035023415 -0.021524448 -0.91074049 0.25258288 -0.32673177 0.00010403759
0.011279158 -0.00045945123 -0.021220785 -0.90992635 0.25222504 -0.32926667 4.1306826e-05
0.011705267 0.0017318309 -0.020717423 -0.90851873 0.25410274 -0.33170098 3.9853039e-05
0.012390994 0.0024728728 -0.022004133 -0.90484703 0.25711191 -0.33933076 3.5225861e-05
0.012947276 0.0052550393 -0.021369938 -0.90301716 0.26675797 -0.33674946 5.3968655e-05
0.013906424 0.0083524827 -0.021316607 -0.86737508 0.39128911 -0.30749515 0.0022377479
0.015119253 0.0095657483 -0.022846621 -0.79302073 0.56586826 -0.22563501 0.034228254
0.015095319 0.010163121 -0.021377634 -0.78113264 0.59324467 -0.19466023 0.036955357
0.01674737 -0.035604574 -0.018575858 -0.38972899 -0.91763449 -0.077834725 0.0080986936
0.018451797 -0.036110885 -0.019342553 -0.36401898 -0.9227978 -0.12623143 0.00046101495
0.021271178 -0.037410773 -0.017222892 -0.33470035 -0.93366742 -0.12743965 0
0.010819317 -0.033302285 -0.019117188 -0.31631586 -0.94319898 -0.10158705 0.0056698173
0.012248902 -0.033814274 -0.019849431 0.33867052 0.9406485 0.021970844 0.0040334077
0.015043423 -0.034784533 -0.018192392 -0.35048506 -0.92998326 -0.11086629 0.009234854
0.0047045108 -0.0305396 -0.018141832 -0.84868908 -0.46602824 -0.25008896 0.002980869
0.0037639905 -0.027636306 -0.019357283 -0.96357685 -0.13073081 -0.23330052 0.012535147
0.0039958917 -0.024593154 -0.018120926 -0.95287073 0.20494503 -0.22368503 0.00022543408
0.0048570931 -0.021463715 -0.018422801 -0.94365484 0.23923545 -0.22865248 9.6977747e-05
0.0055330684 -0.018636964 -0.018326771 -0.93922174 0.23641701 -0.24893689 5.8125432e-05
0.0060336068 -0.018022008 -0.019630563 -0.9388032 0.24027808 -0.24680954 8.0761463e-05
0.0059695952 -0.016387355 -0.017869383 -0.93984789 0.23201843 -0.25070578 5.6826037e-05
0.0065776398 -0.015216954 -0.019045115 -0.93448615 0.24209796 -0.26100609 6.1990795e-05
0.007047575 -0.01262112 -0.018330134 -0.93489009 0.23874064 -0.26264691 5.3070937e-05
0.0079329563 -0.0094934329 -0.018508177 -0.92770994 0.24154453 -0.28462344 0.00010437043
0.0085747642 -0.0068273726 -0.018344395 -0.92754 0.23757593 -0.28849116 5.5069253e-05
0.0087874904 -0.0047729532 -0.01733641 -0.92140055 0.24569543 -0.30108935 4.1191433e-05
0.0095803253 -0.003347117 -0.018622156 -0.91813594 0.24976315 -0.30764374 2.7660122e-05
0.010276063 -0.00059931679 -0.018443566 -0.91702354 0.24747774 -0.31276625 2.106202e-05
0.011085015 0.0023114528 -0.018465478 -0.9135108 0.24718583 -0.32310575 3.2266904e-05
0.011539013 0.0049638478 -0.017710023 -0.90644395 0.26629472 -0.32779041 0.00029654414
0.012377159 0.0059779999 -0.019281175 -0.90266073 0.26488379 -0.33917585 8.7811568e-05
0.012838478 0.0083692046 -0.018405564 -0.86361587 0.37291327 -0.33926889 0.0025264847
0.014205806 0.010225728 -0.018879097 -0.64798707 0.73159051 -0.21186838 0.039297238
0.017124221 0.010988889 -0.018553089 -0.49529484 0.8530215 -0.16443066 0.013790338
0.014405455 -0.035374306 -0.014112424 -0.41307464 -0.89686215 -0.15813811 0.0069235116
0.016990393 -0.036140986 -0.015283998 -0.42692515 -0.89438903 -0.1334289 0.007899506
0.019563548 -0.036904193 -0.016450178 -0.41407093 -0.90201867 -0.12209705 0.0059587942
0.015014538 -0.034063585 -0.016419541 -0.35568029 -0.93045539 -0.08800213 0.0090601919
0.004384663 -0.030868849 -0.016008191 -0.93442267 -0.2961337 -0.19788651 0.0068589915
0.0030237269 -0.029018456 -0.015242379 -0.96708173 -0.16114543 -0.19693913 0.019401783
0.0030707978 -0.027528876 -0.016347017 -0.96355641 -0.087829247 -0.25267586 0.014756985
0.0030071344 -0.025903955 -0.014853012 -0.97798121 0.10659803 -0.179415 0.0048170057
0.0036064796 -0.023871781 -0.015548866 -0.96365058 0.18610388 -0.19168434 0.0015771108
0.0040412769 -0.021616505 -0.015036065 -0.95416218 0.22605272 -0.19614944 0.00017055759
0.0048637837 -0.018740606 -0.015658159 -0.95173633 0.21851335 -0.21552247 0.00014660771
0.0055552982 -0.015574707 -0.015439074 -0.94452477 0.22831511 -0.23610425 6.5695058e-05
0.005850723 -0.013358474 -0.014598768 -0.94482434 0.22465345 -0.23840672 6.9605223e-05
0.0064630266 -0.01218712 -0.015779082 -0.93853211 0.23672412 -0.25123534 5.0292059e-05
0.00702151 -0.0096313469 -0.015468489 -0.9370594 0.23381689 -0.25932491 9.1186099e-05
0.0077530853 -0.0065383459 -0.015433881 -0.93296081 0.22943617 -0.27738655 9.1870905e-05
0.0084410664 -0.0036494848 -0.015304387 -0.92451179 0.23923734 -0.2967211 3.6660484e-05
0.0086961202 -0.0013701464 -0.014298748 -0.92406285 0.23279209 -0.30317596 5.2821983e-05
0.0094736926 -0.00027078437 -0.015822209 -0.91986161 0.24242987 -0.3083542 3.8687303e-05
0.0099925445 0.0023986611 -0.015307121 -0.91747743 0.23681152 -0.31961778 5.1169314e-05
0.010722859 0.0051846304 -0.015377294 -0.90825617 0.25711164 -0.33009729 0.00038387498
0.011358912 0.0078250747 -0.015164189 -0.8833487 0.34243089 -0.3200565 0.0021242739
0.012301581 0.0093051754 -0.015881736 -0.73460877 0.62781304 -0.25729522 0.037060313
0.013004845 0.010310486 -0.015498366 -0.53878528 0.8211711 -0.18811797 0.01632466
0.016364388 0.011340957 -0.015324783 -0.51796705 0.83597577 -0.18125866 0.011327617
0.016371198 -0.036428913 -0.011548426 -0.40664408 -0.89754462 -0.17045297 0.0056333877
0.019828355 -0.037452579 -0.013128411 -0.36647174 -0.92139202 -0.12936519 0.0015857121
0.014380762 -0.034906857 -0.012705158 -0.41577244 -0.89569932 -0.15765801 0.0054140817
0.0029165037 -0.030033546 -0.012726139 -0.95141506 -0.25921726 -0.16617997 0.0096037379
0.0040594768 -0.031473231 -0.012624722 -0.8787545 -0.44493234 -0.17270136 0.0036054605
0.0023133792 -0.027779458 -0.012044605 -0.98827505 -0.10165834 -0.11392129 0.013503929
0.0028964486 -0.024610462 -0.012255471 -0.96721607 0.1965356 -0.16083133 0.00015773359
0.0034588221 -0.021753944 -0.011978667 -0.96279496 0.2061692 -0.17469999 0.00013767235
0.0041672178 -0.01886435 -0.01247238 -0.95970815 0.20442243 -0.1927996 0.00012856182
0.0048112888 -0.015715227 -0.012317073 -0.9545756 0.20913279 -0.21224739 0.00014627019
0.0055430997 -0.01255656 -0.012458019 -0.94658881 0.22068444 -0.2350914 6.8004018e-05
0.005733938 -0.010570504 -0.011385586 -0.94719118 0.20808451 -0.24398683 0.00014734003
0.0063586459 -0.0093941726 -0.012804594 -0.94292551 0.2189773 -0.25087944 0.00014544913
0.0067508724 -0.0070676073 -0.012314212 -0.94392908 0.20404479 -0.25954503 8.0876984e-05
0.0075538559 -0.00357028 -0.012363743 -0.931853 0.22086374 -0.28786993 8.3410581e-05
0.0083104512 -0.00042899884 -0.012387268 -0.92415029 0.22500247 -0.30873966 0.00010173444
0.0086123636 0.0020770696 -0.011514205 -0.92311931 0.21209686 -0.32072675 0.00013906921
0.009226243 0.0026408886 -0.012871627 -0.9195779 0.22401595 -0.32278991 8.0356258e-05
0.0096588004 0.0051612966 -0.012419906 -0.91285872 0.22975375 -0.33749411 0.00012604175
0.010471749 0.0082674772 -0.012309991 -0.81193143 0.47388461 -0.34088242 0.022520507
0.011191624 0.01013013 -0.011222031 -0.61911982 0.70888412 -0.33789647 0.027653627
0.013803013 0.010769807 -0.012437206 -0.45458519 0.87037206 -0.1892214 0.0093054762
0.01623781 0.012113549 -0.012258206 -0.39886013 0.89307445 -0.20815499 0.0022293294
0.021830425 -0.038521044 -0.010561537 -0.33478794 -0.93362963 -0.12748599 1.0216558e-05
0.01373643 -0.035764419 -0.008924406 -0.37930682 -0.91510391 -0.13678849 0.0017392092
0.016616749 -0.036980294 -0.0081536286 -0.37777549 -0.91328663 -0.15229289 0.0014149644
0.019229641 -0.037752457 -0.0093603693 -0.3567234 -0.92546725 -0.12751001 0.00058397604
0.0023909509 -0.030147592 -0.0094156191 -0.95711917 -0.2391102 -0.16355197 0.019829927
0.0033260491 -0.031728812 -0.0087684207 -0.92200619 -0.34134674 -0.18272068 0.0093133738
0.0022496469 -0.026424535 -0.010591727 -0.98772109 0.054127946 -0.14655139 0.0040664212
0.0023904126 -0.02495061 -0.0094233379 -0.97275829 0.17635225 -0.15047018 0.00024912573
0.0027685203 -0.022743754 -0.0092532746 -0.96626604 0.19713344 -0.165736 4.9241065e-05
0.0033915639 -0.020675682 -0.010352504 -0.96531773 0.19391406 -0.17481162 4.8615828e-05
0.003577929 -0.018758349 -0.0092806518 -0.963543 0.19088943 -0.18747297 7.7623445e-05
0.0042163283 -0.015522063 -0.0093632527 -0.9596929 0.19295928 -0.20434372 9.7983931e-05
0.0048626289 -0.012627002 -0.0096532516 -0.95452291 0.19821267 -0.22270542 0.00013104024
0.0054336423 -0.009744592 -0.0094867647 -0.94933802 0.19957708 -0.24274737 7.6249744e-05
0.0056281155 -0.0074484167 -0.0084739923 -0.95031738 0.18917286 -0.24720553 4.7970752e-05
0.0062631899 -0.0062731379 -0.010084491 -0.94540763 0.19780646 -0.25899211 0.00010677105
0.0065992158 -0.0038272352 -0.0093862899 -0.94514906 0.1887216 -0.26660332 0.00014224912
0.0073224036 -0.00057977391 -0.0094365142 -0.93025637 0.20220929 -0.30616066 0.00020051762
0.0078994818 0.0023070895 -0.0094263516 -0.92748469 0.19370592 -0.31976604 0.00014351064
0.0083751185 0.0050232317 -0.009123981 -0.91919011 0.20702522 -0.33500761 0.00011612975
0.0091586523 0.0061153104 -0.010526817 -0.89930308 0.26475179 -0.34808117 0.0031820419
0.0085100541 0.0073111509 -0.0081128292 -0.88154626 0.34274423 -0.32465765 0.0040978263
0.0093794772 0.0082322583 -0.0096149817 -0.86436814 0.36623088 -0.34459057 0.0040949052
0.010572145 0.01017236 -0.0094948076 -0.55072063 0.80421788 -0.22347344 0.024359608
0.014466913 0.011618841 -0.0093890764 -0.4189508 0.88643104 -0.19677459 0.0030587779
0.015771754 0.012473635 -0.0097669475 -0.41895196 0.8864305 -0.19677439 0.0030584291
0.01949768 -0.03831587 -0.00593872 -0.36187169 -0.92277938 -0.13238999 0.0004828588
0.014280463 -0.03590776 -0.0070128106 -0.37779859 -0.91327751 -0.15228997 0.0014267177
0.017744275 -0.037798665 -0.0051218383 -0.36074361 -0.92306924 -0.13344397 0.00055784703
0.0038467254 -0.032404073 -0.0073343031 -0.88129181 -0.44573203 -0.15699604 0.00475488
0.0017614104 -0.030160809 -0.0060984604 -0.93455523 -0.30490196 -0.1834154 0.01261581
0.001484938 -0.02810769 -0.0064071305 -0.98534399 -0.07512144 -0.15314712 0.0082017872
0.0020651538 -0.024039857 -0.0063858442 -0.97720748 0.15934451 -0.14026682 8.9015535e-05
0.0026608016 -0.02111946 -0.0067254342 -0.96911275 0.17912088 -0.1695172 9.0264402e-05
0.0025831871 -0.019741766 -0.0049039535 -0.9689005 0.1645523 -0.18480919 0.00013262071
0.0032411311 -0.017926332 -0.0067151599 -0.96609145 0.17413561 -0.1906416 8.7920838e-05
0.0035743173 -0.015616199 -0.0063528605 -0.96628016 0.16395536 -0.19854787 7.3335825e-05
0.0040988401 -0.012708768 -0.00638818 -0.95902872 0.176553 -0.22156937 0.00010156039
0.0046845227 -0.0098006856 -0.0065060779 -0.95570004 0.17769931 -0.23464942 7.2004921e-05
0.0052029639 -0.0068972218 -0.0063826069 -0.95212644 0.18141763 -0.24605463 3.8111113e-05
0.0055298805 -0.0042846757 -0.0057712011 -0.949512 0.16943638 -0.26404217 0.00016375384
0.0061597666 -0.0028249491 -0.0071372688 -0.94345224 0.1819609 -0.27710664 0.00020438877
0.0063438127 -0.00028503267 -0.0061822049 -0.93821633 0.1620906 -0.30573967 8.804704e-05
0.0069318507 0.0026206062 -0.0063787885 -0.9303422 0.1758094 -0.32179877 9.5760166e-05
0.0075152041 0.0055255578 -0.0064466447 -0.91702616 0.21240999 -0.33755749 0.00076242175
0.0080122016 0.0081476439 -0.0060775802 -0.89006156 0.32000089 -0.32463798 0.0033926126
0.009070782 0.0093519166 -0.0074784867 -0.8637194 0.37544832 -0.33619553 0.0028368279
0.0096335094 0.010236368 -0.0068767853 -0.58020914 0.79397821 -0.18153784 0.026619397
0.013343918 0.011579363 -0.0065996647 -0.46342865 0.86858433 -0.17548563 0.0046894192
0.015451855 0.012824379 -0.0076901428 -0.58876401 0.77591544 -0.226522 4.6204812e-05
0.014843379 0.012877785 -0.0059143715 -0.58640134 0.77732092 -0.22782816 5.6643723e-05
0.015719112 0.013451651 -0.0061667971 -0.6273641 0.73551422 -0.25579906 0.0022913306
0.0188867 -0.038627766 -0.0020500533 -0.33464614 -0.93427986 -0.12301688 8.6340267e-05
0.013627211 -0.036491975 -0.0031375699 -0.35565516 -0.92418563 -0.13924927 0.00055287877
0.015984707 -0.037279479 -0.0043034069 -0.35565874 -0.92418432 -0.13924868 0.00055246975
0.0030840877 -0.03270293 -0.0029180758 -0.85180795 -0.48855448 -0.18904439 0.0031322616
0.001950847 -0.031280663 -0.0037823319 -0.93397814 -0.30894208 -0.17955391 0.010032599
0.0013826415 -0.026488014 -0.0041398816 -0.98690003 0.039293148 -0.15647502 0.0054359883
0.0013012365 -0.025413975 -0.0023356192 -0.9837274 0.10565259 -0.14532009 0.0010150351
0.0019130558 -0.021869652 -0.002918411 -0.97486997 0.1473276 -0.16710195 0.00014064861
0.002516523 -0.018341228 -0.0033394955 -0.96914381 0.15246554 -0.19368647 0.0001705825
0.0024678055 -0.016918235 -0.0021962635 -0.96642482 0.14612569 -0.21135373 0.00010805544
0.0031188354 -0.015111458 -0.0037582144 -0.96380228 0.15686257 -0.21559051 8.1955222e-05
0.00332525 -0.012791669 -0.0031022355 -0.96225542 0.15264149 -0.22531095 6.3878571e-05
0.0038779136 -0.0097639654 -0.0032606199 -0.9561879 0.16118583 -0.24438456 0.00011599462
0.0044970401 -0.006494055 -0.0035111941 -0.95206207 0.15923923 -0.26119098 0.00013630897
0.0050302446 -0.0031730505 -0.0035276227 -0.94685066 0.15244275 -0.28325781 0.00013173571
0.0053411014 -0.00069442578 -0.0032671914 -0.94459337 0.14709666 -0.29343817 5.5333614e-05
0.0055569001 0.0022846204 -0.0024904199 -0.93817294 0.14880548 -0.31255156 4.9992639e-05
0.0060537374 0.002127972 -0.0041158237 -0.93614149 0.15718706 -0.31453341 0.00010277464
0.0059968121 0.0050694277 -0.002493646 -0.92783302 0.18329015 -0.32485491 0.00060800224
0.0066405199 0.0053392909 -0.0041973703 -0.92437351 0.18675137 -0.33265218 0.00016805393
0.007050111 0.0083484482 -0.0033463687 -0.90046829 0.28892699 -0.32508159 0.0028291694
0.0080763865 0.010027967 -0.0034361593 -0.53511167 0.82613546 -0.17651005 0.014937401
0.011583626 0.011199974 -0.0033498071 -0.46734864 0.86978084 -0.15832426 0.0062106866
0.013054791 0.012162659 -0.0037799999 -0.5997262 0.76124924 -0.24663326 0.00043483614
0.014215449 0.013151033 -0.003311187 -0.62263364 0.73482442 -0.26899874 0.0025004304
0.015577847 0.014327386 -0.0031377599 -0.74350274 0.56630266 -0.35567546 0.02176288
0.020044107 -0.039471425 0.0011049993 -0.3232924 -0.94263494 -0.08319436 0.00052083784
0.013560281 -0.037058748 0.00044547394 0.39110607 0.91930521 0.043749243 0.0012522656
0.016229795 -0.03784509 -0.00080589578 -0.34139836 -0.9297666 -0.13777249 0.00056175928
0.0017493907 -0.032365225 0.00081269816 -0.90148884 -0.38141423 -0.20455118 0.0079134796
0.00083823875 -0.030102639 -0.00077174231 -0.93399626 -0.24267685 -0.26221925 0.014110501
0.00060952641 -0.027592922 -6.1493367e-05 -0.98241699 0.0271574 -0.18471405 0.0027633545
0.0012397151 -0.024014767 -0.0009721145 -0.97760504 0.13388817 -0.16236474 0.00010406532
0.0014007483 -0.021895172 -0.00020195171 -0.97221452 0.1283894 -0.1957424 0.00012902752
0.0017847139 -0.018759187 7.3686242e-06 -0.97197837 0.12598537 -0.19845842 9.5812989e-05
0.0024198461 -0.015486006 -0.0010707416 -0.96610087 0.13414925 -0.22057444 0.00011903532
0.0026181787 -0.012864104 -0.00020973012 -0.96133131 0.14046998 -0.23687586 0.0001276916
0.0029568821 -0.0099243205 0.00015761331 -0.95479923 0.1399373 -0.26225179 0.00018818288
0.0036183931 -0.0087172762 -0.0016409867 -0.95465928 0.14501853 -0.25999108 0.0001792066
0.0036573112 -0.0064649978 -0.00052076951 -0.95045608 0.13823105 -0.27843404 0.00011123551
0.0039858259 -0.0036921897 -0.00032721832 -0.94545448 0.13287367 -0.29742295 9.2218703e-05
0.0044513308 -0.00049603684 -0.00040623918 -0.94010377 0.13415296 -0.31338128 0.00011717764
0.0049112439 0.0027001984 -0.00033174083 -0.93618017 0.1360056 -0.32414374 0.0001212612
0.0052551664 0.0053185844 -0.00025468692 -0.92578179 0.17431502 -0.33547342 0.00069530943
0.0056632189 0.0079181148 -0.00019231439 -0.89201921 0.30539405 -0.33322108 0.0035133241
0.0065346686 0.009202905 -0.0010693036 -0.83725858 0.47650522 -0.26821789 0.043443792
0.0067868959 0.010113813 0.00016893819 -0.51500881 0.83756781 -0.18233541 0.016582901
0.011369444 0.01186572 -0.00043562427 -0.61280245 0.75209302 -0.24254738 0.00052964326
0.01241485 0.012433268 -0.0011525564 -0.63802916 0.72590035 -0.25688013 0.001762096
0.014161691 0.014358025 -0.00022960082 -0.740731 0.52935898 -0.4136382 0.033321165
0.015360032 0.015356787 -0.0015847199 -0.76812458 0.55015165 -0.32759395 0.023255955
0.013963632 0.016880363 -0.00014068931 -0.84739172 0.31960398 -0.42400542 0.020269422
0.021814223 -0.040166266 0.0023656078 -0.3232871 -0.94263661 -0.083196051 0.00052164495
0.0023051165 -0.033010177 0.0016216524 -0.87799269 -0.44340569 -0.18033355 0.0047027795
-0.00015807524 -0.029587114 0.0036865361 -0.94892764 -0.25594729 -0.18446484 0.01001089
0.00071043335 -0.031261511 0.0020114668 -0.90240496 -0.36428609 -0.23013248 0.0091017103
-0.00016117096 -0.028700063 0.003751535 -0.98564297 -0.094529629 -0.13990025 0.014812405
0.00047673844 -0.024791159 0.0028021112 -0.97341508 0.10942417 -0.20121986 0.00024750698
0.00094134733 -0.021662258 0.0023487099 -0.97030288 0.11257289 -0.21410185 0.0002087699
0.0010537226 -0.018877747 0.003150221 -0.96774125 0.11078702 -0.22628123 8.0147671e-05
0.0015854575 -0.016083438 0.0022917315 -0.96553278 0.11481038 -0.23359141 0.00013032544
0.0018614791 -0.012839064 0.002749294 -0.95998293 0.12156237 -0.25230026 0.00013918889
0.0023528002 -0.0094611291 0.0024828874 -0.95375168 0.11897638 -0.27604762 0.000140538
0.0026297048 -0.0066398014 0.0026825629 -0.94809729 0.11775526 -0.29537311 0.00010138307
0.0028269961 -0.0034572524 0.0032980442 -0.94505954 0.11512776 -0.30595428 5.0167684e-05
0.0034908187 -0.0028577717 0.001539994 -0.94212133 0.12176843 -0.31237778 3.9694129e-05
0.0027943701 -0.0016789655 0.0040869005 -0.94006521 0.10918379 -0.32304239 2.0210107e-05
0.0035595093 -0.00029527582 0.0022819974 -0.93761617 0.12102363 -0.3259283 8.2754523e-05
0.0037385523 0.0024715771 0.0027377084 -0.93455935 0.11706954 -0.33599639 0.00010788642
0.0042686686 0.0056520221 0.0024385639 -0.91001463 0.21561523 -0.35409534 0.0034444381
0.0047591887 0.0083965156 0.0027302243 -0.89202106 0.3136529 -0.32545397 0.0036169093
0.0058073122 0.010178991 0.0029064305 -0.49722236 0.84211975 -0.20881617 0.017430371
0.0087865582 0.010758646 0.0023815818 -0.48550874 0.86062843 -0.15362272 0.0078624999
0.010205347 0.011827011 0.0024643838 -0.51832306 0.83687431 -0.17601864 0.0072866492
0.011729405 0.013151295 0.0031786449 -0.74954718 0.61483556 -0.24526766 0.02924444
0.012999656 0.014321785 0.0026783422 -0.86507028 0.43491608 -0.25000265 0.03022649
0.013060371 0.017211394 0.0024981648 -0.90712428 0.14603381 -0.39471459 0.014521251
0.011045479 -0.035765268 0.0069901533 -0.33471549 -0.93365788 -0.12747011 0
0.012855925 -0.036301948 0.0061612613 -0.44236031 -0.89294589 -0.083456688 0.0033966789
0.0012558103 -0.032960035 0.0052790232 -0.88039428 -0.41711128 -0.22566383 0.0049521388
0.0081229927 -0.034412555 0.004755307 -0.28003836 -0.95726645 -0.072244994 0.0014556648
-0.00051245466 -0.030328905 0.0061050616 -0.93596202 -0.27322498 -0.22208811 0.012386248
0.00034864247 -0.032084711 0.00556444 -0.86964589 -0.43007541 -0.24238621 0.0046729264
-0.00021043234 -0.027272269 0.004785914 -0.97778416 -0.033285972 -0.20695451 0.0066374852
-0.00027627312 -0.024661593 0.0061683394 -0.96307421 0.10356034 -0.24852234 0.00012991205
-0.00032071024 -0.022615589 0.0071014352 -0.9555701 0.10755842 -0.27443933 0.00079024822
0.000377452 -0.021326639 0.0049431808 -0.96764934 0.097671919 -0.23262599 0.00018474477
0.0003139805 -0.018399697 0.0063119419 -0.96138865 0.092251882 -0.25927106 5.6083292e-05
0.00085356459 -0.015585419 0.0053774603 -0.95937991 0.10056355 -0.26358527 8.6840344e-05
0.001104556 -0.01216167 0.0057887323 -0.95613384 0.10281594 -0.27429339 0.00011016442
0.0014414936 -0.0096295401 0.0055597499 -0.953107 0.099569559 -0.28578487 0.00010255696
0.0016982481 -0.0061980099 0.0058526807 -0.94698077 0.10137263 -0.30487862 7.606401e-05
0.0020345449 -0.0036684126 0.005632475 -0.94327372 0.10465197 -0.31509143 5.4981265e-05
0.0023978241 -0.00035577081 0.0056515262 -0.9393034 0.10179675 -0.32763803 4.6230001e-05
0.0026232209 0.0022952659 0.005815316 -0.93698764 0.10052769 -0.33458683 3.780027e-05
0.002690807 0.0054876795 0.0065909624 -0.92122525 0.16607322 -0.35180068 0.0014119993
0.0033628717 0.005462124 0.0047302619 -0.9247728 0.14565361 -0.35154006 0.00046279485
0.0037539601 0.0086248424 0.0055905469 -0.87857211 0.32424808 -0.3506768 0.0043543014
0.0048148893 0.01024507 0.005681593 -0.64389139 0.71347624 -0.27632502 0.050753873
0.0081000803 0.011135187 0.0055044927 -0.44216019 0.87824172 -0.18216963 0.0065100337
0.00989109 0.012423284 0.0053945072 -0.62682772 0.74544215 -0.22672229 0.0021959706
0.011071322 0.013431434 0.0058837533 -0.75629556 0.58094668 -0.30086201 0.037073694
0.012417421 0.01516534 0.0057049952 -0.89423913 0.33143541 -0.3008104 0.037576206
0.011672715 0.017103188 0.0056916215 -0.95434225 0.1739558 -0.24283803 0.01779942
0.012480398 0.017576436 0.0050875247 -0.94942212 0.14078127 -0.28067476 0.01992254
0.012892977 0.01913131 0.004313577 -0.96457398 0.034239881 -0.26158112 0.0098614749
0.020604139 -0.040132977 0.0092255957 -0.38719741 -0.90852219 -0.15705283 0.0053617675
0.021205189 -0.040123068 0.0091037638 -0.38719741 -0.90852219 -0.15705283 0.0053617675
0.0092291711 -0.035225578 0.0078055747 -0.33472532 -0.93365371 -0.12747431 6.1581118e-06
0.012175787 -0.036590792 0.010067929 -0.41734591 -0.89483261 -0.1584201 0.0019853734
-0.00039933063 -0.032292448 0.0087522157 -0.88093328 -0.41637659 -0.22491565 0.02325605
0.00049989671 -0.033194803 0.0087799467 -0.5993557 -0.78029507 -0.17864004 0.031766273
0.0055779144 -0.034140535 0.0094434507 -0.20845056 -0.96308881 -0.17031802 0.0083762975
0.0074066436 -0.03468404 0.0086237974 -0.28609994 -0.94808102 -0.13888559 0.0018022542
-0.001258675 -0.030514961 0.0091319457 -0.92065471 -0.26351583 -0.28801769 0.0093579572
-0.0013021026 -0.027493013 0.0087903105 -0.95511413 -0.036391325 -0.29399422 0.0044792821
-0.0012566056 -0.024747379 0.0093981475 -0.95098704 0.059951581 -0.30336362 0.001551949
-0.00065368228 -0.021573018 0.008679349 -0.94343191 0.096201606 -0.31730351 0.00052436307
-0.00040591508 -0.018493524 0.008890491 -0.94128764 0.087502435 -0.32606909 0.00049422728
-0.00044727698 -0.015818954 0.0097590126 -0.92910933 0.093684375 -0.35774162 0.0021154063
0.00025083125 -0.015156005 0.0076737516 -0.95050859 0.085246615 -0.29877502 0.0009061512
0.00020417012 -0.012485318 0.0086799525 -0.94067007 0.086832464 -0.32802439 0.00042420745
0.00047048368 -0.0093519613 0.0086741447 -0.93667543 0.086789645 -0.33927372 0.00039076206
0.00081754848 -0.0064813658 0.0083847307 -0.93528473 0.095421962 -0.34078887 0.0003207784
0.00107559 -0.0033508535 0.0085624196 -0.93366921 0.089339122 -0.34681469 0.00039552749
0.0013050139 -0.00068483222 0.0086569786 -0.92709404 0.088808276 -0.36415625 0.00060702825
0.0016790275 0.0026476015 0.0084816478 -0.92978865 0.091330804 -0.35658345 8.0280712e-05
0.0018280689 0.0052599688 0.008783415 -0.91122234 0.15492032 -0.38167205 0.0021137369
0.0023509469 0.0080863144 0.0085811019 -0.87813818 0.29099289 -0.37973219 0.0044349208
0.0032353215 0.0093999282 0.0079106428 -0.73830199 0.55023938 -0.39005998 0.054461859
0.0038113259 0.010312311 0.0085049756 -0.47114509 0.82587278 -0.30976835 0.026989564
0.0075980956 0.01172252 0.0088917464 -0.43369502 0.85525733 -0.28362581 0.011413512
0.0092205321 0.012700535 0.0081189163 -0.67179781 0.70597106 -0.22426006 0.0059750383
0.010885588 0.014156161 0.0086542964 -0.82985342 0.5111413 -0.2237809 0.042526327
0.011320923 0.017489962 0.0079932101 -0.95143062 0.17462119 -0.25354946 0.014420826
0.012227033 0.016280092 0.0076627024 -0.91732234 0.26594639 -0.29629731 0.032480631
0.012237603 0.019252889 0.0071666129 -0.95434195 0.17396548 -0.24283226 0.017798556
0.016976269 -0.039698698 0.011301029 -0.30860794 -0.91047513 -0.27531102 0.032557465
0.0042448565 -0.035591535 0.012928236 0.0079535134 -0.66005152 -0.75117826 0.04835128
0.0085172523 -0.035505526 0.011724103 -0.32988027 -0.91881555 -0.21669553 0.0054540061
0.010349652 -0.03604915 0.010895271 -0.34084845 -0.91729128 -0.20591027 0.0053355987
-0.0011080895 -0.0333036 0.012204904 -0.38379145 -0.72600859 -0.57062751 0.074050374
0.0011573602 -0.034600515 0.012349371 -0.016686317 -0.82643503 -0.56278473 0.063052364
0.0039670989 -0.034639008 0.012292374 -0.030995322 -0.88946456 -0.45595184 0.072216772
0.0066784378 -0.034960203 0.012558628 -0.20743732 -0.91936821 -0.33426327 0.035846304
-0.0021284129 -0.030903483 0.011763167 -0.84668499 -0.24795067 -0.47079182 0.010964124
-0.0023583882 -0.027661858 0.011838865 -0.8589291 -0.086288854 -0.50477219 0.014143202
-0.002185218 -0.024381522 0.011824083 -0.87692529 0.052219696 -0.47778144 0.0054733506
-0.0019100122 -0.021473819 0.011914868 -0.84792536 0.087095916 -0.52291191 0.0050460384
-0.001598794 -0.018748397 0.011731897 -0.84785658 0.12695493 -0.51480252 0.0051060733
-0.0013741106 -0.015473533 0.011909541 -0.87411779 0.085134849 -0.47819462 0.0068723136
-0.00099085085 -0.01270753 0.011647452 -0.86958128 0.066279165 -0.4893215 0.0043996009
-0.00085616112 -0.0095433407 0.011992995 -0.86260676 0.094224446 -0.49702239 0.0046756528
-0.00084301271 -0.0066617248 0.012417924 -0.85500294 0.0741622 -0.51329339 0.0053347559
0.00012049265 -0.0065051927 0.010484491 -0.91440809 0.087124661 -0.39530644 0.0026574156
-0.00057251751 -0.0035032793 0.012388717 -0.86539054 0.063169494 -0.49710056 0.0030683947
8.9781359e-05 -0.0034969226 0.01114675 -0.89701301 0.080543429 -0.43460378 0.0023735499
-0.00059164688 -0.00047927024 0.012790341 -0.75943053 0.0593061 -0.64787966 0.003333448
0.00035616755 -0.00034736795 0.01117425 -0.88671219 0.071997873 -0.45668116 0.0033084913
-0.00060342625 0.0019429902 0.013037663 -0.71709526 0.038276203 -0.69592333 0.0050688526
0.00036728941 0.0025384058 0.011664826 -0.85410517 0.035441723 -0.51889145 0.0055364161
2.2673979e-05 0.0055701067 0.012593877 -0.81154484 0.075809322 -0.57935131 0.0091252336
0.00091915764 0.0057758731 0.011137102 -0.86502755 0.11072442 -0.48935404 0.006580947
6.8452209e-06 0.0079963533 0.012935232 -0.52571666 0.13864338 -0.83928543 0.013674024
0.0012208372 0.0088112336 0.01178785 -0.62160569 0.30694562 -0.72068769 0.054579277
0.0017891899 0.011363545 0.01270951 -0.10959861 0.10290688 -0.98863453 0.022167003
0.0041269343 0.011932123 0.012286317 -0.082929768 0.11427991 -0.98998111 0.024746053
0.0069449972 0.012081672 0.011785496 -0.38913682 0.58956432 -0.70780402 0.09653379
-1.1511147e-06 0.014963955 0.013107706 -0.12907141 0.0010132641 -0.99163479 0.0048295688
0.00154767 0.014173366 0.013001952 -0.11257253 0.064511329 -0.99154711 0.0035172242
0.0042103622 0.014191559 0.01289751 0.065515041 0.11233985 -0.99150765 0.014546062
0.0071105948 0.014156155 0.012803722 -0.1650238 0.33024147 -0.92935872 0.057232201
0.010027491 0.014313618 0.01169483 -0.57051694 0.72006667 -0.39498675 0.014934172
1.7136335e-07 0.016174175 0.013079155 -0.039143726 0.070419684 -0.99674916 0.0035216887
0.0013122782 0.016073229 0.013078485 0.0098640602 0.080059424 -0.99674129 0.0047713416
0.010298241 0.016472138 0.012946356 -0.71131659 0.61796832 -0.33487901 0.071625911
0.0023395065 -0.041218195 0.015082758 -0.023783864 -0.41110101 -0.9112795 0.0071517131
0.0046618879 -0.041339364 0.015320163 0.077182107 -0.44179347 -0.89379048 0.011112049
0.0078007961 -0.041250382 0.015471805 0.059854429 -0.44459265 -0.89373088 0.010652669
0.010532437 -0.041273758 0.015754614 0.15568824 -0.28757504 -0.94501948 0.041890424
0.012048824 -0.041296311 0.016026963 0.24074534 -0.140802 -0.96032101 0.043922737
-0.00049206428 -0.039181381 0.014953714 -0.2105827 -0.3679876 -0.90567106 0.0079888366
0.0017387383 -0.039684713 0.014913831 -0.093950413 -0.32660902 -0.9404785 0.015707592
0.0048212763 -0.03944793 0.0151227 0.080097608 -0.2637192 -0.96126825 0.0068061505
0.0078034848 -0.039417807 0.015381921 0.139043 -0.25048199 -0.9580844 0.023127487
0.01048794 -0.039499972 0.015608933 0.16097599 -0.013459651 -0.98686659 0.025958244
0.01258476 -0.039534181 0.015891608 0.37448782 -0.054112986 -0.92565155 0.034369159
-0.0062138569 -0.035185359 0.01576655 -0.18240048 -0.24383584 -0.95250946 0.02188962
-0.0037968159 -0.036097813 0.014699806 -0.32735687 -0.35178688 -0.87697405 0.0064274166
-0.0012162905 -0.036847632 0.014220078 -0.29673958 -0.46649224 -0.83326507 0.0088131661
0.0017693453 -0.036896754 0.014195789 0.030636281 -0.41369185 -0.90990126 0.035811633
0.0047016013 -0.0367506 0.014386524 -0.029602014 -0.45268759 -0.89117771 0.052175038
0.0074669747 -0.036683269 0.014700893 -0.057220049 -0.70783174 -0.70405978 0.056204673
0.010170322 -0.036957923 0.015029926 -0.017823521 -0.83072364 -0.55639958 0.081044637
0.012049844 -0.037637107 0.0159791 0.22545804 -0.0071464069 -0.97422659 0.031007037
-0.0095034167 -0.03269051 0.014859978 -0.39053646 -0.27070159 -0.87988746 0.024011357
-0.0071845036 -0.033410497 0.014832508 -0.22098339 -0.26695365 -0.93803096 0.018519586
-0.0043240134 -0.03388964 0.014614943 -0.40372184 -0.28021562 -0.87091202 0.017864477
-0.0016722251 -0.03447482 0.013491903 -0.26507482 -0.36506197 -0.89244896 0.045716867
0.0023863111 -0.034451254 0.013950717 -0.0271405 -0.5829618 -0.81204611 0.035196301
0.0043052714 -0.034860205 0.014012087 0.0079669375 -0.65996796 -0.75125146 0.048357185
0.0060356501 -0.035038732 0.013677586 -0.2407304 -0.88808119 -0.3916128 0.038908731
-0.010345832 -0.03089959 0.015392762 -0.4191179 -0.11746939 -0.90030062 0.02301091
-0.007380126 -0.030870995 0.01492561 -0.18410231 -0.037660003 -0.98218536 0.014065914
-0.0043128002 -0.030839292 0.014406081 -0.46602744 -0.10719064 -0.8782531 0.022483945
-0.0099032316 -0.028036071 0.015690301 -0.37051216 0.15351079 -0.91605413 0.0092765838
-0.0073973965 -0.027846927 0.015204836 -0.24895637 0.084619068 -0.96481109 0.0024391473
-0.004309522 -0.02779956 0.014343318 -0.48590937 0.03458437 -0.87332469 0.022437004
-0.0094223525 -0.025603369 0.015942518 -0.47403345 0.16354501 -0.86518514 0.0085714841
-0.0074196346 -0.024823302 0.015564878 -0.31090826 0.119122 -0.94294542 0.0019328144
-0.004317658 -0.024770798 0.01448888 -0.53344792 0.084849551 -0.84156632 0.018484741
-0.0069702007 -0.021898782 0.015832398 -0.37543321 0.13540253 -0.91690576 0.0021734515
-0.004331572 -0.021744782 0.014740136 -0.5661515 0.12727262 -0.81441647 0.012093187
-0.0063793659 -0.019513596 0.01599038 -0.43750042 0.1276723 -0.89010853 0.0018179872
-0.0043454766 -0.018715627 0.014991459 -0.60920715 0.12809078 -0.78259784 0.0094107501
-0.0024300478 -0.018046038 0.013233442 -0.82767659 0.083496988 -0.55495918 0.0059694159
-0.0041206796 -0.015737684 0.015120868 -0.63829631 0.095871545 -0.7637974 0.0075006611
-0.0024461057 -0.015632255 0.013545964 -0.73538548 0.081144676 -0.67277318 0.0035100216
-0.0038262941 -0.012717968 0.015239712 -0.60322952 0.085297242 -0.79299337 0.002823171
-0.0022262502 -0.012377724 0.013688158 -0.74414712 0.081507668 -0.66302443 0.0030278927
-0.0037201047 -0.0096918624 0.01548947 -0.60419595 0.071099922 -0.79365742 0.0025384501
-0.0021635816 -0.009577699 0.01394606 -0.74248976 0.084773436 -0.66447157 0.0029773405
-0.0034622084 -0.0065625864 0.01554912 -0.67882478 0.039676845 -0.73322749 0.00259142
-0.0020920467 -0.0064368476 0.014164638 -0.7327013 0.057389822 -0.67812634 0.0024556057
-0.003464384 -0.0035195625 0.015590269 -0.66023821 0.001308008 -0.75105518 0.0029162057
-0.0018671863 -0.0035118493 0.014077511 -0.756589 0.030691003 -0.65317005 0.0026502192
-0.0036186147 -0.00032360619 0.015626635 -0.60612464 -0.027599167 -0.79489064 0.0026421179
-0.0018744245 -0.0004776069 0.014223609 -0.69834161 0.034441803 -0.71493548 0.0057359086
-0.0039130785 0.0026752213 0.015606392 -0.48536611 -0.054581057 -0.87260568 0.0020479099
-0.0017283875 0.0026637763 0.014155757 -0.63857174 -0.013252831 -0.76944816 0.0046131383
-0.006231688 0.0068365117 0.016069252 -0.2784766 -0.17541711 -0.9442879 0.00099040649
-0.0043243077 0.005661204 0.01553848 -0.42202291 -0.12313797 -0.89818358 0.0034124772
-0.0015614331 0.0055897394 0.014027249 -0.59249687 -0.01862927 -0.80535734 0.0088942423
-0.0070632156 0.0086134253 0.015866015 -0.26201952 -0.21612427 -0.94055092 0.00066648773
-0.0043556467 0.0083424654 0.015188638 -0.34206271 -0.17036785 -0.92410386 0.0029999616
-0.0013696831 0.0086505758 0.013948489 -0.41484937 0.037006661 -0.90913725 0.011978052
-0.010078009 0.011502837 0.01587696 -0.22956517 -0.22738723 -0.9463588 0.00016614325
-0.0074053109 0.011082886 0.01533011 -0.23778464 -0.22116046 -0.94580466 0.00017657979
-0.0043195151 0.011062998 0.014535021 -0.26507199 -0.18284473 -0.94673365 0.0011586196
-0.0012989677 0.011272868 0.013688181 -0.31522581 0.0008514009 -0.94901633 0.012557586
0.00060309656 0.01163392 0.013137858 -0.28644392 0.049821302 -0.95680076 0.015108444
0.0045333691 0.011487152 0.013313454 -0.079497904 0.19308108 -0.97795695 0.03072132
0.0060507897 0.012242116 0.013230223 0.024991808 0.21362516 -0.97659594 0.035971936
-0.013009205 0.014491022 0.015902419 -0.22332424 -0.20454705 -0.9530409 0.00015986523
-0.010452092 0.014127119 0.015401352 -0.2129641 -0.18952805 -0.9585017 0.00011721779
-0.007368423 0.014106125 0.014729951 -0.22292708 -0.17582311 -0.95884818 0.00024355951
-0.0042908732 0.014083797 0.014016446 -0.20847112 -0.13493945 -0.96867484 0.00081435923
-0.0013307482 0.01398458 0.013368819 -0.18662664 -0.030228322 -0.98196578 0.0021625441
0.0051435828 0.015269578 0.013190527 0.1175536 0.20394059 -0.97189987 0.0096567301
0.007252804 0.014169883 0.013539236 -0.1650261 0.33024207 -0.92935824 0.057231829
0.0095450263 0.015052648 0.013946671 -0.11351646 0.60771936 -0.78599697 0.040456228
-0.015970167 0.017798923 0.0159331 -0.2206376 -0.17533407 -0.95946705 0.00022375076
-0.013502643 0.017173737 0.015511941 -0.20466058 -0.16198704 -0.96533638 0.00013706756
-0.01041479 0.01714891 0.014850844 -0.20667084 -0.15366621 -0.966268 0.00020564214
-0.0073367935 0.01712501 0.01421516 -0.19543536 -0.11446618 -0.97401363 0.00049346418
-0.0042676292 0.017101815 0.013596158 -0.16100441 -0.077480741 -0.9839077 0.0018561722
-0.0013224576 0.017166184 0.013203148 -0.063499749 0.011345567 -0.99791729 0.0011948348
0.0019685384 0.017408451 0.013263959 0.043061156 0.13811071 -0.98948026 0.0016080986
0.0047178399 0.017184665 0.01368 0.17121673 0.32642525 -0.92958665 0.0056521455
0.0074677281 0.017102085 0.014272321 0.1218142 0.4564057 -0.88139385 0.035339229
0.010043789 0.016852921 0.014554691 0.0027357116 0.62383902 -0.78154814 0.047929291
-0.01856542 0.021000452 0.016009759 -0.23863891 -0.14678349 -0.9599511 0.00051560381
-0.01650833 0.020274965 0.01567829 -0.2068302 -0.13505304 -0.96901077 7.7814642e-05
-0.013469007 0.020196972 0.015057098 -0.19657946 -0.11776992 -0.97338939 8.736529e-05
-0.01038773 0.020170411 0.014451351 -0.18749414 -0.092491016 -0.97790158 0.00030645446
-0.0073158368 0.020145152 0.01387443 -0.15849406 -0.054659743 -0.9858458 0.0010212036
-0.004257435 0.020125052 0.013413709 -0.088612027 0.010684435 -0.99600887 0.0030571225
-0.0012242012 0.020122489 0.013351467 0.052063152 0.11353396 -0.99216908 0.0053187092
0.0017885529 0.020140247 0.013751853 0.1906238 0.20741193 -0.95950139 0.0047739442
0.0047881696 0.020180017 0.014653269 0.33554807 0.33174458 -0.88167626 0.0055819885
0.0071338043 0.019777292 0.015570115 0.38543886 0.4703671 -0.79384613 0.011311739
-0.019214425 0.02338005 0.015879426 -0.20999315 -0.091360547 -0.97342491 0.0001405173
-0.016532421 0.023251753 0.015345756 -0.19327718 -0.085328616 -0.97742665 5.9287184e-05
-0.013445992 0.023221709 0.014746297 -0.18851565 -0.080051735 -0.97880208 0.00012241746
-0.010369223 0.023193251 0.014178198 -0.16192627 -0.044755302 -0.98578745 0.00050561316
-0.007305311 0.023169598 0.013704848 -0.066727959 0.0004083215 -0.99777108 0.0029930258
-0.0042638574 0.023161152 0.013533194 0.020182645 0.067059033 -0.99754488 0.0044290866
-0.0012461524 0.023174927 0.013804298 0.17462991 0.22249781 -0.95916587 0.0054001631
0.0017531775 0.023214325 0.014586519 0.30749923 0.2893222 -0.90649706 0.0042776195
0.0043501779 0.022855688 0.015532043 0.44383341 0.39017579 -0.80670607 0.005366452
-0.021467429 0.027250506 0.016099546 -0.23980176 -0.063916095 -0.96871555 0.00027874485
-0.019609325 0.026316591 0.01574843 -0.21089971 -0.064084299 -0.9754048 9.9714256e-05
-0.016514253 0.026281124 0.015119646 -0.18876149 -0.048350081 -0.98083198 7.3391988e-05
-0.013431966 0.026249385 0.01455671 -0.17040329 -0.027592072 -0.98498803 0.00022749772
-0.010360327 0.026220696 0.014047373 -0.12116796 -0.014837789 -0.99252111 0.0013652606
-0.0073090512 0.026205068 0.013768185 -0.015559326 0.053521838 -0.99844545 0.0034080991
-0.0042852592 0.026214056 0.013924431 0.16763395 0.18618627 -0.96810824 0.0067359349
-0.0012832824 0.026250524 0.014567722 0.31071243 0.29994008 -0.90193886 0.0018229797
0.0014569871 0.026047867 0.015520904 0.39165545 0.33927491 -0.85527682 0.0039163646
-0.021460451 0.029378382 0.016022224 -0.21948028 -0.022554196 -0.97535616 8.2883998e-05
-0.019598123 0.029353093 0.015618864 -0.19485153 -0.018238485 -0.98066324 5.9240312e-05
-0.016507093 0.029316254 0.015030678 -0.18203132 -0.013336105 -0.98320234 7.7540964e-05
-0.013427012 0.029282384 0.014489856 -0.14611779 -0.0031700849 -0.9892621 0.00064331869
-0.010362722 0.029257057 0.014084514 -0.018727539 0.064410508 -0.99774778 0.0036712773
-0.0073288027 0.029257705 0.01409236 0.12724467 0.16699606 -0.97771221 0.0067146262
-0.0043212231 0.029288426 0.014579926 0.23485786 0.22759804 -0.9450084 0.0040658652
-0.0015686397 0.029158715 0.015423853 0.36062121 0.29905394 -0.88346994 0.0038205364
0.00047700107 0.028154515 0.015932638 0.47017315 0.38559666 -0.7938844 0.003198812
-0.021457758 0.032422662 0.015992347 -0.21310124 0.0088167954 -0.97699028 7.8561628e-05
-0.019596387 0.032395571 0.015599173 -0.19033103 0.011272647 -0.98165524 7.7526893e-05
-0.016508028 0.032357194 0.015042301 -0.17087908 0.022595624 -0.98503286 0.00014440439
-0.013430092 0.032322068 0.014532264 -0.06916777 0.059117608 -0.99585187 0.0025584709
-0.010380313 0.032309398 0.014346536 0.069446661 0.14881551 -0.98642337 0.0061780326
-0.007363094 0.032330703 0.014653411 0.18600562 0.20422198 -0.96109074 0.00401094
-0.0045042001 0.032243248 0.015390765 0.34263808 0.31488237 -0.88512605 0.0016090279
-0.0023658257 0.031403556 0.015935946 0.41726938 0.37877235 -0.82608581 0.0034164411
-0.021462951 0.035168506 0.016049895 -0.21461485 0.046656001 -0.97558379 0.00010550054
-0.019604839 0.035446644 0.015696991 -0.19261013 0.051014401 -0.9799484 9.0964764e-05
-0.016515419 0.035404332 0.015134338 -0.15356451 0.060312565 -0.98629624 0.00042408923
-0.013444785 0.035374209 0.0147327 0.0027740623 0.13154791 -0.99130589 0.0054333685
-0.010411844 0.03538052 0.014814716 0.12926057 0.18022378 -0.97509545 0.0044215475
-0.0074604694 0.035375044 0.015415024 0.28483647 0.28013024 -0.91673076 0.0013469598
-0.0054582842 0.034697972 0.015864413 0.39817399 0.32938951 -0.8561309 0.0036620358
-0.019511797 0.038423654 0.01584639 -0.19308609 0.098714925 -0.97620344 0.00043493693
-0.016530983 0.038460977 0.015328873 -0.12324376 0.10905039 -0.98636657 0.00094603054
-0.013472904 0.038443632 0.015114594 0.037215274 0.15925372 -0.98653603 0.0038106677
-0.010506332 0.038421389 0.015463006 0.17336924 0.21245642 -0.96166801 0.0029811384
-0.0082498007 0.037692513 0.015865114 0.3316029 0.31376922 -0.88971251 0.0042938292
-0.018814586 0.040745448 0.015954014 -0.1920692 0.16782358 -0.96692538 0.00084631966
-0.016512796 0.041488074 0.015735749 -0.078329749 0.20718051 -0.97516185 0.0024195546
-0.01356509 0.041482877 0.01567613 0.0476849 0.22755566 -0.97259676 0.0026397696
-0.011294931 0.040737543 0.015861791 0.26257366 0.27983201 -0.92344415 0.0046051303
-0.013422843 -0.045023255 0.017431844 -0.58985037 0.38512394 -0.70975769 0.074404255
-0.010741092 -0.044595338 0.016297612 -0.46376505 0.2485947 -0.85036618 0.046222996
-0.0074659437 -0.044369169 0.016325239 -0.07994476 0.02930223 -0.99636853 0.015037694
-0.0044581536 -0.044434939 0.017064128 0.26255205 -0.39548802 -0.88014519 0.053892493
-0.0013929382 -0.044410951 0.016794566 -0.013835914 -0.65458423 -0.75586247 0.072626494
0.0017819777 -0.044708073 0.017079923 -0.014610689 -0.74742907 -0.66418082 0.038196638
0.0040883888 -0.044438664 0.017106038 0.022361588 -0.5688138 -0.82216227 0.020853326
0.011687586 -0.044571906 0.018603552 0.070427731 -0.84386444 -0.53191423 0.03464162
0.012601812 -0.044592373 0.018833537 0.14797322 -0.81243336 -0.56396449 0.030480379
-0.013211809 -0.042977605 0.017638911 -0.71564108 0.42512986 -0.5541864 0.029946942
-0.010520186 -0.042546999 0.016407665 -0.46729246 0.3552323 -0.80959731 0.051115781
-0.007464081 -0.042537596 0.016293939 -0.079947017 0.029304257 -0.99636835 0.015042254
-0.0044209063 -0.04254505 0.016381595 -0.027949439 -0.1496384 -0.98834574 0.014273841
-0.0013766345 -0.042552549 0.016469341 -0.023084978 -0.44013783 -0.89763343 0.037481099
0.0015856754 -0.042726148 0.016554434 -0.024720669 -0.54798812 -0.83612078 0.022419073
0.0047465432 -0.042922664 0.016667519 0.063387416 -0.45118821 -0.89017487 0.010315785
0.0077476641 -0.042924125 0.017235037 0.1470395 -0.61683369 -0.77323711 0.023279533
0.010904867 -0.042816877 0.017178152 0.036070604 -0.66840613 -0.74292135 0.027958242
0.013543938 -0.042649321 0.017597314 0.34448072 -0.52229518 -0.78009021 0.012545935
0.015518981 -0.04225608 0.01836979 0.43195879 -0.54565555 -0.71810269 0.01136861
-0.010591943 -0.039580975 0.017452616 -0.51433462 0.1294985 -0.84775591 0.042172842
-0.0074656159 -0.039491441 0.016318034 -0.11352644 -0.013003907 -0.99344993 0.0090761939
-0.0044209231 -0.039496534 0.016381864 -0.10894398 -0.14110424 -0.98398215 0.019888313
-0.0017826259 -0.039909083 0.016457926 -0.1993223 -0.26040944 -0.9446997 0.019480975
0.01142527 -0.038298391 0.016660262 0.2254533 -0.007177602 -0.97422755 0.031006034
0.013515178 -0.039745342 0.016777825 0.37335342 -0.1202926 -0.91985703 0.021297609
0.016090484 -0.040305391 0.017595593 0.30049148 -0.67678457 -0.67206216 0.035992648
0.018138085 -0.040108971 0.016416062 0.049813822 -0.93640792 -0.34735966 0.061769895
-0.012513217 -0.036310896 0.018705476 -0.57951099 -0.17187276 -0.79663461 0.023566101
-0.010563005 -0.036495443 0.017032031 -0.55685318 -0.21668588 -0.80184889 0.026243605
-0.0075157378 -0.036493354 0.016307238 -0.27019611 -0.22493562 -0.93616134 0.016652707
-0.0047760066 -0.037107721 0.01637141 -0.25038344 -0.27270851 -0.92894465 0.019700076
0.010216299 -0.037654795 0.016214397 0.25385576 -0.055159878 -0.96566802 0.02543208
-0.012472905 -0.0335164 0.018141169 -0.74930662 -0.18822329 -0.63491076 0.0058965464
-0.010712422 -0.033752855 0.016869452 -0.55107975 -0.26684809 -0.79063469 0.019516096
-0.0082254447 -0.034459628 0.016283136 -0.25772223 -0.29708406 -0.91941303 0.015772227
-0.012977146 -0.03021731 0.01729646 -0.78140163 -0.0016715198 -0.62402624 0.016167486
-0.011727836 -0.029733041 0.016243983 -0.71588784 -0.06869062 -0.69482821 0.014841292
-0.012726091 -0.027518364 0.017877128 -0.77508098 0.19460085 -0.60114902 0.010695249
-0.011382293 -0.02767613 0.016532246 -0.48139501 0.21476984 -0.84978396 0.010176858
-0.012503758 -0.0249703 0.018573035 -0.74538195 0.221255 -0.62884969 0.0067981738
-0.010759003 -0.024744354 0.016922865 -0.60577708 0.24389432 -0.75733066 0.013859634
-0.010488521 -0.021941958 0.017498489 -0.61974132 0.22655316 -0.75139493 0.011085171
-0.0084560048 -0.021583159 0.016313512 -0.4038077 0.18181165 -0.89659572 0.0017775468
-0.010161102 -0.018933225 0.018009607 -0.6560306 0.19424684 -0.72930932 0.0051914062
-0.0076837745 -0.018627169 0.016552705 -0.45134023 0.16411608 -0.87713051 0.0011885411
-0.0098216608 -0.015890304 0.018423986 -0.70206195 0.14802514 -0.69656134 0.0086770225
-0.0075057689 -0.01573489 0.016959991 -0.48462901 0.13966116 -0.86349845 0.00094006473
-0.0056324005 -0.015408695 0.016243327 -0.52546316 0.11585861 -0.84289104 0.0034106704
-0.0094549898 -0.012725966 0.018780623 -0.66178131 0.16109174 -0.73218507 0.010327464
-0.0075349193 -0.012693979 0.017432142 -0.55983508 0.12323581 -0.81938863 0.0055605839
-0.0053711738 -0.012534289 0.016411129 -0.5472663 0.09509971 -0.83153808 0.0032205244
-0.0075581055 -0.0096454993 0.017808031 -0.56431264 0.093434356 -0.82025689 0.0027777401
-0.0052654464 -0.0095136873 0.01660851 -0.54799086 0.070824713 -0.8334806 0.0024245542
-0.0075702127 -0.0065903277 0.018004734 -0.57539409 0.016518634 -0.81770951 0.0023093098
-0.0050449446 -0.0065748156 0.016629573 -0.53999043 0.02631931 -0.8412596 0.00192522
-0.0075677 -0.0035315235 0.017965119 -0.54710162 -0.073431827 -0.83383912 0.0033624349
-0.0050449781 -0.0035247924 0.016630497 -0.52795374 -0.022550138 -0.84897375 0.0021498261
-0.0095598735 -0.00026784278 0.018822435 -0.58321381 -0.18739098 -0.79040891 0.0045677978
-0.0075501371 -0.00047351653 0.017681334 -0.48118109 -0.11489742 -0.86905891 0.0027814929
-0.0051330104 -0.00061552646 0.016528655 -0.49127451 -0.068349428 -0.86831892 0.0018372107
-0.010158671 0.0027800114 0.018416245 -0.47848329 -0.24217789 -0.84404004 0.0060865856
-0.0075213555 0.0025796224 0.017215509 -0.39779747 -0.16249907 -0.90296811 0.0014711003
-0.0054113436 0.0023448453 0.016373795 -0.44421265 -0.1044565 -0.88981122 0.0017775375
-0.012923479 0.0058586653 0.018728968 -0.46342388 -0.37764937 -0.80163544 0.0049818465
-0.010617491 0.0053361831 0.017840419 -0.388394 -0.28764966 -0.87544715 0.0038024536
-0.0074901879 0.0053214673 0.016710062 -0.35164899 -0.18115228 -0.91843718 0.00093136076
-0.0056308974 0.004400902 0.016217221 -0.33451423 -0.14559837 -0.93107539 0.0012889685
-0.015846714 0.0087191332 0.018804971 -0.44237503 -0.43447283 -0.78456205 0.0032087753
-0.013579693 0.0081704762 0.017990332 -0.37529904 -0.36860344 -0.85045999 0.0028560101
-0.010556299 0.0080710426 0.016939793 -0.29767287 -0.28910378 -0.90984058 0.0012180015
-0.0080257431 0.0075071286 0.016410504 -0.2956731 -0.20887519 -0.93217409 0.0009478752
-0.018707536 0.011712207 0.018703762 -0.46537358 -0.43146965 -0.77282679 0.0029302393
-0.016504232 0.011205175 0.017897945 -0.37678841 -0.37514254 -0.8469348 0.0029076783
-0.013605621 0.011122173 0.016902748 -0.2949506 -0.30026594 -0.90710777 0.0011576219
-0.011128593 0.010500016 0.016392011 -0.25765109 -0.25885713 -0.9309184 0.00058594882
-0.021491334 0.015045067 0.018625263 -0.50095117 -0.40935835 -0.76254421 0.0037401146
-0.019495267 0.014207067 0.017964642 -0.40292212 -0.35024214 -0.84556741 0.003254547
-0.016656552 0.014173692 0.016891409 -0.29679677 -0.2757293 -0.91426748 0.0011683438
-0.014230881 0.013714163 0.016369183 -0.2511754 -0.23596103 -0.93874025 0.00066491775
-0.024165895 0.018218219 0.018839989 -0.56740773 -0.36640093 -0.73742718 0.0034839532
-0.022262316 0.017271763 0.01812182 -0.4578329 -0.3063882 -0.83457494 0.0042125592
-0.019546364 0.017310811 0.016945157 -0.30666211 -0.24994624 -0.91841453 0.0012881665
-0.017019995 0.016799299 0.016359147 -0.25701955 -0.21564318 -0.94203979 0.00099670957
0.010519288 0.018422469 0.016290579 0.51054478 0.58531195 -0.629884 0.02539232
-0.024848357 0.020533422 0.018368747 -0.52241826 -0.27207524 -0.80811775 0.0038997491
-0.022489436 0.020293707 0.017267261 -0.35062218 -0.21843623 -0.91068637 0.0013591452
-0.019873045 0.02011284 0.01644836 -0.27914175 -0.19195817 -0.94086766 0.001391348
-0.017815534 0.019026272 0.016151 -0.2175547 -0.1438679 -0.96538693 0.0002914012
0.008283278 0.020624155 0.016830396 0.53249586 0.47912425 -0.69777369 0.0093157031
0.010123465 0.019965582 0.017891485 0.64161545 0.56244153 -0.5215258 0.0078231255
-0.027375612 0.02418917 0.01876628 -0.59081429 -0.26502076 -0.76203841 0.0029737861
-0.025290523 0.023374474 0.017798956 -0.45231986 -0.21047954 -0.86666322 0.0034038599
-0.022432916 0.023317311 0.01665495 -0.31324866 -0.1306771 -0.94063741 0.0019529192
