# .PCD v0.7 - Point Cloud Data file format
VERSION 0.7
FIELDS x y z normal_x normal_y normal_z curvature
SIZE 4 4 4 4 4 4 4
TYPE F F F F F F F
COUNT 1 1 1 1 1 1 1
WIDTH 554
HEIGHT 1
VIEWPOINT 0 0 0 1 0 0 0
POINTS 554
DATA ascii
0.023934195 -0.0027860831 -0.011121375 0.34164485 0.40643439 -0.84740192 0.0038674108
0.02587672 -0.0036815179 -0.010747233 0.33859533 0.39539367 -0.85382497 0.0030321656
-0.055751197 -0.00070401747 -0.010788132 -0.59132993 0.59698278 -0.54216284 0.0011180859
-0.053767353 0.00023372658 -0.011800185 -0.59223992 0.60999221 -0.52646118 0.0015121063
-0.051725499 0.00096262153 -0.013284262 -0.61571932 0.62042385 -0.48576123 0.00035259034
0.010260778 0.0011791214 -0.013339708 0.27050352 0.52176553 -0.80906647 0.0088343248
0.012230864 0.00078573078 -0.012748741 0.22894752 0.53542578 -0.81295896 0.0062051662
0.015376275 0.00054485584 -0.012370283 0.2535395 0.55142581 -0.79476243 0.0075006844
0.01796332 0.00016696937 -0.012083491 0.30090681 0.53721327 -0.78794467 0.0082549602
0.021038419 -5.1426236e-05 -0.011104425 0.30949011 0.56102663 -0.76776624 0.0068423771
0.023080075 -0.00070152897 -0.010591049 0.35554564 0.53163999 -0.76873034 0.0056649288
-0.052570183 0.0019196896 -0.010988165 -0.56213742 0.64943099 -0.51209462 0.00036070458
-0.050682291 0.0029510693 -0.011922142 -0.61001116 0.64890522 -0.45476195 0.00040741998
-0.04874013 0.0040787035 -0.012949122 -0.6217044 0.64173007 -0.4490726 0.00027141755
0.0069528921 0.0041376599 -0.013387645 0.38529852 0.23597635 -0.89210999 0.010445102
0.009325115 0.0033855182 -0.012790734 0.33466539 0.35803792 -0.87166965 0.00014180269
0.012285903 0.0032159751 -0.011784254 0.26776144 0.32550949 -0.90683371 0.0066624098
0.014835646 0.0030704183 -0.010991141 0.34728432 0.25422275 -0.90264308 0.0097708274
0.016772399 0.0019280342 -0.010544885 0.37340587 0.3890532 -0.84214354 0.02381907
-0.047408711 0.0060169599 -0.011853794 -0.61634672 0.68977249 -0.37990874 0.00078630849
-0.045627899 0.0072216089 -0.012753107 -0.64141721 0.69264323 -0.32989275 0.0016563738
0.0045157834 0.0064005521 -0.013389746 0.37989977 0.28741902 -0.87924194 0.022235125
0.0063574212 0.0062288321 -0.012860538 0.42572579 0.22958224 -0.87524259 0.010939815
0.0091416081 0.0063659535 -0.011635395 0.28055042 0.26965499 -0.92118275 0.010656518
0.012415834 0.0061853374 -0.011207741 0.24082825 0.20745637 -0.94813693 0.0095522581
0.014624165 0.0059657288 -0.010784602 0.27908745 0.22230923 -0.93417817 0.0091507146
-0.044380397 0.0086140744 -0.011822934 -0.59797686 0.74646568 -0.29191217 0.0063376268
-0.0031415238 0.0086602885 -0.013481487 0.11976001 0.76540703 -0.63230509 0.0094437571
0.00067780202 0.0092966575 -0.012744296 0.11999492 0.72595334 -0.67719495 0.016996132
0.0036048952 0.0094290711 -0.012475165 0.20896249 0.65080917 -0.72991914 0.038578536
0.0063003139 0.0092763845 -0.012138067 0.22562361 0.6638518 -0.71301806 0.048542254
0.0090888338 0.0090400372 -0.011647636 0.17016338 0.52486604 -0.83400238 0.04048948
0.012222163 0.0087484512 -0.010974316 0.25355369 0.37599406 -0.89125699 0.020324618
-0.019822158 -0.026242483 -0.0097049586 0.028549036 -0.99688011 -0.073586293 0.00051187543
-0.019127488 -0.026318993 -0.0081196912 0.028548798 -0.99688011 -0.073586501 0.00051169365
0.015989935 -0.025425564 -0.010279793 0.1625668 -0.88927943 -0.42749751 0.0016798864
0.018124456 -0.025473494 -0.009246055 0.16707285 -0.90101534 -0.40032244 0.001484729
0.020805821 -0.025533751 -0.0079464279 0.16359641 -0.91221523 -0.37563205 0.0013741666
0.021265093 -0.024916029 -0.009912028 0.16856921 -0.89738834 -0.40777266 0.0028238513
0.024277685 -0.024603419 -0.0094172573 0.15537138 -0.89848429 -0.41059199 0.0030826335
0.027104618 -0.024108894 -0.0092549203 0.16506445 -0.84052247 -0.51601899 0.0080704028
0.030266369 -0.023319511 -0.0092357406 0.23341016 -0.77933091 -0.58151782 0.0046694935
0.033125691 -0.022925876 -0.0086776428 0.22135983 -0.74460351 -0.6297344 0.0046552666
0.035873007 -0.022529829 -0.0081005851 0.23107612 -0.69868851 -0.67708063 0.0036781065
0.031495195 -0.021733072 -0.010535467 0.29460961 -0.55881846 -0.77519482 0.0045478926
0.033626046 -0.021222886 -0.010112444 0.27791229 -0.56128711 -0.77956492 0.0048927078
0.036228701 -0.020823898 -0.0093883956 0.31303439 -0.51057881 -0.80082375 0.0040354193
0.039145198 -0.020564722 -0.0084582651 0.30869836 -0.5212034 -0.79564589 0.0035254497
0.041712414 -0.020020342 -0.0078347307 0.41265091 -0.51211417 -0.75329834 0.0094676856
0.03694801 -0.018761687 -0.010269795 0.30955932 -0.30140364 -0.90184742 0.0049402816
0.039222945 -0.017851206 -0.0097026397 0.37411535 -0.24516256 -0.89438969 0.0029838711
0.042179089 -0.017845504 -0.0085729966 0.4395887 -0.30204275 -0.84589124 0.013968639
0.043806605 -0.017329941 -0.0080869608 0.69944775 -0.14338784 -0.70015198 0.041444603
-0.055890791 -0.013881279 -0.0086554084 -0.74821323 -0.56756616 -0.34357753 0.0036058817
0.039462391 -0.014907237 -0.010082684 0.4111191 0.30871266 -0.8577165 0.033491626
0.041978817 -0.014975283 -0.0090371119 0.48104087 0.29303554 -0.82627469 0.026064051
0.043777458 -0.01573549 -0.0084144808 0.63769782 -0.062178772 -0.76777291 0.039950762
-0.058808733 -0.010719758 -0.0079981275 -0.71904278 -0.53525174 -0.44326407 0.0012146092
-0.057354052 -0.011646106 -0.0090690181 -0.72548884 -0.55588412 -0.40578184 0.0029967311
0.031153955 -0.011043486 -0.010379895 0.33603123 0.10338552 -0.93615943 0.0080393944
0.033159778 -0.011707664 -0.0098654088 0.30541801 0.33154178 -0.89263654 0.02741172
0.036090571 -0.011766643 -0.008766287 0.36237606 0.393749 -0.84477532 0.023953268
0.038708705 -0.012131643 -0.0079004103 0.40722522 0.40289989 -0.8196581 0.02429474
-0.059409387 -0.0087297605 -0.0090269018 -0.81519407 -0.32267165 -0.48097989 0.009295674
-0.057960521 -0.010169846 -0.010085929 -0.73001325 -0.52828842 -0.43358043 0.0019751792
0.030771986 -0.0093359258 -0.010168308 0.33925474 0.14468731 -0.92950082 0.010030529
0.033168569 -0.0088485144 -0.0096098417 0.37058476 0.14133582 -0.91798216 0.007200799
0.036068685 -0.0088422354 -0.0085414322 0.36353925 0.17423582 -0.91513991 0.0065139229
0.038410731 -0.0085451407 -0.0079515241 0.36548936 0.16424523 -0.91621017 0.0075175427
-0.06010313 -0.0055820085 -0.0089027248 -0.80495381 0.079003833 -0.58805424 0.013204982
0.027998585 -0.0047314363 -0.010367641 0.34010327 0.34664655 -0.87416589 0.00012159539
0.030368442 -0.005516571 -0.00978499 0.35190117 0.29872087 -0.88709152 0.0055577713
0.03318521 -0.0056940746 -0.0087819556 0.35746256 0.36607224 -0.85919243 0.0049204472
0.035703439 -0.0061348844 -0.0080012726 0.35305819 0.30185977 -0.8855679 0.011368407
-0.059310507 -0.0029556043 -0.008814564 -0.66405547 0.39385551 -0.63553768 0.0031492282
-0.057682589 -0.0018100357 -0.0097515695 -0.61508435 0.48123205 -0.62456942 0.004769423
0.024846599 -0.0015743694 -0.010274881 0.36948544 0.51621795 -0.77265745 0.0044764681
0.0271696 -0.0024302702 -0.0097392742 0.32647398 0.47747147 -0.81574237 0.0080668656
0.030238811 -0.0028264045 -0.0087296432 0.36661118 0.45688066 -0.81046683 0.0066215005
0.032956973 -0.0033131754 -0.0078914398 0.37657669 0.49130365 -0.78537303 0.0038614725
-0.058842052 -0.00079856534 -0.0077823219 -0.56754708 0.54101604 -0.62063825 0.0018682282
-0.056620326 0.00022952771 -0.0088810315 -0.57755315 0.59222114 -0.56187761 0.0023098188
-0.054412082 0.0012034741 -0.0098745115 -0.5326041 0.64300817 -0.5503394 0.00026989859
0.018627619 0.0014109341 -0.010048497 0.30709267 0.55166101 -0.77547687 0.0079522086
0.021661762 0.0011635199 -0.0091286525 0.31928942 0.55634838 -0.76715755 0.0073864819
0.02420494 0.00037699845 -0.0088811256 0.35617772 0.54252768 -0.76078975 0.005196359
0.026154246 -0.00032340945 -0.0085738292 0.33577546 0.56661773 -0.75246203 0.0060855355
0.028973361 -0.0012042196 -0.0085464008 0.32474476 0.54267693 -0.77462417 0.006015704
-0.055668626 0.0019802181 -0.007767607 -0.51324892 0.64127797 -0.57038426 0.00060111575
-0.053652123 0.0027887514 -0.0086913649 -0.52383894 0.66014975 -0.53832614 0.00023888847
-0.0514457 0.0040587313 -0.0094029168 -0.55840969 0.68101513 -0.47370556 0.00079010503
0.01601805 0.0036273752 -0.010326057 0.35130471 0.22971931 -0.90764195 0.01182078
0.01815171 0.0033011166 -0.0096051022 0.36518165 0.31701934 -0.87529486 0.017752664
0.021316921 0.0032886961 -0.0084550194 0.3769272 0.33913428 -0.86192453 0.017403169
0.02354525 0.0023327023 -0.0077914339 0.35311094 0.50547791 -0.78727674 0.0058827251
-0.050329298 0.0054640812 -0.0086122863 -0.54876798 0.69445205 -0.46539232 0.00091260986
-0.048348192 0.0068530901 -0.0089346496 -0.5556162 0.72608608 -0.40507981 0.0019176318
0.011692155 0.007367278 -0.010355437 0.25355253 0.37599477 -0.89125699 0.020324156
0.015990289 0.0058794082 -0.010263789 0.2777212 0.22362407 -0.93427151 0.007615021
0.01811849 0.0059023337 -0.0094505548 0.4165276 0.24460833 -0.87559777 0.016479408
0.021390334 0.006184163 -0.008188352 0.41009906 0.26862445 -0.87158459 0.021676458
-0.04686391 0.0083121974 -0.0083391853 -0.49420667 0.789186 -0.36461657 0.0050241575
-0.045365535 0.0089265462 -0.0089163436 -0.48084274 0.82736748 -0.29026419 0.0045943931
-0.042737637 0.009845661 -0.009727139 -0.37479001 0.90566838 -0.19823545 0.0049022152
0.0041521122 0.010350259 -0.010299254 0.17710245 0.71764708 -0.67351127 0.022208963
0.0094138784 0.010352435 -0.010243304 0.19595721 0.55779696 -0.80651307 0.044521283
0.012378801 0.0097743366 -0.0098845921 0.21417749 0.67060453 -0.71022362 0.029952038
0.015161028 0.0098047052 -0.009078959 0.45770457 0.65525299 -0.60095757 0.11069044
0.017889561 0.0097414218 -0.0081796879 0.35759458 0.55661136 -0.74987328 0.042017773
0.021428669 0.0083898976 -0.007780998 0.34983528 0.46813577 -0.81145805 0.045464806
0.0070480979 0.010931166 -0.0089329965 0.083186105 0.85873693 -0.50561947 0.0020109206
0.0091580357 0.010921743 -0.00916766 0.22127749 0.71848029 -0.65941066 0.029337168
0.012331622 0.010944236 -0.0086069498 0.20713095 0.6684134 -0.71436697 0.027610986
0.014723526 0.010974817 -0.0078443876 0.1957271 0.96483243 -0.17546874 0.10913631
0.022152608 -0.025564071 -0.0072929752 0.16103801 -0.92069781 -0.35550281 0.0020410581
0.024055529 -0.025616128 -0.0061703566 0.15453348 -0.93405926 -0.32195151 0.0037110969
0.025985638 -0.025688004 -0.0046201241 0.14553006 -0.94371444 -0.29702541 0.0028146547
0.027725553 -0.025042139 -0.0071169105 0.15894015 -0.91168576 -0.37890247 0.0087072765
0.030345058 -0.024871679 -0.0064908084 0.10420932 -0.90777105 -0.4063153 0.0064398353
0.0330895 -0.024556929 -0.0061114687 0.22289287 -0.81810004 -0.53012365 0.0027769771
0.036280297 -0.023795169 -0.0062740119 0.20820872 -0.83450133 -0.51015359 0.0020780659
0.039111994 -0.023140198 -0.0061106342 0.23338491 -0.76428306 -0.60116786 0.0043637771
0.041666519 -0.022841783 -0.0055016796 0.46546397 -0.65351182 -0.59687984 0.010866496
0.039900303 -0.021721091 -0.0073312563 0.26932135 -0.70127869 -0.66005623 0.0028996887
0.04245203 -0.021152543 -0.0066800811 0.46777633 -0.56796825 -0.67719829 0.0077955993
0.044581104 -0.019569792 -0.0053745825 0.56647992 -0.46504012 -0.68032217 0.0072060279
0.045289092 -0.017711671 -0.0056696939 0.62002265 -0.33754411 -0.70826256 0.02765318
0.047173671 -0.017209718 -0.0048523899 0.35579243 -0.29896653 -0.88545507 0.013642099
0.061036699 -0.016790686 -0.0050267172 -0.16354404 -0.5117209 -0.84344238 0.013275942
0.062950835 -0.017007098 -0.0047770496 0.0023205383 -0.5283497 -0.84902358 0.021922302
-0.056554787 -0.014375677 -0.0059524765 -0.65673596 -0.67925477 -0.32758346 0.0029344298
0.042867381 -0.013690382 -0.0067193527 0.37947792 0.39237034 -0.83787954 0.018704813
0.045140792 -0.014654597 -0.0059008235 0.52055269 0.16362865 -0.83800387 0.033336699
0.04754623 -0.014749477 -0.004981712 0.34334993 0.042698763 -0.93823647 0.0058383639
0.058300085 -0.013812231 -0.0052609262 -0.39141601 -0.30223134 -0.86916614 0.0093004452
0.060300656 -0.01466978 -0.0058454834 -0.25961405 -0.42139953 -0.86892062 0.012524495
0.063191198 -0.014739055 -0.0055153044 0.17087658 -0.27762079 -0.94537187 0.0041480777
0.065886132 -0.014442481 -0.0049784509 0.25051057 -0.23755546 -0.93851572 0.0018244968
0.068120167 -0.013425199 -0.0045500291 0.37029359 -0.15884027 -0.91523355 0.0013957757
-0.059649445 -0.011366175 -0.0057115373 -0.69348508 -0.58391345 -0.42204681 0.0025092093
-0.057798441 -0.012683023 -0.006518214 -0.67434245 -0.63763416 -0.37240437 0.0020849002
0.039739292 -0.011402664 -0.0072352076 0.3970331 0.35697499 -0.84553742 0.021457663
0.042141337 -0.011496349 -0.0063474039 0.40420213 0.36811882 -0.83732259 0.012089331
0.045019675 -0.011676134 -0.0053158472 0.35074165 0.2745631 -0.89531863 0.0016505371
0.047117133 -0.012532055 -0.0048244488 0.35085145 0.27169979 -0.89614874 0.0017233271
0.05786759 -0.011488657 -0.0058217756 -0.49681479 -0.065063357 -0.86541432 0.012514297
0.060189486 -0.01174793 -0.0064420025 -0.10714091 -0.0095715327 -0.99419773 0.023335608
0.06311278 -0.011538383 -0.0060999617 0.1904311 0.040412325 -0.9808684 0.0090393787
0.066135295 -0.011547728 -0.0053932285 0.23631461 0.073034406 -0.96892792 0.0098816892
0.068305552 -0.011342948 -0.0047417833 0.3247205 0.038944278 -0.94500792 0.017367465
-0.061950281 -0.0083925072 -0.0053771371 -0.77509868 -0.37192911 -0.51077467 0.0032331354
-0.060721122 -0.0090096453 -0.006778114 -0.78482181 -0.3358871 -0.5208019 0.0045900517
0.037511893 -0.0096671553 -0.0073866737 0.3655189 0.16424942 -0.9161976 0.0075128055
0.039409522 -0.0090144537 -0.0069965711 0.43115079 0.17606214 -0.88493568 0.0084184781
0.042058863 -0.0087187272 -0.0053612031 0.39969748 0.31149456 -0.86209798 0.0036509
0.044282544 -0.0095126899 -0.0047355187 0.37336445 0.30570066 -0.8758688 0.0022994978
0.05793399 -0.0087957643 -0.0055686366 -0.52627164 0.15486501 -0.83609509 0.013882257
0.060184151 -0.0088441893 -0.005849299 -0.095497273 0.17926681 -0.97915465 0.015903478
0.063212857 -0.0086196978 -0.0053537479 0.18525851 0.17209706 -0.96750295 0.003099595
0.065943845 -0.009083055 -0.0051115267 0.26035687 0.189349 -0.94676358 0.0062817396
0.068364836 -0.0096907141 -0.0047010225 0.35834745 0.16099004 -0.91960281 0.0079524713
-0.062279642 -0.0056150816 -0.0059724255 -0.79796845 -0.070415556 -0.59857154 0.0070435288
0.03682369 -0.0050752177 -0.0071383864 0.37057766 0.43954894 -0.81821078 0.0076342393
0.039131604 -0.0057384986 -0.006529443 0.45324391 0.43568125 -0.77765787 0.0080139702
0.041150607 -0.0064913263 -0.0054776263 0.49738446 0.38015515 -0.77980179 0.005675585
0.058271188 -0.0064025316 -0.0051343534 -0.57900542 0.21756025 -0.78576088 0.014766442
0.060278244 -0.0056925612 -0.0054075252 -0.16996272 0.13047038 -0.97677541 0.030223262
0.063256368 -0.0056923465 -0.0050293738 0.16506632 -0.027658453 -0.98589456 0.0080023343
0.065100692 -0.0060920967 -0.0046919961 0.31041542 -0.020114545 -0.95038813 0.0087902984
-0.062302969 -0.0028886723 -0.0055133342 -0.72692651 0.23740812 -0.64437193 0.0076609724
-0.06079942 -0.0024819826 -0.0069352644 -0.69651675 0.30725497 -0.64842802 0.0040445807
0.033502821 -0.0021592439 -0.0063625993 0.37464923 0.5245145 -0.76454079 0.0031313123
0.035979472 -0.0029297546 -0.0059215268 0.38115168 0.52979529 -0.75765449 0.0033773833
0.038177062 -0.0036531063 -0.0055790637 0.40744811 0.54639578 -0.73173612 0.003965464
0.06049021 -0.0028528047 -0.0056598447 -0.35674411 0.11551038 -0.92703348 0.043723915
0.063183554 -0.0027672397 -0.0055723023 0.15569629 -0.10356988 -0.98236042 0.002309985
0.065943494 -0.0025313054 -0.0050267195 0.26462597 -0.090396821 -0.96010494 0.0075269924
0.068102285 -0.0016936632 -0.0046729934 0.33362848 -0.09811151 -0.93758535 0.009829496
-0.06167192 -0.00063109118 -0.0049773944 -0.61412609 0.45514822 -0.64473975 0.0028746326
-0.059793927 0.00020225579 -0.0059982119 -0.55197483 0.51604885 -0.65499413 0.0045696399
-0.05748006 0.0012526689 -0.0069877817 -0.52013969 0.60458004 -0.60327244 0.0007366559
0.025323754 0.0014561443 -0.0074718487 0.33211768 0.53881514 -0.77419394 0.0065469746
0.027443219 0.00058067683 -0.0070223501 0.32488099 0.52290916 -0.78804725 0.0061984011
0.030203624 0.00019799219 -0.0061249216 0.36879 0.48868299 -0.79068512 0.0068963715
0.032954667 -2.9482879e-05 -0.0051673595 0.32808089 0.4323566 -0.83989924 0.0021734259
0.035223212 -0.00098299724 -0.004692385 0.37129283 0.49563625 -0.7851665 0.0030932974
0.061036341 -4.5603607e-05 -0.0057153786 -0.52613485 0.21689089 -0.82227761 0.034273282
0.063156582 0.00015699398 -0.0057734293 -0.070718333 0.1085841 -0.99156868 0.043046623
0.065989688 3.7096441e-05 -0.0051452094 0.27218279 0.077253841 -0.95913935 0.0080397548
0.068279788 -0.00098282332 -0.0046747816 0.37439904 -0.028963475 -0.92681527 0.0077285259
-0.059017498 0.002033825 -0.0049165082 -0.48519263 0.60001796 -0.63605553 0.0015390004
-0.05666893 0.0030312971 -0.0056629106 -0.49438289 0.63385457 -0.59482253 0.0006423447
-0.054210655 0.0040825182 -0.006551886 -0.49353531 0.67427909 -0.54933649 0.00067789381
0.024464438 0.0035652737 -0.0069338661 0.41620713 0.34126133 -0.84280032 0.0056237578
0.027253145 0.0033438927 -0.005959515 0.33319059 0.35874471 -0.87194395 2.4306382e-06
0.029959211 0.0029632193 -0.0050824657 0.33090568 0.34558302 -0.87810814 0.00021692543
0.031843651 0.0020370958 -0.0047430885 0.34220946 0.3759934 -0.86111653 0.0018985342
0.061521307 0.0024307845 -0.0050552827 -0.51922125 0.35235837 -0.77862239 0.050047189
0.063247629 0.0033623856 -0.0050942302 -0.2073192 0.27146453 -0.93985415 0.061501347
0.065251432 0.0030148812 -0.0047264416 0.13442521 0.14447047 -0.98033565 0.017223597
-0.053310912 0.0056947987 -0.0052906899 -0.45019743 0.67382652 -0.58590102 0.00041934015
-0.051081449 0.0065432969 -0.0062058978 -0.48919445 0.71343076 -0.50170243 0.0010705277
0.015578385 0.0073576071 -0.0050667566 0.14472806 -0.6163578 -0.7740522 0.082052857
0.016922584 0.007373678 -0.0045532179 -0.22781943 -0.57050687 -0.78906286 0.11245559
0.020326328 0.0073149153 -0.0064293039 -0.68444145 0.017291773 -0.7288627 0.1756489
0.024333097 0.0062695914 -0.0058733942 0.3801806 0.21901307 -0.89860785 0.023800246
0.026901076 0.0060283472 -0.0049913004 0.27516043 0.26239565 -0.92489743 0.021366559
0.029439788 0.0073647895 -0.004837398 0.34348589 0.22841607 -0.91095746 0.028450537
0.063646846 0.0062121875 -0.0047662547 -0.42553899 0.14939201 -0.89252365 0.058224555
0.064920619 0.0052406215 -0.0045478237 -0.073674664 0.058813591 -0.99554658 0.031999011
-0.050063755 0.0080213118 -0.0051331413 -0.48507318 0.74688298 -0.4548296 0.0021176497
-0.047860675 0.0087446328 -0.0060482537 -0.3888652 0.84031552 -0.37769529 0.008007966
-0.044933837 0.009893978 -0.0060912166 -0.34426439 0.89276755 -0.29059982 0.010509121
0.015386727 0.0083824452 -0.0051399749 0.14473319 -0.61635691 -0.77405196 0.082051083
0.018299228 0.0095669497 -0.0060775271 -0.037491385 -0.55709499 -0.82960206 0.16123141
0.021042878 0.0094848778 -0.0065565715 0.28320745 0.56168467 -0.7773698 0.048617203
0.024001835 0.00903848 -0.0057452302 0.33121285 0.59784383 -0.72998691 0.025904329
0.027024282 0.0084187519 -0.0051948512 0.24457674 0.34792367 -0.90505874 0.029985374
0.029184313 0.0079044122 -0.0046319854 0.34348306 0.22841527 -0.91095883 0.028452273
0.064186417 0.0089678466 -0.0047176904 -0.32279462 0.14754517 -0.9348979 0.034110006
0.065082423 0.0099471379 -0.0046634567 0.039955124 0.060852654 -0.99734676 0.06078263
0.0123544 0.011538802 -0.0070029092 0.3361772 0.82767546 -0.44937536 0.087601341
0.015505919 0.011403194 -0.0066220439 0.034601774 -0.70362335 -0.70973015 0.12413803
0.018003089 0.011262095 -0.0059917253 0.11602534 -0.65075654 -0.75036931 0.095359631
0.020632859 0.011079418 -0.0052365754 0.049122252 0.64132982 -0.76569128 0.12066185
0.0661695 0.012484036 -0.0047688931 -0.14838088 0.10761594 -0.98305738 0.059717212
0.067564003 0.014299233 -0.0047086072 -0.0057738051 0.072239101 -0.9973706 0.067490548
0.068101346 0.014300618 -0.0046794903 0.14746673 -0.47559541 -0.86721539 0.054716531
0.026833199 -0.025733661 -0.0036352468 0.12763998 -0.94411719 -0.30389285 0.0030020026
0.036759946 -0.025224086 -0.0030842712 0.1803451 -0.88009918 -0.43920499 0.00046141268
0.038976621 -0.025268748 -0.0020943414 0.18674509 -0.87167066 -0.45311859 0.00073668011
0.034278791 -0.025174115 -0.0041918945 0.18927889 -0.85545284 -0.48205179 0.00092424883
0.035983555 -0.025006255 -0.0039718044 0.19010668 -0.86154306 -0.47074735 0.0011341302
0.039374921 -0.024521202 -0.0038676453 0.20320579 -0.84480625 -0.49498451 0.0029258782
0.041867785 -0.023998931 -0.0035931063 0.40244839 -0.77697313 -0.48409501 0.0093607986
0.045137841 -0.02285229 -0.0021576104 0.27675566 -0.79447103 -0.54057568 0.058580879
0.048079912 -0.022759708 -0.002245157 0.21836479 -0.63486856 -0.74111986 0.031893726
0.050290491 -0.022605877 -0.0016038907 0.34708109 -0.67178434 -0.65440083 0.041698731
0.045470249 -0.020985126 -0.0032451446 0.32184732 -0.56074864 -0.76287305 0.020690739
0.048141323 -0.020271286 -0.0028840932 0.2388771 -0.4400709 -0.8656069 0.011875167
0.051086377 -0.019906165 -0.0020642704 0.16594842 -0.53647792 -0.8274374 0.018888125
0.05471177 -0.019995118 -0.0020772857 0.021779068 -0.58716327 -0.80917543 0.0061731297
0.057221361 -0.019639058 -0.0020255698 0.0018221026 -0.6611048 -0.75029141 0.0094220052
0.060148414 -0.019633267 -0.0022090366 -0.016988095 -0.73959035 -0.67284286 0.0060665696
0.063108861 -0.019635566 -0.0021309359 0.04128284 -0.77507925 -0.63051403 0.006837104
0.064794265 -0.019922029 -0.0015688431 0.1228547 -0.83134431 -0.5420087 0.0067655039
0.048562463 -0.017908454 -0.0040734247 0.35207722 -0.32471865 -0.87783802 0.0096541634
0.0512047 -0.017731389 -0.0031267977 0.24170609 -0.24288753 -0.93945932 0.0093916673
0.054198235 -0.017743958 -0.0026654764 -0.029440444 -0.35077107 -0.93599838 0.015737223
0.057291448 -0.017690085 -0.003291952 -0.19406925 -0.35383493 -0.91495252 0.017191952
0.06009341 -0.01794726 -0.003228575 -0.11233641 -0.5937084 -0.79680037 0.01159256
0.063379511 -0.018252056 -0.0036334922 0.029054003 -0.68231392 -0.7304818 0.013321993
0.066109054 -0.017716264 -0.0036831116 0.26032776 -0.5946312 -0.76068598 0.012155137
0.069072269 -0.017645525 -0.0026455228 0.29459605 -0.57648683 -0.76215219 0.019268006
0.071296401 -0.017320968 -0.0017787609 0.37890345 -0.55239356 -0.74249142 0.018750416
-0.058937099 -0.013589377 -0.0028278721 -0.61214125 -0.71586239 -0.33589303 0.0020069648
-0.057286844 -0.014730826 -0.003299953 -0.61680514 -0.72071803 -0.31641263 0.0022008705
0.049208302 -0.014762605 -0.0043470701 0.3973977 0.029552303 -0.91717052 0.0055907164
0.05115461 -0.014778012 -0.003602495 0.27133307 0.022278985 -0.9622277 0.0074818642
0.054166589 -0.014791561 -0.0029488737 -0.11324317 0.067092769 -0.99129945 0.03573896
0.057105754 -0.014887379 -0.0039770766 -0.28977188 -0.32788107 -0.89918095 0.018614322
0.059127763 -0.01583918 -0.0039550257 -0.22141062 -0.4817487 -0.84787703 0.014913849
0.067088664 -0.015564075 -0.0043050125 0.28332147 -0.27188754 -0.91967714 0.0021531505
0.069362938 -0.014824456 -0.0036116517 0.39430928 -0.24496229 -0.88572776 0.0012702806
0.072085902 -0.014674278 -0.0024015852 0.46995762 -0.25990799 -0.84355658 0.0021093867
0.073914684 -0.013745001 -0.0016279262 0.537108 -0.16948363 -0.82631123 0.0028470247
-0.062061056 -0.010596871 -0.0031028432 -0.71005768 -0.55088729 -0.43856722 0.0017628397
-0.060289398 -0.012312556 -0.0031687398 -0.64501101 -0.65939313 -0.38621441 0.00272757
0.04608969 -0.010404509 -0.0044125114 0.33977267 0.34684891 -0.87421423 7.6776349e-05
0.048379768 -0.011370633 -0.0039167684 0.34984875 0.28007948 -0.89395821 0.00165991
0.051228158 -0.011579527 -0.0029038708 0.27385402 0.31090826 -0.91013193 0.0074277464
0.054224387 -0.011661213 -0.0027098181 -0.29814655 0.24950804 -0.92133296 0.056455288
0.056526281 -0.011668975 -0.0042771725 -0.64337885 0.0073816981 -0.76551241 0.012381657
0.069675848 -0.011671043 -0.0041326089 0.44713002 -0.0009342726 -0.89446849 0.0083485246
0.072091706 -0.0115791 -0.00300868 0.48394144 0.06016152 -0.87302989 0.0090108542
0.074089795 -0.011379159 -0.0018789363 0.55180359 0.079945192 -0.8301335 0.013503414
-0.064581849 -0.0075688483 -0.0018794429 -0.79398197 -0.35408559 -0.49418223 0.0022577627
-0.063210264 -0.0087235542 -0.0031663198 -0.77015281 -0.38212949 -0.51072675 0.0057309796
0.043429274 -0.007737455 -0.0043325713 0.39623106 0.33363387 -0.85538852 0.003198226
0.045368399 -0.0085076531 -0.0039084298 0.33931294 0.3569845 -0.87030381 7.5002594e-05
0.048187744 -0.0086925998 -0.0029075849 0.33449683 0.35577291 -0.87266123 2.499464e-06
0.05082098 -0.0088622943 -0.0019715093 0.20848303 0.38448849 -0.89927942 0.023809662
0.054815169 -0.00858247 -0.0023238207 -0.46903712 0.21199605 -0.85735744 0.05507173
0.056500219 -0.0085610189 -0.0041578659 -0.61955202 0.18329968 -0.76325393 0.012877211
0.066362798 -0.0081348587 -0.0042145606 0.270365 0.19748916 -0.94228488 0.0064074635
0.069284759 -0.0085248332 -0.0034569763 0.36333311 0.19850796 -0.91026568 0.0052054608
0.071904249 -0.0088163465 -0.0024831519 0.4668797 0.18500072 -0.86475319 0.0061184256
0.07407324 -0.0095375404 -0.001757293 0.57254237 0.21452858 -0.79131073 0.010290812
-0.064685717 -0.0054769223 -0.0025485498 -0.81800109 -0.14484438 -0.55668145 0.0042042397
-0.063625701 -0.0058829011 -0.0039703143 -0.82587337 -0.13400793 -0.54769975 0.006816532
0.040424928 -0.0043572458 -0.0040919078 0.43256047 0.43949404 -0.78723335 0.008754666
0.042440079 -0.0055680224 -0.0038195008 0.4498767 0.37323642 -0.8113603 0.0072104605
0.045204051 -0.0056173727 -0.0027839234 0.33313167 0.35827014 -0.87216163 0
0.047838356 -0.0060926247 -0.0019729314 0.3331328 0.35826352 -0.87216383 0
0.049750935 -0.0070328237 -0.0016290438 0.23408917 0.30926988 -0.92171276 0.0081494246
0.055451203 -0.0064059542 -0.0018667225 -0.6105203 0.29607517 -0.73457772 0.020298878
0.05706517 -0.0055487938 -0.0036279708 -0.64164257 0.29229054 -0.70912701 0.0085278358
0.066502072 -0.0056600031 -0.0042281672 0.2922675 -0.025150161 -0.95600587 0.0090328474
0.069237687 -0.0056183548 -0.0032243556 0.35358176 -0.079578385 -0.93201238 0.0057614888
0.071663134 -0.0057378504 -0.0021011387 0.5126366 -0.037830684 -0.85777193 0.0058759148
-0.064725988 -0.0027442742 -0.0026288643 -0.7818113 0.095555879 -0.61614949 0.0061015463
-0.063553937 -0.0025253906 -0.0039428277 -0.7586568 0.15571183 -0.63260865 0.0054886909
0.037023712 -0.001868424 -0.0043685725 0.37871397 0.45743877 -0.80456537 0.0046656481
0.039255548 -0.0026093731 -0.0038204165 0.37335959 0.48112509 -0.79317164 0.0065455227
0.042137664 -0.0027451301 -0.0027752589 0.33315551 0.35821038 -0.872177 0
0.044526603 -0.0030973547 -0.0020074537 0.33314803 0.35819802 -0.87218499 0
0.057592198 -0.0028345967 -0.0032137679 -0.69246215 0.28008065 -0.66486913 0.0065349112
0.059251636 -0.0023257942 -0.0038169874 -0.57351065 0.18618488 -0.79775977 0.028555952
0.067087814 -0.0035195898 -0.0043111336 0.27963376 -0.16736637 -0.9454065 0.0027951472
0.069351345 -0.0027979906 -0.003741872 0.38311067 -0.16665274 -0.90854448 0.0032479118
0.072079025 -0.0026740895 -0.0024853395 0.46302286 -0.15822336 -0.87210959 0.0018891958
0.073896803 -0.0019327598 -0.0017411304 0.50214809 -0.090497985 -0.86003345 0.0064357021
-0.064691834 -0.00072821695 -0.0020259139 -0.6843214 0.35161901 -0.63880217 0.0045792372
-0.062896132 0.00032833125 -0.0031801802 -0.64419085 0.38576975 -0.66045427 0.0024776242
-0.060812816 0.0013351962 -0.0042305281 -0.5207783 0.55430377 -0.64925915 0.00067567901
0.034188751 0.001157674 -0.0042082611 0.33919933 0.39009491 -0.85601974 0.0015478256
0.036276687 0.00031483546 -0.0037571371 0.3345356 0.39251569 -0.85674816 0.0029491982
0.039199248 0.00020181853 -0.0026874817 0.33335987 0.35431078 -0.87369055 5.8501952e-05
0.041850772 -0.00041384506 -0.0019275695 0.33519888 0.34209314 -0.87784624 9.1085589e-05
0.058066655 -6.9572125e-05 -0.0029128105 -0.6941998 0.30646726 -0.65127897 0.011352151
0.059777535 0.00043426454 -0.0032414612 -0.70172906 0.36156353 -0.61387968 0.025219547
0.067420073 0.00097943842 -0.0042261672 0.32714707 0.1200987 -0.93731058 0.0061379117
0.069390342 0.00031331927 -0.0038459315 0.38302702 0.14464328 -0.91234231 0.0038860489
0.072110213 0.00015584985 -0.0026486204 0.47417045 0.063230909 -0.87815958 0.0069258148
0.074025892 -0.00072519202 -0.0017739055 0.54752964 0.051498447 -0.83520007 0.0087709632
-0.062194124 0.0026228754 -0.0021294397 -0.52016836 0.49747738 -0.69421995 0.0030235883
-0.059791502 0.0033982885 -0.0030402015 -0.43627012 0.62310457 -0.64916027 0.00034966515
-0.057259854 0.0043935482 -0.0037504439 -0.43718556 0.64200306 -0.62984198 0.00071879942
0.030805558 0.0041810288 -0.0042589316 0.34160349 0.19954847 -0.91841578 0.011962184
0.033286359 0.0034333472 -0.0036186255 0.30185419 0.28547588 -0.90960842 0.0022216449
0.036227711 0.0033730706 -0.002520015 0.33032787 0.25867647 -0.9077279 0.010083581
0.038827054 0.0027514412 -0.0018873564 0.33545509 0.27116129 -0.90218705 0.0082721189
0.058301367 0.0023576645 -0.0019668085 -0.67889655 0.44255021 -0.58587438 0.01911555
0.060591955 0.0030469745 -0.0026688934 -0.68712491 0.44672376 -0.57297236 0.024035776
0.061783366 0.0041857581 -0.0040674997 -0.62066245 0.31920633 -0.71616018 0.076809183
0.066671498 0.0034960131 -0.0042013219 0.29450122 0.12879901 -0.94693178 0.001782997
0.069231063 0.0034589642 -0.0032695234 0.35618782 0.12252656 -0.9263463 0.0011367203
0.071801186 0.0033205035 -0.0021068286 0.47145146 0.13069274 -0.87215418 0.0016760486
-0.058964424 0.0053138458 -0.0017656875 -0.40667021 0.58892566 -0.69841677 0.00044850531
-0.056648247 0.0060689016 -0.0025105765 -0.41222125 0.6277464 -0.66030908 0.00089081627
-0.054158442 0.0066727283 -0.0034833089 -0.42143968 0.68483144 -0.59446996 0.0010379967
-0.051913224 0.0073827826 -0.0042627049 -0.45492101 0.69562978 -0.55600917 0.00035124004
0.018535284 0.0073875128 -0.0041120839 -0.15951486 -0.2008687 -0.96654379 0.082099885
0.028079873 0.006791241 -0.0042192927 0.3237606 0.23108192 -0.91748577 0.028075268
0.030297624 0.0062841768 -0.003804493 0.33343697 0.21365187 -0.9182443 0.017260555
0.033288073 0.0063518784 -0.0029869438 0.35505807 0.36421064 -0.86097872 0.017106099
0.036058698 0.0062893084 -0.002231562 0.3300136 0.37860262 -0.86472595 0.022092016
0.038791139 0.0056461939 -0.0018830192 0.26306865 0.33602831 -0.90436709 0.022788802
0.06151507 0.0055757933 -0.0020098877 -0.83610296 0.3675538 -0.40722963 0.0039963513
0.062300168 0.0064810985 -0.0031770188 -0.79765099 0.22689849 -0.55881113 0.033478435
0.066082776 0.0063621174 -0.0041868505 0.10289155 -0.0048657013 -0.9946807 0.038031504
0.069135316 0.0063491599 -0.0030946643 0.39783752 0.017944535 -0.91728038 0.001590216
0.071583994 0.0062479586 -0.001947524 0.46713534 0.015826864 -0.88404417 0.0013784943
-0.053512424 0.0082832035 -0.0021563163 -0.3737725 0.6761983 -0.63486212 0.00109332
-0.050855007 0.0091157556 -0.0029344764 -0.39671654 0.72217327 -0.56664079 0.0033158532
-0.048036721 0.01013653 -0.003110006 -0.20527133 0.86952317 -0.44921389 0.010262589
-0.044815902 0.010619331 -0.0033739898 -0.088830315 0.94370383 -0.31864145 0.0075248331
-0.042602636 0.010594467 -0.0040134978 -0.22682689 0.94634205 -0.23018728 0.0070566554
0.018459043 0.0084170289 -0.0041129673 -0.15951288 -0.20087008 -0.96654373 0.082099646
0.02484658 0.01049415 -0.0038492393 0.33075529 0.5090251 -0.79466617 0.021926338
0.02734755 0.0095041841 -0.0036756666 0.37163594 0.54177833 -0.75389856 0.040233698
0.030199226 0.008702971 -0.003318632 0.38977161 0.57352453 -0.72051901 0.036066994
0.03275748 0.0082743764 -0.0024258555 0.32852739 0.64437222 -0.69054621 0.01749417
0.034713723 0.00800124 -0.0016607535 0.40450615 0.65661305 -0.63658005 0.017443076
0.063270234 0.0092157871 -0.0030397158 -0.71396089 0.20948245 -0.66811442 0.073961325
0.066362292 0.009170115 -0.0042180941 0.039943974 0.060854591 -0.997347 0.06078358
0.069199599 0.0092258118 -0.0031918311 0.34914565 -0.071267016 -0.93435454 0.0019259214
0.071767822 0.0094021522 -0.0019926382 0.4615922 -0.091140784 -0.88239789 0.0007711958
0.021999547 0.011118131 -0.0042707217 0.073998801 0.79147178 -0.6067096 0.089458175
0.022831084 0.011150332 -0.0034679663 0.1059082 0.79162925 -0.60175294 0.063071959
0.064264446 0.011771768 -0.0029952419 -0.78793037 0.43724722 -0.43356717 0.045489505
0.066583492 0.012070131 -0.0040981364 -0.14838116 0.10761619 -0.98305732 0.059717521
0.069253445 0.012327917 -0.0037021972 0.2463899 -0.15108399 -0.95732206 0.044567991
0.071870156 0.012207022 -0.0024311435 0.43012771 -0.17728452 -0.88518947 0.0011849621
0.066461556 0.014109559 -0.0030713272 -0.0057471842 0.072211295 -0.99737281 0.067489937
0.069645233 0.014102561 -0.0040312898 0.24649161 -0.15104194 -0.95730257 0.04456348
0.071154252 0.014009524 -0.003302603 0.23763938 -0.30148479 -0.9233821 0.032064784
0.040644959 -0.025302377 -0.0013487828 0.28865233 -0.92028695 -0.26410565 0.009455137
0.045465458 -0.025428157 0.001438837 -0.074292526 -0.8664512 -0.49370348 0.038032215
0.043567341 -0.023803201 0.0013777721 0.045027956 -0.97587746 -0.21362488 0.053458147
0.045636531 -0.023737334 -0.00023294054 -0.063834988 -0.84896386 -0.52458125 0.037141126
0.048264008 -0.023854196 -0.00036422769 0.23924109 -0.79444557 -0.55822939 0.021973426
0.051118273 -0.022664364 -9.8620076e-05 0.30535752 -0.69944257 -0.64617097 0.045722008
0.054036304 -0.023127604 0.00069875596 0.094884023 -0.78704679 -0.6095525 0.010437429
0.055973724 -0.022711422 0.0011127698 0.18689284 -0.76377702 -0.61783147 0.0045947437
0.048420101 -0.021933435 -0.0011236346 0.24479222 -0.60691547 -0.75612849 0.034025796
0.051324613 -0.021450631 -0.00056423014 0.30531344 -0.69944292 -0.64619136 0.045736257
0.053916208 -0.021104414 -0.0006006253 0.078520685 -0.6076771 -0.79029304 0.0090005035
0.05717219 -0.021315303 -0.0001784116 0.12477805 -0.78115988 -0.61173505 0.006431682
0.060264923 -0.021020185 5.1738229e-05 0.081810623 -0.82517231 -0.55892545 0.0087037357
0.063013814 -0.020747364 -0.00013832841 0.10888658 -0.87535411 -0.47106144 0.0035195383
0.066200688 -0.019786295 -0.00066732988 0.16471589 -0.86205566 -0.47930035 0.0077243284
0.069348402 -0.019709548 0.00018544961 0.26803282 -0.85057473 -0.45241693 0.008929397
0.071640499 -0.019467939 0.0010788743 0.43107805 -0.82200211 -0.37213483 0.011877356
0.070175156 -0.018850042 -0.0014988077 0.32094088 -0.65290457 -0.68608499 0.021678878
0.072400846 -0.017795997 -0.00078125158 0.44953519 -0.6143558 -0.64844823 0.017974976
0.074325986 -0.016914669 -0.00016109087 0.58233613 -0.53102356 -0.6155473 0.017431891
-0.059862651 -0.014181767 0.00014771102 -0.55491632 -0.77517259 -0.30195236 0.0009775114
-0.057514016 -0.015376886 -0.00068523409 -0.56449842 -0.76765788 -0.30338556 0.0013946182
0.073251545 -0.01599024 -0.0012902711 0.60051304 -0.49849066 -0.62521285 0.014860883
0.075160399 -0.014790121 -0.00042755017 0.62932748 -0.34498715 -0.69636965 0.018120376
0.076966457 -0.013785621 0.00060694991 0.79234725 -0.32674786 -0.51519084 0.015286871
-0.064494841 -0.01054996 0.00085928617 -0.67889452 -0.60371542 -0.4178873 0.0045913397
-0.062831812 -0.011678699 -0.00018507103 -0.63517833 -0.68087327 -0.36463699 0.0013164997
-0.060966641 -0.012950106 -0.00097702863 -0.56455177 -0.75522894 -0.33303216 0.002041548
0.053799491 -0.010256556 -0.0014374745 -0.33408323 0.32808658 -0.88359922 0.055491742
0.075545557 -0.011715055 -0.0008419794 0.64292783 0.044626646 -0.76462549 0.016345821
0.077176191 -0.011501135 0.00038990611 0.80980819 0.021613985 -0.5862965 0.025920639
-0.06533283 -0.00849301 5.0766859e-05 -0.79100281 -0.38253373 -0.47747511 0.0029090615
-0.064191967 -0.0094546573 -0.00098544778 -0.78732187 -0.41147116 -0.45914698 0.0041008578
0.051941026 -0.0081085907 -0.0012339037 -0.023871632 0.27174199 -0.96207404 0.034881275
0.053387903 -0.0087451488 -0.00096043944 -0.095571309 0.29590631 -0.95042396 0.029307455
0.073060118 -0.0081857163 -0.0012056893 0.53311419 0.18373246 -0.82585204 0.0044742189
0.075317189 -0.0085245939 -6.3676853e-05 0.64207941 0.2452701 -0.72634465 0.016928056
0.077240743 -0.0094674649 0.00063265441 0.74937028 0.18625598 -0.63541561 0.010517934
-0.066313595 -0.0056895618 -0.00010347459 -0.81921107 -0.21044831 -0.53348368 0.0034845076
0.04872581 -0.0048835655 -0.0011373144 0.33310509 0.35823777 -0.87218505 9.616582e-07
0.051251978 -0.0056504686 -0.00048747286 0.18619512 0.28100133 -0.94147199 0.011206117
0.054129891 -0.0055873529 -0.00070989924 -0.45021209 0.30036268 -0.84088725 0.026066998
0.055704053 -0.0043464722 -0.0012259972 -0.54044342 0.3184464 -0.77878922 0.024200559
0.073106907 -0.0056279823 -0.0012462973 0.55178601 -0.069707736 -0.83106744 0.0063892682
0.075289309 -0.005688983 0.00023933733 0.68265724 0.03213869 -0.73003161 0.022908907
-0.067823946 -0.0027144621 0.0013751988 -0.80994052 0.013488762 -0.58635694 0.0033384801
-0.06643872 -0.0027279668 -0.00042461883 -0.79449779 0.053172719 -0.60493469 0.0019792353
0.045852564 -0.0023753177 -0.0012044264 0.33311495 0.35818517 -0.87220281 0
0.048257716 -0.0027274895 -0.00043070782 0.33309633 0.35816807 -0.87221694 0
0.051012862 -0.0027647447 0.00060610427 0.21954146 0.3967779 -0.89127374 0.013930278
0.054078508 -0.0027807481 0.00021575717 -0.39555499 0.30867767 -0.86501694 0.013681409
0.056069102 -0.0025158823 -0.00085727684 -0.66578281 0.23062801 -0.70960832 0.0072334404
0.073420934 -0.003541057 -0.0013520014 0.52892691 -0.14455949 -0.83626491 0.0030362494
0.075279623 -0.0027986204 -0.00040335068 0.54505318 -0.095249467 -0.83297342 0.0067276796
-0.066009417 0.00030465517 -0.00017776247 -0.73083615 0.23487076 -0.64086992 0.0020771134
-0.064124405 0.0015627174 -0.0013969433 -0.60929471 0.39815474 -0.68573523 0.0010354323
0.042635698 0.00085120695 -0.0011085165 0.31314743 0.33026934 -0.89042735 0.00051636045
0.045174569 0.00016094744 -0.0004221932 0.29996088 0.29010209 -0.90877074 0.0020581384
0.048118524 0.00021472853 0.00072430493 0.3569361 0.23605865 -0.90381026 0.010593421
0.050399132 -0.0007337674 0.001205768 0.15408844 0.28630394 -0.94566739 0.026926069
0.05432111 -5.845679e-05 0.0010263105 -0.33628732 0.32414398 -0.88421798 0.02220254
0.056611571 0.00038864091 -0.0002537095 -0.64345258 0.33012107 -0.69064373 0.011623619
0.073393822 0.0015604971 -0.0015250933 0.47077966 0.12934235 -0.87271821 0.0027627358
0.074969724 0.00024144724 -0.00086592417 0.54727358 0.051515047 -0.83536685 0.008810211
-0.065321967 0.0030813524 0.00055233901 -0.57778335 0.41662017 -0.70185047 0.0033317308
-0.063105248 0.0034555513 -0.00084860669 -0.51581138 0.48009053 -0.70954335 0.0036514485
-0.060654387 0.0047898316 -0.0012555462 -0.41218629 0.59473485 -0.69021231 0.00042466453
0.037410852 0.0047839754 -0.0014889431 0.29695326 0.32946771 -0.89625323 0.025804374
0.039488435 0.003590161 -0.0011852486 0.30143234 0.26326436 -0.91642267 0.0099136671
0.042166848 0.0033621308 -0.00043622451 0.30229619 0.33943912 -0.89072895 0.011348195
0.045099948 0.0032120761 0.00038119918 0.31393421 0.28674003 -0.90511078 0.011013687
0.047888447 0.0034057861 0.0010145544 0.32365006 0.2385598 -0.915609 0.018388754
0.050052799 0.003232914 0.0013445127 0.37985706 0.27866521 -0.88207382 0.023760598
0.05734545 0.0031385506 0.00020971289 -0.52941281 0.54500681 -0.65014595 0.016094958
0.059886459 0.0035902774 -0.00043954374 -0.63402194 0.53978318 -0.55376011 0.024691328
0.073195636 0.0035356856 -0.001265896 0.51587111 0.14553756 -0.84421319 0.0010660994
0.074497566 0.0030592382 -0.00049533602 0.51586443 0.14553267 -0.84421808 0.0010679548
-0.064829729 0.0048526698 0.0012520063 -0.53538883 0.47682407 -0.69713527 0.0022704285
-0.062536851 0.0057156892 0.00052301353 -0.42714128 0.55355239 -0.71493369 0.00090587902
-0.059890363 0.0065438994 -0.00025699101 -0.38152194 0.58562112 -0.71518463 0.00049696397
-0.057258062 0.0071741617 -0.0011194837 -0.38866282 0.60900569 -0.691414 0.00055943138
0.037073042 0.0066725207 -0.001208086 0.41370556 0.50181007 -0.7596277 0.048635177
0.039291814 0.0062153772 -0.00064530596 0.3582271 0.56286323 -0.74488813 0.052524403
0.042182982 0.0058467691 1.733331e-05 0.32618585 0.55715889 -0.76366013 0.027974155
0.044876341 0.0052297995 0.00062300405 0.30675444 0.47675878 -0.82377356 0.018037179
0.047069781 0.0048525357 0.0012464034 0.34884471 0.4063018 -0.84452724 0.024236126
0.058212616 0.0050589531 0.00085849082 -0.59496039 0.59474778 -0.54064518 0.017549302
0.06071512 0.0059668976 0.00015610131 -0.76287621 0.43725589 -0.47626382 0.016677134
0.061696324 0.0074973726 -0.00060575129 -0.85065162 0.37696841 -0.36645153 0.0014235105
0.073036648 0.0064061848 -0.0011103237 0.45546874 -0.0075084586 -0.89022011 0.0019528585
0.074185804 0.0059651989 -0.00039849337 0.5004186 0.016300468 -0.86563015 0.0025310384
-0.059321955 0.0084641334 0.0009354339 -0.37037608 0.56345719 -0.73846966 0.00028834786
-0.056709927 0.0091208089 0.00025088666 -0.34324244 0.60010493 -0.72253621 0.00048070468
-0.053986195 0.0098551698 -0.00037923455 -0.329063 0.64006472 -0.69428718 0.0025231026
-0.051133491 0.010438373 -0.0011169431 -0.25668731 0.73259288 -0.63041204 0.0043408908
0.030728292 0.0096382666 -0.00093889656 0.3667973 0.62831467 -0.68606156 0.020809734
0.033426002 0.0088367518 -0.00079429569 0.37560585 0.72657996 -0.57532769 0.0091741774
0.035794143 0.0082264468 -0.00026657106 0.41529998 0.62175643 -0.66403681 0.018293168
0.061373673 0.0083608869 0.0010807323 -0.76769739 0.49826616 -0.40295339 0.0060068667
0.062330551 0.0094174184 -0.00018334901 -0.84138703 0.46434018 -0.27650687 0.0088847438
0.073209688 0.0092397816 -0.0011413046 0.46497691 -0.1175422 -0.87748522 0.0017085823
-0.055653621 0.011073241 0.0013489681 -0.30904758 0.57085663 -0.76066571 0.00037167891
-0.053493265 0.011652816 0.00097423373 -0.25250944 0.63140851 -0.73318642 0.002667832
-0.05083802 0.011881543 0.00045525236 -0.11774177 0.74748331 -0.65376258 0.006177078
-0.047823809 0.01179399 -8.6098909e-05 -0.036424547 0.86782503 -0.49553305 0.010040198
-0.044888787 0.01164425 -0.00012823613 0.066645503 0.93878788 -0.33798787 0.0087809386
-0.042539127 0.011295171 0.00014357595 0.1667054 0.94656551 -0.2760849 0.0052944827
0.063547485 0.011336507 0.0011737156 -0.8148635 0.51452154 -0.26695526 0.0090830317
0.073430203 0.011237578 -0.0012928736 0.45538926 -0.11852342 -0.88236773 0.001729888
0.04511141 -0.025477415 0.0025305063 -0.24771227 -0.90231818 -0.35278973 0.024073102
0.048011046 -0.025480151 0.0025909892 0.10120604 -0.94774884 -0.30253813 0.028223081
0.044310689 -0.024478162 0.0029239911 -0.24763268 -0.90234703 -0.35277167 0.024075095
0.051424537 -0.023483844 0.0023943693 0.23438729 -0.86461627 -0.44441128 0.019429158
0.054141503 -0.02381199 0.0025856881 0.046130184 -0.88286453 -0.46735665 0.0087512676
0.057151798 -0.023553075 0.0030242833 0.1597266 -0.84873056 -0.50412679 0.0040204404
0.060133461 -0.023013514 0.0032772585 0.20029572 -0.81792033 -0.53934038 0.00099803298
0.062718734 -0.022501519 0.00370237 0.24296038 -0.82691032 -0.50713873 0.0038016168
0.059302662 -0.022197457 0.0018158169 0.17724653 -0.83512729 -0.52071679 0.0030452004
0.063345559 -0.021586044 0.0023683417 0.20172128 -0.87811834 -0.43383941 0.0058690873
0.066114664 -0.021158749 0.0030445703 0.20451006 -0.89482993 -0.39680594 0.0036300893
0.068854809 -0.020828104 0.0033060121 0.2595965 -0.89832616 -0.35442874 0.0060465117
0.072083667 -0.019883331 0.0028024823 0.43058509 -0.84816837 -0.30855626 0.0066658631
0.073180169 -0.018766332 0.001716495 0.50608021 -0.72034872 -0.47432122 0.0096057309
0.075116225 -0.01734441 0.0025433651 0.65740681 -0.63373214 -0.40767613 0.0062201326
-0.062163524 -0.013742028 0.0031935084 -0.58396399 -0.75758958 -0.29162332 0.0016220433
-0.059372786 -0.015179811 0.0027005584 -0.55491489 -0.77517283 -0.30195472 0.00098303263
0.077158682 -0.015195025 0.0034318971 0.75695831 -0.44415662 -0.47931102 0.014559285
-0.065349735 -0.010705681 0.0027613896 -0.70303082 -0.61703074 -0.35358256 0.0026316841
-0.063446008 -0.012603471 0.0027275342 -0.62354809 -0.72346163 -0.29629549 0.003798554
0.078041911 -0.013028679 0.0038450467 0.89916945 -0.18356401 -0.39723873 0.028571406
-0.067611292 -0.0078601213 0.0033000368 -0.80118161 -0.44753435 -0.39726707 0.004146907
-0.066626653 -0.0088749798 0.0026931348 -0.79051661 -0.45824549 -0.40631816 0.0042166249
0.076566741 -0.00866313 0.001466583 0.65890521 0.27582276 -0.69983256 0.016167996
0.077606648 -0.0081292912 0.0028499174 0.82482821 0.11371005 -0.55383074 0.020790959
-0.068154782 -0.0056879781 0.0027724882 -0.84392911 -0.25063682 -0.47430468 0.0032600765
0.077377081 -0.0062293829 0.0031080055 0.68288469 0.11764043 -0.72099185 0.029035134
-0.068780966 -0.00270253 0.0029928819 -0.85196298 -0.060772657 -0.52006322 0.0052646459
0.05223627 -0.0016314061 0.0015387344 0.07741145 0.36218095 -0.92888778 0.029761121
0.052784994 -0.0019011023 0.0016109752 -0.24275909 0.33393961 -0.91079766 0.021291252
-0.068567075 0.00035275798 0.0028703823 -0.79564232 0.11799979 -0.59416282 0.0049847625
-0.06730333 0.0010725735 0.0014932263 -0.73601913 0.18942852 -0.64991742 0.0036840958
0.049367752 0.0014367974 0.0017035413 0.30366287 0.17646798 -0.93629479 0.010764639
0.05139314 0.00051870011 0.0020955284 0.1002633 0.14647928 -0.98411947 0.02587451
0.053585105 0.00097781979 0.0017320109 -0.2559289 0.27512297 -0.92671889 0.022715107
-0.068188027 0.0031296727 0.0032809745 -0.70231861 0.2690984 -0.65904069 0.0040621082
-0.066532917 0.0037877583 0.0019642306 -0.65927798 0.33470571 -0.67329383 0.0022485838
0.048572082 0.0029732264 0.0018645381 0.37986055 0.2786662 -0.88207203 0.02375943
0.051295783 0.0032565231 0.002460565 0.14285336 0.48558524 -0.86243838 0.036675606
0.054230351 0.0032572933 0.002450218 -0.27226564 0.52942353 -0.80348128 0.050054148
0.056284696 0.0038953624 0.0019321493 -0.50049579 0.5276584 -0.68635303 0.011623778
-0.067860037 0.0053287544 0.0039611044 -0.60196924 0.41332075 -0.68322694 0.0028354097
-0.065879211 0.0062200683 0.0029409328 -0.53959388 0.45397958 -0.70904231 0.0024144393
-0.063379869 0.0070840153 0.0020374865 -0.41834942 0.53690296 -0.732611 0.00026691798
0.039824743 0.0075766766 0.0019254792 0.31375864 0.63448834 -0.70638525 0.031712197
0.042805918 0.0067659491 0.0019689756 0.24229038 0.60373086 -0.75947642 0.016132506
0.04544555 0.0060511329 0.0022179293 0.30673879 0.47675368 -0.82378227 0.018041642
0.04814928 0.0053847558 0.0026261662 0.35391897 0.42957449 -0.83078706 0.023879632
0.050959941 0.0051151481 0.0035856511 0.18583785 0.69811302 -0.69144952 0.012171353
0.054126102 0.004920607 0.0039615738 -0.12223632 0.66481185 -0.73694205 0.03638196
0.057286981 0.0058573144 0.0030907202 -0.48593062 0.67637205 -0.55352712 0.014812675
0.059710052 0.0066899671 0.0024378984 -0.62085795 0.5411036 -0.56722331 0.016204841
-0.064812407 0.0085451454 0.0038972306 -0.45775527 0.51042539 -0.72796023 0.00095222925
-0.062628269 0.009150248 0.0031460258 -0.39896461 0.53588885 -0.74407691 0.00014230171
-0.060054865 0.0096801668 0.0021915003 -0.36328489 0.55563474 -0.74785978 0.00028010365
-0.057858687 0.010272788 0.0016326117 -0.31718817 0.58398443 -0.74723071 0.00028749491
0.037627388 0.0081039239 0.0014898884 0.40517238 0.69624537 -0.59251809 0.020082733
0.058495902 0.0084614549 0.0041095424 -0.64668059 0.55814558 -0.51988244 0.0094691487
0.060478531 0.0090376902 0.0032939673 -0.67850775 0.55530667 -0.48089683 0.013374135
0.062006291 0.010278912 0.001795392 -0.74398082 0.5257321 -0.41242981 0.0050273915
-0.061954141 0.011093829 0.0041681831 -0.40327609 0.53540903 -0.74209535 0.00012149644
-0.05957948 0.011930525 0.003592473 -0.35337013 0.54538953 -0.76005244 0.00019726621
-0.056867618 0.012259478 0.00270333 -0.29763526 0.57914716 -0.75894785 0.00064616691
-0.054027025 0.01296813 0.0022199801 -0.17853397 0.65007031 -0.73860294 0.002661031
-0.050872229 0.013264688 0.0019899686 -0.037561219 0.7364412 -0.67545801 0.0050668865
-0.04767001 0.01328169 0.0023706262 0.11465257 0.83665866 -0.53559041 0.0074291034
-0.044992227 0.012883984 0.0028475062 0.27313346 0.88186258 -0.38433903 0.0087102335
-0.042732202 0.01208993 0.0030365023 0.35239822 0.88846487 -0.29401666 0.0068756342
