# .PCD v0.7 - Point Cloud Data file format
VERSION 0.7
FIELDS x y z normal_x normal_y normal_z curvature
SIZE 4 4 4 4 4 4 4
TYPE F F F F F F F
COUNT 1 1 1 1 1 1 1
WIDTH 552
HEIGHT 1
VIEWPOINT 0 0 0 1 0 0 0
POINTS 552
DATA ascii
-0.060579635 0.045547917 -0.012184184 -0.22257438 0.30941096 -0.9245137 0.0054612313
-0.058538452 0.045838729 -0.012424441 -0.1147344 0.35671633 -0.92714047 0.0044318824
-0.055706508 0.045877807 -0.012505502 0.023468683 0.45647681 -0.88942575 0.0043385895
-0.052739162 0.045526877 -0.01244564 0.11914299 0.52509564 -0.84266216 0.002414373
-0.049946774 0.045205634 -0.012064256 0.18073045 0.56606269 -0.80430692 0.0011215064
0.059049889 0.045202088 -0.012093011 -0.0018683746 0.44834349 -0.89385945 0.0064504566
-0.015698794 0.0057907477 -0.0092700245 -0.21767744 -0.76623672 -0.60456413 0.0011835005
-0.013264549 0.0055810013 -0.0097134812 -0.17515564 -0.75934345 -0.62667227 0.0013453537
-0.010399219 0.005264075 -0.010017001 -0.14450942 -0.75848424 -0.63546741 0.0011396415
-0.0074252984 0.0049693896 -0.010226113 -0.11335622 -0.75233763 -0.64895183 0.0010986938
-0.0043797158 0.0048292428 -0.010490637 -0.081171095 -0.74777311 -0.65897393 0.0017936175
-0.0013186391 0.0047551612 -0.010699672 -0.055260595 -0.72611743 -0.68534642 0.0019192115
0.0018792035 0.0048286412 -0.010945548 -0.032435615 -0.71340096 -0.70000499 0.0015340229
0.0040861554 0.004530665 -0.010697424 -0.020953257 -0.72786218 -0.68540323 0.0010195769
0.0073541538 0.0043207891 -0.010444669 0.008333426 -0.77825052 -0.62789869 0.001267739
0.010465363 0.0044809431 -0.010481222 0.048547331 -0.78115284 -0.62244946 0.0012615793
0.01349696 0.0047401544 -0.010541411 0.066446424 -0.78323466 -0.61816525 0.001667347
0.016748492 0.0049114437 -0.010311639 0.10605337 -0.79155701 -0.60182238 0.0018378168
0.019472826 0.0051961141 -0.01015625 0.13598512 -0.79690433 -0.58860123 0.001233582
0.021898894 0.0052031642 -0.0095609054 0.17438519 -0.81528163 -0.55218267 0.0023607067
0.025319288 0.0057497886 -0.0092991162 0.19877179 -0.80774629 -0.55500966 0.00085260445
-0.024655491 0.0088145528 -0.0092763668 -0.29743317 -0.74710065 -0.5944528 0.0014251354
-0.022321789 0.0083734691 -0.0098001612 -0.2757954 -0.75645518 -0.59305352 0.001207979
-0.019398082 0.0077660847 -0.010259686 -0.23391023 -0.74215478 -0.62808615 0.0013886892
-0.016567372 0.0073510255 -0.010747883 -0.20198807 -0.71766704 -0.66644943 0.0019246857
-0.013710641 0.0069275335 -0.011094223 -0.16766213 -0.69473314 -0.69945365 0.000960987
-0.01063276 0.0065736114 -0.011405307 -0.13148566 -0.70907748 -0.69276303 0.0012015724
-0.0075631291 0.0063031651 -0.011655908 -0.10019513 -0.71837789 -0.68839961 0.0012355905
-0.0048744553 0.0061407858 -0.01183663 -0.065017015 -0.68355054 -0.72700167 0.002512472
0.013885783 0.0060324743 -0.011984972 0.055726901 -0.73841244 -0.67204291 0.0010479393
0.016834913 0.0061123548 -0.011800881 0.07539735 -0.71717048 -0.69280714 0.0018300959
0.019958757 0.0064604641 -0.011682737 0.1193039 -0.72756201 -0.67558873 0.0026550042
0.022816259 0.0063518649 -0.010884146 0.15616782 -0.77782488 -0.60876936 0.0011944238
0.025642909 0.0070826379 -0.011002466 0.18779905 -0.75129223 -0.63268602 0.0011879014
0.027979651 0.0071955603 -0.010326661 0.22108589 -0.79304665 -0.56762493 0.002323153
0.031635907 0.0081307245 -0.010181735 0.24999988 -0.78224176 -0.57061189 0.0011328827
0.034222338 0.0085494779 -0.0095335748 0.29326886 -0.78708792 -0.54266572 0.0011788682
-0.031058094 0.011612486 -0.0096299006 -0.31796327 -0.74589688 -0.58526671 0.00092263782
-0.02838493 0.011016852 -0.010204141 -0.28519648 -0.74415892 -0.60406166 0.001634674
-0.025572844 0.01027974 -0.010595899 -0.26925761 -0.7296471 -0.62858206 0.0013483941
-0.022667786 0.0097230403 -0.011175851 -0.2490667 -0.70575786 -0.66322809 0.0016742963
-0.020063544 0.0092381658 -0.01161892 -0.21651429 -0.68556166 -0.69507319 0.0011838748
0.032053024 0.009359302 -0.011617321 0.2333674 -0.70905012 -0.66542298 0.0010489995
0.034746855 0.0098501556 -0.011035264 0.2799319 -0.76118672 -0.58500677 0.0011736602
0.037718371 0.010717209 -0.010644045 0.31210071 -0.74058819 -0.59508181 0.0012876696
0.04044535 0.011469393 -0.010088413 0.35326463 -0.75013971 -0.55901206 0.00089129596
-0.039130591 0.014953947 -0.0091844574 -0.41478398 -0.72120863 -0.55480844 0.0014685104
-0.037145704 0.014397184 -0.0097078374 -0.37853879 -0.71617496 -0.58634621 0.001048225
-0.0344248 0.013762489 -0.010449592 -0.31730956 -0.72165591 -0.6152457 0.001619712
-0.031758454 0.012969929 -0.010874297 -0.30397928 -0.7175113 -0.62671691 0.0015617277
-0.028966649 0.012395252 -0.011494797 -0.26604247 -0.69185692 -0.67123419 0.0013383566
0.041116007 0.012497907 -0.011025742 0.33235526 -0.74089497 -0.5836221 0.0017803668
0.043552518 0.013595229 -0.010867571 0.36949638 -0.73320431 -0.57086235 0.00073285803
0.046362679 0.01424491 -0.0097272554 0.41922581 -0.7329638 -0.5357368 0.0014349055
-0.042700153 0.017467611 -0.0095426431 -0.46188304 -0.67576253 -0.57446408 0.0012551066
-0.040400717 0.016746012 -0.010332425 -0.40094993 -0.67618674 -0.61807013 0.0014045782
-0.037803665 0.015906403 -0.010996873 -0.35571223 -0.67610759 -0.6452499 0.0010751983
-0.03543146 0.015348519 -0.011674295 -0.31268615 -0.66645658 -0.67680353 0.0012539945
0.044994853 0.015223642 -0.011863711 0.34629148 -0.6633476 -0.66336429 0.002846716
0.047110539 0.015762042 -0.011101364 0.4065215 -0.69554567 -0.59241593 0.0015485159
0.049472589 0.016842023 -0.010563118 0.43053839 -0.65872908 -0.6170193 0.00050877169
0.051226642 0.017765025 -0.010304428 0.44173169 -0.64550734 -0.62305164 0.00055993634
-0.048009042 0.020754062 -0.0090436265 -0.49579558 -0.65434593 -0.57098001 0.00076709286
-0.046150178 0.020157835 -0.0098565035 -0.48618579 -0.64927119 -0.58486778 0.0013610286
-0.043768317 0.019267501 -0.010694712 -0.43288568 -0.64217085 -0.63263458 0.00080341334
-0.041385796 0.01848522 -0.011504921 -0.39775592 -0.6449874 -0.65251929 0.00075925834
0.052257523 0.018727807 -0.010581343 0.41823581 -0.61387277 -0.66950655 0.0021781679
0.054144494 0.019952156 -0.010316967 0.46515626 -0.58331949 -0.66585886 0.0008046279
-0.051391374 0.023722345 -0.0094621377 -0.49668282 -0.65319937 -0.5715214 0.0014278152
-0.049334615 0.022780553 -0.010100369 -0.48481408 -0.64690506 -0.58861637 0.0014146549
-0.0469313 0.021931767 -0.011077333 -0.45142063 -0.61989635 -0.6418317 0.00141779
-0.044850271 0.021073245 -0.011731413 -0.43635094 -0.61953896 -0.65251005 0.00110882
0.053617008 0.021195354 -0.011917268 0.43692797 -0.55026984 -0.71154553 0.0015775894
0.055840962 0.023019988 -0.011773678 0.47413966 -0.50586957 -0.7206161 0.001081082
0.057934549 0.023398258 -0.010447036 0.49151385 -0.48397252 -0.724006 0.0015958539
-0.054605912 0.026406035 -0.0096062282 -0.52698326 -0.6224196 -0.57869023 0.0012033893
-0.052483711 0.02553854 -0.010440339 -0.48154289 -0.60689801 -0.63229048 0.0016402458
-0.050114185 0.024623079 -0.011343497 -0.46475518 -0.59775281 -0.65321833 0.00055546622
-0.057650778 0.029314442 -0.009638574 -0.57569271 -0.56343353 -0.59255433 0.0014020042
-0.055540036 0.028402537 -0.010621745 -0.51086181 -0.53626394 -0.67189378 0.001710015
-0.053365234 0.02758733 -0.011641356 -0.48998827 -0.56637555 -0.662669 0.0015329431
-0.009650154 0.02958338 -0.011498079 0.14544074 0.68063819 -0.71803802 0.002579167
-0.0069080316 0.029108303 -0.011368521 0.13028921 0.6973083 -0.70483035 0.0017126845
-0.0045982404 0.029003117 -0.011110076 0.10779914 0.70984495 -0.69606 0.0012289664
-0.0014164257 0.028832868 -0.010858156 0.078109488 0.70580947 -0.70408231 0.0021496853
0.0015655344 0.02883538 -0.010612392 0.044377122 0.74359941 -0.66715097 0.0018447732
0.0045055253 0.028791908 -0.010595256 -0.008129986 0.74479812 -0.66724026 0.0024346826
0.007602796 0.028707616 -0.010776553 -0.039807983 0.74833262 -0.66212809 0.002990976
0.010523004 0.028889835 -0.010868881 -0.084484227 0.7715705 -0.6305089 0.0010416195
0.013440249 0.029102199 -0.01103486 -0.11473519 0.76943451 -0.62833619 0.0016357237
0.016351685 0.029457713 -0.011263227 -0.16027369 0.73282981 -0.66126603 0.0017715152
0.019030202 0.029814897 -0.011605129 -0.1937743 0.71557397 -0.67112243 0.0014522125
-0.060507894 0.03237142 -0.0094944136 -0.61819428 -0.50158554 -0.60518402 0.0014866763
-0.058530908 0.031494308 -0.010553763 -0.56043911 -0.47081187 -0.68135464 0.002524467
-0.056462359 0.03061383 -0.011608544 -0.53573954 -0.47367343 -0.69901115 0.0021028924
-0.020450402 0.032725561 -0.011576228 0.24029587 0.63483 -0.73433566 0.00087685976
-0.016407821 0.031984746 -0.010833629 0.26172486 0.71391082 -0.64948553 0.0021834101
-0.013029061 0.030690141 -0.011153094 0.18996789 0.68193299 -0.70631409 0.0016777624
-0.010576946 0.030874306 -0.0102624 0.17827387 0.76952934 -0.61322349 0.0023325903
-0.0076617296 0.030723283 -0.0096719684 0.14158922 0.76684856 -0.6260159 0.00169475
-0.0051530814 0.030312814 -0.0096803 0.11513839 0.72689193 -0.67703122 0.0012128395
-0.0015677406 0.030286888 -0.009099111 0.076082632 0.78304344 -0.61729604 0.0014255542
0.002836477 0.030019743 -0.0090538533 0.045767076 0.78589767 -0.61666054 0.00097737845
0.0081147524 0.030110035 -0.0090312157 -0.040974129 0.78791624 -0.61441773 0.0013053762
0.010242287 0.030113932 -0.0092952782 -0.083841458 0.78957182 -0.60790372 0.0011437845
0.013973525 0.030440483 -0.0094539663 -0.11328142 0.79065508 -0.60169089 0.0015951726
0.016607093 0.030647025 -0.0098530501 -0.17182563 0.78346372 -0.59721071 0.0016836105
0.019631829 0.031139109 -0.010188756 -0.20028324 0.78638595 -0.5843662 0.0024803269
0.022511363 0.031595849 -0.01064063 -0.23009081 0.76738328 -0.59848231 0.0017393839
0.025400141 0.032199498 -0.011041317 -0.24023603 0.74783385 -0.61889517 0.0019034343
0.028155707 0.032612976 -0.011621051 -0.24571104 0.71885526 -0.65028709 0.0012539962
-0.063229941 0.035788998 -0.0092570847 -0.64401001 -0.43200201 -0.63136786 0.0016831631
-0.061340909 0.034632478 -0.010221596 -0.59075171 -0.39818797 -0.70175403 0.0021036705
-0.059318077 0.034046885 -0.011509932 -0.54792672 -0.35496938 -0.75747806 0.0018538801
-0.0260564 0.035496276 -0.010913372 0.26566738 0.61412871 -0.7431466 0.00095397374
-0.019945445 0.033508684 -0.010464441 0.27395517 0.69242114 -0.66745907 0.0020730705
0.023832355 0.033089373 -0.0091791265 -0.22208339 0.78449339 -0.57900703 0.0013678573
0.025765795 0.033328295 -0.0097253881 -0.25924936 0.77929282 -0.57051951 0.0010365719
0.028647672 0.033917308 -0.010197125 -0.2614322 0.7806412 -0.56767291 0.0010172012
0.031488039 0.034577578 -0.010656083 -0.28113425 0.75283885 -0.59514469 0.0014533446
0.03438824 0.035352856 -0.011114342 -0.30385861 0.74543279 -0.59329575 0.0018462825
0.036743037 0.035883196 -0.011698117 -0.34354973 0.71053457 -0.61409628 0.0014191571
-0.063866474 0.037769854 -0.0097369282 -0.62393314 -0.34309298 -0.70213568 0.0027943111
-0.061794113 0.037307221 -0.011149018 -0.53901309 -0.27661979 -0.7955792 0.0011862357
0.032511707 0.036076471 -0.0091044549 -0.31589037 0.77904034 -0.54158062 0.0012428371
0.034707546 0.036608882 -0.0096682496 -0.32823607 0.75786567 -0.56382686 0.0016630644
0.037598554 0.037310444 -0.01052965 -0.35544989 0.71640772 -0.60034603 0.0016164721
0.040258978 0.038217667 -0.011119869 -0.36519656 0.68396181 -0.63152808 0.001381496
0.042196728 0.03855294 -0.011873407 -0.34464371 0.6343891 -0.69193298 0.0022949211
-0.066205256 0.04139116 -0.0091880485 -0.65005338 -0.25949574 -0.71420759 0.0029364077
-0.064498946 0.040504634 -0.01023329 -0.57581383 -0.22312963 -0.78654402 0.0044015194
-0.062346652 0.040255729 -0.011631366 -0.49523154 -0.14622451 -0.85636681 0.0026577737
-0.039999735 0.041428868 -0.011569503 0.25201821 0.56974059 -0.78222924 0.00099789456
-0.038427833 0.040730625 -0.01152763 0.26909721 0.59030455 -0.76100415 0.0002422785
0.038969815 0.039100129 -0.0092097959 -0.40819806 0.71598303 -0.56634152 0.00097418099
0.04062584 0.039672304 -0.009690186 -0.40648535 0.70592231 -0.58003736 0.0013854215
0.04337623 0.040382557 -0.010643562 -0.35932091 0.66512376 -0.6545983 0.001029188
0.046187975 0.041268505 -0.011326939 -0.32622561 0.64100885 -0.6947549 0.0015044431
0.064330809 0.04153686 -0.011923366 0.31835973 0.14727773 -0.93645954 0.0059869015
-0.066575147 0.04360047 -0.0093987351 -0.60265619 -0.12956391 -0.7874127 0.0036356943
-0.064614981 0.04345062 -0.010671197 -0.49759442 -0.051467508 -0.86588162 0.0024410405
-0.062517241 0.043564498 -0.011787653 -0.42971453 -2.2817738e-05 -0.90296483 0.0033475452
-0.046224989 0.044383623 -0.011528526 0.23676626 0.56972724 -0.78698957 0.00037127142
-0.043917567 0.043157406 -0.011686666 0.24598327 0.56805104 -0.78537267 0.00059347594
-0.041572787 0.04212397 -0.01161536 0.26412955 0.5770058 -0.77285177 0.00045475905
0.044472542 0.042146932 -0.0093794037 -0.43286526 0.693712 -0.57566595 0.0013629668
0.046778582 0.042954832 -0.0099444157 -0.40429789 0.67888999 -0.61290425 0.0016080227
0.049353633 0.043512821 -0.010726053 -0.31907889 0.63433754 -0.70413387 0.0013922517
0.052079834 0.044213653 -0.011261616 -0.2658388 0.61874342 -0.7392472 0.001827281
0.054715514 0.044699371 -0.011764182 -0.17955218 0.55194229 -0.81432229 0.0019314347
0.063947298 0.044278916 -0.011625138 0.21106426 0.29445374 -0.93206704 0.0046935119
-0.066746965 0.046431854 -0.0094697597 -0.5444867 0.017569844 -0.83858544 0.0041204444
-0.064637296 0.046372574 -0.010598118 -0.43215385 0.096066043 -0.89666849 0.0054272464
-0.061959371 0.04640704 -0.011589213 -0.31744707 0.17828222 -0.93136615 0.0037827247
-0.058818806 0.047400475 -0.011746625 -0.033355571 0.42569515 -0.90425164 0.0039946903
-0.055697724 0.047363419 -0.011660392 0.084090702 0.50519687 -0.85889745 0.0023807527
-0.052518517 0.047117494 -0.011272594 0.14281012 0.54929799 -0.82333285 0.002004927
-0.049642976 0.046382487 -0.011021465 0.18171093 0.56947279 -0.80167443 0.00053893565
-0.047511358 0.045221522 -0.011272022 0.21577793 0.56395656 -0.79711539 0.00029749065
0.050014451 0.045175545 -0.0094340574 -0.36932811 0.67418659 -0.6395852 0.0018827755
0.052666079 0.046041191 -0.0099264188 -0.33452147 0.64846933 -0.68380034 0.0014607433
0.055510968 0.046549518 -0.010606466 -0.22837521 0.58830911 -0.77571726 0.002523598
0.058361962 0.046708971 -0.011163917 -0.10890362 0.49899292 -0.85973603 0.0030190391
0.061432697 0.046581671 -0.011343863 0.0031208775 0.47381961 -0.88061637 0.0033861622
0.06448938 0.046698026 -0.010732067 0.19896488 0.3184748 -0.92681539 0.0029645541
-0.066599898 0.049024645 -0.0092726992 -0.45507658 0.16373356 -0.87526947 0.005328679
-0.06469278 0.049122069 -0.0099786865 -0.35184291 0.23205288 -0.90683967 0.0039725304
-0.061589472 0.049454212 -0.010485024 -0.095968559 0.46887305 -0.8780365 0.005412091
-0.058612436 0.049345914 -0.010632155 0.03423309 0.53874308 -0.84177428 0.00299777
-0.055678468 0.049295865 -0.010283109 0.11065791 0.56934881 -0.81461447 0.0016316494
-0.052909918 0.048493125 -0.010219917 0.14503001 0.57745898 -0.80343479 0.0010419375
0.055835918 0.048287682 -0.0093208058 -0.30181381 0.63780648 -0.70859814 0.0020655564
0.058522321 0.049012624 -0.0096317222 -0.21919979 0.60703576 -0.76384497 0.0029549049
0.0615183 0.049391858 -0.0098752826 -0.090455994 0.52763879 -0.844639 0.0043538567
0.064391308 0.049607761 -0.0096596451 -0.050376732 0.4762775 -0.87785077 0.002898613
-0.064248264 0.051323175 -0.0091774706 -0.18985988 0.42380151 -0.88563281 0.0074313711
-0.061666917 0.051408552 -0.0093138851 -0.019060209 0.57779425 -0.81595981 0.0044986047
-0.059009783 0.051349334 -0.0092364149 0.060189899 0.60494369 -0.79399008 0.002198624
0.064367227 0.051025826 -0.0090486966 -0.04482843 0.47913373 -0.87659645 0.0055561769
-0.0099066608 0.0027339826 -0.0063185249 -0.16377699 -0.87205309 -0.4611946 0.0013993944
-0.0073695616 0.0025462038 -0.0067119929 -0.11738143 -0.87216228 -0.47492594 0.0018705251
-0.0043801228 0.002414423 -0.0070741167 -0.081934676 -0.87557387 -0.47608516 0.0017421509
-0.0014179302 0.0022708024 -0.00721425 -0.046151888 -0.8703931 -0.4901897 0.0020265116
0.0014248069 0.0022338426 -0.0073880246 -0.026201373 -0.86940062 -0.49341264 0.0019062215
0.0044190744 0.0022158963 -0.0074307965 -0.0020437392 -0.87418592 -0.48558715 0.0016374418
0.0073781786 0.0022341763 -0.0073710508 0.020796377 -0.88156015 -0.47161341 0.0017263294
0.010435183 0.0023232307 -0.0072369529 0.059590682 -0.88835001 -0.45528367 0.0016451856
0.013431256 0.0025155256 -0.0070953043 0.08809939 -0.88800615 -0.45131326 0.0017322521
0.016316578 0.0025947364 -0.0065880129 0.12457986 -0.90249956 -0.41227955 0.0029974869
0.018871862 0.0028379145 -0.0063350694 0.16034652 -0.88889849 -0.42912531 0.0014464238
-0.021484399 0.0058258716 -0.0063059158 -0.32444131 -0.83478296 -0.44483161 0.0020845945
-0.01941837 0.0054724347 -0.0069953501 -0.27588984 -0.84795016 -0.45262033 0.001358922
-0.016539808 0.0048794658 -0.0074702445 -0.22894281 -0.83685035 -0.49725923 0.0017835459
-0.013459417 0.0041889106 -0.007598341 -0.19040026 -0.84288448 -0.50328279 0.0015799357
-0.010557391 0.0037387412 -0.0078476071 -0.15579511 -0.83668315 -0.52506101 0.001743972
-0.0078053903 0.0035284096 -0.0082455501 -0.12016989 -0.83034861 -0.54413265 0.0015135746
-0.0046408447 0.0033329669 -0.0085279234 -0.088615552 -0.80251843 -0.59000969 0.00092649291
-0.0015252121 0.003243038 -0.0087906206 -0.060658697 -0.83867604 -0.54124218 0.0024683771
0.0012767536 0.0030915921 -0.0087774657 -0.032869905 -0.7978698 -0.601933 0.00079843181
0.0039070514 0.0030962387 -0.0088868365 -0.0024646868 -0.8011716 -0.59842962 0.00078986917
0.00787191 0.0030434234 -0.0087245815 0.024154311 -0.80567646 -0.59186321 0.00082049635
0.01061416 0.0031569293 -0.0087091494 0.052211963 -0.81426376 -0.57814223 0.00096224016
0.013638416 0.0033009623 -0.0085502435 0.085468069 -0.84370798 -0.52995479 0.0013805189
0.016406929 0.0033708466 -0.0081071313 0.11488639 -0.85667056 -0.50290817 0.0017564506
0.019566679 0.0036004484 -0.0076114666 0.15884593 -0.87880474 -0.44996691 0.0010702183
0.022901669 0.0043390105 -0.0077762171 0.1722444 -0.86723834 -0.46715057 0.0017986695
0.02549368 0.0047343788 -0.0074234814 0.21224609 -0.86886209 -0.44724742 0.0015931941
0.028153893 0.005419408 -0.0073849685 0.24113791 -0.86581922 -0.4384172 0.0029656156
0.030616745 0.0057476824 -0.0065304115 0.28908855 -0.8719874 -0.39505163 0.0012343534
-0.027877858 0.0085834311 -0.0068898685 -0.33135095 -0.82715923 -0.45388779 0.0017606827
-0.025428193 0.0079785772 -0.0074934405 -0.30892265 -0.81583279 -0.4888595 0.0015287906
-0.022639498 0.0070098653 -0.0076569454 -0.3062377 -0.81711298 -0.48841044 0.0015676968
-0.020013964 0.0063828137 -0.0081978841 -0.27453592 -0.82143009 -0.49988267 0.0015797494
-0.017413396 0.0060291411 -0.0088657681 -0.22200601 -0.7848646 -0.57853341 0.0013261902
0.028903909 0.0062707034 -0.0086237025 0.23304445 -0.84930599 -0.47367683 0.0015020104
0.031805005 0.00659107 -0.0075344839 0.29966646 -0.86403155 -0.40453616 0.0011369514
0.034552358 0.007754216 -0.0079392847 0.29894963 -0.8529017 -0.42800447 0.0018094968
0.037432164 0.0084047895 -0.0070533096 0.3474389 -0.83233792 -0.43185619 0.0017729454
-0.036229633 0.011793982 -0.0062745251 -0.39416784 -0.81766272 -0.41959438 0.00099435344
-0.034234107 0.011387105 -0.0071743722 -0.3625493 -0.81545305 -0.45121422 0.0016181212
-0.031516865 0.010443963 -0.0075554508 -0.33433345 -0.81321061 -0.47635031 0.0019172053
-0.028855763 0.0095927222 -0.0079495618 -0.32129422 -0.80944157 -0.49150208 0.0021850131
-0.026672034 0.0091697508 -0.0086463569 -0.30456704 -0.77622736 -0.55200547 0.0013824943
0.038191777 0.009389786 -0.0083773658 0.31874409 -0.80952364 -0.49302509 0.0020604965
0.04062466 0.010258819 -0.0079726968 0.38037601 -0.81009942 -0.44615352 0.0017375363
0.043128788 0.011293836 -0.007739645 0.38701645 -0.809623 -0.44128099 0.0015566665
0.045714285 0.011981529 -0.0064377165 0.41559651 -0.79486126 -0.44212577 0.0018018025
-0.042151727 0.014853843 -0.0061774948 -0.4771657 -0.77059692 -0.42248461 0.0011026657
-0.040214572 0.014289752 -0.0070988103 -0.44054663 -0.77956194 -0.44519863 0.0013834146
-0.037641205 0.013173274 -0.0075233504 -0.41084829 -0.79848737 -0.44002455 0.0012089958
-0.035084147 0.012458973 -0.0083599547 -0.34834695 -0.77519792 -0.52699393 0.0017555511
0.04393601 0.012330395 -0.0088491701 0.40011495 -0.76331782 -0.50720215 0.00059829961
0.047137097 0.013388947 -0.0076690884 0.42287695 -0.74924362 -0.50971472 0.00055397733
-0.04566418 0.017545195 -0.0066959183 -0.52110839 -0.73292577 -0.43733954 0.0012401043
-0.04346915 0.016487708 -0.0074303113 -0.49309856 -0.75488263 -0.43244198 0.0010128632
-0.041135181 0.015481834 -0.0082134455 -0.43703935 -0.75374156 -0.49078539 0.0011867364
0.049988542 0.015656043 -0.0086062783 0.43609658 -0.69183457 -0.57548654 0.00090118905
-0.048953306 0.020212559 -0.0071173119 -0.55005544 -0.70727444 -0.44407415 0.0013860617
-0.046778951 0.018990839 -0.0077196169 -0.52051407 -0.71853381 -0.46127459 0.0016974028
-0.044768345 0.018186169 -0.0086524179 -0.49024522 -0.68482703 -0.53913963 0.0015740935
-0.054269403 0.023795191 -0.0064443899 -0.55152023 -0.70925856 -0.43906468 0.00084569317
-0.052323684 0.022927763 -0.0074002091 -0.5398311 -0.70587695 -0.45860672 0.0018524895
-0.050152909 0.021671077 -0.0079718903 -0.53242522 -0.71573764 -0.45193255 0.0013920647
-0.057480354 0.026655605 -0.0067218416 -0.5954414 -0.65765661 -0.46145141 0.00099623832
-0.055499494 0.025511896 -0.0075264485 -0.57231569 -0.6850127 -0.45079082 0.001608863
-0.053395782 0.02453188 -0.008525419 -0.51437622 -0.65185273 -0.55722982 0.00079865986
-0.060465664 0.029515782 -0.0066297799 -0.642968 -0.60215646 -0.47328606 0.0009750707
-0.058647767 0.028464139 -0.0076346137 -0.62950689 -0.6091826 -0.48230451 0.0020654702
-0.056577161 0.027366966 -0.0087057995 -0.55557346 -0.59342915 -0.5823915 0.0011094807
-0.063240372 0.03258805 -0.0064617288 -0.68413651 -0.53419954 -0.4965764 0.0012621195
-0.061494693 0.031497762 -0.0075482004 -0.67113137 -0.54656029 -0.50085372 0.0019076848
-0.059716117 0.03040389 -0.0085753603 -0.60820842 -0.54914039 -0.57317299 0.00088072516
-0.010304233 0.032545488 -0.0077656377 0.20286548 0.82655996 -0.52501833 0.0021885084
-0.0075205006 0.031881344 -0.0079040742 0.16316959 0.83429229 -0.52662337 0.0022517741
-0.0046093594 0.031438693 -0.0078786453 0.1174922 0.85778254 -0.5004046 0.0018839658
-0.0013532846 0.031295091 -0.0074545392 0.084634334 0.86618555 -0.49250343 0.0020974376
0.0013767574 0.031019742 -0.0075745536 0.038375452 0.86712801 -0.49660483 0.002296081
0.004375489 0.030848721 -0.0077427551 -0.010824498 0.82593441 -0.56366229 0.0013665371
0.0075846445 0.030771498 -0.0079063568 -0.048074026 0.82764655 -0.55918694 0.0013797885
0.010409973 0.031089485 -0.0077369493 -0.076119922 0.83290094 -0.54816228 0.0013897459
0.013614006 0.031517036 -0.0076101287 -0.1209899 0.84249061 -0.52494854 0.0013414822
0.016624421 0.032116957 -0.0075072087 -0.17736143 0.84745067 -0.50037014 0.0013876911
0.01945967 0.032595407 -0.0079510044 -0.21941237 0.83654714 -0.50204295 0.001244407
0.021464288 0.032757003 -0.0086301351 -0.24099538 0.81487381 -0.52716398 0.00041915817
-0.066001043 0.03596044 -0.0062756911 -0.71071255 -0.46993956 -0.52349257 0.0016489973
-0.064145237 0.034652326 -0.007332772 -0.69878852 -0.48618627 -0.52470696 0.0028186506
-0.062512584 0.033685219 -0.008457398 -0.63525981 -0.47308558 -0.61043835 0.00086163497
-0.016070498 0.034104403 -0.0076678172 0.25207973 0.77807605 -0.5753724 0.0011547499
-0.014174329 0.033120051 -0.0084592924 0.2370206 0.79220164 -0.56235021 0.0016916561
-0.011319977 0.03326229 -0.0068522645 0.21103144 0.8362639 -0.50609136 0.0013482922
0.017639095 0.033063732 -0.0060442518 -0.18758965 0.86413449 -0.46699226 0.0012002895
0.019602956 0.033391763 -0.0064683268 -0.20421582 0.87522089 -0.43850231 0.0020807609
0.022591546 0.033779152 -0.0073330635 -0.23543003 0.85783452 -0.45682883 0.0019755452
0.025485482 0.034444541 -0.007755436 -0.26217005 0.83976853 -0.47545311 0.0018576283
0.028379466 0.035292517 -0.0079215765 -0.29603183 0.83151203 -0.4700563 0.0012314143
0.030829703 0.035728268 -0.0087054856 -0.31226566 0.79580271 -0.51883352 0.0010073469
-0.066697724 0.037901465 -0.0068353973 -0.71061218 -0.43048477 -0.55651879 0.002603709
-0.065209366 0.037178576 -0.0080808112 -0.69381046 -0.38552165 -0.60827637 0.002806575
0.029024635 0.036231447 -0.0065129143 -0.29293042 0.87763089 -0.37941504 0.0015562035
0.03168856 0.036833659 -0.0072241435 -0.31989658 0.85010821 -0.41830882 0.0013455388
0.034582976 0.037887797 -0.0074981768 -0.37194803 0.80534232 -0.46160412 0.0026645241
0.036739498 0.03848049 -0.0082899984 -0.41523769 0.77217293 -0.48096418 0.0015149829
-0.069129802 0.041707873 -0.0062363185 -0.72959799 -0.34194916 -0.5922479 0.0050311214
-0.067507468 0.040534113 -0.0075153862 -0.72077096 -0.30185485 -0.62399739 0.002471297
-0.065812603 0.039443742 -0.0087965392 -0.6866985 -0.31306329 -0.65607667 0.0019855441
0.037873849 0.039686389 -0.0072699618 -0.42976919 0.78378749 -0.44830298 0.0020366635
0.04046794 0.040993787 -0.0076273484 -0.44992638 0.76680595 -0.4577935 0.0023531979
0.042568967 0.041637696 -0.0085661896 -0.41977763 0.73259705 -0.53580624 0.001789261
-0.069539726 0.043754887 -0.0066322461 -0.73774755 -0.23488486 -0.63289618 0.0029805452
-0.068057232 0.043358058 -0.008063362 -0.65212518 -0.17165287 -0.73842269 0.0020075643
0.041672479 0.042457793 -0.0063270112 -0.4831309 0.77731723 -0.40294233 0.0027133464
0.043673255 0.043152735 -0.0072582457 -0.44753888 0.77429861 -0.44740435 0.0017159509
0.046115749 0.044207834 -0.0079140542 -0.43863937 0.74602026 -0.50104821 0.0016733125
0.048288312 0.0447703 -0.0088447873 -0.36662582 0.70909113 -0.60230833 0.0032809733
-0.069918305 0.046603341 -0.0069263503 -0.70580262 -0.11371808 -0.69922161 0.0045954692
-0.06825722 0.046433311 -0.0084085083 -0.59552205 -0.049168464 -0.80183285 0.0029377423
0.047222 0.045606703 -0.0068027647 -0.45187566 0.74761933 -0.48669681 0.0018291324
0.049562421 0.046474993 -0.0075428006 -0.41019779 0.74319214 -0.52858615 0.0020360467
0.052209355 0.047413792 -0.0082755238 -0.36819008 0.68972582 -0.62346965 0.0019059293
-0.070212878 0.049490582 -0.0069456105 -0.6324237 -0.025234025 -0.77421159 0.0082682287
-0.068038277 0.049574893 -0.0084236795 -0.48631537 0.083653428 -0.86976975 0.0067226714
-0.052181788 0.04967545 -0.0088005345 0.16631693 0.61537224 -0.77049059 0.0011092159
0.050646514 0.04807885 -0.0061986186 -0.44334659 0.73538709 -0.51249355 0.0015769841
0.052862413 0.048838224 -0.0070286104 -0.42673483 0.71777302 -0.55018115 0.0027205735
0.055429451 0.049694907 -0.0077199582 -0.36430722 0.69897431 -0.61539841 0.0026288761
0.05833789 0.050437674 -0.0083895698 -0.26702988 0.66333377 -0.69905895 0.0031052828
0.060762301 0.050735772 -0.0089092366 -0.17048272 0.56471437 -0.80748582 0.0054549845
-0.070409842 0.052428465 -0.0067728483 -0.50336474 0.070418008 -0.86119986 0.0081385188
-0.067789786 0.052259263 -0.0079860771 -0.36805803 0.20346045 -0.90726906 0.0093155922
-0.064777896 0.052645575 -0.0083703082 -0.040852755 0.46018696 -0.88688165 0.01007849
-0.06171973 0.052847482 -0.0081563238 0.038711548 0.60089952 -0.79838663 0.0047615105
-0.059040286 0.052411102 -0.0082023386 0.094189674 0.65234506 -0.7520467 0.0018746434
-0.056233019 0.051916938 -0.0079630641 0.18853228 0.70057911 -0.68821836 0.0011944419
0.056374952 0.051209822 -0.0065686414 -0.38623106 0.71102726 -0.5875932 0.0026483317
0.058708522 0.052062184 -0.0069655576 -0.34934399 0.69136375 -0.63243574 0.0032939524
0.06146235 0.052528262 -0.0076762917 -0.25464189 0.60942113 -0.7508418 0.0037620016
0.064344145 0.052739389 -0.008115178 -0.15072577 0.53411126 -0.83186954 0.0045852591
0.066805467 0.052603383 -0.0079744225 -0.13960199 0.47765678 -0.8673842 0.0030620131
-0.070513539 0.055065546 -0.0063934568 -0.34925368 0.21189454 -0.91275555 0.01046317
-0.068057023 0.054962222 -0.0069494094 -0.27031851 0.27132636 -0.92374772 0.0046062022
-0.064832687 0.054955818 -0.006947469 0.055852421 0.5204612 -0.85205674 0.0057544201
-0.061364509 0.05431544 -0.0067125941 0.081968985 0.62345225 -0.77755278 0.0039907461
-0.059675172 0.054013968 -0.0065199183 0.17012414 0.71103066 -0.68227065 0.002014512
0.062125042 0.054543324 -0.0063169487 -0.35892072 0.62071013 -0.69706154 0.0063750134
0.064527676 0.055250492 -0.0066943774 -0.28633332 0.53871387 -0.79233873 0.0090089943
0.067009717 0.055485696 -0.0068324977 -0.26471257 0.4948419 -0.82768279 0.0052422541
0.066928804 0.057265908 -0.0061181849 -0.28129634 0.42906669 -0.85835546 0.0076114098
-0.015561481 0.0028650705 -0.003403876 -0.26508284 -0.9333744 -0.24195735 0.0016338699
-0.013292843 0.0026469717 -0.0043901415 -0.20408893 -0.92308623 -0.32597482 0.0024085038
-0.010065853 0.0022199093 -0.0049344851 -0.16496891 -0.92055714 -0.35406193 0.0023230826
-0.0074841627 0.0016182754 -0.0044410713 -0.12208787 -0.93950534 -0.3200379 0.0023753913
-0.0045137182 0.0013066044 -0.0045280461 -0.084188126 -0.93892282 -0.33367106 0.002562183
-0.001561539 0.0010737249 -0.00449993 -0.051072292 -0.93923873 -0.33944401 0.0026888242
0.00146021 0.00098452251 -0.0046217507 -0.034850225 -0.93950528 -0.34075698 0.0025119008
0.0044574011 0.00096574356 -0.0046468521 0.0027223169 -0.94531047 -0.32616058 0.0019727848
0.007436716 0.00099976547 -0.0045285141 0.039145265 -0.94268072 -0.33139223 0.0022167196
0.010478788 0.0011807769 -0.0045153848 0.06838423 -0.94440484 -0.32159466 0.0021760082
0.013436866 0.0015050836 -0.0046602888 0.094441064 -0.94648194 -0.30863068 0.0019843737
0.016511947 0.0019032472 -0.0047073737 0.13204478 -0.94741625 -0.29149038 0.0017698727
0.01932613 0.0023409324 -0.0046495907 0.15651844 -0.94398648 -0.29050204 0.0015006284
0.022151288 0.0027287966 -0.0041159643 0.1962256 -0.94221854 -0.27151391 0.0020919193
-0.024438754 0.0058276108 -0.0034125412 -0.33819547 -0.91090357 -0.23638646 0.0017127702
-0.022431867 0.005414445 -0.0044363551 -0.32392159 -0.89574647 -0.30448836 0.0022378427
-0.019575728 0.0044303113 -0.0044807787 -0.28957257 -0.90245396 -0.3189429 0.0020956995
-0.016781678 0.0036760767 -0.0047929878 -0.26211131 -0.90556151 -0.33355057 0.0017890782
-0.014103855 0.0032191565 -0.0054713483 -0.21535812 -0.91463488 -0.34214598 0.0020635505
0.022459971 0.0031655747 -0.0053775068 0.20633204 -0.93169004 -0.29896629 0.0029346051
0.025095861 0.0036521112 -0.0049439017 0.2151392 -0.9297843 -0.29869092 0.0023352606
0.028580492 0.0045407191 -0.0048743389 0.25259686 -0.91640812 -0.31046903 0.0027917854
0.031441674 0.0053125629 -0.0045617698 0.26930147 -0.91350222 -0.30494338 0.0012461537
0.034006443 0.0059845685 -0.0038877572 0.30938306 -0.90109587 -0.30382288 0.00079802464
-0.030928232 0.0086821457 -0.004141862 -0.35893562 -0.88258386 -0.30366227 0.0019054875
-0.028480681 0.0078214258 -0.0045400127 -0.3455503 -0.88456291 -0.31327847 0.002083356
-0.025685877 0.0067369994 -0.0046698321 -0.35699794 -0.88206202 -0.30743968 0.0020374611
-0.023456151 0.0062449798 -0.0056538726 -0.32548848 -0.8696354 -0.3712028 0.0020961196
0.034316063 0.0065830331 -0.0055074599 0.30426478 -0.89077431 -0.33755609 0.0019904932
0.036782671 0.0073664691 -0.0050452254 0.34298223 -0.86400509 -0.36858976 0.00067707198
-0.037151981 0.011438869 -0.0041846191 -0.41412312 -0.86757624 -0.27534246 0.0017841081
-0.034531351 0.010349683 -0.0045200479 -0.38758123 -0.87133884 -0.30091441 0.0016560903
-0.032147586 0.0094244415 -0.0048423237 -0.36863753 -0.87444115 -0.31537113 0.0018030141
0.041670896 0.0091829337 -0.0041928138 0.3757287 -0.82729959 -0.41761631 0.0011579618
-0.042811707 0.014503849 -0.0041895933 -0.49760574 -0.81816328 -0.28809267 0.0017753997
-0.040479336 0.013257671 -0.0044953395 -0.4645355 -0.83619934 -0.29150888 0.0021041112
-0.038305257 0.012322287 -0.0051665753 -0.43652537 -0.85097992 -0.2920253 0.0017956229
-0.048198003 0.017890979 -0.0034348294 -0.56474048 -0.78033769 -0.26859155 0.0015369565
-0.046354424 0.016943688 -0.0043299482 -0.5518086 -0.78315282 -0.28666854 0.0022361632
-0.044199225 0.015609371 -0.0047320756 -0.52751702 -0.8006165 -0.28414628 0.001729249
-0.051471751 0.020629589 -0.0039952616 -0.5634256 -0.77199471 -0.29423758 0.0016952949
-0.04952405 0.019364914 -0.0045294738 -0.5841921 -0.76341057 -0.27554321 0.0017480538
-0.047586415 0.018182902 -0.0052464586 -0.56074888 -0.76749063 -0.31067461 0.0025549654
-0.054903273 0.023326211 -0.0043029948 -0.57930219 -0.75836062 -0.29882783 0.0016381285
-0.05279481 0.021915695 -0.004780266 -0.57843304 -0.75947982 -0.29766694 0.0020761648
-0.050889481 0.021081574 -0.00598827 -0.59025151 -0.72806114 -0.34861174 0.0029803927
-0.058086406 0.025976675 -0.0044429209 -0.63528275 -0.7058773 -0.3132939 0.0022338908
-0.056250807 0.024602452 -0.0048844758 -0.60920578 -0.73785919 -0.29057214 0.0015709506
-0.061117146 0.028872361 -0.0043845684 -0.67963481 -0.65682435 -0.32661659 0.0021084968
-0.059500501 0.027508775 -0.0049641053 -0.66158539 -0.68555325 -0.30384439 0.0018998167
-0.063860834 0.031967845 -0.0043802536 -0.7311582 -0.59311187 -0.33708468 0.0024792375
-0.062446922 0.030637963 -0.0049505709 -0.71287161 -0.63032418 -0.30741766 0.0024297379
-0.004443611 0.032637462 -0.0054826429 0.14028063 0.91028029 -0.38950118 0.0034833392
-0.001515598 0.032603659 -0.0045501203 0.10910714 0.93902659 -0.32607463 0.0022661067
0.0015027476 0.032321207 -0.0047054556 0.050741017 0.94769669 -0.31511328 0.0023883667
0.004319563 0.032260086 -0.004619949 0.0048440807 0.94740254 -0.32000783 0.0021497374
0.007657845 0.032334793 -0.0044922861 -0.018118061 0.95532155 -0.29501271 0.0025877124
0.010564249 0.032497007 -0.0046096272 -0.096504487 0.94899035 -0.30017364 0.0027952716
0.013423847 0.032678645 -0.0049736123 -0.1365414 0.93767124 -0.3195765 0.0026091612
0.01588437 0.032825261 -0.0057407669 -0.19177297 0.92641598 -0.32400078 0.0024481092
-0.066539615 0.035289068 -0.0041632759 -0.7612474 -0.5486725 -0.34563127 0.0020772761
-0.065266021 0.034015629 -0.0048276801 -0.74896359 -0.58160198 -0.31747854 0.0018066186
-0.010766334 0.03373434 -0.0055377665 0.23606081 0.86008894 -0.45224148 0.0015014643
-0.0076838792 0.033347446 -0.0049102693 0.18316831 0.88940042 -0.41882733 0.0024267305
-0.0045237825 0.033272449 -0.0035161171 0.12689821 0.92650276 -0.35424495 0.0015548045
0.013776032 0.033181421 -0.0034720693 -0.13203564 0.94995087 -0.2831254 0.0027715864
0.01669048 0.033434995 -0.0044313469 -0.19248658 0.94194716 -0.27510831 0.0021807293
0.019585684 0.034120534 -0.0045029591 -0.22833766 0.93019277 -0.2874079 0.001992251
0.022816855 0.035124056 -0.0041126255 -0.27216631 0.91067123 -0.31081107 0.001163372
0.025268942 0.035601351 -0.0049667819 -0.29489401 0.8998549 -0.32140118 0.0018153579
0.027187306 0.03598173 -0.0055975243 -0.28960767 0.90463686 -0.31266546 0.002261111
-0.069176264 0.03870843 -0.0033834877 -0.80694437 -0.46873349 -0.35934618 0.0024098828
-0.067791872 0.037422579 -0.0046003233 -0.78253889 -0.51557714 -0.34901723 0.0028250155
0.026292717 0.036189109 -0.0040476541 -0.28125191 0.9217068 -0.26712167 0.002038026
0.028761882 0.036912099 -0.0043395725 -0.30065319 0.90040511 -0.31444913 0.0016911412
0.031254958 0.03768158 -0.0047422093 -0.3479194 0.88575441 -0.30723163 0.0020585274
0.033994861 0.03873197 -0.0049471301 -0.39468145 0.86823088 -0.30066887 0.0021920614
-0.069777168 0.040676583 -0.0043508746 -0.83361077 -0.3927764 -0.38835511 0.0034155305
-0.068646707 0.039602477 -0.0054349047 -0.79712558 -0.40780255 -0.44529533 0.0048096539
0.034918524 0.03952245 -0.0038246093 -0.42465308 0.87315565 -0.2393094 0.0041258847
0.037496276 0.040710054 -0.0044740662 -0.47048628 0.83189487 -0.29426795 0.0025568465
0.039523639 0.041719131 -0.00504281 -0.50788593 0.8091554 -0.29549867 0.0024314541
-0.07207036 0.044946291 -0.0031877444 -0.87338841 -0.31341395 -0.37277925 0.015662644
-0.070843078 0.043495018 -0.0045673009 -0.84642893 -0.28681594 -0.44865873 0.0041126441
0.041016169 0.042886283 -0.004302525 -0.49403334 0.81882894 -0.29231873 0.0019843127
0.043202475 0.04411434 -0.0047653075 -0.51206058 0.81047636 -0.28446797 0.0022267881
0.045245383 0.044945478 -0.0058481479 -0.4662725 0.77409273 -0.42821771 0.00096414192
-0.072370522 0.046878453 -0.0037089929 -0.84515822 -0.26426297 -0.46462104 0.0042591179
-0.071388565 0.046323329 -0.0050568157 -0.82557446 -0.20431198 -0.52600712 0.0059871036
0.044498876 0.045309678 -0.0037977407 -0.50950676 0.81218159 -0.28418994 0.0016950286
0.046563037 0.046338923 -0.0045311544 -0.5140444 0.7946229 -0.32300591 0.0028707222
0.048554938 0.047321677 -0.005151554 -0.5064106 0.79036194 -0.34478444 0.0030506612
-0.072874732 0.049653541 -0.0041617625 -0.78770411 -0.2481966 -0.56384462 0.0072406591
-0.071611829 0.049280066 -0.0056037153 -0.70766121 -0.1405579 -0.69242978 0.0060907737
0.049906678 0.04854355 -0.0043431735 -0.50101936 0.7967993 -0.33777282 0.0028939857
0.052424297 0.050042644 -0.0046778284 -0.49764141 0.78944248 -0.35935169 0.002742223
0.054509979 0.050805949 -0.0056700129 -0.44859442 0.75428599 -0.47939098 0.002881624
-0.075159788 0.053617895 -0.0031252571 -0.87138307 -0.1476732 -0.46785063 0.017996423
-0.073491506 0.052545071 -0.0044950093 -0.70757079 -0.17866072 -0.68368411 0.0059096478
-0.071829297 0.051884755 -0.0058354256 -0.64036018 -0.044928651 -0.76675963 0.0097000143
0.053539168 0.051299345 -0.0035375522 -0.48912141 0.79545742 -0.35778186 0.0023879108
0.055585347 0.052199777 -0.004286103 -0.45122156 0.80763221 -0.37964371 0.0036114345
0.058233581 0.053365834 -0.0050153784 -0.44798666 0.74748909 -0.49047735 0.0086173741
-0.07524886 0.055454787 -0.0033659057 -0.77887988 0.034312125 -0.62623382 0.026034469
-0.073625728 0.055416163 -0.0048066643 -0.63286465 0.044723365 -0.77296966 0.0081790024
-0.071516939 0.056302398 -0.0058559999 -0.38350677 0.17870651 -0.90608305 0.012075949
-0.066729754 0.056940205 -0.0058899056 -0.069766425 0.43082649 -0.89973396 0.0045519103
-0.061243251 0.055229884 -0.0055423072 0.18142132 0.65017056 -0.73781067 0.0043432056
-0.058383428 0.054421388 -0.005409773 0.17013524 0.71099889 -0.68230098 0.0020357082
0.059124522 0.054716818 -0.00376599 -0.52322787 0.73625684 -0.42913687 0.0046813311
0.061383761 0.055679146 -0.0046347445 -0.47122911 0.70884085 -0.52486932 0.0089145303
0.063859209 0.056453165 -0.005652301 -0.33765215 0.52862424 -0.77881157 0.0069107004
-0.075049259 0.057173412 -0.0030133091 -0.73909742 0.44352925 -0.5069682 0.043092109
-0.073519908 0.057736266 -0.0042563812 -0.63215959 0.30205005 -0.71354049 0.017091557
-0.070733979 0.058449253 -0.004969174 -0.35303566 0.55003095 -0.75685656 0.026369605
-0.068059944 0.058055811 -0.0053004576 -0.12382633 0.46780235 -0.87511593 0.013431199
0.062567249 0.057514779 -0.0036513275 -0.55673778 0.59691924 -0.57769412 0.0091723707
0.064517744 0.058462039 -0.0045040976 -0.5293988 0.51046729 -0.6776135 0.016143646
0.067181461 0.05887587 -0.0054920553 -0.31746712 0.41282639 -0.8536914 0.0060921097
0.069541037 0.059049964 -0.0053658201 -0.25484276 0.31806877 -0.91317439 0.0085449228
-0.069606885 0.060138322 -0.0033815056 -0.29002157 0.88380581 -0.36711696 0.026975268
-0.068601392 0.060220614 -0.0034443229 0.1409653 0.9124831 -0.38406166 0.048527583
0.065308899 0.06122737 -0.0035646912 -0.58911908 0.33403206 -0.73577255 0.013189315
0.067234799 0.06160216 -0.0045969142 -0.46692982 0.30492294 -0.83005935 0.01923364
0.069436952 0.062111288 -0.0048616272 -0.40373361 0.25882772 -0.87750065 0.0095983008
0.065920442 0.063393667 -0.0032893668 -0.83382255 0.24735011 -0.49351591 0.026318429
0.067336254 0.06449987 -0.0039190766 -0.47298494 0.19919945 -0.85825682 0.015217766
0.070064992 0.06482999 -0.0045573991 -0.46600997 0.1644171 -0.86936855 0.010405007
0.067840502 0.067341626 -0.0037349486 -0.58509821 0.1216166 -0.80179149 0.017774804
0.070053674 0.067706704 -0.0044704233 -0.47804508 0.14117669 -0.86691529 0.01294802
0.068160079 0.070395052 -0.0035817185 -0.77241582 0.11050382 -0.62542999 0.037013788
0.07015498 0.070686564 -0.004536863 -0.49592707 0.063483916 -0.86604053 0.016999088
0.072771333 0.070457168 -0.0044141612 -0.26282942 -0.015615066 -0.96471596 0.0077828532
0.068414658 0.073395491 -0.0035175011 -0.72557884 0.082939446 -0.68312252 0.026037283
0.070243597 0.073558912 -0.0046829907 -0.52678812 0.00986527 -0.84993941 0.02555106
0.072897777 0.07380154 -0.0051411809 -0.45636293 0.025548853 -0.88942689 0.014199124
0.06860064 0.075800002 -0.0034753941 -0.78257519 0.17962161 -0.5960806 0.078717902
0.070004418 0.075752884 -0.0045796838 -0.64292276 0.15935095 -0.74917126 0.04490586
0.072159834 0.075129502 -0.0054861163 -0.52321935 -0.079186723 -0.84851104 0.036875375
-0.016305929 0.0027493425 -0.001453456 -0.26135907 -0.9518072 -0.16048153 0.0015168771
-0.013327644 0.0020572499 -0.0017746789 -0.2096505 -0.95822084 -0.19457512 0.0023216731
-0.010465153 0.0014560788 -0.0015790648 -0.16395785 -0.97429901 -0.15446471 0.0026621502
-0.0074821659 0.00098736398 -0.0016028448 -0.13093702 -0.97841382 -0.15988082 0.003830466
-0.0045256973 0.00066010992 -0.0016735976 -0.078878649 -0.98989761 -0.11781694 0.0045248233
-0.0014946081 0.00042502885 -0.0016112076 -0.05757238 -0.9947176 -0.084984034 0.0028574597
0.001505581 0.00031231542 -0.0015848217 -0.028201265 -0.99620849 -0.08230041 0.0031533223
0.0043374132 0.00031714543 -0.0018162265 0.0080186035 -0.99030071 -0.13870937 0.004074445
0.0074069803 0.00038498489 -0.0016466497 0.037128028 -0.98909605 -0.14251499 0.0029557026
0.010263277 0.00057244505 -0.0017123823 0.078077398 -0.98718548 -0.13917147 0.0026001851
0.013332829 0.0008660155 -0.0017015255 0.11713926 -0.97700852 -0.17813677 0.0037856088
0.01605276 0.0012193953 -0.0017556443 0.13503884 -0.97730523 -0.16321471 0.0025965383
0.019349594 0.0017485116 -0.0017141653 0.176419 -0.97244561 -0.15240051 0.0011861529
0.023010362 0.0024670113 -0.0014001697 0.2152653 -0.96288574 -0.16282475 0.0018176496
0.024522327 0.0028190622 -0.0015915552 0.22523536 -0.96308804 -0.14741285 0.0016068921
-0.024978803 0.0057159718 -0.0015123548 -0.350357 -0.91935605 -0.17898202 0.00072124187
-0.022302441 0.0047165826 -0.0015802333 -0.3195655 -0.93044633 -0.17929728 0.00053555908
-0.019551655 0.0037380396 -0.0015580039 -0.30363092 -0.93855995 -0.16405323 0.00058102945
-0.017532263 0.0031621908 -0.0020124568 -0.28541169 -0.9463715 -0.15139768 0.00096413447
0.026229449 0.0033220854 -0.0023932494 -0.38060468 0.085197911 -0.9208048 0.0025212911
0.02826447 0.0038595702 -0.0023970515 0.24799539 -0.93151593 -0.26603833 0.0010514434
0.031553533 0.0047829715 -0.0019213097 0.27228132 -0.92098707 -0.27864987 0.00060568569
-0.03134219 0.008284064 -0.001511861 -0.37315193 -0.90140742 -0.21959592 0.00092851091
-0.028412802 0.0070954119 -0.001590677 -0.35864508 -0.90989465 -0.20848358 0.00073573366
-0.026380327 0.0062654838 -0.0016011805 -0.36353216 -0.90954787 -0.20141293 0.0013771539
-0.039318111 0.011874753 -0.0011285598 -0.45229381 -0.85796392 -0.24357392 0.0021190706
-0.037547644 0.011065929 -0.0016256577 -0.4150441 -0.88173366 -0.22424102 0.0010170377
-0.034529194 0.009650412 -0.0015221871 -0.39195943 -0.8872816 -0.24310312 0.001298685
-0.043315932 0.014224569 -0.0014736872 -0.51333606 -0.83271581 -0.20753416 0.0020105522
-0.040862229 0.012796412 -0.0016062461 -0.46731839 -0.84991169 -0.24344127 0.0020459744
-0.048230175 0.017597986 -0.0012848126 -0.58170968 -0.78182065 -0.22443362 0.001733712
-0.046491999 0.016371189 -0.0015457021 -0.56041533 -0.79350948 -0.23722842 0.0031255132
-0.044800486 0.015294631 -0.0020974576 -0.55447412 -0.79900378 -0.23270436 0.0030154267
-0.051827241 0.020317415 -0.0015535025 -0.5924378 -0.78092492 -0.19792351 0.001589036
-0.049789619 0.018793836 -0.0015954712 -0.58100593 -0.77924019 -0.23498261 0.0015598014
-0.055370841 0.022989696 -0.0015358139 -0.59780353 -0.78053606 -0.18274111 0.0011624473
-0.053361189 0.02148444 -0.0016938894 -0.59588581 -0.77113551 -0.22421013 0.0026052061
-0.060077421 0.026837301 -0.0011291906 -0.68996263 -0.70016468 -0.18363297 0.00053411094
-0.058516935 0.025556369 -0.0015707231 -0.645091 -0.74120075 -0.18568558 0.00065843138
-0.05680592 0.024194414 -0.0022000705 -0.62632173 -0.75499988 -0.19415498 0.0010582225
-0.063076168 0.029936552 -0.0010240743 -0.74283135 -0.65214628 -0.1513499 0.0013463027
-0.061536524 0.02842938 -0.0015535277 -0.71112698 -0.679932 -0.17885976 0.00084368204
-0.059915967 0.027115513 -0.0028760775 -0.66789085 -0.70506871 -0.23832768 0.0021767062
-0.064328872 0.031537395 -0.0015534569 -0.76059848 -0.62954456 -0.15863019 0.0015503672
-0.062864795 0.030049913 -0.0027902832 -0.72590035 -0.63396132 -0.26676145 0.0014522863
0.0012621285 0.032886773 -0.0027279169 0.050613429 0.98854333 -0.14219868 0.0023669014
0.0040889918 0.032883793 -0.0021104482 0.0188554 0.99496138 -0.098469771 0.0026732343
0.0070507121 0.032889131 -0.0019647281 -0.043283988 0.9935295 -0.10500337 0.0026802341
0.0098906588 0.032961272 -0.002633783 -0.090272799 0.98877919 -0.1190233 0.0023229732
-0.066938348 0.034806777 -0.0015281352 -0.80120319 -0.58188969 -0.13956293 0.0025557869
-0.065727472 0.033340584 -0.0018367535 -0.78068668 -0.60901493 -0.14010425 0.0017103736
-0.0065884497 0.033702377 -0.0029173517 0.16871467 0.91820168 -0.35838684 0.0015120832
-0.0014249752 0.033266563 -0.0015497436 0.11781369 0.97717345 -0.17678235 0.0012723714
0.0019673423 0.033050213 -0.00099242944 0.051930074 0.99184561 -0.11638579 0.0025460543
0.0056724609 0.033030063 -0.00034820777 -0.0039828275 0.99991423 -0.012482299 0.00067759748
0.0085540339 0.03308038 -0.00073518505 -0.031752035 0.99941605 -0.012625284 0.00093656377
0.010540005 0.033169508 -0.0014099127 -0.067842491 0.99649578 -0.048923921 0.0042519374
0.01354353 0.033467446 -0.0013484453 -0.11703884 0.98902148 -0.090213433 0.00286305
0.016580584 0.033986915 -0.0015949829 -0.20692924 0.97176135 -0.11340271 0.0032962456
0.01951197 0.034708127 -0.0015135648 -0.25911742 0.96200031 -0.086102046 0.0017908444
0.022482157 0.035443984 -0.002094256 -0.26883969 0.93830997 -0.21748456 0.0013303144
0.024068911 0.035806302 -0.0028168187 -0.24637355 0.96337956 -0.10582959 0.0022868952
-0.069398776 0.038291577 -0.0014305394 -0.85230881 -0.50563729 -0.13379306 0.0047634426
-0.068416364 0.036866426 -0.0016998298 -0.81527287 -0.56720412 -0.11666033 0.0025767016
0.025526943 0.036419239 -0.0014321184 -0.29276827 0.95406628 -0.063594744 0.0032425087
0.029065005 0.037541978 -0.0018610486 -0.32638827 0.92115736 -0.21199021 0.0017732081
0.031406794 0.038381916 -0.0017254726 -0.36749169 0.92390251 -0.10655548 0.0026456933
-0.070593752 0.040454328 -0.0015878711 -0.88613391 -0.44525504 -0.12850925 0.0036344652
0.032883525 0.039061416 -0.00075921929 -0.38805488 0.91819185 -0.0796066 0.0040597264
0.034649529 0.03978885 -0.0017053272 -0.42512441 0.89805478 -0.11299068 0.0029560896
0.037341047 0.041255742 -0.0015321446 -0.49357018 0.86400551 -0.099413648 0.0023324359
-0.072282739 0.044247627 -0.0012851305 -0.9335292 -0.32767981 -0.14542726 0.006583163
-0.071680613 0.042901527 -0.001836839 -0.90515792 -0.40090549 -0.14129391 0.0049837683
0.038905919 0.04224012 -0.0010711908 -0.5082882 0.85906506 -0.060418118 0.0040530125
0.040631115 0.043277364 -0.0015222359 -0.52134061 0.84631002 -0.10937737 0.0026227052
0.04269376 0.044587329 -0.0016495954 -0.54102898 0.83630121 -0.088814177 0.002393906
-0.073007882 0.046562392 -0.00158611 -0.93235129 -0.29639867 -0.20704791 0.0090267574
0.044163715 0.045594998 -0.0013630204 -0.52631962 0.84540933 -0.09094362 0.0027076353
0.046481363 0.047073454 -0.001597608 -0.5398891 0.83352196 -0.11730688 0.0033555198
-0.075056419 0.05092933 -0.00070552045 -0.89257139 -0.43411189 -0.12191503 0.019424399
-0.074105933 0.049535543 -0.0016295688 -0.90452695 -0.33796415 -0.26002145 0.016522827
0.047896966 0.048114531 -0.00046208259 -0.54701436 0.83092928 -0.10164598 0.0047064251
0.04937318 0.04897479 -0.0016678788 -0.53740495 0.83222592 -0.13636658 0.0029898393
0.051641867 0.050504111 -0.0017912253 -0.55082488 0.82376665 -0.13416575 0.0033404734
-0.075595737 0.052670553 -0.0014351071 -0.91447937 -0.29732877 -0.27445063 0.015040862
-0.074746221 0.051592503 -0.0025054365 -0.87428468 -0.30511016 -0.3775368 0.01413599
