# .PCD v0.7 - Point Cloud Data file format
VERSION 0.7
FIELDS x y z normal_x normal_y normal_z curvature
SIZE 4 4 4 4 4 4 4
TYPE F F F F F F F
COUNT 1 1 1 1 1 1 1
WIDTH 546
HEIGHT 1
VIEWPOINT 0 0 0 1 0 0 0
POINTS 546
DATA ascii
-0.031608284 -0.0073964316 -0.0073707313 0.2134857 -0.15042575 -0.96529579 0.00051194069
-0.028458549 -0.0074843522 -0.0065200035 0.25959867 -0.15052029 -0.95391411 9.690466e-05
-0.026450107 -0.0066583143 -0.0060773566 0.266202 -0.13771541 -0.95402879 7.5461307e-05
-0.037492663 -0.0044945865 -0.0071568512 -0.66294783 -0.022934899 -0.7483142 0.033561215
-0.034647856 -0.0045159771 -0.0082173022 -0.23898193 -0.10318927 -0.96552557 0.040696103
-0.0315683 -0.0045298007 -0.0077823456 0.21460274 -0.10385815 -0.97116387 0.00077463454
-0.028673282 -0.0044185552 -0.0069993176 0.26439354 -0.10795506 -0.9583537 0.00011070274
-0.026160205 -0.0043420382 -0.0062859594 0.26668799 -0.10824188 -0.95768535 9.0684138e-05
-0.037421346 -0.0014977768 -0.0073212297 -0.74752045 0.05634243 -0.66184491 0.042960797
-0.034701291 -0.0015043173 -0.0084509412 -0.2856836 -0.064941078 -0.95612109 0.060328234
-0.031597082 -0.0014391738 -0.0080473134 0.13592605 -0.04829783 -0.98954099 0.0084910067
-0.028372295 -0.0015677604 -0.0071579902 0.26243064 -0.046485804 -0.96383047 0.00018255411
-0.025497442 -0.0014429506 -0.006361837 0.26569173 -0.051872838 -0.9626615 0.00031910173
-0.037478466 0.0015619445 -0.0072711967 -0.77364016 -0.03433964 -0.63269407 0.043356109
-0.034777928 0.0015995409 -0.0084842714 -0.29980019 0.041254882 -0.95310956 0.06665846
-0.031673562 0.0014563203 -0.0080866804 0.13530482 0.018675027 -0.99062806 0.0091183381
-0.028377399 0.0015257401 -0.0071919947 0.2595759 0.02384006 -0.96542841 0.00017497064
-0.025389321 0.0014523057 -0.0063888691 0.26062727 0.012972099 -0.96535236 0.00024043203
-0.037437078 0.00454072 -0.0072172168 -0.69020969 -0.018792912 -0.72336537 0.03691411
-0.034663759 0.0045249737 -0.0083436808 -0.25654116 0.073616199 -0.96372575 0.050526652
-0.031636745 0.004552294 -0.0078654923 0.14531536 0.085694805 -0.98566729 0.00788261
-0.028631918 0.0043450859 -0.0070861299 0.24921101 0.080251262 -0.96511847 0.00012387351
-0.025771484 0.0044627953 -0.006333116 0.24315873 0.075630009 -0.96703357 0.0001120528
-0.037342463 0.0074775177 -0.0070400783 -0.58749759 0.06996353 -0.8061958 0.018035313
-0.034619424 0.0074136257 -0.0080275619 -0.19195355 0.12623112 -0.97325206 0.030925954
-0.031426538 0.0076148086 -0.007454535 0.20946984 0.12123558 -0.97027022 0.00035170946
-0.028460996 0.0075442004 -0.0067012017 0.23905548 0.11369381 -0.96432686 8.3745654e-05
-0.026118053 0.007192614 -0.0061619622 0.23543875 0.10686594 -0.96599603 6.264681e-05
-0.037305042 0.010371671 -0.0067950687 -0.56651968 0.042806488 -0.82293564 0.018885849
-0.034648459 0.010522964 -0.0075747371 -0.14857876 0.14464366 -0.97826511 0.028456928
-0.031495605 0.010524462 -0.007042069 0.19669345 0.15400672 -0.96829414 0.00026972033
-0.02852284 0.010403691 -0.0063529252 0.23034917 0.1451271 -0.96222526 0.0001285547
-0.02612783 0.009055661 -0.0060343896 0.23108478 0.10642986 -0.9670949 4.795846e-05
-0.036994413 0.01339314 -0.0065743937 -0.47834995 0.095997058 -0.87290657 0.012540012
-0.034605816 0.013459322 -0.0070302547 -0.082000732 0.15245216 -0.98490316 0.014063634
-0.031547986 0.013375043 -0.0065309741 0.18622763 0.18725787 -0.96449661 0.00017402165
-0.029380368 0.012931095 -0.0061454922 0.21140586 0.18157363 -0.96038461 9.669771e-05
-0.03667352 0.016150145 -0.0062447437 -0.42703202 0.14418426 -0.89266711 0.015787434
-0.034682956 0.016476523 -0.0064058932 -0.05371337 0.19814126 -0.97870058 0.010233563
-0.032311182 0.015713288 -0.0061855018 0.17728242 0.20200905 -0.96320468 0.00012910379
-0.036674745 0.018011678 -0.0060230521 -0.33106282 0.24760278 -0.91054398 0.029010573
-0.035245392 0.018317483 -0.0060751755 -0.036238149 0.19373456 -0.98038441 0.011612752
-0.040421233 0.04435299 -0.0070422324 -0.23234411 -0.77821952 -0.58342999 0.010675031
-0.037143048 0.044456318 -0.0072902883 -0.041269571 -0.8136729 -0.57985616 0.012309249
-0.034599036 0.044551563 -0.0068447464 0.13686505 -0.79265845 -0.59410489 0.0051201615
-0.031813852 0.044757232 -0.0064817187 0.15033965 -0.75579715 -0.63731366 0.0039291475
-0.029844064 0.044863861 -0.0061157621 0.14435832 -0.70376575 -0.69561088 0.0035257547
0.0024945871 0.044863541 -0.0063096415 -0.22728898 -0.78851992 -0.57146835 0.00021320774
0.0046667648 0.044556033 -0.0067426548 -0.21229917 -0.80569327 -0.55298042 0.00020623593
0.0075013 0.044215288 -0.0071986131 -0.17291348 -0.82108736 -0.54398191 0.0001219194
0.01045553 0.043913435 -0.0076191504 -0.13682641 -0.83598417 -0.53142166 0.00016845064
0.013454609 0.043531504 -0.0076375366 -0.085589856 -0.85313845 -0.51461554 0.00028278385
0.016322395 0.043269172 -0.0075923479 -0.028247612 -0.87820208 -0.47745496 0.00095219869
0.019360976 0.043233469 -0.0075798538 0.022084942 -0.90343344 -0.42815912 0.001549821
0.022507546 0.043494444 -0.007603378 0.11658582 -0.93112475 -0.3455641 0.002954524
0.025361346 0.043888703 -0.0074497559 0.15511419 -0.94951648 -0.27268675 0.002189463
0.028113024 0.044528902 -0.007791684 0.16952699 -0.95384943 -0.24785447 0.0015954582
-0.051911805 0.046572026 -0.0075189602 -0.76447248 -0.59010792 -0.25952744 0.051787723
-0.049875032 0.045987841 -0.007950115 -0.11626805 -0.90371847 -0.41203725 0.045621097
-0.046162292 0.046667233 -0.0077737593 0.061649617 -0.60241783 -0.79579651 0.034271318
-0.043606579 0.046512242 -0.0079283612 -0.18895954 -0.6566152 -0.73017168 0.020387204
-0.04058348 0.046039879 -0.0080256136 -0.2404246 -0.73008949 -0.6396603 0.015158098
-0.037244838 0.045413803 -0.0087481719 -0.022848319 -0.61907715 -0.78499776 0.014784615
-0.034541573 0.045766938 -0.0084038051 0.18297267 -0.60125315 -0.7778275 0.008889637
-0.031420406 0.04632096 -0.0080386512 0.21390663 -0.60920596 -0.76361769 0.0082272748
-0.028505608 0.046620533 -0.0075204745 0.18928842 -0.52906287 -0.82720155 0.0073896833
-0.025582189 0.046797987 -0.0069839987 0.15683363 -0.57220292 -0.80497634 0.0065473467
-0.022583758 0.047106702 -0.0065910402 0.14625421 -0.53950089 -0.82918543 0.0051218551
-0.019663105 0.047518834 -0.0063240998 0.12105986 -0.53680897 -0.83497345 0.0044685476
-0.017186644 0.047807738 -0.0061723758 0.099074155 -0.5201717 -0.84829575 0.0067136171
-0.013511288 0.047867447 -0.006078816 0.0074887997 -0.55970532 -0.82865793 0.0032684293
-0.0098543856 0.04780934 -0.0060967184 -0.07247895 -0.58735943 -0.80607426 0.0029590644
-0.0073242374 0.047647532 -0.0063535273 -0.15109482 -0.60574967 -0.78117704 0.0031964015
-0.0043402654 0.047269613 -0.0067625321 -0.20892636 -0.64047718 -0.73901206 0.0032579193
-0.0013913751 0.046918795 -0.0073969862 -0.27297199 -0.70062488 -0.65925044 0.002914448
0.001406856 0.046148848 -0.0076114885 -0.251737 -0.77491605 -0.57977027 0.00057998678
0.0041696667 0.045680791 -0.0081833592 -0.22595765 -0.79777384 -0.559017 0.00020183036
0.0070317765 0.045301277 -0.0087016551 -0.18474907 -0.81960434 -0.54232508 0.00013754814
0.030931396 0.045276996 -0.0079976115 0.18779542 -0.95100123 -0.24562091 0.0010263275
-0.052307803 0.049417049 -0.0079896571 -0.89034748 -0.23481956 -0.39005271 0.075111441
-0.04807844 0.048111536 -0.0088922409 0.30782372 -0.60130286 -0.73734629 0.021857942
-0.046513557 0.049104646 -0.0088731973 0.066188894 -0.10768563 -0.99197918 0.043568209
-0.044809077 0.048237853 -0.008955406 -0.050240245 -0.24019147 -0.96942461 0.022639006
-0.030184768 0.048347149 -0.0089320187 0.24398039 -0.32322446 -0.91433012 0.026779549
-0.028135238 0.049283955 -0.0087028891 0.26839691 -0.19392921 -0.94358599 0.0076351478
-0.025502967 0.049476713 -0.0081484774 0.19779755 -0.21591312 -0.95616817 0.0064640655
-0.022543311 0.049518466 -0.0075908438 0.15134186 -0.27833977 -0.94848442 0.0088749127
-0.01945571 0.049548626 -0.0070981556 0.1134801 -0.27616441 -0.95438749 0.0068541081
-0.016395001 0.049463686 -0.0067566633 0.071949996 -0.31224778 -0.94727224 0.0064941533
-0.013476978 0.049506694 -0.0066915266 -0.025391983 -0.35766762 -0.93350369 0.0054289936
-0.010492883 0.049573619 -0.0069141742 -0.12633601 -0.39970386 -0.90789646 0.0051075295
-0.0074553243 0.049539823 -0.0074513033 -0.23361598 -0.4486334 -0.86264223 0.0065436936
-0.0046753772 0.049350068 -0.0082203401 -0.29989284 -0.50191599 -0.81126118 0.0062009487
-0.002293078 0.048511159 -0.0086439205 -0.34347621 -0.63610023 -0.69094175 0.0043934695
-0.052116707 0.052400935 -0.0075862929 -0.94278222 0.31137136 -0.11920374 0.078218184
-0.048241794 0.053011935 -0.0088294521 0.33254966 0.41637731 -0.84619188 0.0463477
-0.046289578 0.052674513 -0.0086736074 0.06602931 0.19102237 -0.97936231 0.030904844
-0.044212509 0.053579148 -0.0088059055 -0.13475667 0.35958919 -0.92332888 0.01787637
-0.030183628 0.053603865 -0.0089318436 0.18051426 0.16128847 -0.97025806 0.004394718
-0.028307423 0.052638873 -0.0087787146 0.20812114 0.11928746 -0.97080177 0.0038837222
-0.025504326 0.05253144 -0.0082656592 0.18153431 0.087185852 -0.97951204 0.0036733486
-0.022522993 0.052490067 -0.0078230472 0.13450876 0.11234484 -0.98452324 0.0069900532
-0.019532306 0.052474499 -0.0074362145 0.09991844 -0.0057243896 -0.9949792 0.0064072409
-0.016550666 0.052513003 -0.0072599542 0.013027505 -0.08058992 -0.9966622 0.0062084682
-0.013487202 0.052506533 -0.0073351674 -0.077325568 -0.054431599 -0.99551892 0.0082286717
-0.010417905 0.052515805 -0.0077247247 -0.21727699 -0.14880101 -0.96470141 0.0060215197
-0.0075524137 0.052408755 -0.0084538395 -0.3127282 -0.22159514 -0.92363232 0.0068044611
-0.0057177469 0.051523261 -0.0088166241 -0.37991846 -0.2806907 -0.88140494 0.0051391525
-0.051659178 0.054891363 -0.007422233 -0.85156125 0.50326908 -0.14684561 0.069924302
-0.049434595 0.055467524 -0.0077743279 0.024002628 0.8633194 -0.50408691 0.088894546
-0.046177935 0.054632585 -0.0076495293 0.18541935 0.58941966 -0.78625959 0.033084687
-0.043658122 0.054817285 -0.0078944797 -0.15412968 0.67205215 -0.72428584 0.018755117
-0.040426228 0.055751059 -0.0078404099 -0.28725091 0.67004752 -0.68448758 0.023687532
-0.037789032 0.056541029 -0.0077440985 -0.12814991 0.30819136 -0.94265354 0.011409317
-0.034745198 0.056225371 -0.0085561527 0.050355848 0.60687006 -0.79320431 0.017182002
-0.031397123 0.055725705 -0.0083621796 0.1354465 0.43312576 -0.89109838 0.0052348785
-0.028484067 0.055492017 -0.0080412244 0.13940145 0.36023203 -0.92238826 0.0044267816
-0.025448484 0.055475611 -0.0076034465 0.11470899 0.36165166 -0.92522961 0.0063973474
-0.022440335 0.055461098 -0.0072596767 0.08897192 0.32417691 -0.94180322 0.006458607
-0.019377468 0.055462625 -0.0070113861 0.04317135 0.26076537 -0.96443641 0.0046634972
-0.016453356 0.055507917 -0.0069735548 -0.023429876 0.21401551 -0.97654927 0.0041949428
-0.013427756 0.055435061 -0.0072101834 -0.12432985 0.18368424 -0.97509092 0.0056664832
-0.010422413 0.055569947 -0.0077748303 -0.27559838 0.089456841 -0.9571014 0.0054276823
-0.0079824617 0.055496365 -0.0085916119 -0.4214862 0.041510809 -0.90588421 0.0058779414
-0.040615465 0.057471454 -0.0065430882 -0.2224012 0.8004021 -0.55668128 0.014417789
-0.037560679 0.057528272 -0.0070592323 -0.12568225 0.78937536 -0.6009081 0.007897079
-0.034482479 0.057665229 -0.0069799135 0.015270722 0.77846086 -0.62750739 0.008791063
-0.031494729 0.057750735 -0.0068014702 0.029726703 0.69864416 -0.7148515 0.0093528461
-0.02878187 0.057671636 -0.0067808963 0.089431666 0.58021194 -0.80954069 0.0058335364
-0.025653601 0.057641242 -0.0065565691 0.064282075 0.57575428 -0.81509197 0.0092560733
-0.022689378 0.057678048 -0.0063361195 0.027285974 0.56018364 -0.82791889 0.0068261083
-0.019515535 0.057488579 -0.0063348166 -0.0041219671 0.48946586 -0.87201273 0.0059321034
-0.016441546 0.057624221 -0.0063570677 -0.062896177 0.42956215 -0.90084434 0.0061425776
-0.013340422 0.058267165 -0.0064760949 -0.16769017 0.37966469 -0.90979934 0.0066609047
-0.010438658 0.058500241 -0.0071165138 -0.2846483 0.32740644 -0.90098852 0.0066713491
-0.0076323934 0.058661368 -0.0082607912 -0.45060492 0.25127059 -0.85663199 0.0062392023
-0.0099056894 0.060605045 -0.0063348617 -0.30512044 0.53402978 -0.78848827 0.0041373777
-0.0073258504 0.061359685 -0.0071950271 -0.44547474 0.4602159 -0.76795417 0.0055970228
-0.0053296932 0.061815437 -0.008340098 -0.57381648 0.4124606 -0.70753855 0.0054307072
-0.006373039 0.063399531 -0.0062770057 -0.50603169 0.56376249 -0.65276617 0.0010199026
-0.0042841374 0.064191543 -0.0073961229 -0.57090539 0.52690172 -0.62963611 0.0015619128
-0.0023885712 0.065296724 -0.0082695195 -0.59616983 0.56192917 -0.57342583 0.00027358066
-0.0033075938 0.066319704 -0.0062874109 -0.56836402 0.57232171 -0.5911094 0.00046564848
-0.0013435468 0.067372821 -0.0073169176 -0.58458745 0.58609897 -0.56102186 0.00026266265
0.000678337 0.068529151 -0.0082159806 -0.56868458 0.61812377 -0.54269773 0.00015986526
-5.3399068e-05 0.06956467 -0.0062694889 -0.56800705 0.61903977 -0.54236317 0.00019315732
0.0017924915 0.070377134 -0.0071817897 -0.54991472 0.64235801 -0.53382581 0.00014343915
0.0038042702 0.071266592 -0.0081996163 -0.53253609 0.66202784 -0.52737498 0.00017021554
0.0047775111 0.072790131 -0.0071981591 -0.5086363 0.68608356 -0.52017164 0.00032763844
0.0071775862 0.074094243 -0.0077443416 -0.47632688 0.72632569 -0.49554396 0.00047248983
0.0093117412 0.074699968 -0.0087541826 -0.46569681 0.73739803 -0.48925516 0.00023995803
0.0083546834 0.075439483 -0.0067419237 -0.44777718 0.76866043 -0.45678961 0.0018566039
0.010347293 0.076164387 -0.0074876454 -0.43790144 0.78272694 -0.44224524 0.00093804748
0.013121746 0.07729391 -0.0080515575 -0.40111706 0.82555258 -0.39694834 0.0012289825
0.015050371 0.077759959 -0.0089627393 -0.40757713 0.81977916 -0.4022972 0.001452109
0.014101148 0.078152172 -0.0067318948 -0.3674393 0.87480915 -0.31574896 0.0026750003
0.016458659 0.078754693 -0.0075608147 -0.35670194 0.88685048 -0.29370043 0.0015087313
0.019197024 0.079550311 -0.0080800178 -0.30896401 0.92521971 -0.22024913 0.0016698564
0.022581834 0.08053571 -0.007992764 -0.28787535 0.93861109 -0.19009732 0.0016538879
0.025169495 0.081114464 -0.0074609024 -0.18326585 0.98304355 -0.0062466362 0.0034574261
0.027217567 0.081510343 -0.0077698948 -0.098490313 0.99496353 -0.018635996 0.0030876633
0.014342231 -0.078200884 -0.0044844579 -0.27091923 -0.95524704 -0.11876836 0.002805101
0.015754787 -0.078514822 -0.0048605185 -0.28957102 -0.93728215 -0.1940383 0.0013851104
0.019465741 -0.079388246 -0.0046422095 -0.19623497 -0.98052895 0.0074070143 0.0020409413
0.022791907 -0.079926044 -0.0047317622 -0.20101896 -0.97958088 0.0035651231 0.0020868592
0.024970135 -0.080324382 -0.0052755713 -0.19935668 -0.97990155 0.0070661642 0.0018546466
0.0056385971 -0.075268053 -0.0032830916 -0.45190141 -0.79201108 -0.41049194 0.0022355658
0.0076186471 -0.075657733 -0.0045257951 -0.41689727 -0.8223452 -0.38722727 0.0021394361
0.010348046 -0.076761901 -0.0047508664 -0.36743164 -0.8806774 -0.29900053 0.0017631208
0.012908776 -0.07773748 -0.0044819964 -0.34388652 -0.90453976 -0.25209096 0.0022215853
0.0019346625 -0.072587408 -0.0039836532 -0.50825036 -0.69675714 -0.5061729 0.00098572264
0.004271558 -0.073633693 -0.0047832117 -0.46823442 -0.75438523 -0.46006462 0.00093057816
0.0066802772 -0.074753687 -0.0054419776 -0.42871994 -0.80758643 -0.40497324 0.0023622026
-0.0010526679 -0.069978319 -0.0041086371 -0.54245251 -0.63170254 -0.55380237 0.00030284087
0.0010254862 -0.071030617 -0.0049825017 -0.53673816 -0.65850282 -0.52752841 0.00046150936
-0.0063476637 -0.06628596 -0.0032420817 -0.46073338 -0.61290646 -0.64192706 0.00073513534
-0.0041494593 -0.067201078 -0.0041455789 -0.5269621 -0.6011048 -0.60081935 0.00065545744
-0.0020635927 -0.06822405 -0.0050576474 -0.55489641 -0.60652161 -0.56940454 0.00027505911
-0.009859235 -0.063568212 -0.0034771741 -0.34599257 -0.62490475 -0.69984502 0.00089596672
-0.0073243459 -0.064285152 -0.0043443297 -0.44968209 -0.58315217 -0.67654973 0.0012281215
-0.0050206552 -0.065198056 -0.0052671195 -0.53368974 -0.58097279 -0.61452901 0.00071004039
-0.025599537 -0.060142845 -0.0031972423 -0.07368125 -0.78311723 -0.61749369 0.00082602684
-0.022154603 -0.060282465 -0.003428956 -0.080571666 -0.74051005 -0.66719794 0.0013464626
-0.01955794 -0.060417432 -0.0035292737 -0.1028733 -0.70759785 -0.69908684 0.0017222203
-0.016360171 -0.060717117 -0.0038017379 -0.15362434 -0.64860857 -0.74545717 0.0023397838
-0.013360572 -0.061131608 -0.0042125601 -0.23095725 -0.61755174 -0.7518568 0.0025532132
-0.010593397 -0.061680898 -0.0047903811 -0.32246059 -0.57239169 -0.75391436 0.0029940356
-0.0081281811 -0.062362611 -0.0055099004 -0.43597102 -0.5908609 -0.67883188 0.0010501815
-0.042813022 -0.057584573 -0.0038748404 -0.29875433 -0.87194586 -0.38788694 0.042422138
-0.040526718 -0.057895944 -0.0045598648 -0.30375585 -0.86861157 -0.39146686 0.029513858
-0.037521046 -0.058287658 -0.0045127161 -0.12287369 -0.89195585 -0.43510547 0.0038381864
-0.034541875 -0.058486469 -0.0046395045 -0.066511519 -0.87480438 -0.47988909 0.0017098549
-0.031513076 -0.058870859 -0.0043779705 -0.041111458 -0.86278856 -0.50389057 0.001011438
-0.028546926 -0.05898267 -0.0044720042 -0.041067071 -0.82176292 -0.56834775 0.0016670388
-0.025183326 -0.058967561 -0.0046387496 -0.022325955 -0.71725422 -0.69645375 0.0061862008
-0.022447573 -0.058884326 -0.0048965164 -0.011518627 -0.67170334 -0.74073064 0.0071049281
-0.019359693 -0.058716629 -0.0052001779 -0.03595034 -0.56856358 -0.8218534 0.005044193
-0.016517211 -0.058828145 -0.0054013222 -0.12043611 -0.53781044 -0.83441895 0.0054663792
-0.01372724 -0.05928022 -0.0056106071 -0.19794133 -0.52076894 -0.83043295 0.0049369219
-0.011586216 -0.059856713 -0.005816895 -0.30198765 -0.51556218 -0.80187219 0.0035699205
-0.051375557 -0.054903492 -0.0043079779 -0.81793869 -0.57261264 -0.05559719 0.045172077
-0.049679209 -0.055817667 -0.0048894668 -0.3237257 -0.92537832 -0.19717161 0.060691368
-0.046562895 -0.055957183 -0.0043005003 -0.11816791 -0.93679416 -0.32932213 0.016572772
-0.043326043 -0.056373812 -0.0040156124 -0.2407487 -0.87727994 -0.41523477 0.036517233
-0.041510571 -0.056360435 -0.0054218899 -0.30390283 -0.80655438 -0.50706315 0.030700536
-0.037036456 -0.056556515 -0.0054358337 0.052942179 0.84900838 0.52572042 0.011455294
-0.051750273 -0.052481595 -0.0044093011 -0.98263872 -0.18549471 0.0035963599 0.017942948
-0.051938236 -0.049478602 -0.0044601411 -0.99939603 0.024344243 0.024797836 0.0025699975
-0.051807407 -0.046535403 -0.004475432 -0.95673758 0.27246743 -0.10205294 0.042830735
-0.024035281 -0.045004133 -0.0055347336 0.13922821 0.65609121 -0.74172765 0.00094249216
-0.022608554 -0.045286026 -0.0055868714 0.12477074 0.61152768 -0.78132337 0.0041523352
-0.019403065 -0.045806069 -0.0054694079 0.11285251 0.56532639 -0.81711096 0.0058992836
-0.016422004 -0.046061862 -0.0052869469 0.070318162 0.56731576 -0.82049263 0.0045308
-0.013469639 -0.046174463 -0.0051765409 0.014238278 0.57558012 -0.81762147 0.0038138547
-0.010527744 -0.04608855 -0.0051543512 -0.051108927 0.59286863 -0.80367571 0.0036456508
-0.007543514 -0.045877099 -0.0052828044 -0.11356757 0.65290546 -0.74887705 0.0016604117
-0.0046293866 -0.045455296 -0.0054177917 -0.15545483 0.70847142 -0.68840545 0.0012766457
-0.0020354015 -0.045174409 -0.0056930706 -0.20466565 0.74544698 -0.63436639 0.0011567398
-0.051463157 -0.044456605 -0.0042193308 -0.82248735 0.54449695 -0.16443129 0.03481723
-0.049478572 -0.044173125 -0.004381272 -0.30945495 0.909989 -0.27596673 0.052972302
-0.046520352 -0.044203989 -0.0044713477 -0.040032402 0.91096693 -0.41053224 0.0049717715
-0.043162003 -0.043495905 -0.0042312122 -0.25971168 0.79632932 -0.54626858 0.01118976
-0.041079339 -0.04318133 -0.0049472242 -0.16972607 0.79720521 -0.57935899 0.010778014
-0.037654266 -0.042464271 -0.0042668893 -0.013079777 0.74002683 -0.67245018 0.028144093
-0.034526464 -0.042683035 -0.0044208164 -0.0018024713 0.62741286 -0.77868468 0.023547823
-0.031571489 -0.04286601 -0.0043226988 0.059036266 0.707497 -0.7042461 0.0098784855
-0.028590016 -0.04318127 -0.0042952406 0.083162844 0.69029576 -0.718732 0.0076922104
-0.025483638 -0.043472867 -0.0042014359 0.10375366 0.63679665 -0.76401913 0.0039249645
-0.022479922 -0.0436817 -0.003939596 0.10833226 0.60915148 -0.78561985 0.0028306672
-0.019539086 -0.043935955 -0.0037462434 0.098989591 0.59473503 -0.797804 0.0031080868
-0.016528478 -0.044221044 -0.0036571592 0.071465909 0.59700012 -0.79905164 0.0021715045
-0.013497886 -0.044341397 -0.003564331 0.026665032 0.62253594 -0.7821368 0.00062072813
-0.010364118 -0.044284176 -0.0035292271 -0.028547043 0.62716842 -0.77836043 0.0012570308
-0.0074978466 -0.044203367 -0.0036811845 -0.073917508 0.66429818 -0.74380374 0.00065983925
-0.0044072606 -0.044077288 -0.0039782408 -0.10014878 0.70541239 -0.70168638 0.00074358966
-0.0014357051 -0.043903697 -0.0043248939 -0.15011908 0.75605494 -0.63705981 0.0015357506
0.0014607996 -0.043372527 -0.0045166519 -0.19849235 0.7804845 -0.59282774 0.00070531224
0.0043426771 -0.042800102 -0.0048944936 -0.20017523 0.80131578 -0.5637579 0.00027796719
0.0074371099 -0.042472333 -0.0054193102 -0.15885974 0.82237118 -0.54632336 0.00017761381
0.010198704 -0.042201132 -0.0057039876 -0.12067118 0.84355116 -0.52331626 0.00019916701
0.020931402 -0.042177182 -0.0059556668 0.10624619 0.94204932 -0.31820562 0.0028801234
0.022579145 -0.04227389 -0.0053051971 0.16033384 0.9541648 -0.25271034 0.002818038
0.025263701 -0.042785786 -0.0047011087 0.18853237 0.95652759 -0.22250947 0.0010876041
0.028531071 -0.043770578 -0.0045013153 0.24324134 0.96054488 -0.13485993 0.00066188129
-0.042966545 -0.041942649 -0.0030914275 -0.34302604 0.72174805 -0.60117626 0.021450458
-0.040038008 -0.041908029 -0.003157831 -0.12485092 0.71427923 -0.68863446 0.029801374
-0.037260119 -0.041642707 -0.0031930536 -0.059163526 0.37246206 -0.92615962 0.033223141
-0.034567032 -0.041595526 -0.0032470804 -0.015776083 0.37067398 -0.9286291 0.029796958
-0.031513166 -0.041679382 -0.0031691978 0.044871926 0.38562918 -0.92156208 0.014763951
-0.028838674 -0.041793238 -0.0030653318 0.045853987 0.55902094 -0.82788461 0.01565983
0.0028406808 -0.041871727 -0.0030617539 -0.16986524 0.78598398 -0.59445351 0.00058124319
0.0046332669 -0.041679621 -0.0033931816 -0.1753336 0.79396981 -0.58212543 0.000972368
0.0075841122 -0.04144631 -0.0038552873 -0.13354191 0.83238286 -0.53787106 0.00041098066
0.010511893 -0.041280646 -0.0043088202 -0.090369672 0.85776174 -0.50604153 0.00092381734
0.013293023 -0.041233558 -0.004656184 -0.046140924 0.87876517 -0.47501868 0.0016634135
0.016143123 -0.041443858 -0.0050840243 0.011642428 0.90673542 -0.42153928 0.0028990619
0.0192152 -0.041472409 -0.0043867161 0.10601329 0.93860477 -0.32830215 0.0026034371
0.021581814 -0.041801315 -0.0040414431 0.17766877 0.95166403 -0.25053826 0.0022856088
-0.036972109 -0.031139167 -0.0031541984 -0.18684183 -0.12036964 -0.97498786 0.017483769
-0.035180937 -0.030877674 -0.0031347342 0.031549979 -0.12212283 -0.99201345 0.0032778543
-0.037437465 -0.028424487 -0.0034511171 -0.2571865 -0.12018133 -0.9588595 0.013126227
-0.034604114 -0.02844044 -0.0034417177 0.082867458 -0.13792339 -0.98697019 0.0013803178
-0.032166868 -0.027866004 -0.0031260673 0.13716869 -0.15024732 -0.97908658 0.00026966006
-0.039155081 -0.024941752 -0.0031171523 -0.43867546 -0.093508936 -0.89376724 0.027466318
-0.0375707 -0.025468634 -0.0038835139 -0.36362195 -0.10175809 -0.92597204 0.029499471
-0.034481835 -0.025497934 -0.0039867903 0.027221255 -0.17004074 -0.98506099 0.0060379333
-0.031453136 -0.025521168 -0.0034245325 0.1474812 -0.1645609 -0.97527891 0.0002819353
-0.028675362 -0.024870193 -0.0031413131 0.13005392 -0.15273476 -0.97967249 0.00021035895
-0.026579324 -0.024456566 -0.003030709 0.10725165 -0.11922652 -0.98705733 0.00017211153
-0.039263591 -0.022429198 -0.0033295497 -0.66264153 -0.043291427 -0.74768442 0.035466876
-0.037614845 -0.022397891 -0.0044050887 -0.40233752 -0.12777779 -0.90653044 0.030093407
-0.034490332 -0.022489766 -0.0046532494 0.0093342802 -0.21567529 -0.97642052 0.0090917712
-0.031426784 -0.022503221 -0.0040153749 0.17375968 -0.19297817 -0.96569508 0.00034565249
-0.028444504 -0.022495756 -0.0035073312 0.13718373 -0.15966932 -0.97759211 0.00019861451
-0.025734149 -0.022265136 -0.0031638816 0.13623756 -0.1499193 -0.97926682 0.0002421892
-0.023734909 -0.021686954 -0.0030258643 0.12239335 -0.12053935 -0.98513454 0.00016746213
-0.039384615 -0.019282898 -0.0035415019 -0.91500151 0.003065808 -0.40343875 0.025965502
-0.037633721 -0.019407453 -0.0049433256 -0.45267966 -0.16384378 -0.87649095 0.030912286
-0.034598619 -0.019533854 -0.0053613787 0.03188388 -0.23205367 -0.97218025 0.0077633685
-0.031552676 -0.019482432 -0.0047100517 0.19995894 -0.2130198 -0.95636755 0.00010629123
-0.028544664 -0.019580457 -0.00408233 0.17756641 -0.18810238 -0.96596462 0.00032173953
-0.025556147 -0.019556299 -0.0035686328 0.15724 -0.15784653 -0.97486407 0.00018217419
-0.022815546 -0.019081824 -0.0032045159 0.15642327 -0.14009157 -0.97770447 0.00022170227
-0.039450362 -0.01664211 -0.0037004643 -0.92441046 -0.021269683 -0.3808057 0.036280818
-0.037912816 -0.01663374 -0.00525739 -0.56476396 -0.12201424 -0.81618267 0.03532422
-0.034109008 -0.017252466 -0.0058039576 0.033975508 -0.25203139 -0.96712244 0.010501624
-0.031488836 -0.016481355 -0.0053975577 0.21037376 -0.21842809 -0.9529072 2.7168224e-05
-0.028536655 -0.016610952 -0.0047118594 0.20865175 -0.20283675 -0.95672441 0.00021955666
-0.025544159 -0.016403921 -0.0041248756 0.19107148 -0.17396589 -0.96603703 0.00032140137
-0.02258265 -0.016579943 -0.0035256164 0.17518127 -0.1369396 -0.97496623 0.00019760757
-0.020258484 -0.016268849 -0.0031460335 0.17507468 -0.12251265 -0.97690302 0.00013837971
-0.039264362 -0.013602412 -0.0042551714 -0.94589609 -0.033949893 -0.32268867 0.03407776
-0.038375974 -0.013623878 -0.0052775671 -0.8215366 -0.083609037 -0.56399214 0.033303026
-0.030734224 -0.014076891 -0.0057859286 0.21626508 -0.2100291 -0.95347637 5.8430189e-05
-0.028546482 -0.013597805 -0.0053689959 0.22847404 -0.19833222 -0.95313376 0.00010631442
-0.025426522 -0.013382408 -0.0046585319 0.22596669 -0.17782956 -0.95776606 0.00028282395
-0.022378428 -0.013540588 -0.0039394815 0.21206617 -0.14902675 -0.96582556 0.00023210414
-0.019621544 -0.013575022 -0.0033548484 0.19032173 -0.11191064 -0.97532231 0.00011287783
-0.017821716 -0.012616135 -0.0030972657 0.19191721 -0.10406071 -0.9758786 9.7321346e-05
-0.03913413 -0.010558096 -0.0046887756 -0.97285652 0.006337476 -0.23132196 0.024179816
-0.038560424 -0.01048413 -0.0049834182 -0.94347608 -0.0074842717 -0.33135626 0.028158398
-0.027982002 -0.011002871 -0.0057610888 0.24213569 -0.18126494 -0.95315963 0.00013808615
-0.025590042 -0.010456915 -0.0052298438 0.25291789 -0.16744836 -0.952887 0.00010549717
-0.022595383 -0.01041896 -0.0044639655 0.23667134 -0.14080328 -0.96133298 0.00018544104
-0.019406347 -0.010524658 -0.0036855733 0.21968997 -0.11641324 -0.96859914 0.0001046555
-0.017068923 -0.010443191 -0.0031609677 0.2165762 -0.10475649 -0.9706291 8.7017368e-05
-0.039052911 -0.0079149716 -0.0049916436 -0.95642215 -0.031755369 -0.29025561 0.035599906
-0.038563069 -0.0074927309 -0.004717676 -0.96858221 -0.01680382 -0.24812512 0.029265532
-0.027033089 -0.008273867 -0.0059369057 0.26479807 -0.14580725 -0.95321685 0.00011705714
-0.025287829 -0.0077420478 -0.0055883862 0.26078835 -0.14031312 -0.95514476 0.00011276355
-0.022385964 -0.0074993353 -0.0048279637 0.25699532 -0.12925699 -0.95772964 8.3230487e-05
-0.019554226 -0.0074853674 -0.0040906989 0.24115556 -0.11547961 -0.96359146 6.1848863e-05
-0.01665174 -0.0074431165 -0.0033823533 0.23196864 -0.10239052 -0.96731931 6.2991865e-05
-0.014930384 -0.0069817775 -0.0030482186 0.22573717 -0.088865824 -0.97012657 5.1751085e-05
-0.039423052 -0.0042944211 -0.0045186915 -0.95996815 -0.0074727712 -0.2800093 0.032672238
-0.038561996 -0.0046096807 -0.0048311488 -0.93742645 -0.031170303 -0.34678528 0.024590829
-0.024640337 -0.0046950341 -0.0058103488 0.27327156 -0.10854522 -0.9557932 6.8036134e-05
-0.02252367 -0.0044633322 -0.0052452222 0.26405448 -0.10658531 -0.95860046 5.0033836e-05
-0.019470638 -0.0045680199 -0.0044105654 0.2515232 -0.10150696 -0.96251363 4.349419e-05
-0.016308077 -0.0045404672 -0.0035964784 0.24433635 -0.088976867 -0.96559972 3.8296395e-05
-0.01418608 -0.0040509999 -0.0031075459 0.24204475 -0.084459551 -0.96658212 3.8107191e-05
-0.039483786 -0.0014498566 -0.0035918781 -0.91635644 0.061511531 -0.39560997 0.030351074
-0.037946034 -0.0015078103 -0.0039134487 -0.93179911 0.058291242 -0.35826313 0.031208828
-0.024259651 -0.002423397 -0.0059437244 0.26940894 -0.060410861 -0.96112919 0.00034603101
-0.022402098 -0.0014616739 -0.0055082794 0.26131779 -0.0564248 -0.9636023 0.0002750062
-0.019532645 -0.0015788696 -0.0047231675 0.26058021 -0.060692322 -0.96354258 0.00016319468
-0.016622916 -0.0014620903 -0.0039580963 0.25008041 -0.059998412 -0.96636426 0.00012275009
-0.013983198 -0.0014027641 -0.0032689117 0.24854989 -0.057081658 -0.96693569 0.00010798638
-0.039466649 0.0014670957 -0.003596232 -0.91856301 -0.063669682 -0.39011309 0.032447156
-0.037828069 0.0014243503 -0.0038561772 -0.9268325 -0.063291147 -0.37010238 0.031494908
-0.024182852 0.0022198698 -0.0059488304 0.26749876 0.0083899591 -0.96352166 0.00027816201
-0.022382267 0.0014312551 -0.0055798497 0.2569004 0.005811628 -0.96642041 0.00022018501
-0.019624809 0.0014871756 -0.0048476583 0.25647637 0.0016363167 -0.9665491 0.00014445066
-0.016740896 0.0014890473 -0.0040888782 0.25493994 -0.0033508539 -0.96695107 0.000162585
-0.014010099 0.0014495738 -0.0033761209 0.2515808 -0.010203451 -0.96778256 0.00025595602
-0.039430972 0.0045805788 -0.0043961131 -0.93778408 -0.019742766 -0.34665737 0.033406284
-0.038284864 0.0041457727 -0.004706624 -0.93900621 -0.0074130446 -0.3438203 0.031698938
-0.024253249 0.0049671088 -0.0059198928 0.24603006 0.067110114 -0.96693611 0.00014533107
-0.022364696 0.0044356943 -0.0054649278 0.24915737 0.057282329 -0.96676749 0.00011059953
-0.019528786 0.0044867145 -0.0047256202 0.25168598 0.04971195 -0.96653134 6.0448398e-05
-0.016628766 0.0044494402 -0.0039709709 0.24819916 0.043886438 -0.96771437 4.8574726e-05
-0.013920806 0.0043972288 -0.0032724654 0.24817805 0.038984977 -0.96792966 4.8168939e-05
-0.039056234 0.0080107637 -0.0050028884 -0.94853491 0.070865817 -0.30864143 0.029274408
-0.038557388 0.0075619943 -0.0048642238 -0.94814587 -0.0016693532 -0.31783107 0.029051116
-0.024935611 0.0078637069 -0.0058089239 0.23634377 0.10042288 -0.96646619 8.2572711e-05
-0.022609049 0.0074595357 -0.0052877045 0.23755635 0.092644967 -0.96694565 6.608502e-05
-0.019434405 0.0075437068 -0.0044941432 0.24132089 0.081158139 -0.96704578 5.1703944e-05
-0.016342828 0.0074611343 -0.0037092052 0.24098924 0.069597304 -0.96802914 5.6032324e-05
-0.014171612 0.0073428787 -0.0031777213 0.23717438 0.06402003 -0.96935534 5.2738877e-05
-0.039106652 0.010550148 -0.0047876188 -0.97508603 -0.026195623 -0.2202747 0.022815453
-0.038556349 0.010448939 -0.0050409622 -0.93420881 -0.0013410905 -0.35672414 0.026413986
-0.027406795 0.011087987 -0.0059202849 0.23330945 0.13790014 -0.96257484 9.5198469e-05
-0.025482088 0.010678433 -0.0055898153 0.22495385 0.13308872 -0.96523738 0.00011260106
-0.022521244 0.010520115 -0.0049311831 0.22588548 0.12154907 -0.96654105 8.738492e-05
-0.019631071 0.010305609 -0.0042667198 0.22965208 0.10681029 -0.96739423 8.3639425e-05
-0.016468951 0.01048619 -0.0034826014 0.22878453 0.090918161 -0.96922213 8.0595819e-05
-0.01445525 0.010044075 -0.0030430621 0.22532229 0.082450613 -0.97078919 5.6771543e-05
-0.039249722 0.01357435 -0.0043627736 -0.95623803 0.022610115 -0.291715 0.031771567
-0.038436502 0.013591491 -0.0054435283 -0.83067787 0.05952882 -0.55356169 0.028823294
-0.030403908 0.014876682 -0.0059197238 0.18460205 0.19608234 -0.96305442 0.00011510645
-0.028210193 0.013780289 -0.0057087303 0.21165268 0.17496282 -0.96155661 0.00012651096
-0.02557198 0.013571073 -0.0051596388 0.21396184 0.16029087 -0.96360117 0.00011003362
-0.022547372 0.013452746 -0.0045196651 0.20951051 0.13915455 -0.96785396 9.8566648e-05
-0.019427938 0.013527672 -0.0038283777 0.21503474 0.12371942 -0.96873814 9.1700909e-05
-0.01672449 0.013301273 -0.0032467896 0.21599835 0.10850196 -0.97034633 5.7204652e-05
-0.01480209 0.012126883 -0.0030078087 0.21565248 0.092168123 -0.97211063 9.9514305e-05
-0.039413884 0.016658779 -0.0038573619 -0.94447261 0.032293573 -0.32699931 0.034457508
-0.038113859 0.016656443 -0.0053073983 -0.61664528 0.16007173 -0.77079546 0.032722574
-0.033242244 0.01788439 -0.0058979355 0.051813267 0.17838386 -0.98259586 0.0064831376
-0.031172046 0.016686462 -0.0057524447 0.18225683 0.19871061 -0.96296239 9.7518641e-05
-0.028490856 0.016602254 -0.0052238912 0.19511412 0.18917997 -0.96236235 5.6970497e-05
-0.025410788 0.016372239 -0.0046370369 0.19614777 0.17160331 -0.96544206 0.00014106701
-0.022410149 0.016599651 -0.004024656 0.19050162 0.14862882 -0.97037041 0.00012533822
-0.019468574 0.01637003 -0.0034710381 0.1993892 0.12765619 -0.97156978 6.47048e-05
-0.017516563 0.015984474 -0.003101496 0.19364718 0.12360725 -0.97325331 7.20936e-05
-0.039472945 0.0193925 -0.0035369231 -0.93125927 -0.0028242541 -0.3643463 0.026548229
-0.037693974 0.019511508 -0.0050899573 -0.47006577 0.15334748 -0.8692081 0.023834879
-0.034504279 0.019769015 -0.0056359358 0.013904676 0.24549575 -0.96929795 0.0049008154
-0.031466026 0.019400544 -0.0052287024 0.16886157 0.21064205 -0.96286845 0.0001050308
-0.02848123 0.019544473 -0.0046459194 0.17907864 0.1929296 -0.96473259 0.00011324103
-0.025480179 0.019477094 -0.0040994654 0.17127155 0.17382726 -0.96976811 0.00011185839
-0.022588544 0.019538073 -0.0035884727 0.17260124 0.15440775 -0.97281396 7.731215e-05
-0.020240253 0.019131407 -0.0032110077 0.18218595 0.14082743 -0.97312689 0.00010328965
-0.039338872 0.022421159 -0.0033986981 -0.71184522 0.0078796456 -0.7022922 0.042427536
-0.037615564 0.022478906 -0.0046061729 -0.39399537 0.16277154 -0.90458447 0.024912596
-0.034598678 0.022539305 -0.0049999324 -0.017791968 0.21949275 -0.97545189 0.0065989909
-0.031555396 0.022447035 -0.0045577823 0.15242696 0.21218368 -0.96526891 9.2738461e-05
-0.028561488 0.022509133 -0.0040614717 0.15731002 0.18898495 -0.96929783 0.00015772889
-0.025538331 0.02255621 -0.0035538778 0.15592852 0.16832033 -0.97332144 8.412412e-05
-0.022776077 0.022136576 -0.0031952772 0.15678604 0.15388973 -0.97556961 0.00011238609
-0.02060022 0.021044239 -0.0030432055 0.17121926 0.13595718 -0.97580719 0.00013066961
-0.039209977 0.025131313 -0.0031893535 -0.69879556 0.078447744 -0.71100676 0.01918624
-0.037583962 0.025475875 -0.0040557231 -0.38327801 0.12440126 -0.91521704 0.0203922
-0.034488086 0.025548177 -0.0043009319 -0.038301408 0.19327937 -0.98039597 0.0078867851
-0.031471599 0.025422668 -0.0039033403 0.13827823 0.19650321 -0.97070372 6.9956943e-05
-0.028476922 0.025473004 -0.0034693594 0.13567865 0.17746381 -0.9747296 8.504471e-05
-0.025710559 0.024952391 -0.0031738675 0.14158532 0.16226244 -0.97653699 0.00012015219
-0.02392333 0.024581127 -0.0030017886 0.14122425 0.14670205 -0.97904766 9.5159194e-05
-0.039068326 0.027637154 -0.0030947272 -0.62010914 0.096734233 -0.77852881 0.0074432339
-0.037529822 0.028383827 -0.0035586779 -0.34037182 0.1066052 -0.93422824 0.020902554
-0.034590278 0.028535122 -0.003699248 0.029134974 0.17077509 -0.98487926 0.0025063863
-0.031613261 0.028396705 -0.0033445486 0.12362957 0.18220335 -0.97545767 7.7222765e-05
-0.028910309 0.027688256 -0.0031327177 0.12436101 0.16480367 -0.97845495 0.00012016969
-0.037073437 0.031249329 -0.003231043 -0.22935812 0.13327841 -0.96417409 0.013904263
-0.034776106 0.031294931 -0.0031945638 0.025427466 0.13774809 -0.99014086 0.0040302123
-0.032514736 0.030523635 -0.0030498181 0.1032564 0.15000187 -0.98327893 0.00032781973
-0.036724817 0.033300854 -0.0030503725 -0.19385694 0.12655966 -0.97283196 0.01994678
-0.035508648 0.033298597 -0.0030251639 0.01170304 0.10544046 -0.99435675 0.0029598766
-0.036643028 0.041883759 -0.0030761524 -0.078497969 -0.26437056 -0.96122122 0.026355952
-0.03449519 0.041841436 -0.0031042714 -0.01404038 -0.24762282 -0.96875483 0.022871453
-0.031196797 0.041824549 -0.0030297588 0.025214832 -0.48730844 -0.8728658 0.032019168
0.0053563165 0.041768841 -0.0030533669 -0.15191497 -0.80402982 -0.57485461 0.00088260678
0.0078080469 0.041649994 -0.0034054203 -0.13503648 -0.8307789 -0.53997368 0.0004152717
0.01076021 0.041446153 -0.0037583981 -0.076513827 -0.86010462 -0.50434685 0.0011889427
0.013498657 0.041432839 -0.0040333197 -0.019492308 -0.88803506 -0.45936239 0.0018464662
0.016159808 0.041600894 -0.0041578226 0.040065102 -0.91394281 -0.40386042 0.0019281744
0.018970307 0.041832492 -0.003818464 0.13922852 -0.94161481 -0.30655682 0.0039891107
-0.051379811 0.04464075 -0.0038071878 -0.56150806 -0.79571533 -0.22703706 0.042877063
-0.049564354 0.044584621 -0.0041185869 -0.3258464 -0.89596272 -0.30178627 0.048818976
-0.046595328 0.044630364 -0.0042479802 -0.068085842 -0.89681977 -0.43712538 0.0047147111
-0.043050963 0.043780115 -0.0040631806 -0.26340157 -0.76909739 -0.58233052 0.01264597
-0.040783331 0.043402914 -0.0046448796 -0.21380651 -0.765939 -0.6063202 0.018160706
-0.037510503 0.042772997 -0.0039790906 -0.039425936 -0.68435884 -0.72807878 0.026870349
-0.034576427 0.042963836 -0.0041553308 -0.0062563196 -0.72024316 -0.69369352 0.033505261
-0.031551346 0.043081742 -0.0040319525 0.064810671 -0.68328071 -0.72727376 0.0097357547
-0.028474854 0.043505743 -0.0041097957 0.11243241 -0.64719898 -0.75398433 0.0065312949
-0.025539763 0.043679226 -0.0038555323 0.10078962 -0.60921496 -0.78657395 0.004950101
-0.022503749 0.044020038 -0.0037529161 0.10220148 -0.58924752 -0.80146259 0.0049371929
-0.019469244 0.044188689 -0.0034840086 0.097146727 -0.58798808 -0.80301458 0.0031377992
-0.016662883 0.044431005 -0.003378066 0.067938365 -0.58041954 -0.81147856 0.0028482198
-0.01340099 0.044616465 -0.0033357507 0.024414955 -0.58220202 -0.81267756 0.0025605541
-0.010234646 0.044576257 -0.003332122 -0.021825893 -0.61703801 -0.78663063 0.0015118086
-0.0074797827 0.044489425 -0.0034323863 -0.065906644 -0.64665955 -0.7599262 0.0013614123
-0.0044055977 0.044401109 -0.0037439642 -0.09915553 -0.70391774 -0.70332628 0.00091576524
-0.0013239002 0.044198185 -0.0040600705 -0.13601099 -0.74202693 -0.6564275 0.0017188154
0.0015629596 0.043896001 -0.0045242459 -0.20335895 -0.77518386 -0.5981096 0.00094268034
0.004416158 0.043051641 -0.0044810902 -0.18670973 -0.80672717 -0.56065196 0.00025522642
0.0074190558 0.042705461 -0.0048986035 -0.15524776 -0.8234092 -0.54579794 0.00015537073
0.010280135 0.042453989 -0.0053012366 -0.11645058 -0.84362739 -0.52414888 0.00039252811
0.013165515 0.042250823 -0.0055022575 -0.056946587 -0.87259561 -0.4851124 0.00096623716
0.016486298 0.042174976 -0.0054879687 0.030008497 -0.91832387 -0.3946906 0.0026830803
0.019494358 0.042268299 -0.0050326157 0.12030881 -0.9502216 -0.28741029 0.0040889611
0.022391725 0.042719886 -0.0048697717 0.17976174 -0.95561695 -0.2334137 0.0019984585
0.025776614 0.043525048 -0.0050394097 0.18223318 -0.96018285 -0.21175435 0.0012446621
0.028112307 0.044245563 -0.0047742822 0.21628177 -0.96251392 -0.16367403 0.001272254
-0.051740732 0.046481073 -0.0045665414 -0.86729032 -0.45788857 -0.19530891 0.059983436
-0.049471997 0.045153238 -0.0057478189 -0.11098563 -0.90964097 -0.40029436 0.021427929
-0.04714432 0.045187328 -0.0058430042 -0.051131554 -0.83628786 -0.54590124 0.023691012
-0.043311279 0.045101803 -0.0056038015 -0.23554577 -0.79328591 -0.56144077 0.012110558
-0.041472383 0.045087814 -0.0055551669 -0.24494222 -0.78899223 -0.56346655 0.012604604
-0.025336964 0.04526234 -0.0055794246 0.13652489 -0.66940314 -0.73024678 0.0027264489
-0.022310348 0.045673892 -0.0053790491 0.13158678 -0.65485364 -0.74421203 0.0010668754
-0.019370141 0.04611209 -0.0052465596 0.11634665 -0.59321111 -0.79659522 0.0043485384
-0.016482113 0.046294738 -0.0050206301 0.080176733 -0.59008539 -0.80334979 0.0029032882
-0.013503269 0.046379518 -0.0048960145 0.013214031 -0.58871549 -0.80823231 0.0022617616
-0.010514542 0.046416979 -0.0049630911 -0.056818783 -0.60648811 -0.79305977 0.0026518311
-0.0075898967 0.046190072 -0.0050530327 -0.10771285 -0.65205288 -0.75048316 0.0019088862
-0.0046179476 0.045788158 -0.0051723719 -0.15010655 -0.71097893 -0.68700588 0.001180021
-0.0016849706 0.045466702 -0.0055208541 -0.19073668 -0.74486011 -0.63937694 0.0011872469
0.0003213454 0.045439307 -0.0059934249 -0.2264071 -0.78167093 -0.58114576 0.00031003935
-0.051938798 0.049510371 -0.0042903745 -0.99826902 -0.045224328 0.037598599 0.0023488768
-0.051812887 0.052438319 -0.0045563444 -0.98428988 0.17184789 0.040516924 0.012929447
-0.051411729 0.055229574 -0.0043473686 -0.88734198 0.46036261 -0.026278848 0.02886045
-0.049470972 0.056457765 -0.004275159 -0.23651741 0.94700211 -0.2173626 0.038125519
-0.046417791 0.056339666 -0.0046049766 -0.095780089 0.91702908 -0.38714823 0.013770684
-0.043437801 0.056271583 -0.0051560607 -0.28878003 0.83905864 -0.46107134 0.024311766
-0.041492689 0.056620035 -0.0052750353 -0.27687731 0.79744124 -0.53612167 0.016926637
-0.036667656 0.056947131 -0.0058405879 -0.0055253077 -0.86965579 0.49362773 0.010761736
-0.042539865 0.057889253 -0.0042543313 -0.23494841 0.83770907 -0.49299353 0.020662334
-0.041099746 0.057988565 -0.0049634879 -0.23823416 0.83273512 -0.49979666 0.016746933
-0.037376147 0.058842253 -0.0043569272 -0.11765756 0.89964825 -0.42046374 0.0020116798
-0.03447248 0.059072923 -0.0044640857 -0.07294596 0.87494522 -0.47869587 0.00095181959
-0.031422265 0.059192546 -0.004661249 -0.047745723 0.85134232 -0.5224334 0.0015222286
-0.028473109 0.059188996 -0.0049061021 -0.015210873 0.80745035 -0.58973938 0.0016169394
-0.025594622 0.059179187 -0.0050061634 -0.014879775 0.72399229 -0.68964761 0.0043736123
-0.022521952 0.059203271 -0.0051352861 -0.031743918 0.66785598 -0.74361318 0.0059416853
-0.019403065 0.058987778 -0.0054332218 -0.031397764 0.53685528 -0.84308994 0.0063007963
-0.016436055 0.059146088 -0.0055767405 -0.10687827 0.50265288 -0.85785615 0.0063385069
-0.013930478 0.059608817 -0.0056967433 -0.20710194 0.48717305 -0.84839332 0.0059437691
-0.030698922 0.060205087 -0.0030660497 -0.086237058 0.85266745 -0.51528776 0.00040708043
-0.028420337 0.060273401 -0.0032669483 -0.070116058 0.8267647 -0.55816114 0.00074087846
-0.025198856 0.06043921 -0.0034496114 -0.068021916 0.76739722 -0.63755357 0.0012582099
-0.02238686 0.060568482 -0.0035671883 -0.072045676 0.73666543 -0.67240876 0.0018762553
-0.019305915 0.060756888 -0.0038187096 -0.10176052 0.68365949 -0.72267181 0.0027308145
-0.016398661 0.060986746 -0.0040828665 -0.14583126 0.63812274 -0.75599772 0.0030800533
-0.013463289 0.06142744 -0.004407099 -0.23559131 0.59636098 -0.76736581 0.0024903391
-0.010748647 0.061833505 -0.0050680833 -0.32450944 0.56151515 -0.76117963 0.0039219926
-0.0085650207 0.062436044 -0.0056828838 -0.43428111 0.55875576 -0.7065351 0.001901836
-0.012233514 0.063241109 -0.0031038064 -0.29761627 0.64679968 -0.70219272 0.00089908799
-0.010225095 0.063812248 -0.0035708072 -0.33137381 0.63223821 -0.70033294 0.0007528055
-0.0075006126 0.064476557 -0.0045473403 -0.42996809 0.58124208 -0.69085819 0.0007062144
-0.0053305193 0.065210022 -0.0054919426 -0.52660149 0.57214838 -0.62875843 0.00092037191
-0.0065512047 0.066474788 -0.0034156793 -0.48413199 0.59932303 -0.63751721 0.00064631243
-0.0043502725 0.067253187 -0.0044486322 -0.53278857 0.59854567 -0.59823036 0.00075545785
-0.0022832013 0.068282455 -0.0053795543 -0.56707758 0.59950536 -0.56481534 0.00034231468
-0.0034139969 0.069240466 -0.0032431856 -0.52127141 0.61258614 -0.59415001 0.00023657213
-0.0012906888 0.070187509 -0.0042532692 -0.54538256 0.62835222 -0.55473542 0.00010614187
0.00079632754 0.07127101 -0.0051047229 -0.53657979 0.65190047 -0.5358246 0.0002825069
0.0017472379 0.072921179 -0.0040577534 -0.50629985 0.69346291 -0.5126105 0.0015327157
0.0040977052 0.07395713 -0.0049666022 -0.48190764 0.73170614 -0.4820489 0.0012755346
0.0061120386 0.074627332 -0.005925626 -0.48926121 0.73462057 -0.47005975 0.0016470326
0.0052736611 0.075424679 -0.0037162339 -0.44622543 0.79103851 -0.4184984 0.0026604012
0.0074237939 0.076028429 -0.0047199349 -0.43030342 0.80016482 -0.41782203 0.0017777593
0.010431735 0.077345774 -0.0046094945 -0.37357399 0.8789956 -0.29632634 0.0029417914
0.012228565 0.077785306 -0.0056143892 -0.3366766 0.91653252 -0.21590993 0.0033056249
0.011899754 0.07818611 -0.0031909456 -0.22591878 0.97030121 -0.086465873 0.0026211317
0.013555575 0.078407854 -0.0047152666 -0.34441316 0.90944904 -0.23298487 0.0019500596
0.01604607 0.079094589 -0.005032273 -0.2943075 0.94191694 -0.16178881 0.0018369495
0.019513676 0.079917774 -0.004423636 -0.23303257 0.97245449 -0.0052982373 0.0031900217
0.022351136 0.080408357 -0.0046984931 -0.223462 0.97469729 0.0054775975 0.0020905139
0.025417125 0.080954373 -0.0053147175 -0.16597208 0.98525965 0.041432783 0.0022774383
0.028705079 0.081217408 -0.0051492639 -0.11159945 0.99374294 0.0045457059 0.0031245032
0.014156856 -0.078292355 -0.0016235411 -0.20478739 -0.97866398 0.016704051 0.00090426899
0.016254479 -0.078664482 -0.0018439135 -0.21989165 -0.97546661 -0.010613085 0.0015200935
0.018405251 -0.079055965 -0.0023721885 -0.17550245 -0.98389101 0.034021128 0.0010331798
0.021512978 -0.079303235 -0.0019354864 -0.17882434 -0.98313928 0.038197346 0.00066094392
0.0047916966 -0.075386874 -0.0019046754 -0.42211947 -0.83723688 -0.34763432 0.0019791694
0.0073699895 -0.07647863 -0.0016428146 -0.34568119 -0.89904785 -0.26873305 0.0025961529
0.010560879 -0.077350557 -0.0023514521 -0.31162566 -0.92970186 -0.19632593 0.0025129977
0.012374274 -0.07792668 -0.0018613411 -0.22789682 -0.9733876 -0.024074528 0.0029576493
-0.00077093783 -0.072777011 -0.001015576 -0.5441097 -0.75097722 -0.37413609 0.0079118023
0.0014020997 -0.07369554 -0.0016777236 -0.49366546 -0.77501541 -0.39451948 0.0026931532
0.0036063723 -0.074824236 -0.0019480592 -0.43826115 -0.81541789 -0.37818083 0.0022534288
-0.0066372189 -0.069232024 -0.00023804675 -0.38188043 -0.71527946 -0.58527142 0.0074025253
-0.0042497152 -0.069955193 -0.0011870743 -0.4837358 -0.69307339 -0.53446132 0.0071839183
-0.0018197349 -0.071099155 -0.0020406321 -0.53294188 -0.68871003 -0.49158058 0.0043309503
-0.0098766861 -0.066593677 -0.00067963224 -0.37153244 -0.64689654 -0.66594934 0.0004010429
-0.007375475 -0.067457922 -0.001355159 -0.42777142 -0.63621795 -0.6420579 0.0007187333
-0.0051253024 -0.068219297 -0.0022420392 -0.49273461 -0.62508196 -0.60538024 0.00091346615
-0.021008322 -0.06325148 -0.0001265469 -0.16871588 -0.74763763 -0.64231837 0.00057768665
-0.019557951 -0.063345201 -0.00027657428 -0.17694345 -0.74521434 -0.64292043 0.00059483846
-0.016406186 -0.063774697 -0.00071396778 -0.2108324 -0.71686608 -0.66456956 0.00056923757
-0.013388957 -0.064308815 -0.0012358874 -0.28139457 -0.67423832 -0.68280292 0.00056974479
-0.010654047 -0.064826943 -0.0019620827 -0.34638104 -0.64203656 -0.68396586 0.00061191566
-0.0083682127 -0.0655398 -0.0025586986 -0.42433578 -0.62055385 -0.65943319 0.00060056866
-0.037015609 -0.060201287 -0.00048904505 -0.15928435 -0.89893049 -0.40810844 0.0003411129
-0.034377646 -0.060389861 -0.00099174364 -0.14464761 -0.88153237 -0.44941929 0.00035311631
-0.03148444 -0.060630128 -0.0013142745 -0.12408762 -0.86206388 -0.49137372 0.00057505944
-0.028405022 -0.060999863 -0.0013845477 -0.10713794 -0.84026289 -0.53148818 0.0003276178
-0.025446407 -0.061282799 -0.0015501489 -0.10884258 -0.80777371 -0.57935733 0.0008041563
-0.022554487 -0.06174482 -0.0015001247 -0.11247662 -0.77006906 -0.62796706 0.00074739504
-0.019518854 -0.061997265 -0.0018123887 -0.15450904 -0.72835165 -0.66755593 0.0006027866
-0.016523292 -0.06227323 -0.0021778864 -0.18944837 -0.70387739 -0.68459177 0.00050833024
-0.013698556 -0.062581688 -0.0027402211 -0.25947341 -0.66453904 -0.70075774 0.0006928051
-0.045689467 -0.057839029 -0.00063644274 -0.23659058 -0.8822127 -0.40709418 0.014039977
-0.043734841 -0.058285266 -0.0016647616 -0.25212455 -0.85394555 -0.4552035 0.028949315
