# .PCD v0.7 - Point Cloud Data file format
VERSION 0.7
FIELDS x y z normal_x normal_y normal_z curvature
SIZE 4 4 4 4 4 4 4
TYPE F F F F F F F
COUNT 1 1 1 1 1 1 1
WIDTH 561
HEIGHT 1
VIEWPOINT 0 0 0 1 0 0 0
POINTS 561
DATA ascii
-0.026863089 -0.040725335 0.02874814 -0.51406687 -0.068161033 0.85503757 0.019295517
-0.018383939 -0.040592052 0.028674144 0.43329376 -0.037392091 0.90047681 0.035487402
-0.015906999 -0.040407818 0.028442463 0.22257924 -0.041830193 0.97401679 0.019067643
-0.01334927 -0.040459845 0.028442143 -0.007076235 0.0018521564 0.9999733 0.00066308182
-0.010342393 -0.040509615 0.028441936 -0.0013649808 -0.038827185 0.99924499 0.0032946439
-0.0074975672 -0.040583085 0.028374946 0.096141353 -0.071674667 0.99278373 0.045878302
-0.0051252502 -0.0407736 0.027992591 0.23396544 -0.32435036 0.91654623 0.03922813
-0.0017045377 -0.039374452 0.028070159 0.077220686 -0.64947629 0.75645065 0.015953211
0.00094677322 -0.039234009 0.02781635 0.21443214 -0.80567002 0.55219078 0.020528696
-0.042318583 -0.037536763 0.027268238 -0.56046224 0.10944622 0.82091635 0.0096398573
-0.0405288 -0.037599962 0.027896665 -0.33635256 0.041967686 0.94080055 0.021294035
-0.037500814 -0.037496563 0.028296858 -0.17539945 0.031613652 0.98398966 0.014681024
-0.03452548 -0.037502144 0.028446546 -0.029053604 -0.012992586 0.99949336 0.0041427198
-0.031405646 -0.037475284 0.028446009 -0.021142948 0.00312875 0.9997716 0.0068518091
-0.028498732 -0.037513074 0.028488578 -0.2353359 0.10063541 0.96669006 0.042564332
-0.02614923 -0.036772389 0.028434018 -0.37530184 0.23372056 0.89695221 0.04780674
-0.022078335 -0.036294859 0.028964512 -0.0080779959 0.46146229 0.88712305 0.038305216
-0.019250175 -0.036911163 0.028722351 0.24952903 0.22438599 0.94201177 0.038919717
-0.016040346 -0.037511807 0.02841817 0.19852811 0.056249063 0.97847974 0.02605544
-0.013430536 -0.037447769 0.028442411 -0.07459864 -0.077326544 0.99421108 0.0040614433
-0.010495152 -0.037467822 0.028538467 -0.10713533 -0.17107844 0.97941524 0.0064422619
-0.0074776881 -0.037479158 0.029019384 -0.07982295 -0.30659065 0.94848847 0.020462768
-0.004578535 -0.037658829 0.029424936 -0.04416104 -0.46494207 0.88423908 0.018728163
-0.0017284355 -0.037870634 0.029480547 -0.0066548493 -0.41478372 0.90989566 0.0086979652
0.0016587151 -0.037856236 0.029299997 0.12998052 -0.61654133 0.77651912 0.013999148
0.0044222637 -0.037385236 0.028927825 0.31194818 -0.67574209 0.66787797 0.025806323
0.0070150411 -0.036590476 0.028144596 0.42861429 -0.70291114 0.56763166 0.025455486
-0.042196229 -0.033175953 0.028088715 -0.66132265 -0.0059553292 0.7500779 0.04205415
-0.040273119 -0.033875752 0.028199257 -0.29356238 -0.14864472 0.94431239 0.032204654
-0.037376992 -0.034325466 0.0284885 -0.16684991 -0.13999948 0.97599244 0.01549439
-0.034534652 -0.034492757 0.0286154 -0.029705785 -0.076714098 0.99661052 0.005923498
-0.031398814 -0.034514815 0.028446143 0.043470357 -0.030279675 0.99859571 0.001054164
-0.028377714 -0.034547314 0.028445594 -0.080002971 0.11300981 0.99036777 0.02705205
-0.025407583 -0.03444979 0.028411105 -0.061998818 0.19144888 0.97954249 0.032934856
-0.022477336 -0.0341914 0.028397664 -0.035213418 0.20109935 0.97893775 0.029509805
-0.019519545 -0.034237698 0.028444229 0.11952908 0.22193201 0.96770805 0.027871454
-0.01640776 -0.034338269 0.028443227 0.045903414 0.070976071 0.99642128 0.035617236
-0.013434025 -0.034392145 0.02863384 -0.19323111 -0.14826508 0.96988624 0.0062612295
-0.010624184 -0.034611966 0.029428184 -0.19356686 -0.24856965 0.94907588 0.0049934369
-0.008022273 -0.035376776 0.029797355 -0.13670032 -0.25849554 0.95629132 0.0064863558
-0.0047278651 -0.033291526 0.029773075 -0.074368529 -0.17775266 0.98126113 0.018748777
0.0025384314 -0.035993699 0.02998131 0.097233489 -0.45590028 0.8847037 0.0058544641
0.0048849881 -0.035489082 0.029834028 0.21484628 -0.35252801 0.91080463 0.010837666
0.007525119 -0.034614474 0.029440034 0.36157051 -0.4280974 0.82825083 0.010526336
0.0096311439 -0.033957362 0.028752699 0.55613232 -0.54523152 0.62724745 0.030196618
-0.042301524 -0.031701822 0.027959315 -0.6597181 0.070717528 0.74817848 0.043516386
-0.0404347 -0.031502992 0.028551267 -0.342547 0.099672213 0.93419868 0.050586153
-0.037483718 -0.031514958 0.028935559 -0.080458216 0.074298084 0.99398506 0.0090641035
-0.034558695 -0.031467993 0.028934157 -0.0073749805 0.043921605 0.99900776 0.0064724996
-0.031393711 -0.031528462 0.028480457 0.037488196 -0.00063407858 0.9992969 0.00088550587
-0.02839178 -0.031551171 0.028445989 0.010041589 -0.014514425 0.99984419 0.00055293349
-0.02537223 -0.031469949 0.028445497 -0.0034300324 -0.0049464479 0.99998188 0.0011154753
-0.02246155 -0.031484824 0.028444231 0.0025779807 0.022403473 0.99974567 0.001130824
-0.019546593 -0.031549379 0.02844137 -0.0046146591 0.015802732 0.99986446 0.001212154
-0.016443145 -0.031485155 0.028434822 -0.16697739 -0.073345274 0.98322892 0.0074744415
-0.013634506 -0.031506073 0.029271724 -0.29054999 -0.13410638 0.94741553 0.0039673508
-0.011549993 -0.03223611 0.029839016 -0.23989938 -0.19094534 0.9518342 0.0044438592
-0.0076641478 -0.031232592 0.029728673 -0.03981312 -0.17728406 0.98335415 0.015810864
-0.0058265929 -0.032746118 0.029607881 -0.022230718 -0.14661808 0.98894334 0.01953182
0.0043930765 -0.031382386 0.029920287 0.20764469 -0.1282457 0.96976119 0.015374182
0.0086080646 -0.032363221 0.029807452 0.20198071 -0.18567459 0.9616282 0.0096646855
0.010404183 -0.031478923 0.029285042 0.41628784 -0.27128679 0.86781788 0.015113762
0.012286443 -0.03046076 0.027586313 0.76937324 -0.33538076 0.54367703 0.024179038
-0.04011564 -0.02909413 0.027821146 -0.38244742 0.24069136 0.89207715 0.029339507
-0.037238743 -0.028552683 0.028141728 -0.22434331 0.10535831 0.9687981 0.023140237
-0.034438979 -0.028488539 0.028522864 -0.043471839 0.03033315 0.99859399 0.0097004371
-0.031384513 -0.028494438 0.028446926 0.00044543797 -0.010620856 0.99994349 0.0026387477
-0.028390765 -0.028531184 0.028446278 0.0052540172 -0.036788456 0.99930924 0.00025262532
-0.025354257 -0.028474269 0.028444679 0.0081498381 -0.035485335 0.99933696 0.00027933621
-0.022472396 -0.028487846 0.028426476 0.027313014 -0.00721345 0.99960089 0.00081531686
-0.019526722 -0.028538093 0.028363198 -0.035858747 -0.011834628 0.99928677 0.00311184
-0.016376339 -0.02846469 0.028589239 -0.2673445 -0.052213605 0.96218532 0.006451624
-0.014015164 -0.028678695 0.029665349 -0.32276621 -0.10896525 0.94018537 0.0040401421
-0.0097799515 -0.028104275 0.029826507 -0.19086371 -0.13574873 0.9721849 0.019730452
0.0059962147 -0.029430736 0.029994087 0.096559122 -0.068448856 0.99297088 0.015066293
0.0071211522 -0.027707458 0.029963661 0.15933459 -0.084334262 0.98361588 0.010392123
0.011034806 -0.028797632 0.029634058 0.29657868 -0.12419196 0.94689882 0.017314777
0.012746846 -0.027800346 0.028826308 0.53375149 -0.14608619 0.83292747 0.018673122
-0.042702589 -0.024738856 0.027503287 -0.49061957 -0.29689246 0.81923574 0.011585432
-0.040323734 -0.025081256 0.028096685 -0.31685331 -0.24653403 0.91587389 0.017385868
-0.037448999 -0.025406441 0.028493529 -0.18709861 -0.16398217 0.96855766 0.01296972
-0.034527648 -0.025545964 0.028640607 -0.069098331 -0.1202038 0.9903416 0.0037430509
-0.031466667 -0.025541624 0.028681705 -0.0022024799 -0.08755406 0.99615729 0.00029983048
-0.028407047 -0.025542462 0.028678393 0.0038367189 -0.090973355 0.99584585 0.00021331287
-0.025437733 -0.025498375 0.028677458 0.0036958326 -0.085470125 0.9963339 0.0004261625
-0.022513606 -0.025420355 0.028620282 0.04836579 -0.063637443 0.99680042 0.0024265265
-0.019338766 -0.025583407 0.028194837 -0.063559346 -0.030211117 0.99752063 0.011799327
-0.016373491 -0.025524182 0.02871161 -0.28266922 -0.0064438763 0.95919579 0.0063007982
-0.014416762 -0.025556991 0.029783545 -0.33201075 -0.033729784 0.94267237 0.0059255655
-0.010470253 -0.025471112 0.02990056 -0.2266959 -0.064827368 0.97180575 0.014571029
0.011439098 -0.025827087 0.029748388 0.31307629 -0.046343878 0.9485966 0.0071604652
0.012659858 -0.025332287 0.029039135 0.43270594 0.0070193312 0.90150785 0.014330961
-0.042790353 -0.022574482 0.027594984 -0.51350415 -0.095295444 0.85277909 0.0090153022
-0.040541563 -0.022497529 0.028546041 -0.28601158 -0.083983012 0.95453876 0.0080182245
-0.037504025 -0.022446772 0.029007742 -0.12262594 -0.0793299 0.98927736 0.0036926388
-0.034464717 -0.022536943 0.029022448 -0.013119706 -0.060516059 0.99808103 0.0010005344
-0.031368241 -0.022497296 0.029030457 -0.0095121851 -0.058715433 0.99822938 0.00056122226
-0.028352337 -0.022482596 0.029039444 -0.0077667986 -0.056736324 0.99835896 0.00054955384
-0.02545462 -0.022430336 0.029036628 0.032419059 -0.062307958 0.99753028 0.0017321118
-0.022615032 -0.022498988 0.02903924 0.087176844 -0.051742036 0.99484813 0.0020470836
-0.019645261 -0.022617461 0.02829094 -0.020479625 -0.0029828865 0.99978578 0.017005192
-0.016498892 -0.022533128 0.028527044 -0.30852348 0.08591412 0.94732893 0.013176106
-0.014357953 -0.022419596 0.029783241 -0.37407142 0.063644387 0.92521346 0.0062470264
0.0079211965 -0.022368932 0.02982156 0.19056736 0.0045408243 0.98166364 0.007556892
0.011361064 -0.022486139 0.029693186 0.30218184 0.055438444 0.95163685 0.0084899608
0.012974055 -0.023282714 0.028912943 0.5436151 0.019776482 0.83910155 0.018902814
-0.04282951 -0.01948289 0.027573654 -0.51592261 -0.0018057919 0.85663325 0.0037138134
-0.040563997 -0.019513845 0.02853792 -0.30056968 0.0005349571 0.95375967 0.0049925279
-0.037547171 -0.019511221 0.029001271 -0.12932904 0.00074668118 0.99160147 0.0040208395
-0.034379836 -0.019539637 0.029019391 -0.0029931781 -0.014824672 0.99988556 0.00030422249
-0.031357344 -0.019481217 0.029024495 -0.00054255011 -0.00070591911 0.99999958 1.3161821e-05
-0.028332951 -0.019463643 0.029022345 5.8496709e-05 9.8663411e-05 1 2.1526224e-05
-0.025447128 -0.01944918 0.02902331 0.027175613 0.00080590113 0.99963039 0.0011445213
-0.022544494 -0.019537285 0.029030517 0.10140448 -0.0025546651 0.99484199 0.0023820831
-0.019672981 -0.019552249 0.028387798 0.093004145 0.054608017 0.99416703 0.016413666
-0.016436869 -0.019535689 0.028089108 -0.2220325 0.21789142 0.95038146 0.034635708
-0.013998683 -0.019340595 0.029599706 -0.43038219 0.19216919 0.8819536 0.007526861
-0.0096375365 -0.019364566 0.029903451 -0.18454303 0.12537955 0.97479427 0.013669239
0.0067763333 -0.019977938 0.029725343 0.10452671 0.060883541 0.99265671 0.015064906
0.010736097 -0.01936318 0.029614776 0.34400386 0.14163998 0.92822385 0.010846943
0.012381931 -0.019874563 0.028734393 0.56131166 0.16590144 0.81080574 0.014821127
-0.042903379 -0.016390882 0.027533492 -0.51827335 -0.0014062517 0.85521376 0.0037590333
-0.040618721 -0.016507415 0.028518928 -0.30003542 0.00097763061 0.95392758 0.0049587577
-0.037498821 -0.016563464 0.029010797 -0.13113414 0.0031458163 0.99135965 0.0041353786
-0.034426682 -0.016473217 0.029031551 -0.0040918426 -0.00025743761 0.9999916 7.9821993e-06
-0.031367522 -0.016465407 0.029035212 -0.00078372553 -0.00026700061 0.99999958 4.1003127e-06
-0.028360473 -0.016469719 0.029038383 0.0013648748 -0.00031428415 0.99999899 1.1710165e-05
-0.025444545 -0.016473196 0.02903151 0.012111215 -9.7613942e-05 0.99992669 0.00047943849
-0.022548122 -0.016589398 0.029030144 0.11814299 0.019887332 0.99279749 0.0025626791
-0.019639606 -0.01649482 0.028347397 0.23034395 0.040019605 0.97228611 0.002204516
-0.01648769 -0.016732106 0.02750724 -0.014923556 0.17491135 0.98447108 0.035664883
-0.013522838 -0.016522003 0.029095421 -0.47283214 0.33945686 0.81314135 0.010516729
-0.011271366 -0.015726885 0.029780053 -0.29181343 0.23249108 0.92778927 0.0071239923
-0.008083066 -0.01734272 0.029956684 -0.16456611 0.13689429 0.97682035 0.017628249
-0.00012273317 -0.015372416 0.029962715 0.050406925 0.21255666 0.97584778 0.012457086
0.0020740177 -0.015897151 0.029877849 0.078425184 0.19873142 0.97691119 0.021467227
0.004327314 -0.017169394 0.029785445 0.15293796 0.15836051 0.975465 0.022358317
0.0082491245 -0.01580454 0.029736714 0.23584428 0.20173392 0.95062137 0.010600599
0.01031738 -0.016538445 0.029103681 0.43552446 0.28703308 0.8531884 0.015692897
0.012098882 -0.017537907 0.027453685 0.76639742 0.34260592 0.5433749 0.022493925
-0.042870786 -0.013582985 0.027552916 -0.51774663 0.0011169417 0.85553324 0.0036647655
-0.040662676 -0.013529249 0.02850428 -0.30215979 0.00075375265 0.95325696 0.0051162727
-0.03752245 -0.013527987 0.029000463 -0.13119482 -0.00022898191 0.99135661 0.0039784927
-0.034355707 -0.013476445 0.029019937 -0.0032151239 -0.00037710415 0.99999475 9.3906947e-06
-0.031379584 -0.013472228 0.029026086 -0.00018038707 -0.00025195023 0.99999994 9.5261203e-06
-0.028343374 -0.013470273 0.029024726 -0.00054537348 5.8015208e-05 0.99999982 1.3825553e-05
-0.025452234 -0.013444711 0.029025616 -0.00081856147 -0.00040180155 0.99999958 1.7267965e-05
-0.022550523 -0.013603132 0.029042469 0.11691394 0.012899723 0.9930582 0.0032269023
-0.019357948 -0.013427407 0.028130649 0.24899928 0.020447513 0.96828783 0.0018634101
-0.016739324 -0.013552842 0.027365685 0.20842339 0.049823597 0.97676885 0.010222967
-0.013144703 -0.014123593 0.028088426 -0.39448178 0.39088836 0.83161914 0.033347659
-0.01047799 -0.013461898 0.029268332 -0.34653154 0.4146837 0.84139967 0.0151667
-0.0078480253 -0.012799335 0.029712275 -0.17807785 0.33186036 0.9263677 0.0019576002
-0.0055340515 -0.012288895 0.029896243 -0.099905729 0.29550549 0.95010281 0.004865373
-0.0017382109 -0.013489719 0.029938847 0.0034975365 0.23564571 0.97183269 0.0092839524
0.0017845689 -0.012374833 0.029781386 0.097304225 0.25106302 0.96306765 0.014842801
0.0047933813 -0.012914255 0.029716056 0.20333837 0.30101237 0.93168938 0.011411007
0.0074414224 -0.013496522 0.029189609 0.43155429 0.51649439 0.7395907 0.023819331
0.0096789487 -0.01439679 0.028443823 0.58456832 0.54011303 0.60544014 0.023704825
-0.04290919 -0.010480955 0.027530283 -0.52352268 -0.00016590876 0.8520118 0.0037777189
-0.040600408 -0.010513422 0.028525183 -0.30466253 0.0009425818 0.95245987 0.0051708552
-0.037495162 -0.010470818 0.029009541 -0.13187681 -0.00031411392 0.99126607 0.0040621529
-0.034415569 -0.010462937 0.029032232 -0.004735467 -0.00065569411 0.99998856 7.7078439e-06
-0.031376999 -0.010451925 0.029039757 -0.00073992729 -0.00079202763 0.99999946 9.4631387e-06
-0.028363144 -0.010471921 0.029037729 0.00067574653 -0.00060736225 0.99999958 9.1021857e-06
-0.025443414 -0.010521335 0.029027248 -0.0014635912 -0.00084899523 0.99999857 6.4152882e-06
-0.022541264 -0.010562585 0.029039273 0.12489147 -0.0096927602 0.99212301 0.0033704983
-0.019435361 -0.010512657 0.028161302 0.27237788 0.00043307271 0.96219033 0.00050819712
-0.016733453 -0.010493419 0.027359119 0.2327189 0.052460406 0.97112811 0.0086460663
-0.014636244 -0.01058534 0.027033534 0.24691291 0.051810928 0.96765161 0.007248586
-0.009571515 -0.011614833 0.028681586 -0.34523872 0.61178374 0.71170986 0.030157147
-0.0073991879 -0.010959768 0.028900431 -0.25038928 0.64713115 0.72008783 0.028077355
-0.0044140122 -0.010519142 0.02916945 -0.11808448 0.51578188 0.84854293 0.01234414
-0.0014504016 -0.010263104 0.029261438 -0.040784176 0.62201995 0.78193855 0.038330447
0.0014832218 -0.01035186 0.028961383 0.15613547 0.72752285 0.66808099 0.020600151
0.0044500511 -0.010957636 0.02869975 0.26672518 0.70875305 0.65309012 0.023590233
0.0066771628 -0.011635797 0.028169528 0.40264288 0.69849175 0.5915978 0.0269471
-0.042995799 -0.0074531096 0.027477898 -0.52488405 -0.00045028495 0.85117358 0.0038686323
-0.040711522 -0.0074684485 0.028493091 -0.30589446 0.001636593 0.95206404 0.0054384344
-0.037573624 -0.0074382592 0.028997002 -0.13535602 0.0022609283 0.99079448 0.0043184054
-0.03435206 -0.0074708476 0.029031254 -0.0046613985 -0.00016964819 0.99998909 1.2535381e-05
-0.031335697 -0.0074293166 0.029028831 -0.0001252557 0.00024080623 0.99999994 9.8176806e-06
-0.028340764 -0.0074619073 0.029035032 0.0010341337 0.00032890704 0.99999946 8.0309628e-06
-0.02543995 -0.0074889935 0.029037217 0.011199805 -0.00019438143 0.9999373 0.00040991185
-0.022594696 -0.0075471741 0.029038379 0.10887567 0.00094121735 0.99405491 0.0039080246
-0.019470491 -0.0075187744 0.028182706 0.29726967 0.012128905 0.9547165 0.0024296069
-0.016778899 -0.0076074288 0.02737263 0.27011269 0.03054492 0.96234405 0.00377434
-0.014635883 -0.0075828494 0.027034409 0.20545951 0.044387154 0.97765851 0.01107133
-0.0017941685 -0.0089072753 0.027215742 0.044884231 0.88357574 0.46613234 0.0054324167
-0.042938475 -0.0044683274 0.027512759 -0.52598315 0.0012322743 0.85049409 0.0039575938
-0.04066892 -0.0044929474 0.028501565 -0.30713239 1.0500661e-05 0.95166677 0.00541734
-0.037443053 -0.004544022 0.029005818 -0.10973348 -0.0023083044 0.99395841 0.0031096402
-0.034337528 -0.0045480467 0.029033164 -0.0046839123 -0.0013225441 0.99998814 7.0061596e-06
-0.031343151 -0.0045282282 0.029029496 -1.3161476e-05 -0.00058280781 0.99999982 9.2786595e-06
-0.028344626 -0.0045375819 0.02902694 0.00013339536 -0.00032997946 0.99999994 1.4642687e-06
-0.025465749 -0.0044980287 0.029025391 0.015029108 -0.00064981717 0.99988681 0.00085638248
-0.022556568 -0.0045386939 0.029041737 0.12423048 0.0088765193 0.99221379 0.0034137436
-0.019430397 -0.0045263171 0.02815895 0.30468884 -0.002669967 0.95244825 0.0028153083
-0.016665256 -0.0044668084 0.02734448 0.27913728 -0.0056539816 0.96023458 0.0044762031
-0.014635985 -0.0045803851 0.027034163 0.21649902 0.00085240422 0.97628254 0.013227759
-0.042995859 -0.0014478998 0.027478637 -0.52116823 -0.00025909708 0.85345387 0.003756606
-0.040613573 -0.0014668562 0.028522385 -0.30369291 -0.0015073036 0.9527688 0.005317844
-0.037526108 -0.0015667407 0.029009417 -0.1096409 0.00076480419 0.99397093 0.0030856067
-0.034394506 -0.0015298693 0.029042216 -0.0042566541 3.5097328e-05 0.99999094 9.5546211e-06
-0.031393047 -0.0015352553 0.029040342 0.00044620995 -5.6384135e-05 0.99999994 9.7023349e-06
-0.028378775 -0.0015375833 0.02903913 0.00058005168 0.0004214932 0.9999997 7.48101e-06
-0.025384828 -0.0014947528 0.029038506 0.029317923 -0.00089103798 0.99956977 0.0014893966
-0.022499731 -0.0015212554 0.029047133 0.12668572 -0.0024124668 0.99194002 0.0033715621
-0.019390313 -0.001531911 0.028135059 0.30428556 0.0085697062 0.9525423 0.0022996881
-0.016900877 -0.0015199679 0.027396956 0.29084742 -0.0038748537 0.9567616 0.0074876696
-0.014635883 -0.0015779157 0.027034407 0.23866548 0.037175804 0.97039002 0.0098089585
-0.042924453 0.0014602229 0.027522162 -0.51701438 -0.0016571238 0.85597509 0.0035971634
-0.040643517 0.0015029771 0.028510978 -0.30360514 -0.0026640461 0.95279419 0.0051668175
-0.037456568 0.0014568521 0.029003827 -0.10848995 -2.3931208e-05 0.99409753 0.0030138593
-0.034346689 0.001455716 0.029031163 -0.0034225318 0.00011816312 0.9999941 1.2577632e-05
-0.031338319 0.0014885877 0.029027821 0.00081643608 -0.00034702918 0.99999958 1.1192518e-05
-0.028324744 0.0014895935 0.029025262 1.2124779e-05 -0.00034298442 0.99999994 1.2508503e-05
-0.025319586 0.0014653839 0.029024204 0.026335392 -0.00048172375 0.99965304 0.0012849557
-0.022433961 0.0014943894 0.029040566 0.15700065 0.0024091511 0.98759556 0.003914983
-0.019461229 0.0015203999 0.028177356 0.28118834 -0.0019760856 0.95965046 0.0029891022
-0.016824424 0.0016367332 0.027380684 0.28882769 -0.010413437 0.9573245 0.0042491769
-0.014635985 0.0014245515 0.027034163 0.23535408 -0.010760168 0.97185016 0.011272801
-0.042872202 0.004534136 0.027553871 -0.51691961 0.00094866491 0.8560335 0.0036997616
-0.040599328 0.0044983779 0.02852927 -0.30053779 -0.0044298274 0.95375961 0.0049478621
-0.037518594 0.004486864 0.02900918 -0.13124163 -0.0031190543 0.99134547 0.0039815651
-0.034373283 0.0044660363 0.029043818 -0.0041431212 -6.6289365e-05 0.99999142 5.9978556e-06
-0.031385358 0.0044797696 0.029042801 7.4450385e-05 6.6450375e-05 1 1.0300668e-05
-0.028385336 0.0044911932 0.02904126 -0.00067750341 7.6531564e-05 0.99999976 1.8568389e-05
-0.025347652 0.0044449489 0.029040074 0.014921123 0.00035628385 0.99988866 0.00086279755
-0.022461301 0.0045057689 0.029044179 0.13781603 0.0067135231 0.99043512 0.0040730103
-0.019166097 0.0044653886 0.028045833 0.29783767 0.012214339 0.95453835 0.0016932109
-0.016708804 0.0045442008 0.027355948 0.27153599 -0.017535789 0.96226847 0.006670699
-0.014635812 0.0044270153 0.027034583 0.22890848 0.023937246 0.97315365 0.0088281492
-0.042801499 0.0075409724 0.027594266 -0.51574701 0.001567691 0.85673952 0.0038386725
-0.040538501 0.0075233574 0.028548583 -0.30429971 -0.0022266223 0.95257372 0.0050136917
-0.037599705 0.007553339 0.029001981 -0.12978123 -0.0025306272 0.99153942 0.0038926771
-0.034473553 0.0075169294 0.029031286 -0.011580466 0.00032519604 0.99993294 0.00021867357
-0.031325366 0.0074778423 0.029027103 0.0011033636 0.00024619384 0.99999934 7.8035682e-06
-0.028311126 0.0074874051 0.029024778 -0.00048829173 3.7647122e-05 0.99999994 1.5091078e-05
-0.025306337 0.0074768332 0.029023917 0.015798686 -4.8495462e-05 0.99987519 0.00086046307
-0.022315664 0.0075134686 0.029036783 0.16036515 -0.005812617 0.98704064 0.0040146923
-0.019021265 0.0074728937 0.027970662 0.29510483 -0.0027159804 0.95546097 0.0020372919
-0.016617561 0.0076316656 0.027330859 0.25175887 -0.010755006 0.96773016 0.003329196
-0.014635812 0.0074294815 0.027034584 0.2101617 -0.017507542 0.97750992 0.0097909886
-0.042810053 0.010433893 0.027588764 -0.51468998 -0.00019296566 0.85737634 0.003746846
-0.040542096 0.010498017 0.02854939 -0.30545121 0.00028698109 0.95220774 0.0049756211
-0.037622165 0.010564014 0.029011145 -0.13022064 -0.0018206561 0.99148339 0.0040273299
-0.034505595 0.010497336 0.029041892 -0.012720718 -0.0003986393 0.999919 0.00025066079
-0.031384021 0.010520413 0.029038383 -0.00067729369 3.9438524e-05 0.99999976 1.7936813e-05
-0.028357351 0.010479656 0.029043294 -0.00087015616 -5.1151485e-05 0.99999958 1.3279173e-05
-0.025345745 0.010505085 0.029041991 0.015040632 -0.00024163141 0.99988687 0.00086365751
-0.022317441 0.010482597 0.029042134 0.16454825 0.0094178468 0.98632407 0.0041383128
-0.018930567 0.010579925 0.027923545 0.27419361 0.0016054568 0.9616732 0.00050432002
-0.0165624 0.010490541 0.027326288 0.23928383 -0.033226326 0.97038096 0.0026106068
-0.014635812 0.010431945 0.027034583 0.25122777 -0.024367049 0.96762127 0.001952
-0.0096265115 0.011717632 0.027717724 -0.26152542 -0.6493445 0.71411216 0.037540622
-0.007265294 0.0111338 0.028712584 -0.25055233 -0.65252787 0.71514404 0.025014624
-0.0044250782 0.010745742 0.028988818 -0.1089862 -0.60015047 0.79242754 0.023790136
-0.0015805851 0.010593083 0.029032553 -0.018807594 -0.62684911 0.77891374 0.018950244
0.00096468552 0.010464701 0.028898424 0.064445615 -0.70684373 0.70442784 0.029539337
0.0043234327 0.011158772 0.028551072 0.29657531 -0.71130043 0.63725567 0.027178712
0.0061654504 0.011589246 0.027527004 0.42516518 -0.72851443 0.53712314 0.024816772
-0.042829711 0.01346751 0.027577773 -0.5193904 0.0008924724 0.85453653 0.0039181109
-0.040561315 0.013524321 0.028544391 -0.3057622 0.0013233694 0.95210701 0.0049735559
-0.037600875 0.013575628 0.029005788 -0.13219497 -0.00044222467 0.99122363 0.0040569049
-0.034556899 0.013483696 0.029022798 -0.013567579 -0.00048185949 0.99990791 0.00029471979
-0.031435154 0.013526231 0.029028604 0.00034436572 -4.7675636e-05 0.99999994 4.5160837e-06
-0.028332992 0.013514187 0.029025311 -0.00049175072 -0.00023489377 0.99999982 9.0995663e-06
-0.025345543 0.013464141 0.029022628 0.016109655 0.00054047495 0.99987012 0.00086207298
-0.022341838 0.013493496 0.029042793 0.16259609 -0.0069764238 0.98666805 0.0040773372
-0.019031828 0.013450355 0.027943937 0.26235968 -0.011611043 0.96490031 0.00092851208
-0.016704323 0.013469511 0.027360478 0.19789356 -0.025108965 0.97990185 0.0057371464
-0.01316163 0.014278273 0.027917102 -0.24399915 -0.3613905 0.89992291 0.035323206
-0.010475419 0.013681147 0.029113939 -0.38628888 -0.50672179 0.77072299 0.015231144
-0.007710265 0.013054072 0.029650031 -0.17783205 -0.35168135 0.91907346 0.015832586
-0.0048462991 0.012419212 0.029828949 -0.08095663 -0.29722065 0.9513706 0.010223921
-0.0016361768 0.012337307 0.029866865 -0.00096121611 -0.29527721 0.95541114 0.0076205553
0.0019112572 0.012263721 0.029831508 0.095527947 -0.31178233 0.9453392 0.010962605
0.0047012623 0.012920083 0.029645015 0.23270667 -0.40635985 0.88358319 0.0069420217
0.0072796317 0.013533448 0.029017307 0.4467414 -0.57075399 0.68895715 0.025386279
0.0094597535 0.014527321 0.028308626 0.60785037 -0.55013031 0.57260334 0.027861888
-0.042807773 0.016505672 0.027590899 -0.52287138 -0.00022869122 0.85241163 0.0040675453
-0.040580779 0.016517578 0.028537029 -0.3089419 0.00016376722 0.95108098 0.0051379185
-0.037595976 0.016489722 0.029007589 -0.13241124 -0.0010121798 0.99119431 0.0039652227
-0.034572214 0.016506808 0.029039243 -0.013954011 -0.00093024579 0.99990225 0.00033971528
-0.031516474 0.016497521 0.029042469 -0.00016744697 -0.00041739218 0.99999994 9.5383975e-06
-0.028371526 0.016538568 0.029042253 0.0009948709 -0.0002919494 0.99999946 9.7135717e-06
-0.025386767 0.016436024 0.029043414 0.015655294 0.00048360243 0.99987733 0.00086460612
-0.022409657 0.01652075 0.029034374 0.14621851 -0.019446347 0.98906112 0.0036508914
-0.019317858 0.016588416 0.028153449 0.23067378 -0.053561814 0.97155583 0.002490225
-0.016613079 0.016544642 0.027430883 0.01354775 -0.18368791 0.98289132 0.040697943
-0.013477172 0.016595233 0.02890523 -0.45090619 -0.36711532 0.81357843 0.015020262
-0.011072139 0.015969148 0.029767605 -0.32076973 -0.28424743 0.90349889 0.012396514
-0.0073201018 0.017401794 0.029806655 -0.1631953 -0.15562454 0.97424245 0.023212705
-0.0049952711 0.01588238 0.029892698 -0.07988929 -0.15346181 0.98491991 0.012112074
0.002221802 0.016112451 0.029984992 0.017680043 -0.16569339 0.9860189 0.0085657267
0.0082450882 0.015947424 0.029716156 0.25255495 -0.23099597 0.93960464 0.0071774605
0.010166408 0.016747039 0.02911903 0.39975372 -0.28939784 0.869739 0.017797712
0.012060423 0.017941622 0.027343621 0.76292348 -0.37175381 0.52891111 0.023882732
-0.042936489 0.019574137 0.027517537 -0.52371722 -0.0015327971 0.85189074 0.0039240816
-0.04063021 0.019520119 0.028519155 -0.31040114 0.00071342685 0.95060539 0.0051145703
-0.037622269 0.0194885 0.029016012 -0.13677774 0.0025904987 0.99059838 0.0043135895
-0.034647759 0.019509053 0.029027184 -0.015103751 0.010757336 0.9998281 0.00050567609
-0.031477947 0.019529162 0.029029483 -0.0015957233 0.013241905 0.99991107 0.0002108654
-0.028346715 0.019508861 0.029027322 0.00021634637 0.00089619076 0.99999958 1.2605313e-05
-0.025314366 0.019515632 0.029024923 0.043978576 0.00023694737 0.99903244 0.0020431334
-0.022403695 0.019508744 0.029033735 0.12660679 0.00068247825 0.99195272 0.0028563074
-0.019569719 0.019545458 0.028337048 0.13439547 -0.070988514 0.9883818 0.011455044
-0.016412703 0.019509172 0.027950063 -0.18846011 -0.21031058 0.95929778 0.031981762
-0.013927661 0.019398654 0.029555768 -0.44190526 -0.22021134 0.86961299 0.0091326162
-0.010230192 0.019652124 0.0298627 -0.14371487 -0.071935236 0.98700118 0.012826342
-0.0086802617 0.018852632 0.029761769 -0.20120566 -0.064498402 0.97742331 0.020425191
0.005527799 0.018793054 0.029884301 0.1895318 -0.1118584 0.97548217 0.01666108
0.0068706321 0.020601064 0.029895952 0.20352584 -0.049646694 0.97781003 0.019433996
0.010787395 0.019319706 0.029567007 0.35930642 -0.17290047 0.91706288 0.0096138986
0.01225693 0.019598756 0.028729524 0.5136143 -0.25253314 0.82001668 0.015208699
-0.042976733 0.022524655 0.027492886 -0.51644355 0.043757502 0.8552025 0.004037933
-0.040652726 0.022540471 0.028512886 -0.30236033 0.039256226 0.95238501 0.0048679803
-0.037599918 0.022505544 0.029008552 -0.134469 0.044214964 0.98993087 0.0039296686
-0.034539275 0.02244403 0.029019201 -0.0048114476 0.037067711 0.9993012 0.00033568955
-0.031469833 0.022491479 0.029035678 -0.00050538796 0.042605519 0.99909186 0.0003973257
-0.028362215 0.022475839 0.029041385 -0.0043073953 0.044679657 0.99899209 0.00043626255
-0.025342057 0.022519706 0.029034883 0.044203512 0.048682977 0.9978357 0.0020373387
-0.022441754 0.022516692 0.029043457 0.092561051 0.040781926 0.9948715 0.0022803014
-0.019478073 0.022599146 0.028272236 -0.013634403 -0.0091404747 0.99986529 0.018652601
-0.016403863 0.022499429 0.028534396 -0.29314858 -0.043091621 0.95509523 0.012300794
-0.014297153 0.022439411 0.02977003 -0.35094956 -0.096390806 0.93142003 0.0093896808
-0.010095147 0.021871746 0.029923733 -0.17421311 -0.11735171 0.97769034 0.017727047
0.0075438237 0.02242624 0.02997834 0.19921041 -0.037910108 0.97922319 0.0085978797
0.011307271 0.022121066 0.029712845 0.26677737 -0.057045449 0.96206838 0.013284332
0.012933769 0.022475583 0.028725831 0.78300345 -0.10732298 0.61268866 0.028490495
-0.042777389 0.025062839 0.02744914 -0.53112692 0.096470565 0.84178239 0.0040922943
-0.040541377 0.025469771 0.028252622 -0.3072854 0.10131796 0.94620836 0.0050788946
-0.037595857 0.025502136 0.02874553 -0.12840606 0.091075465 0.98753083 0.0032243207
-0.034647509 0.025465855 0.028785584 -0.021615151 0.093115874 0.99542063 0.00072639209
-0.031549156 0.025483547 0.028748723 0.0009248819 0.078046255 0.99694932 0.00033913099
-0.028504824 0.025481388 0.028764725 -0.0016016123 0.085460648 0.99634027 0.00025311214
-0.025392905 0.025468186 0.028801451 0.016114533 0.086328998 0.99613631 0.00064950407
-0.0224113 0.025547698 0.028667837 0.069854677 0.053803794 0.99610519 0.0024080595
-0.019386133 0.025597176 0.028182751 -0.03288275 0.028811406 0.99904382 0.009539512
-0.016435919 0.02551295 0.028676679 -0.29142618 0.00068690226 0.95659304 0.0060117389
-0.014437052 0.025614129 0.029788256 -0.34048346 0.0081718564 0.94021499 0.0053971591
0.011493142 0.025675284 0.029655999 0.27784243 0.014138826 0.96052265 0.0078326901
0.013119502 0.025461407 0.028776262 0.58040941 0.051630389 0.81268638 0.014275946
-0.042317051 0.028569937 0.027336862 -0.57198006 -0.011660158 0.82018465 0.011835221
-0.04058617 0.028516516 0.027914554 -0.31295118 -0.03424681 0.94915158 0.014652375
-0.037571795 0.028541939 0.028456209 -0.14383058 -0.023164954 0.98933113 0.0098846974
-0.034483045 0.028493786 0.02846756 0.026265578 0.0019708758 0.9996531 0.0023131189
-0.031411003 0.028487468 0.028452888 0.022512345 0.023261385 0.99947596 0.0015920317
-0.028378621 0.028458759 0.028452026 0.0027517308 0.046215143 0.99892777 0.00067256438
-0.025389977 0.028549669 0.028449394 -0.0040573888 0.037729487 0.9992798 0.0015047081
-0.022321863 0.028519204 0.028426157 0.036640614 0.014679747 0.99922073 0.0025858218
-0.019373499 0.028476914 0.02834559 -0.077654272 0.0098397862 0.99693179 0.00770901
-0.016444398 0.028515847 0.028553518 -0.25555813 0.035645444 0.9661364 0.0068647824
-0.014220223 0.028636789 0.029651904 -0.3287884 0.086013623 0.94047856 0.003215804
0.0068301009 0.029024821 0.029863112 0.14028046 0.091336362 0.98588997 0.010258832
0.011086458 0.028608782 0.029620435 0.33397946 0.10226533 0.93701625 0.0070780823
0.01293575 0.027894672 0.028715231 0.53010476 0.13842833 0.83655638 0.019241547
-0.042287529 0.031846564 0.028048202 -0.58409142 -0.045681451 0.81040144 0.012043302
-0.040410593 0.031407632 0.028560853 -0.30028665 -0.066914774 0.95149899 0.01612928
-0.03746438 0.031489622 0.028941987 -0.1047661 -0.051606946 0.99315703 0.0062280372
-0.034612134 0.03155943 0.02893433 0.031436373 -0.020747712 0.99929041 0.0018180605
-0.031435978 0.031503569 0.028484745 0.038639706 -0.010115114 0.99920207 0.0011262825
-0.028404152 0.031419024 0.028452046 -0.079683572 -0.095285252 0.99225563 0.012261803
-0.025371714 0.031542715 0.028451353 -0.074724205 -0.17705292 0.98136055 0.021068169
-0.022393323 0.031343553 0.028448066 -0.0032081273 -0.16786252 0.98580515 0.016739005
-0.019396866 0.031345207 0.028438384 0.041702032 -0.14320859 0.98881358 0.017208563
-0.016418552 0.03148691 0.028448535 -0.15173352 0.02707429 0.98805064 0.014698022
-0.013608863 0.031586733 0.029368199 -0.31301364 0.15856348 0.93641877 0.0029877841
-0.011600797 0.032350756 0.0298086 -0.20638424 0.17660359 0.96240151 0.0064319856
-0.0078448439 0.031816959 0.029898196 -0.068516172 0.27063644 0.96024036 0.015345924
0.0028046784 0.032746732 0.029898234 0.1291233 0.22450064 0.96588129 0.020350896
0.0047250949 0.031693969 0.029814139 0.13041842 0.062024202 0.98951709 0.018009664
0.0082888165 0.032323167 0.029847562 0.19416988 0.16682243 0.96667898 0.016862217
0.010510143 0.031564057 0.029252227 0.43042615 0.26080093 0.8641274 0.0089917481
0.01221017 0.030457668 0.028495204 0.56823981 0.22221957 0.79228914 0.013410268
-0.042262424 0.033926286 0.027745128 -0.54707146 0.052028488 0.83546746 0.014917012
-0.040534955 0.034503762 0.028218428 -0.29536974 0.091296449 0.95101088 0.013085611
-0.037498739 0.034495313 0.028722145 -0.10676984 0.088697031 0.99031967 0.002197864
-0.034561556 0.034469377 0.028712243 0.040588707 0.039573707 0.99839193 0.0010737077
-0.031434167 0.034552656 0.028453166 -0.041085742 -0.029515861 0.99871957 0.010814443
-0.028335482 0.034469262 0.028517082 -0.17540629 -0.1587493 0.97161269 0.016500555
-0.025705725 0.034055244 0.028808033 -0.17187101 -0.25737897 0.95090294 0.018969435
-0.022675306 0.033527423 0.029034689 -0.022442462 -0.30411947 0.95236957 0.022483148
-0.019455692 0.034369279 0.029014537 0.18146293 -0.23415649 0.95511359 0.021573493
-0.016245389 0.034384459 0.028450469 0.11780217 -0.087636039 0.9891625 0.027256981
-0.013453779 0.034480464 0.028696323 -0.17867883 0.13107482 0.97513759 0.0099689784
-0.010784473 0.034664169 0.02951769 -0.23214586 0.25331953 0.93911529 0.0018963466
-0.0079857809 0.035321657 0.029845783 -0.1461248 0.25520831 0.95578051 0.0055457219
-0.0055603422 0.03480041 0.029879022 -0.10089707 0.27728477 0.95547515 0.0080673099
-0.0020267875 0.033693075 0.029988179 0.033348016 0.18907534 0.98139614 0.0084789572
0.0015805976 0.03407082 0.029885896 0.024973903 0.17682752 0.98392498 0.011856768
0.0052258908 0.035420496 0.02985456 0.15364626 0.23013073 0.96095401 0.011272145
0.0076481886 0.034598 0.029496109 0.27513653 0.27765244 0.92043954 0.0070798332
0.0096995216 0.034005411 0.02875125 0.47371897 0.35686344 0.80513275 0.014341887
-0.042298928 0.037435189 0.02730355 -0.54373693 0.06246569 0.83692789 0.003417853
-0.040432084 0.037536338 0.027931018 -0.30511507 0.079303421 0.94900769 0.0064869486
-0.037366591 0.037525412 0.028436461 -0.10684209 0.046128463 0.99320537 0.0035401767
-0.034505863 0.037465945 0.028454125 0.014824824 0.026984004 0.9995259 0.00062655396
-0.031539049 0.037519488 0.028453402 -0.066591181 0.0060071624 0.99776232 0.0097172009
-0.028514326 0.037413359 0.028671375 -0.30193341 -0.019222967 0.95313519 0.016179444
-0.026444973 0.037543513 0.029948192 -0.31565842 -0.055539206 0.94724607 0.011854752
-0.018880816 0.037290003 0.029967265 0.21440801 0.040832929 0.97589034 0.01091568
-0.01646374 0.037513863 0.028767824 0.22571847 -0.024248794 0.97389072 0.017596388
-0.013452048 0.037509773 0.02844988 0.0099438149 0.080357216 0.9967165 0.014299179
-0.010462128 0.037480768 0.028660536 -0.11642263 0.18873294 0.9751029 0.0069523542
-0.0075609605 0.037581597 0.029191023 -0.14077547 0.37772644 0.91515297 0.013295818
-0.0046006227 0.037862755 0.029538287 -0.11313111 0.45345756 0.88406873 0.013783768
-0.0016723234 0.03805656 0.029596129 -0.022673553 0.3653127 0.93060869 0.0053032488
0.0015605297 0.03787943 0.029515997 0.15314007 0.45179051 0.87888193 0.013327885
0.0044189114 0.037527986 0.029141143 0.29547015 0.59362382 0.7485373 0.018038776
0.0070343707 0.036769405 0.028578753 0.39339194 0.62981391 0.66975915 0.025220677
-0.042425085 0.039937288 0.027056057 -0.55395257 0.018903948 0.83233356 0.0023727119
-0.040411934 0.040531188 0.027931178 -0.32722789 0.0014639586 0.94494438 0.0074408022
-0.037379775 0.040551975 0.028451942 -0.11986031 -0.031599429 0.9922877 0.0043447115
-0.03453454 0.040501293 0.028454402 -0.0054320102 -0.10061444 0.99491066 0.012907234
-0.031531323 0.040553611 0.028453551 -0.089056022 0.016459301 0.99589062 0.010495541
-0.028471908 0.040505018 0.028604945 -0.21893847 0.12504058 0.96769351 0.0176316
-0.026408214 0.041158862 0.029227875 -0.32292613 0.17741862 0.92964578 0.015238575
-0.022481101 0.041783955 0.029979173 -0.0071677803 0.26785392 0.96343285 0.010491803
-0.018867729 0.041088048 0.029163934 0.28812292 0.18418354 0.9397136 0.013810922
-0.016296895 0.040550109 0.02848956 0.16416228 0.085185446 0.98274833 0.015622417
-0.013563973 0.040573921 0.028450182 0.023030704 0.025780393 0.99940228 0.0044269483
-0.010618017 0.040505469 0.028449489 -0.03627548 -0.054268278 0.99786723 0.016297998
-0.0076448224 0.040602915 0.028350092 0.10377248 0.1630315 0.9811483 0.044809282
-0.0045043537 0.039491277 0.028621232 -0.029791124 0.44728953 0.89389288 0.042438745
-0.0019477556 0.039489046 0.028842792 0.006941007 0.58154166 0.81348699 0.019145701
0.0012673209 0.039515711 0.028247505 0.17220108 0.79478967 0.58194172 0.028221997
0.0036587506 0.039068788 0.027514663 0.30046082 0.78736103 0.53831768 0.022594899
-0.042223077 0.044229221 0.027162183 -0.51656193 -0.013314911 0.85614628 0.0017351643
-0.040500294 0.043555126 0.028049624 -0.37406522 -0.057728309 0.92560399 0.010236421
-0.037347186 0.043588847 0.028434655 -0.18604328 -0.18944822 0.96410435 0.015431971
-0.034560923 0.043533817 0.028563896 -0.0057429392 -0.27345452 0.96186775 0.020081336
-0.031476561 0.043334898 0.028498126 0.14663157 -0.20876865 0.96690989 0.020161916
-0.028380444 0.043543462 0.028453181 -0.064194255 0.020982035 0.99771684 0.027605271
-0.025511459 0.0436696 0.028548928 -0.15311982 0.22127984 0.96311456 0.019166077
-0.022488419 0.043778859 0.028665574 0.013704068 0.31125847 0.95022649 0.016804866
-0.01917376 0.043819949 0.028514402 0.11355547 0.21203771 0.97064161 0.025349872
-0.016388958 0.043533217 0.028451173 -0.038073514 -0.073260598 0.99658585 0.021553466
-0.013504331 0.043650765 0.028503487 -0.12448669 -0.17806651 0.97611243 0.020997711
-0.010660202 0.04341872 0.028593713 0.019196192 -0.22257911 0.97472554 0.026596734
-0.0075381142 0.043219004 0.028449418 0.20179243 -0.21493074 0.95555466 0.020832986
-0.0055357865 0.04379797 0.02825591 0.36919916 -0.1573309 0.91593611 0.034409564
-0.042235538 0.046469718 0.027177513 -0.5101189 -0.013012885 0.8600055 0.0092364093
-0.040503345 0.046476617 0.028233498 -0.45647287 -0.14498754 0.87784457 0.013445635
-0.037886519 0.046105679 0.028887287 -0.29155195 -0.22826618 0.92891979 0.013848198
-0.034753714 0.045774616 0.029950893 -0.12286764 -0.2610403 0.95747668 0.007976017
-0.031219594 0.045856748 0.029227002 0.18787356 -0.30533856 0.93352658 0.018285725
-0.028224001 0.046535894 0.028496059 0.18906045 -0.14246051 0.97157663 0.020532859
-0.025382251 0.046462432 0.028453059 0.032404855 0.079666823 0.99629462 0.019791514
-0.022475459 0.046499897 0.028452406 -0.0015931154 0.13330616 0.99107367 0.015116721
-0.019550864 0.046515573 0.028451776 -0.064586319 0.015417938 0.99779296 0.015440877
-0.016441369 0.04647002 0.028622963 -0.19387971 -0.16913925 0.96633464 0.026372449
-0.013905556 0.045648742 0.028829644 -0.18919586 -0.2715013 0.94365883 0.02040218
-0.0096567739 0.045461327 0.029081065 0.095621228 -0.35158274 0.93126053 0.021095578
-0.0075679906 0.046326715 0.02905629 0.28331703 -0.22879916 0.93133372 0.022803217
-0.0050338688 0.046394546 0.028327152 0.45099905 -0.18281011 0.87360191 0.019999115
-0.042064413 0.049630545 0.027195875 -0.61740732 0.033674207 0.78592259 0.00074848975
-0.040394444 0.049456555 0.028493917 -0.52359617 -0.023993051 0.85162866 0.0095494101
-0.038430616 0.049447641 0.029567463 -0.37779453 -0.012356207 0.92580706 0.0088312151
-0.030366937 0.049346488 0.029985879 0.28964514 0.035386693 0.95647973 0.0095226681
-0.028110415 0.049357902 0.028752089 0.30754888 -0.0072128945 0.95150495 0.014495827
-0.025368324 0.049469281 0.028453669 0.11798206 -0.00023712497 0.99301565 0.013061526
-0.02248835 0.049539804 0.028452894 0.00025955419 -0.010520258 0.99994463 0.00037256748
-0.019561347 0.049508344 0.028452219 -0.098583832 0.001762348 0.9951272 0.0093323151
-0.01675844 0.049456794 0.028786836 -0.31367856 -0.0091074612 0.9494856 0.013774882
-0.014573643 0.049543984 0.029982377 -0.29154694 -0.010734092 0.95649636 0.0091028353
-0.0064397934 0.049595192 0.029271644 0.50466031 0.015026826 0.86318719 0.016761195
-0.0047220099 0.04952848 0.028318202 0.49494576 -0.031617515 0.86834842 0.017760662
-0.042025678 0.052008905 0.027105823 -0.58963537 0.090886809 0.80253959 0.0055305399
-0.040482756 0.052574243 0.028194165 -0.52518475 0.16337879 0.83515769 0.0089391787
-0.038256247 0.053105783 0.028891919 -0.36905879 0.2014927 0.90730166 0.0086918948
-0.034796424 0.053449027 0.029969407 -0.02898794 0.31122559 0.94989389 0.010943805
-0.03082959 0.053229414 0.029055975 0.2264716 0.28656387 0.9309091 0.019531639
-0.028071741 0.052457571 0.028475642 0.19940883 0.11771318 0.9728204 0.02018558
-0.025390923 0.052529406 0.028453762 0.011713061 -0.056048796 0.99835932 0.012026358
-0.022477239 0.052501168 0.028452912 0.0015292502 -0.10836869 0.99410963 0.013146837
-0.019571567 0.052500281 0.028452137 -0.038698133 -0.017683884 0.99909455 0.010294161
-0.016599322 0.052488998 0.028631153 -0.21488491 0.14659393 0.96557474 0.023839867
-0.014356364 0.053472489 0.028600194 -0.21438943 0.29112756 0.9323529 0.021287801
-0.010648468 0.0535312 0.029961195 0.050939534 0.30010319 0.9525457 0.011597326
-0.0070353053 0.052776441 0.028801784 0.36294052 0.16760805 0.91661435 0.010584043
-0.0049158321 0.052917361 0.028340107 0.42782205 0.16102393 0.88940412 0.01406091
-0.040262301 0.055314962 0.028056772 -0.49925876 0.20648929 0.84148842 0.009896148
-0.037570491 0.055578556 0.028477019 -0.24164161 0.23720597 0.94092649 0.017213313
-0.034540884 0.055874974 0.028561732 -0.012486271 0.2791231 0.96017414 0.017421093
-0.031262193 0.055952657 0.028466472 0.077411667 0.15939753 0.98417473 0.027211316
-0.028243279 0.055564161 0.028454304 -0.11335071 -0.10232656 0.98827165 0.020336809
-0.025351157 0.055548564 0.028519997 -0.13495165 -0.21165802 0.96798187 0.023574552
-0.022507379 0.055416986 0.028733969 0.046489146 -0.31427166 0.94819415 0.022116205
-0.019489503 0.0552526 0.028486898 0.14042822 -0.15863413 0.97729993 0.0255534
-0.016308643 0.055441916 0.028452359 -0.09809114 0.11957377 0.98796773 0.028457969
-0.013379208 0.055716421 0.028556144 -0.13401538 0.23014033 0.96388549 0.02437258
-0.010580513 0.055923436 0.028543895 0.063478112 0.26750705 0.96146274 0.018013922
-0.007226028 0.055827092 0.028460354 0.21694611 0.22243141 0.95050448 0.014228969
-0.0054490971 0.055574026 0.0283323 0.39631304 0.21701258 0.89209944 0.015519409
-0.03973091 0.057874162 0.027717672 -0.55597728 0.29895061 0.77557576 0.015924497
-0.037514742 0.058570608 0.028396703 -0.30883467 0.25436658 0.91647083 0.027729718
-0.034371931 0.058468122 0.028455893 -0.042223472 0.10519394 0.99355489 0.013408973
-0.031395372 0.05848195 0.028455457 -0.050160386 0.019294171 0.99855477 0.012238584
-0.028388584 0.058511823 0.028554775 -0.18549933 -0.1609019 0.96938163 0.021622775
-0.026325993 0.05783394 0.028885424 -0.29099432 -0.23494969 0.92742705 0.01517504
-0.022602562 0.057259202 0.029956838 -0.036060087 -0.30706465 0.95100522 0.0099811144
-0.018986829 0.057912815 0.028976239 0.26030561 -0.20437533 0.94364816 0.017656872
-0.016280852 0.058449339 0.028404122 0.1812757 -0.099050611 0.97843146 0.017724825
-0.013502233 0.058508337 0.028451925 -0.0069858143 0.021873137 0.99973637 0.0069951997
-0.010417067 0.058496285 0.028451204 0.022708304 0.093580663 0.99535275 0.011040461
-0.007584739 0.058442187 0.028400877 0.20773396 0.21968643 0.953197 0.03177562
-0.0057949135 0.057404328 0.027878147 0.61740232 0.26929164 0.7391187 0.044484783
-0.036917664 0.061104983 0.028200651 -0.41428241 0.29330605 0.86159253 0.030800171
-0.034439713 0.061505008 0.028448464 -0.25271755 0.20432159 0.94572008 0.031488281
-0.031394672 0.061494838 0.028455734 -0.10453766 0.053741142 0.99306786 0.015278794
-0.02853816 0.0614191 0.028708303 -0.28708574 -0.028626105 0.95747703 0.020957246
-0.026535615 0.061522424 0.029954029 -0.32242253 0.030909466 0.94609112 0.012177073
-0.018375386 0.061586626 0.029945636 0.30860153 0.061749328 0.94918501 0.0088181943
-0.016124152 0.061436776 0.028596306 0.23423132 -0.010037095 0.97212911 0.017020604
-0.013448808 0.061471909 0.028452458 0.043267027 0.030016933 0.99861246 0.0070095919
-0.010552208 0.061504465 0.028446205 0.19715317 0.17680739 0.96429753 0.044285577
-0.0084363446 0.060860325 0.02831044 0.25699019 0.26565686 0.92918378 0.029013881
-0.033908177 0.063879274 0.028291842 -0.20692131 0.2149902 0.95444369 0.019948604
-0.031404871 0.064487465 0.028413156 -0.17561582 0.25667769 0.95040816 0.023109252
-0.02847854 0.064534716 0.028515434 -0.20312072 0.25289086 0.94593239 0.027501753
-0.026141159 0.065348692 0.028587557 -0.16794418 0.32638168 0.93019867 0.013571548
-0.022309983 0.065442182 0.02993907 -0.0014366194 0.38077834 0.92466521 0.014508311
-0.01898814 0.064905107 0.028894342 0.21917969 0.32168317 0.92112982 0.013455451
-0.016128317 0.064556628 0.028440202 0.22647095 0.24117866 0.94368625 0.025686508
-0.013556494 0.064369179 0.028437549 0.1665211 0.30726048 0.93694282 0.04928115
-0.011088714 0.06366808 0.028373724 0.3544817 0.40492046 0.84284168 0.034622069
-0.030512689 0.066326253 0.028248547 -0.14487037 0.22315797 0.96395689 0.024382912
-0.028285066 0.066825248 0.028352497 -0.17216574 0.40312055 0.89880633 0.026867092
-0.025479103 0.067255795 0.028351955 -0.13536315 0.48341158 0.86486423 0.021274125
-0.022739151 0.06747365 0.028444747 -0.038439095 0.56340289 0.82528752 0.019235052
-0.019524351 0.067103326 0.028286707 0.18250631 0.62557018 0.75852048 0.035156753
-0.016567873 0.066752739 0.028288262 0.25426215 0.58607161 0.76933146 0.028378258
-0.014562656 0.066278242 0.028166384 0.2347565 0.43516147 0.86920881 0.052307677
-0.027113788 -0.060640994 0.030221296 -0.50975776 -0.13885672 0.84903824 0.052450407
-0.025383374 -0.060996633 0.030779215 -0.2492256 -0.31765831 0.91486597 0.039270282
-0.022468681 -0.061107431 0.030784061 -0.045497537 -0.36967543 0.92804635 0.039974097
-0.019721797 -0.06090783 0.030814385 0.23897924 -0.25357875 0.93732953 0.02888974
-0.027082529 -0.059196617 0.030194674 -0.61821705 0.016981281 0.785824 0.043666791
-0.025622593 -0.058545019 0.030619115 -0.36996448 0.0033870183 0.92903972 0.03604706
-0.02243793 -0.058446925 0.030612921 0.03825561 0.05393251 0.99781156 0.016447328
-0.019618807 -0.058524568 0.030642234 0.32562637 0.022039488 0.94524163 0.031102464
-0.025353611 -0.055727556 0.030369977 -0.28936875 0.24826898 0.92446107 0.023063803
-0.022577874 -0.055747349 0.030314928 0.0081039583 0.25237939 0.96759439 0.012630007
-0.019958457 -0.055641949 0.030356189 0.21041755 0.16291973 0.96394068 0.027725726
-0.034230229 -0.052282047 0.030742606 -0.25673002 -0.25932091 0.93104374 0.042419642
-0.031490143 -0.052352354 0.03058826 0.071126416 -0.35958228 0.93039864 0.029820338
-0.028682813 -0.052081913 0.030323066 0.24186961 -0.2247376 0.94392377 0.022167383
-0.024595698 -0.053794265 0.030125985 -0.21076344 0.14395882 0.96687883 0.098452121
-0.022056205 -0.053693112 0.030028731 0.051659156 0.33791721 0.93975705 0.044308856
-0.018837733 -0.052267235 0.030154988 0.046962135 -0.091826737 0.99466699 0.090375505
-0.016225753 -0.052077901 0.030373903 -0.22253428 -0.27590013 0.93507087 0.023700317
-0.013486364 -0.052244086 0.030612314 -0.059633262 -0.37846124 0.92369419 0.026400207
-0.011063796 -0.052311476 0.030768588 0.23562399 -0.29760602 0.9251551 0.03290737
-0.034455549 -0.049445149 0.030744893 -0.34379759 0.0017169972 0.93904215 0.028423399
-0.031404946 -0.049493123 0.030581325 0.096917555 -0.0015778495 0.99529123 0.00071939972
-0.028856495 -0.049578965 0.030290091 0.28482813 -0.035610855 0.95791686 0.01960865
-0.018097272 -0.049436972 0.030040329 -0.3342908 0.015753631 0.94233835 0.016365474
-0.016208403 -0.049544081 0.03030695 -0.23802494 -0.010855575 0.97119832 0.0078540817
-0.013473593 -0.049469378 0.030607864 -0.097805992 -0.033766165 0.99463254 0.0061533167
