# .PCD v0.7 - Point Cloud Data file format
VERSION 0.7
FIELDS x y z normal_x normal_y normal_z curvature
SIZE 4 4 4 4 4 4 4
TYPE F F F F F F F
COUNT 1 1 1 1 1 1 1
WIDTH 558
HEIGHT 1
VIEWPOINT 0 0 0 1 0 0 0
POINTS 558
DATA ascii
0.022490432 0.01645945 -0.017169228 0.0024543134 -0.21007958 -0.97768122 0.0047987807
0.025519811 0.016452005 -0.017118618 0.023449495 -0.25651449 -0.9662559 0.0043251547
0.028540233 0.016490459 -0.016998503 0.063809901 -0.30705342 -0.94955075 0.0039838683
0.031512972 0.016465582 -0.016699808 0.094115816 -0.35347724 -0.93069655 0.0033402091
0.034524918 0.016452977 -0.016283169 0.1443419 -0.40858567 -0.90123427 0.0025213638
0.037407272 0.016687719 -0.015839903 0.20426279 -0.46514553 -0.86134565 0.0018832117
0.040256016 0.017275162 -0.015444279 0.2350519 -0.4930709 -0.83763456 0.0027773727
0.04249071 0.017886659 -0.015122878 0.2888971 -0.52691972 -0.79930848 0.0018334785
-0.036431134 0.020778792 -0.015099958 -0.27179888 -0.48310697 -0.83230585 0.0019670648
-0.034242529 0.020250874 -0.015403965 -0.20572613 -0.4243404 -0.88182306 0.0025538297
-0.031462993 0.019634014 -0.015702762 -0.1739818 -0.39627916 -0.90149498 0.0017448319
-0.028512856 0.019491062 -0.016112616 -0.11409304 -0.32384056 -0.93920714 0.0027303712
-0.025543509 0.019436479 -0.016428767 -0.073761746 -0.26824465 -0.96052277 0.0035192228
-0.022521907 0.019446312 -0.016659277 -0.043154895 -0.20828797 -0.97711504 0.0042290916
-0.019597465 0.01948751 -0.016756853 -0.013398183 -0.14712994 -0.98902643 0.0052925176
-0.016533405 0.019451762 -0.016759053 0.013741545 -0.086658664 -0.99614322 0.0061362921
-0.013472799 0.019459156 -0.01668546 0.030791638 0.083934933 -0.9959954 0.005999126
-0.010528423 0.019539943 -0.016567865 0.03658228 0.13168468 -0.9906165 0.0048041046
-0.0075131166 0.019494276 -0.016448392 0.034079153 0.16348797 -0.98595655 0.0037171289
-0.0045084772 0.019464267 -0.016344531 0.028263774 0.18982553 -0.98141098 0.0032834206
-0.0015788189 0.019451015 -0.016279364 0.012386011 0.20844477 -0.9779557 0.003037133
0.0015041569 0.019488042 -0.016250504 -0.0031742807 0.22301582 -0.97480965 0.0029833615
0.0045294967 0.01943337 -0.016300129 -0.021943396 0.22999498 -0.97294438 0.0028406603
0.007507687 0.019455105 -0.016389607 -0.038602043 0.23403394 -0.97146177 0.0029931571
0.010562204 0.019466557 -0.016536098 -0.051099822 0.22823904 -0.97226322 0.0031627184
0.013580218 0.019443123 -0.016729215 -0.063798353 0.21631953 -0.97423595 0.0036494515
0.016530199 0.019454427 -0.016932169 -0.068198927 0.19665977 -0.97809702 0.0045768376
0.01955571 0.019454941 -0.017147394 -0.06767378 0.16391723 -0.98415005 0.0055771489
0.022509448 0.019533549 -0.017325912 -0.047638778 0.078554302 -0.99577093 0.0040941718
0.025467202 0.019466957 -0.017467679 -0.029331762 -0.0016769611 -0.99956828 0.0027554445
0.028495597 0.01948107 -0.017533485 -0.0024244967 -0.049498718 -0.99877125 0.0046213917
0.031499714 0.019489506 -0.017487122 0.033565816 -0.19435051 -0.98035777 0.0064421762
0.034482922 0.019479122 -0.017329911 0.074867427 -0.25386971 -0.96433657 0.0049555772
0.037500408 0.019575134 -0.017019046 0.12907188 -0.31061512 -0.94173175 0.0043638325
0.040453065 0.019592101 -0.016495558 0.17775834 -0.35568115 -0.91754723 0.0030591423
0.043381989 0.019698406 -0.015789425 0.25950894 -0.41208777 -0.87340647 0.0026602715
0.045961469 0.020435669 -0.015317872 0.31442165 -0.45549563 -0.83286417 0.0026252402
-0.039922252 0.02334775 -0.015286717 -0.27930203 -0.40630656 -0.87000304 0.0026634161
-0.037398532 0.022649549 -0.015670083 -0.23315172 -0.37089452 -0.89893132 0.001948901
-0.034499504 0.022429297 -0.01620701 -0.15356433 -0.30300802 -0.940534 0.0025126764
-0.031476777 0.022519195 -0.016656481 -0.092657737 -0.23666923 -0.96716195 0.0044794749
-0.028479129 0.022429833 -0.016867897 -0.048943363 -0.17421155 -0.98349112 0.0059102825
-0.025492795 0.022419659 -0.016940733 -0.0027948304 -0.084636398 -0.99640793 0.0059816861
-0.0225781 0.022495406 -0.016891874 0.027830232 0.071554877 -0.99704832 0.0059777759
-0.019586036 0.022472 -0.016748948 0.057985928 0.15321088 -0.98649073 0.0052973474
-0.016563566 0.022512311 -0.016508875 0.078883916 0.2058869 -0.97539115 0.0040350375
-0.01356598 0.022477893 -0.016236475 0.0780553 0.25066692 -0.96492153 0.0030184053
-0.010522663 0.02250574 -0.015939953 0.07516665 0.28745085 -0.95484132 0.0025375795
-0.0075041554 0.02242445 -0.015711784 0.068694323 0.32145822 -0.94442886 0.0022694541
-0.004577538 0.022259256 -0.015572879 0.042493317 0.3467626 -0.93698984 0.0019163896
-0.0014785128 0.022036767 -0.015514453 0.026881306 0.37029797 -0.92852396 0.0023181792
0.001537208 0.022025682 -0.015456762 0.0059679206 0.3858031 -0.92256176 0.0023550251
0.0045336471 0.022027576 -0.015470744 -0.015823463 0.39004526 -0.92065972 0.0021997967
0.0075495713 0.022067375 -0.015550431 -0.037956588 0.39191675 -0.91921735 0.0023254587
0.010559346 0.022237798 -0.015652392 -0.057211455 0.38273224 -0.92208612 0.0021720936
0.01346825 0.022405541 -0.015811352 -0.089929469 0.38168463 -0.91990733 0.0021291655
0.016447688 0.022510558 -0.016075542 -0.093711302 0.34976226 -0.93213975 0.0024417089
0.019473208 0.022462511 -0.016448051 -0.10359389 0.32625055 -0.93958974 0.0028717497
0.022554627 0.022520155 -0.016800506 -0.10609786 0.29379237 -0.94996279 0.0036393281
0.025447277 0.022467008 -0.017132947 -0.090421326 0.25303167 -0.96322322 0.0045030727
0.02849021 0.022553718 -0.017382225 -0.073248744 0.20045421 -0.97696102 0.0056616305
0.031492334 0.022483952 -0.017581742 -0.0410247 0.057883352 -0.99748003 0.0046072174
0.034445409 0.022534465 -0.017659212 -0.00130807 0.024582686 -0.99969691 0.0047903038
0.037515737 0.022506148 -0.017580025 0.055834521 -0.08126583 -0.99512732 0.0036677308
0.040544912 0.022489196 -0.01730497 0.14070292 -0.21540011 -0.96633607 0.0068514119
0.043489952 0.022536883 -0.016820543 0.18850265 -0.26980051 -0.94428515 0.0042967033
0.046446096 0.022579798 -0.016080556 0.24906488 -0.32130337 -0.91363603 0.0030877439
0.048950762 0.022994788 -0.015414166 0.33065096 -0.37954545 -0.86406893 0.0025216313
-0.045191519 0.026715431 -0.015035827 -0.33355579 -0.41560158 -0.84617728 0.0023677601
-0.04315741 0.02606865 -0.015400745 -0.27415627 -0.35317704 -0.89448553 0.0034920538
-0.040522199 0.025482694 -0.015918082 -0.22848372 -0.29895675 -0.92650956 0.00198836
-0.037526652 0.025459841 -0.016522711 -0.1385666 -0.21449476 -0.96684599 0.0045421976
-0.034486458 0.025448317 -0.016874781 -0.082635649 -0.14680609 -0.98570758 0.0070963711
-0.031484488 0.025475906 -0.016993864 -0.0092307245 -0.025411854 -0.99963444 0.0083402917
-0.028443472 0.025455045 -0.016930951 0.051765367 0.14014886 -0.98877633 0.0069323364
-0.025487497 0.025422037 -0.016733982 0.074062876 0.20395671 -0.97617429 0.0049153585
-0.022484405 0.025454098 -0.016420184 0.095556714 0.26240578 -0.96021467 0.0037614282
-0.019452969 0.025376147 -0.016057845 0.11937917 0.32315898 -0.93878478 0.0024352267
-0.01656428 0.025408924 -0.015630959 0.13907202 0.3758381 -0.91619033 0.0021231577
-0.013594798 0.024865927 -0.015422645 0.11803402 0.4106693 -0.9041121 0.0027176242
-0.010752149 0.024534071 -0.015182576 0.11017632 0.45065334 -0.88587397 0.0023743294
-0.0084984638 0.024230449 -0.015058246 0.091391072 0.48622781 -0.86903983 0.0018020514
0.014482713 0.024238847 -0.015077429 -0.090258867 0.52888459 -0.84388059 0.0016168715
0.016752673 0.024490133 -0.015195551 -0.11752942 0.50423443 -0.85553169 0.0019936545
0.019658836 0.024860039 -0.015438589 -0.13069314 0.47833019 -0.86840057 0.0024077604
0.022534661 0.02522172 -0.015731947 -0.14029843 0.43580705 -0.88903797 0.0021953965
0.025541963 0.025502307 -0.016100541 -0.138861 0.39477047 -0.90822566 0.0021790846
0.02854144 0.025416249 -0.016612375 -0.12450449 0.35607141 -0.92612725 0.0028925743
0.031475879 0.025457243 -0.01699437 -0.11378109 0.31213567 -0.94319946 0.0039609671
0.034505393 0.025519868 -0.017296793 -0.077653699 0.254273 -0.96400988 0.0049162912
0.037480187 0.025455745 -0.017492121 -0.031278681 0.14920653 -0.98831117 0.0069526169
0.04047199 0.025449082 -0.017507957 0.031055605 0.020339666 -0.99931067 0.0054572658
0.043464977 0.025513878 -0.017313281 0.11302403 -0.099875078 -0.98855978 0.006988633
0.04647246 0.025480427 -0.016847201 0.19738631 -0.18533199 -0.96264774 0.0055329376
0.049469709 0.025420934 -0.016069172 0.26287591 -0.23622042 -0.93546569 0.0029419952
0.05195573 0.025925204 -0.015381933 0.34366006 -0.3048014 -0.88825333 0.0023908603
-0.048368171 0.029751435 -0.015094225 -0.32896432 -0.35826433 -0.87374431 0.0028472983
-0.046261605 0.028837563 -0.015438437 -0.25203982 -0.29261062 -0.922418 0.0035918877
-0.043546457 0.02853029 -0.016038166 -0.19389342 -0.21359619 -0.95748734 0.0039429995
-0.04047944 0.028540276 -0.016602611 -0.13474156 -0.13118114 -0.9821589 0.0062614945
-0.037478652 0.02852161 -0.016867459 -0.056709144 0.017227335 -0.99824208 0.0094404342
-0.034505736 0.028467216 -0.016868571 0.034560382 0.15043813 -0.98801512 0.0071822978
-0.031492252 0.028507223 -0.01666034 0.087514631 0.22774434 -0.96978027 0.0052086492
-0.028513217 0.028474696 -0.016305747 0.11464156 0.29247904 -0.94937521 0.0035612229
-0.02553466 0.028414711 -0.015850933 0.14524508 0.34860462 -0.92594749 0.0029360878
-0.022717774 0.028074974 -0.015510286 0.15438367 0.4164457 -0.89595681 0.0029421935
-0.019812042 0.027436204 -0.015273561 0.15878566 0.45267177 -0.87742543 0.0018429998
-0.017594131 0.027180985 -0.01503012 0.16030031 0.51036716 -0.8448841 0.0019382328
0.025884518 0.027441427 -0.015153536 -0.17086247 0.52815098 -0.83178282 0.0015304852
0.028631272 0.027753061 -0.015541491 -0.16246317 0.49158177 -0.85554254 0.0021985269
0.031607781 0.028342403 -0.015807064 -0.17431831 0.46533474 -0.86779994 0.0020338392
0.03451306 0.02837695 -0.016327532 -0.14927451 0.40447408 -0.9022848 0.0024226659
0.037512753 0.02842865 -0.016753202 -0.10746343 0.33794418 -0.93501085 0.0039083366
0.040500388 0.028453322 -0.01706022 -0.072489254 0.26903626 -0.96039832 0.0051979912
0.043530967 0.028444352 -0.017176731 0.0029259908 0.17313838 -0.9848932 0.006108813
0.046509501 0.028390458 -0.017037472 0.091187038 0.00056259439 -0.99583364 0.0067904168
0.049436223 0.028410152 -0.016604168 0.21183421 -0.082679227 -0.97380203 0.0056476747
0.052430514 0.028421983 -0.015837163 0.26791289 -0.15053205 -0.95161062 0.0030684902
0.054555725 0.028927535 -0.015224755 0.36650628 -0.22805141 -0.90203416 0.0028797116
-0.051346824 0.032522313 -0.015006589 -0.36530048 -0.27236688 -0.89015269 0.0033807843
-0.049128328 0.031743433 -0.015391015 -0.25722867 -0.19376443 -0.94672531 0.0038296047
-0.046507765 0.031495713 -0.015987208 -0.1946823 -0.12559281 -0.97279245 0.0036026121
-0.043563962 0.031474661 -0.0164486 -0.11843455 -0.047197141 -0.99183959 0.0082117124
-0.040589157 0.031452503 -0.016619554 -0.023310743 0.13386053 -0.99072599 0.0068877605
-0.037548672 0.031538825 -0.016516007 0.057224147 0.22637881 -0.97235692 0.0051200204
-0.03453983 0.031529088 -0.01618926 0.12808722 0.3107599 -0.94181836 0.0028096298
-0.031614248 0.031411123 -0.015730144 0.18394563 0.39250448 -0.90116823 0.0022977663
-0.028721839 0.030811608 -0.015416827 0.17709276 0.43932086 -0.8807016 0.0028068956
-0.026464166 0.030360261 -0.015149136 0.19969435 0.49000326 -0.84853929 0.00182056
0.032730985 0.030056693 -0.015010852 -0.19753243 0.57196248 -0.79614067 0.0015072194
0.034764282 0.030391218 -0.015339948 -0.18949731 0.51718938 -0.8346293 0.0019648608
0.037599225 0.030988472 -0.015633162 -0.16983856 0.45686585 -0.87317151 0.0024543821
0.040573489 0.031379387 -0.016033795 -0.17301039 0.40835688 -0.89627677 0.0020935007
0.043561757 0.031493548 -0.016427418 -0.078007966 0.31219566 -0.94680965 0.0035514515
0.046560284 0.031453788 -0.01663103 -0.014355977 0.23940144 -0.97081453 0.0052784919
0.049532931 0.031445581 -0.016529834 0.083510496 0.14291333 -0.9862057 0.00617126
0.052478671 0.031469833 -0.016093114 0.19044441 0.022820188 -0.98143268 0.0034765198
0.055205271 0.031626064 -0.01540564 0.2821044 -0.063187733 -0.9573006 0.0029183503
-0.051605616 0.034732923 -0.015180112 -0.27387899 -0.1048105 -0.95603615 0.0037297308
-0.049465846 0.034455694 -0.015644686 -0.18237768 -0.039441925 -0.98243713 0.003891554
-0.046499286 0.03444761 -0.01606792 -0.078373693 0.11616324 -0.99013317 0.005610276
-0.04349358 0.034461554 -0.016162705 -0.0050302153 0.1970617 -0.98037815 0.00496139
-0.040507156 0.034451518 -0.01597419 0.080774315 0.28459704 -0.95523828 0.0040711933
-0.037666928 0.034306463 -0.015635028 0.13631393 0.3647655 -0.92106706 0.0033305611
-0.034813512 0.033746168 -0.015349821 0.18333538 0.44773859 -0.87516761 0.0030484714
-0.032641467 0.033369191 -0.015071865 0.22714899 0.50082415 -0.83521163 0.0022914847
0.04113685 0.0332812 -0.015213203 -0.21540283 0.50164634 -0.83782607 0.002432951
0.043655187 0.033934008 -0.015434701 -0.16077636 0.43856546 -0.88420093 0.0032986638
0.046567827 0.034454603 -0.015679916 -0.12047126 0.37336603 -0.91982847 0.0018215082
0.049517304 0.034478366 -0.01590446 -0.0026603083 0.25876591 -0.96593642 0.0035454379
0.052557673 0.034560207 -0.015791478 0.097013973 0.16818856 -0.98096937 0.003737313
0.055508811 0.034580458 -0.015337148 0.18609898 0.060951639 -0.98063856 0.0030838465
0.0570972 0.03504809 -0.015055192 0.2575216 0.014012597 -0.96617097 0.0037690005
-0.05189101 0.037296135 -0.015161193 -0.16528593 0.085065193 -0.98257029 0.0039954577
-0.049514208 0.037447348 -0.015437301 -0.072138824 0.15617765 -0.98509115 0.0029838441
-0.046524018 0.03741483 -0.015496322 0.019978523 0.26895142 -0.96294653 0.0031240613
-0.043651197 0.036966007 -0.015441327 0.085872397 0.3548038 -0.93098879 0.0039672223
-0.040919926 0.036593046 -0.015217421 0.15668845 0.43913233 -0.88465333 0.0028508473
0.047420129 0.036074802 -0.01510691 -0.15363111 0.46270764 -0.87309742 0.0018266283
0.049831469 0.036504682 -0.015226926 -0.08841715 0.39978102 -0.91233629 0.002907167
0.052528441 0.036796395 -0.015248809 0.017336303 0.3105557 -0.95039701 0.0032696479
0.054977287 0.036714152 -0.01513924 0.14999035 0.205143 -0.96717072 0.0042937119
-0.051792607 0.039469235 -0.01500963 -0.086853638 0.23849571 -0.9672519 0.002805274
-0.049391408 0.039162099 -0.015066166 -0.0052030846 0.24909742 -0.96846449 0.0034590957
-0.047958601 0.039352223 -0.015037135 0.070221819 0.41433504 -0.9074114 0.002752417
0.0015792269 0.0059338734 -0.012038847 -0.035266753 -0.67718291 -0.73496914 0.002653731
0.0041116597 0.0058571552 -0.012070811 -0.0020669666 -0.69851494 -0.7155925 0.0017036911
0.0075274142 0.0058642621 -0.012161924 0.0092545189 -0.71666354 -0.69735771 0.0010646612
0.0105366 0.0058930796 -0.012099591 0.031421117 -0.72443736 -0.68862426 0.0010844144
0.013068679 0.0059798644 -0.012015756 0.055423327 -0.73591065 -0.67480654 0.0010562065
-0.015752928 0.0086778319 -0.012174017 -0.18195909 -0.67077965 -0.71898925 0.0013175238
-0.013299725 0.0084081991 -0.012441064 -0.14719489 -0.65001857 -0.74552631 0.0012441754
-0.0103952 0.0080979727 -0.01267241 -0.11756503 -0.63440382 -0.76400924 0.001092914
-0.0074511152 0.0079138465 -0.012908042 -0.092825294 -0.62334573 -0.7764172 0.0011220935
-0.0044842418 0.0077136769 -0.013047314 -0.066992834 -0.60275084 -0.79511219 0.0016382256
-0.0014947178 0.0075988472 -0.013175701 -0.04547755 -0.60232574 -0.79695392 0.0015754708
0.0014835214 0.0075404439 -0.013301686 -0.041425329 -0.59693015 -0.80122304 0.0022013027
0.0045041777 0.007500777 -0.01338609 -0.0091945706 -0.5981369 -0.80134124 0.0018379646
0.0075056124 0.0074930717 -0.013413006 0.0016532145 -0.60562241 -0.79575038 0.0016764757
0.010496373 0.0074795787 -0.013363633 0.012510545 -0.61272854 -0.79019439 0.0016730223
0.013488263 0.0075034727 -0.013263431 0.039244987 -0.64391172 -0.76409262 0.0013712063
0.016516842 0.0076534287 -0.013183487 0.06451647 -0.65704596 -0.75108469 0.0014199974
0.019478878 0.0078759631 -0.013060656 0.097039506 -0.67829084 -0.72835755 0.00118874
0.02239511 0.0081924312 -0.012918144 0.13204375 -0.67058319 -0.72998816 0.0012509576
0.025286658 0.0084816115 -0.012627627 0.16311385 -0.67582172 -0.71878988 0.0013667456
0.027845601 0.0087961638 -0.012313074 0.19531485 -0.69135755 -0.69561255 0.0010672561
-0.024751393 0.011722761 -0.012243404 -0.24026662 -0.65573591 -0.71573901 0.0011780796
-0.022343269 0.011317265 -0.012615702 -0.21962604 -0.62979287 -0.74506736 0.0012816966
-0.019393563 0.010817651 -0.01300405 -0.20037019 -0.60361826 -0.77168435 0.001496357
-0.016466064 0.010493834 -0.013411663 -0.1685137 -0.56550556 -0.80734539 0.0012008622
-0.013504378 0.010462414 -0.01392372 -0.12628913 -0.5460813 -0.82815832 0.0011584326
-0.010558818 0.010285672 -0.01421285 -0.099283434 -0.52051902 -0.84805822 0.0011431976
-0.007613013 0.010131759 -0.014426935 -0.076842204 -0.50135881 -0.86182052 0.00168909
-0.0045764023 0.0099270595 -0.014538619 -0.057264589 -0.48677096 -0.87165058 0.0018982152
-0.0016261962 0.0097870389 -0.014633365 -0.045314156 -0.47462636 -0.87902015 0.0021376924
0.0013240784 0.0096439756 -0.014688893 -0.03462432 -0.46539661 -0.88442469 0.0023474668
0.0044570044 0.0094853444 -0.014703154 -0.021389281 -0.46287793 -0.88616395 0.0023873579
0.0074713952 0.0094554266 -0.01474098 -0.0077583212 -0.49471977 -0.86901796 0.0020484
0.010513139 0.009429398 -0.014733731 0.0080193533 -0.50819582 -0.86120415 0.0021446859
0.0134974 0.009431839 -0.0146869 0.027934557 -0.55118471 -0.83391547 0.001511389
0.016455831 0.0095479144 -0.014631685 0.049100764 -0.5424996 -0.83861989 0.0019078112
0.01953437 0.0097191539 -0.014519862 0.073867969 -0.5602262 -0.82503951 0.0017230731
0.022565896 0.010002061 -0.01438046 0.10299326 -0.56522125 -0.81848472 0.0016023166
0.025572842 0.010253671 -0.014100508 0.13570684 -0.5905841 -0.79548359 0.0011169965
0.028511779 0.010473481 -0.013667357 0.1696655 -0.62109834 -0.76514733 0.0012816397
0.031392813 0.010748017 -0.013158604 0.21533413 -0.66486764 -0.71524984 0.0014034193
0.034352463 0.011257443 -0.012667041 0.24772011 -0.68781394 -0.68230975 0.00097192865
0.036681183 0.011634124 -0.012195681 0.27844155 -0.68957436 -0.66854876 0.0014254317
-0.033386 0.014782892 -0.012047612 -0.29717878 -0.62997621 -0.71750593 0.0016963586
-0.031170076 0.014438444 -0.012425866 -0.26759365 -0.64962995 -0.71160001 0.0011344085
-0.028336016 0.013911881 -0.01292148 -0.24014702 -0.62332511 -0.74417412 0.0013982389
-0.025502361 0.013531093 -0.013447296 -0.22153959 -0.57045311 -0.79088783 0.0011598254
-0.022580782 0.013404328 -0.014112312 -0.18456084 -0.5357905 -0.82393318 0.0010070904
-0.019673625 0.012995201 -0.014478385 -0.16227277 -0.50007933 -0.85063988 0.0017863041
-0.016821349 0.012560469 -0.014725036 -0.13315989 -0.46061876 -0.87755269 0.0023641365
-0.014164926 0.012233309 -0.014915451 -0.10492472 -0.43412125 -0.89472318 0.0019366099
0.029281659 0.0121663 -0.01484558 0.15511633 -0.58437091 -0.79652339 0.00098965422
0.031707991 0.012556558 -0.014566805 0.18879208 -0.56772822 -0.80127543 0.001932355
0.034575038 0.013048336 -0.014169127 0.21587284 -0.58247679 -0.78365797 0.0013995008
0.037473623 0.013451452 -0.013587389 0.25381336 -0.60656393 -0.75343144 0.0010113092
0.040285647 0.013979024 -0.012968211 0.31821206 -0.64073342 -0.69871438 0.0019989535
0.042749181 0.014608938 -0.012428443 0.34868777 -0.66151536 -0.66393846 0.0016604917
-0.039229862 0.017775027 -0.012071458 -0.36448774 -0.61086005 -0.7028504 0.0020510799
-0.037087504 0.017290941 -0.012493625 -0.33257261 -0.6133306 -0.71639448 0.0011668826
-0.034376014 0.016649799 -0.013055195 -0.29131263 -0.60694146 -0.73943156 0.00094882236
-0.031523526 0.016428927 -0.013855713 -0.23163913 -0.55174875 -0.80119699 0.001136388
-0.028637504 0.01603739 -0.014395063 -0.20409441 -0.51482338 -0.8326478 0.0016147987
-0.025757039 0.015476427 -0.014724315 -0.18281695 -0.46716791 -0.86506188 0.0021805873
-0.023430645 0.015199516 -0.014943815 -0.15539697 -0.46196193 -0.87317985 0.001351825
0.038281623 0.015261278 -0.014760313 0.23058884 -0.58178407 -0.77997178 0.0017328217
0.040711392 0.015878661 -0.014375173 0.27307513 -0.54065943 -0.79568678 0.001855853
0.043532789 0.016515357 -0.01370505 0.32261604 -0.56796765 -0.75718665 0.0010146055
0.046264648 0.017053967 -0.012843254 0.37868279 -0.61802506 -0.6889444 0.0014114393
0.048531812 0.017809995 -0.012243044 0.41560033 -0.63456208 -0.65161902 0.001226726
-0.04267912 0.020575212 -0.012394023 -0.40143761 -0.594383 -0.69681907 0.0013070948
-0.040288117 0.019786609 -0.012970585 -0.36475956 -0.56959224 -0.73655629 0.0012464434
-0.037552025 0.019401196 -0.013864942 -0.28946999 -0.51414818 -0.8073777 0.00076205685
-0.034734849 0.018806176 -0.014483701 -0.25369772 -0.48900142 -0.83457476 0.0018290374
-0.032215696 0.018214053 -0.014849122 -0.20855892 -0.49477375 -0.84362441 0.0013723833
0.04438125 0.018432548 -0.01476249 0.31486329 -0.53620368 -0.78316456 0.0010285313
0.04668029 0.019142931 -0.014238569 0.3480795 -0.50059587 -0.79261869 0.0013459371
0.04938205 0.019654334 -0.01324371 0.3988438 -0.54403239 -0.73820889 0.0014780411
0.051637322 0.020366328 -0.012510393 0.44832963 -0.57390898 -0.68529493 0.0015068427
-0.048096422 0.023968352 -0.012083891 -0.444877 -0.59597611 -0.66850352 0.0013841008
-0.045955926 0.023178494 -0.012552698 -0.42023808 -0.55921173 -0.71462029 0.0013019844
-0.043457527 0.022535935 -0.01338448 -0.38419211 -0.49731421 -0.77786571 0.0015897141
-0.040730841 0.022103837 -0.014346438 -0.31872919 -0.46562967 -0.82559109 0.0014123102
-0.038467642 0.021426106 -0.014807902 -0.2637879 -0.46012378 -0.847763 0.0021984878
-0.0065032318 0.023935435 -0.01498452 0.091429427 0.43086579 -0.89777243 0.00051472249
-0.004133373 0.023757257 -0.014891818 0.071590632 0.4751752 -0.87697393 0.0023511534
-0.0015492671 0.023634104 -0.014799621 0.042701889 0.4761562 -0.87832326 0.0016018441
0.0014631194 0.023582302 -0.014729912 0.014976545 0.49404335 -0.86930835 0.0016140711
0.0043141046 0.023512589 -0.014763636 -0.012486751 0.46842843 -0.8834132 0.002060211
0.0072987718 0.02365076 -0.014777858 -0.040659625 0.49778309 -0.86634797 0.0016213764
0.010160871 0.023741724 -0.014900144 -0.067686014 0.50169069 -0.86239499 0.0018510745
0.012535045 0.023908779 -0.014965164 -0.098352313 0.52254486 -0.84692007 0.0015330401
0.047757939 0.021028142 -0.014887678 0.36395222 -0.4862771 -0.79440129 0.0014899848
0.049909964 0.022007724 -0.014526863 0.37058643 -0.42792499 -0.82434571 0.0012526265
0.05244441 0.022517025 -0.013517422 0.42852572 -0.46369633 -0.77546847 0.0015267734
0.054816943 0.023194492 -0.012572229 0.48187086 -0.50021935 -0.71943104 0.0011388537
-0.051349785 0.026854614 -0.012178652 -0.45106733 -0.55164236 -0.70159036 0.0016671624
-0.049216017 0.025947103 -0.012750637 -0.42094681 -0.52847362 -0.73723769 0.0015829528
-0.046516109 0.025443463 -0.01375799 -0.37288231 -0.46252516 -0.80438137 0.0014775108
-0.043871235 0.024740428 -0.014552825 -0.33607516 -0.40506357 -0.85028058 0.0020062185
-0.041641101 0.024067428 -0.014991027 -0.32651725 -0.45528796 -0.82831115 0.0013223067
-0.015609641 0.026630828 -0.014915305 0.16382049 0.43360978 -0.88608432 0.0022343469
-0.013365161 0.02630014 -0.014666519 0.15654674 0.47789794 -0.8643533 0.0018929673
-0.010426294 0.025890695 -0.014408697 0.13619915 0.49384096 -0.85881948 0.0017993172
-0.0075090085 0.02548893 -0.014234199 0.10968209 0.51905447 -0.84767473 0.001747557
-0.0045594275 0.025390387 -0.013978015 0.075268358 0.52547824 -0.84747106 0.0012476683
-0.0014840513 0.02549235 -0.013654738 0.05658542 0.55625397 -0.82908356 0.0022308973
0.0014545067 0.025508067 -0.013509556 0.022003403 0.58549976 -0.8103739 0.0020349182
0.0045269025 0.025390193 -0.013568765 -0.010794763 0.57209492 -0.8201164 0.0019459249
0.0075466242 0.02547794 -0.013597094 -0.041436765 0.57617581 -0.81627476 0.0020584746
0.010508771 0.025441045 -0.013820986 -0.068463191 0.56933135 -0.81925249 0.0014509922
0.013447192 0.025579171 -0.014044343 -0.10464685 0.55688936 -0.82396799 0.0013159887
0.016339442 0.025877004 -0.014260051 -0.13309525 0.5438996 -0.82852823 0.0015890957
0.019309504 0.026319444 -0.014498851 -0.15755443 0.5191524 -0.84003419 0.0021782182
0.021799704 0.026718989 -0.014753687 -0.17363428 0.51188767 -0.84132165 0.0019327463
0.053052943 0.025060907 -0.014577102 0.3873221 -0.35434961 -0.85112745 0.0011838954
0.055456195 0.025480619 -0.013508387 0.45442951 -0.40489811 -0.79344273 0.00221614
0.057680715 0.026057953 -0.012473454 0.50630087 -0.43762082 -0.74306637 0.0018473355
-0.05423085 0.029616298 -0.012264757 -0.48655638 -0.48292041 -0.72804576 0.0020565928
-0.052236915 0.028800352 -0.012921906 -0.43756035 -0.46585098 -0.76910585 0.0022427039
-0.049551085 0.028437784 -0.014047449 -0.37026551 -0.39915323 -0.83879685 0.0013359347
-0.047155794 0.027665935 -0.014690415 -0.32056734 -0.35633165 -0.87764704 0.0028736761
-0.024354007 0.029983714 -0.014840459 0.23098698 0.53310144 -0.81390905 0.0014065675
-0.022178421 0.029453127 -0.01466345 0.20139956 0.48432815 -0.85138965 0.0017237825
-0.019369056 0.028889723 -0.014331833 0.1954639 0.5119105 -0.83650559 0.0017719688
-0.016448818 0.028527858 -0.013877156 0.18280698 0.54994577 -0.81494862 0.0014202987
-0.013556807 0.028328186 -0.013348382 0.17368966 0.59038889 -0.78820866 0.0021442415
-0.010646143 0.02808027 -0.012924089 0.14700417 0.60853332 -0.77979285 0.0018389835
-0.0076619922 0.027746236 -0.012662214 0.12295055 0.62393469 -0.77174395 0.001560964
-0.0046313358 0.027451234 -0.012499191 0.093523689 0.63745004 -0.76479453 0.0013207454
-0.0020242075 0.02731871 -0.01230076 0.06689515 0.65380478 -0.75370044 0.0015810104
0.0017310148 0.02712198 -0.012282345 0.026366478 0.65320778 -0.75671947 0.0010859693
0.0049588718 0.027236724 -0.012109757 -0.0074610817 0.6297074 -0.77679658 0.0012562956
0.0073083392 0.027211569 -0.012193851 -0.038715262 0.63576853 -0.77090824 0.0011954039
0.010589275 0.027389959 -0.01227367 -0.071403831 0.6544041 -0.75276607 0.001342467
0.013649805 0.027499205 -0.012564792 -0.1087721 0.66385531 -0.73990864 0.0014868571
0.016636608 0.027856642 -0.012756623 -0.14843942 0.64880627 -0.74633515 0.0013381854
0.019546283 0.028264435 -0.013040393 -0.17461243 0.61027545 -0.77270597 0.0016633202
0.022515828 0.028430881 -0.013638556 -0.18537664 0.57890338 -0.79404432 0.0008340574
0.0252728 0.028631598 -0.014188024 -0.19126204 0.56294614 -0.80405873 0.0010416502
0.028224014 0.029204488 -0.014529943 -0.19788364 0.55879205 -0.80535305 0.0015950621
0.030468628 0.029588277 -0.014832207 -0.19617289 0.57337242 -0.79546231 0.0013404336
0.055820506 0.028264843 -0.014486869 0.41085923 -0.27952978 -0.86778909 0.0013434566
0.058438331 0.028472325 -0.013151961 0.48483312 -0.33489218 -0.80795056 0.0019879406
0.060395319 0.029274246 -0.012257442 0.54617524 -0.35580906 -0.75834858 0.0022231564
-0.057287347 0.032775588 -0.01207408 -0.52149481 -0.4103874 -0.74808109 0.0021979935
-0.055244803 0.031745005 -0.01278774 -0.45451853 -0.38371533 -0.80385047 0.0030756574
-0.052549679 0.031463671 -0.014032214 -0.38349661 -0.31205046 -0.86922657 0.0013875855
-0.050308332 0.030799834 -0.014751482 -0.32950008 -0.26773819 -0.90539819 0.0031216294
-0.030396333 0.032571428 -0.014895168 0.19641021 0.46624675 -0.86257577 0.0031905295
-0.02814273 0.032132939 -0.014531352 0.23190059 0.48871064 -0.84106129 0.0023165236
-0.025364446 0.031574953 -0.01409856 0.22766344 0.53850895 -0.81128138 0.0013979474
-0.022602051 0.03140834 -0.013391667 0.22514242 0.57700986 -0.78509271 0.0011440334
-0.019826019 0.03098385 -0.012915783 0.21890579 0.60936075 -0.7620759 0.0010072934
-0.0170724 0.030520609 -0.012488666 0.20780133 0.64120686 -0.73869646 0.001282559
0.02292547 0.03013619 -0.012216204 -0.20658413 0.66553557 -0.71720666 0.0010526053
0.025621736 0.030436175 -0.012798652 -0.22006236 0.66440362 -0.71424115 0.0015313547
0.028687149 0.031018967 -0.013193724 -0.22672355 0.63843274 -0.7355271 0.0015898455
0.031581089 0.031586092 -0.013587199 -0.2307881 0.61094832 -0.75728393 0.001204283
0.034436636 0.031911839 -0.014206015 -0.23888683 0.56433493 -0.79022729 0.0015804445
0.037314087 0.03257814 -0.014591918 -0.2354019 0.56006163 -0.79430276 0.0014529383
0.039152913 0.032857224 -0.014939341 -0.21450096 0.52207559 -0.82548559 0.0025591257
0.056617524 0.031110441 -0.014845914 0.3582117 -0.13405317 -0.92396653 0.0030277956
0.058519527 0.031462058 -0.014049531 0.41934729 -0.175381 -0.89072406 0.0021904975
0.061073188 0.031569306 -0.012664658 0.51073599 -0.24566592 -0.8238914 0.0029401619
-0.057894643 0.034834772 -0.012550646 -0.47368979 -0.29659265 -0.82924706 0.0034822337
-0.055432666 0.034418594 -0.0136828 -0.4036648 -0.2385277 -0.88326627 0.0037367996
-0.052945837 0.034227919 -0.014671966 -0.34023687 -0.17722926 -0.92348725 0.002738825
-0.036892023 0.035648167 -0.014838104 0.19994031 0.47966003 -0.85437113 0.0022040794
-0.034310658 0.035096388 -0.014459848 0.24683069 0.50282222 -0.82839864 0.0025205228
-0.031447303 0.034514289 -0.013938013 0.2552551 0.54535502 -0.79839385 0.0012796357
-0.02872593 0.034097318 -0.013311365 0.26145399 0.58321923 -0.76908851 0.0018061049
-0.025866816 0.033764936 -0.012567949 0.25800064 0.61592036 -0.74436408 0.0010565987
-0.023630306 0.033340551 -0.012084652 0.25252974 0.65560699 -0.71162367 0.0014717497
0.032567427 0.033452071 -0.012190372 -0.25895166 0.67154282 -0.69424367 0.0020275288
0.034795534 0.033900995 -0.012647566 -0.26921085 0.66794109 -0.69381571 0.0014189882
0.037633296 0.034441929 -0.013255092 -0.29250261 0.62492508 -0.72381693 0.0018702839
0.040449489 0.034702767 -0.014075852 -0.24852501 0.5464403 -0.79977393 0.0013344913
0.043392252 0.035380218 -0.014569032 -0.23329641 0.49917218 -0.8345058 0.0019868598
0.045453504 0.035790469 -0.014865833 -0.17499837 0.50276983 -0.84652114 0.0031547288
0.056794662 0.035393208 -0.014951101 0.21585421 0.042365048 -0.97550607 0.0032145469
0.058591496 0.034459893 -0.014424157 0.35150248 -0.043423429 -0.93517929 0.0041557173
0.061540384 0.034492344 -0.013061538 0.46468422 -0.13697647 -0.87481767 0.0026309926
0.063405499 0.035538275 -0.012149763 0.55536616 -0.1536999 -0.8172788 0.0024109634
-0.060377616 0.038414937 -0.012196307 -0.5011332 -0.23231158 -0.83360469 0.0031280571
-0.058508437 0.037564628 -0.012969843 -0.41573992 -0.17844501 -0.89180577 0.0033046238
-0.055528712 0.037497245 -0.014197581 -0.31228706 -0.049351268 -0.94870502 0.0050217584
-0.053259205 0.037596028 -0.014852638 -0.21497709 0.017144576 -0.97646862 0.0065643699
-0.04582965 0.038931433 -0.014893624 0.097209983 0.39816043 -0.91215044 0.0042677349
-0.043315861 0.038435575 -0.014741222 0.16407192 0.42258853 -0.89134687 0.0031707536
-0.040412966 0.03791314 -0.014381796 0.20538481 0.48810759 -0.84827358 0.0016838707
-0.037497994 0.037411824 -0.013866416 0.24997132 0.54265964 -0.80189461 0.0013703262
-0.034600224 0.037175264 -0.01304708 0.28523836 0.58464348 -0.75949389 0.0014808014
-0.031508643 0.036422011 -0.012459561 0.28171375 0.62240118 -0.73024249 0.00092794345
0.038792323 0.036190599 -0.012144083 -0.34190235 0.62097245 -0.70533395 0.0012607614
0.04084247 0.036814887 -0.012579463 -0.31629962 0.63631761 -0.70360106 0.0015154354
0.043527495 0.037372932 -0.013232596 -0.2942076 0.5811677 -0.75873977 0.0012969212
0.046503376 0.037518516 -0.014087553 -0.20867692 0.51340377 -0.83238846 0.0013097404
0.049443062 0.037918299 -0.014519132 -0.15420897 0.4469023 -0.88119119 0.0020082444
0.052355424 0.038357235 -0.014671922 -0.060618941 0.37399873 -0.92544597 0.0030481555
0.055643972 0.037961721 -0.014751792 0.061648373 0.26657555 -0.96184039 0.0038637731
0.058508556 0.03749935 -0.014344526 0.23670563 0.13791882 -0.96174264 0.0026970941
0.061479788 0.037565906 -0.013318173 0.37991521 0.031789772 -0.9244749 0.0034162917
0.063508056 0.037614208 -0.012321662 0.51295811 -0.050214861 -0.85694361 0.0035207383
-0.060781762 0.040625356 -0.012332943 -0.42952296 -0.077848174 -0.8996942 0.0042004269
-0.058546226 0.040529113 -0.013257987 -0.31797555 0.029731309 -0.94763267 0.0041157599
-0.055475313 0.040493991 -0.014146195 -0.213649 0.13324629 -0.96778065 0.0069538825
-0.052500129 0.040458668 -0.014557392 -0.10288601 0.24348392 -0.96443254 0.0060158577
-0.049527381 0.040623244 -0.014516081 0.040905744 0.37483096 -0.92619026 0.0045505022
-0.046533793 0.040526569 -0.014187728 0.13243829 0.4576025 -0.87923837 0.0022285774
-0.043553386 0.040431991 -0.013586844 0.22844853 0.53003687 -0.81662244 0.0018361285
-0.040625297 0.040060978 -0.012956454 0.25183624 0.58546865 -0.77058738 0.0016437066
-0.038165305 0.03948297 -0.012531064 0.27918559 0.60732687 -0.74378061 0.0010744322
0.044563878 0.03923291 -0.01218922 -0.32758087 0.60298139 -0.72739547 0.001825911
0.046791002 0.039769907 -0.012651862 -0.27949148 0.58922529 -0.75808835 0.0022902712
0.04961266 0.040432405 -0.013084459 -0.22714755 0.53375965 -0.81455791 0.0022369276
0.0524804 0.040536191 -0.013633187 -0.12563293 0.46629032 -0.87566525 0.0022039602
0.055504989 0.040510256 -0.013914692 0.0017066024 0.35504639 -0.93484712 0.0039632027
0.058494359 0.040498905 -0.013749127 0.13862777 0.27665213 -0.95091844 0.0052766693
0.061438147 0.040601853 -0.013074611 0.28240791 0.15555178 -0.94659889 0.005319105
0.06352061 0.040458608 -0.012290043 0.43232894 0.081899688 -0.89798892 0.0038817164
-0.060784321 0.043454807 -0.012330703 -0.35225704 0.086791575 -0.93187028 0.0038918646
-0.058463264 0.043425322 -0.013007234 -0.20311706 0.18284893 -0.96193016 0.0058761439
-0.055489842 0.043457504 -0.013444972 -0.09036909 0.30985433 -0.94647962 0.00551057
-0.052492857 0.04340671 -0.013459291 0.021829279 0.40017322 -0.91617954 0.0034688117
-0.049572457 0.043365855 -0.013133712 0.15707143 0.49876785 -0.85238439 0.003197477
-0.046786159 0.042974744 -0.012764003 0.20218636 0.55684012 -0.80563629 0.0024583631
-0.044508919 0.04252119 -0.012400485 0.25696129 0.59481186 -0.76168877 0.0016718077
0.050676443 0.042291723 -0.012075856 -0.26893091 0.60049003 -0.75305235 0.0018211079
0.052781824 0.042708773 -0.012422014 -0.19779806 0.54466909 -0.81499171 0.0029724322
0.055614647 0.043168683 -0.01267311 -0.099514589 0.46827465 -0.87796104 0.0038111384
0.058525026 0.043519642 -0.012679499 0.026333304 0.37312785 -0.92740619 0.0037158809
0.061332133 0.043362919 -0.012451477 0.18708776 0.28103396 -0.94128531 0.0043024132
0.063331686 0.042596202 -0.012109675 0.33474043 0.18444932 -0.92408186 0.0042981789
-0.060383748 0.045419883 -0.012146689 -0.27909887 0.25551361 -0.92564386 0.0049714348
-0.058442388 0.045790464 -0.012349464 -0.1115559 0.36358505 -0.92485744 0.0038976558
-0.055568177 0.045767937 -0.012472895 0.010224481 0.45122457 -0.89235193 0.0037296612
-0.052657764 0.045552138 -0.012352187 0.11655958 0.52558237 -0.84272003 0.0030837411
-0.05076563 0.04542895 -0.012068237 0.1910321 0.57354319 -0.79658961 0.0019090852
0.059949856 0.045232199 -0.012037934 0.0543954 0.43400699 -0.89926583 0.0047317077
-0.015610946 0.0058136308 -0.0092946216 -0.21662953 -0.76559681 -0.60575008 0.0013651375
-0.013355616 0.0055687819 -0.0095194792 -0.17746431 -0.7607612 -0.62429863 0.0010273349
-0.010387625 0.0052499226 -0.0098634427 -0.14467967 -0.75623405 -0.63810492 0.0012043193
-0.0074736248 0.004984342 -0.010104297 -0.11438262 -0.7591418 -0.6407966 0.0010847942
-0.0044780062 0.0048640496 -0.010384649 -0.081862204 -0.75094879 -0.65526682 0.0015857015
-0.0014996066 0.0048062704 -0.010614834 -0.052355412 -0.74133295 -0.66909218 0.0015972384
0.0014777072 0.0045832382 -0.010549725 -0.040531889 -0.75186187 -0.6580736 0.0019100705
0.004487155 0.0045724264 -0.010633099 -0.011696536 -0.76323646 -0.64601338 0.0016542021
0.0074949986 0.0046034842 -0.010660562 0.02136326 -0.76310152 -0.6459254 0.0012289112
0.010462823 0.0046473076 -0.010586001 0.044862993 -0.77390051 -0.63171613 0.0014291933
0.013457737 0.0048153959 -0.010536567 0.070160165 -0.77320492 -0.63026315 0.0013619401
0.016422153 0.0049647456 -0.010355989 0.097098164 -0.78899354 -0.60668045 0.0016140797
0.019456908 0.0052028056 -0.010104236 0.13296197 -0.79249865 -0.5952034 0.0012030116
0.022339597 0.0055051777 -0.0097975172 0.16282666 -0.79927373 -0.57848859 0.0010884614
0.025043288 0.0057970122 -0.0093911905 0.19596584 -0.80517864 -0.55971843 0.00081482786
-0.024496842 0.0088394424 -0.0091898348 -0.28951842 -0.75992727 -0.58197051 0.0014426785
-0.022231022 0.0083676428 -0.0096567497 -0.27609855 -0.74387932 -0.60861576 0.00092639774
-0.019355277 0.0078777308 -0.010237383 -0.23679382 -0.73008096 -0.64102298 0.0016466718
-0.016508611 0.0073467507 -0.010597778 -0.20100765 -0.73669958 -0.64565438 0.00083482818
-0.013587342 0.0069736638 -0.011020868 -0.16499384 -0.72530371 -0.66836488 0.0017144103
-0.010629449 0.0066000186 -0.011290215 -0.13020736 -0.726906 -0.67428023 0.0013767689
-0.0075459876 0.0063410611 -0.01155772 -0.10115837 -0.71594173 -0.69079262 0.0012371897
-0.0046568424 0.00619428 -0.011790029 -0.070080236 -0.68830079 -0.72203237 0.0021098687
-0.001439514 0.0061566918 -0.011970612 -0.054250799 -0.70364267 -0.70848 0.0012116802
0.011338825 0.0060167992 -0.011973542 0.020662548 -0.6964218 -0.71733516 0.0027123115
0.013141597 0.0060768053 -0.011920336 0.048219457 -0.71599406 -0.69643915 0.0028022784
0.016522761 0.0061706998 -0.011788021 0.080330499 -0.71533412 -0.69414991 0.0011650258
0.019612493 0.0063770884 -0.011570578 0.1137268 -0.7121411 -0.69276357 0.0012979505
0.022675401 0.0067336583 -0.011340157 0.14743017 -0.74274039 -0.65314704 0.0012990639
0.025596166 0.0070045865 -0.010849466 0.18154822 -0.77498055 -0.60534734 0.0013917075
0.028496578 0.0075571979 -0.010581235 0.2138442 -0.78676242 -0.5790298 0.0011122386
0.031369392 0.0081227878 -0.010238732 0.24967051 -0.7769317 -0.57796341 0.0012786734
0.034103658 0.0085395472 -0.0095337369 0.29062358 -0.78469402 -0.54753381 0.0010087375
-0.031018883 0.011660638 -0.0095151328 -0.31775436 -0.7439487 -0.58785415 0.0008295353
-0.028343225 0.011097732 -0.010130509 -0.29461253 -0.73365843 -0.61233068 0.0015373033
-0.025515204 0.010425498 -0.010601771 -0.26754931 -0.72646797 -0.63297844 0.0014385767
-0.02265211 0.009791906 -0.011080797 -0.25257668 -0.71217871 -0.65498585 0.0012306407
-0.019883318 0.009304055 -0.011579301 -0.21763507 -0.68699008 -0.69331056 0.00096707261
-0.017792201 0.0090712663 -0.011988874 -0.19474144 -0.65185529 -0.73291236 0.0030120916
0.031938441 0.0092996191 -0.011519775 0.23096646 -0.72175461 -0.65247589 0.0011823716
0.034648295 0.0098493109 -0.011029731 0.27157187 -0.75514382 -0.59666282 0.0017896915
0.037486095 0.010576982 -0.010543543 0.29930201 -0.7658447 -0.56912231 0.0012617129
0.040191259 0.011346872 -0.010033044 0.35217351 -0.75453144 -0.55376548 0.0011935516
0.042324137 0.011838991 -0.0093332706 0.38455093 -0.75942647 -0.52477813 0.0015523089
-0.037021674 0.014486157 -0.0096796555 -0.37707201 -0.71401179 -0.58991855 0.00086342311
-0.034379642 0.013847041 -0.010375158 -0.32481238 -0.71837777 -0.61516684 0.0016139325
-0.031668518 0.013092618 -0.010864985 -0.29786941 -0.72229767 -0.62414736 0.0011577611
-0.028893711 0.01255164 -0.011510502 -0.26481038 -0.68856817 -0.67509204 0.0013875772
-0.026805693 0.01226993 -0.011968525 -0.24941494 -0.66074836 -0.70795757 0.0030293982
0.038636167 0.012151324 -0.011901908 0.30654344 -0.69653755 -0.6487422 0.002182551
0.040826436 0.012642868 -0.01132264 0.32755575 -0.70979387 -0.6236183 0.00074699736
0.043593585 0.013436697 -0.010599446 0.38080415 -0.7372694 -0.55805194 0.0007310785
0.046112996 0.014342751 -0.01002498 0.41847274 -0.72122145 -0.55201471 0.0012712302
0.048236862 0.014906643 -0.009143414 0.43328264 -0.71804267 -0.54468429 0.00084883638
-0.042575788 0.017512359 -0.0094532054 -0.4603413 -0.6757006 -0.57577312 0.0014593052
-0.040304255 0.016815575 -0.010253086 -0.40411597 -0.68144006 -0.61018825 0.0016353889
-0.037730452 0.016023822 -0.010952334 -0.36114097 -0.69192094 -0.62515801 0.0012282734
-0.035116583 0.015376071 -0.011664224 -0.30452406 -0.66944367 -0.67757678 0.001151567
0.04480511 0.015234001 -0.011969941 0.38173723 -0.6571278 -0.64996904 0.0022595138
0.046828408 0.015750771 -0.011231177 0.39230093 -0.67699248 -0.62272078 0.00079539669
0.049351852 0.016674897 -0.010460809 0.43843147 -0.69299573 -0.57230663 0.0013961581
0.051655632 0.017469507 -0.0095722554 0.4806461 -0.67145848 -0.56402367 0.001163121
-0.04800985 0.020963803 -0.0090857763 -0.49455392 -0.65310705 -0.57346988 0.00073842099
-0.046009075 0.020300198 -0.0098806396 -0.48204857 -0.64826083 -0.58939546 0.0013579802
-0.043575823 0.019320352 -0.010653784 -0.42836806 -0.65256298 -0.62502986 0.0015846362
-0.041175906 0.018541448 -0.011474181 -0.37905967 -0.62725389 -0.68034279 0.00089545734
0.050302934 0.018356478 -0.011607454 0.44942778 -0.62789226 -0.63542593 0.0012241403
0.052626833 0.019293973 -0.010812797 0.46588513 -0.63471806 -0.61650956 0.0013911953
0.054943953 0.020171754 -0.0098301955 0.52356368 -0.62978488 -0.57380497 0.0011860016
-0.051222879 0.023687126 -0.0092997951 -0.48585233 -0.64024132 -0.59501135 0.0014972934
-0.049163952 0.022909783 -0.010128065 -0.47837922 -0.63931221 -0.60202432 0.0016408988
-0.046818573 0.022051102 -0.01103646 -0.45302248 -0.6094377 -0.65065837 0.0014584475
-0.044699058 0.021258762 -0.011783962 -0.43203574 -0.59692836 -0.67603379 0.0023512344
0.053608131 0.021158271 -0.011849392 0.47122663 -0.58525962 -0.65986109 0.0012400834
0.055785026 0.022126885 -0.011022714 0.50977635 -0.55353463 -0.65857995 0.0020234773
0.058015984 0.023026442 -0.0099575268 0.55928743 -0.56664068 -0.60507518 0.0011567759
-0.054546311 0.026519785 -0.0095196003 -0.53307688 -0.6044538 -0.5920006 0.0012304154
-0.052344635 0.025648274 -0.010405857 -0.48085564 -0.6095804 -0.63022977 0.0022752464
-0.049980741 0.02471865 -0.01129211 -0.44565892 -0.59797108 -0.66619712 0.0015429953
0.05690448 0.024125565 -0.011770966 0.51608044 -0.50015378 -0.69534677 0.00049329619
0.058778819 0.025181971 -0.011075043 0.54972625 -0.4786185 -0.68463522 0.0018053367
0.060791373 0.025957277 -0.0099143824 0.59520519 -0.51302546 -0.61849469 0.0012774785
-0.057587046 0.029462313 -0.0095626116 -0.57095772 -0.54097044 -0.61754209 0.0012425674
-0.055470582 0.028570713 -0.010567757 -0.52431148 -0.51884413 -0.67520243 0.0013353163
-0.053260982 0.027675435 -0.011551599 -0.48846903 -0.53597409 -0.68857074 0.001026705
-0.012645522 0.029929895 -0.011749187 0.18865886 0.69603634 -0.69277799 0.001544591
-0.0098971119 0.029452944 -0.011591651 0.1529948 0.66541004 -0.73063129 0.0013340769
-0.0071581327 0.029039124 -0.011400491 0.12619095 0.6755513 -0.72643393 0.0014282329
-0.004403091 0.028907677 -0.011075505 0.10295926 0.68412161 -0.72206438 0.0010233
-0.0013602794 0.02857215 -0.011014936 0.080195338 0.68909305 -0.72022182 0.0015779295
0.0014846312 0.02848612 -0.01087938 0.036835045 0.70995021 -0.70328784 0.0017066831
0.0045059007 0.028372051 -0.010938506 -0.0084688859 0.70266783 -0.71146768 0.0017830286
0.0075967922 0.028462032 -0.010923947 -0.041000232 0.71833539 -0.69448781 0.0017716616
0.010435789 0.028667102 -0.010955926 -0.074300945 0.72512919 -0.6845926 0.0014670131
0.01335339 0.028967811 -0.0110165 -0.10780304 0.71961379 -0.68595505 0.0019486472
0.016428422 0.029216688 -0.011331844 -0.15662821 0.72123665 -0.67474836 0.0013195584
0.019141898 0.029589793 -0.011650162 -0.18939178 0.70849472 -0.67982793 0.0014114373
0.059774097 0.027203983 -0.011665664 0.57800609 -0.43038788 -0.6933074 0.0017282953
0.061607789 0.028374359 -0.010823491 0.5861479 -0.40279141 -0.70298624 0.0016509369
0.06355159 0.029173588 -0.0095494334 0.63417113 -0.4303484 -0.64236069 0.0020110107
-0.060382027 0.032386784 -0.0093504665 -0.60423398 -0.49560511 -0.62392062 0.0016627967
-0.058412146 0.031553417 -0.010444698 -0.55155611 -0.47047883 -0.68879282 0.002287484
-0.056318264 0.030807726 -0.011602211 -0.51008809 -0.42822316 -0.74594581 0.0023921563
-0.021636989 0.032839037 -0.011811214 0.27163821 0.69338495 -0.66740537 0.0027528119
-0.019266125 0.03234788 -0.011424816 0.24751797 0.68413687 -0.68606967 0.0011580805
-0.01641441 0.03196558 -0.010759356 0.23054357 0.74974543 -0.62026727 0.0011241973
-0.013424709 0.031137867 -0.010715227 0.19555812 0.70100099 -0.6858241 0.0020420628
-0.010589421 0.030937558 -0.010071232 0.18547934 0.74771261 -0.63759178 0.0017459085
-0.0074976604 0.03051332 -0.0097657964 0.14244649 0.76302618 -0.63047606 0.0016795469
-0.0043446785 0.030123957 -0.0096339826 0.11996859 0.76415163 -0.63378209 0.0013707806
-0.0020852766 0.030008975 -0.0093870051 0.083240807 0.78519976 -0.61362231 0.0022001604
0.0010214279 0.030014798 -0.0090932017 0.052451748 0.81596601 -0.57571548 0.0036297303
0.0087151062 0.030020747 -0.0090769352 -0.041067075 0.78139007 -0.62269014 0.001064728
0.010680073 0.030021759 -0.0093247471 -0.07818605 0.78876305 -0.60970467 0.0011779119
0.01342361 0.030224318 -0.009431731 -0.12518263 0.7967149 -0.59124839 0.0022321902
0.016460277 0.030474929 -0.0098287798 -0.16313294 0.77446598 -0.61122024 0.0014501128
0.019530525 0.030882625 -0.010255321 -0.20380147 0.76086199 -0.61607951 0.0013812275
0.022908298 0.031809498 -0.010334488 -0.22243963 0.73427045 -0.64137942 0.0014435585
0.025445988 0.032155406 -0.010905054 -0.23952535 0.72661805 -0.64393622 0.0010366492
0.028123898 0.032452419 -0.011593941 -0.24476027 0.70891792 -0.66145891 0.00085771113
0.030267682 0.032932948 -0.011883474 -0.26833341 0.69986719 -0.66195405 0.0030382851
0.062452991 0.031162368 -0.011556539 0.58912951 -0.29559448 -0.75203079 0.0019755668
0.064224102 0.031561267 -0.01022394 0.64425713 -0.34870175 -0.68069077 0.0014154329
-0.063289672 0.035899721 -0.0091501353 -0.6466015 -0.43572026 -0.62614244 0.0019060819
-0.061219942 0.034717638 -0.010120822 -0.59963709 -0.42472032 -0.67826837 0.0016365877
-0.059122387 0.034086518 -0.011435177 -0.52847743 -0.35549185 -0.77093267 0.0018572081
-0.028075961 0.035726216 -0.011577563 0.30072474 0.69908422 -0.6487264 0.0019969277
-0.025309382 0.035014138 -0.011035725 0.29852355 0.71753114 -0.62931132 0.0026180644
-0.022576693 0.034402132 -0.010440646 0.27870438 0.75954658 -0.58771831 0.00090592226
-0.0197281 0.033676982 -0.010062853 0.26836348 0.75001061 -0.60453713 0.001472421
-0.017318431 0.033398829 -0.009346256 0.24321498 0.77758574 -0.57983351 0.0015725991
0.026032183 0.033359446 -0.0095528383 -0.24896708 0.77554137 -0.58013016 0.00095241878
0.028593611 0.033866145 -0.0099948607 -0.25788054 0.76115894 -0.59509218 0.0014021974
0.031683583 0.034483422 -0.01066435 -0.27545068 0.7435292 -0.60933679 0.0015050488
0.034080613 0.034861561 -0.011318885 -0.29987615 0.72128457 -0.624358 0.0016040867
0.036765635 0.035746459 -0.011649539 -0.32859248 0.67911536 -0.65637594 0.0015257443
0.062921621 0.033097602 -0.011894418 0.59306645 -0.26490974 -0.76032555 0.0015957075
0.064623885 0.034302648 -0.010933143 0.5881393 -0.20258339 -0.78297645 0.00091018807
0.066414364 0.034983218 -0.0096141873 0.66933382 -0.25969627 -0.69609636 0.0017136276
-0.063754641 0.037921827 -0.0096502742 -0.61194855 -0.34232107 -0.71297646 0.0026264004
-0.061653376 0.037385169 -0.011043947 -0.53604865 -0.26874882 -0.80026615 0.0010193149
-0.05969549 0.036289752 -0.011924363 -0.48943079 -0.27180821 -0.82859987 0.0042079212
-0.034047447 0.038522437 -0.011566209 0.31328732 0.66873145 -0.67427683 0.0015647281
-0.031340674 0.037830994 -0.010898134 0.32842249 0.72390771 -0.60670936 0.0013904769
-0.028693888 0.037083074 -0.010351252 0.32797185 0.72660923 -0.60371637 0.0018556241
-0.025997695 0.036454879 -0.0096324021 0.32343504 0.74637663 -0.58164573 0.0010904021
0.035241216 0.036531005 -0.0098660951 -0.32604286 0.73445982 -0.59520155 0.0010013417
0.037921011 0.037321944 -0.010490143 -0.35334501 0.7177754 -0.59995484 0.0017445692
0.04039437 0.038116358 -0.011082332 -0.36513549 0.68075794 -0.63501555 0.0014917436
0.042571127 0.038660537 -0.011696678 -0.34286454 0.61368656 -0.71121919 0.0013325926
0.064912856 0.03728826 -0.011382622 0.56346369 -0.09486381 -0.82067627 0.001932924
0.066853322 0.037408084 -0.009831422 0.66367882 -0.14819683 -0.73319036 0.0021515572
-0.066131964 0.041491814 -0.0090941908 -0.64489704 -0.26030758 -0.71857339 0.002981401
-0.064351246 0.040578894 -0.010138912 -0.57270408 -0.22245927 -0.78900063 0.0042580958
