# .PCD v0.7 - Point Cloud Data file format
VERSION 0.7
FIELDS x y z normal_x normal_y normal_z curvature
SIZE 4 4 4 4 4 4 4
TYPE F F F F F F F
COUNT 1 1 1 1 1 1 1
WIDTH 566
HEIGHT 1
VIEWPOINT 0 0 0 1 0 0 0
POINTS 566
DATA ascii
-0.00098349096 0.07209722 0.015143713 -0.10135114 0.71550369 0.69121802 0.0017092656
0.0015395368 0.072225638 0.015213829 -0.030607939 0.70801127 0.70553756 0.002723231
0.0043347194 0.072204016 0.015191092 0.092778675 0.69581109 0.71220708 0.0028072649
0.0064670769 0.072111458 0.015102072 0.23605818 0.66006655 0.71315402 0.0037975851
-0.010364173 -0.067058206 0.01868313 -0.032737609 -0.75730234 0.65224338 0.0034224563
-0.0071087838 -0.06676548 0.01866374 0.016410142 -0.6249845 0.78046471 0.0040188115
-0.0042978898 -0.067038603 0.018574871 0.022005303 -0.53033614 0.84750181 0.0039866827
-0.0012535236 -0.067013249 0.018630613 0.026681833 -0.45874885 0.8881653 0.0023458949
0.0017179436 -0.066745833 0.01861942 0.12112568 -0.36866572 0.9216367 0.0017289374
0.0040621613 -0.066794202 0.018326132 0.19775817 -0.34000292 0.9193964 0.0027176705
-0.0093735177 -0.065598398 0.020361941 0.12615632 -0.64351887 0.75496233 0.0044205086
-0.0070090182 -0.064986989 0.020291451 0.12058143 -0.59270942 0.79633886 0.0098137474
-0.0040815552 -0.064439453 0.020102991 0.14490989 -0.41332668 0.89897841 0.0041504535
-0.001194668 -0.064580113 0.019699054 0.11613027 -0.34879935 0.92997462 0.0024030984
0.0014462535 -0.064522438 0.019434426 0.14562201 -0.29570186 0.94411582 0.0017934585
0.0044700918 -0.064559139 0.018896751 0.2390251 -0.24274376 0.94018215 0.0013990012
0.0068251798 -0.064134382 0.018296642 0.33764011 -0.22021826 0.91515201 0.001401459
-0.048468333 -0.060132992 0.018842474 -0.48989198 -0.66902804 0.55893421 0.0060419631
-0.046015307 -0.060758144 0.019626772 -0.39819974 -0.67726392 0.61866844 0.0012357217
-0.043729637 -0.061580222 0.020175442 -0.40523136 -0.65072811 0.64213747 0.0023163289
-0.041854013 -0.062571116 0.020173931 -0.46862966 -0.63759774 0.61143714 0.0053278427
-0.0038216999 -0.062846132 0.020874031 0.18464735 -0.44907796 0.87420499 0.0040292097
-0.0011711317 -0.061966807 0.020643946 0.18333054 -0.30165064 0.93562639 0.0021049792
0.0015960975 -0.061490282 0.020218704 0.22691132 -0.24704236 0.94206226 0.0015764527
0.0045002145 -0.061486967 0.019498896 0.27453762 -0.1790503 0.94475931 0.0010834096
0.007316364 -0.061450541 0.018558023 0.35348099 -0.1450863 0.92412174 0.00062145334
0.0092595331 -0.060418651 0.018059056 0.42980149 -0.14113589 0.89182472 0.00025679439
-0.051357344 -0.057474185 0.019012528 -0.6667574 -0.51134759 0.54217917 0.014088013
-0.049145851 -0.058705881 0.01949285 -0.59559143 -0.55192059 0.58365625 0.0081604682
-0.046940904 -0.059612859 0.020533152 -0.4510141 -0.58769268 0.67171693 0.004792532
-0.00016738911 -0.059875011 0.020938188 0.25731146 -0.28676024 0.92279971 0.00087200396
0.0020282953 -0.059067529 0.020618873 0.26695868 -0.2066191 0.94129783 0.00071872305
0.0047357692 -0.058589466 0.019852765 0.31351283 -0.1424787 0.93883407 0.0004290881
0.0074602044 -0.058492456 0.018903757 0.36721766 -0.12219923 0.92207295 0.00035341727
0.0092783859 -0.058042116 0.018198367 0.40569651 -0.11533042 0.9067024 0.00023453587
-0.051611405 -0.054802042 0.020151736 -0.72863406 -0.21585102 0.65000063 0.017870162
-0.050017264 -0.056322739 0.020636672 -0.59513247 -0.42017975 0.68503016 0.0092198718
0.0026630955 -0.056593243 0.020912215 0.32910362 -0.16549718 0.92967814 0.0004906843
0.0046354434 -0.055553049 0.020390252 0.35012558 -0.13495475 0.92693007 0.0003107404
0.0076408219 -0.055546071 0.019175252 0.38382804 -0.10486193 0.91743124 0.00028355775
0.0096591609 -0.055378567 0.018316023 0.42363143 -0.097083636 0.90061712 0.00016907795
-0.052126877 -0.052021831 0.019951526 -0.79196548 -0.13179222 0.59617227 0.010968179
0.0050781593 -0.052644957 0.020597143 0.3829124 -0.092310794 0.9191609 0.00019792531
0.0079098316 -0.052474827 0.019379269 0.41368836 -0.0730922 0.9074797 0.00023776988
0.010085251 -0.052603647 0.018383116 0.43285176 -0.063287057 0.89924091 0.00030901318
-0.052350912 -0.049450465 0.019665271 -0.8833279 0.0037596116 0.46874046 0.015559086
0.0052508619 -0.049656302 0.020756545 0.40037179 -0.024467312 0.91602606 0.00084056047
0.0076424009 -0.049807165 0.019648112 0.42726007 -0.029135391 0.90365922 0.0007174639
0.010110942 -0.049683969 0.018486867 0.45801938 0.026028687 0.88856113 0.0017632496
-0.052194662 -0.046215937 0.019733198 -0.8517347 0.17622395 0.49345022 0.011748042
0.0051141032 -0.046297826 0.020624794 0.44643003 0.10271951 0.8889032 0.00054866204
0.0074407188 -0.046468206 0.019476172 0.45303649 0.12576264 0.88257676 0.00028517615
0.0096735349 -0.046733741 0.018353187 0.46687061 0.16309379 0.86915606 0.00050323951
-0.051717918 -0.043409098 0.01977028 -0.80809146 0.30991623 0.50093925 0.012796806
-0.05017408 -0.042368125 0.020686451 -0.66740716 0.35899848 0.65244752 0.0098142596
0.0049649887 -0.04364039 0.020347066 0.47484186 0.10097425 0.87425935 0.00057284493
0.0075003961 -0.043579649 0.018903555 0.49044225 0.13769796 0.86052638 0.001064301
0.0091297915 -0.044217784 0.01815173 0.52512896 0.16308179 0.83525085 0.0023574601
-0.051381983 -0.041029256 0.019050797 -0.74733859 0.47940832 0.46005732 0.014858596
-0.04987365 -0.040583782 0.019423505 -0.68018377 0.54754251 0.48738813 0.015384123
-0.047700159 -0.039578848 0.019898234 -0.67819268 0.56030476 0.47551379 0.024996437
0.0052300296 -0.04134237 0.020256167 0.50579369 -0.015344463 0.86251801 0.0021960102
0.0076330961 -0.040817678 0.018698573 0.58280474 0.087343588 0.80790448 0.019729869
-0.048527274 -0.038380735 0.019305 -0.67413658 0.66061622 0.33034232 0.019256147
-0.047216583 -0.037606381 0.019806948 -0.82535833 0.47119448 0.31106165 0.02201654
0.0084428787 -0.038514383 0.018754918 0.69350636 -0.38825861 0.60688072 0.040124401
0.0099263499 -0.036707282 0.019182011 0.78925794 -0.5375092 0.29691043 0.014124936
-0.046167586 -0.034146413 0.019986112 -0.91877902 0.14886858 0.3656272 0.012700647
0.011727445 -0.034438252 0.019898802 0.80743891 -0.56238323 0.17823444 0.0017156373
0.01234457 -0.033998113 0.018669656 0.82696521 -0.53600174 0.16979592 0.0020748947
-0.046102792 -0.031674568 0.02020623 -0.93239629 0.053021878 0.35752746 0.0061685257
0.013811714 -0.031101385 0.019317152 0.91875052 -0.34056017 0.19979036 0.0014126274
-0.046155889 -0.028692329 0.019959575 -0.9280495 -0.21737547 0.30244362 0.016827146
0.014643908 -0.028540693 0.019576274 0.94971311 -0.23035932 0.21208397 0.0012134432
0.01521426 -0.027266882 0.018469777 0.96717942 -0.18937486 0.16941437 0.0030069812
-0.048153292 -0.024382925 0.019220961 -0.94469112 -0.2210405 0.24228042 0.013874616
-0.04764121 -0.024816632 0.020271363 -0.94132203 -0.24885792 0.22799663 0.025164621
0.01492095 -0.025718683 0.020579834 0.97472543 -0.057824045 0.21579331 0.0017115627
0.015251994 -0.025292894 0.019170659 0.98181725 -0.059079804 0.18040086 0.0016987446
-0.048154239 -0.022545328 0.019288789 -0.95831043 -0.020980677 0.28495795 0.0029387965
-0.047898132 -0.02257186 0.01999948 -0.96120965 -0.01590715 0.27535972 0.0045829876
0.014912451 -0.021863708 0.020099353 0.96670014 0.1449223 0.21092267 0.0010268233
0.015185696 -0.02300778 0.019301483 0.97794521 0.10526321 0.18039642 0.0020292914
-0.048149005 -0.018963313 0.01966691 -0.93338031 0.0084309904 0.3587898 0.0018939356
-0.047853772 -0.019643411 0.020241277 -0.97424978 -0.007042673 0.22536114 0.0022749531
0.014485922 -0.019362902 0.019390322 0.93042481 0.30544889 0.20251082 0.0017336373
0.015139558 -0.020743273 0.018211303 0.97194248 0.18007985 0.15132418 0.0026134152
-0.04810727 -0.01641953 0.019559227 -0.97212535 0.013527677 0.23407105 0.0033475813
-0.047914371 -0.016866578 0.020531908 -0.92352378 -0.0036823757 0.38352352 0.002722363
0.013210181 -0.016386073 0.0195994 0.86182076 0.46621764 0.19976494 0.0017222571
-0.04809707 -0.01352702 0.019567989 -0.9774341 -0.0073168539 0.21111394 0.0036308148
-0.047880288 -0.013108271 0.020131512 -0.97298741 0.0013040056 0.23085454 0.0040437845
0.010864201 -0.013051676 0.019769737 0.76071757 0.60676312 0.23053692 0.004872411
0.012318118 -0.014633672 0.018930683 0.80476779 0.56506354 0.18180197 0.001050727
-0.04817076 -0.010628357 0.019025749 -0.9786039 -0.0050743935 0.20569064 0.0025258872
-0.047876969 -0.010418051 0.020429283 -0.96374625 -0.0042854198 0.26678622 0.0039667767
0.0081846295 -0.010290327 0.020459224 0.71278399 0.48342216 0.50817525 0.029451698
0.0096175689 -0.011202723 0.019326042 0.81832498 0.43850103 0.37156564 0.029934084
-0.048118252 -0.0082083456 0.019709574 -0.93763626 0.004094786 0.34759384 0.0016677639
-0.047900047 -0.0074941376 0.020606311 -0.93745965 -0.0019189796 0.34808871 0.0021989322
0.0079367291 -0.0074739256 0.020436129 0.57456124 0.12178626 0.80935001 0.02545964
0.009523171 -0.0073700044 0.018937601 0.76523966 0.040327333 0.64248103 0.017303426
-0.048166607 -0.0045450451 0.019135365 -0.97308624 0.0073671304 0.23032339 0.0027682818
-0.047849815 -0.0048573408 0.020215685 -0.96633434 0.0087437388 0.25714096 0.0056227348
0.0078782402 -0.0044700219 0.020478752 0.4917075 0.0048698699 0.87074679 0.0063767927
0.0095090969 -0.0044250777 0.018928263 0.71853566 -0.0019097612 0.6954875 0.016725922
-0.048121545 -0.0013665544 0.019806409 -0.93872792 -0.0081208143 0.34456334 0.001689186
-0.047899116 -0.00099824544 0.020051679 -0.97502369 0.0036357418 0.22207111 0.004199978
0.0079949182 -0.0015603924 0.020429082 0.49828589 -0.012434948 0.86692357 0.0060446924
0.0094462037 -0.0016968122 0.019017704 0.69484895 -0.019526072 0.71889061 0.013964923
-0.048133958 0.0015450803 0.019440046 -0.96527869 -0.019354397 0.26050419 0.0023535229
-0.047923278 0.0010028434 0.020470669 -0.94094962 0.015224454 0.33820394 0.0030826565
0.0081615373 0.0011566976 0.020321429 0.49586514 -0.015515621 0.86826098 0.0060705254
0.0095520373 0.0013638288 0.01890255 0.71165115 0.00097095937 0.70253241 0.016315119
-0.048163552 0.0051736487 0.019547423 -0.94077814 0.0055829668 0.33897701 0.0024883579
-0.047848444 0.0045747608 0.020276824 -0.971901 -0.0065862807 0.23529819 0.0048294924
0.0080877049 0.0045197736 0.020454496 0.52908164 0.007870011 0.84853446 0.0077924188
0.0095503107 0.0043024248 0.018954653 0.83223188 -0.0036449763 0.55441576 0.023287326
-0.048059706 0.0077000395 0.020026391 -0.95436752 -0.0016608048 0.29863024 0.0037960506
-0.047829777 0.007267605 0.02033205 -0.97583401 -0.00011609303 0.21851304 0.0055536428
0.0080534471 0.0075244415 0.020479858 0.55879807 0.019316822 0.82907873 0.014246067
0.0095652612 0.0077283164 0.018921409 0.76298559 0.0061297179 0.64638638 0.016515782
-0.048155189 0.010421815 0.01908228 -0.98336834 -0.0090485066 0.18139687 0.0024052737
-0.047899403 0.010850474 0.020287585 -0.97127801 0.0038927123 0.23791584 0.0054488932
0.008327825 0.0097839478 0.020311302 0.67291677 -0.18283181 0.71676749 0.03625799
0.0095777418 0.01023761 0.018865807 0.78577936 -0.13908778 0.60266531 0.028606081
-0.048186626 0.01364053 0.018921075 -0.97778916 -0.0062087034 0.20949875 0.0027085545
-0.047890171 0.013532232 0.020324916 -0.96475261 -0.005615822 0.26309866 0.0050929729
0.010777952 0.013396217 0.019827763 0.79972494 -0.54332596 0.25541517 0.0044535571
0.012124626 0.0147216 0.019074708 0.82448566 -0.5302968 0.19750634 0.0013496121
-0.04811782 0.015767897 0.019732721 -0.93441314 -0.00060369354 0.35619047 0.001932011
-0.047897667 0.016501719 0.020561839 -0.94057006 -0.0043387292 0.33957207 0.0035293426
0.01327701 0.016820172 0.019474091 0.88395995 -0.41715047 0.21118788 0.0023291458
-0.048141569 0.019508781 0.019328162 -0.97105753 0.0018689089 0.23883863 0.0024381271
-0.047859002 0.01920834 0.02018057 -0.98424637 0.0084040491 0.17660218 0.0081811668
0.014386869 0.019457744 0.019559504 0.9285028 -0.30582258 0.21060662 0.0015457598
0.015134661 0.020897042 0.018144362 0.95122665 -0.25250539 0.17722557 0.0022070121
-0.04811785 0.022370776 0.019815588 -0.95827562 0.052549604 0.28097394 0.0072718118
-0.047928169 0.023237787 0.020462466 -0.95295382 0.064919889 0.29608169 0.0070321113
0.014880961 0.022146102 0.020299209 0.97184807 -0.093652569 0.21619572 0.0014523142
0.015222922 0.022697113 0.019001015 0.98061949 -0.088030159 0.17503157 0.0017638443
-0.048082124 0.025002075 0.019578774 -0.95438677 0.08392857 0.28653419 0.0080833985
-0.04769209 0.025590327 0.020052157 -0.93900359 0.10602458 0.32715607 0.0062100729
0.014891848 0.026331022 0.020807166 0.9770484 0.050085951 0.20704545 0.0019107857
0.015293979 0.025700241 0.019051829 0.97660112 0.11062197 0.18442601 0.0017056173
-0.047340013 0.028392307 0.019715717 -0.9646607 0.069273099 0.25422612 0.0055628163
0.014650913 0.028945059 0.019664697 0.9362846 0.28125164 0.21040133 0.0021662663
0.015198064 0.027606934 0.018482678 0.95996237 0.21084413 0.18443704 0.0021337182
-0.047338668 0.031666026 0.020217627 -0.93165785 0.0063426276 0.36328143 0.003004218
0.013744415 0.031691346 0.019453751 0.88232267 0.42971072 0.19197738 0.0016133818
-0.047310978 0.033903793 0.0202461 -0.93251669 -0.032423873 0.35966831 0.0036944801
0.011413706 0.035381023 0.019663317 0.75557005 0.62235886 0.20440976 0.0015090792
0.012572352 0.033905026 0.01935976 0.81298202 0.54886246 0.19444835 0.001989638
-0.048686936 0.038707577 0.018694108 -0.80776668 -0.43975097 0.39259654 0.02714677
-0.047533471 0.03732276 0.019952623 -0.92217547 -0.29441383 0.25082448 0.0087499581
0.0082624508 0.038437996 0.01989924 0.65908694 0.60988092 0.44005635 0.023109658
0.009929643 0.037044398 0.019439386 0.72180432 0.63357139 0.27854228 0.010697591
-0.051327087 0.041401733 0.019081542 -0.70730352 -0.46712506 0.5305807 0.013024432
-0.049526967 0.040721908 0.01964354 -0.70117712 -0.50860101 0.49967563 0.015863655
0.005265499 0.040933337 0.020487975 0.55873686 0.49169955 0.66786581 0.026778417
0.0072342879 0.040223096 0.019359019 0.63207066 0.45291913 0.62876946 0.030288359
-0.051442929 0.043186583 0.020109233 -0.72382349 -0.27154964 0.63430303 0.011502072
-0.050113019 0.042665355 0.020634687 -0.67346948 -0.38929531 0.62840122 0.010363219
0.004871286 0.043353334 0.020278828 0.50702292 0.083682202 0.85786068 0.015749503
0.0073655541 0.043487117 0.018823599 0.53998411 -0.039335914 0.84075546 0.0059445729
0.0091907885 0.044710413 0.018143782 0.51917648 -0.16432734 0.83872056 0.0017353351
-0.052103981 0.046536446 0.019865271 -0.8412497 -0.087938078 0.53344715 0.012406345
0.0050823684 0.046331454 0.020522919 0.45174482 -0.094274074 0.88715225 0.00080701424
0.0075218896 0.046609584 0.019309809 0.45647901 -0.13484651 0.87945628 0.00045514767
0.0096302535 0.046872132 0.018259536 0.46654862 -0.16404225 0.8691504 0.00036152167
-0.052378517 0.049676575 0.019644255 -0.87116557 0.014511318 0.49077496 0.015301019
0.0052487347 0.049585078 0.020736551 0.4143602 -0.012300082 0.91002983 0.00099827326
0.0075886887 0.049702886 0.019694434 0.42511931 -0.030799864 0.90461314 0.0010039036
0.0099740354 0.049619738 0.018521342 0.43887606 -0.069475561 0.89585769 0.0012557348
-0.052236721 0.052548878 0.019623166 -0.87999821 0.12857737 0.45724279 0.012797801
0.0050947401 0.052594285 0.020641109 0.39013669 0.081501879 0.91714269 0.00026192525
0.0075532463 0.052409958 0.01961829 0.40175843 0.068003215 0.91321725 0.00036402434
0.0099741798 0.052483033 0.018516773 0.4289507 0.049790613 0.90195459 0.00048152855
-0.051654648 0.055721804 0.019901896 -0.73574835 0.37695318 0.56265491 0.013747025
-0.050258264 0.056555115 0.020765681 -0.60389996 0.4418067 0.66340911 0.0095383422
0.0028157406 0.056419719 0.020914068 0.34370971 0.15057024 0.9269262 0.00038093672
0.0045896941 0.055590238 0.020461427 0.35598347 0.13273461 0.92501742 0.00036526052
0.0074070599 0.05546695 0.019329889 0.38465804 0.10429589 0.91714811 0.00020834454
0.0097990017 0.055267114 0.018339213 0.42249769 0.092740133 0.90160686 0.00016670406
-0.051320124 0.058104277 0.018977636 -0.68320698 0.5494746 0.48094279 0.010673401
-0.049708616 0.058505367 0.019609278 -0.60553044 0.57903016 0.54594594 0.0082052173
-0.047521472 0.059623394 0.020635569 -0.47404814 0.63003844 0.61508524 0.0058602616
0.0021602621 0.058842316 0.020746728 0.29066572 0.18824947 0.93812346 0.00082230102
0.0045326198 0.05851911 0.020050554 0.31439555 0.15511192 0.93653387 0.00067115645
0.0075418819 0.05855231 0.018966621 0.36855578 0.11926451 0.92192334 0.00039259277
0.0094287451 0.058185637 0.018216232 0.41987559 0.10981457 0.90091354 0.00020808812
-0.048547149 0.060504902 0.018848421 -0.48895156 0.74085641 0.46049762 0.0051121549
-0.046398658 0.061093554 0.019443972 -0.43042135 0.75074953 0.50111145 0.0058113039
-0.043744672 0.062206421 0.019799987 -0.41406894 0.79729474 0.43916735 0.0021938824
-0.041726589 0.062751397 0.020696277 -0.45528364 0.76819187 0.45010889 0.0020460908
-0.0032232238 0.062661722 0.020928524 0.28824523 0.39234975 0.87348521 0.0042391322
-0.0011319719 0.062138125 0.020724202 0.19498384 0.31966484 0.9272517 0.0024266622
0.0015050173 0.061531279 0.020324349 0.23139234 0.24272357 0.94209492 0.0015435279
0.0045029949 0.061520413 0.019571787 0.27590773 0.17802063 0.94455469 0.00091716641
0.0074364096 0.061448906 0.018622542 0.35321063 0.14748664 0.92384517 0.00065283169
0.0092410268 0.06044947 0.018068764 0.42311552 0.1424333 0.89481062 0.00023780391
-0.042673323 0.063318975 0.018698944 -0.40800247 0.82822359 0.38416091 0.0032270569
-0.040398624 0.064031236 0.019461608 -0.39047742 0.85104126 0.35107851 0.0024360961
-0.037553001 0.065267809 0.019566614 -0.3925204 0.88220674 0.26007465 0.0014198617
-0.035551343 0.065837473 0.020455232 -0.35197777 0.91074878 0.21598232 0.0018617371
-0.0094998274 0.06570708 0.020701678 0.29713163 0.76965845 0.56510043 0.01053043
-0.007269118 0.065268986 0.020402301 0.20403652 0.63225597 0.74740988 0.00882708
-0.0044080163 0.064696431 0.020216532 0.14780992 0.50222039 0.85201341 0.0054793637
-0.0014753388 0.064514391 0.019924086 0.11479599 0.3770774 0.91904002 0.0034320066
0.0015021841 0.064507797 0.019556353 0.14609963 0.30232334 0.94194245 0.0023314122
0.0045038764 0.064530961 0.018997326 0.2338106 0.23185533 0.94423282 0.0019299696
0.0069281217 0.064276181 0.01834478 0.33395889 0.20533074 0.91995144 0.0015045496
-0.036293186 0.066098981 0.018429406 -0.3523604 0.91746289 0.18467245 0.0026668748
-0.034349363 0.066525474 0.019423945 -0.30707702 0.93647528 0.16946307 0.0007503868
-0.031488877 0.067354381 0.019487359 -0.26027399 0.95887423 0.11321458 0.0008912026
-0.028491706 0.068034239 0.019506602 -0.19954059 0.97649777 0.081459589 0.00040141793
-0.025438538 0.068562895 0.019488698 -0.14300759 0.98637897 0.081273414 0.00019581061
-0.022553958 0.068862736 0.019867813 -0.021591878 0.99454832 0.10201621 0.0015535067
-0.019446153 0.068707876 0.019594014 0.095245078 0.98637342 0.13414872 0.0011660112
-0.016515089 0.068248115 0.019496085 0.18040712 0.95361286 0.24098912 0.0034288799
-0.013516842 0.067592435 0.019525504 0.1919349 0.91113621 0.36468038 0.0072869477
-0.010535426 0.067002803 0.019391464 0.13382486 0.80653834 0.57583576 0.0074132546
-0.007448955 0.066924922 0.018928504 0.058582846 0.67724788 0.73341894 0.0065779747
-0.0044119335 0.067092419 0.018721269 0.021472206 0.57266098 0.819511 0.0049547805
-0.0014711163 0.067262813 0.018669298 0.024032438 0.47995269 0.87696511 0.0030921567
0.0014705854 0.067271821 0.01859111 0.07853204 0.40982959 0.90877521 0.0025561755
0.004295053 0.066969842 0.018367592 0.19518819 0.34851629 0.91675395 0.0029424615
0.0063725179 0.066311389 0.018130736 0.32108152 0.28582987 0.90288866 0.0025688591
-0.022207912 0.069040373 0.018518092 -0.032505795 0.99572551 0.08645317 0.0017604699
-0.020465897 0.069025166 0.01829 0.065622523 0.99107176 0.11606224 0.0010270757
-0.009784908 -0.064601295 0.021595238 0.22687793 -0.65827262 0.71777689 0.0066798264
-0.007426545 -0.063734293 0.02144254 0.3395482 -0.56957799 0.74852383 0.015353872
-0.045359828 -0.060098954 0.02110515 -0.42680228 -0.5349912 0.72912562 0.0027338611
-0.043158781 -0.060495604 0.022050934 -0.48633412 -0.54060572 0.68645799 0.0042047575
-0.041109908 -0.061038747 0.023000818 -0.54795653 -0.54324281 0.63610601 0.0049727862
-0.038843159 -0.062575944 0.023383124 -0.56499261 -0.63590068 0.5257507 0.0020418123
-0.0071231909 -0.062183347 0.022510504 0.41499248 -0.56773257 0.71095783 0.012285565
-0.0040763221 -0.061587851 0.021492915 0.25675362 -0.39056528 0.88404548 0.0046772794
-0.0020374956 -0.060549881 0.021356599 0.25369531 -0.32229996 0.91200954 0.0019887972
6.1197241e-08 -0.060051151 0.02103571 0.28335577 -0.29567465 0.91229713 0.0030693042
-0.048648473 -0.057455778 0.021536877 -0.49052757 -0.48232186 0.72577435 0.0061029783
-0.046337605 -0.057730041 0.0224382 -0.4206664 -0.34527987 0.83894074 0.0040216772
-0.043863151 -0.058570124 0.02315772 -0.48294583 -0.4708901 0.7382586 0.0054092896
-0.041685671 -0.059689946 0.023684323 -0.60664248 -0.43907323 0.6627214 0.0038401857
-0.0062816073 -0.059943091 0.023939164 0.68742687 -0.43036702 0.58500308 0.02858774
-0.0037896053 -0.058877178 0.022597319 0.41157088 -0.37209991 0.83195615 0.0067597292
-0.0013406612 -0.058354601 0.021827096 0.29634026 -0.29582068 0.90811485 0.0013826183
0.00071434444 -0.058234338 0.021196267 0.28601545 -0.25203207 0.92448628 0.001055015
-0.051180903 -0.054966077 0.02119687 -0.62152517 -0.21307001 0.75386173 0.015176888
-0.049387835 -0.055013943 0.022231322 -0.51125824 -0.2148263 0.83214468 0.01012212
-0.046738621 -0.055244822 0.023418291 -0.40692779 -0.21985051 0.88660908 0.0039649336
-0.044521611 -0.056648977 0.023846211 -0.48652056 -0.28161311 0.82703799 0.006023617
-0.0032833968 -0.056451198 0.023381753 0.46413842 -0.30798677 0.83049363 0.0042078057
-0.0017367828 -0.055760641 0.022732103 0.37152332 -0.29146326 0.88148719 0.0044056
0.0014447364 -0.05537688 0.021636486 0.35335627 -0.17792025 0.9184137 0.00038556001
0.0033261466 -0.054625832 0.021097532 0.33736372 -0.15597765 0.92836237 0.00040807755
-0.05141712 -0.051940154 0.021622682 -0.69171351 -0.12706687 0.71090543 0.010856478
-0.049430285 -0.052328538 0.022849709 -0.46999297 -0.086856343 0.87838638 0.0072568324
-0.047058389 -0.052409746 0.023769764 -0.39538264 -0.069214553 0.915905 0.0029247538
-0.0011797613 -0.052582078 0.023216203 0.47757187 -0.1358128 0.86803228 0.0072772689
0.0016400641 -0.052245602 0.02205033 0.36738119 -0.10872413 0.92369378 0.0003953446
0.003732112 -0.052164331 0.021210732 0.37055641 -0.10184997 0.92320877 0.00025948198
-0.051419772 -0.049287189 0.021786258 -0.63853753 0.0076357615 0.76955277 0.016103379
-0.049457129 -0.049522694 0.022925491 -0.44493389 -0.025846144 0.89519042 0.0054759379
-0.047064815 -0.049672507 0.023749715 -0.39045358 -0.028650485 0.92017674 0.0016232579
-0.0010408185 -0.049491629 0.023395117 0.50277263 -0.027232518 0.86398959 0.0059564626
0.001422108 -0.049460005 0.022348598 0.38781106 -0.033126447 0.92114341 0.0010687694
0.0037818821 -0.049593855 0.021384485 0.38310787 -0.030991402 0.92318356 0.00068895309
-0.051340394 -0.046622492 0.021674996 -0.67766356 0.13762552 0.72237897 0.01256959
-0.049551964 -0.046402968 0.022794802 -0.52569449 0.085667513 0.84634882 0.0074318629
-0.047453083 -0.046486743 0.023829574 -0.453731 0.011910623 0.8910591 0.0034840007
-0.0011130028 -0.046323005 0.023373222 0.55377322 0.019753026 0.83243316 0.0076039671
0.0012390508 -0.046796769 0.02239464 0.4502598 0.054841902 0.89121181 0.002611174
0.0038041011 -0.04672841 0.021304179 0.42703295 0.063928641 0.90197337 0.00056965544
-0.051149737 -0.044319056 0.021572646 -0.63834339 0.25122163 0.72760242 0.010384738
-0.049440328 -0.043636426 0.022276327 -0.59315294 0.24137701 0.76805383 0.0093682716
-0.047336075 -0.043278057 0.023598315 -0.55449957 0.15794206 0.8170585 0.00795996
-0.044557873 -0.04319885 0.023712678 -0.58385009 0.16359019 0.79520899 0.03400385
-0.0013066489 -0.044127315 0.023408541 0.55393618 0.020063745 0.83231735 0.0065697869
0.0016606664 -0.044000246 0.022157028 0.43182287 0.051455539 0.90048957 0.00067531742
0.0035133041 -0.0439739 0.021181699 0.45768309 0.078428261 0.88564956 0.00064586912
-0.048540104 -0.040749572 0.021872979 -0.67755938 0.41398951 0.60788637 0.012967807
-0.046966884 -0.040585179 0.023042303 -0.66923434 0.23869048 0.70367068 0.024005275
-0.044404037 -0.040699102 0.023455542 -0.64800608 0.089636713 0.75634211 0.034319118
-0.0017509388 -0.041795697 0.023495249 0.51295406 0.01864755 0.85821348 0.0051868232
0.0020954586 -0.0416415 0.021985656 0.42492646 0.034290619 0.90457821 0.00081889157
0.0035815574 -0.041433029 0.021230673 0.48696172 0.046766076 0.87217039 0.00087418524
-0.046381079 -0.037820961 0.022439634 -0.77182859 0.31455657 0.55257112 0.023333658
-0.044530526 -0.037524857 0.023599084 -0.72467601 0.21481362 0.65475172 0.016928084
-0.045450162 -0.034611754 0.022099426 -0.86526543 0.12038968 0.48664367 0.012915114
-0.044580627 -0.034462128 0.023568718 -0.81545728 0.12051859 0.56613135 0.012943393
0.011052778 -0.034687962 0.021716833 0.79809046 -0.57146883 0.1909844 0.0011377071
0.012307024 -0.03307331 0.021457007 0.81812656 -0.54121405 0.19430985 0.00088464853
-0.04541057 -0.03167215 0.022203268 -0.86758751 0.034274548 0.49610206 0.0047313753
-0.044699747 -0.031456374 0.023331946 -0.85174656 0.020850707 0.52353895 0.0034495003
0.013048255 -0.031142721 0.022564461 0.90908504 -0.36612353 0.19879128 0.0013628373
-0.04542901 -0.028475069 0.022203354 -0.80520707 -0.21650231 0.55205834 0.01799573
-0.04464395 -0.028934279 0.023493709 -0.76447123 -0.17419231 0.62067765 0.023970423
0.014084748 -0.028338641 0.022441685 0.94684547 -0.24432269 0.20926066 0.0010462512
-0.047033701 -0.024630962 0.022559742 -0.8385213 -0.19503361 0.50876695 0.0081663113
-0.044818047 -0.026551319 0.023393493 -0.79337025 -0.34283996 0.50301528 0.0093330713
0.014456115 -0.024850128 0.023100644 0.97360396 0.037218504 0.22518937 0.0015894886
-0.047213897 -0.022780284 0.022548251 -0.85996944 -0.017921196 0.51003081 0.004465213
0.014389159 -0.022368943 0.022817243 0.95950788 0.18425123 0.2130637 0.0017781012
-0.047185421 -0.019672854 0.022638356 -0.86690795 0.0072644791 0.49841529 0.0036054493
0.01377414 -0.019231508 0.022491451 0.91926277 0.33743656 0.20271273 0.0019579837
-0.047078434 -0.016461387 0.022892993 -0.84405875 0.00087559823 0.53624994 0.0040095467
0.011786097 -0.01538338 0.023093952 0.81804144 0.5368911 0.2062915 0.002341345
0.012676205 -0.01662514 0.022454318 0.86069137 0.46961319 0.1966565 0.0020501609
-0.047188081 -0.013494123 0.022635275 -0.86507022 -0.0050119217 0.50162584 0.0030275988
0.008846974 -0.012089224 0.023486422 0.68933117 0.68131667 0.24623179 0.002579106
0.01030688 -0.013302654 0.022497404 0.73176342 0.64227748 0.22803929 0.0056484132
-0.047019117 -0.010314845 0.022985578 -0.85818118 0.0065507097 0.51330519 0.0036172639
0.0049845437 -0.0094631072 0.022745689 0.43012592 0.76760256 0.47516102 0.026807258
0.0073681525 -0.01064423 0.022259811 0.65407103 0.64312726 0.39821908 0.037219789
0.0091914218 -0.011798816 0.02137297 0.73565388 0.61439127 0.2851958 0.0122264
-0.04708131 -0.0073815277 0.022878673 -0.84508884 -0.0021002123 0.53462172 0.003934084
-0.0035482028 -0.0073011434 0.023829076 0.14044097 0.35069969 0.92589742 0.058412757
-0.0014070043 -0.0074249483 0.023382083 0.17933317 0.52332997 0.83304584 0.064211853
0.001523549 -0.0077307564 0.02278664 0.34561875 0.5936746 0.72670364 0.046674863
0.0043624211 -0.0076625603 0.021825476 0.39993426 0.41527909 0.81706536 0.048508897
0.0064809751 -0.0075069107 0.02113861 0.50590706 0.16959453 0.84575158 0.021335021
-0.0471185 -0.0046754722 0.022772778 -0.86742836 -0.0038732379 0.49754703 0.0033908971
-0.0036543491 -0.0050362698 0.023811052 0.26014072 -0.072372586 0.96285462 0.016630489
-0.0013002205 -0.0048602265 0.02323417 0.23476663 -0.10021121 0.96687245 0.010230813
0.0015008808 -0.0046876445 0.02246614 0.34234506 0.046213597 0.9384371 0.015557802
0.0045741205 -0.0045676306 0.02164221 0.3036724 0.0094212638 0.95272988 0.00091602787
0.0065117045 -0.004635145 0.021131208 0.44439557 -0.0051814411 0.89581567 0.0065762457
-0.047208548 -0.001555284 0.022574164 -0.86340606 0.010375557 0.50440288 0.0037627982
-0.007223913 -0.0011579347 0.023843113 0.13229352 -0.040423192 0.99038601 0.038502011
-0.00078655005 -0.0019743766 0.023827907 0.3475455 -0.10013761 0.93230075 0.0042631384
0.0016588696 -0.0014094259 0.022563428 0.35905886 -0.051035829 0.9319185 0.0034115221
0.0050076041 -0.0018648764 0.021526746 0.37393019 -0.014115425 0.92734939 0.0025118729
0.0065768822 -0.0018730249 0.021099405 0.44052851 -0.011579568 0.89766389 0.0053918427
-0.047206417 0.001482641 0.022573965 -0.87153471 0.0012009258 0.49033237 0.0036074189
-0.0075182342 0.00023132029 0.023750955 0.12696539 -0.020457825 0.99169618 0.03686057
-0.00045632539 0.0017176819 0.023775777 0.38921583 0.077746533 0.91785973 0.0047472455
0.0014609363 0.0015239184 0.022645898 0.367847 0.059189674 0.92800063 0.003605766
0.0045917602 0.0014318732 0.021673702 0.29835817 0.0073559191 0.95442563 0.00080358121
0.0066038021 0.001349227 0.021124743 0.40188515 -0.0015404645 0.91568881 0.0056646075
-0.047102459 0.0045583798 0.02285596 -0.85153633 0.0027153739 0.52428865 0.0037115358
-0.0035699764 0.0049386942 0.023864591 0.22499041 0.18185677 0.95723945 0.0040847301
-0.0013735062 0.0044728476 0.023366973 0.3055113 0.17140158 0.93663454 0.0040559042
0.0014125602 0.0041746874 0.022526585 0.3372077 0.086082429 0.93748641 0.0042592953
0.0046176687 0.004492281 0.021737404 0.29098901 0.0070997262 0.95670009 0.00074303366
0.0066617904 0.0044490788 0.021176677 0.43765998 -0.0054091341 0.89912432 0.0070452997
-0.047066171 0.0074086688 0.022882523 -0.85924983 -0.009066429 0.51147586 0.0044329413
-0.0036884979 0.0068032295 0.023840483 0.25162128 0.11630759 0.96081179 0.0034691114
-0.0019401972 0.006680347 0.023404071 0.29458064 0.15596844 0.94281286 0.0030631975
0.0018587075 0.0069318302 0.022485664 0.26896489 0.016742017 0.96300447 0.00076961744
0.0048188688 0.007192553 0.021683745 0.32816896 0.01870003 0.94443393 0.0048144367
0.0066440077 0.0074246693 0.021184046 0.48187575 -0.0062456829 0.87621731 0.0085679796
-0.047082204 0.010465873 0.022826983 -0.86817318 -0.0059479428 0.49622554 0.0033117176
0.0056838971 0.0095610246 0.021509597 0.41527602 -0.054180983 0.90808058 0.025934014
0.0067441892 0.0096967351 0.021217497 0.59223282 -0.1371783 0.79400396 0.031004958
-0.047054578 0.013500519 0.022896284 -0.85297066 0.010178595 0.52185965 0.0039103772
0.0087053543 0.012032317 0.022141105 0.65346581 -0.69736469 0.29438907 0.01129173
0.010316451 0.013791723 0.022780094 0.76197934 -0.60793138 0.22317483 0.0011328196
-0.04715962 0.016654257 0.022681568 -0.85513461 0.00052207446 0.51840574 0.0036103732
0.011681341 0.015367012 0.022499671 0.82786059 -0.51792324 0.2154119 0.0027034145
0.012638737 0.016823452 0.022268659 0.87706757 -0.43343472 0.20709138 0.001846138
-0.047191057 0.019539664 0.022588268 -0.87280363 0.0084198723 0.48799893 0.0034300594
0.013734706 0.01954597 0.022595569 0.92203611 -0.32698625 0.20719419 0.0018834464
-0.047167119 0.022568859 0.022673808 -0.88265717 0.054032236 0.46690127 0.0039425804
0.014611681 0.023024768 0.022081669 0.97625887 -0.010571001 0.21634878 0.0012148705
-0.046851654 0.025512937 0.022643643 -0.86282396 0.092090599 0.49704543 0.0046057729
0.014644417 0.025760503 0.02215304 0.97221804 0.11766522 0.20235372 0.0017891484
-0.046400331 0.02834343 0.022875939 -0.8438583 0.043974631 0.53476107 0.0067846486
0.014113026 0.028588593 0.022588287 0.94241703 0.25657356 0.21452288 0.0013078236
-0.046445608 0.031530395 0.022757942 -0.84635663 0.0092590172 0.53253627 0.0049761939
0.013067579 0.031633142 0.022492588 0.87938035 0.43152782 0.20118138 0.0016869222
-0.046346352 0.034465529 0.022921652 -0.83343983 -0.012314361 0.55247289 0.0053354693
0.010913964 0.034963638 0.022745436 0.76180506 0.61032009 0.21716888 0.0017375416
0.012221755 0.033485238 0.021897735 0.80632007 0.55514061 0.20412478 0.0016305163
-0.046381898 0.037180997 0.02301285 -0.77621907 -0.067954063 0.62679046 0.0078253476
0.0058043366 0.038893275 0.023619661 0.50904465 0.80973709 0.29188934 0.0055164536
0.0076198112 0.038072411 0.02255711 0.56740046 0.77623641 0.27479771 0.0062766946
0.0095308339 0.036566779 0.022354098 0.67999125 0.70165527 0.21281874 0.0013968378
-0.048424046 0.041043386 0.021960719 -0.67463601 -0.33579513 0.65734905 0.0081396047
-0.04669597 0.040340025 0.023294445 -0.64106238 -0.11635233 0.75861788 0.0068434021
-0.0030122064 0.040911559 0.023924265 0.1473465 0.77065969 0.61997795 0.076307841
-0.0013569116 0.041118689 0.023454404 0.35748023 0.55923891 0.74797034 0.067429565
0.0017111957 0.040782709 0.022849647 0.34327537 0.72690994 0.59478062 0.035366204
0.0044141556 0.040046994 0.022256711 0.5217306 0.69386476 0.49633542 0.039059408
0.0063620629 0.039149996 0.021503316 0.57810587 0.72002542 0.38387105 0.011026413
-0.051067349 0.044626463 0.021490576 -0.66868311 -0.21404451 0.71207291 0.010723427
-0.04910424 0.043880526 0.022530653 -0.53704083 -0.17278786 0.82567036 0.0060859709
-0.047241468 0.043430455 0.023659954 -0.52959192 -0.11917859 0.83983856 0.0034899688
-0.001304812 0.043401171 0.023348149 0.46278054 0.13560836 0.87603903 0.023496624
0.0014768684 0.04341089 0.022167927 0.39126778 0.095532618 0.9153049 0.010684675
0.003330275 0.043374311 0.021190181 0.51109743 0.11068653 0.85236603 0.012884637
-0.051313654 0.046556253 0.021637829 -0.68258375 -0.10871179 0.72267634 0.012436337
-0.049361583 0.046777289 0.023017908 -0.46770066 -0.036240142 0.88314366 0.0061743907
-0.047523465 0.04681645 0.023840556 -0.44750658 -0.018802393 0.89408296 0.0036074803
-0.0011068508 0.046498556 0.023379045 0.51265621 -0.050766021 0.85709184 0.0056830314
0.0014391063 0.046480708 0.022283576 0.40991676 -0.036963228 0.91137367 0.0002640344
0.0036077246 0.046682868 0.021288959 0.43425003 -0.059661303 0.89881444 0.00059312029
-0.051311672 0.049554672 0.021918999 -0.6644786 0.012808289 0.74719751 0.01424406
-0.049381424 0.049481746 0.023009775 -0.43437296 0.017241662 0.90056807 0.0049425578
-0.04720718 0.049490679 0.023766028 -0.37902549 0.041628771 0.92444944 0.0011969792
-0.001072666 0.049533524 0.023412943 0.51422054 0.014250509 0.85753953 0.0068168775
0.0015045741 0.049623597 0.022313235 0.38754824 0.024966978 0.92151129 0.00071458594
0.0038219681 0.049574342 0.021371825 0.39172623 -0.0018990287 0.92007989 0.00084716832
-0.051259257 0.052603915 0.021799279 -0.67909306 0.14485912 0.71961689 0.012275558
-0.049470708 0.052604213 0.022882497 -0.46769899 0.11160339 0.87681377 0.0084991464
-0.047229443 0.052554611 0.023759842 -0.40082365 0.080721453 0.91259217 0.0027922825
-0.0011767576 0.052729096 0.023239704 0.49878797 0.1295671 0.85698479 0.0079747196
0.0015562311 0.052553739 0.022094207 0.36906365 0.10583386 0.92335868 0.00046001837
0.0036235845 0.052365243 0.021278599 0.37258139 0.090838388 0.92354292 0.00044078668
-0.051152203 0.054996084 0.021437725 -0.6348058 0.33495849 0.69629329 0.012305736
-0.049316078 0.055382982 0.022293648 -0.48690853 0.31980032 0.81280243 0.0090178894
-0.046700615 0.055682819 0.023458438 -0.40857229 0.27047664 0.87172878 0.0039661252
-0.044820242 0.056573272 0.023847768 -0.51637125 0.31211641 0.79746109 0.007308065
-0.0033148325 0.056308392 0.023706289 0.67583859 0.26147678 0.68910968 0.011497854
-0.0014131713 0.055585664 0.022792356 0.45161983 0.23161243 0.86162359 0.0083081676
0.0014764491 0.055486713 0.0216607 0.35176897 0.17191096 0.92016584 0.00053240539
0.003385985 0.054632504 0.02110357 0.35359484 0.14574905 0.92397398 0.00034137466
-0.048622098 0.05788463 0.021612821 -0.48053625 0.51164031 0.71225631 0.0052782646
-0.046459138 0.058431093 0.022191366 -0.42588863 0.52468443 0.73710591 0.0077841915
-0.043933462 0.0589233 0.023220649 -0.47676003 0.47157457 0.74183381 0.0059461338
-0.041894909 0.059720911 0.023762174 -0.54741806 0.57600003 0.60708934 0.0051997495
-0.004021538 0.058766548 0.023041194 0.5313136 0.39311793 0.75044262 0.013926912
-0.0014706884 0.058466315 0.021995107 0.33217281 0.29599026 0.89557302 0.0021024663
0.00087463204 0.058108598 0.021307668 0.30517691 0.22387919 0.92560524 0.0010412413
-0.045469105 0.060214531 0.021274036 -0.38598332 0.66653287 0.63777024 0.0030410213
-0.043195918 0.060922164 0.021989211 -0.42461169 0.66974306 0.60922015 0.0053263009
-0.040776763 0.061948035 0.022777164 -0.48439813 0.73559272 0.4735629 0.0026931146
-0.038657319 0.062807232 0.023786131 -0.54037356 0.70100206 0.46539506 0.0024836552
-0.0069379271 0.061990738 0.022942103 0.53755587 0.57735652 0.6145674 0.01639081
-0.0045548943 0.06141131 0.021957973 0.33476964 0.44058535 0.83295482 0.0074324352
-0.0018321568 0.060894076 0.021334395 0.27125847 0.32843009 0.9047389 0.0022507922
0.00035937925 0.060222581 0.021076959 0.24697727 0.25780272 0.93409854 0.0011153874
-0.039627634 0.06335482 0.021745048 -0.4653267 0.77588189 0.42600274 0.0037524279
-0.037434753 0.064275004 0.022478694 -0.48160958 0.80662733 0.34264347 0.0023689747
-0.034975477 0.065527745 0.022679349 -0.41897815 0.8727864 0.25040191 0.0021995951
-0.012455549 0.065789625 0.023191817 0.40403455 0.86399794 0.3004393 0.0077538495
-0.010355379 0.064851023 0.022434583 0.39342952 0.83051628 0.39427894 0.0094350921
-0.0077029373 0.063809946 0.021759169 0.35822582 0.65269983 0.66757566 0.011729281
-0.0052670757 0.063291475 0.021193324 0.24422179 0.47492111 0.84546179 0.0054621175
-0.033603694 0.066252708 0.0221882 -0.38746753 0.90236121 0.18871436 0.0020401136
-0.031451404 0.066961564 0.022483377 -0.30539513 0.94340497 0.12930956 0.0013564634
-0.028436085 0.067805357 0.022458857 -0.24123597 0.96621919 0.090695605 0.00097898825
-0.02549541 0.068335518 0.022476194 -0.13545457 0.98767054 0.078479066 0.0004265091
-0.022530133 0.068633109 0.022506403 -0.011945747 0.99551922 0.093801357 0.0015562739
-0.019516407 0.06838315 0.022505373 0.1477505 0.98202288 0.11747678 0.0012609492
-0.016507674 0.067644864 0.022492632 0.29181042 0.94177055 0.16707723 0.0039272588
-0.013712832 0.066646777 0.022278981 0.37207365 0.89972156 0.22817196 0.0057156007
-0.011582968 0.066145495 0.021182217 0.33497086 0.83532697 0.43591666 0.0098711532
-0.036803212 -0.063212655 0.025039457 -0.57937771 -0.54545438 0.60564101 0.0080946032
-0.035214361 -0.063927785 0.025784852 -0.47475693 -0.5891124 0.65387493 0.026649512
-0.039936457 -0.060749382 0.024669411 -0.59207261 -0.49779356 0.63375986 0.0045269718
-0.037917599 -0.06173652 0.025689924 -0.55478525 -0.46635976 0.68900061 0.015843555
-0.0091648363 -0.062207963 0.025727347 0.71712214 -0.49646726 0.48913828 0.023567308
-0.0074092275 -0.060756415 0.024744108 0.660438 -0.5488137 0.51246977 0.017297149
-0.042593192 -0.057899106 0.024435652 -0.53895569 -0.42955652 0.72457439 0.0054692626
-0.040726501 -0.058634475 0.025648853 -0.5833317 -0.444525 0.67979532 0.0050141369
-0.038859732 -0.059658937 0.02684392 -0.5775001 -0.41580117 0.70256889 0.014199084
-0.0064185834 -0.058905188 0.025680462 0.72455937 -0.4770073 0.49747133 0.015078972
-0.0053639631 -0.05782935 0.024966933 0.65282124 -0.45522374 0.60547161 0.016679598
-0.045459833 -0.054530349 0.024062498 -0.41131586 -0.20593819 0.88792384 0.0034227734
-0.043482229 -0.055140566 0.024974218 -0.54525089 -0.19970627 0.81413686 0.0061494196
-0.041463614 -0.05557394 0.026555387 -0.56613213 -0.18724479 0.80276638 0.0099824416
-0.0074603665 -0.054118805 0.026924748 -0.35160604 0.12796892 -0.92736036 0.024043506
-0.0038721878 -0.054835856 0.024789035 0.73533583 -0.29277709 0.61119789 0.015093448
-0.045833223 -0.05215184 0.024214189 -0.40253377 -0.074705757 0.91235167 0.0031555283
-0.043535478 -0.052337039 0.025453905 -0.56470829 -0.091306925 0.82022423 0.0051968349
-0.041755743 -0.052787915 0.026847567 -0.56557906 -0.082136795 0.8205936 0.0085637067
-0.0037713349 -0.052215021 0.02578795 0.69984961 -0.13964023 0.70050776 0.031458411
-0.0026058592 -0.051965803 0.024292573 0.67202312 -0.14854175 0.7254793 0.0094950367
-0.045630861 -0.049541786 0.024271073 -0.42392892 -0.048139259 0.90441519 0.0019886186
-0.043561134 -0.049467623 0.025561213 -0.55698091 -0.038349684 0.82963943 0.002698845
-0.041887842 -0.049158212 0.026768681 -0.62788844 -0.036614895 0.77744168 0.00068910047
-0.003401214 -0.049321961 0.02570032 0.81100619 -0.03876666 0.58375162 0.0065383613
-0.0025064836 -0.049496777 0.024472963 0.69095343 -0.034519035 0.72207463 0.0075687082
-0.046000659 -0.046398364 0.024454976 -0.46147966 -0.018754845 0.88695258 0.0037589348
-0.043468926 -0.046336088 0.025897369 -0.54609919 -0.025138851 0.83734328 0.0038009782
-0.041841835 -0.047339588 0.02699798 -0.47235268 -0.0052720788 0.88139391 0.012904377
-0.0037129275 -0.046295658 0.025937771 0.78669816 0.053804424 0.61498868 0.0090185693
-0.0025619813 -0.046595793 0.024429141 0.69819504 0.026942691 0.71540046 0.013263757
-0.045927819 -0.043589927 0.024457831 -0.52140284 0.093284957 0.84819633 0.0056357281
-0.043574724 -0.043449458 0.025874889 -0.54855055 0.057282601 0.83415288 0.0045566177
-0.041876156 -0.042799268 0.026623553 -0.47157878 0.052351199 0.88026863 0.0096361022
-0.0040400266 -0.043801885 0.025762413 0.72513145 0.079093933 0.68405294 0.015659921
-0.0026712585 -0.04408513 0.024276664 0.69425261 0.05333095 0.71775293 0.011782665
-0.045485355 -0.040685482 0.024391975 -0.61298609 0.14377864 0.77690136 0.015762128
-0.043577559 -0.040568225 0.025793791 -0.57000047 0.060234699 0.81943351 0.01242004
-0.041363314 -0.040962931 0.026620273 -0.50724298 0.055251379 0.86003017 0.013129608
-0.0062484313 -0.039433792 0.026662929 0.33813575 -0.24896975 0.90756726 0.091966815
-0.0049105515 -0.041264359 0.025952697 0.66311532 -0.1557529 0.73213321 0.040317282
-0.0028902055 -0.041874554 0.024072845 0.76203454 0.10291824 0.63930529 0.012876333
-0.045475155 -0.037871093 0.024379125 -0.70722818 0.16614929 0.68718463 0.016862504
-0.043624565 -0.037579671 0.02565692 -0.60049647 0.13254154 0.78856629 0.022225613
-0.040712673 -0.037014954 0.026476946 -0.42714009 0.023130078 0.9038896 0.030079264
-0.038649242 -0.036748905 0.026954625 -0.26353648 -0.031514287 0.96413451 0.054961525
-0.043487739 -0.034483511 0.025226597 -0.7212795 -0.0050209351 0.69262582 0.033339996
-0.040979672 -0.035317525 0.026371226 -0.4343228 -0.21209164 0.87543184 0.057992425
-0.038784839 -0.035959605 0.026978282 -0.20550054 -0.34606603 0.91542768 0.053674091
0.0087813577 -0.035543136 0.026831573 0.60974187 -0.5284639 0.59071213 0.022540031
0.010828951 -0.033530477 0.025932193 0.77479368 -0.49789697 0.38960665 0.014766042
-0.043336589 -0.031280201 0.025385326 -0.76045328 0.063572362 0.64627349 0.02126769
-0.041927394 -0.030268505 0.026245207 -0.64342445 0.15916288 0.74878043 0.025938338
0.011601878 -0.03246291 0.025823854 0.81385958 -0.49293914 0.30764195 0.0091871247
0.012582923 -0.030767128 0.025378654 0.88004261 -0.36472139 0.30414355 0.0063251886
-0.043203559 -0.028724376 0.025345681 -0.70736992 -0.069601692 0.70340836 0.037872124
-0.040813163 -0.028804881 0.02664163 -0.45467985 0.076743536 0.88734251 0.046799708
-0.038375948 -0.028072402 0.026964089 -0.21849853 0.050220434 0.97454417 0.051701002
0.01344345 -0.028323799 0.025440088 0.92777807 -0.25860226 0.26898474 0.0059747566
-0.045679253 -0.024529397 0.025032196 -0.71660155 -0.16541797 0.67758328 0.0095867952
-0.044332869 -0.024817578 0.026082689 -0.62429357 -0.16308261 0.76397759 0.014355811
-0.040918514 -0.026826648 0.026425289 -0.39472586 -0.24238546 0.88625097 0.026369505
0.013894527 -0.025524497 0.02561496 0.95652401 -0.080196597 0.28041098 0.006220568
-0.045764264 -0.022427753 0.024964195 -0.75627798 -0.025622074 0.65374845 0.0057870718
-0.044292551 -0.022469196 0.026454177 -0.58603579 -0.026860699 0.80983984 0.0051396177
0.013767287 -0.022292916 0.025784982 0.93384522 0.15167056 0.32392776 0.010144834
-0.045706682 -0.01952482 0.025035892 -0.75355524 -0.0037439126 0.65737396 0.0040571904
-0.044275515 -0.01939882 0.026465759 -0.58025616 -0.0029296945 0.81442881 0.004425576
-0.015511167 -0.018264931 0.026970968 -0.29700139 0.23198493 0.9262684 0.040795706
0.013146007 -0.019319005 0.025535323 0.9004606 0.33348641 0.27920872 0.0071896785
-0.045698889 -0.016420245 0.025046796 -0.7559129 0.0014144345 0.65467066 0.0037819645
-0.044279128 -0.016466931 0.02646346 -0.61025757 0.0010377716 0.79220241 0.0040387129
-0.015355976 -0.016401699 0.026916813 -0.19136488 0.25241867 0.94850636 0.045284402
-0.01454222 -0.015691612 0.026815075 -0.19470187 0.29232165 0.9362902 0.046310477
0.011420687 -0.015800567 0.025678299 0.81447303 0.52548176 0.24597251 0.0029449009
0.01236703 -0.017275635 0.025258787 0.84981751 0.45288891 0.2696327 0.0049746633
-0.045742098 -0.013406011 0.024981003 -0.75435519 -0.0048549329 0.6564486 0.0035754486
-0.044308066 -0.01347975 0.026444625 -0.5968864 0.0012774871 0.80232477 0.0042297328
-0.015372725 -0.013421992 0.026919652 0.023126783 0.055850483 0.99817121 0.027093289
-0.013563528 -0.013388379 0.0265813 -0.15800823 0.22562838 0.96131438 0.058202174
-0.011544538 -0.012365092 0.02641939 -0.24578728 0.37434295 0.89412308 0.062395893
0.0085502397 -0.012467081 0.025786048 0.64913839 0.71552879 0.25814304 0.005088252
0.0099745477 -0.013827879 0.025412729 0.72349501 0.63923317 0.26064518 0.0043482762
-0.045691349 -0.010401652 0.025053877 -0.75220841 -0.0026027719 0.65892011 0.0040762834
-0.044271313 -0.010440784 0.026469279 -0.60126966 0.00023952198 0.79904616 0.0040344475
-0.015391571 -0.010452374 0.026925346 0.20643999 0.027815687 0.97806382 0.0022994822
-0.013493118 -0.010496195 0.026460029 0.12165682 0.11616541 0.98575109 0.027312281
-0.010482379 -0.010655433 0.025937282 -0.18703817 0.40903136 0.89314616 0.063372448
-0.0075364695 -0.0097426679 0.025727829 -0.16667911 0.68542612 0.70880836 0.046888873
-0.0052425796 -0.0091781607 0.026201516 -0.095226243 0.79042518 0.60511148 0.024873879
-0.00062302919 -0.0090287095 0.026791245 0.012905047 0.84004831 0.5423581 0.014062105
0.0018683322 -0.0091862651 0.026161725 0.21000937 0.89243019 0.39933008 0.0069486066
0.0044981362 -0.0098880064 0.025507115 0.37574103 0.86341989 0.3366375 0.010392635
0.0071121124 -0.011279475 0.025374303 0.54804915 0.79429835 0.26216853 0.0038808761
-0.045737036 -0.0073180906 0.025003362 -0.75186843 0.0015750071 0.65931129 0.0040100217
-0.044297036 -0.0075502433 0.02644467 -0.61382616 0.0026436248 0.78943688 0.0035390905
-0.019661017 -0.0061642858 0.02671895 0.27721199 0.086908676 0.95687014 0.029430477
-0.01560738 -0.007091098 0.026639139 0.26551574 0.030005433 0.9636395 0.0030906198
-0.01349993 -0.0075184749 0.026459938 0.22418986 0.038751345 0.97377467 0.0024194568
-0.010549525 -0.0075005712 0.025671609 0.17986329 0.16656545 0.96948701 0.022545554
-0.0075544193 -0.0073990165 0.02487874 0.14743355 0.16886123 0.97455072 0.020334249
-0.0043726093 -0.0082180751 0.02499219 0.03627583 0.57466751 0.81758261 0.056101758
-0.0015011883 -0.0086613102 0.025645634 0.046797018 0.89121348 0.45116365 0.0068099909
0.0011368187 -0.0087731564 0.025090996 0.25153464 0.87062395 0.42278171 0.019264199
0.0030131745 -0.0089536328 0.024048148 0.27376676 0.84098274 0.46669024 0.010564086
-0.045770511 -0.0042909915 0.024941746 -0.75563413 0.008278274 0.65494174 0.0040864418
-0.044307705 -0.0045832163 0.026446361 -0.5887171 0.0011425848 0.80833828 0.0048680464
-0.01966068 -0.0044292007 0.026774416 0.20482989 0.021451168 0.97856253 0.04438119
-0.015622295 -0.0038515038 0.026615579 0.2697401 0.012408336 0.96285313 0.0047720848
-0.013500565 -0.0045878855 0.02637291 0.23008367 0.011362707 0.97310448 0.0024520881
-0.010587218 -0.0045068301 0.025626602 0.23842581 0.012792476 0.97107643 0.0011600283
-0.0075265062 -0.0044810977 0.024886413 0.19686615 -0.00947088 0.98038459 0.0065480866
-0.0050008083 -0.0045566941 0.024320103 0.20878586 -0.057021033 0.97629768 0.010882969
-0.0024956609 -0.0034146854 0.024251854 0.26643565 -0.15362284 0.95153141 0.0047717928
-0.045785643 -0.0013983689 0.024939187 -0.75563538 0.0038750684 0.65498102 0.004197686
-0.044287443 -0.0014644428 0.026456377 -0.60082173 -0.00078182021 0.79938263 0.0039523994
-0.019660119 -0.0015465509 0.026866596 0.2112444 -0.013698463 0.9773373 0.037997324
-0.015632264 -0.00082095002 0.02665253 0.28522459 0.0037801738 0.9584533 0.0036293629
