# .PCD v0.7 - Point Cloud Data file format
VERSION 0.7
FIELDS x y z normal_x normal_y normal_z curvature
SIZE 4 4 4 4 4 4 4
TYPE F F F F F F F
COUNT 1 1 1 1 1 1 1
WIDTH 555
HEIGHT 1
VIEWPOINT 0 0 0 1 0 0 0
POINTS 555
DATA ascii
-0.028868007 0.033917192 -0.013390731 0.2591821 0.54967439 -0.79415536 0.0016799498
-0.026101565 0.033615954 -0.012644112 0.2637592 0.61892551 -0.73983938 0.0013160775
0.032172408 0.033263698 -0.012182073 -0.25724021 0.70853609 -0.65711808 0.0017427984
0.034683429 0.033676956 -0.012707606 -0.26807725 0.66467345 -0.69738364 0.001122875
0.037681799 0.033760849 -0.013726755 -0.21464358 0.50222355 -0.83767509 0.0013121032
0.040297147 0.033960324 -0.014413293 -0.19796973 0.47924685 -0.85506171 0.0013462976
0.043269765 0.035181832 -0.014566952 -0.20626903 0.46511671 -0.86088294 0.001276921
0.045503285 0.035605662 -0.014851499 -0.17497443 0.49369293 -0.85185164 0.0036423723
0.056607302 0.03483085 -0.014920566 0.24201581 0.03280719 -0.9697175 0.0031228829
0.058481056 0.034398694 -0.014317377 0.34001133 -0.024348365 -0.94010603 0.0051005669
0.061522763 0.034490738 -0.012977515 0.4441517 -0.1391172 -0.88508517 0.0034279444
0.063279934 0.035215333 -0.012080986 0.55252266 -0.18085675 -0.8136397 0.0023228603
-0.060398821 0.038401544 -0.012098132 -0.49904028 -0.23276857 -0.83473206 0.0033035206
-0.058436524 0.037579697 -0.012856913 -0.41885477 -0.17777082 -0.89048201 0.0032457456
-0.055397194 0.037446063 -0.014113071 -0.31208262 -0.05810741 -0.94827628 0.0044192169
-0.052852675 0.037514508 -0.014803529 -0.21921496 0.032197315 -0.97514516 0.0045384481
-0.050032988 0.03889107 -0.014875127 -0.034479968 0.20144537 -0.97889268 0.0058610518
-0.046407335 0.038824059 -0.014847191 0.09211541 0.38611862 -0.91783834 0.0040170783
-0.043220293 0.03835715 -0.014631801 0.16232999 0.43280342 -0.88675261 0.0032686975
-0.040444136 0.037642378 -0.014449167 0.1987503 0.48300004 -0.85276568 0.0015460014
-0.037687734 0.037544139 -0.013730362 0.21511234 0.50952893 -0.83313078 0.001519465
-0.034769189 0.036956701 -0.013174146 0.26159251 0.56366807 -0.78348428 0.0015021019
-0.031946436 0.036497362 -0.012427017 0.29180545 0.64834321 -0.70320743 0.0013744164
0.038818289 0.036040969 -0.012233831 -0.31401119 0.60743469 -0.72967124 0.0020970409
0.040887058 0.036685854 -0.012573007 -0.30757841 0.63319606 -0.71025229 0.0017623616
0.043700654 0.036654267 -0.013698158 -0.19786137 0.4669627 -0.86185658 0.0011540783
0.046505783 0.037036631 -0.014244828 -0.15752359 0.44756258 -0.88026929 0.0011905227
0.049572587 0.037636597 -0.014560231 -0.10199014 0.39772022 -0.91182047 0.002180865
0.052652698 0.03808368 -0.014654239 -0.040140815 0.35511488 -0.9339605 0.0039523821
0.055627752 0.037760381 -0.014657594 0.099393487 0.23295887 -0.96739393 0.0034841001
0.05858041 0.037346244 -0.014230204 0.26497352 0.13462831 -0.95481116 0.0055615008
0.061539445 0.03745373 -0.013206679 0.37228572 0.01716475 -0.92795944 0.0039662793
0.063480593 0.037694216 -0.012272843 0.49894327 -0.050915137 -0.8651377 0.0031344518
-0.060731467 0.040704764 -0.012238897 -0.42056087 -0.08153981 -0.90359277 0.0040252451
-0.058457393 0.040476087 -0.013153378 -0.318165 0.0056601432 -0.94801849 0.0050972109
-0.055554461 0.040492781 -0.013977657 -0.21530409 0.1332216 -0.9674173 0.0063523338
-0.052573267 0.040503997 -0.014418543 -0.075059183 0.24679975 -0.96615529 0.0063996823
-0.049533177 0.0405186 -0.014443662 0.0081698354 0.33954954 -0.94055277 0.005455798
-0.046416745 0.040372875 -0.01414487 0.10686769 0.41820401 -0.90204477 0.0031836361
-0.043488394 0.040343832 -0.01354177 0.19777629 0.50610554 -0.83948898 0.0025323459
-0.040499251 0.040184651 -0.012726205 0.23289274 0.56616437 -0.79070783 0.001888575
-0.037841149 0.039417528 -0.012331316 0.29065722 0.63737476 -0.71363288 0.0016589828
0.044748291 0.039140895 -0.012181763 -0.32413065 0.61332703 -0.72025639 0.0036345485
0.046992268 0.03965079 -0.012676957 -0.27608985 0.5861941 -0.76167637 0.0022686252
0.049610745 0.040105637 -0.013170152 -0.14334697 0.45673203 -0.87797922 0.001582975
0.052475709 0.040332701 -0.01361275 -0.095390581 0.42540458 -0.89996195 0.0017222314
0.055572104 0.040561888 -0.013768293 0.0086352872 0.35120231 -0.93625975 0.0023685675
0.058497425 0.040416371 -0.01363286 0.14342721 0.26097664 -0.95463073 0.0045718593
0.061521526 0.040501069 -0.012932654 0.28501904 0.15740465 -0.94550931 0.0042299824
0.063428707 0.040458255 -0.012245034 0.4264012 0.091289833 -0.8999157 0.0036431272
-0.060458366 0.043669194 -0.012272966 -0.29640827 0.12681647 -0.94660431 0.0068381564
-0.058496062 0.043329503 -0.012874368 -0.22199585 0.19413592 -0.95552558 0.0049494081
-0.055522472 0.043512795 -0.013303694 -0.093328498 0.30828151 -0.946706 0.0054711588
-0.052523881 0.043509305 -0.013318025 0.037499458 0.41008189 -0.91127747 0.0053550373
-0.049550802 0.04331946 -0.013061088 0.13499948 0.4777869 -0.8680408 0.0032932439
-0.04680742 0.042729821 -0.012853638 0.19522102 0.54285592 -0.81682074 0.0027891437
-0.044100054 0.042231049 -0.012427155 0.2351833 0.56796193 -0.78873825 0.0013079593
0.050668608 0.042274568 -0.012031131 -0.2756741 0.59305042 -0.75650179 0.0018945553
0.05294 0.042781577 -0.012330109 -0.15561679 0.5082702 -0.84702116 0.0017985366
0.055680681 0.043012369 -0.012654413 -0.036217004 0.4143407 -0.90940106 0.0025067343
0.05864514 0.043209571 -0.012666102 0.061202407 0.34698713 -0.93587089 0.0031811127
0.061370283 0.043133151 -0.012399897 0.17768735 0.29189399 -0.93980056 0.0046061683
0.063168615 0.042440683 -0.012161595 0.30825552 0.21603715 -0.92644829 0.0045988616
-0.060281832 0.045431793 -0.012007478 -0.31094378 0.21967381 -0.92469317 0.0039846106
-0.058411937 0.045604084 -0.012272754 -0.14113688 0.33945015 -0.92997527 0.0064494214
-0.05577315 0.046045318 -0.012244848 -0.00020556648 0.43592155 -0.8999846 0.0037096485
-0.0526039 0.045390058 -0.012333873 0.1184197 0.48466823 -0.86664498 0.0031412842
-0.050590295 0.045315929 -0.012040152 0.18930531 0.57648724 -0.79487479 0.0016231132
0.059971262 0.045073558 -0.0120442 0.013625859 0.41287303 -0.91068673 0.0063775769
-0.015639631 0.0058583603 -0.0091144508 -0.21912439 -0.76570338 -0.6047172 0.0010711531
-0.013295841 0.0056529329 -0.0094960444 -0.18767288 -0.76573116 -0.61517048 0.00087371358
-0.01040995 0.0052992343 -0.0098444922 -0.14633857 -0.75780457 -0.63585949 0.0012654514
-0.0074579208 0.0050680386 -0.010071899 -0.11489523 -0.74858052 -0.65301323 0.0013658915
-0.0044583683 0.0048890789 -0.010348366 -0.088232957 -0.74806225 -0.65773684 0.0013230611
-0.0014564119 0.0047584106 -0.010493901 -0.052877169 -0.73791754 -0.67281622 0.0010833022
0.0015523094 0.0046514175 -0.010556416 -0.03393032 -0.74643135 -0.66459692 0.0018669976
0.0045322604 0.0045709568 -0.010588628 -0.0069791279 -0.75426179 -0.65653664 0.0016127949
0.0075044683 0.0045714774 -0.010535472 0.020161314 -0.7565164 -0.65366375 0.0019315779
0.010494933 0.0046594799 -0.010555327 0.042815156 -0.76253134 -0.64553297 0.0015304707
0.013485179 0.0047756177 -0.010412821 0.07108283 -0.76674598 -0.63800299 0.001410341
0.016453488 0.0050122687 -0.010337845 0.10115853 -0.77893746 -0.61888885 0.0012876124
0.019436922 0.0052250107 -0.010089352 0.1325015 -0.79085058 -0.59749371 0.0013679262
0.022369109 0.0055332645 -0.009740728 0.15854155 -0.79885298 -0.58025736 0.0012840417
0.024966935 0.0057727643 -0.0093591874 0.19775957 -0.81184286 -0.5493654 0.00097408751
0.02708322 0.0059571057 -0.0090258531 0.24521199 -0.79238319 -0.55856961 0.0019339201
-0.024334691 0.0089093903 -0.0092404904 -0.29529634 -0.7422148 -0.60159558 0.0016562141
-0.022194235 0.0084452899 -0.0096520735 -0.27474916 -0.74429005 -0.60872424 0.0010295802
-0.019372128 0.007960978 -0.010247845 -0.24283905 -0.73119271 -0.63748449 0.0015290789
-0.016530478 0.0074719829 -0.01058955 -0.19809468 -0.7305057 -0.65354413 0.0015944097
-0.013598802 0.0070484146 -0.01095711 -0.17732984 -0.72023815 -0.67067957 0.00072966306
-0.010616697 0.0066610631 -0.011289965 -0.13191578 -0.70608002 -0.69573653 0.0014243441
-0.0077006747 0.0064512175 -0.011529285 -0.10156761 -0.71873868 -0.68782175 0.0013758581
-0.0047253161 0.0062562805 -0.011768561 -0.081108563 -0.68881524 -0.72038531 0.0014079678
-0.0019835134 0.0061314646 -0.01192819 -0.051343404 -0.69424862 -0.71790159 0.0022283592
0.0010563226 0.0060790433 -0.011972363 -0.026849193 -0.68597943 -0.72712541 0.0023746279
0.0075796228 0.0060151606 -0.011996749 0.026376517 -0.68974239 -0.72357434 0.0031324294
0.011587447 0.0060346676 -0.011962228 0.016544849 -0.69119406 -0.72247988 0.0026948347
0.013778501 0.0060990104 -0.011872881 0.053721804 -0.71568036 -0.69635886 0.0015060059
0.016527629 0.0062757446 -0.011793613 0.080192015 -0.70145243 -0.70819044 0.000878383
0.019636005 0.0064752982 -0.011561322 0.11494554 -0.70631129 -0.69850689 0.0012697006
0.022601083 0.0067062974 -0.011222813 0.14374653 -0.77286917 -0.61806977 0.0015324401
0.025594441 0.0070013138 -0.010794492 0.18339303 -0.77642131 -0.60294026 0.0011335037
0.028451309 0.0075979228 -0.010555807 0.20392512 -0.78152919 -0.58959883 0.0019316837
0.031365585 0.0081199063 -0.010153871 0.25462136 -0.77835625 -0.57387245 0.001378336
0.034048051 0.0085970303 -0.0095390948 0.29142082 -0.78454328 -0.54732597 0.001025651
-0.030886861 0.01164811 -0.0094523886 -0.31913558 -0.74194998 -0.58962923 0.00081753504
-0.028321378 0.011125758 -0.010085796 -0.3003982 -0.72977018 -0.61416322 0.0015718635
-0.025513487 0.010490098 -0.010599065 -0.26174286 -0.72011048 -0.64259744 0.0010737191
-0.022586375 0.0098507693 -0.011055906 -0.24877806 -0.71215957 -0.65645885 0.0013100306
-0.019915462 0.0094187902 -0.01160591 -0.21602565 -0.69634759 -0.68442172 0.0011372552
-0.017016282 0.0090232575 -0.011954523 -0.17277865 -0.64830434 -0.74151808 0.0007831775
0.029802235 0.0090464409 -0.011814211 0.19562756 -0.71666014 -0.6694237 0.0030054222
0.031895597 0.0093678469 -0.011558901 0.22952096 -0.71702063 -0.65818048 0.00087826792
0.034680169 0.0098785488 -0.010924955 0.27494535 -0.76344848 -0.5844242 0.0013472574
0.037525769 0.010617862 -0.010497258 0.30240956 -0.76729935 -0.56550872 0.0013126861
0.040261719 0.011345646 -0.0098700719 0.35281837 -0.75325459 -0.55509162 0.0013678744
0.042264599 0.011821323 -0.0092653325 0.37902507 -0.7593469 -0.52889723 0.0010805676
-0.036966283 0.014615838 -0.0096620889 -0.37956849 -0.71486723 -0.58727556 0.00097399671
-0.034318116 0.013813503 -0.010265062 -0.33660749 -0.71387869 -0.61406237 0.0016269992
-0.031602811 0.013064654 -0.010767312 -0.30209026 -0.72183919 -0.62264723 0.001253686
-0.028811755 0.012551012 -0.011432805 -0.26864275 -0.69559145 -0.66632092 0.0012461981
-0.026631588 0.012244502 -0.011947986 -0.24955876 -0.65204543 -0.71593106 0.0033059814
0.038592413 0.012257351 -0.011893376 0.31703743 -0.67089486 -0.67036366 0.0017772734
0.040737871 0.012635999 -0.011229853 0.32397044 -0.6999293 -0.63650769 0.00072981924
0.043480068 0.01341596 -0.010565077 0.36674339 -0.7376982 -0.56683385 0.0013845736
0.046057984 0.014286327 -0.0098776184 0.42312223 -0.72084236 -0.54895711 0.0014441548
0.048261642 0.014937758 -0.0090644658 0.44297993 -0.71996158 -0.53425092 0.00090194424
-0.042457085 0.017564246 -0.0094365887 -0.46473536 -0.66552675 -0.58403355 0.0016216397
-0.040278688 0.016895557 -0.010252655 -0.40332311 -0.6798504 -0.61248177 0.0016742138
-0.037714716 0.016100897 -0.010877509 -0.35613477 -0.69525361 -0.62433195 0.0013167304
-0.035162032 0.01543426 -0.011549018 -0.31624538 -0.66992587 -0.67170548 0.0018888619
0.044800837 0.015270196 -0.011843784 0.36792773 -0.65756845 -0.65744418 0.0015418925
0.046874557 0.015792148 -0.01109875 0.39581466 -0.69763422 -0.59719115 0.0016897361
0.049438413 0.016714303 -0.010356324 0.43714848 -0.68388647 -0.58412373 0.0020664856
0.051727522 0.017546961 -0.0095021399 0.49334005 -0.6667245 -0.55865371 0.00145737
-0.046054225 0.020330617 -0.0097835287 -0.47604492 -0.65899712 -0.58232641 0.0013187655
-0.043552894 0.019384377 -0.010576802 -0.43007585 -0.65883029 -0.61723363 0.0013468458
-0.041129347 0.018618811 -0.011452183 -0.39303681 -0.63378769 -0.66620958 0.0005740124
0.05044651 0.018481905 -0.01155145 0.4572688 -0.63795251 -0.6196143 0.00088057778
0.052678306 0.019315558 -0.01064798 0.47642499 -0.64546508 -0.59698749 0.0012225242
0.05495875 0.02030685 -0.0098802531 0.52655107 -0.619946 -0.58173096 0.0012284477
-0.05122596 0.023794672 -0.0093513587 -0.50765127 -0.63263023 -0.58486676 0.0019488469
-0.049141746 0.022926243 -0.010083669 -0.47873998 -0.63566065 -0.60559344 0.0016453414
-0.046789665 0.022084286 -0.011009361 -0.44236127 -0.60596299 -0.66115457 0.0016766334
-0.044520613 0.02124933 -0.011784795 -0.42300168 -0.59887999 -0.68000907 0.0025851373
0.053654447 0.021232396 -0.011804056 0.48594648 -0.5880838 -0.64653963 0.0013302588
0.055855736 0.02218812 -0.010917239 0.51876819 -0.54284877 -0.6604504 0.0022891902
0.057944596 0.023074722 -0.0098833423 0.55656004 -0.57227182 -0.6022839 0.0012793996
-0.054477721 0.026653549 -0.0095085287 -0.53423178 -0.61326563 -0.58180904 0.0012156393
-0.052356571 0.025656482 -0.01028679 -0.49528074 -0.60209072 -0.62624574 0.0019478271
-0.050016612 0.024793399 -0.011252083 -0.45348635 -0.5808838 -0.67596155 0.0012595722
0.056653444 0.024366964 -0.01189072 0.4982456 -0.47445735 -0.72570068 0.0009066856
0.058730081 0.025186157 -0.010985705 0.52711886 -0.48042035 -0.70095801 0.0014121284
0.060811102 0.025960376 -0.0098260343 0.58899939 -0.52373612 -0.61545122 0.0013893266
-0.057454988 0.029399717 -0.0095129097 -0.56776565 -0.54815215 -0.61414289 0.0012820886
-0.055407543 0.028562777 -0.010476467 -0.51825947 -0.54776657 -0.65677905 0.0027417748
-0.053183783 0.027718371 -0.011449486 -0.49069107 -0.54020739 -0.68366528 0.0010373396
-0.012505317 0.029685795 -0.011757102 0.18019369 0.65923291 -0.73002893 0.0012060271
-0.010253791 0.02937153 -0.011537671 0.14985991 0.67457145 -0.72283834 0.0013691569
-0.007758039 0.029079543 -0.011257699 0.13228288 0.67561257 -0.72529227 0.0012385913
-0.0045043943 0.028733863 -0.011065288 0.10420246 0.6749332 -0.73048407 0.0011058756
-0.0014148864 0.028544316 -0.010908789 0.1017588 0.71967274 -0.68681604 0.0021140543
0.0015074031 0.028757503 -0.010411372 0.033716854 0.75033396 -0.66019857 0.0018988121
0.0044968473 0.028479008 -0.010652468 -0.022319658 0.74270654 -0.669245 0.0022478236
0.0075541013 0.028530095 -0.010711106 -0.042661667 0.75862581 -0.6501283 0.0022040757
0.010389253 0.028754767 -0.010715292 -0.087071911 0.74857241 -0.65731108 0.0025313133
0.01346669 0.028878717 -0.011006879 -0.12480906 0.73104322 -0.67081934 0.0037869569
0.016559683 0.029278619 -0.011233384 -0.15542875 0.74940157 -0.64361423 0.0011328622
0.019178616 0.029552093 -0.011584581 -0.18929905 0.70464271 -0.6838454 0.00050842966
0.021217968 0.029806888 -0.01195717 -0.21506611 0.69080079 -0.69031948 0.0028449721
0.05968691 0.027425572 -0.011767827 0.54830551 -0.39282653 -0.73827392 0.0014561218
0.061632827 0.028365701 -0.010709092 0.57781166 -0.39258599 -0.71554869 0.0015742636
0.063534595 0.029273748 -0.009565549 0.63493454 -0.4326463 -0.64005893 0.002296848
-0.060262572 0.03236248 -0.0092929369 -0.6118229 -0.50331193 -0.6102047 0.0017652571
-0.058311522 0.031571213 -0.010354821 -0.56217879 -0.46651667 -0.68287414 0.0020164528
-0.056289434 0.030861968 -0.011497849 -0.51115376 -0.44627526 -0.73454767 0.0014128714
-0.022607917 0.032962799 -0.011863094 0.25792983 0.67547524 -0.69080055 0.0027488959
-0.019407406 0.032226622 -0.011437256 0.23582911 0.66891402 -0.70493871 0.0019312552
-0.016337425 0.031571932 -0.011019181 0.21806535 0.69383276 -0.68632609 0.0008682828
-0.013768177 0.031108715 -0.01069341 0.19629009 0.69193292 -0.69476545 0.0013805836
-0.010817356 0.030603208 -0.01038518 0.16923492 0.68554515 -0.70808715 0.0011860876
-0.0076150745 0.030330367 -0.0099547924 0.14588287 0.75784272 -0.63591868 0.0015524931
-0.0044185179 0.030050384 -0.0096676126 0.11089103 0.76539832 -0.63393116 0.0011169368
-0.0018457205 0.030054877 -0.0091691371 0.072309308 0.79497975 -0.60231107 0.002790048
0.013469317 0.030293835 -0.0092464453 -0.13327613 0.77570933 -0.61685699 0.0010697808
0.016384287 0.030508121 -0.0097472221 -0.16252188 0.77206379 -0.61441374 0.0011352943
0.019565899 0.030884035 -0.010185255 -0.1974393 0.75656033 -0.62340546 0.0016723101
0.022612961 0.031309579 -0.010714414 -0.22706906 0.75843054 -0.61091971 0.00055996299
0.025452822 0.032096855 -0.010837533 -0.23538172 0.74785584 -0.62073106 0.00073452952
0.028196162 0.03253622 -0.011368462 -0.24277489 0.73862863 -0.62887853 0.0016775264
0.062302973 0.031042054 -0.011463826 0.57644439 -0.29602253 -0.76163143 0.0014453465
0.064234555 0.031672385 -0.0101978 0.63284767 -0.33613691 -0.69750684 0.0017362405
-0.063039854 0.035620425 -0.0090459259 -0.61547559 -0.39281192 -0.68329251 0.00098364346
-0.061057311 0.034549311 -0.010000295 -0.59597498 -0.41183347 -0.68935269 0.0016522476
-0.059063748 0.034078199 -0.011320468 -0.52331132 -0.35473931 -0.77479368 0.0016572733
-0.028209614 0.035709966 -0.011494489 0.31181335 0.67822599 -0.66541862 0.0023950431
-0.025377665 0.034870062 -0.011071411 0.30335543 0.71263438 -0.63255644 0.0019494602
-0.022749923 0.034144003 -0.010704085 0.26259473 0.72826052 -0.6329934 0.0023628953
-0.019718386 0.033367194 -0.010342493 0.24767004 0.71058792 -0.6585775 0.0017525668
-0.017755646 0.03345301 -0.0093385726 0.24394791 0.78898001 -0.56391495 0.0030473797
0.025915543 0.033220574 -0.0096769547 -0.24008727 0.76961315 -0.59165347 0.000728218
0.028606812 0.033662513 -0.010190524 -0.25732827 0.75803548 -0.59930331 0.0012735168
0.031429198 0.034281831 -0.010666863 -0.27441919 0.74783248 -0.60451698 0.0020626702
0.034354053 0.035063758 -0.01109063 -0.30321363 0.72944921 -0.61316013 0.0013083692
0.036868341 0.035683636 -0.011695057 -0.33122897 0.70440888 -0.62777025 0.0011967663
0.062867865 0.033439498 -0.011924611 0.5571456 -0.21575975 -0.80189556 0.0023866077
0.064676613 0.034422424 -0.010864216 0.59562165 -0.20833188 -0.77577871 0.0013953309
0.066513605 0.034878235 -0.0094172461 0.68338352 -0.25814769 -0.68289584 0.0020049254
-0.0635226 0.037662383 -0.009577726 -0.61207652 -0.34027773 -0.71384406 0.0023796561
-0.061575066 0.037320834 -0.010911261 -0.54346651 -0.27110478 -0.79444718 0.0013950962
-0.059827998 0.03672478 -0.011902306 -0.52087325 -0.24829635 -0.81672519 0.0026302973
-0.034039214 0.038679112 -0.011247547 0.32155684 0.65682834 -0.68203938 0.0014586775
-0.031251978 0.037819743 -0.010710178 0.31686512 0.69303864 -0.64752907 0.0011720695
-0.028438732 0.036967114 -0.010212868 0.32358965 0.71072161 -0.62463152 0.0018500409
-0.026131289 0.036367323 -0.0097180381 0.32041818 0.74340659 -0.58709359 0.0010122178
0.035103403 0.036366176 -0.0099690845 -0.32745928 0.74239594 -0.5844816 0.00096471142
0.037666801 0.037067328 -0.010517392 -0.33345631 0.74460357 -0.57824939 0.00078240869
0.0401664 0.037981529 -0.010960411 -0.35627782 0.68028384 -0.64053106 0.001447616
0.042816903 0.038669914 -0.011748603 -0.34719095 0.65836042 -0.66784728 0.00072521094
0.064907752 0.037407678 -0.011319247 0.56306887 -0.095890425 -0.8208279 0.0019520797
0.066823445 0.037584852 -0.0098364167 0.6518904 -0.14722678 -0.74388385 0.0022727307
-0.066149667 0.041695971 -0.0091147171 -0.64509869 -0.2752035 -0.71281892 0.0029263229
-0.06419418 0.040540829 -0.010068037 -0.56537592 -0.22061867 -0.79478133 0.0034656217
-0.061988339 0.040260866 -0.011485029 -0.49435446 -0.13371335 -0.85891461 0.0034575562
-0.039941091 0.04164198 -0.011115506 0.30779931 0.66406721 -0.68137681 0.0013897088
-0.037369214 0.040807858 -0.010654039 0.3251254 0.68274772 -0.65433097 0.0010151607
-0.034832403 0.040183432 -0.0099454317 0.34299371 0.70610869 -0.6194883 0.0010521591
-0.032316547 0.039388742 -0.0094418116 0.33980185 0.71439749 -0.61169517 0.00075071712
0.040968657 0.039583422 -0.0096524656 -0.39789763 0.70089489 -0.59196615 0.0011402556
0.043617822 0.04027836 -0.01052098 -0.3592248 0.64917743 -0.67046726 0.00077231735
0.046446651 0.04113495 -0.01121127 -0.34160486 0.63756818 -0.69051647 0.0015156572
0.04875809 0.041660514 -0.011781679 -0.27892792 0.61561656 -0.73703158 0.0028204862
0.065009058 0.040452559 -0.011404314 0.49722937 0.026929041 -0.86720115 0.003210339
0.067144774 0.040523708 -0.0099054417 0.62964171 -0.0307569 -0.77627653 0.0031815374
-0.066216819 0.043423694 -0.0092676878 -0.5854094 -0.1307065 -0.80013222 0.0038644939
-0.064423114 0.043736886 -0.010455519 -0.48765251 -0.04770733 -0.87173337 0.0040273345
-0.062175825 0.04339971 -0.011599288 -0.39569715 0.031369183 -0.91784519 0.0052319784
-0.048360467 0.044737183 -0.011805281 0.24007449 0.63033092 -0.73827314 0.0013135383
-0.046633545 0.044469416 -0.011448001 0.23908907 0.58082575 -0.77812457 0.00098366081
-0.043342393 0.043544117 -0.01082599 0.28816631 0.64002812 -0.71226692 0.0016822405
-0.040773001 0.043133851 -0.0099605564 0.31854126 0.68264687 -0.65766615 0.0011869277
-0.038270704 0.042269938 -0.0095315166 0.35047236 0.69096833 -0.63224351 0.0010960726
0.044761661 0.042164814 -0.0091684889 -0.41362467 0.68046784 -0.6048786 0.00083164929
0.046832692 0.04274204 -0.0098321624 -0.3636812 0.66186041 -0.65549737 0.00091597677
0.049446233 0.043398447 -0.010545927 -0.30077845 0.628429 -0.71736276 0.0011684877
0.05270531 0.044115115 -0.011340056 -0.18718635 0.52794641 -0.82839233 0.0010958572
0.055390701 0.044522591 -0.011763025 -0.13687076 0.49952325 -0.85541975 0.0022635581
0.058138274 0.044772521 -0.011889918 0.030646773 0.4025811 -0.91487116 0.0021397078
0.062431034 0.044383675 -0.011800975 0.16580169 0.29052013 -0.94239467 0.0049761166
0.064682372 0.043434333 -0.011254174 0.41914195 0.15023595 -0.89540452 0.0041664429
0.067244872 0.043366984 -0.0097892713 0.56754178 0.082638264 -0.81918693 0.0042954045
-0.066396944 0.046343472 -0.0093173748 -0.50604576 0.03239103 -0.86189818 0.0041016415
-0.064520225 0.046558846 -0.010270342 -0.3900623 0.11944813 -0.91300797 0.0068471991
-0.061429527 0.046525717 -0.011418269 -0.28076485 0.27682909 -0.9189868 0.0072641368
-0.058702651 0.046927918 -0.011755425 -0.095338546 0.36204579 -0.92727208 0.0055128993
-0.055217121 0.047220524 -0.011516553 0.067264467 0.49180526 -0.86810321 0.0023489166
-0.052183058 0.046535481 -0.011504612 0.15923281 0.54560888 -0.82277322 0.0017865887
-0.049565166 0.046121627 -0.011036932 0.19820601 0.58709991 -0.78487456 0.0021110282
-0.046681721 0.046099007 -0.0098439669 0.33291256 0.70209002 -0.62947506 0.0017968994
-0.044360489 0.04539597 -0.0094271591 0.33469725 0.7135852 -0.61544609 0.0017963229
0.050520752 0.045232188 -0.0093193073 -0.38563138 0.67145741 -0.63279814 0.0022358315
0.052900452 0.045929987 -0.0098308166 -0.32984138 0.63340348 -0.70000345 0.0021097055
0.055829763 0.04624575 -0.010693597 -0.18416873 0.53279924 -0.82595813 0.0013759643
0.058777094 0.046208013 -0.011217527 0.010436148 0.43319681 -0.90123898 0.0033385756
0.061539248 0.046463218 -0.011110683 0.11512223 0.38655964 -0.91505116 0.0049098618
0.064482175 0.046407353 -0.01057566 0.30096123 0.28962538 -0.90859205 0.0073646591
0.066886194 0.046228364 -0.0096062953 0.49303395 0.18582626 -0.84993303 0.0046290345
-0.066377774 0.049272019 -0.0091187507 -0.38313109 0.20609069 -0.90040946 0.0070954072
-0.064562976 0.049394775 -0.0096349725 -0.27950001 0.26441839 -0.92301828 0.0047543445
-0.06172879 0.04957379 -0.010154513 -0.16728638 0.37617478 -0.911322 0.006529382
-0.058508184 0.049168695 -0.010552964 -0.014254107 0.47297409 -0.880961 0.0031584252
-0.05542139 0.049291417 -0.010021137 0.14083178 0.61210245 -0.77813685 0.0036917324
-0.052764192 0.048515502 -0.0099780681 0.24240485 0.64347452 -0.72607189 0.0026191287
-0.050090179 0.048247345 -0.009234393 0.30931449 0.68951148 -0.65490335 0.0018229336
0.056089923 0.048262715 -0.0091351708 -0.28906769 0.62422395 -0.72579908 0.0026097067
0.058774635 0.048752844 -0.0096421475 -0.12838875 0.54574293 -0.82805854 0.0024301731
0.061853256 0.049332079 -0.0096526444 0.037193149 0.43975329 -0.89734811 0.003763264
0.06447275 0.049188286 -0.0095902989 0.1818974 0.36359477 -0.91362584 0.0061143734
0.06649366 0.048635442 -0.0092083188 0.38355079 0.26969248 -0.88326371 0.0058754049
-0.064043164 0.051279292 -0.0090772463 -0.19453621 0.42447746 -0.88429326 0.0083963722
-0.061376557 0.051257148 -0.0091555528 -0.029361188 0.53899878 -0.84179467 0.0056346338
-0.059694335 0.051054277 -0.0092259264 0.062792845 0.60934538 -0.79041457 0.0016164968
-0.0097385561 0.0028216948 -0.0061331149 -0.16903374 -0.88428998 -0.43526861 0.0018412495
-0.0074014626 0.0026973647 -0.0065598772 -0.12392011 -0.8760252 -0.46607259 0.0012240536
-0.0043205172 0.0024657894 -0.0069540315 -0.094009779 -0.87098581 -0.48223013 0.0017874016
-0.001429953 0.0023423072 -0.0071149822 -0.052824009 -0.87268358 -0.48542035 0.0019435744
0.001544308 0.002260423 -0.0072083478 -0.02560256 -0.87155801 -0.48962352 0.0019588436
0.004517823 0.0022624468 -0.0073688892 0.0031660625 -0.87518424 -0.48377934 0.0018617773
0.0074886368 0.0023238137 -0.0073229508 0.02321017 -0.8778891 -0.47830129 0.0020252401
0.010433444 0.0023339123 -0.0071340874 0.055155568 -0.88492793 -0.46245047 0.0018822622
0.0134117 0.0025119542 -0.006957097 0.093235388 -0.88655758 -0.45312554 0.0018269228
0.016345501 0.0026876882 -0.006587137 0.1174417 -0.88749027 -0.4456102 0.0018022076
0.018795611 0.0028694319 -0.0063209361 0.16387323 -0.89811426 -0.40808865 0.0012865633
-0.02141016 0.0058493465 -0.0062306523 -0.33296624 -0.83663493 -0.43494314 0.0017152242
-0.019331193 0.0055137333 -0.0067820228 -0.27144462 -0.84196037 -0.46628374 0.0016012305
-0.016475048 0.0051218872 -0.0074573592 -0.22549959 -0.83627772 -0.49978939 0.0016131544
-0.013529613 0.0044052559 -0.0075602643 -0.2054401 -0.84750336 -0.48942053 0.0014622402
-0.010591366 0.003793699 -0.007662999 -0.15716577 -0.84395677 -0.51287031 0.0011615894
-0.0076547875 0.0036138159 -0.0080859596 -0.11937322 -0.84341246 -0.52383721 0.0016238452
-0.0046731653 0.0034108637 -0.0084225992 -0.092374407 -0.82707322 -0.55445182 0.0014037257
-0.0014974651 0.0033045986 -0.0086591672 -0.055085886 -0.79764891 -0.60060114 0.00070811639
0.001260852 0.0032300118 -0.0087522753 -0.034835793 -0.79441512 -0.60637534 0.00078067282
0.0045247003 0.0032496159 -0.0088531282 -0.0070476299 -0.82281077 -0.5682717 0.0014096051
0.0078156097 0.0032334591 -0.0088083604 0.022280613 -0.81789702 -0.57493317 0.001357888
0.010604999 0.0032294793 -0.0086703217 0.05044182 -0.8260411 -0.56134808 0.0012690523
0.01366913 0.0033440553 -0.0084392317 0.084165059 -0.85857779 -0.50572759 0.0018925123
0.016619341 0.0034900557 -0.0080939624 0.10828841 -0.86291486 -0.49361065 0.0017434618
0.019569905 0.0037265036 -0.0077166767 0.1593758 -0.86866647 -0.46906066 0.0012804787
0.022480438 0.0042202421 -0.0075409715 0.18190388 -0.88072813 -0.43729737 0.001483393
0.025513185 0.0048582605 -0.0075325058 0.20568186 -0.87023908 -0.44763702 0.0013748986
0.028347028 0.0054009333 -0.0070661665 0.23758225 -0.87125248 -0.4295041 0.0016505276
0.030713767 0.0057941326 -0.0064900736 0.28207883 -0.8761909 -0.3907955 0.0013170926
-0.028046653 0.0086821439 -0.0066333227 -0.34075788 -0.83339375 -0.43513098 0.0010617664
-0.025420055 0.0081030279 -0.0073891426 -0.30067956 -0.81481498 -0.4956494 0.0014304081
-0.022465331 0.0071333554 -0.0076039918 -0.29850316 -0.8237735 -0.48196796 0.0015690011
-0.019740527 0.0065460573 -0.0082620233 -0.25601307 -0.81098843 -0.52607524 0.0020208249
-0.017111838 0.006184753 -0.0088334354 -0.21417424 -0.77479982 -0.59482324 0.00073769386
0.028938681 0.0063024662 -0.0084931338 0.23616192 -0.83158433 -0.50268781 0.00087899918
0.03168777 0.0066989693 -0.0077042202 0.2929073 -0.85864848 -0.42062831 0.0013546332
0.034496486 0.0076258392 -0.0075680446 0.31150422 -0.84040362 -0.44349405 0.001799155
0.037276246 0.0084144417 -0.0070833503 0.33060452 -0.84772992 -0.41479465 0.0015888559
0.039416343 0.008891359 -0.0063703521 0.3745454 -0.83676958 -0.39941511 0.0014425865
-0.036444243 0.011976044 -0.0061314618 -0.42758447 -0.81104046 -0.39923045 0.00167047
-0.03413891 0.011450541 -0.0070440848 -0.37400207 -0.80838794 -0.45456734 0.0013197643
-0.031449292 0.010624115 -0.0075433231 -0.34416264 -0.80536216 -0.48264259 0.001713212
-0.028695947 0.0097301947 -0.0079623489 -0.31987461 -0.80253059 -0.50361186 0.0019037696
-0.026282109 0.0092595667 -0.0087166773 -0.29617792 -0.76082939 -0.57742292 0.00088016316
0.038027506 0.0093653528 -0.0083512627 0.3217963 -0.82608092 -0.46264181 0.0015159589
0.040557176 0.01008512 -0.0075824135 0.37478116 -0.82699442 -0.41906965 0.0013871267
0.043277744 0.011201303 -0.0072766836 0.38833332 -0.82178283 -0.41697744 0.0013507232
0.045330469 0.011792581 -0.0065291654 0.42858115 -0.80641794 -0.40744132 0.0015246562
-0.039992411 0.014423032 -0.0070283599 -0.43700883 -0.77591622 -0.45494756 0.0011550019
-0.037504446 0.01350114 -0.0076349615 -0.39992473 -0.78960121 -0.46539247 0.0014527119
-0.034943312 0.012500703 -0.0081564188 -0.37181509 -0.7818076 -0.50053006 0.0022038638
0.044283289 0.012310009 -0.0084393751 0.40433517 -0.78295386 -0.472754 0.00096181734
0.046580553 0.013144951 -0.0076448172 0.44278982 -0.79093391 -0.42232776 0.0013679615
0.049083516 0.014318242 -0.0071467808 0.47046754 -0.77420914 -0.42339173 0.001339511
0.051011328 0.014820954 -0.0061099646 0.49800602 -0.77080995 -0.39729342 0.001033423
-0.04546982 0.017658928 -0.0065654865 -0.50428772 -0.74304295 -0.43997839 0.00076692668
-0.043337852 0.016768439 -0.0075077633 -0.47803184 -0.73951721 -0.47391972 0.0015868288
-0.040918734 0.015561921 -0.0080735916 -0.44180086 -0.75700539 -0.48140931 0.0017275079
-0.038962081 0.01519739 -0.0089909723 -0.39492059 -0.74128532 -0.54270965 0.0038678767
0.050174341 0.015530713 -0.008122988 0.48527187 -0.76216465 -0.42850462 0.0016065291
0.052477222 0.016690629 -0.007448914 0.51488835 -0.74210042 -0.42915845 0.0014436535
0.054459561 0.017584058 -0.0066012102 0.53322071 -0.72858107 -0.42993653 0.0011413051
-0.048779961 0.020338198 -0.0071215052 -0.52969557 -0.71142143 -0.46184659 0.0014280787
-0.046634596 0.019175882 -0.0077024121 -0.50740653 -0.72413993 -0.46707603 0.0018028138
-0.044487525 0.018248847 -0.0085087726 -0.47928327 -0.70462453 -0.52325124 0.0019286211
0.053712931 0.018319322 -0.0085924966 0.51691443 -0.67232007 -0.52989161 0.0015518797
0.055694949 0.019204518 -0.0077174683 0.54988563 -0.70454651 -0.44859791 0.0014919339
0.057624791 0.02032374 -0.0070154537 0.58250207 -0.66824651 -0.46275043 0.0010219817
-0.054300167 0.023931291 -0.0061449423 -0.57324088 -0.70766389 -0.41304559 0.0021118731
-0.052232038 0.023074752 -0.0073273745 -0.5456425 -0.69528055 -0.46782383 0.0016823802
-0.050042752 0.021825211 -0.0079080975 -0.52940416 -0.70017391 -0.47904873 0.0023317079
0.058856085 0.02206257 -0.0078160716 0.58851188 -0.64156032 -0.49198991 0.0018193844
0.060823411 0.023246089 -0.0069486746 0.61616993 -0.630265 -0.47233528 0.0017216044
-0.057296634 0.026681095 -0.0064622029 -0.59349126 -0.66201645 -0.45771438 0.0010164884
-0.055316497 0.025734834 -0.0075078704 -0.56893504 -0.67215008 -0.47384295 0.0021845547
-0.053360716 0.024584809 -0.0081985136 -0.5513202 -0.67297876 -0.49309802 0.0012935116
0.061917141 0.025172651 -0.0079041589 0.64463401 -0.5514636 -0.52946669 0.0026519375
0.063623913 0.02621308 -0.0068139173 0.67808491 -0.55763763 -0.4787913 0.0015376854
-0.06040895 0.029679753 -0.0063885818 -0.65819937 -0.59503978 -0.46119556 0.0014783773
-0.058361311 0.028521627 -0.0075806458 -0.61618263 -0.61382782 -0.49349204 0.0022379176
-0.056505963 0.027387381 -0.0083507849 -0.57268786 -0.62301064 -0.53280991 0.0010996128
0.062856242 0.027287954 -0.0087863561 0.64111698 -0.50323099 -0.57942015 0.002268679
0.064622238 0.028409058 -0.0076449178 0.71605921 -0.46822074 -0.51771474 0.0017453482
0.066227168 0.029475389 -0.0064194296 0.73102385 -0.46741503 -0.4971191 0.0016320097
-0.063114747 0.032931719 -0.0064708474 -0.68902725 -0.56577814 -0.45292017 0.001986224
-0.061223686 0.031518802 -0.0074017835 -0.65836483 -0.55822492 -0.50491649 0.0015647494
-0.059424847 0.030471886 -0.008442237 -0.61088938 -0.56534666 -0.55425394 0.0020413003
-0.015130368 0.032917663 -0.0089419233 0.25025058 0.79359436 -0.55460131 0.0031673214
-0.013220879 0.032555263 -0.0086664306 0.22478116 0.79214144 -0.56743759 0.001841997
-0.010268819 0.032270871 -0.008001009 0.19824941 0.83112842 -0.51954097 0.0030050685
-0.0074416278 0.031734459 -0.0078953831 0.15210602 0.83389223 -0.53055394 0.0027367352
-0.0045875399 0.031379465 -0.0077159978 0.13154243 0.83770895 -0.530038 0.0018446738
-0.0013952986 0.030957013 -0.0077963173 0.11132704 0.85001856 -0.51485419 0.002400395
0.001500812 0.030829377 -0.0076602809 0.04943119 0.85369611 -0.51842028 0.002358417
0.004460264 0.030582853 -0.0078931442 0.034001153 0.84026682 -0.54110599 0.0032965965
0.0074527324 0.030678237 -0.0077540698 -0.044470906 0.82660288 -0.56102598 0.0031835947
0.01064995 0.030926129 -0.0077624992 -0.087566771 0.82943147 -0.55170238 0.0027070872
0.013454654 0.031202696 -0.0078116693 -0.13899793 0.83917892 -0.52579314 0.0016595095
0.016561 0.031656545 -0.0080275247 -0.17074193 0.81990916 -0.54643953 0.0020045997
0.019419035 0.032462358 -0.0078314161 -0.22620876 0.79330128 -0.56524575 0.0016266025
0.021722037 0.032517791 -0.0087859351 -0.23681356 0.76881456 -0.5940063 0.00057345256
0.065489985 0.030884745 -0.0085238488 0.68692458 -0.37264159 -0.6239174 0.0020694516
0.066902459 0.03167434 -0.0072274706 0.74269289 -0.39418155 -0.54132086 0.0021359667
-0.064048283 0.034972515 -0.0072052623 -0.68225831 -0.47147056 -0.55878359 0.0022914286
-0.062466327 0.033863682 -0.008160769 -0.66558993 -0.48577425 -0.56658047 0.0017883983
-0.022047393 0.035467684 -0.0085582733 0.29215398 0.76990807 -0.56735146 0.0023498419
-0.019603541 0.035029016 -0.0079153534 0.28920415 0.83053964 -0.47598833 0.0018324846
-0.01666506 0.034155123 -0.0077181435 0.24685079 0.83289731 -0.495325 0.0017490594
-0.013668597 0.03346682 -0.0074623995 0.23461664 0.8455686 -0.47955078 0.0018698302
-0.011844674 0.033631418 -0.0060628597 0.21396866 0.86629272 -0.45139164 0.00041747419
0.022618772 0.033452544 -0.0077735116 -0.23678638 0.76882803 -0.59399974 0.00055823603
0.025700919 0.034171861 -0.0080577368 -0.24706063 0.78296596 -0.57089883 0.00024710508
0.028569074 0.035104927 -0.007972694 -0.25468197 0.78320915 -0.56720412 0.00033423534
0.030810671 0.035489932 -0.0086591095 -0.29748356 0.77059257 -0.56364048 0.00062296551
0.067793757 0.034402411 -0.0077064405 0.7517491 -0.29802194 -0.58826554 0.0022323634
0.069149874 0.035368677 -0.006347762 0.79293114 -0.31032768 -0.52436328 0.0025625092
-0.066615351 0.038080439 -0.0065206741 -0.69964015 -0.41678727 -0.58033782 0.003238362
-0.064874299 0.0372531 -0.0080294069 -0.6854617 -0.40972936 -0.60188365 0.0035701327
-0.030622756 0.0389244 -0.0089663491 0.35415682 0.75503606 -0.55180931 0.00044254426
-0.028219556 0.038338006 -0.008223745 0.35614222 0.78254741 -0.51066846 0.0027148149
-0.024993151 0.037205122 -0.0077011436 0.32528564 0.77177191 -0.54640406 0.0014888856
-0.022983776 0.036582477 -0.0074068564 0.32660976 0.82413596 -0.46273756 0.0014598441
-0.020299314 0.036150321 -0.0061296113 0.29734892 0.86188096 -0.4107857 0.00032223944
0.031789333 0.036323849 -0.0078336094 -0.30754361 0.76219964 -0.56962144 0.00068458833
0.034590319 0.037296835 -0.008191783 -0.32768807 0.76032895 -0.56082118 0.00036532161
0.037024081 0.038220804 -0.0085250763 -0.36931506 0.72934133 -0.57590586 0.00098150759
0.068345815 0.037351612 -0.0082566459 0.76313663 -0.17855498 -0.62108028 0.0024855123
0.069564477 0.037585471 -0.0067697871 0.79715794 -0.21339594 -0.56480211 0.0022644361
-0.067155838 0.040617276 -0.00746421 -0.69539535 -0.29489589 -0.65533328 0.0028664656
-0.065674596 0.039761137 -0.0085630966 -0.67330444 -0.27629569 -0.68580014 0.0028931552
-0.036318924 0.041959185 -0.0086133089 0.40788686 0.77462071 -0.48331267 0.0018966516
-0.034137405 0.041306697 -0.0079311086 0.40431425 0.79638153 -0.44978499 0.00093905593
-0.031492811 0.040167224 -0.0076863444 0.3771717 0.79708421 -0.47159123 0.0018485442
-0.029053885 0.039234001 -0.0073337662 0.37224579 0.81320924 -0.44735199 0.0010375663
0.038127013 0.039385438 -0.0075774845 -0.39187384 0.731547 -0.55791932 0.00074701646
0.040641665 0.04082372 -0.0076090046 -0.40965536 0.71035326 -0.57234669 0.00058567972
0.043285936 0.041662827 -0.0087288804 -0.40562403 0.70102894 -0.58653873 0.00074487115
0.068629757 0.0402398 -0.0085338289 0.70624065 -0.078319483 -0.70362651 0.0021614714
0.069935493 0.040481143 -0.0070455451 0.78800529 -0.11204686 -0.60538673 0.002435867
-0.069346607 0.044138286 -0.0065368256 -0.74517441 -0.25515094 -0.61612755 0.0035233162
-0.067300126 0.04323848 -0.0082752937 -0.67055464 -0.16422524 -0.72345454 0.0046944399
-0.040173855 0.044382356 -0.0079270406 0.40188441 0.77500767 -0.48770085 0.0025107805
-0.037724633 0.043232813 -0.0077678538 0.38095653 0.78867954 -0.4825522 0.0019828307
-0.035432838 0.042346161 -0.0072855526 0.37980267 0.78803283 -0.4845145 0.0017995785
0.043499272 0.04277369 -0.0072336062 -0.40341154 0.71116084 -0.57576859 0.00059500063
0.046145942 0.044001922 -0.0077861864 -0.39771393 0.70085567 -0.59213597 0.00075501413
0.048322618 0.044604413 -0.0086756032 -0.37574887 0.69772506 -0.60991192 0.0012567395
0.068602376 0.043467838 -0.0087020062 0.65856457 0.02443088 -0.75212765 0.0028587275
0.06996581 0.043449033 -0.0072735646 0.74707419 0.0064661326 -0.66470921 0.0025161633
-0.069695629 0.046540745 -0.0068165194 -0.69712275 -0.12879178 -0.70528901 0.0051297043
-0.067530006 0.046612713 -0.0085449656 -0.5156607 0.0060967798 -0.85677123 0.0039924062
-0.048128869 0.047844477 -0.0087410333 0.35089779 0.71678334 -0.60257149 0.0027735338
-0.045770075 0.047684744 -0.0072714738 0.35195693 0.73828822 -0.57537532 0.0017151346
-0.043795764 0.046882212 -0.0069545764 0.37607104 0.75398141 -0.53859317 0.0012320213
-0.041326452 0.045550514 -0.0070758481 0.42135775 0.77795208 -0.46609893 0.001349473
0.047453683 0.045532227 -0.0066819056 -0.40707844 0.71495235 -0.5684455 0.00053254963
0.04978586 0.046220455 -0.0076535773 -0.40855005 0.70454758 -0.58025825 0.0010430808
0.052369561 0.047309455 -0.0081473887 -0.41275269 0.70695329 -0.57432771 0.00081796036
0.054333515 0.04759543 -0.0089990003 -0.3167592 0.65546042 -0.68559128 0.0030296613
0.068382882 0.046712577 -0.0085341362 0.59193629 0.1233913 -0.79648358 0.0035546601
0.069941014 0.046385307 -0.007167934 0.72598314 0.056068994 -0.68542302 0.0036769577
-0.069980375 0.049570814 -0.0068612695 -0.62926173 -0.018730646 -0.77696776 0.0080818385
-0.067700453 0.049583446 -0.008317057 -0.41487655 0.16117817 -0.89548814 0.0067332624
-0.065158457 0.050978959 -0.0089445543 -0.17637078 0.39802638 -0.90026021 0.0078887176
-0.054734997 0.050802171 -0.0084931701 0.20744984 0.69239146 -0.69105613 0.0028022239
-0.052043177 0.050149027 -0.0079624699 0.30811584 0.7123071 -0.63062131 0.0022175612
-0.049523801 0.049421951 -0.0074428273 0.33650514 0.7492013 -0.57049251 0.0013366545
-0.046948109 0.048572145 -0.006864782 0.37885964 0.74939418 -0.54302275 0.0012634323
-0.044834178 0.048021257 -0.0060944338 0.40358019 0.7860347 -0.46826541 0.0011424074
0.053191945 0.048704546 -0.0070713437 -0.41210502 0.69447464 -0.58980882 0.00097217929
0.055536572 0.049525246 -0.0076126824 -0.34315258 0.69400519 -0.63293219 0.0014638297
0.058248419 0.050135534 -0.008302195 -0.28032437 0.66575116 -0.69151556 0.0048583932
0.061723653 0.05069704 -0.0087899109 0.010627185 0.48293063 -0.87559408 0.0034597043
0.065355994 0.050608445 -0.0088733723 0.15783232 0.36191854 -0.9187513 0.0080356514
0.067723513 0.049700662 -0.0082707899 0.3854152 0.28136793 -0.87879872 0.0058863428
0.069923446 0.049371507 -0.0067830519 0.68101555 0.12945813 -0.72073466 0.0058651734
-0.070197977 0.05269609 -0.006574899 -0.40164447 0.16738914 -0.90036803 0.0076820315
-0.06739676 0.052552287 -0.007781534 -0.22851662 0.32166123 -0.91886568 0.012308944
-0.064826258 0.052635368 -0.0081931977 -0.14079213 0.4345924 -0.88955444 0.0087705776
-0.061407935 0.05280501 -0.0079487376 0.047738306 0.61483878 -0.78720665 0.0031020313
-0.05816729 0.052088067 -0.0080476608 0.12327369 0.65366632 -0.74667531 0.0022435852
-0.055461153 0.052026287 -0.0073828106 0.21072544 0.75546002 -0.62038302 0.0051896647
-0.052825227 0.051547147 -0.0066857184 0.32001168 0.73756772 -0.59463137 0.0024103343
0.058675926 0.051879 -0.0067989118 -0.33119944 0.66694081 -0.66745555 0.0021772739
0.061289683 0.052111093 -0.0077709621 -0.1354901 0.55232543 -0.82254422 0.004311888
0.064617619 0.05234699 -0.0080966698 0.077052191 0.41977075 -0.90435356 0.0067878463
0.06761241 0.05249979 -0.0075080511 0.35941023 0.28057104 -0.89000231 0.013230211
0.069644399 0.052276745 -0.0065130778 0.60235387 0.15984304 -0.78206146 0.0075269886
-0.070096292 0.055031229 -0.0062930807 -0.20738241 0.29485875 -0.93276519 0.011782482
-0.06766434 0.055407554 -0.006618246 -0.11713066 0.35379738 -0.92795897 0.010421882
-0.064553253 0.054752428 -0.0068932748 -0.0014360799 0.53212255 -0.8466661 0.0083803348
-0.061788149 0.05445832 -0.0065346146 0.18118845 0.68214643 -0.70841157 0.0060070818
-0.059744969 0.05424393 -0.0061463388 0.27653447 0.73641342 -0.61743337 0.0043912972
0.062608324 0.054445662 -0.0064004636 -0.18820697 0.54704964 -0.81566834 0.0039892024
0.065169789 0.055157047 -0.0066045024 0.048254803 0.41750103 -0.90739429 0.006875468
0.06760928 0.055427417 -0.0065175821 0.20305863 0.32701784 -0.92294449 0.015678281
0.0693084 0.055015832 -0.0061905314 0.44177729 0.25103134 -0.86128742 0.015579886
-0.015482856 0.0029163985 -0.0030818898 -0.26426345 -0.94412452 -0.19696136 0.00093526236
-0.013228045 0.0026632894 -0.003979804 -0.2196344 -0.92747378 -0.30257756 0.0020880301
-0.010554921 0.0022995963 -0.0045664907 -0.16417286 -0.93701971 -0.30828786 0.0018189208
-0.0075627044 0.0018576089 -0.004543005 -0.12807333 -0.93671942 -0.32581297 0.0021855254
-0.0046046353 0.0014473802 -0.0045564654 -0.095619269 -0.93891597 -0.33059597 0.0023131678
-0.0014950255 0.0012089767 -0.0045588375 -0.051538292 -0.93910098 -0.33975446 0.0025014698
0.0015201751 0.0010800265 -0.004548687 -0.033090767 -0.93878472 -0.34291145 0.0025899848
0.0045691202 0.0010178764 -0.0045924252 0.007674776 -0.94323927 -0.33202532 0.0022100133
0.0074729458 0.0011057773 -0.0045188447 0.038830694 -0.9412778 -0.33539259 0.0025323345
0.0105589 0.001254039 -0.0045372676 0.06314455 -0.94508511 -0.32066637 0.0022410045
0.013556335 0.0015402023 -0.0045337491 0.10204576 -0.94634742 -0.30661559 0.0020207125
0.01656211 0.0019162664 -0.0044957022 0.1233488 -0.94938886 -0.28887016 0.0018222532
0.019490037 0.0023661482 -0.0045537394 0.16244523 -0.94829166 -0.27268001 0.0016500599
0.022173159 0.0027170796 -0.003879172 0.19938867 -0.9443469 -0.26163533 0.0017016219
0.024638856 0.0029404699 -0.0030596284 0.23248209 -0.96216983 -0.142061 0.0021032246
-0.024284983 0.0058983532 -0.0032422249 -0.36009002 -0.90210629 -0.23778018 0.0020717659
-0.022305816 0.0054889508 -0.0042577465 -0.32691643 -0.89652991 -0.29893103 0.0020929982
-0.019489912 0.0045743561 -0.0045254198 -0.28241512 -0.90214598 -0.3261508 0.0022231115
-0.01654852 0.0038063789 -0.0046659969 -0.2531592 -0.91068745 -0.3264333 0.0020922245
-0.013990407 0.0033042673 -0.0052089063 -0.23255371 -0.90790629 -0.3487477 0.0022376277
-0.011417968 0.0030270158 -0.005937208 -0.16632895 -0.88660735 -0.43158087 0.00094689225
0.020874908 0.0031457879 -0.0059519201 0.17612806 -0.89264411 -0.41492829 0.0015165735
0.022880495 0.0032482024 -0.0051423791 0.20141117 -0.92891443 -0.31072754 0.0018016212
0.025525883 0.0036492611 -0.0045690709 0.24381615 -0.92855841 -0.27988032 0.001513537
0.028473312 0.0044509717 -0.0045145764 0.26316583 -0.92037845 -0.28921834 0.0018823006
0.031449061 0.0052976138 -0.0044156853 0.28488809 -0.92124218 -0.26486149 0.0019473255
0.033445649 0.0057815048 -0.0038858082 0.32385385 -0.90864962 -0.26357993 0.0021990768
-0.030708335 0.0087053897 -0.0039924313 -0.35531506 -0.88127553 -0.31161621 0.0019947398
-0.028561383 0.008008589 -0.0045835148 -0.34212738 -0.88439155 -0.31749079 0.0018854626
-0.02551279 0.0068215565 -0.0045947065 -0.35386166 -0.88713372 -0.29626966 0.0016568898
-0.023208888 0.006262477 -0.0054579061 -0.33135176 -0.88198417 -0.33512664 0.0019672059
0.032735471 0.0061278488 -0.0058234595 0.29388145 -0.89725214 -0.32950309 0.0020542392
0.034690116 0.0065173204 -0.0047180797 0.34059158 -0.898615 -0.27656531 0.0017414163
0.037507027 0.007533696 -0.004550864 0.33870462 -0.89877629 -0.27835271 0.0014005076
0.040130362 0.0085251471 -0.0042695068 0.38812444 -0.88931209 -0.24183312 0.0018854905
-0.036870804 0.011565355 -0.0043065543 -0.42179319 -0.85325283 -0.30667585 0.0021165537
-0.034480441 0.010527596 -0.004648414 -0.3967784 -0.86038882 -0.31984061 0.0016864372
-0.031865094 0.0094884746 -0.0048436355 -0.38431519 -0.8715744 -0.30440083 0.0015787979
-0.02973954 0.0090996027 -0.0059567415 -0.37155092 -0.83044016 -0.41511342 0.0017690497
0.04131094 0.0093144225 -0.0049823448 0.41752413 -0.8704899 -0.26061624 0.0017806742
0.04352523 0.010190666 -0.0044601751 0.41970789 -0.87189364 -0.25228301 0.0015448773
0.046117563 0.011433019 -0.0043037836 0.4507584 -0.85711026 -0.24935703 0.0018909089
-0.042721849 0.014662803 -0.0041823457 -0.49175182 -0.81217355 -0.31393358 0.0018037533
-0.040495794 0.013619813 -0.0046995818 -0.46633768 -0.82597476 -0.3166936 0.0017051995
-0.038176928 0.012457993 -0.004874853 -0.44219011 -0.8422426 -0.30837533 0.001916705
0.047299027 0.012371519 -0.0050650346 0.47363123 -0.83516669 -0.27958909 0.0018416884
0.049442444 0.013417181 -0.0045147077 0.49615982 -0.82108277 -0.2822209 0.0016018744
0.05158196 0.01458321 -0.0042447131 0.51119018 -0.81206566 -0.28148517 0.0019594056
-0.046165422 0.017137313 -0.004369264 -0.54539382 -0.77951813 -0.3080537 0.0018828878
-0.043936323 0.015804624 -0.0049424353 -0.52023953 -0.79077202 -0.32253766 0.001997415
0.052952364 0.015725052 -0.0047684875 0.54201484 -0.79678363 -0.26712492 0.0015704511
0.055164754 0.017127186 -0.0043680407 0.55692917 -0.78171223 -0.2806347 0.0017248985
-0.05151581 0.020753231 -0.00373004 -0.56549203 -0.77040303 -0.29444525 0.0016357899
-0.049569998 0.019672986 -0.0046486347 -0.56955481 -0.76203299 -0.30807954 0.0019818719
-0.047460154 0.018296659 -0.0050911633 -0.56145209 -0.77052778 -0.30175897 0.0021053196
0.056445491 0.018321296 -0.0051066298 0.58118033 -0.75968307 -0.29173785 0.0018701279
0.058396593 0.019632613 -0.0044744532 0.61720282 -0.73201561 -0.28846797 0.0020871398
0.060226172 0.020763047 -0.0035147592 0.63821423 -0.71229136 -0.29210192 0.001728096
-0.054778907 0.023488017 -0.0042786459 -0.594549 -0.74541676 -0.30143881 0.0021586374
-0.052667424 0.022013992 -0.0046861153 -0.58603817 -0.75195104 -0.30187553 0.0018730056
0.059621703 0.021274282 -0.0055896607 0.6329813 -0.69751555 -0.33586699 0.0016694391
0.061508566 0.022466175 -0.0044664256 0.66335958 -0.69094491 -0.28731379 0.001884726
0.06332659 0.023782017 -0.0034422521 0.70501035 -0.64755285 -0.28919822 0.0017797132
-0.0580207 0.026256934 -0.0044143605 -0.62117058 -0.70024151 -0.35186505 0.0017870382
-0.056148548 0.024849264 -0.0047785952 -0.60197002 -0.7302404 -0.3230806 0.0022036887
0.062739685 0.024261544 -0.0056613828 0.69250506 -0.62228036 -0.36497122 0.0031829097
0.064390182 0.025549104 -0.0044596945 0.74208081 -0.6111303 -0.275383 0.0013950588
0.066195443 0.026984742 -0.0030755915 0.78916639 -0.55697209 -0.25884065 0.0016782919
-0.060830683 0.029272823 -0.00483518 -0.67272866 -0.63482463 -0.38004461 0.0018895073
-0.059301626 0.027758582 -0.0051323534 -0.65117592 -0.67256451 -0.3516061 0.0020555754
0.065602519 0.027516427 -0.0051726713 0.76030993 -0.56430501 -0.32169676 0.0024129413
0.066813201 0.028748455 -0.0043618395 0.7891928 -0.5193435 -0.32780626 0.0027324173
-0.063675262 0.032441907 -0.0047756513 -0.70927572 -0.55490547 -0.43475041 0.0013792425
-0.062355887 0.030884575 -0.0049572755 -0.70268261 -0.59893668 -0.38407284 0.0023892142
-0.0084231356 0.03297909 -0.0058817384 0.15031438 0.85891575 -0.48956037 0.0010028816
