# .PCD v0.7 - Point Cloud Data file format
VERSION 0.7
FIELDS x y z normal_x normal_y normal_z curvature
SIZE 4 4 4 4 4 4 4
TYPE F F F F F F F
COUNT 1 1 1 1 1 1 1
WIDTH 550
HEIGHT 1
VIEWPOINT 0 0 0 1 0 0 0
POINTS 550
DATA ascii
0.051436301 -0.069191292 -0.055533815 0.44321027 -0.89518523 0.046990328 0.00020700949
0.0042206016 -0.066630304 -0.055683009 -0.49935001 -0.86439425 0.058923941 0.00012366669
0.0075231409 -0.06846346 -0.055636361 -0.46233064 -0.88420671 0.066549771 0.00029293628
0.052945532 -0.068468347 -0.055489104 0.46175966 -0.88567483 0.048561104 0.00026560665
0.05508234 -0.067262329 -0.055760819 0.51638126 -0.85571527 0.033192523 0.00028482938
0.057156391 -0.066081434 -0.056404307 0.54296839 -0.83820844 0.050911903 0.00036014977
-0.00050946343 -0.063491434 -0.055482984 -0.56781179 -0.82312357 0.007570663 0.00102045
0.0023235192 -0.065397069 -0.054752767 -0.53540099 -0.84373367 0.038199708 0.00082495844
0.056972586 -0.065969989 -0.055134378 0.54807174 -0.83489001 0.050754681 0.00028834827
0.058504675 -0.06501735 -0.055439431 0.57201409 -0.81903166 0.04457704 0.00030568082
0.06068046 -0.063420109 -0.055373505 0.6156078 -0.78715163 0.037674673 0.00050380192
-0.0033351844 -0.061477393 -0.056905404 -0.56681168 -0.82287294 0.040059 0.00027609986
0.062153298 -0.062181953 -0.055413943 0.65324467 -0.75610024 0.039795931 0.00035508527
0.063901372 -0.060676586 -0.055523202 0.68609905 -0.72637713 0.040549438 0.00035826737
0.065322019 -0.059298128 -0.055569112 0.71544564 -0.6975348 0.039784916 0.00023593944
0.06665162 -0.057859059 -0.055567872 0.73517698 -0.67645252 0.043894846 0.00019945845
0.06815318 -0.056117434 -0.055482727 0.76805931 -0.63881737 0.04469179 0.00026073266
0.069379151 -0.054618284 -0.055643067 0.78942811 -0.61223644 0.044382226 0.00022414494
0.070894219 -0.052528393 -0.055537105 0.82215637 -0.56763899 0.042952735 0.00022699538
0.07212241 -0.051197372 -0.056131169 0.82962769 -0.55634046 0.046938464 0.0002939851
0.071902871 -0.050817154 -0.054938205 0.83310181 -0.55143327 0.043160539 2.7804374e-05
0.072896339 -0.049445484 -0.055508912 0.86312717 -0.503106 0.043540347 0.00025716992
0.074337952 -0.04671507 -0.055500552 0.89301813 -0.44798225 0.042783592 0.00016056189
0.075107999 -0.0451818 -0.055461437 0.90817302 -0.41650745 0.04175305 0.00043899834
0.07582593 -0.043526333 -0.055551101 0.92472732 -0.37856677 0.039578915 0.00032920929
0.07692308 -0.040519133 -0.055527974 0.94441974 -0.32595849 0.042690869 0.00014771528
0.077711634 -0.038100455 -0.055443972 0.95875168 -0.2809515 0.043144446 0.00033863759
0.078186661 -0.036575381 -0.055609394 0.96559644 -0.25675303 0.041249141 0.00039354098
0.078611642 -0.034506667 -0.055541962 0.98028034 -0.19394194 0.037906468 0.00030839248
0.079118736 -0.031449214 -0.055417623 0.98817772 -0.14858142 0.037794225 0.00017302029
0.079447731 -0.028512767 -0.055610169 0.99572957 -0.086109318 0.033284489 0.00025773537
0.079640605 -0.025460636 -0.055611342 0.99911314 -0.031602498 0.027824981 0.00044832451
0.079614639 -0.022552976 -0.055399954 0.9990263 0.042392824 0.012217889 0.0006781253
0.079377688 -0.019526379 -0.055503238 0.99508107 0.094236165 0.030549556 0.00044416412
0.079067945 -0.016501097 -0.055520941 0.98524415 0.16687939 0.038017254 0.00067343033
0.077922523 -0.012469728 -0.054482691 0.97070682 0.23906198 0.024033947 0.00055542332
0.07851892 -0.013723247 -0.055531967 0.9723627 0.23115331 0.032847472 0.00033989293
0.077485107 -0.010346101 -0.05534878 0.95744032 0.28593811 0.039337017 0.00018708057
0.078104787 -0.011513544 -0.055761222 0.96078521 0.27533454 0.032902464 1.1232415e-05
0.076757692 -0.0077417134 -0.055537809 0.9418661 0.33327812 0.042589009 0.00045093926
0.074824892 -0.0036231526 -0.054789498 0.91346985 0.40559176 0.032682739 0.00064100447
0.075725228 -0.0050890096 -0.05555908 0.91890419 0.39136121 0.049513355 0.00047391964
0.073987007 -0.001569338 -0.055484295 0.88799357 0.45743093 0.047163397 0.00019384822
0.071553402 0.0024858946 -0.055306111 0.8439877 0.53201199 0.06817621 0.0005724614
0.072844036 0.00060983055 -0.055825621 0.86220819 0.50409311 0.049871612 0.00024391226
0.068956606 0.0059644086 -0.054230601 0.78498495 0.61618 0.064194627 0.00021082017
0.070178002 0.0045613502 -0.055516995 0.8217926 0.56656945 0.060465556 0.00030785595
0.068345591 0.0068825176 -0.054857377 0.80345333 0.59238601 0.059511036 0.00037283223
0.06917794 0.0060399966 -0.055968098 0.79571271 0.60285413 0.058380399 0.0002646358
0.064879104 0.010804305 -0.055424619 0.71173257 0.70035595 0.054207187 0.00027544008
0.066288203 0.0094753569 -0.055680729 0.72631204 0.68531454 0.0530558 0.00051306572
0.061629891 0.01380051 -0.055500276 0.65365058 0.75525111 0.048340093 0.00043598449
0.0633635 0.012249581 -0.055493098 0.68057364 0.73095638 0.050222795 0.00019417553
0.056623943 0.017607702 -0.055269908 0.56151366 0.82600492 0.049176 0.0001146274
0.058527727 0.016300619 -0.05552135 0.58946133 0.8063643 0.048082717 0.00036598588
0.060145762 0.015174851 -0.056009591 0.62184227 0.78171885 0.047200151 0.0005719731
0.050879024 0.020847779 -0.055040289 0.41710225 0.90847725 0.026359038 0.00062280725
0.052544113 0.020056978 -0.055571433 0.46607643 0.88342351 0.048328936 0.00021755393
0.055102438 0.018612945 -0.055585254 0.51817799 0.85397887 0.04702783 0.00028401118
0.043690816 0.023611279 -0.055590246 0.29802293 0.95301038 0.054347254 0.00028136201
0.046585973 0.022709487 -0.055471342 0.35758635 0.93259448 0.048985433 0.00046141064
0.049262978 0.021639027 -0.055653214 0.40787303 0.91231024 0.03646436 0.00015547538
0.016953152 0.024145959 -0.055209599 -0.16938733 0.98547417 0.012189315 0.00102889
0.019435195 0.024787726 -0.056287058 -0.1490815 0.98841912 0.028327391 0.00086873421
0.023586359 0.02530599 -0.054632254 -0.10244729 0.99459773 0.016729295 0.0011799501
0.025285084 0.025526801 -0.055434644 -0.09226156 0.99434823 0.052529916 0.00018265084
0.028476214 0.025714034 -0.055491429 -0.041204378 0.99718177 0.062696055 0.00035428096
0.031633843 0.025760898 -0.055595458 0.051627725 0.99749649 0.048325405 0.00086615299
0.034222431 0.025603974 -0.055765722 0.10187497 0.99375784 0.045463633 0.00023900915
0.037453681 0.025137702 -0.055626094 0.1694833 0.98487794 0.03592851 0.00022574155
0.040776942 0.024487363 -0.055476692 0.23433998 0.9707672 0.051921804 0.0005310229
0.042097792 0.024243688 -0.056638882 0.23627917 0.97071385 0.043437306 0.00061894808
0.017559603 -0.072145879 -0.052585982 -0.28589559 -0.95807868 -0.018679235 0.0017497507
0.01949526 -0.07265836 -0.052521586 -0.22148483 -0.97502321 -0.016560892 0.0018479346
0.022378011 -0.073110849 -0.05256141 -0.1783928 -0.98382705 -0.016133387 0.0013728584
0.025476314 -0.0735434 -0.052510146 -0.11107098 -0.99360377 -0.02036651 0.0016862454
0.028554592 -0.073703364 -0.052474033 -0.028455326 -0.9995563 -0.0088020554 0.0016109346
0.031568043 -0.073759645 -0.052472711 0.019860916 -0.9997707 -0.0080102812 0.0011736195
0.034551024 -0.073686108 -0.052476499 0.079261787 -0.99680889 -0.009468806 0.0010025171
0.037472103 -0.073290095 -0.052572638 0.16347036 -0.98648918 -0.010792952 0.0010082457
0.040564429 -0.072854415 -0.052469116 0.21865563 -0.97576046 -0.0090147024 0.0010055114
0.042875458 -0.07226491 -0.052470095 0.28045073 -0.95981497 -0.010134305 0.00091676554
0.010459177 -0.069633268 -0.052432396 -0.40110373 -0.91591352 -0.01477328 0.0015405858
0.013592402 -0.070870325 -0.052572459 -0.32227793 -0.94648695 -0.017300878 0.0019468165
0.016101234 -0.071676701 -0.052699342 -0.27990538 -0.95989418 -0.016003825 0.0017968731
0.044373836 -0.071757346 -0.052613258 0.27907816 -0.96018773 -0.012447155 0.00092058373
0.046515632 -0.071048275 -0.052436143 0.33241063 -0.94300425 -0.015688818 0.00097422476
0.049533926 -0.06988503 -0.052477628 0.39336058 -0.91933054 -0.0099472906 0.0011612116
0.051181436 -0.069135651 -0.052332349 0.45631897 -0.88977319 -0.008762327 0.0013668657
0.0043416666 -0.066433996 -0.052880522 -0.51869923 -0.85494924 -0.0035840718 0.001666712
0.0074930172 -0.068235219 -0.052775338 -0.47370636 -0.88060856 -0.011435667 0.0018597676
0.0090790857 -0.068915725 -0.05322513 -0.38645026 -0.92222637 0.012442855 0.0020453015
0.052661691 -0.068386555 -0.052497193 0.45295244 -0.89150453 -0.0073324996 0.0012254079
0.055451702 -0.066871792 -0.052514229 0.51704568 -0.85595012 0.0036390296 0.0012740616
0.001021555 -0.064198606 -0.051023103 -0.56000644 -0.8283487 -0.015208419 0.00082028739
0.0033008622 -0.065788746 -0.05258733 -0.52019078 -0.85402131 -0.0070084962 0.0012881914
0.056862686 -0.065817453 -0.052542582 0.56811017 -0.82294166 0.0042213895 0.00065997872
0.058285087 -0.064959168 -0.052564729 0.57423806 -0.81868535 -0.002237438 0.0010075512
0.060522262 -0.063399091 -0.052379161 0.61041665 -0.79201353 -0.010303044 0.00096602383
0.062198635 -0.06205805 -0.052518617 0.65030885 -0.75960273 -0.010105372 0.00093542022
0.063782282 -0.060639996 -0.052495282 0.67125803 -0.74119121 -0.006941318 0.00078529492
0.065198191 -0.059229285 -0.052492917 0.72130167 -0.69258398 -0.0071617602 0.00071984547
0.066556953 -0.057836745 -0.052455679 0.73942715 -0.67319715 -0.0072925929 0.00075208704
0.068087749 -0.056005314 -0.052566443 0.76486039 -0.64410299 -0.010950543 0.0009378902
0.069375284 -0.054373577 -0.052634809 0.79331398 -0.60868973 -0.012237171 0.0010434279
0.070724413 -0.052505568 -0.052479085 0.82902163 -0.55909729 -0.011548978 0.0013255789
0.071877889 -0.050716143 -0.052725002 0.83525872 -0.54978251 -0.0090548899 0.001536498
0.072807737 -0.049253862 -0.052435081 0.86215848 -0.50655574 -0.0091754673 0.0012769103
0.074277371 -0.04651076 -0.052497998 0.89495242 -0.44612452 -0.005751479 0.00096873217
0.075139143 -0.045296937 -0.052075423 0.89172667 -0.45251027 -0.007623564 0.0012230984
0.074917905 -0.044853747 -0.053069551 0.92573267 -0.37809893 -0.0077679656 0.0014663781
0.075709142 -0.043418493 -0.05251972 0.92367226 -0.38307917 -0.0089378841 0.00099605031
0.076786004 -0.040500205 -0.052501474 0.94880545 -0.31569901 -0.010118326 0.00084593036
0.07763616 -0.037817433 -0.052468535 0.96396792 -0.26595792 -0.0056816363 0.0011759358
0.078072615 -0.036374409 -0.053031672 0.96295244 -0.26966342 0.0020684649 0.0011623007
0.078432143 -0.034493253 -0.052533746 0.97963989 -0.20075195 -0.0020769692 0.00092619954
0.078994296 -0.031459305 -0.052493166 0.98803782 -0.15413806 -0.0047571822 0.00085423188
0.079313017 -0.028509175 -0.052537099 0.99570501 -0.092581697 0.00039794968 0.00061557355
0.0795165 -0.0255618 -0.052513033 0.99946386 -0.032515138 -0.0038500195 0.00072650315
0.079603881 -0.022500319 -0.052435726 0.9983924 0.054086071 -0.016950281 0.0012470669
0.079270989 -0.019593408 -0.052505713 0.99346244 0.11353767 -0.0118946 0.00063695642
0.078878246 -0.016548391 -0.052482843 0.98483133 0.17346972 -0.0039309948 0.001099896
0.077899188 -0.012442471 -0.05245474 0.97343183 0.22890528 -0.0057339836 0.00089025137
0.078360051 -0.013709375 -0.052546907 0.97202086 0.23487183 -0.0032475111 0.00080567366
0.077466331 -0.010447502 -0.052440215 0.96059525 0.27773222 -0.011030504 0.0005520194
0.078063585 -0.011540238 -0.05212028 0.95642859 0.29175991 -0.010977296 0.00044055792
0.07648623 -0.0075089298 -0.052413452 0.94173777 0.33613443 -0.01198177 0.0010000237
0.07470344 -0.0034222524 -0.053153135 0.91776359 0.39711502 0.0031007365 0.0010965352
0.075412489 -0.0048267413 -0.052619055 0.91574556 0.4013648 -0.017788591 0.00092001137
0.073910356 -0.0015351711 -0.052441757 0.89098698 0.45353064 -0.021262879 0.00097580341
0.071370669 0.0023934995 -0.052807443 0.84307402 0.53674901 0.033565152 0.00092477142
0.07240092 0.0010417211 -0.052371945 0.85571897 0.51723158 -0.014711701 0.0011611142
0.068878777 0.0059378291 -0.05273968 0.79331309 0.60871452 -0.011003731 0.0018775585
0.070410676 0.0040954449 -0.052575856 0.8306821 0.55655211 0.014730257 0.0010070303
0.067593776 0.0076027638 -0.05249086 0.79352486 0.60817856 -0.020910159 0.0013696426
0.064895183 0.01064576 -0.052489862 0.72404212 0.68950695 -0.018527219 0.0017177151
0.066248976 0.0092525473 -0.052490432 0.72139835 0.69239533 -0.013161159 0.0017384688
0.061541464 0.013772688 -0.05248864 0.66175574 0.74955791 -0.015569615 0.0014881123
0.063236862 0.012209016 -0.052489251 0.6920085 0.72151977 -0.023099063 0.00097645982
0.05656144 0.017501054 -0.052486662 0.52945489 0.84812683 -0.01893286 0.0015804904
0.058655221 0.016031321 -0.052487563 0.57685483 0.81672055 -0.014355731 0.0018601464
0.050726939 0.020803861 -0.052483916 0.41467825 0.90991527 -0.0098088086 0.0010276871
0.052659564 0.019813597 -0.052528661 0.45950994 0.88812107 -0.0095704626 0.0011617073
0.055042945 0.018421061 -0.052419066 0.53106052 0.84722918 -0.013320024 0.0014312628
0.043604765 0.023587521 -0.052480623 0.29873157 0.95399815 -0.02543759 0.00091949018
0.046701055 0.022582022 -0.052482098 0.36408409 0.93095267 -0.027746573 0.00127019
0.049302604 0.021456826 -0.052483242 0.42235097 0.90628821 -0.016168507 0.0009092791
0.022991786 0.025151486 -0.052469481 -0.10115176 0.99475348 -0.015293332 0.00069722731
0.026318694 0.025464013 -0.05274006 -0.045128379 0.99896926 0.0048866165 0.002222118
0.02867637 0.02560908 -0.052281115 -0.038874693 0.99875414 -0.031288911 0.00094517914
0.031724386 0.025566285 -0.052686401 0.0071203555 0.99975276 -0.02106862 0.001537353
0.034523088 0.025437072 -0.052158635 0.10153249 0.99447262 -0.026746206 0.00076487847
0.03748082 0.025077293 -0.052543007 0.13768893 0.99027604 -0.019879567 0.001337211
0.04076061 0.024415748 -0.052478898 0.2260288 0.97396195 -0.017580224 0.0010133439
0.017007384 -0.07230261 -0.049449176 -0.26466289 -0.96329075 -0.044993736 0.00048853306
0.019599434 -0.072889313 -0.049500681 -0.20899454 -0.97672468 -0.048272278 0.00042327261
0.022583883 -0.073463917 -0.049528822 -0.16413388 -0.98510611 -0.051245425 0.00036308134
0.025634866 -0.073890343 -0.049370691 -0.08392065 -0.99465752 -0.060114942 0.0007772519
0.028507296 -0.074057564 -0.049595013 -0.031762883 -0.99897015 -0.032400116 0.0011461233
0.031425949 -0.074044988 -0.04937502 0.010865803 -0.99843895 -0.054787535 0.00038970739
0.034471601 -0.073880114 -0.049547464 0.073793583 -0.99652112 -0.038732264 0.00063457113
0.037533849 -0.073555827 -0.049482431 0.16342889 -0.98571569 -0.040688857 0.0006361265
0.040520035 -0.072966434 -0.049492627 0.21009903 -0.97702175 -0.035873517 0.00042117221
0.043193087 -0.07228867 -0.049516588 0.25947741 -0.96510983 -0.035135727 0.00013559454
0.0088161789 -0.069055349 -0.05074469 -0.46544221 -0.88287246 -0.06244836 0.00061120896
0.010517375 -0.070024416 -0.049271517 -0.39200869 -0.9186691 -0.048747025 0.00061701296
0.013606537 -0.071226448 -0.049425937 -0.33484629 -0.9409377 -0.050142899 0.00053214643
0.015560677 -0.071833342 -0.0496618 -0.28327113 -0.95715696 -0.060067546 0.00049781433
0.044658452 -0.071943283 -0.049410142 0.28489387 -0.95760745 -0.04270187 0.00040954078
0.046434745 -0.071322076 -0.049431741 0.33609271 -0.94091815 -0.041409645 0.00037430279
0.04947244 -0.070147246 -0.049492359 0.38508847 -0.92184061 -0.043781728 0.00029361772
0.051533595 -0.069223166 -0.04924304 0.44050872 -0.89657199 -0.045942042 0.00022053366
0.0028538085 -0.06612464 -0.048373681 -0.51136643 -0.85863972 -0.03524464 0.00048664384
0.0046038246 -0.066902116 -0.04963579 -0.50616312 -0.86061883 -0.055983335 0.00041350635
0.0073082028 -0.06847398 -0.049480621 -0.4607949 -0.88562089 -0.057825252 0.00061056437
0.053037167 -0.068446964 -0.049577203 0.46625924 -0.8834312 -0.046385176 0.00035691855
0.05509593 -0.067283563 -0.049235333 0.51574528 -0.85594255 -0.037003323 0.00028216347
0.057164699 -0.066115886 -0.048840649 0.55173582 -0.83300692 -0.041073922 0.00054000365
-0.00054305315 -0.063331373 -0.048840456 -0.55733371 -0.82976782 -0.02940366 0.00051148346
0.0015653388 -0.064802498 -0.049633287 -0.5572719 -0.82980835 -0.029431265 0.00046473052
0.058652028 -0.064971916 -0.049515139 0.5739435 -0.8181057 -0.035942845 0.00023823195
0.060807709 -0.063366652 -0.049863625 0.61514819 -0.78773427 -0.032671303 0.00053763366
-0.0014975215 -0.062576883 -0.049486112 -0.55727041 -0.82980937 -0.029431278 0.00046658993
0.061944176 -0.06245397 -0.049523443 0.64694887 -0.76202124 -0.027941199 0.00034016359
0.063891418 -0.060780585 -0.049468488 0.68674242 -0.7261883 -0.032176767 0.00033237156
0.065426201 -0.059218746 -0.049576577 0.71972692 -0.69346356 -0.033188902 0.00015766011
0.06671533 -0.057860494 -0.049502339 0.7398681 -0.6717627 -0.036471002 0.00014217227
0.068196766 -0.056176703 -0.049511138 0.75818378 -0.65107781 -0.035425209 0.00014627971
0.069415092 -0.054687679 -0.049407095 0.78882301 -0.61313796 -0.042662259 0.00025029891
0.07096149 -0.052569579 -0.049503725 0.82146221 -0.56856036 -0.044033796 0.00039080574
0.072133236 -0.051249858 -0.049296085 0.8378706 -0.54393673 -0.045888111 0.000543089
0.071967319 -0.050840139 -0.049920145 0.83984309 -0.54153013 -0.037532862 0.00032595961
0.072902203 -0.049474105 -0.049456436 0.86436427 -0.50114727 -0.041542605 0.00025541856
0.074357748 -0.046789896 -0.049522396 0.88854212 -0.45668182 -0.043983597 0.0003413088
0.075152248 -0.045391764 -0.048991151 0.90052259 -0.43269727 -0.042804908 0.00035819836
0.075869426 -0.04352073 -0.04949832 0.92334557 -0.38231009 -0.035664152 0.00034228884
0.077032655 -0.040508155 -0.049450252 0.94582123 -0.32223466 -0.039838061 0.00040629518
0.077732861 -0.038110938 -0.049630661 0.9600594 -0.27677205 -0.041026581 0.00025034315
0.078150861 -0.036606763 -0.049290389 0.96885002 -0.24478498 -0.037548006 0.00020128324
0.078632228 -0.034510288 -0.049479123 0.97938979 -0.19856291 -0.036991514 0.00033639473
0.079159185 -0.031470064 -0.049549896 0.98832339 -0.14899328 -0.031902377 0.00036082856
0.079443157 -0.028534949 -0.04946081 0.99583334 -0.086846173 -0.027818203 0.00025586926
0.079616278 -0.02549048 -0.049416821 0.99851376 -0.045207527 -0.03044028 0.00029580679
0.079751953 -0.022573749 -0.049533177 0.99896652 0.036887411 -0.026554996 0.000971701
0.079506025 -0.019548073 -0.049456287 0.99402791 0.10298331 -0.036094893 0.0008946241
0.079082064 -0.016562114 -0.04950121 0.98400229 0.17528087 -0.031877507 0.00037167899
0.07794489 -0.012227247 -0.050282992 0.97037393 0.24054079 -0.02268365 2.6317593e-05
0.078462839 -0.013665292 -0.049445111 0.97515637 0.21990521 -0.026679685 0.00025311569
0.077586792 -0.010324364 -0.049570188 0.95832032 0.28376529 -0.033158597 0.00017447374
0.078160241 -0.011456337 -0.049403489 0.96416986 0.26360208 -0.029840898 0.00011663006
0.076735564 -0.0075676553 -0.049440738 0.94197345 0.33313736 -0.04129811 0.00032625897
0.074891716 -0.0033732634 -0.049857583 0.91311687 0.40581155 -0.039174959 0.00032098489
0.075706691 -0.0048946259 -0.049303323 0.92109025 0.38750046 -0.037896909 0.00033979371
0.074142896 -0.0015588021 -0.049278885 0.89015001 0.45433599 -0.034810305 0.00033848803
0.075059928 -0.0028215409 -0.04808509 0.89511782 0.44495976 -0.027839566 0.00031025623
0.071736768 0.0024677454 -0.04952012 0.83323073 0.55046624 -0.052091628 0.00044782789
0.072848141 0.00096058124 -0.04958782 0.86091995 0.50720942 -0.039439861 0.00041671994
0.070721492 0.0042351936 -0.049775921 0.82634455 0.5610081 -0.049239915 0.00054429087
0.068192288 0.0075065633 -0.05013597 0.80216098 0.59623635 -0.032248065 0.0004272931
0.069191508 0.0060446286 -0.04951125 0.79514802 0.60399854 -0.054087095 0.00039829113
0.064953007 0.010926581 -0.049493603 0.69740754 0.71481121 -0.051649332 0.00034793053
0.06630592 0.0095336596 -0.049499664 0.73764712 0.67332917 -0.050045427 0.00033558763
0.06176246 0.013842254 -0.049478009 0.65336424 0.75561464 -0.046495259 0.00021637307
0.063528009 0.012302279 -0.049486864 0.68002796 0.73144662 -0.050476652 0.00020917213
0.056665789 0.017720658 -0.049631532 0.55648947 0.82922298 -0.052046251 0.00033681109
0.058506709 0.016474687 -0.049425013 0.5866704 0.80841058 -0.047856238 0.00040003817
0.060194891 0.01519009 -0.049470115 0.62098861 0.78235215 -0.04794088 0.00033207482
0.050935254 0.020864017 -0.050439231 0.45068613 0.89216298 -0.03045099 0.00040106371
0.052444149 0.020167923 -0.049353253 0.46763793 0.88288772 -0.042709511 0.00029925635
0.055172592 0.01866829 -0.04944244 0.50926554 0.85924709 -0.048405625 0.00030560966
0.043988779 0.023752972 -0.049747419 0.29255217 0.95445788 -0.058509957 0.00036246734
0.0463746 0.022988677 -0.049332619 0.35544467 0.93314224 -0.053894989 0.0004929009
0.049279492 0.021716282 -0.049406972 0.41469151 0.90901619 -0.041479941 0.00017854068
0.01961837 0.024835089 -0.050012439 -0.1524014 0.98793739 -0.027450105 0.00043345263
0.021171115 0.025236571 -0.04866273 -0.12438347 0.99171126 -0.032210857 0.00057999406
0.024878668 0.025641819 -0.049505405 -0.086080685 0.9951492 -0.047625914 0.00046059274
0.028283231 0.02588574 -0.049707234 -0.025883952 0.99884683 -0.040436551 0.00073214294
0.031299062 0.025915662 -0.049431793 0.017927606 0.99771422 -0.065152973 0.00065069267
0.034411497 0.025678912 -0.049571026 0.097028255 0.99411803 -0.048113517 0.00027900105
0.037468575 0.02524963 -0.049485747 0.17094046 0.98402673 -0.049706716 0.00032765634
0.040447414 0.024700213 -0.049283624 0.2213432 0.97375494 -0.052996129 0.00033705865
0.042696133 0.024169885 -0.048989747 0.27712861 0.95979571 -0.044631012 0.00037916083
0.01698591 -0.07230182 -0.046542488 -0.2642509 -0.96444333 -0.0045359223 0.00016847363
0.019528463 -0.072928615 -0.046477828 -0.21694702 -0.97617489 -0.0040655164 0.0001406877
0.022547413 -0.073497638 -0.046448611 -0.17371094 -0.98478353 -0.0050948728 0.00025903754
0.025552671 -0.073886707 -0.046390653 -0.089068525 -0.99599248 -0.0081053264 0.00033031136
0.028705601 -0.074105389 -0.046550132 -0.021672951 -0.99970788 -0.010698465 0.00047341461
0.031611953 -0.074079692 -0.046505064 0.036169443 -0.9992553 -0.013437931 0.00028027332
0.034513928 -0.0739384 -0.046572018 0.070125826 -0.99745661 -0.012756176 0.00022612343
0.037512109 -0.073608011 -0.046531945 0.14795932 -0.98890418 -0.0132883 0.00065459759
0.040528052 -0.07302615 -0.046486922 0.21858136 -0.97569925 -0.015272791 0.00013175543
0.043259013 -0.072347447 -0.046545845 0.25697604 -0.96630687 -0.014637463 0.00018129095
0.0086202957 -0.069177136 -0.046792872 -0.43396208 -0.90087157 -0.010356472 0.00021559668
0.010719164 -0.07010597 -0.046443239 -0.39825198 -0.91726851 -0.0037218758 0.00034556352
0.013486355 -0.071204156 -0.046479143 -0.3318527 -0.94332564 -0.0032516527 0.0002072044
0.015470402 -0.07183452 -0.046370901 -0.283887 -0.95885336 -0.0028871628 0.00021300185
0.044764198 -0.071961112 -0.046381772 0.27792397 -0.96051508 -0.013004024 0.00037076385
0.046494417 -0.071338087 -0.046527781 0.33834657 -0.94091767 -0.013982084 0.0002964767
0.049553849 -0.070141353 -0.046497289 0.38755953 -0.92182183 -0.0064861192 0.00025393389
0.051602159 -0.069243312 -0.046604089 0.44377157 -0.89611638 -0.0064982227 0.00036465743
0.0046032243 -0.06698177 -0.046605203 -0.51013941 -0.86005062 -0.0084121646 0.0001643539
0.0072030462 -0.068439603 -0.046296112 -0.4628557 -0.88638574 -0.009220019 0.00029614742
0.053280313 -0.068338156 -0.046396453 0.4905749 -0.87133884 -0.010246747 0.00025491751
0.05500992 -0.067352943 -0.046951573 0.52075785 -0.8536424 -0.01028897 0.00020843915
0.057160959 -0.066114396 -0.046762727 0.55898666 -0.82916236 -0.0048731882 0.00042586905
0.0026660645 -0.065939941 -0.046337191 -0.52534711 -0.85075438 0.015083496 0.00054891058
0.058725119 -0.064968131 -0.046472866 0.57263744 -0.81976926 -0.0080451034 0.00024739798
0.060696345 -0.063546389 -0.046541378 0.61815566 -0.7860328 -0.0060056439 0.0001848125
0.061871875 -0.062547177 -0.046536222 0.64672613 -0.76270753 -0.0047444087 0.00022128044
0.063876145 -0.060810152 -0.046571579 0.68463069 -0.72885549 -0.0071044946 0.0002471593
0.065482706 -0.05923903 -0.04659459 0.71373528 -0.70037222 -0.0077968366 0.00030428861
0.066811502 -0.057849433 -0.046539333 0.74315137 -0.66903216 -0.011049441 0.00014187055
0.068254836 -0.05617632 -0.046501968 0.7643128 -0.64479548 -0.0080378056 9.2955052e-05
0.069467016 -0.054689497 -0.046473067 0.78847444 -0.61503857 -0.0059685125 0.00019621487
0.071020968 -0.052564025 -0.046519909 0.82616854 -0.56340975 -0.0038745264 0.00025928137
0.072137967 -0.051232852 -0.046445508 0.83684796 -0.54743057 -0.0023185436 0.00043099184
0.071961954 -0.050913516 -0.045417748 0.83951068 -0.54331607 -0.0054367343 0.00016000924
0.072925143 -0.049484551 -0.046512932 0.8641057 -0.50324309 -0.0082314396 0.00012650242
0.07439518 -0.04687633 -0.046461184 0.89109021 -0.45373803 -0.0089437449 0.00029983619
0.075189292 -0.04540281 -0.046377685 0.89941019 -0.43703452 -0.0078830514 0.00032011291
0.075890779 -0.043520462 -0.046501707 0.9260301 -0.37740269 -0.0059481142 0.00021425309
0.077067025 -0.040508121 -0.046447139 0.94434845 -0.3287912 -0.010113172 0.00021398171
0.077787526 -0.038311247 -0.046451092 0.96307331 -0.26896831 -0.012073472 0.00029962813
0.078186274 -0.036785115 -0.046488643 0.9689495 -0.24698585 -0.011607719 0.00022468303
0.078681052 -0.034461912 -0.046472799 0.98178953 -0.18984629 -0.0069034956 0.00017508656
0.07914672 -0.031489715 -0.046576526 0.98977709 -0.14244144 -0.0072017894 0.00020537882
0.079503886 -0.028497873 -0.046479627 0.9960779 -0.08776994 -0.011189162 0.0001981426
0.07970237 -0.025424525 -0.046464045 0.99940282 -0.032448296 -0.011883074 0.00049608579
0.079807483 -0.02246082 -0.046532448 0.99950933 0.030650903 -0.0064519928 0.00094532879
0.079531968 -0.019581405 -0.04646251 0.99493229 0.10054336 -0.00077063154 0.00066068902
0.079068981 -0.016575841 -0.04651618 0.98355222 0.18062387 -0.00049888977 0.00021996757
0.078450747 -0.01352248 -0.046498429 0.97592449 0.2180021 -0.0068204459 0.00011110926
0.077643745 -0.010291702 -0.046449497 0.96126378 0.27535856 -0.012238594 0.00023840401
0.078129448 -0.01113636 -0.046663664 0.96442175 0.26417708 -0.010061398 0.00034096805
0.076751746 -0.0075245518 -0.046533614 0.94107229 0.33812878 -0.0072011901 0.00027695749
0.074880332 -0.0032458687 -0.046805326 0.90634471 0.42251599 -0.0044143153 0.00021499542
0.075605355 -0.0046185586 -0.046431143 0.9190309 0.3941792 -0.0022276589 0.00030149208
0.074170433 -0.0015729085 -0.046242367 0.89207178 0.45189062 -0.0016883239 0.00017603558
0.071715504 0.0025161034 -0.046520285 0.8463878 0.53235787 -0.014926197 0.00021733405
0.072808459 0.00095516228 -0.046658766 0.86356413 0.50418544 -0.0073504364 0.0003045786
0.070692152 0.0042408346 -0.046182171 0.83723909 0.54667115 -0.013470404 0.00024128526
0.067924775 0.0077139786 -0.046522047 0.77885795 0.62703139 -0.014557092 0.00012899037
0.06921649 0.0060531613 -0.04653151 0.80358565 0.59507054 -0.011884851 0.00020251634
0.065020785 0.010948571 -0.046497967 0.6957171 0.71823275 -0.010930118 0.00012031235
0.066356532 0.0095503582 -0.046509519 0.7341466 0.67885494 -0.013595439 0.00029136133
0.061837561 0.013865897 -0.046468154 0.64537239 0.76382846 -0.0077808993 0.00013171768
0.063600689 0.012325567 -0.046485081 0.68205678 0.73124105 -0.0092314845 0.00022346732
0.056660846 0.017794421 -0.04641515 0.56286824 0.82650352 -0.00844655 0.00015252817
0.058521602 0.016516857 -0.046434958 0.57726228 0.81652617 -0.0073000356 0.00018426869
0.06024402 0.015205326 -0.046452563 0.61383623 0.78940254 -0.0069834949 0.00030603242
0.052448794 0.020244947 -0.046367988 0.4615835 0.88699466 -0.01346063 0.00011129147
0.055230334 0.018685481 -0.04639947 0.51182562 0.85902572 -0.010463397 0.00023489996
0.044243872 0.023763811 -0.04652793 0.28792128 0.95758492 -0.011512023 0.00018644221
0.046442922 0.023007914 -0.046352863 0.3563956 0.93421078 -0.015244826 0.00045280709
0.049374048 0.021743262 -0.046331953 0.4215948 0.90665489 -0.015322425 8.2284678e-05
0.020814551 0.02514438 -0.045938905 -0.14314093 0.98959482 -0.014591536 0.00042049744
0.02111817 0.025222883 -0.047574803 -0.12233936 0.99217081 -0.025105448 0.00048037231
0.025515398 0.025807284 -0.046548843 -0.084307343 0.99629617 -0.016921364 0.00061562314
0.028051317 0.025916517 -0.046582747 -0.029585997 0.99924642 -0.025125071 0.00033396558
0.03131045 0.025949048 -0.04662627 0.017635304 0.99978185 -0.011194111 0.00037990711
0.034627032 0.025736248 -0.04666933 0.096472241 0.99508929 -0.022144379 0.00033812522
0.037336756 0.025376007 -0.046440851 0.17685837 0.98403484 -0.019915687 0.00030929936
0.040268648 0.024819769 -0.046478476 0.21755537 0.97596341 -0.012850248 0.00023871611
0.0428151 0.024172796 -0.046510331 0.27066439 0.96262044 -0.01013442 0.00021353009
0.016927835 -0.072286829 -0.043447547 -0.27043661 -0.9627372 0.0010861641 0.00021764936
0.019512802 -0.07290902 -0.043541886 -0.22134343 -0.97519577 0.00054521387 0.00025678717
0.022567252 -0.073497951 -0.043534812 -0.17554533 -0.98445636 -0.0054409611 0.00040036888
0.025466263 -0.073887154 -0.043346815 -0.099320777 -0.99503976 0.0055882763 0.00036685597
0.028558306 -0.074098974 -0.043507446 -0.032404784 -0.99944681 -0.0074820039 0.00064822077
0.031550579 -0.074051775 -0.043561138 0.029724052 -0.99955815 -0.00025940253 8.112847e-05
0.034522571 -0.073937654 -0.04359984 0.069665208 -0.9975692 -0.0015768597 0.00017927679
0.037475072 -0.073647052 -0.043468572 0.1223783 -0.99248123 -0.0021394673 0.00073879573
0.040439885 -0.073071986 -0.043541469 0.21760158 -0.97601151 -0.0071506137 0.00014298045
0.043343179 -0.072373636 -0.043492928 0.26079187 -0.96537876 -0.0056037265 0.00016586531
0.008571839 -0.069133453 -0.044032156 -0.4488962 -0.89358038 0.0025172825 0.00021083081
0.010614095 -0.070083603 -0.043621711 -0.39848173 -0.91716993 0.0034081494 0.00021726768
0.013432121 -0.071178108 -0.043610327 -0.33680257 -0.94157296 -0.0020942679 0.00026456753
0.015392762 -0.071824029 -0.043407351 -0.28043061 -0.95987409 -0.00061372289 0.00024228702
0.044798285 -0.071961731 -0.043636389 0.28073844 -0.9597742 -0.0044135423 0.00027738223
0.046532802 -0.071342632 -0.043594904 0.34763157 -0.93762887 -0.0020958616 0.00012428587
0.049517646 -0.070148811 -0.043508038 0.38904878 -0.92121142 -0.0032567647 0.00024338183
0.051519983 -0.069271371 -0.043577328 0.44291672 -0.89655685 -0.0032452601 0.00041586743
0.0029859329 -0.066113763 -0.04241218 -0.53990841 -0.84157228 0.015971191 0.00042275351
0.0047886344 -0.067094713 -0.043936618 -0.4975619 -0.86742395 0.0027965216 0.00031213649
0.0069813393 -0.068342596 -0.04322527 -0.4558506 -0.89004421 0.0046491027 0.00010168902
0.053325359 -0.068307236 -0.043880183 0.48667189 -0.87357771 -0.0035099303 0.00029582865
0.055144649 -0.067290269 -0.043395828 0.52227068 -0.85277051 -0.0039653992 0.00017850344
0.057176344 -0.066081792 -0.043286189 0.55299824 -0.83315355 -0.0069468007 0.00021685997
0.002640103 -0.065737888 -0.043798931 -0.53470916 -0.84503579 0.00079565315 0.0003796239
0.058739055 -0.064956702 -0.043489996 0.56914049 -0.82223016 -0.0040852395 0.00022763311
0.060727969 -0.063553698 -0.043546543 0.6194402 -0.78501225 -0.0070513575 0.00036896905
0.061937019 -0.062521495 -0.043463845 0.65150285 -0.75860137 -0.0082524577 0.00027098344
0.063810669 -0.06085993 -0.043513268 0.67132318 -0.74111354 -0.0087107802 0.00020481517
0.065474279 -0.059283603 -0.043421984 0.71188819 -0.70225394 -0.0073930467 0.00028276886
0.066795252 -0.057873588 -0.043507833 0.73896319 -0.6736955 -0.0082305595 0.00023037934
0.068244971 -0.056198072 -0.043548416 0.75994813 -0.64995503 -0.0061068479 0.00018041489
0.069431469 -0.054704126 -0.043495487 0.78979248 -0.61337131 -0.0018924846 0.00024770593
0.070979923 -0.05259322 -0.043535251 0.82374632 -0.56695765 -0.001038406 0.0003595337
0.072128877 -0.051226363 -0.043479651 0.83325267 -0.552885 -0.0028671904 0.00029952804
0.071904287 -0.050982412 -0.043989364 0.84755659 -0.53070503 -0.00010440072 0.00051121757
0.072914779 -0.049516991 -0.043554176 0.86075962 -0.50898588 -0.0051291506 0.00020085042
0.074386396 -0.046855409 -0.043488931 0.89194071 -0.45213467 -0.0039990782 0.00036058886
0.075189039 -0.045373298 -0.04350543 0.8995139 -0.43687615 -0.0037378676 0.00038526536
0.075937793 -0.043465793 -0.043466005 0.92421061 -0.38187698 -0.0021689553 0.00016084911
0.077070974 -0.040486198 -0.043459099 0.94380033 -0.33049801 -0.0034702651 0.00025299159
0.077782564 -0.038284 -0.043387551 0.96334356 -0.2682502 -0.0033410802 0.00033360859
0.078197099 -0.036782295 -0.043478627 0.96863735 -0.24844056 -0.004338847 0.00032092014
0.078676477 -0.034458715 -0.043431934 0.98154539 -0.19104098 -0.0084891226 0.00014948007
0.079174936 -0.031442657 -0.043530766 0.98890167 -0.14833729 -0.0083362348 0.00032872357
0.079505943 -0.028497154 -0.043521505 0.99608791 -0.088143654 -0.0062885643 0.000233952
0.079712145 -0.025503779 -0.043500215 0.99915081 -0.041192655 -0.00090569595 0.00041411971
0.07977768 -0.022524944 -0.04349044 0.99940723 0.03417933 0.004113195 0.0008687661
0.079495139 -0.019551182 -0.043488741 0.9938606 0.11053058 0.0048975744 0.00045420323
0.079042427 -0.016521409 -0.043536145 0.98426914 0.1766412 -0.0034788351 0.00013927287
0.077998407 -0.012017675 -0.044673465 0.96940458 0.24449632 -0.021824483 0.00098785607
0.07845965 -0.013526723 -0.043431271 0.97801131 0.2078585 -0.016992709 0.00031606169
0.077626832 -0.010200478 -0.043586817 0.95966649 0.28020018 -0.022978425 0.00064277218
0.078112334 -0.011523571 -0.043118797 0.96404499 0.26489913 -0.021112654 0.00058753905
0.076743245 -0.0075323754 -0.043556724 0.94028902 0.34017104 -0.01184592 0.00014037473
0.074895628 -0.0032849107 -0.044111758 0.91183686 0.41045666 -0.0088805705 0.00055769715
0.075680688 -0.0047747768 -0.043504853 0.92108256 0.38930261 -0.0071019437 0.00028277945
0.074099302 -0.0014375877 -0.043643344 0.88936734 0.45700681 -0.013059533 0.00035539721
0.075018868 -0.0026832786 -0.043074727 0.89559394 0.44476366 -0.0098386295 0.00024610414
0.071828097 0.0025123644 -0.04338282 0.84993351 0.52679795 -0.0098474938 0.00019393752
0.072908275 0.0007739354 -0.043495178 0.86364812 0.50397408 -0.01104924 0.00026158174
0.070915125 0.0039611063 -0.043404419 0.84105694 0.54089618 -0.0073786932 0.00019907753
0.067941442 0.0077579422 -0.043568652 0.77924657 0.62627727 -0.023482872 0.00029163712
0.069226272 0.0061314306 -0.043375134 0.81009042 0.58589298 -0.021975996 0.00028060094
0.065022916 0.010949301 -0.043502055 0.71369922 0.7004444 -0.0033227822 0.0003771788
0.066394486 0.0095628807 -0.043520059 0.725595 0.68795067 -0.015355832 0.00027700627
0.06182456 0.013861787 -0.043457583 0.64645976 0.76294726 -0.0011836555 0.00021551817
0.063579656 0.012318831 -0.043482423 0.68147379 0.73184192 0.00098178978 0.00010447319
0.056663092 0.017795093 -0.043379594 0.56456608 0.82535553 -0.0073135565 0.00024535917
0.058514018 0.016514538 -0.04340864 0.57603198 0.81738484 -0.0083197793 0.00018278671
0.060239583 0.015203953 -0.043434743 0.63677549 0.77101481 -0.0072879917 0.00018843028
0.052456778 0.020247245 -0.043309797 0.47057137 0.88235164 -0.0042745546 0.00024694757
0.055245738 0.018690057 -0.043356631 0.51367056 0.85797471 -0.0046945293 0.0003350031
0.044224307 0.023758391 -0.043680415 0.28506625 0.95850372 0.0028065222 0.00016666936
0.046413578 0.023072628 -0.043535449 0.35219032 0.93592787 0.0010323448 0.0005974457
0.049406283 0.021752458 -0.043513272 0.4070299 0.91339988 -0.0052348338 0.00051502686
0.02057166 0.025081575 -0.04348556 -0.15801468 0.98737508 0.011037688 0.00018221016
0.025477594 0.025797462 -0.043587092 -0.091741093 0.99569923 -0.012908713 0.00089574984
0.028276356 0.025975287 -0.043376263 -0.030466979 0.99952185 0.0052787168 0.0006169019
0.031243587 0.025931465 -0.043435361 0.039533671 0.99920148 -0.0057935663 0.0003375455
0.034747701 0.02576828 -0.043504789 0.1135866 0.99350858 -0.0062312824 0.00063837762
0.037350331 0.02537963 -0.043554295 0.17989032 0.98367172 -0.0054261046 0.00038077569
0.040277779 0.024822278 -0.043609098 0.22354494 0.97468495 -0.0041076317 0.0002445945
0.042812835 0.024172166 -0.043655138 0.27249488 0.96215236 0.0030712464 0.00012999035
0.016935805 -0.072251454 -0.040318407 -0.26022896 -0.9644627 0.045745593 0.00048714253
0.019678656 -0.072981432 -0.040653542 -0.21352823 -0.97599274 0.042941239 0.00051297795
0.022525411 -0.073512837 -0.04050117 -0.17721005 -0.98319548 0.043855041 0.00064451131
0.025558572 -0.073953494 -0.040359769 -0.10462231 -0.9938876 0.03523628 0.00060000335
0.028437775 -0.074110016 -0.040504873 -0.023657754 -0.9992013 0.032203797 0.00055437855
0.031509511 -0.074131794 -0.040625811 0.030017553 -0.999201 0.026387572 0.00027764932
0.034452494 -0.073907599 -0.040593874 0.078507677 -0.99629474 0.0351182 0.00049838773
0.037520722 -0.073630244 -0.040465791 0.14352696 -0.98874056 0.042332474 0.00054358516
0.040506266 -0.073079005 -0.040531632 0.21019694 -0.97676533 0.041794371 0.00049524475
0.043390803 -0.07237605 -0.040510811 0.25736356 -0.96559644 0.037248913 0.00039539079
0.0085121393 -0.06908153 -0.041311547 -0.44748402 -0.89372981 0.031703342 0.0003894587
0.010371608 -0.069969893 -0.04073 -0.39859542 -0.91689044 0.020823998 0.00029787867
0.013516385 -0.071210928 -0.040933244 -0.32961053 -0.94361478 0.030790532 0.00061914418
0.015455659 -0.071872987 -0.040399931 -0.28050703 -0.95897955 0.040915318 0.00053799595
0.044865198 -0.071922749 -0.040533036 0.28825924 -0.95683569 0.037042506 0.00046515674
0.046530746 -0.071345299 -0.04057518 0.34236997 -0.93910903 0.02927527 0.00043489941
0.049481232 -0.07019113 -0.040488891 0.3831647 -0.92332292 0.025683619 0.00024255221
0.051588457 -0.069267273 -0.040552866 0.43205121 -0.90155154 0.023164107 0.00039635407
0.0048273783 -0.067189842 -0.04063113 -0.50133657 -0.86443138 0.037683092 0.0006809443
0.0072004246 -0.068389535 -0.040192209 -0.45627078 -0.88907909 0.036817148 0.00037852034
0.053078994 -0.068541661 -0.04060122 0.46320635 -0.88600224 0.020974044 0.00036168811
0.055224162 -0.067290962 -0.040467039 0.51781863 -0.85536081 0.014893192 0.0003601991
0.057203311 -0.066124357 -0.040829673 0.5539273 -0.83238959 0.017092921 0.0003245594
-0.00065889454 -0.063577197 -0.041945595 -0.57132441 -0.81995291 0.035576172 0.00067899667
0.0012492795 -0.06478335 -0.040575352 -0.53688723 -0.84271491 0.039795477 0.00066989544
0.058766548 -0.064959198 -0.040512275 0.58169347 -0.81324011 0.01653143 0.00030840922
0.060773425 -0.063578188 -0.040474784 0.6154511 -0.78797209 0.017884351 0.00038515098
0.062030092 -0.062481523 -0.040422451 0.6449517 -0.76401645 0.017779984 0.00025709302
0.063792698 -0.060931798 -0.040461611 0.68168747 -0.73146075 0.0163492 0.00025124333
0.065425247 -0.059390232 -0.040493447 0.71203476 -0.70191908 0.017779164 0.0003418366
0.066887766 -0.057838202 -0.040468786 0.74525523 -0.66639733 0.022566577 0.00031277243
0.068303458 -0.05618535 -0.040475409 0.76314712 -0.64587373 0.021298546 0.00030002568
0.069475703 -0.054706719 -0.040498462 0.79604691 -0.6047889 0.023228882 0.00039104707
0.070982002 -0.052567009 -0.04048299 0.82336098 -0.5670957 0.021887971 0.00023590203
0.072132587 -0.051307023 -0.040614624 0.83454418 -0.55052173 0.021492422 0.00046381849
0.072976954 -0.049515862 -0.040543962 0.86009669 -0.50964522 0.022256827 0.00042397741
0.07442683 -0.046872914 -0.040546477 0.89125049 -0.45314628 0.018191535 0.00026949836
0.075177915 -0.045422584 -0.040534984 0.90225816 -0.43075049 0.019600583 0.00036348717
0.075919956 -0.04354848 -0.040522743 0.9252733 -0.37890646 0.017301204 0.00018909694
0.077113286 -0.040434938 -0.040486939 0.94363177 -0.33032236 0.021124391 0.00027509831
0.07780271 -0.038281053 -0.040445086 0.96089 -0.27610752 0.021329897 0.00029182751
0.07822445 -0.036754578 -0.040451016 0.96993047 -0.2425103 0.0205821 0.00033650905
0.078727856 -0.03444295 -0.04048359 0.98155904 -0.19050916 0.015751701 0.00022967455
0.07923574 -0.031450376 -0.040439419 0.98903602 -0.14697686 0.01433406 0.00030387772
0.079529114 -0.028510949 -0.040442731 0.99635118 -0.083737746 0.016503492 0.00020627242
0.079709411 -0.025473058 -0.040410016 0.99941546 -0.02336408 0.024955465 0.00045306259
0.079768203 -0.022528253 -0.040487688 0.99891782 0.036825776 0.028408354 0.00072840025
0.079525985 -0.019556904 -0.04051977 0.99413431 0.10511799 0.025442369 0.00043857828
0.079080984 -0.016554879 -0.040591847 0.98640484 0.16340281 0.01746618 0.00024758492
0.078500114 -0.013554904 -0.040516566 0.98060882 0.1952572 0.016761497 0.0003194559
0.077679485 -0.010013617 -0.040737126 0.95533663 0.29537734 0.0091747753 0.00085631263
0.078172185 -0.011504781 -0.040502008 0.96931958 0.24543552 0.013446894 0.00097578997
0.0767866 -0.0075472794 -0.040661726 0.93848908 0.34501421 0.014265154 0.0002641402
0.074917696 -0.0031673766 -0.040304244 0.90134442 0.43282253 0.015590899 0.00026323827
0.075694866 -0.0047086268 -0.040495995 0.92241448 0.38566476 0.020350436 0.00036311522
0.074240901 -0.0015323429 -0.040847812 0.89138591 0.45291677 0.017248483 0.00038763837
0.075183034 -0.0028559174 -0.040778041 0.90516996 0.42436427 0.024131209 0.00082459103
0.071808413 0.0024961503 -0.040098928 0.84718144 0.53104144 0.016690409 0.00032361742
0.072767355 0.001107694 -0.040324863 0.8623628 0.50608677 0.01436947 0.00034525935
0.070527963 0.0046216007 -0.040681522 0.8363179 0.54805923 0.014263532 0.0003312435
0.068150148 0.0076977434 -0.040032059 0.79379904 0.60793817 0.017152961 0.00048456329
0.069229603 0.0063198558 -0.040574986 0.79413879 0.607526 0.015994057 0.00059561216
0.065038636 0.010954444 -0.040506605 0.69911981 0.71482581 0.015985951 0.00025911257
0.0664526 0.0095820529 -0.040531736 0.72571588 0.68782854 0.015110997 0.00061892701
0.061850414 0.01386987 -0.040447928 0.65410215 0.75606662 0.022663737 0.00019618029
0.063549973 0.012309327 -0.040479116 0.67212743 0.74019694 0.018796638 9.6607371e-05
0.056706835 0.017808253 -0.040345106 0.55818498 0.82945365 0.020888146 0.00036735833
0.058596533 0.016539749 -0.040384799 0.58245426 0.81262118 0.01984654 0.00039986731
0.06030621 0.015224621 -0.040418893 0.63549262 0.77173889 0.023838671 0.00042352514
0.052513961 0.020223288 -0.040448904 0.4623979 0.88633639 0.024414532 0.00021220901
0.055272426 0.018697979 -0.040314183 0.50422662 0.86331272 0.021135295 0.00030770357
0.04431282 0.02364938 -0.040317155 0.29918715 0.95393074 0.022432446 0.00030143792
0.046582256 0.02300909 -0.040724471 0.3517338 0.93569762 0.027446592 0.00047102157
0.049410675 0.0217537 -0.040694218 0.42226988 0.90604311 0.027822547 0.00024415925
0.020205306 0.024986848 -0.040480759 -0.14399244 0.98913109 0.029763885 0.00018393176
0.02532197 0.025757022 -0.040620971 -0.11553092 0.99271256 0.034269519 0.000466411
0.028860888 0.026127953 -0.040449895 -0.018539863 0.99909949 0.038164489 0.001309067
0.031481795 0.025994068 -0.040518075 0.054103289 0.99802983 0.031769503 0.00086617068
0.034746457 0.025743263 -0.04045812 0.11075661 0.99342459 0.028993672 0.00057973043
0.037402667 0.025393674 -0.040406551 0.17134036 0.98459005 0.03499921 0.00057181303
0.040335305 0.024837898 -0.040480249 0.2211874 0.97504431 0.019097308 0.00053375482
0.042826638 0.024175959 -0.040540989 0.27069229 0.96247619 0.019113889 0.00038735164
0.017683327 -0.072160438 -0.037453309 -0.25104803 -0.96661454 0.051294766 0.00056515203
0.019615736 -0.072699264 -0.037433967 -0.22263096 -0.97366732 0.049065698 0.00059281942
0.022468954 -0.073206112 -0.037548494 -0.18051821 -0.98186255 0.057958223 0.00061409187
0.02554108 -0.073680848 -0.037395343 -0.10470896 -0.99367952 0.040460218 0.00081238459
0.028467417 -0.073883504 -0.037467897 -0.038103655 -0.99749941 0.059523765 0.0008009256
0.031496659 -0.07393375 -0.037559465 0.031240633 -0.99880332 0.03762817 0.00067324139
0.034521312 -0.07371556 -0.037482619 0.080437116 -0.99581796 0.043317944 0.00083047507
0.037549958 -0.073303074 -0.037490301 0.15836248 -0.98586941 0.054615241 0.00071949034
0.040637292 -0.07280986 -0.037491404 0.21020058 -0.97611403 0.054928083 0.00060710491
0.042906933 -0.072251379 -0.037676118 0.26809713 -0.96189493 0.053685009 0.00032256148
0.010770589 -0.069986634 -0.038116321 -0.40728265 -0.91127723 0.06078355 0.00033287227
0.013724715 -0.071160972 -0.03814131 -0.31705022 -0.946042 0.06696137 0.00062287261
0.016161293 -0.071755528 -0.037434332 -0.27480522 -0.95956695 0.060937133 0.00059059786
0.044308703 -0.071838021 -0.037310917 0.27512628 -0.95992655 0.053353358 0.00037546695
0.046519805 -0.071162038 -0.037439007 0.3291187 -0.94298249 0.049648192 0.00045674155
0.049548041 -0.069961086 -0.03749828 0.38445058 -0.92224306 0.040811107 0.0002371459
0.051426779 -0.069167539 -0.037725054 0.44180104 -0.89621806 0.040063575 0.00043300632
0.0054792399 -0.067308642 -0.037603326 -0.48689327 -0.87303966 0.027142253 0.0010117278
0.0072621405 -0.068136692 -0.037523627 -0.45177805 -0.89020056 0.058648251 0.00042581305
0.053042039 -0.0683605 -0.037795842 0.48297542 -0.87518913 0.027906928 0.00030783712
0.055453029 -0.067018226 -0.037511431 0.5119797 -0.85815704 0.037990946 0.00050779298
0.057082467 -0.066101238 -0.038253389 0.56148356 -0.82680833 0.03352898 0.00045200513
-0.00039036211 -0.063724943 -0.038820643 -0.56541854 -0.82322568 0.051003877 0.00075166783
0.0015766424 -0.064931698 -0.037853267 -0.56896853 -0.8202287 0.059158165 0.00060733536
0.003225201 -0.065899022 -0.037150599 -0.5216924 -0.85133624 0.055349849 0.00083304173
0.056754746 -0.065987468 -0.036387004 0.55061585 -0.83384448 0.039059758 0.00033403363
0.058523584 -0.064994179 -0.037497669 0.57456797 -0.81779748 0.032845955 0.00038759375
0.060646895 -0.063406855 -0.037316639 0.62141281 -0.78276515 0.033537429 0.00036619682
-0.0016101229 -0.062451657 -0.037670985 -0.56823176 -0.82282662 0.0083097573 0.0013669783
0.062212761 -0.062139869 -0.037559986 0.65065086 -0.75835389 0.039407045 0.00025242657
0.063989542 -0.060581233 -0.037548285 0.69116044 -0.72150153 0.041628025 0.00037968499
0.065398924 -0.059190664 -0.037492905 0.71719778 -0.69570893 0.04020603 0.00034536957
0.066615097 -0.057865005 -0.037502456 0.73577374 -0.67576772 0.044441853 0.00015082954
0.068141639 -0.056089949 -0.037424609 0.75886029 -0.64972603 0.044577025 0.00022841389
0.069361247 -0.054645088 -0.037771273 0.78869081 -0.61347759 0.040150315 0.00049300323
0.070820816 -0.052520409 -0.037435398 0.82239252 -0.5674181 0.041317999 0.00034268666
0.072129525 -0.051147107 -0.03875725 0.82929164 -0.55714166 0.04322736 0.00016621922
0.071896933 -0.050614141 -0.036685638 0.84675837 -0.53040493 0.040876556 0.00056148914
0.072909005 -0.049345747 -0.037520949 0.8587718 -0.51070797 0.041089989 0.00032081292
0.074324988 -0.046690296 -0.037506841 0.89001471 -0.45408395 0.04100728 0.00035593481
0.075116113 -0.045276269 -0.037510484 0.89824563 -0.4378911 0.037499487 0.0003742018
0.075811222 -0.043494593 -0.037586052 0.92245233 -0.38440025 0.036308244 0.00017783744
0.076939739 -0.040525287 -0.037528872 0.94518363 -0.32456174 0.035881188 0.00037028594
0.077746876 -0.037917513 -0.037362318 0.96271098 -0.2678524 0.037980642 0.00042906054
0.078147836 -0.036497492 -0.037979215 0.9666779 -0.25376046 0.033756163 0.00047005378
0.078557737 -0.034461606 -0.037445545 0.97889155 -0.20185174 0.032050658 0.0002634234
0.079101659 -0.031492468 -0.037495334 0.98795557 -0.15145659 0.031697754 0.00063973875
0.079418935 -0.028549379 -0.037492845 0.99544626 -0.089480221 0.032864559 0.00046500564
0.079565443 -0.025542296 -0.037405174 0.99877024 -0.028059214 0.040873367 0.00041619458
0.079561912 -0.02249795 -0.037524655 0.99893141 0.035526123 0.029561469 0.00078388158
0.07933408 -0.019472767 -0.037580695 0.99323457 0.10650863 0.046269502 0.00045948973
0.078952514 -0.016471878 -0.037518915 0.98563689 0.16429013 0.039099541 0.00028014273
0.077947348 -0.012256017 -0.036944401 0.97127283 0.23452418 0.0403428 0.00091205013
0.078384109 -0.013580021 -0.037648935 0.97963208 0.19729556 0.037353866 0.00051740563
0.077579916 -0.010281724 -0.037381124 0.95701873 0.28753802 0.037909597 0.0008987402
0.078086093 -0.011486523 -0.038418163 0.96915072 0.24404535 0.034478694 0.00063363364
0.076678 -0.0075676516 -0.03771928 0.93624848 0.34931967 0.037609801 0.00013748146
0.074794024 -0.0033866679 -0.037115946 0.91456681 0.4040221 0.018264443 0.00088271243
0.075609885 -0.0048770718 -0.037560184 0.92136753 0.38691643 0.037115097 0.00036291094
0.074012823 -0.0014573596 -0.037616584 0.8859691 0.46170884 0.043401331 0.00039082483
