# .PCD v0.7 - Point Cloud Data file format
VERSION 0.7
FIELDS x y z normal_x normal_y normal_z curvature
SIZE 4 4 4 4 4 4 4
TYPE F F F F F F F
COUNT 1 1 1 1 1 1 1
WIDTH 557
HEIGHT 1
VIEWPOINT 0 0 0 1 0 0 0
POINTS 557
DATA ascii
0.048372712 0.017849674 -0.01220336 0.40405104 -0.60366917 -0.68726003 0.0020425455
-0.042619091 0.020635456 -0.012245175 -0.38636628 -0.5843429 -0.7136277 0.0015812551
-0.040352676 0.019926943 -0.012816405 -0.35626522 -0.56649172 -0.74307626 0.00128667
-0.037439734 0.019457415 -0.013719562 -0.2926268 -0.51939297 -0.80287015 0.0013220189
-0.034708936 0.019070007 -0.014350106 -0.247161 -0.47934911 -0.84210205 0.0017572846
-0.031962808 0.018370921 -0.014738071 -0.20760252 -0.446547 -0.87034297 0.0020632818
0.044189245 0.018593313 -0.014661838 0.29463741 -0.48508549 -0.82333523 0.0016988856
0.046667606 0.019240161 -0.014066152 0.34213105 -0.50104249 -0.79492313 0.0010414711
0.04936653 0.019692035 -0.013062512 0.40960473 -0.55331969 -0.72530085 0.0015513127
0.051617082 0.020515205 -0.012361051 0.44205895 -0.56717575 -0.69490689 0.0015528392
-0.045885801 0.023351017 -0.012527144 -0.41221127 -0.54922521 -0.72693437 0.0011769624
-0.043386754 0.022635482 -0.013275913 -0.37418205 -0.51083463 -0.77397406 0.0018104226
-0.040663507 0.022326358 -0.014236252 -0.31575748 -0.46247172 -0.82850289 0.001159234
-0.038223207 0.021605726 -0.014733374 -0.26321596 -0.41603222 -0.87042201 0.002444471
-0.0070699891 0.023725096 -0.014904842 0.083937384 0.40435833 -0.91074085 0.0030847874
-0.0043187574 0.023570126 -0.014807135 0.06930057 0.41578895 -0.90681696 0.0027393487
-0.0012930456 0.023376562 -0.014728836 0.046008136 0.4419291 -0.89586937 0.0023214943
0.0014268423 0.02329264 -0.014695276 0.013213626 0.44018415 -0.89781034 0.0025102405
0.0043755937 0.023274988 -0.014697222 -0.0083808824 0.44102144 -0.89745742 0.0027254454
0.0072897556 0.023324862 -0.014752916 -0.044365916 0.44125861 -0.89628255 0.0025630037
0.010129992 0.023497554 -0.014815849 -0.069983654 0.43197295 -0.89916718 0.0026377377
0.012709524 0.023760065 -0.01492464 -0.082898758 0.43517324 -0.89652222 0.001878935
0.015031497 0.023979854 -0.014960523 -0.12786195 0.52516907 -0.8413375 0.0013028764
0.047582533 0.021202618 -0.01484396 0.3405163 -0.46330151 -0.81816888 0.0018301975
0.049796898 0.022107432 -0.014364651 0.37092596 -0.42990014 -0.82316446 0.0015155877
0.05246326 0.022525413 -0.013279104 0.41662899 -0.47639591 -0.77425271 0.0016341093
0.054702699 0.023275604 -0.012466814 0.48177844 -0.49940443 -0.7200588 0.0016646706
-0.05132262 0.026665339 -0.012101553 -0.46091574 -0.54577655 -0.69977468 0.0017083763
-0.049160741 0.026104841 -0.012673537 -0.420881 -0.51746207 -0.74504507 0.0012625868
-0.046507407 0.025532249 -0.013611317 -0.37201402 -0.46383134 -0.80403113 0.0016502512
-0.043846995 0.024969567 -0.014454767 -0.31837261 -0.40983859 -0.85479313 0.001751665
-0.041676432 0.024254957 -0.014893807 -0.27571157 -0.36386585 -0.88971049 0.0029335718
-0.01823087 0.026783075 -0.01493565 0.15322627 0.48470026 -0.86115468 0.0020684735
-0.01621587 0.026628902 -0.014820832 0.16486621 0.45930958 -0.87284243 0.0021514168
-0.013461716 0.026091121 -0.014605047 0.14712057 0.4474434 -0.88212812 0.0021435881
-0.010431184 0.025606923 -0.014385713 0.13026375 0.47395724 -0.87085927 0.0013272455
-0.0075373929 0.025521884 -0.014005129 0.1034877 0.49870571 -0.86057132 0.0012007564
-0.0044852537 0.025268063 -0.013845622 0.06632676 0.50579023 -0.86010289 0.0014402616
-0.0015228943 0.025578983 -0.013386652 0.046752103 0.54399294 -0.83778626 0.0024703492
0.0015709418 0.025571266 -0.013253007 0.025331857 0.54088521 -0.84071487 0.0018128672
0.0045159846 0.0255381 -0.013226967 -0.0080278078 0.54731596 -0.83688754 0.0018311264
0.0074389759 0.025570193 -0.013310631 -0.047277663 0.54249394 -0.83872831 0.0014377498
0.010515912 0.025171472 -0.013837796 -0.074393652 0.52324879 -0.84892654 0.0014298914
0.013474825 0.025298679 -0.01402836 -0.10385618 0.49392483 -0.86327982 0.0011189628
0.016788304 0.025416819 -0.014454014 -0.12589385 0.47489634 -0.87099034 0.0012380765
0.018825492 0.025827337 -0.014575024 -0.13930969 0.47430408 -0.86926889 0.001320726
0.022208424 0.026563209 -0.014765201 -0.16683616 0.49578887 -0.85226703 0.0019327675
0.024323814 0.026852436 -0.014907208 -0.17660531 0.49637517 -0.84995431 0.0017154999
0.050794207 0.024130173 -0.014899125 0.37561041 -0.38742343 -0.84191447 0.0017120624
0.052912146 0.025133716 -0.014442827 0.39069846 -0.35189626 -0.85060191 0.0016571437
0.055447876 0.02551852 -0.013266633 0.45780489 -0.40977466 -0.78898638 0.0016934229
0.057618037 0.026319258 -0.012398201 0.50055808 -0.43449771 -0.74876779 0.0022528628
-0.054355539 0.029686246 -0.012154743 -0.48410189 -0.48347548 -0.7293126 0.0020389527
-0.052138466 0.028910354 -0.0127574 -0.43822598 -0.46152771 -0.77133018 0.0018774541
-0.049512625 0.028500527 -0.013850359 -0.36751574 -0.38394719 -0.84706366 0.0015855674
-0.046943553 0.027832579 -0.014631582 -0.32421759 -0.35200769 -0.87805104 0.0018644076
-0.024516866 0.029740194 -0.014800138 0.19762573 0.4978213 -0.84446323 0.0026758304
-0.022332527 0.029229943 -0.014637475 0.19268377 0.4614161 -0.86600709 0.0024166172
-0.019413026 0.028726915 -0.01423118 0.18698241 0.50216365 -0.84431583 0.0015548524
-0.016480662 0.02842737 -0.013749589 0.19106381 0.53827906 -0.82082295 0.0016447622
-0.013582541 0.028126933 -0.013297284 0.17420432 0.56576598 -0.80595386 0.0019961228
-0.010609758 0.027780209 -0.012987722 0.14532959 0.59463412 -0.79075253 0.0015000458
-0.0076369373 0.027534753 -0.012633898 0.12459003 0.61720276 -0.77687711 0.001579171
-0.0051568947 0.027434377 -0.012400808 0.090500601 0.60493267 -0.79111695 0.0014618365
-0.0013040674 0.027086895 -0.012250962 0.076831393 0.62816387 -0.77427852 0.0025272793
0.0059536197 0.027229114 -0.012019044 -0.013271301 0.64491546 -0.7641387 0.00093541248
0.007968409 0.027153805 -0.012100473 -0.044061303 0.64992648 -0.75871873 0.0020586145
0.010713887 0.027273247 -0.01228244 -0.079673767 0.65343392 -0.75277889 0.0013186814
0.013700864 0.027443089 -0.012457235 -0.11198972 0.6378088 -0.76200932 0.0014466727
0.016975906 0.02770013 -0.012854522 -0.14626399 0.61040443 -0.77846855 0.0013759128
0.019815307 0.028013427 -0.013165429 -0.16842745 0.59359986 -0.78693801 0.001695844
0.022585396 0.028332219 -0.013575302 -0.18329926 0.56290364 -0.80594093 0.0012619195
0.025469899 0.028599063 -0.014084227 -0.18062937 0.53997821 -0.82206845 0.00096338673
0.028354576 0.029069612 -0.014495452 -0.1920523 0.5158813 -0.83485472 0.0015399585
0.031060928 0.029739324 -0.014738108 -0.19043793 0.50489712 -0.84190983 0.0015002395
0.053661093 0.027392045 -0.014898264 0.34386984 -0.21963541 -0.91296977 0.0035919545
0.055688005 0.028354986 -0.014317646 0.40972379 -0.26999411 -0.87133777 0.0013754484
0.058397878 0.028559586 -0.012993272 0.47814968 -0.32864243 -0.81447345 0.0024419874
0.060251515 0.029613899 -0.01223959 0.54270756 -0.34136897 -0.76742148 0.0018783208
-0.057154845 0.032687046 -0.012072361 -0.52129215 -0.40815398 -0.74944305 0.0018971275
-0.054967195 0.031796705 -0.012717851 -0.44974273 -0.38127831 -0.80768698 0.0025818483
-0.052477784 0.031441089 -0.013813329 -0.37842989 -0.31239912 -0.87131947 0.0027254927
-0.050055753 0.031100351 -0.014676216 -0.32570979 -0.26016346 -0.90897095 0.0029712827
-0.03114818 0.032560878 -0.014883815 0.2101761 0.42026967 -0.88272274 0.0029331374
-0.028389808 0.032134213 -0.01439247 0.22040972 0.47984472 -0.84921652 0.0020034346
-0.025465282 0.031507801 -0.013965719 0.22695765 0.53013879 -0.81697184 0.0015270716
-0.022573203 0.031256355 -0.013292862 0.22726427 0.5851503 -0.77842796 0.0018032932
-0.019633347 0.030576816 -0.013013173 0.21571372 0.60361058 -0.76754278 0.0015232989
-0.01689966 0.030383188 -0.01233397 0.20541543 0.6445632 -0.73643929 0.0011805393
-0.01482848 0.0301539 -0.012052181 0.19182023 0.61988795 -0.76088369 0.0013136921
0.023269609 0.030039299 -0.012295451 -0.20290332 0.66964209 -0.71442968 0.00094412256
0.025781147 0.03060317 -0.012549371 -0.21140271 0.65102619 -0.72902244 0.00082111213
0.028599359 0.030990593 -0.012995135 -0.21939431 0.61140043 -0.76029974 0.0010396763
0.031500395 0.031512715 -0.013424614 -0.21745582 0.59091216 -0.77687562 0.0014351676
0.034478813 0.031446807 -0.014411127 -0.21106982 0.53857422 -0.81571275 0.0011634178
0.037440132 0.032298081 -0.01467284 -0.21409792 0.50499868 -0.83614498 0.0022302731
0.039320331 0.032760482 -0.014890365 -0.2095803 0.50143391 -0.83942848 0.0013263663
0.056339774 0.031209571 -0.014729605 0.35692874 -0.13143416 -0.92483884 0.0028902302
0.058579341 0.031451274 -0.013744574 0.42423698 -0.16967918 -0.88951218 0.00203747
0.060913339 0.031739358 -0.012529957 0.50229365 -0.24698943 -0.82867205 0.0029058345
-0.057700057 0.034761418 -0.012416311 -0.47373009 -0.30350563 -0.82671887 0.0029366938
-0.055504777 0.034523614 -0.013420987 -0.40242675 -0.23550916 -0.88464016 0.0037460558
-0.052650977 0.034342691 -0.014537824 -0.33084872 -0.16144477 -0.92977136 0.0028599184
-0.050559092 0.033146448 -0.014921522 -0.26313666 -0.10736088 -0.95876628 0.0039836434
-0.039301045 0.0358213 -0.014961817 0.16578637 0.46266761 -0.87089241 0.0039948723
-0.03712894 0.035571184 -0.01474449 0.19901 0.45005819 -0.87054163 0.0022744751
-0.034308102 0.034840874 -0.014411352 0.22893912 0.48823172 -0.84215009 0.0017871402
-0.031481069 0.03440962 -0.013810837 0.25421411 0.53765786 -0.80392748 0.0017185435
-0.028801415 0.034065511 -0.013165189 0.27148852 0.57847953 -0.76919132 0.0018075928
-0.026079059 0.033627845 -0.01255383 0.26302597 0.62312007 -0.73657233 0.001394323
-0.023902675 0.033029325 -0.012182564 0.25079972 0.63817436 -0.72789627 0.0018483581
0.032376032 0.033160567 -0.012272018 -0.24263616 0.64663565 -0.72318053 0.0011224279
0.034692824 0.033708025 -0.012609144 -0.24897358 0.61079371 -0.75162703 0.0010155402
0.037787542 0.033785611 -0.013676031 -0.21507405 0.50718093 -0.83457214 0.0011286861
0.040379725 0.033930391 -0.01438339 -0.19045028 0.46911466 -0.86235732 0.0016438563
0.043275543 0.035067338 -0.014538497 -0.2175836 0.47273481 -0.85391992 0.0015578228
0.046304643 0.035655778 -0.014867772 -0.13538767 0.41555405 -0.899436 0.0022285134
0.056447428 0.034685548 -0.01484307 0.25381503 0.019414088 -0.96705794 0.0030126888
0.058538035 0.034427803 -0.014171947 0.34804103 -0.039490465 -0.93664718 0.0040729954
0.061476383 0.034477867 -0.012874853 0.44778842 -0.13644476 -0.88366753 0.0031514012
0.063196927 0.035428781 -0.012098395 0.54684323 -0.15780237 -0.82222921 0.0025670938
-0.060354546 0.038583037 -0.012071758 -0.49220148 -0.22070231 -0.84203809 0.0031035133
-0.058435965 0.037651431 -0.012768067 -0.42459211 -0.18591966 -0.88608998 0.0040951334
-0.055381764 0.037398327 -0.014020036 -0.32023028 -0.085938334 -0.9434337 0.0042364141
-0.052669566 0.037506126 -0.014749621 -0.20133631 0.048325889 -0.97832924 0.0049245437
-0.049845066 0.038658246 -0.014895091 -0.037124068 0.20651858 -0.97773814 0.0053612385
-0.04668067 0.03864963 -0.014872153 0.0686602 0.32081801 -0.94464886 0.0038204668
-0.043269139 0.038235426 -0.014603365 0.16127008 0.4280518 -0.88924885 0.0030646964
-0.040448289 0.037621338 -0.014359161 0.19697243 0.4816941 -0.85391611 0.0016865283
-0.037606597 0.037484996 -0.013646958 0.23201185 0.52400279 -0.81950688 0.0018092357
-0.034682952 0.037045252 -0.012984685 0.27643555 0.59441048 -0.75515532 0.0017591874
-0.032011297 0.036519971 -0.012366796 0.29119 0.64706826 -0.70463538 0.0015697281
0.03880576 0.036037549 -0.012224086 -0.28410089 0.57556534 -0.76681888 0.0014917564
0.041160487 0.036731377 -0.012575984 -0.2749314 0.58041793 -0.76650363 0.0010838443
0.043822564 0.036791544 -0.013567426 -0.20359913 0.47390312 -0.85671651 0.001126835
0.046488822 0.036971811 -0.01421103 -0.16447808 0.45781121 -0.87370235 0.0012439915
0.049511682 0.037547238 -0.01450951 -0.098910391 0.39897496 -0.91161156 0.0017537592
0.052648291 0.037884355 -0.014639323 -0.024862615 0.34169319 -0.93948263 0.0042816396
0.055622023 0.037550706 -0.014606145 0.12844315 0.21096081 -0.96901911 0.0032906432
0.058644827 0.037244827 -0.01409917 0.28259349 0.086443722 -0.95533681 0.0041703056
0.061598718 0.037402105 -0.013050669 0.39144611 -0.0054220613 -0.92018503 0.0037083663
0.063404456 0.03767024 -0.012224241 0.5014621 -0.053747982 -0.86350846 0.0028724032
-0.060535859 0.040644992 -0.012236713 -0.42102188 -0.066929124 -0.90457779 0.004322737
-0.058275037 0.040339056 -0.013127144 -0.33965942 -0.0211209 -0.94031137 0.0050992887
-0.05545922 0.040575907 -0.0138759 -0.20433505 0.1342335 -0.96965379 0.0058537996
-0.052468553 0.040525679 -0.014327458 -0.066149078 0.25822803 -0.9638167 0.0056255492
-0.04950567 0.040519323 -0.014339051 0.023106454 0.35419527 -0.93488598 0.005307307
-0.046426713 0.040458195 -0.014006653 0.1112923 0.42586598 -0.89791548 0.0024859563
-0.043526851 0.040421043 -0.013396538 0.20272918 0.5166018 -0.83187944 0.0026811445
-0.040578064 0.040072009 -0.012740962 0.24993955 0.58189148 -0.77390724 0.0021518155
-0.037928291 0.039376654 -0.01233104 0.28912526 0.63243812 -0.71862966 0.0016482836
0.044758312 0.039181355 -0.012144322 -0.29723391 0.58559626 -0.75414121 0.0019307083
0.047245014 0.039645158 -0.012681436 -0.24156766 0.55016553 -0.79935163 0.0016813744
0.049644809 0.040106509 -0.013111542 -0.14345589 0.45826846 -0.87716043 0.0016426725
0.05260022 0.040369485 -0.01352771 -0.085450396 0.41677237 -0.90498567 0.0022477249
0.055637646 0.040340677 -0.013756794 0.041765478 0.32642382 -0.94430035 0.0025277592
0.058556408 0.040385809 -0.01352918 0.1603397 0.25036857 -0.954781 0.0044217897
0.061692376 0.040285707 -0.012785286 0.32349941 0.12963234 -0.93730658 0.0034498803
0.06334804 0.040400393 -0.012195083 0.44378784 0.085562833 -0.89203769 0.0031792403
-0.060346603 0.043708771 -0.012229575 -0.28420174 0.12816945 -0.95015895 0.007102605
-0.058339078 0.04340633 -0.012795079 -0.19091357 0.2205916 -0.95649958 0.0049440474
-0.055392694 0.043487974 -0.013226976 -0.080758654 0.31862643 -0.94443381 0.0046754819
-0.052397851 0.043532465 -0.013196818 0.051733889 0.41708523 -0.90739381 0.0050991536
-0.049512666 0.04334905 -0.012942063 0.14000729 0.49082324 -0.85993642 0.0034510393
-0.046757661 0.042812929 -0.0126881 0.20944366 0.55894703 -0.80231649 0.0032454301
-0.044181686 0.042305231 -0.012293221 0.25461864 0.59354639 -0.76346046 0.0016208235
0.050668608 0.042274568 -0.012031131 -0.2756741 0.59305042 -0.75650179 0.0018945553
0.052939095 0.0426329 -0.012326838 -0.17162904 0.51488215 -0.83990467 0.0021060649
0.055758391 0.042932853 -0.012610854 -0.022105694 0.40378162 -0.91458827 0.0022535024
0.058777124 0.043239512 -0.012555152 0.080884799 0.33451936 -0.93891132 0.0031793402
0.061400734 0.042979665 -0.01233395 0.21065101 0.26950178 -0.93967807 0.0046680993
0.063214555 0.042411614 -0.012135286 0.32487115 0.21734473 -0.9204455 0.0042759762
-0.060171936 0.045420449 -0.012037888 -0.2453094 0.26785657 -0.93170607 0.0044205408
-0.058227248 0.045507342 -0.012238292 -0.13040869 0.34999719 -0.92762899 0.0060133743
-0.05572328 0.045818213 -0.012281304 -0.0019700837 0.44419119 -0.89592987 0.0039314209
-0.052978978 0.045321401 -0.01233587 0.11521553 0.49917585 -0.85880661 0.0034875507
-0.050758764 0.045224354 -0.012043159 0.1975164 0.58408803 -0.78729182 0.001956997
0.059971262 0.045073558 -0.0120442 0.013625859 0.41287303 -0.91068673 0.0063775769
-0.015446052 0.0059372592 -0.0091297338 -0.20956367 -0.75769246 -0.6180495 0.0012421557
-0.013251402 0.0056717307 -0.0094219102 -0.18662551 -0.75882596 -0.62398243 0.0010914683
-0.010412364 0.0053240866 -0.0097592827 -0.1443924 -0.75414109 -0.64064193 0.0012793081
-0.0074254279 0.0051301313 -0.010032165 -0.1143501 -0.74866539 -0.65301162 0.0013141767
-0.0044360785 0.0049023465 -0.010252134 -0.087585323 -0.74925351 -0.65646631 0.0014006696
-0.0014966988 0.0047874586 -0.010404497 -0.053694203 -0.73992354 -0.67054474 0.0012262685
0.0015577185 0.0047085914 -0.010502785 -0.033616751 -0.74925774 -0.66142482 0.0019180201
0.0045286263 0.0046324139 -0.010545387 -0.0072125462 -0.75115973 -0.66008115 0.001649024
0.0074882354 0.0046603191 -0.010522853 0.017021775 -0.7526446 -0.65820688 0.0019081733
0.01052808 0.0047096745 -0.010497655 0.042107455 -0.76138389 -0.64693242 0.0014529295
0.01347906 0.0048400396 -0.010377483 0.072845034 -0.76888561 -0.63522321 0.001617589
0.016485436 0.0050220503 -0.010233124 0.098888904 -0.77869648 -0.61955851 0.0013966077
0.019469922 0.0052491385 -0.0099974209 0.13254757 -0.78870773 -0.60030931 0.0013348478
0.022350622 0.0055568255 -0.0096602319 0.15835223 -0.79632878 -0.58376795 0.001212887
0.024860717 0.0057935896 -0.0093146674 0.19469678 -0.8034628 -0.56261963 0.0010648638
0.02708322 0.0059571057 -0.0090258531 0.24521199 -0.79238319 -0.55856961 0.0019339201
-0.024317501 0.0089196684 -0.0092184348 -0.29432794 -0.74471068 -0.59898001 0.0018432915
-0.0221877 0.0084910868 -0.0096167037 -0.27376932 -0.73792422 -0.61686152 0.0011442839
-0.019335708 0.0080015305 -0.010205504 -0.24140815 -0.73068279 -0.63861156 0.0013984374
-0.01659519 0.0075432207 -0.01053163 -0.1921431 -0.72156227 -0.66515321 0.0016354426
-0.013614913 0.0070939194 -0.010880075 -0.17660169 -0.71245664 -0.67912996 0.0013196686
-0.010560852 0.0067483275 -0.011268892 -0.13203937 -0.68778771 -0.71380234 0.0014315281
-0.0076669143 0.0065312008 -0.011493747 -0.10122488 -0.70466363 -0.70228392 0.0014617279
-0.0046628565 0.0063132718 -0.011710172 -0.081522733 -0.69996917 -0.7095049 0.0012263621
-0.0016628517 0.006149644 -0.011844548 -0.050886769 -0.69840175 -0.71389467 0.0016995199
0.001080421 0.0061077671 -0.011927385 -0.024979562 -0.67941982 -0.73332459 0.0027407373
0.0040234323 0.0060149049 -0.0118556 -0.0090308916 -0.70308459 -0.71104896 0.0016551216
0.0076558054 0.0060332436 -0.01194035 0.016304284 -0.69687927 -0.71700317 0.002571889
0.011117209 0.0060857534 -0.011890226 0.02258586 -0.70124924 -0.71255821 0.0019998078
0.013707872 0.006162765 -0.011827823 0.053408716 -0.71048158 -0.70168608 0.0016886421
0.016583085 0.0063122828 -0.011708681 0.079887234 -0.69215035 -0.71731859 0.0011270849
0.01960841 0.0065139942 -0.011487219 0.11480996 -0.704732 -0.70012248 0.0013014355
0.022592908 0.0067425952 -0.011142957 0.14381897 -0.76860696 -0.62334538 0.0016046542
0.025608847 0.0070564039 -0.010734231 0.18444578 -0.77482718 -0.60466737 0.001062411
0.028467635 0.0076604304 -0.010510109 0.20365657 -0.77255434 -0.60140157 0.0017551305
0.031391263 0.0081746755 -0.010097568 0.25424522 -0.77618611 -0.5769701 0.0013555894
0.033966828 0.008625526 -0.009498137 0.29007789 -0.78300995 -0.5502274 0.0011073713
0.036209706 0.0089639444 -0.0090106726 0.31017682 -0.77370548 -0.55242211 0.0019460365
-0.030977678 0.011714837 -0.0094049117 -0.31627986 -0.74305028 -0.58978248 0.00095682091
-0.02832198 0.011191262 -0.010057941 -0.29616925 -0.72447568 -0.62242967 0.0014444989
-0.025494736 0.010534463 -0.010550152 -0.26198936 -0.71175176 -0.6517446 0.0013255152
-0.022620618 0.0099187084 -0.011007699 -0.25127071 -0.71029359 -0.65753025 0.0014258538
-0.019717654 0.0094511537 -0.011581853 -0.21326247 -0.6853798 -0.69625688 0.0011980816
-0.01734045 0.0090681361 -0.01191736 -0.17609493 -0.66323149 -0.72740263 0.001640532
0.029705783 0.0090862801 -0.011784974 0.19912569 -0.71494061 -0.67023051 0.0026306701
0.031872582 0.0094229085 -0.011503418 0.22937156 -0.71541446 -0.65997791 0.0010241144
0.034668237 0.0099046091 -0.010839235 0.27416927 -0.76043761 -0.58869851 0.0013417496
0.037477657 0.010669245 -0.010468873 0.2980063 -0.7604863 -0.57693398 0.0015054311
0.040179875 0.01138286 -0.0098480852 0.35027128 -0.75157446 -0.55896848 0.001265166
0.042228751 0.011837672 -0.0092557305 0.37742239 -0.75690293 -0.53352618 0.0011374226
-0.036750644 0.014552644 -0.0096154092 -0.37702301 -0.7145251 -0.58932805 0.0010695495
-0.034271117 0.013829347 -0.010206564 -0.33316329 -0.70920008 -0.62131906 0.0014498862
-0.031616498 0.013156495 -0.010754924 -0.30250254 -0.71260387 -0.63299906 0.0013893745
-0.028800417 0.012608126 -0.011388448 -0.26706302 -0.68965095 -0.67309648 0.0017275724
-0.026469845 0.012192277 -0.011894899 -0.2501218 -0.65546131 -0.71260756 0.0025737351
0.038513381 0.012218424 -0.011822212 0.30442664 -0.67800713 -0.66905224 0.0017058426
0.040785957 0.012706383 -0.011161655 0.3261835 -0.71035081 -0.62370354 0.00091367151
0.043485019 0.013489231 -0.010529441 0.36294407 -0.7356081 -0.57197231 0.001265602
0.046064328 0.014321457 -0.0097961891 0.42292392 -0.71554458 -0.55599588 0.0013406189
0.048191458 0.0149269 -0.0090547753 0.43697521 -0.71726489 -0.54275584 0.00084704458
-0.042432457 0.017610284 -0.0094553772 -0.46096644 -0.6648078 -0.58782697 0.0016890032
-0.040226884 0.016953479 -0.010238334 -0.39913788 -0.67555767 -0.619928 0.0017106645
-0.037700839 0.016158316 -0.010834243 -0.36065882 -0.68579012 -0.6321528 0.0015025795
-0.035133526 0.015514741 -0.011537123 -0.31317711 -0.66520923 -0.67780286 0.0014100685
0.044647783 0.01519712 -0.011789372 0.36738479 -0.66279453 -0.65248132 0.0018984098
0.046804592 0.01582603 -0.011058402 0.39798015 -0.68874168 -0.60600895 0.0018251321
0.049354583 0.016740227 -0.010324722 0.43328217 -0.68328309 -0.58769959 0.0018940853
0.051642474 0.017567962 -0.0094766403 0.49043551 -0.66562325 -0.56251103 0.0014382739
-0.045894954 0.020481579 -0.0099600768 -0.46699208 -0.64381468 -0.60615259 0.0011537033
-0.043605175 0.019526523 -0.010575172 -0.42432991 -0.63503921 -0.64549935 0.0013318601
-0.041115396 0.018600572 -0.011344502 -0.38489532 -0.62977457 -0.67471439 0.00081893924
0.050362449 0.018482672 -0.011481787 0.44992235 -0.63494033 -0.62802917 0.0011216612
0.052606586 0.019357989 -0.010620176 0.46964043 -0.6327557 -0.61567682 0.0017482162
0.054918732 0.020305119 -0.0097854277 0.52621746 -0.62353975 -0.57818103 0.0015707701
-0.051298294 0.023844121 -0.0092887906 -0.50597221 -0.63820922 -0.58024216 0.0015298862
-0.049136531 0.023023065 -0.010088705 -0.47719315 -0.62038755 -0.62241942 0.0015083861
-0.046738286 0.022224832 -0.011073661 -0.43740049 -0.59309715 -0.67595607 0.0016472379
-0.044487905 0.021266229 -0.011735154 -0.41809434 -0.59216398 -0.68886793 0.002275584
0.053645391 0.02131258 -0.011745878 0.48543888 -0.58015013 -0.65404505 0.0013741702
0.055798337 0.022218667 -0.010859235 0.50767189 -0.53392249 -0.67616278 0.0015542591
0.057910781 0.023113331 -0.0098200664 0.56009787 -0.5734303 -0.59788632 0.0011946154
-0.054446176 0.02663029 -0.0094468398 -0.53399098 -0.60936928 -0.58610803 0.0010324025
-0.052288137 0.025719792 -0.010297189 -0.48766539 -0.59666884 -0.63731366 0.0017319026
-0.049875207 0.0248562 -0.011300961 -0.45309058 -0.57824534 -0.67848444 0.0017515285
0.056657795 0.024354024 -0.011801958 0.50889528 -0.48591474 -0.71057194 0.0008392437
0.058742765 0.025238609 -0.010881439 0.52470261 -0.47083658 -0.70922494 0.0010173041
0.06077959 0.026030222 -0.0097823795 0.58886755 -0.51885074 -0.61970061 0.0014496922
-0.057438999 0.029335648 -0.0094032381 -0.57152051 -0.5534783 -0.6058268 0.0014814396
-0.05529796 0.028560331 -0.010454511 -0.50827646 -0.52052277 -0.68608379 0.0018783335
-0.053076178 0.027854446 -0.011520391 -0.47447324 -0.50842422 -0.71859586 0.00098771055
-0.012758666 0.029647309 -0.011801795 0.17911159 0.65177715 -0.73695695 0.0012644659
-0.010377786 0.029291127 -0.011581574 0.15373299 0.66397148 -0.73178416 0.0013523392
-0.0077117034 0.029080499 -0.011186121 0.13219352 0.66909921 -0.73132145 0.0013225985
-0.0044871243 0.02874079 -0.010992262 0.10087708 0.66549104 -0.73955768 0.00151879
-0.0014450126 0.02854212 -0.010788923 0.084759563 0.70306987 -0.70605135 0.0020858063
0.0016254162 0.02835219 -0.010754928 0.03566267 0.69814253 -0.71507007 0.0021320391
0.0045710038 0.028261684 -0.010819915 -0.0062965746 0.71096337 -0.70320082 0.0018827398
0.0074248016 0.028186014 -0.01095183 -0.048012853 0.68838865 -0.72375119 0.0019383987
0.010694517 0.028714154 -0.010728228 -0.085161105 0.71182168 -0.69717824 0.0020665769
0.013382562 0.028811539 -0.010963577 -0.12423724 0.72375089 -0.67878544 0.0022484027
0.016643552 0.029172409 -0.011285041 -0.15174215 0.68430531 -0.71323252 0.0012560287
0.019157421 0.029455937 -0.011606093 -0.18980053 0.68664038 -0.70178396 0.00091007189
0.021217968 0.029806888 -0.01195717 -0.21506611 0.69080079 -0.69031948 0.0028449721
0.059619833 0.027508663 -0.011730987 0.54965502 -0.39414814 -0.73656404 0.0014799858
0.061586674 0.028405331 -0.010638073 0.57593638 -0.38595885 -0.72064763 0.0014469097
0.063486554 0.029295824 -0.0094957547 0.6396479 -0.4278757 -0.63857102 0.0021287743
-0.060262069 0.032491405 -0.0093081091 -0.60527515 -0.49794167 -0.6210444 0.002359027
-0.058312178 0.031603634 -0.010290562 -0.55661517 -0.46041411 -0.69151896 0.0020001906
-0.056278955 0.031117881 -0.011539351 -0.5000031 -0.42722934 -0.75330728 0.0017098641
-0.022265216 0.032803535 -0.01182833 0.25708443 0.6729337 -0.69359052 0.0022386461
-0.019408142 0.032267056 -0.011329946 0.23847577 0.68373185 -0.68966657 0.0020708691
-0.016424969 0.031661231 -0.010889889 0.2233071 0.69994968 -0.67838371 0.0011004381
-0.01377496 0.03093259 -0.010809185 0.19539088 0.69114268 -0.69580472 0.0014490319
-0.010731 0.030532161 -0.010368806 0.16935195 0.69546258 -0.69832063 0.0012549515
-0.0076370127 0.030319477 -0.0098680593 0.1404195 0.73340082 -0.66513568 0.0014413029
-0.0047129998 0.030201573 -0.0093572885 0.10937478 0.75950807 -0.64123684 0.0011118588
-0.0021445509 0.030049149 -0.0091285957 0.078421354 0.78043848 -0.62029493 0.0018877531
0.011217144 0.030024165 -0.0091089904 -0.09509401 0.77974373 -0.61883515 0.0008312639
0.013544933 0.03021574 -0.0093146777 -0.12712671 0.77704328 -0.61647594 0.0012232006
0.016391523 0.03044883 -0.0097530354 -0.16242342 0.77191919 -0.6146214 0.0012234679
0.019547943 0.030745871 -0.010280894 -0.20023267 0.75588334 -0.6233356 0.0015344436
0.022531886 0.031261392 -0.010670936 -0.22704026 0.75322497 -0.61733699 0.001100771
0.025443252 0.032040924 -0.010829048 -0.2369664 0.74957305 -0.61805105 0.00076627667
0.028298009 0.032474637 -0.011407403 -0.24524406 0.72595072 -0.64253473 0.0010849813
0.030482031 0.032724787 -0.011941642 -0.25678298 0.66474491 -0.70155311 0.0013367154
0.062239561 0.031165898 -0.011433702 0.56026292 -0.293015 -0.77475649 0.0014297779
0.064220607 0.031679753 -0.01008603 0.63540739 -0.34108189 -0.69276297 0.0017963728
-0.063039854 0.035620425 -0.0090459259 -0.61547559 -0.39281192 -0.68329251 0.00098364346
-0.060943443 0.034597527 -0.010044079 -0.58761907 -0.39930239 -0.70374811 0.0018029393
-0.058893651 0.034026235 -0.011308089 -0.5141834 -0.34927124 -0.7833423 0.0016918627
-0.028046396 0.035623603 -0.011433392 0.30835027 0.66521263 -0.68000895 0.0022888482
-0.025366111 0.034790382 -0.011086865 0.29971585 0.7108106 -0.63633221 0.0019126108
-0.022801094 0.034178577 -0.01061739 0.26899683 0.72519529 -0.63382369 0.0021742852
-0.019725803 0.033429943 -0.010178543 0.24994631 0.71431798 -0.65366399 0.0017073051
-0.017443819 0.0332027 -0.0093795313 0.24536169 0.76843214 -0.59102428 0.0015340897
0.025963606 0.033300817 -0.0095124478 -0.24115308 0.77105206 -0.589342 0.0007114507
0.028600741 0.033663496 -0.010119505 -0.25745445 0.75919241 -0.59778279 0.0012085508
0.031456839 0.03428302 -0.010603078 -0.26936123 0.75294721 -0.600429 0.0021288523
0.034306273 0.035039615 -0.011027042 -0.30531695 0.72882801 -0.61285508 0.0014182753
0.036929511 0.035709687 -0.011628164 -0.32114625 0.69724762 -0.64086723 0.0018579332
0.062834986 0.033619799 -0.011873567 0.54583007 -0.19258517 -0.8154633 0.002237872
0.064609818 0.034442399 -0.010786436 0.59675676 -0.21714744 -0.77248198 0.0014530169
0.066435255 0.034964833 -0.0093887579 0.68030453 -0.25679013 -0.68647254 0.0018726113
-0.06343887 0.037664212 -0.0095668323 -0.60410929 -0.33351293 -0.72375482 0.0019761741
-0.061395675 0.037246577 -0.010898718 -0.54421186 -0.27992049 -0.79087162 0.0017204275
-0.059799686 0.03689624 -0.011899578 -0.50919074 -0.24113978 -0.82618183 0.0028278821
-0.036113486 0.038809516 -0.011885736 0.32653943 0.66851372 -0.66817772 0.0011515085
-0.033956584 0.038555168 -0.011262497 0.3180269 0.65725148 -0.68328571 0.0017095387
-0.031300753 0.03778087 -0.010710935 0.3234531 0.69478196 -0.64238316 0.0015050712
-0.028687352 0.037041456 -0.010193466 0.32233149 0.71801251 -0.61689585 0.0016180925
-0.026237208 0.036338899 -0.0096911956 0.3169114 0.74005306 -0.59320194 0.001085736
0.035066895 0.036432173 -0.0097975275 -0.33315146 0.74449193 -0.57856876 0.0010337456
0.037728414 0.037103653 -0.010446366 -0.33622706 0.73852456 -0.58440816 0.0015824261
0.040344968 0.037985042 -0.010994552 -0.35832578 0.68699372 -0.6321727 0.0017003608
0.042840026 0.038680449 -0.011681624 -0.3340627 0.64685279 -0.68555343 0.0011823897
0.0648316 0.037397128 -0.011234186 0.56032628 -0.091413014 -0.82321203 0.0018899016
0.066795446 0.03760891 -0.0097302506 0.66323012 -0.14501844 -0.73423117 0.0024491497
-0.066149667 0.041695971 -0.0091147171 -0.64509869 -0.2752035 -0.71281892 0.0029263229
-0.064077608 0.040474467 -0.010053768 -0.57065529 -0.23057298 -0.78815514 0.0028974162
-0.061744168 0.040115483 -0.011509273 -0.48120031 -0.13310765 -0.86644602 0.004060375
-0.042028449 0.041473806 -0.011990014 0.27785653 0.60402173 -0.74696285 0.0028849375
-0.039875686 0.04146181 -0.011198322 0.31044355 0.65737301 -0.68664801 0.0015306054
-0.037380755 0.040771749 -0.010633537 0.32666022 0.68073565 -0.65566152 0.0012197046
-0.03492916 0.040136743 -0.0099972608 0.34242821 0.70708102 -0.61869156 0.0010345951
-0.032373369 0.039438069 -0.0093346778 0.34547228 0.72118533 -0.60045034 0.0010185171
0.041074127 0.03957925 -0.0096646901 -0.39442989 0.69716907 -0.59864879 0.00093802408
0.043651477 0.04027199 -0.01047754 -0.35564822 0.65760922 -0.66412681 0.0010842424
0.046524402 0.040910535 -0.011382676 -0.28706703 0.59430164 -0.75126433 0.00091084855
0.04869011 0.041708712 -0.011661146 -0.26538631 0.59057444 -0.76209706 0.0019078428
0.064892106 0.040434565 -0.011336662 0.49959654 0.029156005 -0.86576736 0.0033632915
0.067078099 0.040497314 -0.0098267971 0.62880188 -0.033115946 -0.77685994 0.0029026445
-0.066220216 0.043484304 -0.0092239333 -0.57871884 -0.12715994 -0.80555248 0.0036639953
-0.06443394 0.043787368 -0.010384577 -0.47518396 -0.045883413 -0.87868929 0.0046249521
-0.061982453 0.043464892 -0.011593919 -0.37962589 0.047255237 -0.92393243 0.0050030854
-0.048762172 0.044725191 -0.011774758 0.21485694 0.6011768 -0.76969016 0.0016854163
-0.046248753 0.044254821 -0.011392008 0.25981382 0.60224015 -0.75485337 0.0014572456
-0.043365955 0.043561764 -0.01075169 0.30086413 0.64111924 -0.70600766 0.0016663207
-0.040780563 0.043007605 -0.010031926 0.32827243 0.68360519 -0.65185976 0.0015512666
-0.038328171 0.042361856 -0.0093605984 0.35564661 0.69559282 -0.62423247 0.0010284255
0.044761661 0.042164814 -0.0091684889 -0.41362467 0.68046784 -0.6048786 0.00083164929
0.046715226 0.042712338 -0.0097273011 -0.36828211 0.67863518 -0.63547033 0.0010339933
0.05004302 0.043332055 -0.010795447 -0.27092052 0.5935272 -0.75784403 0.00098458712
0.052704226 0.043999486 -0.011324343 -0.19676349 0.53334737 -0.82269353 0.00098946295
0.055533975 0.044551242 -0.011646739 -0.11820789 0.48656926 -0.8656081 0.0019739389
0.058286119 0.044770446 -0.011848047 0.02704593 0.39218792 -0.91948748 0.0021094047
0.062316682 0.044229969 -0.01174219 0.21390668 0.2646721 -0.94031519 0.0042948555
0.064770952 0.043402746 -0.011091087 0.42662728 0.14533545 -0.89267397 0.004083151
0.06715443 0.043334424 -0.0097238058 0.57786036 0.073763661 -0.81279528 0.0036934037
-0.066433504 0.046179719 -0.0092319604 -0.48427007 0.03886551 -0.87405491 0.0040141181
-0.064398617 0.046729259 -0.010215744 -0.35879576 0.14806302 -0.92159808 0.0064081196
-0.061376799 0.046520971 -0.011354188 -0.26716048 0.28550467 -0.92038709 0.0066360389
-0.058591112 0.046968497 -0.011640462 -0.07096713 0.39689177 -0.91511786 0.0045626108
-0.055315875 0.04713428 -0.011488111 0.071163125 0.49898708 -0.86368263 0.0029942524
-0.05235574 0.046671674 -0.011334701 0.16943175 0.5637939 -0.80834979 0.0017639308
-0.049503997 0.046321291 -0.010750814 0.23680417 0.61954093 -0.74839348 0.0024027943
-0.046655089 0.045970082 -0.0098958891 0.32284391 0.69225472 -0.64541095 0.0020224461
-0.044452664 0.045461547 -0.0093326494 0.3359634 0.70485377 -0.62474781 0.0017719984
0.05065845 0.045131266 -0.0094528571 -0.36025238 0.65410179 -0.66510832 0.0020826582
0.052719418 0.045821894 -0.0097992755 -0.28040338 0.61289924 -0.7387343 0.0015463064
0.055834673 0.046281941 -0.010562949 -0.17987208 0.53852212 -0.82318896 0.0015361782
0.058890566 0.046255529 -0.011116523 0.016734608 0.42828408 -0.90348911 0.0029768315
0.061582368 0.046396162 -0.011047279 0.12253003 0.37240124 -0.91994768 0.0041808775
0.064643189 0.046345912 -0.010412781 0.3427704 0.25594956 -0.90387964 0.0064381226
0.066836663 0.046182249 -0.0095135132 0.51879418 0.16053143 -0.83969176 0.0041588652
-0.066375196 0.049089614 -0.0091328584 -0.40220734 0.1891062 -0.8958059 0.0060021295
-0.064540818 0.049404636 -0.0095628053 -0.25469545 0.28626502 -0.92367882 0.0056374287
-0.061656289 0.049756281 -0.00997274 -0.10147312 0.43746948 -0.8934896 0.00593059
-0.058463044 0.049245484 -0.010399613 0.019557241 0.51083815 -0.85945445 0.0036206965
-0.055452101 0.049241561 -0.010004643 0.13849409 0.60668999 -0.78278136 0.0035660192
-0.052687246 0.048622973 -0.009791486 0.2465717 0.65327829 -0.71584207 0.0023131568
-0.050075956 0.048201296 -0.0091903359 0.31196949 0.68784022 -0.65540123 0.0017405789
0.055850811 0.048204608 -0.0090821078 -0.24375224 0.5991438 -0.76263463 0.0015648359
0.058868296 0.048677005 -0.0096150916 -0.13190448 0.54880601 -0.82547754 0.002670486
0.061760016 0.049078003 -0.0097023146 0.047694497 0.4348785 -0.89922518 0.002998827
0.06463176 0.049066268 -0.0094973296 0.21694718 0.34486136 -0.91323853 0.0057689599
0.066382833 0.048591413 -0.0091733532 0.35014287 0.29080382 -0.89041179 0.0063293842
-0.06398385 0.051182736 -0.009072667 -0.17976126 0.40609828 -0.8959744 0.0082711894
-0.061367374 0.05123654 -0.0090995356 -0.013562864 0.54545254 -0.83803201 0.0052020261
-0.059447415 0.05105599 -0.0091608102 0.064034551 0.60466123 -0.79390448 0.0013606509
-0.0097468533 0.0028574583 -0.0061460282 -0.16603364 -0.87641078 -0.45203647 0.0014497008
-0.0073347087 0.0027215017 -0.0065114112 -0.12418479 -0.87167966 -0.47408095 0.0013458151
-0.0043502161 0.0025062254 -0.0069135153 -0.09365613 -0.86834043 -0.48704556 0.0017248805
-0.0014404902 0.002365184 -0.0070447843 -0.053004276 -0.86963439 -0.49084276 0.0018978058
0.0015430021 0.0023197751 -0.0072075031 -0.029508214 -0.87081873 -0.49071774 0.0019738723
0.0045290384 0.0022649432 -0.0072605205 0.0018384674 -0.87494051 -0.48422682 0.0018920678
0.0074629597 0.0023347081 -0.007230347 0.027920788 -0.87709975 -0.47949612 0.0020268301
0.010496498 0.0023784915 -0.0070988717 0.055322517 -0.88236386 -0.46730432 0.0018327637
0.013426445 0.0025422988 -0.0068959785 0.09189821 -0.88374043 -0.45886555 0.0018050902
0.016392445 0.0027376816 -0.0065594618 0.11745725 -0.88823807 -0.44411349 0.0016217659
0.018762777 0.0028912157 -0.0062596854 0.16283834 -0.89950645 -0.40542787 0.0013047741
-0.021377243 0.0059049628 -0.0062235408 -0.31755966 -0.83238858 -0.45418611 0.0016661114
-0.019179944 0.0055571282 -0.0068565155 -0.26881853 -0.83764213 -0.47549167 0.0015712142
-0.016426127 0.0051997304 -0.0074864496 -0.22153156 -0.8268801 -0.51690722 0.0014898939
-0.013524733 0.0044612284 -0.0075481161 -0.20219196 -0.8391881 -0.50485826 0.0016896217
-0.010537553 0.0038398337 -0.0076324507 -0.15146881 -0.84085 -0.51964265 0.0011840505
-0.007591119 0.0036282882 -0.0080029117 -0.12010465 -0.83561063 -0.53603142 0.001761028
-0.0045656431 0.0034669337 -0.0084048612 -0.092810139 -0.8206811 -0.56379843 0.0013046148
-0.0015455039 0.0033120171 -0.0085478164 -0.053897891 -0.80449909 -0.59150338 0.0010614292
0.0013916824 0.0032455027 -0.0086660422 -0.035163213 -0.8049401 -0.59231335 0.0010181427
0.0045088264 0.0032266588 -0.0087662647 -0.0046009216 -0.82679445 -0.56248528 0.0015999015
0.0076296688 0.0032399781 -0.0087073483 0.022933936 -0.81667924 -0.57663602 0.0012545335
0.010524168 0.0032776694 -0.0086263223 0.049295142 -0.82776284 -0.55890846 0.0013308391
0.013616846 0.00338088 -0.0083840946 0.083562486 -0.85624236 -0.50977081 0.0018047438
0.016600389 0.003527452 -0.0080410745 0.10726938 -0.86074692 -0.49760219 0.0016434811
0.019584009 0.003768529 -0.0076682293 0.15906624 -0.86755157 -0.47122407 0.0011538655
0.022493692 0.0042746826 -0.0075193034 0.18025669 -0.87786126 -0.44369707 0.0015234373
0.025508039 0.0049178004 -0.0075276163 0.20725828 -0.86824793 -0.45076555 0.0013946169
0.028319413 0.0054395255 -0.0070384727 0.24104637 -0.8691476 -0.43183228 0.0016569509
0.030623889 0.0057843612 -0.0064279023 0.28354853 -0.87119025 -0.40078396 0.0014457266
-0.02790142 0.0086663803 -0.0066374419 -0.33916438 -0.82746255 -0.44751894 0.0013595108
-0.025395984 0.008168471 -0.0074150604 -0.30416536 -0.81155604 -0.49885899 0.001461525
-0.022519218 0.0072314544 -0.0076265242 -0.2991676 -0.81790233 -0.49146169 0.0015219648
-0.019647645 0.0066108778 -0.0082748132 -0.25095072 -0.80293232 -0.54066932 0.0018353545
-0.017181974 0.0062249186 -0.0087624826 -0.21504423 -0.77691954 -0.59173638 0.00094779267
0.026564568 0.0060891621 -0.0089246845 0.2082489 -0.80246663 -0.55917776 0.0011919668
0.028913952 0.0063261199 -0.0084245643 0.23479143 -0.8401075 -0.48897067 0.0014528973
0.031655956 0.0067369994 -0.0076735509 0.28703463 -0.8543064 -0.43332627 0.0013259837
0.034503918 0.0076701338 -0.0075278091 0.30844077 -0.83953375 -0.44726655 0.0016502477
0.037220445 0.0084448634 -0.0070669367 0.33166909 -0.84504467 -0.41939858 0.001504074
0.039319858 0.008847693 -0.0063248621 0.38145792 -0.83778518 -0.39064798 0.0016060881
-0.036198217 0.011979613 -0.006122055 -0.41664878 -0.80567718 -0.42105597 0.0015826039
-0.034093842 0.011482537 -0.0070347693 -0.36954716 -0.80292898 -0.46769652 0.001313181
-0.031498227 0.010727356 -0.0075769695 -0.33421621 -0.80620909 -0.4881869 0.0017489271
-0.028758084 0.0098179709 -0.0079529937 -0.32208395 -0.79785025 -0.50960475 0.0017779331
-0.026311876 0.009286128 -0.0086342432 -0.29821584 -0.76671177 -0.56852466 0.0010762009
0.038024727 0.009391848 -0.0082796682 0.3263396 -0.82181048 -0.46704394 0.0014797187
0.040544465 0.010133586 -0.007561659 0.37958178 -0.82318538 -0.42223638 0.0013369038
0.043266535 0.011235986 -0.0072336975 0.39237109 -0.81760806 -0.42138097 0.0013853651
0.045355871 0.011794394 -0.0064045982 0.43124565 -0.80712074 -0.40321597 0.0015505303
-0.039795563 0.014350639 -0.0069780201 -0.42514077 -0.77000004 -0.47576812 0.0012230031
-0.03762022 0.01367403 -0.0077078263 -0.39876023 -0.77646297 -0.48795035 0.0015037243
-0.034914553 0.012558543 -0.0081569823 -0.3677693 -0.78393233 -0.50019574 0.0016655255
-0.032730538 0.012103808 -0.0088960743 -0.32308599 -0.73814946 -0.59224212 0.0013187221
0.044258568 0.012334171 -0.0083775641 0.39510423 -0.7756179 -0.49224943 0.0010833673
0.046584442 0.013200062 -0.0076115276 0.44252184 -0.79053271 -0.42335847 0.0012141449
0.049085531 0.014352181 -0.0070836083 0.47064379 -0.77250808 -0.42629299 0.0012735112
0.051095579 0.014918841 -0.0061785248 0.49248073 -0.76757044 -0.41024172 0.0013573049
-0.045483518 0.017666861 -0.0064978758 -0.5054422 -0.74229437 -0.43991727 0.00075894373
-0.043334655 0.016748806 -0.0074125892 -0.48139715 -0.74365306 -0.46393627 0.0013961432
-0.040871095 0.015565251 -0.0080176117 -0.43541628 -0.75399691 -0.49183458 0.0018922363
-0.038801856 0.01510588 -0.00888847 -0.38790196 -0.74979734 -0.53603733 0.0028324085
0.050105471 0.015554558 -0.008104478 0.47718325 -0.75798404 -0.44469815 0.0018967818
0.052419689 0.016707925 -0.0074135065 0.513219 -0.74237031 -0.43068844 0.0013768398
0.054450672 0.017638126 -0.0065828473 0.53210628 -0.72756767 -0.43302211 0.001127011
-0.048799045 0.020447381 -0.0071858307 -0.5219239 -0.70278525 -0.48341331 0.0013592466
-0.046687771 0.019168369 -0.0075367107 -0.49872449 -0.71123403 -0.49539888 0.0020872033
-0.044457376 0.018276762 -0.0085068 -0.49101099 -0.69579667 -0.52419007 0.0019602953
0.053659484 0.018324913 -0.0085299751 0.51723456 -0.68006915 -0.51959062 0.001563951
0.055680234 0.019235888 -0.0076521547 0.55334193 -0.70533723 -0.44307125 0.0012222746
0.05767262 0.020371495 -0.0068879765 0.58239198 -0.66588086 -0.46628562 0.0010687357
-0.054300167 0.023931291 -0.0061449423 -0.57324088 -0.70766389 -0.41304559 0.0021118731
-0.052225802 0.023099316 -0.0072887326 -0.54284823 -0.68821263 -0.48133069 0.0015459252
-0.050081868 0.021905603 -0.0079003386 -0.52300966 -0.69210285 -0.49744797 0.0019064537
0.056761757 0.021129893 -0.0088741509 0.54137617 -0.61007619 -0.57854891 0.0011567303
0.058831632 0.02211679 -0.0077823834 0.59256727 -0.64076632 -0.48814198 0.0017375218
0.060769629 0.023287728 -0.0069375322 0.61756742 -0.61939055 -0.48473269 0.0013872712
-0.05728611 0.026704943 -0.0064423252 -0.59238124 -0.66181499 -0.45944029 0.0010653907
-0.055253975 0.025711259 -0.007474205 -0.5680899 -0.67411166 -0.47206709 0.0020059033
-0.053235266 0.024546515 -0.0082122572 -0.54910797 -0.67710662 -0.48990506 0.0015407528
0.059795529 0.02412208 -0.0089274757 0.57806557 -0.56935078 -0.58453399 0.0017378783
0.061889067 0.025196455 -0.0078258421 0.64727217 -0.55750984 -0.51982832 0.0023187485
0.063592769 0.026268788 -0.0067800959 0.67722338 -0.54902595 -0.48983571 0.0015430787
-0.060343266 0.029668855 -0.0063970224 -0.6530658 -0.59474713 -0.46880794 0.0011734659
-0.058293685 0.028489422 -0.00755515 -0.60974658 -0.60904968 -0.50721556 0.0023003798
-0.056448188 0.027399089 -0.0083495434 -0.57475758 -0.62294662 -0.53065175 0.0013542795
0.00095170626 0.029900003 -0.0089129964 0.043333098 0.77230102 -0.63377708 0.00045915821
0.0030502744 0.029939283 -0.0086703151 0.022386955 0.78819752 -0.61501509 0.00032473876
0.0070996392 0.029947789 -0.0087036183 -0.0084617445 0.79695326 -0.60398173 0.00051049789
0.062794298 0.02730443 -0.0087605044 0.63716447 -0.50065511 -0.58597428 0.0022349467
0.064590193 0.028457701 -0.0075889076 0.71374625 -0.45568717 -0.53189808 0.0018617288
0.066234864 0.02959648 -0.006386613 0.72976077 -0.45942906 -0.50633401 0.0016771783
-0.063062593 0.032767177 -0.0063169836 -0.68190622 -0.5632993 -0.46658093 0.001593578
-0.061147284 0.031489346 -0.0073851016 -0.65286988 -0.54775244 -0.52319032 0.0017368405
-0.059370346 0.030514013 -0.0084638614 -0.60758358 -0.55704159 -0.56616855 0.0021280006
-0.015130368 0.032917663 -0.0089419233 0.25025058 0.79359436 -0.55460131 0.0031673214
-0.013145221 0.032601226 -0.0084061828 0.22337388 0.80637378 -0.54759967 0.0016840331
-0.0104071 0.032268908 -0.0078684315 0.1938865 0.83332884 -0.51765925 0.0024079403
-0.0076292227 0.031754058 -0.0077423435 0.15038954 0.83187491 -0.53419763 0.0025638724
-0.0045359433 0.031264424 -0.0077384543 0.12220772 0.82097059 -0.55773878 0.0018549543
-0.0014955075 0.030811913 -0.0078669768 0.088599615 0.82210034 -0.56240654 0.0019331528
0.0015088121 0.030786544 -0.0075861379 0.04869074 0.82975179 -0.55600476 0.0016098836
0.0043424196 0.030640459 -0.0076745823 0.0086909924 0.82794237 -0.56074572 0.0020312062
0.0075263628 0.030628527 -0.007716388 -0.041847605 0.82687879 -0.56082112 0.0020352893
0.010543494 0.030875986 -0.0077562826 -0.095264263 0.84331566 -0.52890778 0.0023241714
0.013413668 0.03120202 -0.0077267759 -0.13515852 0.84690398 -0.51428181 0.002003911
0.016383676 0.031685889 -0.0078444853 -0.16863975 0.83782762 -0.51923543 0.002437376
0.019328823 0.032358613 -0.0078724176 -0.22463477 0.81401181 -0.53565294 0.0017232836
0.02190768 0.032597784 -0.0086854519 -0.2461312 0.79082042 -0.56037706 0.0010128797
0.065496169 0.03098595 -0.0084367841 0.68279421 -0.35780138 -0.63700098 0.0016066866
0.066886432 0.031718045 -0.0071388911 0.74171788 -0.39292294 -0.54356802 0.0022019108
-0.063999489 0.034971032 -0.0071933228 -0.67718548 -0.47145849 -0.56493074 0.002258186
-0.062450718 0.033978064 -0.0081781549 -0.65368724 -0.46753761 -0.59506428 0.0026849627
-0.022215012 0.035468068 -0.0085672121 0.2986066 0.76086122 -0.57612872 0.001901346
-0.019485623 0.034979586 -0.0077436515 0.29512742 0.82514697 -0.48169726 0.0015139976
-0.016570834 0.034041755 -0.007724768 0.25104776 0.81267107 -0.52587146 0.0015163179
-0.013761406 0.033559628 -0.0071716532 0.23321114 0.84222674 -0.48607275 0.0017524114
-0.011575324 0.033402815 -0.0062992042 0.21277866 0.8585549 -0.4664855 0.00093972706
0.020338668 0.033281937 -0.0068277577 -0.23666251 0.8550787 -0.46133637 0.0021054188
0.022640578 0.033512514 -0.0076118959 -0.23892926 0.81250829 -0.5317359 0.0014194539
0.025476577 0.034170881 -0.0078723878 -0.24664077 0.82056522 -0.51559782 0.0012224053
0.028416317 0.035085782 -0.0078564193 -0.27468386 0.80464339 -0.52640069 0.0014720475
0.031072412 0.035661906 -0.0084642656 -0.30505162 0.78188974 -0.54368377 0.0013062344
0.06593743 0.033093128 -0.0088489586 0.69219625 -0.32509261 -0.64434403 0.0031639866
0.067741103 0.034426261 -0.0076416838 0.75501424 -0.2887187 -0.58872324 0.001910343
0.069178909 0.035562798 -0.0062727458 0.79080689 -0.30452126 -0.53093433 0.0027431168
-0.066653237 0.03810256 -0.0064169588 -0.69946647 -0.40995139 -0.5853942 0.0031146945
-0.064718634 0.037181959 -0.008054777 -0.66393739 -0.39552823 -0.63462156 0.0039160866
-0.030321745 0.038953267 -0.0085578691 0.35404006 0.78190064 -0.51311499 0.001214652
-0.028211422 0.038351621 -0.008002962 0.36172351 0.79541993 -0.4862749 0.002325
-0.02524711 0.037252057 -0.0077196988 0.32651863 0.77718651 -0.53792816 0.0014311427
-0.022827227 0.036476992 -0.0073659816 0.31850055 0.80861127 -0.49467686 0.0014418133
-0.020523326 0.036096178 -0.0063272156 0.29768372 0.85012025 -0.43437311 0.0010659511
0.031710178 0.03646275 -0.0074660638 -0.31619054 0.788571 -0.52742708 0.0010769115
0.034712166 0.037403777 -0.0080504054 -0.33944789 0.76733029 -0.54403985 0.00087416853
0.037031908 0.038303524 -0.008335162 -0.37490088 0.73745251 -0.56179458 0.00090768503
0.068296932 0.03733797 -0.0081622386 0.75965148 -0.17807478 -0.62547499 0.002435545
0.06949795 0.037602436 -0.0067235362 0.79596466 -0.21033132 -0.56762749 0.002318634
-0.067060351 0.040549159 -0.0074738259 -0.69270241 -0.2961199 -0.65762937 0.0031291135
-0.065720364 0.040216599 -0.0086394195 -0.65060043 -0.25147644 -0.71657425 0.003414616
-0.0364112 0.041797426 -0.0087452075 0.3757765 0.74685895 -0.54862899 0.0014052059
-0.03441947 0.041307431 -0.00800307 0.3800039 0.7754029 -0.50432861 0.0015303212
-0.031713415 0.040219784 -0.0076386891 0.37617067 0.7811116 -0.49835759 0.001589131
-0.029315406 0.039372202 -0.0071447082 0.37043616 0.79694605 -0.47713104 0.001121941
0.037512716 0.039238803 -0.007217153 -0.39365569 0.73714799 -0.54922491 0.00076359027
0.040433325 0.040601104 -0.0077175247 -0.40926695 0.7108103 -0.57205701 0.00058812031
0.043429818 0.041653857 -0.0087983143 -0.40536723 0.70410866 -0.58301663 0.00087538618
0.068543777 0.040325042 -0.0084914463 0.7036131 -0.076837666 -0.70641667 0.0021851109
0.069849081 0.040477399 -0.0070129256 0.78627837 -0.11137737 -0.60775113 0.0024138952
-0.069346607 0.044138286 -0.0065368256 -0.74517441 -0.25515094 -0.61612755 0.0035233162
-0.067052655 0.043227881 -0.0084264241 -0.65875274 -0.16697337 -0.73359716 0.0045323009
-0.042369507 0.044768512 -0.0088707209 0.34678206 0.74430525 -0.57074684 0.0029356172
-0.040233172 0.044325352 -0.0079145599 0.38754842 0.75734168 -0.52558523 0.0021957993
-0.037621666 0.043139335 -0.0076757623 0.39165536 0.77380812 -0.49782237 0.0015599936
-0.035237938 0.042332705 -0.0069788648 0.40018001 0.79414457 -0.45737332 0.0013275952
0.043755043 0.042781658 -0.0074120937 -0.40475041 0.71341324 -0.57203031 0.00070891535
0.046386689 0.043955803 -0.0079986723 -0.40138304 0.71091926 -0.57748199 0.0010788532
0.048301622 0.044643261 -0.0085557718 -0.38527614 0.69908416 -0.60236508 0.0016274857
0.06854821 0.043506097 -0.0086107804 0.65150428 0.02959598 -0.75806743 0.0026932284
0.069969654 0.04343152 -0.0071277111 0.75744194 -0.0065811481 -0.6528694 0.0026637849
