# .PCD v0.7 - Point Cloud Data file format
VERSION 0.7
FIELDS x y z normal_x normal_y normal_z curvature
SIZE 4 4 4 4 4 4 4
TYPE F F F F F F F
COUNT 1 1 1 1 1 1 1
WIDTH 540
HEIGHT 1
VIEWPOINT 0 0 0 1 0 0 0
POINTS 540
DATA ascii
-0.0018316242 0.045302089 -0.005640097 -0.19349243 -0.75531071 -0.6261521 0.00091996347
0.031705908 0.045568086 -0.0044923108 0.36524484 -0.92430115 0.11074104 0.0016160191
0.034394003 0.046772644 -0.0044133607 0.39130214 -0.90286756 0.17808095 0.0024733967
0.036646437 0.047726929 -0.0047798874 0.44063047 -0.87318337 0.20831598 0.0025532302
-0.052179676 0.049350783 -0.0044537243 -0.99825329 -0.057342444 0.014220194 0.0028455078
0.037731431 0.048492208 -0.0044036284 0.47383305 -0.85281879 0.21950492 0.0021857759
0.040147074 0.050123077 -0.0047397306 0.62479919 -0.69699359 0.35188928 0.0034702385
-0.052060336 0.05225243 -0.0043859319 -0.99894536 0.045908522 0.00072904152 0.0021761642
0.041720022 0.052469566 -0.0036624244 0.65869951 -0.6446017 0.38807681 0.0056383889
0.042761128 0.052603763 -0.0052931323 0.70938301 -0.61249018 0.34875715 0.0038925158
-0.05168575 0.055028223 -0.0044938158 -0.99765503 0.063810416 0.024752906 0.0028595682
-0.041615274 0.057784766 -0.0059289183 -0.18959819 0.53281605 -0.82471794 0.0085635874
-0.018411746 0.059263796 -0.005441214 -0.047517817 0.40695837 -0.91220999 0.0023574177
-0.015921574 0.059658248 -0.0054723299 -0.065244079 0.37597677 -0.92432934 0.0022147659
-0.013825311 0.059540179 -0.0058989562 -0.16224584 0.39865029 -0.90263742 0.0053315624
-0.012911644 0.061083753 -0.0050216513 -0.22810189 0.58020961 -0.78187358 0.0039947419
-0.010918854 0.061866283 -0.0051679304 -0.34411806 0.58458179 -0.73474282 0.0038662287
-0.010059767 0.063935108 -0.0037331118 -0.38493967 0.61089611 -0.69182903 0.0012086112
-0.0075905696 0.064701609 -0.0044827438 -0.44342405 0.58816636 -0.67633975 0.0015222467
-0.0057853297 0.064828686 -0.005668954 -0.51758915 0.56164306 -0.64549094 0.0026080024
-0.0066741253 0.066374898 -0.0036256886 -0.45841926 0.6101132 -0.64623046 0.00072383008
-0.0044243983 0.067047097 -0.0048268605 -0.53642792 0.59713095 -0.59638894 0.00062354509
-0.0031323784 0.069720931 -0.0032205838 -0.5242182 0.63157958 -0.57122892 0.00042341778
-0.001551881 0.069811992 -0.0046593775 -0.54715014 0.63071442 -0.55029643 0.00019629474
0.0015618748 0.073131025 -0.0038905325 -0.53134102 0.64396614 -0.55044025 0.00011937319
0.0035410521 0.073427685 -0.0054092309 -0.52541578 0.65659976 -0.54112381 0.00012896738
0.013612432 -0.078264445 -0.0015591515 -0.1802154 -0.98301399 0.034727316 0.0021664591
0.016460482 -0.078750089 -0.0016309737 -0.13052572 -0.98427039 0.11905805 0.0031979771
0.019394962 -0.079091422 -0.0015944235 -0.093429439 -0.97242147 0.21369931 0.0037383316
0.022506893 -0.0792735 -0.0015727801 -0.054438408 -0.95588434 0.28865483 0.0026791263
0.02558339 -0.079437509 -0.0019139934 -0.0092164706 -0.94409883 0.32953379 0.0029505312
0.028514622 -0.079364382 -0.0020637435 0.072249614 -0.90425676 0.42083216 0.0016532235
0.031173771 -0.078864492 -0.0018777412 0.15450764 -0.85441655 0.49608445 0.0013803524
0.033755608 -0.078576103 -0.0025107902 0.18577509 -0.87613159 0.4448382 0.0043893941
0.0026734772 -0.07524249 -0.00031881459 -0.41686615 -0.85021603 -0.32148921 0.0028307992
0.0046534194 -0.075711295 -0.0013767743 -0.36690336 -0.88641465 -0.28222504 0.0032384265
0.0075232163 -0.076711304 -0.0015342387 -0.30334908 -0.93780512 -0.16882198 0.0030583213
0.010493997 -0.077558443 -0.0015986861 -0.23518118 -0.96987259 -0.063536853 0.0029610209
0.012276555 -0.077954173 -0.0015062562 -0.22184262 -0.97479552 -0.023656808 0.0027551618
0.028905885 -0.077994332 -1.4644653e-05 0.13888018 -0.81824613 0.55784023 0.0012238462
0.030980103 -0.077720515 -0.00032049097 0.14093554 -0.844441 0.51677525 0.0021127872
-0.00089132413 -0.072848953 -0.0012080246 -0.57067198 -0.7349571 -0.36629432 0.0063314359
0.0013733241 -0.074006476 -0.0016055864 -0.46946773 -0.80151677 -0.37036589 0.0023757969
0.0034815131 -0.074773341 -0.0024688297 -0.40916386 -0.84614736 -0.34149623 0.0037264656
-0.0066078687 -0.069336519 -0.00032267219 -0.37529063 -0.7337333 -0.56638545 0.0095256548
-0.0043786187 -0.070153549 -0.0012435209 -0.43208092 -0.76428038 -0.4787291 0.00921732
-0.0019671412 -0.071124494 -0.0017783042 -0.56132495 -0.71741903 -0.41258237 0.0086152013
-0.01253355 -0.066256687 -1.474896e-05 -0.27033848 -0.76531094 -0.58413732 0.0082790097
-0.010136759 -0.066762388 -0.00066747435 -0.35839593 -0.65716362 -0.66308993 0.00047307916
-0.0074927136 -0.067573041 -0.0014875586 -0.44905606 -0.6667673 -0.59478575 0.002531671
-0.0051611103 -0.068454884 -0.0023250589 -0.48737174 -0.65043372 -0.58258462 0.0010244071
-0.02121713 -0.063136816 -0.00032809004 -0.16058281 -0.75522226 -0.63549387 0.00046906699
-0.019301215 -0.063362248 -0.00055485428 -0.17559765 -0.73644274 -0.6533128 0.00056707778
-0.016422223 -0.063799523 -0.00091477623 -0.21355794 -0.70915008 -0.67193687 0.00056202628
-0.013396287 -0.064407304 -0.001389915 -0.27687204 -0.66619807 -0.6924752 0.00057995331
-0.01067213 -0.065049984 -0.0020259132 -0.35807422 -0.63970435 -0.68011856 0.0005846158
-0.0084853247 -0.065718681 -0.0026222696 -0.43014559 -0.61715972 -0.65885401 0.00049707218
-0.039471626 -0.060066283 -0.00013057569 -0.18933508 -0.90719295 -0.3757036 0.00021621292
-0.037337013 -0.060269188 -0.00052468455 -0.1642655 -0.89656585 -0.41132283 0.00035872735
-0.034429528 -0.060512666 -0.0010057322 -0.14291953 -0.88041681 -0.45215064 0.00040737289
-0.031459004 -0.060785361 -0.0013052609 -0.1289973 -0.86105865 -0.49187165 0.00047609088
-0.028492732 -0.061041847 -0.001535346 -0.11504222 -0.83536816 -0.53751779 0.00057149667
-0.025516242 -0.061433814 -0.0015507692 -0.10720962 -0.80968672 -0.57698667 0.00060275622
-0.022548042 -0.06183508 -0.0016169179 -0.12522703 -0.77209091 -0.62305206 0.00066177011
-0.019587845 -0.062045455 -0.0019551476 -0.13942654 -0.73265004 -0.66617137 0.00057620252
-0.016640034 -0.062378459 -0.0022654077 -0.18889353 -0.70516557 -0.68341845 0.0006482217
-0.014246441 -0.062744573 -0.0026327821 -0.26126644 -0.67180133 -0.69312537 0.00074545038
-0.049087383 -0.057069562 -8.231448e-05 -0.34733352 -0.89114672 -0.29191944 0.021773322
-0.045942158 -0.057994161 -0.00057353161 -0.26713929 -0.8551085 -0.44432655 0.012661484
-0.043566994 -0.058573946 -0.001579688 -0.34933367 -0.82027769 -0.45289123 0.011072209
-0.040484942 -0.059313864 -0.0014719816 -0.17359024 -0.90696889 -0.38376275 0.00030951714
-0.037560843 -0.059586376 -0.0019551644 -0.12930466 -0.90293908 -0.4098554 0.00048866152
-0.034702562 -0.059717938 -0.0024702228 -0.1074657 -0.88479263 -0.45342386 0.00040872153
-0.031866457 -0.059893198 -0.0027506948 -0.090586916 -0.85775095 -0.50602108 0.00041610043
-0.051571772 -0.05547303 -0.0014887669 -0.8498168 -0.49377486 -0.184385 0.040883467
-0.049525905 -0.056669526 -0.0017266179 -0.30421063 -0.92223448 -0.23862013 0.018767945
-0.046569932 -0.056653917 -0.001789681 -0.1519881 -0.89436257 -0.42073169 0.017395047
-0.044427268 -0.056548946 -0.0024739932 -0.34443519 -0.80059069 -0.49032524 0.015049299
-0.052071072 -0.052494057 -0.001496058 -0.96902907 -0.2259625 -0.09961798 0.022460915
-0.052248284 -0.049421068 -0.0015024012 -0.99617678 0.023112088 -0.084247425 0.0019512114
-0.052109793 -0.046496689 -0.00144436 -0.99310291 0.06593778 -0.096947171 0.0018780396
-0.051804069 -0.044088971 -0.0012666075 -0.99031228 0.088871635 -0.1066932 0.0011661795
-0.022966411 -0.042074312 -0.0029271152 0.15129574 0.43926811 -0.88552421 0.012972225
-0.019623132 -0.042337377 -0.0027351221 0.093624189 0.53184223 -0.84165215 0.0048966883
-0.016327811 -0.04266952 -0.0026177422 0.061390199 0.52489609 -0.84894955 0.0041652946
-0.013250987 -0.042602852 -0.0023799846 0.031570707 0.52289832 -0.85181028 0.0038780647
-0.010759667 -0.042849034 -0.0024929338 -0.0089139929 0.54416418 -0.83893144 0.0031466351
-0.0077493773 -0.042700276 -0.0024903608 -0.038355239 0.58761466 -0.80823141 0.0030386876
-0.004231724 -0.04272297 -0.0027511711 -0.05301949 0.6413306 -0.76543063 0.0024529134
0.00014859087 -0.042498145 -0.0029640933 -0.14037496 0.75025678 -0.64607251 0.0029079097
-0.040228117 -0.039839171 -0.0020876294 -0.19008185 0.47169435 -0.8610304 0.057571642
-0.038131449 -0.03948769 -0.0025504166 -0.19181234 0.3774302 -0.90595502 0.056272019
-0.035460763 -0.039062999 -0.0025467006 -0.055101171 -0.066103689 -0.99629027 0.0083343564
-0.030316755 -0.039044615 -0.0023416295 0.060132984 0.004904374 -0.9981783 0.00086220255
-0.028431464 -0.039516427 -0.0023182421 0.033156749 0.069746315 -0.99701357 0.0040998636
-0.02524535 -0.03992486 -0.0022225962 0.017869148 0.15931222 -0.98706657 0.0049214079
-0.022320308 -0.040381789 -0.0021471998 0.064649269 0.28118098 -0.95747465 0.0023679088
-0.019500233 -0.040368732 -0.0019011511 0.073380329 0.29543504 -0.95254052 0.0021176089
-0.016662199 -0.040391419 -0.0016815773 0.087183446 0.3095077 -0.94689178 0.0025375739
-0.01349332 -0.040465593 -0.001484512 0.054208133 0.3211858 -0.94546348 0.0032379928
-0.010398007 -0.040384591 -0.0013230162 0.035603184 0.34680316 -0.93726194 0.0034808626
-0.0074184728 -0.040519103 -0.0012703353 0.019116705 0.40853748 -0.91254139 0.0056492579
-0.0045104725 -0.04038066 -0.0011604812 0.02714508 0.44985172 -0.89269066 0.0075955028
-0.0015068125 -0.040450938 -0.0011695618 0.041256879 0.44967222 -0.89224035 0.0082894489
0.0012054894 -0.040339746 -0.0011015895 -0.057867713 0.57129091 -0.81870508 0.014076981
0.0030557977 -0.040756438 -0.0017311068 -0.12976973 0.63319755 -0.76303393 0.011959122
-0.040112041 -0.037413262 -0.0013424935 -0.59609854 0.10871866 -0.79551673 0.056281764
-0.037577625 -0.037488408 -0.0025258434 -0.21388318 -0.0037451859 -0.97685212 0.013956087
-0.034538899 -0.037475109 -0.0026510647 0.03062468 -0.056052141 -0.99795806 0.0008614455
-0.031571757 -0.037414551 -0.0025101604 0.067687735 -0.035005141 -0.99709231 0.00063886622
-0.028316692 -0.037417382 -0.002100277 0.086784534 0.016628392 -0.99608833 0.00094384828
-0.025407476 -0.037452344 -0.0018514284 0.059758198 0.038461354 -0.99747169 0.0014875145
-0.022726333 -0.037412047 -0.0016275756 0.080901347 0.10681449 -0.99098217 0.0050500762
-0.019586241 -0.037378993 -0.0013692621 0.085197926 0.11592188 -0.98959762 0.0048428033
-0.016391089 -0.037446726 -0.0011092355 0.079818733 0.12871009 -0.98846483 0.0051675439
-0.013406553 -0.037571456 -0.0008818261 0.074108712 0.13921358 -0.98748547 0.0049166093
-0.010573993 -0.037222452 -0.00062860252 0.069893286 0.074840233 -0.99474311 0.00386291
-0.0074393642 -0.037451155 -0.00040854194 0.081119336 0.14761123 -0.9857133 0.003478986
-0.0044612312 -0.037557818 -0.00019261095 0.093655325 0.19911146 -0.97549134 0.0070936312
-0.0018167387 -0.038151953 -9.0766574e-05 0.11310709 0.22256444 -0.96833462 0.0075697391
6.39153e-05 -0.038888656 -0.00019751349 0.0087092537 0.42636368 -0.9045099 0.011805944
-0.040503576 -0.033964545 -0.0010282706 -0.86091971 0.077704094 -0.50277174 0.032622945
-0.037735622 -0.034518983 -0.002696221 -0.28794593 -0.12435387 -0.94953847 0.012433323
-0.034680635 -0.034549497 -0.0027733904 0.032657329 -0.087831885 -0.99559987 0.0012641086
-0.031600721 -0.034360591 -0.002487327 0.09151613 -0.05876993 -0.99406785 0.00029952612
-0.028511936 -0.034517162 -0.002263014 0.089659281 -0.048593462 -0.99478638 0.00030413384
-0.025361842 -0.034489114 -0.0020005184 0.078128949 -0.033340033 -0.99638563 0.0014951624
-0.022373268 -0.034458209 -0.0017648366 0.083018743 -0.075437747 -0.99368864 6.1522725e-05
-0.019664014 -0.034525167 -0.0015208228 0.083496436 -0.069450542 -0.99408501 7.6378878e-05
-0.016514601 -0.034465399 -0.0012399857 0.08640296 -0.060042545 -0.99444932 0.00011318828
-0.013403576 -0.034397308 -0.00095702492 0.094487131 -0.053629696 -0.99408054 0.00011085616
-0.010569972 -0.034539476 -0.00068209856 0.09394253 0.016182598 -0.99544615 0.0028026602
-0.0073478026 -0.034528863 -0.0003811451 0.091323279 -0.014555823 -0.9957149 0.00018997044
-0.0045092152 -0.034336157 -0.00011832084 0.10351025 -0.0080650328 -0.99459571 0.00018942122
-0.040238045 -0.03156843 -0.0014729436 -0.86716491 -0.070270963 -0.49303856 0.034387961
-0.03874664 -0.032062933 -0.0027091429 -0.67300993 -0.07001096 -0.73631245 0.021354273
-0.033732601 -0.032011885 -0.0028982193 0.093490936 -0.11099041 -0.98941427 0.00042038516
-0.031380985 -0.031410553 -0.0027290056 0.10154117 -0.10003983 -0.98978859 0.00031852414
-0.028665666 -0.031666141 -0.0024811972 0.081118941 -0.090660989 -0.99257261 6.7457426e-05
-0.025660662 -0.031444572 -0.0022954191 0.078144766 -0.087882712 -0.99306095 1.9049174e-05
-0.022521032 -0.03156589 -0.0020473695 0.08388368 -0.079821534 -0.99327344 4.0835461e-05
-0.019339515 -0.031382252 -0.0017780567 0.092542753 -0.0811719 -0.99239463 1.3913342e-05
-0.016475216 -0.031556215 -0.0014868308 0.099418707 -0.06967403 -0.99260342 7.2289804e-05
-0.013433166 -0.031482879 -0.0011704274 0.10420854 -0.065906107 -0.99236941 4.0779509e-05
-0.010458195 -0.031464145 -0.00085048634 0.10726593 -0.048031811 -0.99306947 7.7177268e-05
-0.0074481936 -0.031491704 -0.00052024523 0.10636744 -0.036233377 -0.99366653 8.2281796e-05
-0.0043409383 -0.03151124 -0.00017177283 0.10790578 -0.0187333 -0.99398464 4.9970004e-05
-0.040206172 -0.028631687 -0.0016246627 -0.86719221 -0.11856966 -0.48365167 0.030707639
-0.038883582 -0.029236799 -0.0029402717 -0.55285299 -0.1113858 -0.82580078 0.004706183
-0.030910393 -0.02912938 -0.0029065707 0.11149545 -0.12547827 -0.98581135 0.00019749628
-0.028313914 -0.028534293 -0.0027447226 0.08458104 -0.10299428 -0.99107933 7.9469319e-05
-0.02532356 -0.028356977 -0.002528823 0.085710406 -0.094838075 -0.99179614 8.9870337e-05
-0.022585185 -0.028603986 -0.0022926286 0.090855703 -0.087797284 -0.99198633 5.7124722e-05
-0.01950464 -0.02845465 -0.0020182391 0.094821908 -0.07534539 -0.99263889 3.6853657e-05
-0.016599637 -0.028559076 -0.001712322 0.10895175 -0.069660984 -0.9916032 3.2508957e-05
-0.013619244 -0.028507497 -0.0013737528 0.11575456 -0.06023493 -0.99144977 3.4181903e-05
-0.010598361 -0.028442657 -0.0010184407 0.11938522 -0.045956269 -0.99178386 3.6598365e-05
-0.0075055282 -0.028493052 -0.0006367212 0.12414293 -0.033859372 -0.99168646 5.0156628e-05
-0.0044211717 -0.028479738 -0.00024794947 0.12336372 -0.015661366 -0.99223793 4.8436068e-05
-0.0026231592 -0.027997315 -2.2444605e-05 0.14274967 -0.010529762 -0.98970282 8.5719577e-05
-0.040126979 -0.025554162 -0.0017406704 -0.9053992 -0.059079587 -0.42043054 0.027493518
-0.027988039 -0.026653463 -0.002930206 0.1031113 -0.13426052 -0.98556697 0.00017033824
-0.025417972 -0.025702804 -0.0028113527 0.08779864 -0.11113562 -0.98991936 7.5998178e-05
-0.022417055 -0.025384517 -0.0025550784 0.099441975 -0.094070181 -0.99058676 8.9525878e-05
-0.019545967 -0.025546998 -0.0022384422 0.11057536 -0.0835656 -0.9903484 8.0652208e-05
-0.016413057 -0.025507413 -0.0018934349 0.12081087 -0.066800684 -0.99042541 4.4000073e-05
-0.01335935 -0.025484417 -0.001511692 0.12819621 -0.055494089 -0.99019504 3.7209164e-05
-0.010719798 -0.025487063 -0.0011674326 0.13010634 -0.043782376 -0.99053293 4.1190033e-05
-0.0076188697 -0.025536057 -0.00074787019 0.13626924 -0.031056462 -0.99018496 4.3789583e-05
-0.0044982112 -0.025523845 -0.0003149921 0.13893257 -0.020602806 -0.99008751 3.4311452e-05
-0.0025930107 -0.025424406 -4.251127e-05 0.14962699 -0.011979534 -0.98866993 4.4736666e-05
-0.039945811 -0.022590559 -0.0016069368 -0.92891228 -0.0440933 -0.36766532 0.023003913
-0.024943952 -0.023797441 -0.0029802523 0.11037832 -0.12752812 -0.98567402 0.00013918136
-0.022403315 -0.022758324 -0.0028108396 0.11043378 -0.10794535 -0.98800415 7.3597199e-05
-0.019534389 -0.022449877 -0.0024965184 0.12784119 -0.09346953 -0.98738045 6.5863889e-05
-0.016546754 -0.022502404 -0.0021141116 0.1326711 -0.071956903 -0.9885447 7.1492352e-05
-0.013531319 -0.022450028 -0.0017028295 0.14036274 -0.05775024 -0.98841447 5.4008768e-05
-0.01048915 -0.022499701 -0.0012653768 0.14469142 -0.043145422 -0.98853576 4.3157776e-05
-0.0073823016 -0.022680242 -0.00080227677 0.14789104 -0.029861592 -0.98855281 4.5158951e-05
-0.0044330307 -0.022535617 -0.0003608939 0.15259425 -0.015344014 -0.98816979 1.949444e-05
-0.0025709036 -0.022520598 -7.6639808e-05 0.16112404 -0.012019672 -0.98686099 4.9008744e-05
-0.039671611 -0.019541077 -0.001359219 -0.95661992 0.026042297 -0.29017255 0.01476088
-0.021581758 -0.020564761 -0.002948934 0.14592277 -0.11514625 -0.98257208 0.00013595269
-0.019434869 -0.019680062 -0.0027396199 0.14295535 -0.091206096 -0.98551774 8.9392277e-05
-0.016437555 -0.019400883 -0.0023339964 0.14763176 -0.076053031 -0.98611397 9.6398202e-05
-0.013709716 -0.019506361 -0.0018997068 0.15784205 -0.061277378 -0.98556125 8.2745362e-05
-0.010503132 -0.019527502 -0.0013942749 0.15719746 -0.043597113 -0.98660439 5.5048928e-05
-0.0072566778 -0.019540412 -0.00087496662 0.15984949 -0.030113492 -0.986682 4.5205325e-05
-0.0043648663 -0.019408999 -0.00040279163 0.1645399 -0.014867229 -0.98625839 2.4856095e-05
-0.0025429421 -0.019588292 -0.00010567438 0.17309518 -0.011172079 -0.98484176 5.6841243e-05
-0.039502203 -0.016466636 -0.001184263 -0.97028273 0.058871206 -0.23470326 0.007641037
-0.038956311 -0.016002806 -0.0029104669 -0.92299706 0.033862755 -0.38331416 0.046205424
-0.01876091 -0.017227851 -0.0028891943 0.15960962 -0.10457915 -0.9816252 0.00012592481
-0.016705513 -0.016417081 -0.0026119957 0.16529661 -0.092259429 -0.98191917 0.00013347682
-0.013526875 -0.016463835 -0.0020609379 0.17384626 -0.068570167 -0.98238266 0.00010386475
-0.010349782 -0.016601877 -0.0015026081 0.17054363 -0.048130445 -0.98417395 6.9889182e-05
-0.0072530466 -0.016451746 -0.00096945156 0.17358659 -0.034850139 -0.98420185 6.1643972e-05
-0.0045121987 -0.016499072 -0.00048224803 0.175534 -0.02139408 -0.98424089 4.8879265e-05
-0.0025059278 -0.016625863 -0.00012656696 0.1855797 -0.011961631 -0.98255646 6.7759036e-05
-0.039456282 -0.013570067 -0.0013055791 -0.9721424 0.051595151 -0.22864194 0.0120516
-0.038909655 -0.013514939 -0.0027307477 -0.99181938 0.054074362 -0.11563013 0.010969751
-0.015844366 -0.013048828 -0.0027787937 0.19406494 -0.091556698 -0.9767068 8.5286163e-05
-0.013517958 -0.013207445 -0.0023146474 0.1906711 -0.07599248 -0.97870821 5.0694376e-05
-0.010501159 -0.013092211 -0.0017437389 0.19352852 -0.057352129 -0.97941691 5.6764424e-05
-0.0080078067 -0.012981882 -0.0012624242 0.19797349 -0.047309592 -0.97906506 6.575961e-05
-0.0044623595 -0.013453677 -0.0005446318 0.18996432 -0.024421824 -0.98148721 5.7526555e-05
-0.0024761308 -0.013646101 -0.00015472056 0.19883484 -0.014680365 -0.97992313 7.4403462e-05
-0.039478835 -0.010524506 -0.0012487135 -0.96160483 -0.0039793872 -0.27440912 0.0085529247
-0.038876012 -0.011063468 -0.00281918 -0.98533344 -0.0067494875 -0.17050654 0.015007095
-0.015440266 -0.010825269 -0.0028950451 0.21110265 -0.089647293 -0.97334427 7.2948969e-05
-0.01325986 -0.010297973 -0.0024804694 0.20434408 -0.075755417 -0.97596347 8.021923e-05
-0.010695272 -0.010536709 -0.0019320612 0.20365559 -0.060599301 -0.9771654 6.4483203e-05
-0.0076698978 -0.010610487 -0.0012976083 0.20913713 -0.049239658 -0.97664589 5.7256431e-05
-0.0044916878 -0.01017681 -0.0006498599 0.21443492 -0.034879442 -0.97611535 5.6937712e-05
-0.0022539205 -0.010337454 -0.00015821501 0.21277244 -0.017260632 -0.97694933 6.9056936e-05
-0.039484389 -0.0074523087 -0.0012360704 -0.96927005 -0.055031508 -0.23976462 0.010252416
-0.038806517 -0.0075029484 -0.0026907078 -0.98734474 -0.057512145 -0.14779285 0.013655525
-0.013394377 -0.0075884387 -0.0027254627 0.21942757 -0.0795542 -0.97237992 6.5867542e-05
-0.010517888 -0.0071351957 -0.0021104445 0.22486939 -0.066175684 -0.97213918 7.0690614e-05
-0.0077478662 -0.0075207064 -0.001457799 0.22001708 -0.04727501 -0.97434986 7.0939182e-05
-0.004618098 -0.0074237669 -0.00075875584 0.22258668 -0.034264706 -0.97431064 5.1978503e-05
-0.0019151135 -0.0072476906 -0.00015078511 0.2289717 -0.018197848 -0.97326297 9.7833326e-05
-0.03986631 -0.0045700958 -0.0013811229 -0.96133077 -0.10806754 -0.25330713 0.0081782397
-0.038873944 -0.0055524558 -0.0025389201 -0.98693413 -0.095662318 -0.12965266 0.010650729
-0.012902863 -0.004602077 -0.0028548362 0.23685597 -0.074537151 -0.96868134 5.6045566e-05
-0.010449436 -0.0044901418 -0.0022687092 0.23531091 -0.062598564 -0.96990216 6.8889414e-05
-0.0075880373 -0.0043467884 -0.0015791003 0.23550951 -0.045993365 -0.97078317 6.6574314e-05
-0.0045944992 -0.0042580431 -0.00085650967 0.23523229 -0.032728959 -0.97138798 6.648885e-05
-0.0018371581 -0.0045325002 -0.00017494787 0.2435075 -0.017385846 -0.96974319 0.00013692994
-0.039986689 -0.0015146637 -0.001271388 -0.9501546 -0.026941357 -0.31061304 0.01762417
-0.012209458 -0.0019836791 -0.0028641932 0.24949923 -0.057090353 -0.96669066 8.5822365e-05
-0.0103991 -0.0014761058 -0.0024483227 0.24799414 -0.049974792 -0.96747166 9.1665439e-05
-0.0076151202 -0.0016676928 -0.0017158568 0.2487953 -0.032418471 -0.96801341 8.31406e-05
-0.00481511 -0.0014280389 -0.0010034427 0.24798289 -0.022158444 -0.96851099 5.1562954e-05
-0.0017924625 -0.0017108573 -0.00021354407 0.2555933 -0.011182667 -0.96671969 0.00012264567
-0.040014762 0.001489947 -0.0012671134 -0.93542373 0.015854096 -0.35317284 0.019916221
-0.010385958 0.0014988016 -0.0025345793 0.25347579 -0.0068120463 -0.96731776 0.00012821965
-0.0075394153 0.0010467498 -0.0017774994 0.25317216 -0.0078556389 -0.96738935 0.0001045433
-0.0044328989 0.0014076552 -0.00094616774 0.25433695 -0.0039418703 -0.96710759 3.0783067e-05
-0.0016859013 0.0012741673 -0.00021126069 0.25705618 0.0012356002 -0.96639562 1.5000309e-05
-0.040320497 0.0043407106 -0.0011487635 -0.94279379 0.082463346 -0.32301655 0.017663917
-0.012202068 0.0045012012 -0.0029226437 0.25033548 0.033686567 -0.96757293 2.7466676e-05
-0.010296027 0.0045864573 -0.0024348313 0.25055376 0.032378022 -0.96756113 3.103997e-05
-0.007583471 0.0037111333 -0.0017537952 0.25612521 0.017821066 -0.96647936 5.4824781e-05
-0.0043664286 0.0044228514 -0.00089596841 0.25120404 0.017483205 -0.9677763 3.284515e-05
-0.001539704 0.0037795098 -0.00016318714 0.25625366 0.0085095838 -0.96657211 2.3907556e-05
-0.039508019 0.0077464245 -0.0011853962 -0.96081173 0.081723213 -0.26488149 0.0074478555
-0.038913049 0.0083994064 -0.0027371917 -0.98278147 0.070596829 -0.17075329 0.016852343
-0.012490837 0.0080229836 -0.0028357236 0.24542415 0.045673255 -0.96833932 3.576931e-05
-0.010675143 0.0074223587 -0.0024130589 0.24334055 0.045587193 -0.96886903 3.8583228e-05
-0.0072388658 0.0069219349 -0.001558358 0.24533302 0.031369328 -0.9689312 4.3832471e-05
-0.004486057 0.0074956296 -0.00082755554 0.23830751 0.019535515 -0.97099328 4.2446438e-05
-0.0024299722 0.007584814 -0.00032366358 0.2439671 0.015200839 -0.96966439 4.4235203e-05
-0.039504524 0.010660079 -0.0012550279 -0.96633142 -0.01071137 -0.25707775 0.012577822
-0.03891921 0.010717907 -0.0027818249 -0.98583633 -0.0050278036 -0.16763489 0.013329711
-0.013093709 0.01046849 -0.00281323 0.23029232 0.069907025 -0.97060728 4.046411e-05
-0.010412695 0.0098280814 -0.0022171976 0.23764092 0.055736389 -0.96975267 5.4243232e-05
-0.0073173391 0.010141398 -0.0014549338 0.23492475 0.038732614 -0.97124153 5.6688135e-05
-0.0042610867 0.010270513 -0.00072383392 0.23016895 0.022012018 -0.97290176 5.0220766e-05
-0.0022184663 0.01033704 -0.00023849103 0.22921662 0.011066652 -0.9733125 3.8213588e-05
-0.039545383 0.013504188 -0.0011506825 -0.96404135 -0.0050226171 -0.26570484 0.0094492184
-0.03892244 0.013370392 -0.0027754465 -0.98600793 -0.042446863 -0.16120343 0.012830757
-0.015321432 0.014357977 -0.0029419139 0.20985377 0.096717849 -0.97293735 7.4579046e-05
-0.013400104 0.01346083 -0.00261686 0.2070879 0.083482824 -0.97475398 8.9408903e-05
-0.010322298 0.013357684 -0.0019607069 0.21304065 0.067820169 -0.97468668 9.5715972e-05
-0.0072384626 0.013892677 -0.0012620981 0.21363561 0.048350427 -0.97571623 0.00011568752
-0.0046378104 0.013444049 -0.00070848246 0.20840184 0.027856283 -0.97764647 0.00013536561
-0.0022353549 0.0132039 -0.00019615487 0.21148676 0.010800017 -0.97732121 6.2197563e-05
-0.039506767 0.016482931 -0.0012536879 -0.96927768 -0.068436854 -0.23625648 0.010149605
-0.038926858 0.016271962 -0.0027625829 -0.98697668 -0.031384602 -0.157772 0.016258677
-0.015832944 0.016518598 -0.0028028574 0.19342761 0.11055625 -0.97486567 7.1778952e-05
-0.013334814 0.016486716 -0.0023398555 0.19175337 0.096467085 -0.97669077 0.00010122294
-0.010458841 0.016831301 -0.0017648141 0.18976064 0.068858869 -0.97941279 0.00015625062
-0.0081960652 0.016245387 -0.0013303877 0.18757071 0.055225689 -0.98069739 0.00019955775
-0.0046288683 0.016327517 -0.0006518283 0.18849795 0.028841758 -0.98164999 0.00013214494
-0.0020899568 0.016411319 -0.00015432801 0.19955218 0.014207905 -0.97978419 7.4535252e-05
-0.039610114 0.019509407 -0.0013347222 -0.97687626 -0.05051494 -0.20775229 0.0090977373
-0.038936127 0.019629337 -0.0027689266 -0.93947619 -0.023488611 -0.34180808 0.027503761
-0.018449876 0.019763503 -0.002906278 0.18225226 0.12399694 -0.97540194 5.5136788e-05
-0.016511261 0.019606896 -0.0025662261 0.18301591 0.12402076 -0.97525591 5.0586917e-05
-0.013658374 0.019490449 -0.0020542284 0.17307882 0.099652 -0.97985369 8.80839e-05
-0.010595396 0.019527934 -0.0015014147 0.16990991 0.078637935 -0.98231703 0.00017146935
-0.0074050967 0.019721858 -0.0009872783 0.16848673 0.055633713 -0.98413271 0.00013593659
-0.0043610828 0.019357301 -0.00049754174 0.17026725 0.02743871 -0.98501581 0.00010058479
-0.0026805445 0.019158058 -0.00017961621 0.18505502 0.022303658 -0.98247504 0.0001430745
-0.039812576 0.0225012 -0.0013992436 -0.95846409 -0.0090783956 -0.28506866 0.013152343
-0.021656059 0.023322431 -0.0029335136 0.14595798 0.14624234 -0.97842193 8.3808947e-05
-0.019411517 0.022498129 -0.0027138097 0.15953152 0.12279279 -0.97952622 9.3889139e-05
-0.016402941 0.022729663 -0.0021819014 0.16477281 0.11044864 -0.98012811 9.6619566e-05
-0.013098947 0.022573464 -0.0016693994 0.15335679 0.090452403 -0.98402238 0.00012294012
-0.010477073 0.022319224 -0.0013110652 0.14779957 0.068880185 -0.98661584 0.00010062891
-0.0080601489 0.023248956 -0.00089494966 0.14001743 0.049465455 -0.98891264 7.7125449e-05
-0.0044630272 0.02237257 -0.00040841172 0.15083404 0.036696464 -0.98787773 8.4697807e-05
-0.0025510094 0.022169355 -0.00010923442 0.17589833 0.02312492 -0.98413676 0.00025433797
-0.040040117 0.025271395 -0.0015677238 -0.9353258 0.056530964 -0.34924173 0.017062595
-0.024863893 0.026278133 -0.0029635627 0.12192832 0.15571524 -0.98024809 5.3510626e-05
-0.022246897 0.02566961 -0.0027240734 0.13372272 0.13012819 -0.98243827 7.7461154e-05
-0.019583644 0.025484253 -0.0023717757 0.14564981 0.11688272 -0.98240757 0.00013236493
-0.016557418 0.025438437 -0.001915857 0.14513707 0.097462915 -0.98459953 0.00017168654
-0.013890223 0.02544735 -0.0015237245 0.13855734 0.074746579 -0.9875297 9.9318415e-05
-0.010501077 0.026070315 -0.0010637508 0.13105768 0.051901933 -0.99001515 7.9180842e-05
-0.0071240431 0.025295436 -0.00065170787 0.13518502 0.041363847 -0.98995662 0.00010537375
-0.0044546803 0.025899187 -0.00025789553 0.12998268 0.021236707 -0.99128884 9.9514553e-05
-0.0024622777 0.025699887 -3.2644377e-05 0.13596056 0.015827674 -0.99058783 0.0001022119
-0.04020068 0.028421702 -0.0016065432 -0.90810043 0.047177423 -0.41608644 0.022596112
-0.038913503 0.029789833 -0.0029689339 -0.34829518 0.14264925 -0.92646736 0.015145535
-0.027669439 0.029186366 -0.0028536599 0.11354374 0.14905649 -0.98228818 7.1331277e-05
-0.025411965 0.028536618 -0.0027033137 0.10784025 0.13361691 -0.98514825 5.7253659e-05
-0.022801138 0.028584104 -0.0023977351 0.1142517 0.1303255 -0.98486638 0.00010034563
-0.01939531 0.02855128 -0.0019768954 0.12484561 0.11001673 -0.98605776 0.00015352732
-0.016429679 0.028317846 -0.001644324 0.11972381 0.087019727 -0.98898625 0.00015886508
-0.013016827 0.028841045 -0.0012421848 0.116188 0.053936925 -0.99176162 6.7010609e-05
-0.010847304 0.029094759 -0.00096553721 0.11665114 0.045632984 -0.99212408 4.8196285e-05
-0.0075560785 0.028044019 -0.00061797263 0.11746967 0.034560055 -0.99247491 0.00010190762
-0.004371441 0.028444212 -0.00024210205 0.11702574 0.013807341 -0.99303293 8.6425964e-05
-0.0023127659 0.028832277 -2.1557473e-05 0.13319057 0.0011443936 -0.99108982 0.00015336588
-0.040299509 0.031569943 -0.0014778399 -0.87356704 0.06724257 -0.48203638 0.027553119
-0.038647834 0.03166825 -0.0028443835 -0.50496829 0.13349156 -0.85275269 0.0038201222
-0.031188756 0.031977065 -0.0028397865 0.099210463 0.12988116 -0.98655373 9.4757801e-05
-0.028588748 0.031630848 -0.0026212865 0.10090941 0.12736976 -0.98670882 0.00012085139
-0.025433991 0.031390794 -0.0023336576 0.10215674 0.11665761 -0.98790437 7.9064383e-05
-0.02241252 0.031719491 -0.0019927693 0.10357895 0.088773191 -0.99065173 0.0002401801
-0.019752426 0.03148514 -0.0017406187 0.10292977 0.086380243 -0.99093086 9.0471716e-05
-0.016411196 0.03147715 -0.0013860654 0.10276888 0.070259005 -0.99222088 7.3013143e-05
-0.013232819 0.031636789 -0.001058424 0.1045569 0.056456547 -0.99291515 6.1449755e-05
-0.010021596 0.03082563 -0.00078321947 0.1036373 0.040724311 -0.99378115 5.8381655e-05
-0.0074331742 0.030985963 -0.00050468242 0.10354201 0.025344709 -0.99430215 6.1372666e-05
-0.004447896 0.031164737 -0.00020167229 0.10414907 0.018540585 -0.99438888 4.569369e-05
-0.0022091933 0.030953161 -1.2650115e-05 0.12978584 0.0049961354 -0.99152946 0.00019316675
-0.040345315 0.034548044 -0.0013020862 -0.86094826 -0.053116359 -0.50591171 0.02693068
-0.03806559 0.034596432 -0.0027883826 -0.62758434 0.086093277 -0.77377373 0.022987425
-0.034228913 0.034718636 -0.0028079222 0.037506931 0.077236615 -0.99630708 0.0014646397
-0.03154071 0.034554396 -0.0025918477 0.093637183 0.074978389 -0.99277914 0.00050299289
-0.028520713 0.034687225 -0.0022794509 0.10622211 0.073051788 -0.99165535 0.00032433544
-0.025667049 0.034465492 -0.0020369696 0.094555497 0.084718339 -0.99190831 0.000261868
-0.022506606 0.034501579 -0.0017449327 0.093016237 0.063886024 -0.99361289 0.00013142728
-0.019320559 0.034536306 -0.0014518237 0.092149258 0.052743483 -0.99434739 0.00010150843
-0.016603677 0.034385774 -0.0012336503 0.087479874 0.042736202 -0.99524915 9.3115646e-05
-0.013418218 0.033808954 -0.00099961902 0.093937382 0.030980371 -0.99509597 0.00012390473
-0.010408384 0.034156282 -0.00069762534 0.09385512 0.021498766 -0.99535376 0.00014034929
-0.0072210361 0.034528866 -0.00039834759 0.094019115 0.0068575069 -0.99554682 9.5201001e-05
-0.0044889785 0.034484565 -0.00015745068 0.08809343 -0.0067889858 -0.9960891 0.00017837563
-0.040379502 0.03773899 -0.0012547224 -0.67666543 -0.27511507 -0.68296099 0.063182481
-0.03807155 0.037577033 -0.002549482 -0.34067008 -0.030681595 -0.93968213 0.039812945
-0.034888718 0.03774412 -0.0027563428 0.0076800636 -0.091566496 -0.99576938 0.01059637
-0.031742342 0.037549075 -0.002618355 0.078247391 -0.041814897 -0.99605668 0.0019584838
-0.028484618 0.037567977 -0.002114787 0.084395111 -0.070708327 -0.99392045 0.0027618003
-0.025459781 0.037495341 -0.0018748009 0.074808076 -0.087116808 -0.99338537 0.003320205
-0.022476651 0.037527118 -0.0016289556 0.086109884 -0.097723827 -0.9914813 0.0034317207
-0.019381953 0.037617717 -0.0013738866 0.085943058 -0.10965154 -0.99024761 0.004370641
-0.016645264 0.037592039 -0.0011461683 0.07934735 -0.11851674 -0.98977667 0.0044762823
-0.013573311 0.037386082 -0.00092773116 0.09853936 -0.12919943 -0.98671043 0.0046341573
-0.010564443 0.037811257 -0.00073132745 0.084658921 -0.12013691 -0.98914105 0.0040505696
-0.0076228734 0.037639163 -0.00046653464 0.06958776 -0.15175337 -0.98596573 0.004584373
-0.0044249464 0.037846565 -0.00022721238 0.087628074 -0.16247264 -0.98281425 0.0045504291
-0.0014779639 0.038609937 -0.00013829159 0.10377158 -0.231924 -0.96718287 0.013156247
0.0003074393 0.038958393 -0.00014344971 0.13035579 -0.55602443 -0.82088017 0.0053141867
-0.045628767 0.041295905 -0.00068388256 -0.34945726 -0.76301193 -0.54377609 0.017134482
-0.043334305 0.040960062 -0.0013836605 -0.43119711 -0.66541243 -0.60934007 0.011421061
-0.040767286 0.040429939 -0.002041267 -0.38077626 -0.57871866 -0.72117549 0.038552094
-0.037558306 0.040748414 -0.0027946245 -0.029182587 -0.46578252 -0.88441789 0.020395679
-0.034692496 0.040716086 -0.0028352232 0.037984926 -0.47367823 -0.8798784 0.013174991
-0.032182585 0.040984359 -0.0028689355 0.032094821 -0.48284656 -0.87511665 0.0094626201
-0.028517468 0.040481806 -0.0025212748 0.038390961 -0.29451773 -0.95487458 0.008364317
-0.025544267 0.040533289 -0.0023440677 0.072820716 -0.27317071 -0.95920539 0.0056557711
-0.021954702 0.041056015 -0.0023001418 0.078375317 -0.42225674 -0.90308166 0.0033817536
-0.019321404 0.040996041 -0.0020344511 0.075723715 -0.41802078 -0.90527594 0.0034104539
-0.016498227 0.040604495 -0.0016786685 0.054328706 -0.32979962 -0.94248641 0.0044403919
-0.013588877 0.040576443 -0.0014741877 0.054249696 -0.32709035 -0.9434346 0.0041534044
-0.01055894 0.040687531 -0.0013639877 0.043472305 -0.3450726 -0.93756866 0.0046852115
-0.0074717742 0.040609445 -0.0012107634 0.031170204 -0.39949933 -0.91620344 0.0051767388
-0.0044674431 0.040625855 -0.0011348794 0.034607861 -0.46392429 -0.88519859 0.0067999596
-0.0015041472 0.040647678 -0.0011088905 0.016855702 -0.49234885 -0.87023473 0.0065918076
0.001562298 0.040800631 -0.0012307487 -0.00012540228 -0.6256851 -0.78007579 0.0086594839
0.0045259749 0.040684357 -0.0015594559 -0.081534639 -0.81078678 -0.57963508 0.0033364915
0.0074233641 0.040259518 -0.0015486038 -0.073990397 -0.8648898 -0.49647865 0.0018305255
0.010453075 0.040084466 -0.0015079107 0.023069711 -0.92115504 -0.3885116 0.0043864511
0.013462817 0.040271387 -0.0015142983 0.10974365 -0.94365972 -0.31219 0.0045357104
0.016523331 0.04074607 -0.0015056022 0.19301699 -0.95882148 -0.20834054 0.0043390533
0.019482374 0.04143982 -0.0014861997 0.24501707 -0.96331459 -0.10950641 0.0035074004
0.021223778 0.041929599 -0.0014332196 0.27950934 -0.9578951 -0.065662615 0.002768697
-0.051557187 0.043921512 -0.0013619302 -0.60541868 -0.77979487 -0.15933669 0.05486929
-0.049463119 0.043543477 -0.0015192371 -0.2513037 -0.90783131 -0.33569136 0.041304361
-0.046505507 0.043456409 -0.0015644068 -0.30451801 -0.8046391 -0.50972998 0.021445857
-0.044365127 0.043125492 -0.0024668279 -0.32756564 -0.73344475 -0.59561688 0.012343876
-0.041560959 0.042156775 -0.0029971323 -0.18358982 -0.69615746 -0.69401705 0.0088974554
-0.027396724 0.042012323 -0.0029911192 0.068745352 -0.57889682 -0.81249779 0.0057336772
-0.02487945 0.042120069 -0.0028813574 0.081879325 -0.54973441 -0.83131701 0.0051285396
-0.022305083 0.042265009 -0.0028271435 0.091480285 -0.55859572 -0.82437992 0.0032424782
-0.019517269 0.04259862 -0.0027327416 0.075199284 -0.51995552 -0.85087675 0.0031744731
-0.016421344 0.04275731 -0.002540268 0.058972925 -0.50250077 -0.86256313 0.0029990985
-0.013465935 0.043006577 -0.0024854119 0.033848636 -0.50756353 -0.86094922 0.0029394627
-0.0104056 0.042952642 -0.0024334816 0.0018383123 -0.53256041 -0.84639001 0.0028480508
-0.0075001707 0.042845547 -0.0024190503 -0.024517169 -0.57601148 -0.81707388 0.0028200881
-0.0046092197 0.042692371 -0.0024407397 -0.045971517 -0.62979394 -0.7754007 0.0031043529
-0.0015443447 0.042531505 -0.002513398 -0.070451453 -0.69232702 -0.71813637 0.003552217
0.0010877781 0.042299405 -0.0026434744 -0.13569374 -0.73037088 -0.66943675 0.003019942
0.02274533 0.042436026 -0.0015749026 0.31404617 -0.94934618 0.010807773 0.0039925482
0.025432514 0.043408282 -0.0016769904 0.35573801 -0.92998403 0.092629559 0.002874318
0.028204639 0.044530705 -0.0018237003 0.37561515 -0.91351765 0.15620109 0.0021855924
-0.052089598 0.046409443 -0.0014879239 -0.92816651 -0.33016586 -0.1717485 0.04294401
0.029746478 0.045253541 -0.0018562127 0.40885791 -0.89122367 0.19635583 0.0018689174
0.031052692 0.045825683 -0.0021702461 0.408061 -0.88888699 0.20824556 0.0015315898
0.034068525 0.047461424 -0.0020071401 0.45555773 -0.8036229 0.38295889 0.0027589288
-0.052277576 0.04927665 -0.0014767359 -0.99430889 -0.040720358 -0.098446786 0.0024838196
0.035053961 0.048646405 -0.0010707243 0.50289154 -0.72715384 0.46727666 0.0026111482
0.037017897 0.049600288 -0.0017931374 0.5334214 -0.66734076 0.51972872 0.0041201501
0.039566137 0.050985545 -0.0025677898 0.58862883 -0.60367739 0.53767067 0.0027755024
-0.052145675 0.052400995 -0.001513803 -0.99542934 0.05891725 -0.075161211 0.0022502507
0.037677169 0.051480666 -0.00037102404 0.54005247 -0.61066544 0.57916415 0.0023958858
0.03989185 0.052528284 -0.0015745835 0.58866304 -0.60362661 0.53769016 0.0027766991
-0.051691622 0.055449463 -0.0014668076 -0.99215007 0.095490448 -0.080745198 0.0018581434
-0.012659961 0.064189613 -0.0022998578 -0.35834628 0.63814497 -0.68143892 0.00022216987
-0.011369897 0.065287098 -0.0018822121 -0.36515996 0.63822395 -0.67773777 0.00039492629
-0.012202098 0.066654146 -0.00017978555 -0.38000181 0.6463266 -0.66171038 0.0004077208
-0.0096642757 0.066636398 -0.0014882849 -0.37560278 0.64491659 -0.66558629 0.00050528819
-0.0073550586 0.068199724 -0.0013649296 -0.4338671 0.6439293 -0.63017017 0.00041486492
-0.0059213582 0.068923123 -0.001673011 -0.45593563 0.63650835 -0.62207705 0.00062016561
-0.0044098059 0.069469556 -0.0023342972 -0.50060463 0.62699503 -0.59688544 0.00066139089
-0.0011941126 0.073214829 -0.0010044576 -0.52264971 0.63949698 -0.56380922 0.00024438699
0.00026224612 0.073135287 -0.0025842807 -0.53426939 0.64212328 -0.54975802 0.00011012
0.013959108 -0.078122467 0.00072795514 -0.10091244 -0.97540486 0.19596432 0.0042643473
0.016356125 -0.078279391 0.00098707783 -0.062185988 -0.9665882 0.24867702 0.0027489965
0.019373264 -0.0783756 0.00096993457 -0.016716518 -0.94879299 0.31545576 0.0022684752
0.022176143 -0.078399122 0.00075272185 0.00014853258 -0.93589407 0.35228151 0.0028268653
0.024588682 -0.0783865 0.0003988806 0.038485985 -0.91405189 0.40376726 0.0016927733
0.027392829 -0.078255594 1.3384431e-05 0.13890803 -0.81797737 0.5582273 0.0014196199
-0.00026096965 -0.075065404 0.0029633078 -0.52445269 -0.81884557 -0.23332673 0.017897094
0.0017735977 -0.075454049 0.0017961224 -0.43212709 -0.87663728 -0.21159707 0.016268084
0.0044979267 -0.076255806 0.0014496848 -0.27492896 -0.95568138 -0.10529528 0.0041260286
0.0075439657 -0.077020086 0.0015141109 -0.23671454 -0.97124374 -0.025531771 0.0044616181
0.010546446 -0.077582166 0.001402217 -0.17482254 -0.98088193 0.085485004 0.0036006991
0.013211079 -0.07781294 0.0019808747 -0.079248711 -0.98154706 0.17402591 0.0041330443
0.016300414 -0.077816293 0.0025607205 -0.019567499 -0.96442491 0.26363182 0.0027044413
0.019773642 -0.07773111 0.0025082226 0.021347018 -0.93752354 0.34726635 0.0022863809
0.022595111 -0.077530377 0.0023037647 0.12896878 -0.85894603 0.49555904 0.0033381588
0.025602238 -0.077341028 0.001745136 0.13915621 -0.7965917 0.5882833 0.0020114514
0.028753504 -0.076870553 0.0013120305 0.16168196 -0.78512412 0.59786206 0.00028727212
0.03030806 -0.077193707 0.00048850797 0.17131363 -0.79467541 0.58235961 0.00048286523
-0.0034247204 -0.072206855 0.0028921568 -0.47545817 -0.78168863 -0.40361175 0.0070724045
-0.0011924754 -0.073269516 0.0017196434 -0.5798012 -0.77958423 -0.23680997 0.016065471
0.00058358011 -0.074627295 0.0010961256 -0.52565801 -0.82446367 -0.20962657 0.013327854
-0.012053602 -0.069230787 0.0029310856 -0.33822489 -0.87399042 -0.34891942 0.011337412
-0.010184536 -0.069437087 0.002042725 -0.35810208 -0.83428949 -0.41919443 0.015082613
-0.0073664011 -0.069881938 0.0015125989 -0.33932906 -0.83925849 -0.42485419 0.0079944469
-0.0045123417 -0.070937693 0.0017125128 -0.41918799 -0.83724946 -0.35113353 0.0029926375
-0.0022976229 -0.071651369 0.00081324007 -0.54682678 -0.78271103 -0.29722714 0.0071604121
-0.018640388 -0.06628783 0.0026432918 -0.2635898 -0.80365849 -0.53352928 0.0040017306
-0.016252033 -0.066682026 0.0021567841 -0.24540238 -0.80315334 -0.5428834 0.0058170697
-0.01337351 -0.067383654 0.0016272964 -0.33608037 -0.79917407 -0.49836808 0.012814087
-0.010671972 -0.068156734 0.0010625045 -0.37323654 -0.76029766 -0.53164083 0.013597341
-0.0086156595 -0.068712652 0.0003942753 -0.45092204 -0.69152993 -0.56431878 0.0099446801
-0.030648898 -0.06319879 0.0025562849 -0.22165614 -0.90149283 -0.37172472 0.0073829023
-0.028339818 -0.063487202 0.002190629 -0.18086433 -0.8540715 -0.48769855 0.0011573423
-0.025426066 -0.063839972 0.0017882846 -0.16645114 -0.84365672 -0.51042861 0.0012969604
-0.022498734 -0.064275198 0.0014660764 -0.16934332 -0.82800895 -0.53453159 0.0026403444
-0.019547246 -0.064839214 0.0012779748 -0.24216463 -0.78968394 -0.56369805 0.0047617359
-0.016643114 -0.065262809 0.00073917303 -0.24309559 -0.70796162 -0.66309494 0.0004977067
-0.01442327 -0.065603212 0.00024457101 -0.29035318 -0.68196648 -0.67127997 0.00041915226
-0.042912029 -0.06025099 0.0023231427 -0.24820499 -0.94901866 -0.1943139 0.010902775
-0.040423311 -0.060581304 0.0016556288 -0.19555014 -0.93122649 -0.30753413 0.0011598878
-0.037560079 -0.0611674 0.0015471451 -0.187812 -0.92334282 -0.33491009 0.0017277033
-0.034502715 -0.061775163 0.0015235855 -0.20908406 -0.90201551 -0.37769294 0.0039645042
-0.031640537 -0.062247343 0.0013183313 -0.19988365 -0.89068162 -0.40832934 0.0063323844
-0.028691813 -0.062488575 0.00082241331 -0.14865163 -0.84602106 -0.51200688 0.0011503195
-0.025827847 -0.062716335 0.00033632398 -0.14801306 -0.81994492 -0.55297607 0.0011494508
-0.051490717 -0.057378575 0.0017648239 -0.76589358 -0.58692908 -0.2625286 0.045649692
-0.049306054 -0.057729684 0.0017003468 -0.36843023 -0.87541139 -0.31291211 0.012118435
-0.046630073 -0.058838703 0.0014614209 -0.33351153 -0.86261326 -0.38035303 0.0044293255
-0.043717809 -0.059627913 0.0011540432 -0.25992611 -0.91492081 -0.30880147 0.0062717022
-0.041286949 -0.059889272 0.00040217739 -0.18722257 -0.9280529 -0.3219713 0.0011466912
-0.052021783 -0.055534944 0.0014725977 -0.83010077 -0.46454376 -0.30843446 0.039398655
-0.05250385 -0.052567273 0.0015458431 -0.97911489 -0.13203128 -0.15460183 0.0013093478
-0.052657761 -0.049535379 0.0015119801 -0.99417025 -0.0074415887 -0.10756487 0.0033666575
-0.052555002 -0.04649087 0.0015858435 -0.98343486 0.10416132 -0.14834505 0.00079143257
-0.052164242 -0.043630026 0.0015912836 -0.98813856 0.12036568 -0.095364325 0.0032225912
-0.051859673 -0.041890919 0.002523995 -0.97271413 0.2304261 0.027037622 0.0095965639
-0.041376345 -0.036729019 0.00055963674 -0.80475211 0.19551732 -0.56048816 0.032297056
-0.0035258981 -0.036597066 1.4023921e-05 0.079764053 0.14864846 -0.985668 0.0044724187
-0.001271939 -0.036740739 0.00017989744 0.10180636 0.21143873 -0.97207469 0.0075874887
0.0012021258 -0.037209604 0.00055240659 -0.00067193742 0.30476427 -0.95242757 0.013837737
-0.040776331 -0.034265794 0.0019678751 -0.91474569 0.1317115 -0.3819586 0.022196468
-0.0035068248 -0.035649948 1.5279345e-05 0.087527543 0.011079593 -0.99610049 0.00061825966
-0.0013835771 -0.034401793 0.00019241923 0.12967069 0.012087373 -0.99148345 0.0013378237
0.0014044202 -0.034766186 0.00077329733 0.11325403 0.043929327 -0.99259448 0.0036162306
-0.040656105 -0.031351548 0.0018327488 -0.96395683 0.015295099 -0.26561856 0.0052100047
-0.0015869322 -0.031539086 0.00014363954 0.13890681 -0.021370752 -0.99007487 0.00021454405
0.00059705629 -0.031365357 0.00045828681 0.15249887 -0.0069639208 -0.98827916 0.00022730984
-0.040589392 -0.028470119 0.0016573366 -0.96942443 0.0057077766 -0.24532364 0.0027558794
-0.0014746954 -0.028631961 0.00013771698 0.13913409 -0.0077373781 -0.99024338 8.593122e-05
0.0006170196 -0.028571516 0.00046779626 0.13913408 -0.0077373022 -0.99024338 8.5932654e-05
-0.040562317 -0.02549047 0.0015850638 -0.96584564 0.014606154 -0.258706 0.0024803104
-0.0012629824 -0.025523316 0.00014883975 0.15690225 -0.0043492229 -0.98760462 5.8099235e-05
0.00071782508 -0.025619932 0.0004976159 0.1569023 -0.0043493351 -0.98760456 5.8137699e-05
-0.040553771 -0.022425467 0.0015609281 -0.9572584 0.030663237 -0.28760409 0.0020976407
-0.0011547963 -0.022417882 0.00014700368 0.16975369 -0.0048087798 -0.98547482 6.7725581e-05
0.0008177493 -0.022644635 0.00052605907 0.16975364 -0.0048086322 -0.98547482 6.7686458e-05
-0.040528208 -0.019534593 0.0014923963 -0.94643646 0.031812925 -0.32131913 0.0011368258
-0.0010992794 -0.019459475 0.00013944312 0.18205261 -0.003889092 -0.98328108 7.083315e-05
0.00092095532 -0.019643437 0.00055704388 0.18205263 -0.0038891747 -0.98328108 7.083315e-05
-0.040553123 -0.016545566 0.0015555058 -0.92105949 0.0081108194 -0.38933733 0.0035216655
-0.0010389708 -0.016472574 0.00013589971 0.19351427 -0.0038824922 -0.98108983 7.8549143e-05
0.0010265999 -0.016614944 0.00058973487 0.19351426 -0.0038825395 -0.98108983 7.8549128e-05
-0.040538576 -0.013503091 0.0015154774 -0.93350828 -0.00065730757 -0.35855541 0
-0.00098085962 -0.01346498 0.00012981278 0.20654456 -0.0061116768 -0.97841811 7.9010715e-05
0.0011352479 -0.013560085 0.00062470225 0.20654456 -0.0061116363 -0.97841811 7.9010715e-05
-0.040515102 -0.010540023 0.0014522258 -0.90364158 -0.0093446998 -0.42818764 0.0068954183
-0.00087658077 -0.010594505 0.00012803961 0.22284721 -0.0062435684 -0.97483343 0.00015349485
0.0011730257 -0.010635822 0.00063775951 0.22284733 -0.0062435516 -0.97483337 0.00015353182
-0.040515427 -0.0075394576 0.0014507042 -0.88828558 -0.084501579 -0.4514513 0.010898586
-0.00018796713 -0.0068111192 0.00023282983 0.23957631 -0.013702402 -0.97078085 0.00015208035
0.0014567352 -0.0075207958 0.0007528417 0.25703654 0.00094678754 -0.96640128 0.00019615267
-0.04229128 -0.0038278166 0.0026836516 -0.85671914 -0.041116636 -0.51414168 0.010239198
-0.040615134 -0.004565849 0.0015714951 -0.87359047 -0.11844067 -0.47202918 0.012164212
-0.00030871286 -0.0046845665 0.00020665639 0.26133457 -0.0049114116 -0.96523583 0.00028859844
0.00083551038 -0.0043851896 0.00054650381 0.25626129 -0.0086088683 -0.96656924 0.00012571506
-0.042225529 -0.001438255 0.0024982255 -0.85000831 -0.0091008795 -0.52669084 0.010368648
-0.040656708 -0.0016219285 0.0014529612 -0.85763723 -0.028474495 -0.51346612 0.015185719
-0.0002543804 -0.001585282 0.00019351384 0.26972324 -0.013011969 -0.96284997 0.00017803362
0.00094348117 -0.0014325373 0.00058093306 0.26635033 -0.0073223575 -0.96384853 7.1342503e-05
-0.042223245 0.0014099035 0.0024898471 -0.86318183 0.024940191 -0.50427687 0.013686239
-0.040684234 0.001759414 0.0016925633 -0.88198876 0.029752724 -0.47033036 0.015382753
-0.00017506994 0.0015623295 0.00020327461 0.27021873 -0.0089965407 -0.96275693 0.0001473134
0.00081372319 0.0017679173 0.00046920334 0.26716992 -0.00016802963 -0.96364945 8.428908e-05
-0.042316843 0.0040455186 0.0027304462 -0.83819276 0.076546967 -0.53997552 0.013450664
-0.040619317 0.0047463463 0.0016032929 -0.87278968 0.098767318 -0.47799909 0.013994738
-0.0005142712 0.0051557897 0.00012819959 0.25206065 0.0080691939 -0.96767783 3.6237561e-05
0.00098933314 0.0043625487 0.00052498956 0.25568119 0.0072510582 -0.96673399 2.1444293e-05
-0.040595975 0.0076493747 0.0015922253 -0.88707209 0.092129827 -0.45234421 0.0099788792
-0.00081640622 0.0075556086 6.4608823e-05 0.24176717 0.0085491184 -0.97029668 3.3103985e-05
0.0009478163 0.0071176374 0.00052888325 0.2477219 0.0085813403 -0.96879321 2.5715493e-05
-0.040557969 0.010523319 0.0014906347 -0.908167 0.032054149 -0.41737896 0.0055082212
-0.00073259301 0.010345655 0.00010825042 0.23350903 0.0064952434 -0.97233295 3.2994729e-05
0.00065002311 0.010403192 0.00045582798 0.23038103 0.0080406806 -0.97306728 1.8623427e-05
-0.040556196 0.013466835 0.0014834851 -0.92307389 0.00056168897 -0.38462225 0.0025700857
-0.00055152824 0.013590103 0.00016159701 0.21249534 0.0072002364 -0.97713554 4.7147732e-05
0.00082197401 0.013485859 0.00051016919 0.21738501 0.0066002258 -0.97606361 3.5076249e-05
-0.040521089 0.016468978 0.0013900151 -0.93535018 -0.0076724729 -0.35363981 0.00010410914
-0.00038448331 0.016855329 0.00019964692 0.19844344 0.0080363369 -0.98007941 4.6406531e-05
0.0010026429 0.016602345 0.00057156361 0.20873629 0.0091789048 -0.97792888 5.7997539e-05
