# .PCD v0.7 - Point Cloud Data file format
VERSION 0.7
FIELDS x y z normal_x normal_y normal_z curvature
SIZE 4 4 4 4 4 4 4
TYPE F F F F F F F
COUNT 1 1 1 1 1 1 1
WIDTH 556
HEIGHT 1
VIEWPOINT 0 0 0 1 0 0 0
POINTS 556
DATA ascii
0.066587269 0.046712533 -0.0097044297 0.3337726 0.27922732 -0.90034878 0.0032637995
-0.066356324 0.048803378 -0.0091851195 -0.37116775 0.20363523 -0.90596205 0.0084378123
-0.064446963 0.049476486 -0.0096756881 -0.24503535 0.27718359 -0.92904627 0.00645637
-0.061484054 0.049510296 -0.010216359 -0.13644528 0.42995003 -0.89248288 0.0067334934
-0.058482334 0.049536381 -0.010293224 0.053453784 0.55823022 -0.82796234 0.0035842366
-0.055568781 0.049283568 -0.010106402 0.14226247 0.62139481 -0.77047378 0.0032580087
-0.05270825 0.048775364 -0.0097669847 0.24303938 0.67130947 -0.70019674 0.0024162054
-0.050494209 0.048398707 -0.009278073 0.31306636 0.68599635 -0.65680927 0.0025394403
0.056405749 0.048339348 -0.0092311138 -0.29420143 0.64142579 -0.70853269 0.0025372629
0.058650494 0.048795689 -0.0095592989 -0.19088389 0.58486849 -0.78834772 0.0040464993
0.061506379 0.049217831 -0.0097329598 -0.044763803 0.50236773 -0.86349458 0.0045872531
0.064347632 0.049371962 -0.009565779 0.11876718 0.39080814 -0.91277778 0.0043271813
0.066430755 0.048736278 -0.0092723025 0.22014716 0.33748665 -0.91522568 0.0043355296
-0.063697554 0.05124421 -0.0090986183 -0.14924394 0.41099778 -0.89933705 0.0082681971
-0.06161331 0.051249657 -0.0092043318 -0.014866474 0.56436294 -0.82539296 0.0054217856
-0.059211235 0.051176697 -0.0091485241 0.1034774 0.65734303 -0.74645334 0.0025420128
-0.0034853711 0.0027389727 -0.0077636545 -0.09260451 -0.82068771 -0.56382275 0.0013271592
9.7828044e-05 0.0027990753 -0.0081039127 -0.047320914 -0.77871019 -0.6255967 0.00017089736
0.0037215482 0.0028598392 -0.0084479889 -0.0081132241 -0.78741825 -0.61636573 0.0002632816
-0.01916967 0.0057788924 -0.0075309039 -0.2409348 -0.81077975 -0.53346664 0.0015117767
-0.016344128 0.0052076103 -0.0077469544 -0.20891951 -0.82743925 -0.52124566 0.0011609594
-0.013508831 0.0043722647 -0.0075925426 -0.2032426 -0.83084542 -0.51806211 0.001507721
-0.010549601 0.0039095893 -0.0079121711 -0.16652174 -0.8313176 -0.53026563 0.0015189906
-0.0068774135 0.0034698576 -0.008116073 -0.12059537 -0.8077234 -0.57709587 0.0014318245
-0.0048777112 0.0032454492 -0.0082088858 -0.10389441 -0.80574685 -0.5830763 0.0018650882
-0.0029123775 0.0032573415 -0.0085394708 -0.084504224 -0.80314159 -0.58976495 0.0022434783
0.00066084735 0.0033257236 -0.0088927904 -0.041864883 -0.77646887 -0.62876344 0.000130796
0.0047654337 0.0031748724 -0.0088909362 4.046192e-05 -0.78740561 -0.61643529 0.00022806966
0.0074661206 0.0031466458 -0.0087372018 0.013274183 -0.744959 -0.66697818 0.00093493471
0.010359687 0.0030430893 -0.0084594851 0.026156906 -0.75238991 -0.65819854 0.00066342269
-0.028228808 0.0087719345 -0.0067550973 -0.34864548 -0.8373673 -0.42102548 0.0020842259
-0.025235822 0.0082413619 -0.007833167 -0.30588126 -0.80388379 -0.51010537 0.0023484749
-0.022660052 0.0070850546 -0.0074694813 -0.30339777 -0.81417555 -0.49504349 0.0020305011
-0.019921632 0.0064670895 -0.0081269005 -0.25459534 -0.78403342 -0.56610322 0.0014721487
-0.017763827 0.0060852342 -0.008517378 -0.23031503 -0.81466287 -0.53224003 0.0014785689
-0.036214426 0.011976466 -0.0062495042 -0.43279019 -0.81474113 -0.38586214 0.0036013031
-0.034417439 0.011520971 -0.0070493007 -0.36043972 -0.80714113 -0.46755365 0.0011374665
-0.03154229 0.010625493 -0.007595981 -0.34447369 -0.80229789 -0.4874998 0.0014511256
-0.028879184 0.0097994022 -0.0080318842 -0.34317935 -0.80164677 -0.48947978 0.0026155694
-0.026409201 0.0091295633 -0.0085500218 -0.29247352 -0.78799772 -0.5417738 0.00084085239
-0.039824374 0.014423966 -0.0072843083 -0.41206896 -0.76714492 -0.49161756 0.0011383267
-0.037624117 0.01357865 -0.0077914773 -0.41107833 -0.76994443 -0.48805761 0.0012285614
-0.034376495 0.012592887 -0.0087158689 -0.33587539 -0.71850359 -0.60904872 0.00062217063
-0.045512576 0.017601246 -0.0065585743 -0.50056344 -0.7398299 -0.44954193 0.0008879744
-0.04355371 0.016980633 -0.0076467451 -0.46830106 -0.70820886 -0.5283317 0.00082973693
-0.041357286 0.015586596 -0.00780789 -0.43621379 -0.71705556 -0.54364413 0.0011614379
-0.048818693 0.020581191 -0.0074856919 -0.50666618 -0.68106896 -0.52861565 0.0011223844
-0.046705335 0.019409593 -0.0080095027 -0.50149256 -0.70007402 -0.50833219 0.00052011863
-0.044490796 0.018227784 -0.008613185 -0.5113582 -0.69387347 -0.50700337 0.0023775527
-0.054119542 0.023653444 -0.0060250075 -0.56712896 -0.74188381 -0.35773349 0.0031402898
-0.051987246 0.023226341 -0.0078442926 -0.52705133 -0.66526502 -0.52880931 0.00097471417
-0.049986493 0.021609608 -0.0077504972 -0.5066241 -0.68077517 -0.52903426 0.0009678335
-0.057242692 0.026405681 -0.0062618284 -0.59366351 -0.67195314 -0.44276711 0.0007208946
-0.055053458 0.025740024 -0.0078605572 -0.54726142 -0.64963478 -0.52771169 0.0010618462
-0.053444754 0.024563052 -0.0081362547 -0.52940124 -0.65586966 -0.53811657 0.00092206761
-0.060310755 0.029566815 -0.006505149 -0.64240474 -0.59600693 -0.48175925 0.0012760325
-0.058500454 0.028566543 -0.0075220512 -0.62604123 -0.60031497 -0.49768904 0.0014346074
-0.056503959 0.027332498 -0.0083320485 -0.57960981 -0.61748648 -0.53175443 0.0012702533
-0.00013260443 0.029959761 -0.0089929439 0.069049031 0.77368069 -0.62980193 0.0013175901
0.0021361986 0.029916774 -0.0088896826 0.038600262 0.7863524 -0.61657107 0.00095352961
0.0041160379 0.029932441 -0.0088602854 -0.0012226142 0.80160248 -0.59785604 0.001910441
0.0070684408 0.029916512 -0.0088743139 -0.042949058 0.80090404 -0.59725046 0.00083875691
0.0090885302 0.029941119 -0.0089522731 -0.060981058 0.7797491 -0.62311536 0.0009332436
-0.063095525 0.032512195 -0.006243689 -0.68192112 -0.53283852 -0.50106567 0.0012807911
-0.06135847 0.031755675 -0.007584481 -0.63600999 -0.5016405 -0.58638561 0.0018000779
-0.059347346 0.030380137 -0.0084902151 -0.59587079 -0.55175376 -0.58352876 0.0015510581
-0.015078585 0.032990534 -0.0087951683 0.24759959 0.78214812 -0.57178557 0.0023988886
-0.013104518 0.032646239 -0.0084810322 0.2232767 0.80904728 -0.54368198 0.0013664557
-0.010439683 0.032363907 -0.0078908103 0.19720282 0.84091949 -0.5039497 0.0021778133
-0.0074966443 0.03190212 -0.007607969 0.16272706 0.86240578 -0.47934973 0.0013982408
-0.0044609881 0.03144379 -0.0075679286 0.12289651 0.86140573 -0.49282509 0.0030420863
-0.0014607674 0.031074621 -0.0075615211 0.08522851 0.86557424 -0.49347472 0.0023711473
0.0014550709 0.030903416 -0.007486097 0.047296803 0.86739331 -0.49537048 0.0022386534
0.0044987798 0.030833548 -0.0074522998 0.0076248762 0.87010747 -0.49280301 0.0021516292
0.0075858757 0.030844251 -0.0074911364 -0.032327995 0.87427682 -0.48435006 0.002278216
0.01046534 0.031018814 -0.007560072 -0.083669648 0.87187624 -0.48252589 0.0020235872
0.013485267 0.031369522 -0.0075324276 -0.13434903 0.86646014 -0.4808296 0.0025667252
0.016480671 0.031898424 -0.0075618476 -0.18933523 0.86892611 -0.45729592 0.0016457062
0.01926348 0.032346066 -0.007932595 -0.22161214 0.84824795 -0.48100269 0.0017752885
0.021787519 0.032686334 -0.0085858284 -0.24467939 0.80655503 -0.5381459 0.0011841095
-0.063880287 0.034827452 -0.0073739472 -0.6654014 -0.45716405 -0.59012026 0.0014625592
-0.062294424 0.033982638 -0.0085537815 -0.64313638 -0.43906641 -0.62737256 0.0020422593
-0.022051616 0.035586316 -0.0084300144 0.31130928 0.79867244 -0.51498437 0.0017860178
-0.019432573 0.035060868 -0.0077020698 0.29576451 0.83788741 -0.45876807 0.0017489191
-0.016471708 0.034142639 -0.0076083015 0.24466757 0.83852929 -0.48683307 0.0017424145
-0.013661073 0.033625249 -0.0071363971 0.23195115 0.85061896 -0.47185373 0.0018226905
-0.01098824 0.033241559 -0.006487438 0.20393983 0.86368358 -0.46093297 0.0015662605
0.02002055 0.033271577 -0.0066722869 -0.23197941 0.86693323 -0.44114897 0.0018433002
0.022652611 0.033689529 -0.0073271021 -0.24276985 0.85862291 -0.45147482 0.0019289209
0.025498008 0.034362849 -0.0075953174 -0.25585386 0.84680116 -0.46633315 0.001845552
0.028386712 0.035184462 -0.0077117942 -0.28505129 0.84902835 -0.44485581 0.0015874328
0.030858422 0.035661515 -0.0084097581 -0.31478852 0.80687129 -0.49986681 0.0012143744
-0.066463538 0.038114961 -0.0068329498 -0.69835228 -0.40212148 -0.59211701 0.0022213187
-0.065101877 0.037431139 -0.0079748454 -0.68002838 -0.39637125 -0.61680722 0.0033455158
-0.030252004 0.038881246 -0.0087353103 0.38114816 0.77879709 -0.49819803 0.0017575339
-0.028082117 0.038330469 -0.0080709858 0.36684805 0.80714399 -0.46253765 0.0016557871
-0.025392683 0.037412707 -0.0076068626 0.3458001 0.81521094 -0.46460027 0.0021772664
-0.022722537 0.036619153 -0.0071444549 0.32273412 0.82773417 -0.45901951 0.0014026212
-0.020514173 0.036134753 -0.0062779509 0.31466508 0.84145182 -0.43925464 0.0011619526
0.029374966 0.0361952 -0.0064405962 -0.30392066 0.85894698 -0.41211924 0.0016265246
0.031720158 0.036643784 -0.007200256 -0.322588 0.84064603 -0.43503034 0.0018492085
0.034474541 0.037608739 -0.0075651538 -0.36892197 0.8115539 -0.45307487 0.0027536817
0.036963593 0.038458388 -0.0081068268 -0.40805325 0.78641528 -0.46372783 0.002027343
0.039049171 0.038981453 -0.0089223627 -0.3991271 0.70657492 -0.58433676 0.0015194882
0.068777025 0.037777793 -0.0078485431 0.65446621 -0.076176494 -0.75224406 0.0011195436
-0.067300946 0.040741418 -0.0074371411 -0.70649153 -0.31191483 -0.63527852 0.0024138486
-0.065677993 0.03983758 -0.0086682895 -0.6568979 -0.27039427 -0.70382673 0.0031563297
-0.036405969 0.0418607 -0.0087425867 0.37879187 0.7480194 -0.54496217 0.001087442
-0.034197781 0.041292425 -0.0079487776 0.38839257 0.78700691 -0.47934464 0.0020546007
-0.031548385 0.040252943 -0.0075296354 0.37018186 0.80513191 -0.4633874 0.0017246989
-0.029086871 0.039431263 -0.0069167111 0.37902939 0.81228215 -0.44332209 0.0015292146
0.037897885 0.039574262 -0.0070566372 -0.42503113 0.7930612 -0.43635121 0.0017476355
0.040429007 0.040721748 -0.0075758882 -0.45590082 0.76855648 -0.44886014 0.0016879969
0.042669922 0.041572914 -0.0083200959 -0.45288619 0.73261011 -0.5081107 0.0019604967
0.068566985 0.040211931 -0.008537543 0.64816952 -0.052246168 -0.75970167 0.0010342721
0.069727957 0.041448221 -0.0074783363 0.68123406 -0.020152025 -0.73178822 0.0013245012
-0.069404297 0.044071767 -0.0064415387 -0.72583783 -0.2365925 -0.64589745 0.0020761748
-0.067833073 0.043460548 -0.0079028606 -0.68802428 -0.18733971 -0.7010895 0.0036755337
-0.04216652 0.044916034 -0.008556149 0.38690156 0.77463394 -0.50024951 0.002204733
-0.04014178 0.044309825 -0.0079526706 0.41095287 0.77189696 -0.48506993 0.0025455735
-0.037589245 0.043239396 -0.0075701489 0.39656532 0.77784538 -0.48753724 0.0018124952
-0.035233196 0.042423666 -0.0069179456 0.40517005 0.79814279 -0.44587594 0.0012728248
0.041658957 0.042220861 -0.0063326764 -0.48174614 0.76634508 -0.4250128 0.0011968903
0.043729916 0.042886119 -0.0072833686 -0.45714211 0.75350165 -0.47250018 0.00222086
0.046305891 0.044109862 -0.0077905878 -0.43616456 0.73822904 -0.51456612 0.0026943085
0.048562288 0.044795871 -0.0086329393 -0.39456138 0.68290293 -0.61478853 0.00095718092
0.068248473 0.04327165 -0.0089654122 0.60423517 0.048104957 -0.79535264 0.002223239
0.069573767 0.043763615 -0.0076645166 0.67905885 0.056306552 -0.73192126 0.0018656389
-0.069714688 0.046691239 -0.0068229977 -0.68240917 -0.11824618 -0.72134286 0.0045223814
-0.067968994 0.046506617 -0.0082907816 -0.59112692 -0.054437231 -0.80473942 0.0029306791
-0.048347626 0.047851827 -0.0088116294 0.32185605 0.70256233 -0.63467705 0.0019850906
-0.04614627 0.047354165 -0.0080519896 0.36242491 0.75026095 -0.55295271 0.0030701077
-0.043480117 0.046344932 -0.0075091035 0.3941896 0.77591217 -0.49251893 0.002060937
-0.041130021 0.045513153 -0.0068912129 0.41981062 0.78787076 -0.45057577 0.0014906736
0.047249008 0.045470204 -0.0066001862 -0.46793234 0.74786484 -0.47089028 0.0020129895
0.049602013 0.046314675 -0.007414957 -0.40988317 0.74112648 -0.53172112 0.00167222
0.052131321 0.047211725 -0.008123464 -0.36352658 0.69306129 -0.62250662 0.0017785345
0.054387081 0.047815971 -0.0087693073 -0.31992227 0.6613732 -0.67840642 0.0028624744
0.06846761 0.04648973 -0.0084425714 0.54241538 0.14414433 -0.8276521 0.0030588717
0.070060864 0.046329092 -0.0070111481 0.6658259 0.094135255 -0.74014491 0.00221154
-0.069984704 0.049506579 -0.0068432041 -0.626571 -0.017477086 -0.77916831 0.0085225115
-0.067744277 0.04961374 -0.0083361259 -0.48612645 0.078560434 -0.87035012 0.004451782
-0.06578511 0.05081084 -0.0088928286 -0.2262142 0.28292507 -0.93208396 0.0078992369
-0.055145174 0.050734803 -0.0087440712 0.19595382 0.66730148 -0.7185477 0.0017827982
-0.052289054 0.050168443 -0.0081108734 0.30117643 0.74584651 -0.59414279 0.002582039
-0.049602956 0.049421277 -0.0075201294 0.34453368 0.77045798 -0.53636837 0.0016406239
-0.046987414 0.048603307 -0.0068379994 0.39517698 0.7730211 -0.4962596 0.0019190683
0.052897375 0.04868855 -0.0068848035 -0.42321461 0.72590977 -0.54216629 0.0022512062
0.055454243 0.049543645 -0.0075665261 -0.34664875 0.69896388 -0.62552708 0.0025642773
0.058273885 0.050249308 -0.008236534 -0.26754686 0.66183281 -0.70028281 0.0034935304
0.061226618 0.05066897 -0.0087735476 -0.134546 0.57493401 -0.80706149 0.0045241285
0.065196894 0.050742421 -0.0088907303 0.055938955 0.4269751 -0.9025315 0.0072059892
0.067217164 0.049669396 -0.0086086169 0.24438672 0.30690575 -0.91982818 0.0050334451
0.069898032 0.049392682 -0.0067706853 0.60580128 0.13485502 -0.78410399 0.0048830248
-0.07010705 0.052503217 -0.006687243 -0.48518908 0.11146835 -0.86727524 0.0098126959
-0.067514338 0.052490044 -0.0078003542 -0.24586579 0.31389093 -0.91707283 0.011874522
-0.064548485 0.052629501 -0.0082201436 -0.057324376 0.49202502 -0.86869174 0.0085958662
-0.061502572 0.05276306 -0.0080317734 0.096695438 0.61639094 -0.78148073 0.0034516333
-0.058500763 0.052541267 -0.0076682256 0.15620247 0.71948254 -0.6767168 0.0028580686
-0.05559491 0.052032482 -0.0073746643 0.24986684 0.75908953 -0.60112363 0.0028814494
-0.053001661 0.051530331 -0.0068145455 0.34091434 0.76995587 -0.53939354 0.0016527782
0.056529734 0.051220383 -0.0063128062 -0.41824397 0.70987654 -0.56669855 0.0025495959
0.058725882 0.051874127 -0.0068545681 -0.35291585 0.67805457 -0.64474219 0.0037115177
0.061435383 0.052524995 -0.0074409167 -0.24701539 0.59849161 -0.76209664 0.0033097051
0.064375006 0.052577745 -0.0080048135 -0.019715628 0.45503008 -0.89025778 0.0062715155
0.067216597 0.052520771 -0.0076806131 0.18210062 0.35915849 -0.91533852 0.0063136183
0.069510646 0.052598771 -0.0064623668 0.55789262 0.18477449 -0.80908239 0.0070434893
-0.069960125 0.055088758 -0.0063416697 -0.27330947 0.33814561 -0.90053284 0.012845431
-0.067511804 0.055334479 -0.0066712275 -0.095659845 0.43785352 -0.89394271 0.0099573126
-0.064610854 0.054986645 -0.0067294207 0.099511534 0.57983333 -0.80863512 0.010172956
-0.061723214 0.054489333 -0.0065099881 0.19120997 0.68497258 -0.70303011 0.0059822295
-0.059461486 0.054142784 -0.006114956 0.26218989 0.7380321 -0.62174362 0.0026315644
0.062350988 0.054362807 -0.0063366876 -0.33475459 0.6296466 -0.70105952 0.0061282478
0.064598188 0.055053029 -0.0065810811 -0.18633044 0.50781542 -0.84107339 0.010476686
0.06726595 0.055534456 -0.0065693799 0.00085793308 0.41061842 -0.91180688 0.014117527
0.069286674 0.054686412 -0.0063241567 0.1999497 0.32829762 -0.9231689 0.0080084717
0.067299165 0.057185024 -0.0060530202 -0.11090361 0.33113015 -0.93704492 0.011981005
-0.01293305 0.0027984511 -0.0047291517 -0.17456746 -0.85563117 -0.48725924 0.00062353775
-0.0062012421 0.0020229316 -0.0055852686 -0.13200998 -0.84509349 -0.51806402 0.0013801851
-0.022533903 0.0055285431 -0.004215789 -0.323643 -0.84970248 -0.41624621 0.0013738356
-0.019738365 0.0050081415 -0.005581887 -0.31494975 -0.8502937 -0.42167202 0.0017354487
-0.016445206 0.0039858255 -0.0053774123 -0.21936901 -0.85241026 -0.47463045 0.00039497481
-0.014276323 0.0032977818 -0.0051774066 -0.21732917 -0.84876019 -0.48205209 0.00033631842
-0.028187457 0.0077224593 -0.0043262569 -0.35894877 -0.86581451 -0.34859881 0.0019938042
-0.025859814 0.0073473938 -0.0057163127 -0.3360444 -0.86288965 -0.3774859 0.00084135617
-0.037592299 0.011657352 -0.0035513027 -0.4447996 -0.84373719 -0.30043441 0.0019438497
-0.035309073 0.010923668 -0.0048884852 -0.40266365 -0.85412073 -0.32915014 0.0020588797
-0.031614393 0.0093248701 -0.0047742412 -0.36123866 -0.87118232 -0.33248776 0.0014960547
-0.042736463 0.014426306 -0.0035314956 -0.48773807 -0.81899387 -0.30225933 0.0017687868
-0.040422227 0.013572514 -0.0048408271 -0.46567839 -0.82706326 -0.3148174 0.0016830213
-0.037465382 0.012239625 -0.0054282793 -0.43318403 -0.84237874 -0.32054606 0.0015693353
-0.046158381 0.017136427 -0.004581565 -0.53673255 -0.79098696 -0.29369691 0.0017901871
-0.043924574 0.015655728 -0.0047547761 -0.5253824 -0.79582655 -0.30105385 0.0018440064
-0.051172376 0.020521512 -0.0039340272 -0.57735586 -0.76679295 -0.28051534 0.0014560985
-0.04947295 0.019480985 -0.0045452258 -0.55957347 -0.77706677 -0.28817517 0.0016982117
-0.047651034 0.018388363 -0.0051999679 -0.54830676 -0.78524631 -0.28765953 0.001799603
-0.054599524 0.023268575 -0.0043093842 -0.59736419 -0.73934197 -0.31069198 0.0026630906
-0.052730128 0.021976784 -0.004693314 -0.57794654 -0.75950384 -0.29854953 0.0022924847
-0.058109351 0.026166147 -0.0042732731 -0.61686957 -0.71428931 -0.33054933 0.0026593124
-0.056128222 0.024711827 -0.0047157053 -0.61242509 -0.73915696 -0.28032586 0.0017521734
-0.060992945 0.029008692 -0.0043026372 -0.6860258 -0.64800727 -0.33084011 0.0018366105
-0.05956202 0.027917108 -0.0050249863 -0.6517297 -0.64507109 -0.39891315 0.0011411549
-0.063537993 0.03212969 -0.0047322363 -0.70257312 -0.57510853 -0.4190957 0.001301432
-0.062143426 0.030625064 -0.0049404483 -0.68980664 -0.59943312 -0.40601334 0.0011292126
-0.0069095939 0.032802809 -0.0055456292 0.1621559 0.92592937 -0.34111622 0.0027160181
-0.0043778783 0.032613166 -0.0051067732 0.13455904 0.92705268 -0.34995306 0.0025060459
-0.0014390455 0.032432232 -0.004633991 0.11377832 0.94002533 -0.32156959 0.0028070693
0.0014757368 0.032231819 -0.0045655048 0.063179702 0.9480744 -0.31171033 0.0030801252
0.0044695488 0.032140315 -0.004543893 0.011848713 0.94861585 -0.31620815 0.0027381293
0.0075110029 0.032145936 -0.0045790034 -0.032389514 0.95342165 -0.29989669 0.0026666513
0.010490452 0.032356419 -0.0045523327 -0.10160253 0.94522864 -0.31019327 0.002929616
0.013310347 0.032585893 -0.0047358386 -0.15101127 0.93444473 -0.32250389 0.002407619
0.016119828 0.032780383 -0.0055403113 -0.19253752 0.92512524 -0.32721937 0.0027841984
-0.066488624 0.035388835 -0.0039796969 -0.76257515 -0.52277333 -0.38103434 0.0029962973
-0.064938679 0.034229495 -0.0051356154 -0.71660775 -0.54752362 -0.43207788 0.0019034129
-0.018595284 0.035750188 -0.0056535453 0.30986166 0.88660699 -0.34338585 0.0022338543
-0.016333116 0.035427894 -0.0048504192 0.28222016 0.90682113 -0.31309292 0.0024395317
-0.013534565 0.034695711 -0.0046139457 0.25645 0.91461396 -0.31259343 0.002605981
-0.01043412 0.03389769 -0.0045473664 0.20450652 0.93261755 -0.29732388 0.0024418852
-0.0075959489 0.033437543 -0.0042642853 0.15891829 0.94376773 -0.28990927 0.0025175635
-0.0047178473 0.033172913 -0.0037358077 0.12276125 0.96460748 -0.2333712 0.00082311081
-0.0026896242 0.033005606 -0.0032886856 0.1011793 0.96997851 -0.22114368 0.0019001485
0.014352344 0.033160873 -0.0036081958 -0.14442545 0.94784296 -0.28413934 0.0029521789
0.016619744 0.033385072 -0.0041200598 -0.1899458 0.94161403 -0.27799919 0.0024461681
0.019483238 0.033928797 -0.0045538526 -0.22975361 0.9303419 -0.28579235 0.0022954291
0.022447152 0.034764018 -0.004554207 -0.26991954 0.92073238 -0.28177172 0.0016088303
0.025281966 0.035492729 -0.0047934446 -0.27663016 0.91364932 -0.29786009 0.0022354485
0.027450256 0.035826903 -0.0056249294 -0.30784947 0.89287889 -0.32862759 0.0021610647
-0.06757801 0.037820369 -0.0048389174 -0.77139103 -0.4494091 -0.45054108 0.0034048224
-0.065938406 0.03628343 -0.0059281657 -0.69338405 -0.4209412 -0.58483088 0.0012097533
-0.025148174 0.038540367 -0.0050428989 0.36601114 0.87701434 -0.31125817 0.0021758187
-0.022542777 0.037595659 -0.00470878 0.35768485 0.8760367 -0.32345197 0.002864413
-0.019521933 0.036564697 -0.0043492303 0.30423096 0.90736008 -0.29007089 0.0030565383
-0.017391877 0.036126319 -0.0038490081 0.27052081 0.92452133 -0.26847506 0.0021222823
0.026432471 0.036210354 -0.003642519 -0.27952158 0.92297769 -0.26453695 0.002074152
0.0285834 0.036642764 -0.0044457763 -0.30269337 0.91136134 -0.27892148 0.0023598194
0.031498928 0.03764455 -0.0045274869 -0.35975277 0.88883454 -0.28381535 0.0023516763
0.033972591 0.03857062 -0.0049068243 -0.40314278 0.86668539 -0.29382351 0.0024822887
-0.069637157 0.041142184 -0.0044884756 -0.80220318 -0.37001219 -0.4685733 0.0049674679
-0.068633467 0.040257301 -0.0055113174 -0.78481668 -0.37492883 -0.49344823 0.0043377909
-0.033389222 0.041986663 -0.0057878257 0.4254154 0.8352015 -0.34851137 0.0030051293
-0.031339478 0.041390408 -0.0048448332 0.41254982 0.84515244 -0.33988237 0.0017433623
-0.028473401 0.040093366 -0.0046278592 0.38673007 0.86903346 -0.30857855 0.0024006187
-0.026274599 0.039349455 -0.0041741105 0.36294022 0.88472235 -0.29247355 0.0023048159
0.03511798 0.039385933 -0.0041135345 -0.39865941 0.86841631 -0.29482839 0.0023988346
0.037507683 0.040464435 -0.0045180027 -0.45162857 0.84220076 -0.29449886 0.0027980648
0.039651457 0.041591775 -0.0048937611 -0.50831562 0.81706631 -0.27206239 0.0021279815
-0.070431687 0.043498367 -0.0046767159 -0.81536579 -0.30434394 -0.49249694 0.0041897185
-0.037229348 0.044335753 -0.0049069063 0.43291846 0.83360231 -0.34305793 0.0020134684
-0.034477152 0.043068606 -0.0045797355 0.41787004 0.84197521 -0.34126577 0.001788002
-0.032292407 0.042243801 -0.0038148675 0.41417101 0.8646881 -0.28421274 0.0020021831
0.041025668 0.04264548 -0.0043156804 -0.49600852 0.81827211 -0.29052746 0.0020199663
0.043348417 0.044008072 -0.0046054856 -0.5014587 0.80672812 -0.31261614 0.0030523164
0.045220148 0.044778436 -0.0055528563 -0.49894965 0.79093015 -0.35422981 0.0034713284
-0.072262712 0.047037113 -0.0035771739 -0.83188945 -0.27864543 -0.47991329 0.0032169155
-0.071220808 0.046400722 -0.004935856 -0.81807292 -0.2267357 -0.52853358 0.0060822438
-0.042983461 0.047501814 -0.0047923648 0.44016892 0.81916004 -0.36773387 0.0022222807
-0.040431205 0.046236541 -0.0044787866 0.43848717 0.82587713 -0.35447982 0.001954261
-0.038205191 0.04523918 -0.0039089811 0.42857763 0.83410865 -0.34725201 0.0018296788
0.044642832 0.045210134 -0.0036711793 -0.51347369 0.80629444 -0.29365608 0.0019430813
0.046530992 0.046118151 -0.0044571869 -0.51316816 0.79329908 -0.32762006 0.0030295402
0.048883978 0.047428083 -0.0049235746 -0.51010132 0.78230566 -0.3574836 0.0033407938
0.071516909 0.04718307 -0.0050930684 0.67521447 0.10671012 -0.72986186 0.0015873946
-0.072692759 0.049597759 -0.0039715311 -0.77401632 -0.22090228 -0.59338087 0.0057394928
-0.071451269 0.049449518 -0.0055080559 -0.75334036 -0.12935802 -0.64478266 0.0063918773
-0.049012344 0.050590515 -0.0051530902 0.40993622 0.81372124 -0.41208023 0.0031963091
-0.046514258 0.049543831 -0.0045190868 0.43377224 0.81773597 -0.37835103 0.0020930215
-0.044287533 0.048524123 -0.0040399306 0.42848161 0.82220262 -0.37468165 0.001872364
0.050137639 0.048571397 -0.0041669318 -0.5001567 0.78654909 -0.36219305 0.0022284491
0.052384745 0.04980585 -0.0046016695 -0.49753684 0.79203373 -0.35375085 0.0024965729
0.054438088 0.050621569 -0.0054416978 -0.46459043 0.75556296 -0.46182284 0.0053853779
0.071045294 0.049843449 -0.0055205235 0.63262326 0.143286 -0.76108932 0.0041799494
-0.07324215 0.052655589 -0.0043678829 -0.72290212 -0.19874936 -0.66174865 0.0067778938
-0.071602479 0.05240703 -0.0056930087 -0.57894015 -0.029012362 -0.81485379 0.0076434053
-0.057572495 0.053793535 -0.0058314023 0.25251308 0.77482373 -0.57955611 0.0041093216
-0.055294249 0.053483769 -0.0049689752 0.31957886 0.85306436 -0.4124932 0.0030190723
-0.052580595 0.052566875 -0.0046940227 0.35087997 0.83919835 -0.41548693 0.002710755
-0.05009063 0.051569771 -0.004168292 0.40704116 0.82736021 -0.38703042 0.0024297817
0.053685129 0.051152717 -0.0035117206 -0.48663452 0.79605383 -0.35984033 0.0021320262
0.05566803 0.05194414 -0.0043911971 -0.4660224 0.79096097 -0.39648956 0.0033370834
0.058187604 0.053172518 -0.00486262 -0.46046588 0.75215358 -0.47141927 0.0057631857
0.060328141 0.053850848 -0.0057420195 -0.40778366 0.6770584 -0.61262095 0.0040099113
0.070836209 0.052684296 -0.0054065185 0.55801064 0.18467946 -0.80902267 0.0070158299
0.072180927 0.053164449 -0.0037703167 0.543926 0.15001842 -0.82561433 0.0068530431
-0.075118184 0.055870518 -0.0032783379 -0.87561911 0.12510386 -0.46651915 0.038640432
-0.073564947 0.0555741 -0.0045141806 -0.63345444 0.19246872 -0.7494607 0.025122613
-0.071008734 0.05586426 -0.0057735047 -0.3520551 0.20681609 -0.91284406 0.01416768
-0.067272298 0.056818079 -0.0058744908 0.020906717 0.543396 -0.83921611 0.0071274564
-0.064303823 0.056427237 -0.0055151284 0.2229782 0.64405847 -0.7317577 0.0054239244
-0.061459657 0.055856761 -0.0047462899 0.30890885 0.77394694 -0.5527941 0.0071032909
-0.058649201 0.054910701 -0.0045190477 0.28119743 0.82720619 -0.48647505 0.0035667007
-0.05620278 0.054370414 -0.0038299027 0.31971776 0.86780876 -0.38037929 0.0023042771
0.059226971 0.054538283 -0.0038655587 -0.51521492 0.72353756 -0.45939839 0.0049473927
0.061495122 0.055515688 -0.0045916168 -0.42024192 0.7077601 -0.5678665 0.0059404564
0.064045168 0.056338862 -0.005493049 -0.31520614 0.55358726 -0.7708348 0.0078366725
0.067666411 0.05686665 -0.005909665 0.030352313 0.33467504 -0.9418447 0.020609755
0.070552222 0.055751752 -0.0051218239 0.44930243 0.18836311 -0.87329644 0.013170001
-0.07313595 0.05788533 -0.0040372838 -0.54004163 0.6242739 -0.56447947 0.020193385
-0.070540093 0.05864932 -0.0046296176 -0.20497 0.66025108 -0.72253424 0.025807718
-0.067548096 0.058454711 -0.0046843765 0.16217718 0.66670132 -0.72746676 0.006342655
-0.064723827 0.057959948 -0.0041370932 0.33431095 0.71137226 -0.61821175 0.0070978296
-0.062480822 0.057353411 -0.003376781 0.40288049 0.74780709 -0.52770436 0.0036563668
0.06256821 0.057325128 -0.0034274228 -0.53043014 0.62626463 -0.57134622 0.0096979914
0.064572819 0.058373358 -0.0042697643 -0.52541047 0.48656473 -0.69799614 0.016230954
0.067310728 0.058691729 -0.0053659356 -0.14072619 0.35531813 -0.92409146 0.013937607
0.069804534 0.058177579 -0.0052840747 -0.02474417 0.28531125 -0.9581154 0.010614611
0.072371617 0.059374772 -0.0033076296 0.27917677 0.1607237 -0.9466933 0.012110575
-0.069405183 0.060116511 -0.0032088552 -0.1278671 0.90970421 -0.39508015 0.026826516
-0.068089373 0.060141385 -0.0032517482 0.052041732 0.87248635 -0.48585925 0.031253338
0.065479457 0.06102531 -0.003489814 -0.54658335 0.31861433 -0.77442336 0.016504897
0.067283534 0.061531141 -0.0043745073 -0.40001976 0.28071359 -0.87245864 0.021191055
0.069992699 0.061573166 -0.0046832827 -0.13306049 0.21260802 -0.96803546 0.012325466
0.072438784 0.061931115 -0.0033996403 0.25906917 0.12873404 -0.95724124 0.02306032
0.06760323 0.064405419 -0.0038091864 -0.46431175 0.17776942 -0.86764771 0.017415551
0.070181891 0.064450301 -0.0044066878 -0.29043913 0.1201163 -0.94932461 0.017582307
0.072479196 0.064837076 -0.0034741368 0.29620159 -0.018373171 -0.95494878 0.023756385
0.067953981 0.067416914 -0.0035922921 -0.58669138 0.11397606 -0.80174977 0.016169809
0.070153311 0.067639776 -0.0043329527 -0.36954772 0.11205246 -0.92243093 0.017828599
0.072790608 0.067695804 -0.0037179478 0.17074296 -0.068120979 -0.98295802 0.033532135
0.068348743 0.070485555 -0.003425397 -0.69149309 0.095035687 -0.71610439 0.026418747
0.070213795 0.070543461 -0.0043192105 -0.42652035 0.056306243 -0.90272361 0.02481007
0.072813429 0.070909202 -0.0043231254 -0.050587721 -0.028738398 -0.99830604 0.019396698
0.068554662 0.073458336 -0.0033625867 -0.73159689 0.12943172 -0.66933793 0.023735255
0.070263632 0.073558889 -0.0044612712 -0.3562845 0.049833898 -0.93304771 0.02592977
0.072862662 0.073853686 -0.0049763359 -0.017641522 0.17470412 -0.98446286 0.061183672
0.075642891 0.074493937 -0.0037810113 -0.8790732 0.060607918 0.4728182 0.11631289
0.068707883 0.075833447 -0.0032467402 -0.64465004 0.47828677 -0.5963791 0.064657807
0.070285633 0.075981736 -0.0042203707 -0.37542215 0.50978613 -0.77406478 0.073379166
0.073157676 0.07567098 -0.0044985134 0.012702649 0.55341673 -0.83280772 0.054434877
0.075564727 0.075123526 -0.0032391136 -0.698699 0.69981754 0.14857697 0.11450611
-0.023984415 0.005611836 -0.0026794763 -0.34197271 -0.90217996 -0.26291832 0.0031932152
-0.031946693 0.00867821 -0.00145312 -0.3778972 -0.89978826 -0.21811654 0.00039867772
-0.029180337 0.0076601552 -0.0027449769 -0.34456387 -0.90944541 -0.23277639 0.00090962346
-0.037555881 0.011306897 -0.002025685 -0.4316496 -0.86970377 -0.23936166 0.00063940015
-0.0359811 0.010447033 -0.0018725271 -0.40959221 -0.8820622 -0.23280992 0.00051276485
-0.032959625 0.0093022706 -0.0029062962 -0.39455959 -0.88426822 -0.24978484 0.00095453806
-0.04323557 0.014342146 -0.0015038195 -0.5020678 -0.83083045 -0.24010144 0.001843966
-0.040378794 0.012734421 -0.0014773265 -0.46714815 -0.85478306 -0.22609413 0.00052904786
-0.048198916 0.017814921 -0.0018443419 -0.56435484 -0.79287851 -0.22988567 0.00075979286
-0.046709012 0.016749123 -0.0015197055 -0.55303693 -0.79287386 -0.255932 0.00085778406
-0.044681698 0.015344311 -0.0016756371 -0.55803704 -0.79264683 -0.24557233 0.00085339061
-0.051691342 0.020389229 -0.0017071905 -0.59322637 -0.77834153 -0.20558915 0.0008021543
-0.049666975 0.018855322 -0.0015519439 -0.57105672 -0.78734988 -0.23232391 0.00079875649
-0.055230826 0.023077404 -0.0015444336 -0.60776597 -0.76819056 -0.20125587 0.00042501668
-0.053058185 0.021400657 -0.0016394502 -0.59680426 -0.77458864 -0.20937318 0.00073260296
-0.058672011 0.025902275 -0.0014370084 -0.65459669 -0.72522181 -0.21343963 0.00056089787
-0.056855168 0.024440549 -0.0017912434 -0.62234974 -0.75234807 -0.21599349 0.00061587838
-0.061402198 0.028547149 -0.0014507916 -0.711963 -0.67805797 -0.1826093 0.00078137382
-0.064313747 0.031732507 -0.0014708345 -0.76016974 -0.62907726 -0.16249262 0.0019080131
-0.062960796 0.030263888 -0.0020103964 -0.73365974 -0.66051549 -0.15957004 0.00098324567
-0.00083813473 0.032927338 -0.002608222 0.11029948 0.98193496 -0.15374537 0.0017260519
0.0017109729 0.032843456 -0.0018729082 0.071877614 0.98830283 -0.13450292 0.0024165227
0.0045255208 0.032795634 -0.0015972649 0.02371238 0.99209994 -0.12318829 0.002549995
0.0074529145 0.032797787 -0.0016559021 -0.03411046 0.9922052 -0.11985539 0.0031395697
0.01014367 0.032891121 -0.0021824453 -0.088990025 0.98426759 -0.15263692 0.0015699556
0.012209903 0.032985359 -0.0026638338 -0.084560782 0.98856848 -0.12482727 0.0023904475
-0.06690377 0.034986686 -0.0014825708 -0.80685103 -0.57268924 -0.14497773 0.0026645185
-0.065674812 0.033483669 -0.0017399444 -0.78397781 -0.60427529 -0.14223295 0.0019821867
-0.015386946 0.035843648 -0.0019927137 0.29279333 0.94898361 -0.11705606 0.0028031804
-0.013460986 0.035351258 -0.0014799311 0.26765975 0.95292693 -0.14243771 0.0026838661
-0.010438914 0.034564372 -0.0013806947 0.23093018 0.95793986 -0.17035985 0.0022430851
-0.0074962764 0.033973109 -0.0014656176 0.16802053 0.97349173 -0.15518704 0.0020979305
-0.0045275339 0.033506427 -0.0015353343 0.11798517 0.98265231 -0.14308698 0.001796891
-0.0017189387 0.033190962 -0.0013080436 0.093472838 0.98730075 -0.12845282 0.0019481586
0.00089619169 0.033091333 -0.00054467749 0.042934097 0.9984839 -0.034447987 0.0025280979
0.0039448119 0.033013988 -0.0001927464 0.018462572 0.99971521 -0.015122356 0.0012725332
0.0085504027 0.033034634 -0.00028098223 -0.031634331 0.99936968 -0.016110066 0.0013461189
0.010806978 0.03311551 -0.00088094501 -0.071933866 0.99435425 -0.078007288 0.0024959838
0.013573217 0.033349406 -0.0014696438 -0.12689148 0.98534501 -0.11398983 0.0022317299
0.016536703 0.033863902 -0.001459219 -0.19363515 0.97313869 -0.12452492 0.0025821791
0.01949106 0.034545455 -0.0015162426 -0.25623304 0.96142018 -0.10007995 0.0014059966
0.022485638 0.035372023 -0.0014905172 -0.27051231 0.95798481 -0.095332213 0.001703118
0.024391299 0.035840716 -0.0021562849 -0.30137494 0.94753027 -0.10658108 0.0022823361
-0.069195077 0.038545121 -0.001780988 -0.83400226 -0.45282972 -0.31525463 0.0029638126
-0.068163775 0.036975548 -0.0020979857 -0.81285685 -0.51134753 -0.27890396 0.0023684772
-0.024302004 0.038889632 -0.002475898 0.39258555 0.90336925 -0.17262807 0.0019805445
-0.022492075 0.038296867 -0.0013582623 0.36502662 0.9164564 -0.16390006 0.0015963946
-0.019498676 0.037137534 -0.0014250168 0.31286767 0.93680823 -0.15653849 0.0033602894
-0.01676915 0.036316399 -0.0014860887 0.27140447 0.95463806 -0.12249824 0.0022102112
0.025739796 0.03632712 -0.0013834484 -0.28868818 0.95390892 -0.081956357 0.0022674755
0.028511828 0.037206117 -0.0015193195 -0.30729204 0.94434112 -0.11743732 0.0022019118
0.031553868 0.03828714 -0.0015291305 -0.36253741 0.92689413 -0.097127937 0.0023230666
0.033172969 0.038887784 -0.0019124814 -0.44334915 0.89221168 -0.086022623 0.0031881831
-0.070271768 0.040484745 -0.0020252008 -0.86216486 -0.41680631 -0.2880004 0.0038676558
-0.030491404 0.041692581 -0.001822114 0.4614926 0.88107264 -0.10361283 0.0017514888
-0.028441418 0.040747039 -0.0014895557 0.41124138 0.9054966 -0.1046731 0.0019518381
-0.025767356 0.039639652 -0.0014340729 0.38032195 0.90778875 -0.17684691 0.0018565921
-0.023981029 0.039031085 -0.00034377837 0.35681987 0.9332332 -0.041897886 0.0056931712
0.034659293 0.039675012 -0.001495019 -0.42980337 0.89755529 -0.098303609 0.0023053526
0.037464082 0.041120227 -0.0015290101 -0.49194467 0.86447179 -0.10333922 0.0028651205
0.039079793 0.04191881 -0.0025605271 -0.51985514 0.84669393 -0.11340186 0.0031594341
-0.072146714 0.044484258 -0.0013303828 -0.90694088 -0.32742065 -0.26505467 0.0047392952
-0.071370453 0.043034583 -0.002071646 -0.89322031 -0.3521612 -0.27953508 0.004259306
-0.03657176 0.044784714 -0.0018174466 0.48606703 0.86716771 -0.10843898 0.0018993118
-0.034523759 0.043796599 -0.0014434874 0.44917771 0.88713712 -0.10595801 0.0018829268
-0.031937525 0.042488679 -0.0014038046 0.43556371 0.8940385 -0.10478259 0.0019651074
0.038883846 0.042037014 -0.0011056376 -0.51724309 0.8497051 -0.10227804 0.0030526451
0.040531646 0.042999286 -0.0014864136 -0.51438928 0.85111922 -0.10488012 0.0032334914
0.042840838 0.044472773 -0.0016069914 -0.56201321 0.82189268 -0.092916965 0.0021581845
-0.072733104 0.046506699 -0.0018602079 -0.90260154 -0.2940844 -0.31436419 0.0061317519
-0.04217501 0.047834657 -0.0021739174 0.48499569 0.86144608 -0.15063116 0.0032760145
-0.040410195 0.046930097 -0.0015649868 0.47662553 0.87108052 -0.11851932 0.0022293988
-0.037969086 0.045590408 -0.0013514943 0.45996544 0.88087416 -0.11177021 0.0021406873
0.044311564 0.045469496 -0.001383502 -0.55467451 0.82386571 -0.11653886 0.0033252251
0.046468507 0.046887081 -0.0015482506 -0.55088282 0.82714516 -0.11117128 0.0037365591
0.048118252 0.047861665 -0.0024614565 -0.54591089 0.82208169 -0.16174957 0.0030734651
-0.073798686 0.049568836 -0.0019178641 -0.87096018 -0.32566708 -0.36792564 0.0098723965
-0.046363987 0.050274063 -0.0015759862 0.48661798 0.86120331 -0.14673723 0.0028993972
-0.043644615 0.048768409 -0.0014270669 0.47528476 0.87107545 -0.1238219 0.002642266
0.047813997 0.048037574 -0.00034706166 -0.54012334 0.84088904 -0.034240846 0.0038689235
0.049564436 0.048973233 -0.0014943915 -0.52608985 0.84087932 -0.12708797 0.0040027853
0.051792618 0.050453354 -0.0015725046 -0.56729859 0.81497753 -0.11825417 0.0032224339
-0.075507134 0.053092521 -0.0013093561 -0.94070143 -0.15397871 -0.30227697 0.020561988
-0.074621044 0.051954817 -0.0023696893 -0.85068309 -0.2600033 -0.45687687 0.012030073
-0.052642066 0.053534959 -0.0019618534 0.38216364 0.88777626 -0.25652328 0.0029158571
-0.049463868 0.051976226 -0.0015466542 0.43763044 0.88533789 -0.1570234 0.0027786861
-0.047758557 0.051109247 -0.0011223385 0.45740801 0.87657833 -0.14962752 0.0028898045
0.053310245 0.05147564 -0.0014859812 -0.53580177 0.82879621 -0.16128644 0.0061319987
0.055492718 0.052875984 -0.0015456186 -0.53912407 0.83248484 -0.12772724 0.0071633831
0.057202429 0.05390342 -0.0021119018 -0.5798943 0.79310334 -0.18630558 0.0090589188
-0.075783908 0.055707723 -0.0016670412 -0.93343514 0.13580304 -0.33204871 0.034178626
-0.074941263 0.054290883 -0.0029429658 -0.74337745 0.10990845 -0.65978038 0.024052903
-0.060545724 0.05673765 -0.0023063121 0.4699598 0.83440185 -0.28794327 0.0070875362
-0.058340196 0.055850681 -0.0017760318 0.37944388 0.88779277 -0.26047334 0.0063608824
-0.05547142 0.054705676 -0.0017069178 0.33521935 0.90820259 -0.25059125 0.0033369095
-0.053668752 0.054104462 -0.00096212007 0.37113488 0.91633439 -0.15030034 0.0055855694
0.056965824 0.054000147 -0.00051247736 -0.53957433 0.83494699 -0.108273 0.0071825748
0.058616877 0.055055242 -0.001482458 -0.53399444 0.82795841 -0.17127402 0.0096000051
0.060607329 0.056449365 -0.0017318162 -0.6763258 0.71520752 -0.17624344 0.012252979
-0.075331785 0.05727613 -0.0011807908 -0.85901248 0.43436563 -0.27096859 0.043766946
-0.073588736 0.058292743 -0.0016159186 -0.54923105 0.79675275 -0.25205228 0.025806328
-0.071094818 0.059560746 -0.0015384089 -0.3954865 0.90596837 -0.15103531 0.0061514769
-0.066221483 0.059818234 -0.0026855662 0.26918244 0.88546956 -0.3787933 0.019447597
-0.064476006 0.059229795 -0.001973144 0.4355253 0.82907224 -0.3506521 0.0064436519
-0.061931234 0.057812199 -0.0015713867 0.45254922 0.83635616 -0.30936635 0.00830785
0.062093455 0.058042984 -0.0014257779 -0.77200711 0.60255563 -0.20231587 0.020069601
0.063475825 0.059427213 -0.0020478284 -0.75627863 0.61834019 -0.21377063 0.020875335
-0.069592945 0.060268968 -0.0015104706 -0.2422071 0.95719546 -0.15846965 0.019774778
-0.067707151 0.060669389 -0.0015505637 0.013738591 0.98501074 -0.17194478 0.024224564
-0.065652296 0.060277089 -0.00092220987 0.31152511 0.92218488 -0.2291878 0.022735838
0.06446398 0.06153338 -0.0016246879 -0.86955315 0.36261791 -0.33523962 0.030653037
0.073006891 0.061452255 -0.0027421194 0.25906521 0.12870298 -0.95724648 0.023062199
0.065321386 0.064409152 -0.001339654 -0.93061727 0.24174766 -0.27479002 0.033713058
0.066282459 0.065166347 -0.0026281259 -0.84657776 0.23566023 -0.47725281 0.019148985
0.07384707 0.064555064 -0.0021072971 0.46323743 -0.022578953 -0.88594657 0.0054964218
0.065758936 0.067014918 -0.00080092618 -0.94818258 0.23066403 -0.21850398 0.029041387
0.066525944 0.067833275 -0.0020009661 -0.8996976 0.26581046 -0.34624985 0.019372815
0.074473083 0.067875914 -0.0023480721 0.37986895 -0.12677154 -0.91631252 0.010656135
0.066964515 0.070550874 -0.0015560369 -0.90368134 0.19211103 -0.38269216 0.019838193
0.06747026 0.07347209 -0.001641095 -0.90870315 0.1625621 -0.38448951 0.023687743
0.076547042 0.074822441 -0.001356269 0.18856642 0.97160679 -0.14290884 0.026460381
0.067949124 0.076225914 -0.001543703 -0.80767632 0.53874713 -0.23960474 0.067923494
0.07009501 0.076862872 -0.0020063459 -0.28769663 0.8825354 -0.37197039 0.070102878
0.073521525 0.075828522 -0.0014137004 0.28988606 0.95550138 -0.054618057 0.0024017012
0.075677015 0.075162813 -0.001501521 0.18826054 0.97166735 -0.14290038 0.026628893
-0.025788866 0.0058191791 0.0009850869 -0.35294044 -0.91367304 -0.20158029 0.00065634778
-0.034139033 0.0087249028 0.0012184947 -0.39153022 -0.89512801 -0.21319018 0.00050579646
-0.03130294 0.0076497146 0.0013433375 -0.35771617 -0.91199845 -0.20074359 0.00068366202
-0.028950682 0.0067926385 0.001177163 -0.35217088 -0.91627485 -0.19082983 0.00049322803
-0.026825577 0.0061143897 0.0010344018 -0.35294095 -0.91367275 -0.20158084 0.00065635028
-0.04001274 0.011516307 0.001428399 -0.45696452 -0.86117536 -0.2226218 0.00073307625
-0.037486438 0.010419755 0.0012310892 -0.4428806 -0.8684833 -0.22269633 0.0006940302
-0.034954984 0.0093145166 0.0011178446 -0.40189138 -0.88834846 -0.22208205 0.00038463337
-0.04537753 0.014430903 0.001760545 -0.52871746 -0.81290114 -0.24423285 0.0018447472
-0.043468446 0.013556276 0.0013412712 -0.51067287 -0.82487243 -0.24248435 0.0020130626
-0.040977057 0.012479749 0.0010014798 -0.46692619 -0.84940743 -0.24594094 0.00082907098
-0.04915164 0.017216418 0.0017203887 -0.56366169 -0.77533823 -0.28484407 0.00096047239
-0.046721458 0.015891176 0.0012526398 -0.5604012 -0.78239292 -0.27168331 0.0010034683
-0.054130599 0.020426702 0.0025687995 -0.60118818 -0.73957127 -0.3026669 0.003623141
-0.052286305 0.019718636 0.0016320336 -0.57777661 -0.76078689 -0.29559705 0.0028394081
-0.050307665 0.018660208 0.0011383423 -0.5682267 -0.76958317 -0.29130769 0.0026462362
-0.057510495 0.0235944 0.0023469862 -0.64023644 -0.72873801 -0.24297777 0.0024793197
-0.055596612 0.022416063 0.0016506198 -0.64003533 -0.72275805 -0.26072127 0.0029574293
-0.053754337 0.02148675 0.0009464554 -0.57805294 -0.76204807 -0.29178345 0.0036606132
-0.060581733 0.026608622 0.0024223593 -0.72758996 -0.654989 -0.20396644 0.00075010315
-0.058726944 0.025267482 0.0015953347 -0.6788826 -0.70060009 -0.21972261 0.0014149144
-0.063324921 0.029928952 0.002333543 -0.77668464 -0.62250781 -0.09615095 0.00061111629
-0.06162655 0.028255906 0.001674181 -0.7384907 -0.65943873 -0.14061321 0.0013251968
-0.064429946 0.031523868 0.0016032761 -0.80221665 -0.59312141 -0.068231314 0.0011674262
-0.00083080493 0.032929175 0.0027239905 0.11017516 0.98799282 0.1083128 0.0030491608
0.0021165228 0.032863814 0.0019334924 0.05396631 0.99013859 0.12927993 0.0035666588
0.0045922729 0.032856572 0.0015343012 0.0064394781 0.99489152 0.10074436 0.0033822625
0.007488484 0.032854069 0.0016137408 -0.031143203 0.99253356 0.11792868 0.0043678619
0.010123634 0.03287746 0.002511448 -0.090054482 0.97770804 0.18967621 0.0019007438
0.012338437 0.032982443 0.002759824 -0.081562042 0.98152691 0.17306836 0.0052013267
-0.066857599 0.034763694 0.0015199999 -0.82931256 -0.55855316 0.016095484 0.0015888843
-0.065784954 0.033292759 0.0017971114 -0.81078035 -0.58474231 -0.026678205 0.0006488621
-0.015545851 0.035860255 0.0024816543 0.29894134 0.94973385 0.092949465 0.0027868943
-0.013559516 0.03544727 0.0013710393 0.26697639 0.95977986 0.086869359 0.0029115672
-0.010580316 0.034653604 0.0013560766 0.22783493 0.96626234 0.12011795 0.0043200972
-0.0071449853 0.034063466 0.0014142343 0.1641954 0.98581612 0.034731697 0.0030554263
-0.0046456591 0.03369325 0.00099599338 0.14606552 0.98870182 0.033667985 0.0031042898
-0.0011861834 0.033204418 0.0012724983 0.073016897 0.99568695 0.057237398 0.004536008
0.0016570165 0.033049297 0.0006821428 0.039299287 0.99667031 0.071441263 0.0048781908
0.004919291 0.033015855 9.767375e-05 0.011592706 0.99983418 -0.014047996 0.001163011
0.0084634693 0.03301895 0.00042690701 -0.033608455 0.99846029 0.044131733 0.0039344588
0.01056259 0.033122376 0.00098418596 -0.070203863 0.99436235 0.079466246 0.0052924906
0.013523047 0.033393402 0.0014320697 -0.12547024 0.98537451 0.11530072 0.0039272639
0.016514888 0.033907413 0.0013921597 -0.18827513 0.9739784 0.12616888 0.0043067252
0.019568566 0.034607448 0.0015018537 -0.25314859 0.96059114 0.11480582 0.003227981
0.022582276 0.03543999 0.0014276333 -0.26435092 0.96052074 0.086709514 0.0036842779
0.024465987 0.035889763 0.0022815133 -0.29903853 0.94515473 0.1313712 0.0047280192
-0.069378451 0.038571 0.0013579339 -0.86906135 -0.4818939 0.111851 0.0052263774
-0.068425402 0.03707239 0.0014403291 -0.84234399 -0.53719193 0.04337595 0.0012889287
-0.024032043 0.038981821 0.0011832943 0.38716277 0.91636688 0.10186575 0.0044278516
-0.022494178 0.038330674 0.0014754439 0.36213353 0.92757046 0.092045709 0.0041253697
-0.019462241 0.037171517 0.0014155402 0.31003153 0.94480211 0.10596873 0.0036604335
-0.01661907 0.036339715 0.0014109281 0.26691735 0.96370566 0.0051519233 0.0022172616
0.025778374 0.036388751 0.0013431975 -0.28047121 0.95584297 0.0877501 0.004026223
0.028548986 0.037269738 0.001396968 -0.30244386 0.947586 0.10299733 0.0027341722
0.031524297 0.038317438 0.0014599386 -0.36895543 0.92306018 0.10877404 0.0034378164
0.033198494 0.038874041 0.0025509403 -0.4199141 0.89675188 0.13967195 0.0055196588
-0.070458159 0.04055807 0.0014279524 -0.89295077 -0.42200091 0.15669779 0.0050113485
-0.030487694 0.041768197 0.001708016 0.46849453 0.87999845 0.07820271 0.0025775991
-0.028520726 0.040864635 0.001396731 0.4129951 0.90715826 0.080615908 0.0029480984
-0.025574446 0.039607011 0.0014511078 0.37878689 0.92118895 0.089058697 0.0040125428
-0.023897674 0.039019622 0.00073028542 0.35181621 0.93344951 0.069981702 0.0038693426
0.034509134 0.039660562 0.0013324927 -0.42524061 0.89892709 0.10535858 0.0035802899
0.037412427 0.041107234 0.0015099902 -0.48105577 0.86789745 0.1238521 0.0034620569
0.039078768 0.041977949 0.0018283048 -0.51617378 0.84674197 0.12881254 0.0032432149
-0.072167359 0.044561006 0.0010278346 -0.92775625 -0.34747139 0.136132 0.0052799899
-0.07156495 0.043178722 0.0015636394 -0.92208427 -0.3577739 0.14750753 0.0048752483
-0.036443833 0.044795644 0.0016601984 0.48931506 0.86835694 0.080790475 0.002669448
-0.034527164 0.043852553 0.0014674955 0.45227554 0.88817149 0.081229493 0.002599413
-0.031883396 0.042526677 0.0013296005 0.43576375 0.89637721 0.081350446 0.0029490867
0.03889022 0.042069573 0.00073348434 -0.52538848 0.84538561 0.096385144 0.0038262969
0.04047345 0.042940572 0.0014713956 -0.51257032 0.85114151 0.11326873 0.0035193239
0.042773109 0.044404 0.0016054172 -0.55012071 0.82839429 0.10549937 0.0023803276
-0.072761908 0.0465343 0.0013179798 -0.93831211 -0.31529441 0.14198548 0.0049554342
-0.042241283 0.047992289 0.0020960181 0.5059666 0.84600735 0.16813511 0.0059065237
-0.040499695 0.047049612 0.0014089311 0.47465834 0.87445402 0.10014834 0.0028264681
-0.037849307 0.045601957 0.001182758 0.45474064 0.88623452 0.088313967 0.0032318006
0.04430544 0.045443505 0.0013551293 -0.54711068 0.82876056 0.11758339 0.0029388424
0.046499599 0.046895683 0.0014581508 -0.54837549 0.82797199 0.11724641 0.0036265608
0.048261505 0.047917325 0.002380647 -0.54300231 0.82204646 0.17142938 0.0038171618
-0.073691174 0.04883723 0.00092113332 -0.93329108 -0.35785162 0.03016671 0.010230839
-0.046315785 0.050291512 0.0015177671 0.48801976 0.86472768 0.11867065 0.0034228091
-0.04358387 0.048780106 0.0014236465 0.48036107 0.87172025 0.096731462 0.0035939752
0.049599003 0.048986059 0.0013945341 -0.53001219 0.83775133 0.13137718 0.0039006548
0.051862445 0.05046837 0.0015747506 -0.55374861 0.82234305 0.1308223 0.0034132423
-0.075550593 0.053152975 0.0012068574 -0.98759472 -0.086655416 0.13094831 0.03098293
-0.074822232 0.051835932 0.001733803 -0.92347062 -0.3278296 0.19932333 0.01272595
-0.054088783 0.05390618 0.0026625816 0.38000637 0.89335501 0.23981671 0.0096726995
-0.052284691 0.053474899 0.0014645185 0.43547067 0.88947302 0.13857515 0.0032924979
-0.049543984 0.052080695 0.0013376104 0.43703514 0.88739055 0.14675912 0.0039808056
-0.047645949 0.051128112 0.00080565346 0.44751564 0.88254279 0.14438818 0.0040309853
0.053308144 0.051475998 0.0012982283 -0.53406078 0.83188266 0.15083227 0.0049635009
0.05550858 0.052876581 0.0014493857 -0.54663843 0.82690054 0.1319923 0.0051826742
0.057338238 0.053829562 0.0024650013 -0.55415666 0.80002654 0.22993024 0.0091821654
-0.075834535 0.056074474 0.0014252714 -0.92064738 0.37210968 0.11807955 0.046444401
-0.060401924 0.056814741 0.0016177698 0.49787924 0.86466664 0.066842303 0.010080265
-0.058444206 0.055959314 0.0013756398 0.40937883 0.90521336 0.11400776 0.0072389585
-0.055577222 0.054808274 0.0013466533 0.34076598 0.92805833 0.15028726 0.0046601561
-0.053665157 0.054110624 0.0010309271 0.37967241 0.91529948 0.13444623 0.00539691
0.058567192 0.055017423 0.001331522 -0.55370128 0.81816566 0.15498346 0.0083479574
0.060679793 0.056488633 0.0016879357 -0.66893947 0.72049034 0.18279451 0.012327824
