# .PCD v0.7 - Point Cloud Data file format
VERSION 0.7
FIELDS x y z normal_x normal_y normal_z curvature
SIZE 4 4 4 4 4 4 4
TYPE F F F F F F F
COUNT 1 1 1 1 1 1 1
WIDTH 553
HEIGHT 1
VIEWPOINT 0 0 0 1 0 0 0
POINTS 553
DATA ascii
0.01050152 0.0023288624 -0.0072413664 0.055065289 -0.88921791 -0.45415789 0.0019077333
0.013462872 0.0024813882 -0.0070011658 0.092896797 -0.89012069 -0.44615614 0.0019182903
0.016347388 0.0026753445 -0.0066784774 0.11858243 -0.89066273 -0.43892825 0.0018519083
0.018997315 0.0028620651 -0.0063434155 0.16444106 -0.90064603 -0.40223858 0.0013538002
-0.0213781 0.00586029 -0.0062546586 -0.32359323 -0.83938211 -0.43672085 0.0018208526
-0.019269047 0.0054781977 -0.0069327094 -0.26644719 -0.84519988 -0.463296 0.0018839305
-0.016492156 0.0050352556 -0.0074752537 -0.21737543 -0.83700609 -0.50216419 0.0014992571
-0.013561685 0.0043161563 -0.0075745829 -0.20607039 -0.84929812 -0.48603263 0.0015643289
-0.010636178 0.0037600684 -0.0077687935 -0.15872262 -0.84780729 -0.50599402 0.0012207277
-0.0076278322 0.0035823204 -0.0082056532 -0.11869889 -0.84681189 -0.51847863 0.0017394014
-0.0046691415 0.0033527326 -0.008494623 -0.090846948 -0.82972866 -0.55072427 0.0014366158
-0.0014978285 0.0032349918 -0.0087043531 -0.056213785 -0.81620461 -0.57502174 0.0011569089
0.0012058861 0.0031974663 -0.0088456552 -0.032575753 -0.79692513 -0.60319906 0.00079438882
0.0044044913 0.0030378699 -0.008761582 -0.0043702386 -0.82649428 -0.56292814 0.0014929466
0.007831634 0.0031730344 -0.0088553773 0.02516719 -0.8216545 -0.56942999 0.0015097749
0.010460519 0.0032066312 -0.0087808101 0.051315784 -0.82935607 -0.55635887 0.001423309
0.013619798 0.0032782825 -0.0084756687 0.085020013 -0.8612439 -0.50102949 0.0019198313
0.01667444 0.003473737 -0.0081804693 0.10945152 -0.86638051 -0.48724243 0.0018757241
0.019565066 0.0036761677 -0.0077381632 0.15237416 -0.86836398 -0.47193864 0.0014392635
0.022448489 0.0041643339 -0.0075530545 0.18328927 -0.88303989 -0.43202502 0.001500668
0.025436111 0.0047825077 -0.0075224829 0.20775943 -0.87286997 -0.44151333 0.0014213646
0.028214207 0.0053944276 -0.0072202645 0.24092209 -0.87428886 -0.42139718 0.0016287426
0.030787587 0.0057580695 -0.006455516 0.28267348 -0.88880074 -0.36073384 0.00067087245
-0.02796329 0.0086486945 -0.0068428987 -0.33893582 -0.82934153 -0.44420159 0.0014374411
-0.02541464 0.0080067394 -0.0074251592 -0.29870695 -0.81792182 -0.49170938 0.0013913829
-0.022516275 0.0070826965 -0.0076781153 -0.29228911 -0.82193285 -0.4888697 0.0015619015
-0.019841867 0.0064479113 -0.0082495371 -0.25162104 -0.81872195 -0.51612133 0.0018557193
-0.017505318 0.006184936 -0.0088581331 -0.23351935 -0.77614474 -0.58572012 0.0012723128
0.029008707 0.0062701218 -0.0084917014 0.23729146 -0.84477329 -0.4796361 0.0012696277
0.031648453 0.006693562 -0.007804519 0.28443539 -0.85584104 -0.43201008 0.0013178801
0.034431998 0.0075788028 -0.0076072947 0.30625966 -0.84591901 -0.43660745 0.0017920979
0.037219089 0.0083896229 -0.0071441554 0.33205968 -0.85023087 -0.40846515 0.001475193
0.039424818 0.0088485079 -0.0062785349 0.3856937 -0.85244584 -0.35295382 0.0017536781
-0.036302686 0.011928584 -0.0062772231 -0.40860155 -0.80749804 -0.42543113 0.0017188932
-0.034161214 0.011378475 -0.0070971153 -0.37048411 -0.81180996 -0.45133814 0.0014684285
-0.031427924 0.010526403 -0.0075926934 -0.34069264 -0.81137419 -0.47497419 0.0020754661
-0.02882438 0.0096366899 -0.0079311309 -0.33010826 -0.81341594 -0.47893962 0.001981192
-0.026486851 0.0092003578 -0.008710756 -0.30500266 -0.77302748 -0.55623913 0.001170744
0.038083188 0.0093444725 -0.0083509227 0.32445017 -0.82912809 -0.45527872 0.0014706366
0.040551279 0.010051007 -0.0075915586 0.38352349 -0.83013165 -0.40471119 0.0011089953
0.04322375 0.011185769 -0.0073615503 0.38901263 -0.8197695 -0.42029414 0.0015041401
0.045327213 0.011737901 -0.006476508 0.43280762 -0.80637211 -0.40304044 0.0015193024
-0.042295352 0.014943955 -0.0060868701 -0.48560745 -0.7656036 -0.42194381 0.0012043293
-0.040197846 0.01441843 -0.0070465561 -0.43599162 -0.78108871 -0.4470031 0.001270732
-0.037568267 0.013394178 -0.0076271407 -0.40425044 -0.78537494 -0.46879393 0.0018933673
-0.035030816 0.012455077 -0.0082365964 -0.37009627 -0.77963567 -0.50517023 0.0017940701
0.044400726 0.012344613 -0.0084641995 0.40990478 -0.79111856 -0.45399281 0.0020737853
0.046553392 0.01311329 -0.0076755774 0.44933519 -0.7858814 -0.4248392 0.0017649964
0.049039457 0.014308554 -0.007231751 0.46670872 -0.77566028 -0.42489308 0.0014967736
0.051011328 0.014820954 -0.0061099646 0.49800602 -0.77080995 -0.39729342 0.001033423
-0.045536261 0.017641626 -0.0067106225 -0.5097822 -0.73870301 -0.44095343 0.00093927729
-0.043427501 0.016681956 -0.007515254 -0.48692188 -0.74945962 -0.44857264 0.0010868841
-0.041024394 0.015563838 -0.0082262419 -0.42467198 -0.75005996 -0.50701457 0.0019776023
0.050223853 0.015573978 -0.0082098767 0.48753792 -0.75870419 -0.43205872 0.0016522334
0.052504789 0.016693672 -0.0074738883 0.52217513 -0.74819952 -0.40930501 0.00095354131
0.054601084 0.017666938 -0.0066279317 0.54104328 -0.73643297 -0.40612644 0.0019333555
-0.048968147 0.020309605 -0.0070974897 -0.53973657 -0.71642411 -0.44206437 0.0014096834
-0.046703998 0.019072821 -0.0077200471 -0.51793849 -0.72759289 -0.44983146 0.0016164914
-0.044526916 0.018209746 -0.0086451666 -0.46903464 -0.68316817 -0.55972123 0.00079336535
0.053697318 0.018245425 -0.0085760383 0.52105099 -0.6844905 -0.50988096 0.0015479636
0.055660039 0.019154055 -0.0077346158 0.55243093 -0.70066363 -0.45154232 0.0014910345
0.057653513 0.020323174 -0.0070279818 0.5911662 -0.66920722 -0.45020461 0.0010788572
-0.054344684 0.023917586 -0.0062524807 -0.56302524 -0.70348608 -0.43371648 0.00099946139
-0.052257102 0.022938972 -0.0073347217 -0.55021423 -0.69992441 -0.45537904 0.0019964518
-0.05006355 0.021738416 -0.0080189835 -0.53062284 -0.70959187 -0.46359327 0.0017869476
0.058888465 0.022062255 -0.0078322142 0.59777498 -0.64841437 -0.4714064 0.0016072352
0.060819667 0.023322849 -0.0071080509 0.61284989 -0.63056934 -0.47623238 0.0016236171
-0.057448387 0.026657259 -0.0064870906 -0.5954988 -0.66454768 -0.45139506 0.0010102856
-0.055443272 0.025642881 -0.0074906661 -0.58018702 -0.67643625 -0.45367056 0.0016918816
-0.053388417 0.024480648 -0.008287889 -0.55002278 -0.67113709 -0.4970412 0.0012915168
0.062007263 0.025120491 -0.0077955076 0.64101124 -0.56337613 -0.52126008 0.0027377997
0.063627519 0.02643685 -0.0071122232 0.66506392 -0.52859956 -0.52751535 0.0015157404
-0.060363442 0.029593229 -0.0065386589 -0.6548512 -0.59538549 -0.46549535 0.001373185
-0.058526397 0.028452711 -0.0075491015 -0.62934673 -0.62438303 -0.46267557 0.0017403931
-0.056583971 0.027402671 -0.0085304221 -0.55720127 -0.60415655 -0.56966794 0.00088888494
0.0042046714 0.029952861 -0.0089127235 0.0018232802 0.82167447 -0.56995428 0.0029287557
0.062983781 0.027310235 -0.0087734116 0.67596763 -0.50802958 -0.53382927 0.0022138681
0.064625971 0.028484622 -0.0077634193 0.68849176 -0.47091448 -0.5515601 0.0015353329
0.066318318 0.02955588 -0.0064478354 0.74249172 -0.4827441 -0.46439663 0.0019661435
-0.063193023 0.032659866 -0.00638003 -0.68416804 -0.54084748 -0.4892832 0.001004725
-0.061417829 0.031556897 -0.0074707889 -0.67005306 -0.54926217 -0.49933952 0.0028429495
-0.059567314 0.030411566 -0.0084679713 -0.6128031 -0.56628364 -0.55117619 0.0017582538
-0.013180144 0.032712415 -0.0084955851 0.22746642 0.81668383 -0.53036463 0.0011212693
-0.010638637 0.0323135 -0.0081397248 0.19188164 0.83402538 -0.51728445 0.00097619504
-0.0077817696 0.031696498 -0.0081492579 0.16664726 0.84381497 -0.51010293 0.0031677049
-0.0045243511 0.031288855 -0.0079686977 0.12753884 0.84998441 -0.51113629 0.0019927484
-0.0014085205 0.030960906 -0.0078308564 0.10167588 0.85048008 -0.51608682 0.0019472084
0.0012393087 0.030709062 -0.0079344884 0.032773171 0.84787595 -0.52918077 0.0023117289
0.004807075 0.030634709 -0.0079084104 -0.034706544 0.8534748 -0.51997721 0.0026405596
0.0076061026 0.030773552 -0.0077220895 -0.075409144 0.82261974 -0.56356913 0.0028218473
0.010492355 0.03087542 -0.0079381671 -0.054914195 0.82858849 -0.55715847 0.0009779752
0.013266702 0.031174876 -0.0079467772 -0.1427853 0.85868859 -0.4922055 0.0028138109
0.016458491 0.031817347 -0.0078161601 -0.18072468 0.86477917 -0.46850356 0.0014215632
0.019477775 0.032400411 -0.0080610095 -0.21227866 0.84425324 -0.49211201 0.0016966553
0.021383133 0.032533027 -0.0087099932 -0.26382703 0.80877531 -0.52562129 0.0025778129
0.065446943 0.030670667 -0.0085279811 0.68794 -0.39561227 -0.60846484 0.0027799625
0.066864237 0.031720109 -0.0073961276 0.7445671 -0.39685911 -0.53677064 0.0021637222
-0.064077772 0.034782767 -0.0072471779 -0.68261939 -0.48962897 -0.54248905 0.0022894135
-0.062465202 0.033776227 -0.0083509786 -0.66079187 -0.4770405 -0.57947087 0.0024165392
-0.021877021 0.035487495 -0.0085585229 0.32568595 0.79281378 -0.51514554 0.0028228827
-0.019263154 0.034956262 -0.0078736246 0.2839846 0.81483763 -0.50536358 0.0026637395
-0.016272748 0.033986147 -0.0078700492 0.26100704 0.81041253 -0.52450633 0.00099463086
-0.013890322 0.033623129 -0.0073387842 0.22333206 0.82102537 -0.52539527 0.001182746
-0.010104692 0.033181705 -0.0062976242 0.21370852 0.84648395 -0.48764095 0.00087394501
0.01878104 0.033201128 -0.0060963035 -0.2144912 0.8812803 -0.4211157 0.00031934647
0.022701319 0.033627618 -0.0075715869 -0.2560598 0.85351509 -0.45381215 0.0018572935
0.025572032 0.034322578 -0.0078380546 -0.27664211 0.83740956 -0.47139633 0.0018280069
0.028433388 0.035112448 -0.0079685543 -0.28480271 0.83826298 -0.46497604 0.0016423078
0.030714525 0.035770133 -0.0082476167 -0.32716289 0.83075404 -0.45034677 0.0019491037
0.067784965 0.034397714 -0.0078017185 0.75034732 -0.30605489 -0.58592606 0.0022351227
0.0691991 0.035474069 -0.0064171301 0.79782724 -0.30885783 -0.51776308 0.0031733818
-0.066559725 0.037939306 -0.0067469198 -0.71320325 -0.43808746 -0.54719329 0.0021890774
-0.065094262 0.037230063 -0.0080148252 -0.68326545 -0.39246449 -0.61572725 0.0028756026
-0.030175336 0.038899463 -0.0087458929 0.35041696 0.73677742 -0.57824481 0.00088042917
-0.028224498 0.038222071 -0.0084530488 0.36583102 0.77185971 -0.52000034 0.0014454843
-0.025478376 0.037347753 -0.0078648636 0.32949108 0.78558344 -0.52373117 0.0018428629
-0.023196148 0.0364509 -0.0079102432 0.31566098 0.8140077 -0.48759574 0.0017008235
0.02954562 0.036107603 -0.0069743255 -0.26690227 0.84695584 -0.4598141 0.0017365974
0.032042112 0.036732916 -0.0073512509 -0.3194859 0.83911359 -0.4402467 0.0019451099
0.034484401 0.037563857 -0.0077739088 -0.35617563 0.81358725 -0.45958108 0.0027758458
0.037011057 0.038439162 -0.0082774414 -0.40664104 0.78926176 -0.46011853 0.0025037287
0.068436563 0.037355199 -0.0082460064 0.76073956 -0.1817984 -0.6230768 0.0021558802
0.069633365 0.037511744 -0.0067366813 0.79728824 -0.21605623 -0.56360549 0.0021590602
-0.069130383 0.041780256 -0.0060183844 -0.75228047 -0.33012366 -0.57016879 0.0074355053
-0.067339458 0.040535603 -0.0074403188 -0.70916301 -0.29882202 -0.63858694 0.001812648
-0.065696634 0.039502215 -0.0086556375 -0.67134178 -0.29097974 -0.68163848 0.0015998073
-0.034300812 0.041387156 -0.0080089234 0.40323389 0.76211935 -0.50653386 0.0022018496
-0.031774718 0.040144272 -0.0079703806 0.37906247 0.79042929 -0.481179 0.0020303477
-0.029599246 0.039236896 -0.0078524994 0.35602605 0.80463713 -0.47518894 0.0013758313
0.037899755 0.03949976 -0.0073264157 -0.41484219 0.78167945 -0.46570724 0.0023714013
0.040507667 0.040998884 -0.0074485019 -0.45441547 0.76414412 -0.45781025 0.0018119555
0.042379506 0.041574791 -0.0082922988 -0.44180605 0.73443472 -0.51518244 0.0014917926
0.068694711 0.040148277 -0.0085499128 0.71806604 -0.080892965 -0.69125789 0.0023197241
0.069959365 0.040501311 -0.0071084639 0.7896629 -0.11259131 -0.60312164 0.0021109316
-0.069377184 0.043821529 -0.0065396274 -0.73945737 -0.24959737 -0.62522304 0.0026570263
-0.067840725 0.043366145 -0.0080208238 -0.6886338 -0.18043198 -0.70230174 0.003645356
-0.040285897 0.044390026 -0.0080564674 0.41644034 0.7539916 -0.50801003 0.0030396865
-0.037659593 0.042984575 -0.0081443368 0.38784653 0.77181321 -0.50386459 0.0034954576
-0.035333 0.042254105 -0.0074810078 0.38667637 0.79928362 -0.46002951 0.0017716336
0.041603368 0.04212239 -0.0065391874 -0.44064015 0.77064526 -0.46037173 0.0021450131
0.044234626 0.04363513 -0.006856964 -0.46218571 0.75234258 -0.4694306 0.0018745218
0.046339899 0.04439253 -0.0076468652 -0.42929167 0.73824716 -0.52028823 0.0021106706
0.048907343 0.044936884 -0.0087719867 -0.3946192 0.6862492 -0.61101371 0.00079896639
0.068756402 0.043403175 -0.0086543486 0.71297061 0.022973813 -0.70081753 0.0027619079
0.070052266 0.043556351 -0.007277335 0.7404148 0.0080573559 -0.67210191 0.002656294
-0.069850676 0.04655816 -0.0068134964 -0.71539509 -0.13235207 -0.6860705 0.0053236322
-0.068098255 0.046469945 -0.0083337845 -0.59430289 -0.055730652 -0.80230802 0.0029851438
-0.046458449 0.047310498 -0.0084503582 0.33465096 0.70054638 -0.63027257 0.0011830691
-0.043471202 0.046322446 -0.0076486757 0.36123967 0.72353733 -0.58821744 0.00075909193
-0.041071627 0.045466136 -0.0070419223 0.41254619 0.76861948 -0.48890671 0.0020473343
0.047110122 0.045399066 -0.0066881184 -0.45350468 0.75144237 -0.47923681 0.0019842759
0.049696147 0.046398792 -0.0075942841 -0.42299062 0.71041524 -0.5624848 0.0025928603
0.051780708 0.04717467 -0.0081299301 -0.40482971 0.70789462 -0.57879025 0.0022863648
0.054324843 0.047851898 -0.0088570248 -0.36636311 0.65190035 -0.66393083 0.003309177
0.068425648 0.046767574 -0.0085911155 0.60931683 0.12193257 -0.7834956 0.0033058235
0.069922611 0.046381995 -0.0072790524 0.72149694 0.07391315 -0.68846136 0.0034815171
-0.070054621 0.049527466 -0.0069306768 -0.62817472 -0.021626862 -0.77777171 0.0088014528
-0.067875624 0.049636174 -0.0084035574 -0.44995978 0.112189 -0.88597387 0.0059332438
-0.065601364 0.050980419 -0.0089298747 -0.16835839 0.40260735 -0.89975709 0.0088359667
-0.054830857 0.050824538 -0.0086652096 0.20339009 0.72480249 -0.65825057 0.003726946
-0.052233826 0.050281495 -0.0080453567 0.32691726 0.74575889 -0.58049011 0.00086312002
-0.04953913 0.049217749 -0.0078643477 0.33879727 0.72891092 -0.59489942 0.0010461787
-0.046832107 0.048636477 -0.0067752921 0.33653802 0.73751879 -0.58549833 0.00067338854
0.05080492 0.048045669 -0.0061185765 -0.4703235 0.74168462 -0.47822565 0.0017670003
0.052794907 0.048526689 -0.007257456 -0.39785957 0.70983785 -0.58123827 0.002399622
0.055473365 0.049541824 -0.0078089247 -0.35632315 0.68627495 -0.63408244 0.0025547473
0.058330804 0.050315917 -0.0083814096 -0.28206307 0.64591384 -0.70939118 0.0042409762
0.061392561 0.050817549 -0.0087870648 -0.065969892 0.51292384 -0.85589552 0.003742612
0.065568097 0.050584786 -0.0089745065 0.17008132 0.3367399 -0.92610937 0.00994022
0.067711279 0.049770508 -0.0083574569 0.4288432 0.23854905 -0.87131393 0.0061994484
0.069950797 0.049509577 -0.0068273153 0.68713611 0.12897524 -0.71498907 0.0068650031
-0.070244528 0.052508216 -0.0067449608 -0.49832243 0.098652042 -0.86136091 0.0097425869
-0.067570753 0.052548289 -0.0078899506 -0.28933316 0.26967925 -0.91845489 0.012492616
-0.064991243 0.052664723 -0.0082984092 -0.16711852 0.40226582 -0.90014088 0.006665796
-0.062204465 0.052574303 -0.0083897989 -0.047744825 0.50646895 -0.86093533 0.0037392955
-0.058596332 0.052581344 -0.0077500707 0.1929038 0.7018764 -0.68568051 0.0036451037
-0.055729613 0.051899757 -0.0076792119 0.22581914 0.73976141 -0.63384444 0.0018535398
-0.052941605 0.051342566 -0.0071601956 0.31775665 0.75726688 -0.57059401 0.0010362791
0.056259744 0.051448032 -0.0062041222 -0.36604783 0.6964643 -0.6172086 0.0022479645
0.058704928 0.051995695 -0.0069023208 -0.36136076 0.68895024 -0.628304 0.0028928281
0.061337996 0.052315768 -0.0077437293 -0.19685008 0.56727642 -0.79965454 0.0051036435
0.06443993 0.052322552 -0.0082608359 -0.017648045 0.49176338 -0.87055004 0.0081749121
0.067277931 0.052720618 -0.0076799821 0.17489682 0.36080855 -0.91609395 0.010467491
0.069612876 0.05234611 -0.0066262661 0.61411428 0.1567838 -0.77348727 0.0095789684
-0.07023222 0.055051833 -0.0063941306 -0.27698606 0.26732135 -0.92293984 0.015070499
-0.067773148 0.055390537 -0.006753678 -0.1427581 0.32829991 -0.93372333 0.010101565
-0.064834952 0.054705411 -0.0070863497 -0.053592503 0.47058269 -0.88072687 0.0047903522
-0.0615949 0.05453667 -0.0065268576 0.17902032 0.68292511 -0.70821255 0.0054041473
-0.058794782 0.054007657 -0.0061505646 0.18861282 0.71669602 -0.6713956 0.003297782
0.062348437 0.054306265 -0.0065370011 -0.21052727 0.5804683 -0.78659695 0.0077213827
0.064875275 0.055129472 -0.0067282543 -0.13852772 0.46869123 -0.87243259 0.0087517342
0.067593701 0.055500656 -0.0066378289 0.03640043 0.41368511 -0.90969205 0.014277766
0.069404878 0.055292308 -0.006183954 0.41745132 0.24932761 -0.87382501 0.014933649
0.067018814 0.057180639 -0.0060984404 -0.072478093 0.35833666 -0.93077481 0.015462547
-0.015286222 0.0029190562 -0.003205321 -0.2669574 -0.93417698 -0.23674275 0.0014320087
-0.01329062 0.0026299963 -0.0040393667 -0.21573642 -0.93117338 -0.29389432 0.0024370952
-0.010534096 0.0022345318 -0.0045750798 -0.15763105 -0.94047743 -0.30108905 0.0017275527
-0.0075799269 0.0018013198 -0.0045419913 -0.12763585 -0.93915474 -0.31890047 0.0022304226
-0.0045560556 0.0013861046 -0.0045772269 -0.094388403 -0.94086146 -0.32537737 0.0023325244
-0.0014662761 0.0011382955 -0.004502988 -0.051716298 -0.94083583 -0.3348932 0.0024645915
0.0014745033 0.0010351009 -0.004559597 -0.030958837 -0.94124418 -0.33630472 0.0027136598
0.0045526526 0.00097387633 -0.0045966646 0.010678059 -0.9471482 -0.32061863 0.0021363436
0.0075068795 0.0010480686 -0.0044608344 0.041029211 -0.94564903 -0.32259035 0.0026933167
0.01052069 0.0011912781 -0.0044709486 0.06037974 -0.9478271 -0.31301427 0.0023945365
0.01352591 0.0015124785 -0.0045703268 0.10230891 -0.94952863 -0.29652694 0.0021512478
0.016553381 0.0018727038 -0.0044591608 0.12493762 -0.95083994 -0.28336203 0.001867109
0.019480778 0.0023385738 -0.004562791 0.16321337 -0.94987553 -0.26664174 0.001701519
0.022117985 0.0026994303 -0.0039348993 0.19703028 -0.95010936 -0.24180827 0.0013583325
0.024323603 0.0029161666 -0.0030662613 0.20181122 -0.96915412 -0.1414656 0.0020957296
-0.024346955 0.0058986545 -0.0033530181 -0.35657707 -0.90633082 -0.22675361 0.0020208014
-0.022248358 0.0054317899 -0.0044033881 -0.32739785 -0.89471793 -0.30379328 0.0024047431
-0.019467054 0.004489033 -0.0045243776 -0.27607685 -0.90496486 -0.32375944 0.00206452
-0.016500698 0.0037119009 -0.0046493416 -0.25950894 -0.91270685 -0.31562829 0.0021637736
-0.013907209 0.0032394014 -0.0053233854 -0.22038351 -0.90659529 -0.35988349 0.001839038
0.020671219 0.0030332054 -0.0058804983 0.17673805 -0.93392485 -0.31072193 0.0016445374
0.022956021 0.0032483006 -0.0051724119 0.20641831 -0.93198085 -0.29799864 0.0017960056
0.025523074 0.0036290518 -0.0045727976 0.25220504 -0.93025911 -0.26647821 0.0014862688
0.028502226 0.0044574407 -0.004566398 0.26371509 -0.92306 -0.28002605 0.0019393153
0.03145903 0.0052873888 -0.0044197333 0.28396899 -0.92295784 -0.25982779 0.0020794743
0.033524133 0.0057993494 -0.0038899372 0.32638633 -0.91350174 -0.24287133 0.0018605521
-0.030782213 0.0086803325 -0.0040709297 -0.35065332 -0.88420349 -0.30858782 0.0020442372
-0.028500488 0.0078975298 -0.0045836135 -0.34929428 -0.88622689 -0.30429479 0.0019516154
-0.025560716 0.0067864433 -0.0046874764 -0.35464612 -0.88665766 -0.2967563 0.0017905385
-0.023411335 0.0062233242 -0.0054231002 -0.33608213 -0.88666755 -0.31759956 0.0023024119
0.032625809 0.0060670897 -0.0057933885 0.29483378 -0.90440118 -0.30843422 0.0027269572
0.03467375 0.0065218848 -0.0047935839 0.34587708 -0.90049386 -0.26359025 0.0016835034
0.037478618 0.0075127766 -0.0045529357 0.34566724 -0.90287501 -0.25559899 0.0012817682
0.04000603 0.008465251 -0.0042709955 0.3851496 -0.89100885 -0.24033929 0.0018822566
-0.036901776 0.01148269 -0.0042962078 -0.42306745 -0.85901982 -0.2882686 0.0022383409
-0.034473766 0.010387783 -0.0045216954 -0.40572146 -0.86480099 -0.29581982 0.0017185649
-0.031923305 0.0094308369 -0.0048798732 -0.37550598 -0.87434626 -0.30743089 0.0019968443
0.041235533 0.0092590349 -0.0049486258 0.41047415 -0.87063092 -0.27113226 0.0017073223
0.043524798 0.01023111 -0.0046124118 0.42435199 -0.8639583 -0.27111125 0.0014493689
0.046036322 0.011394132 -0.0043334602 0.4490436 -0.85677671 -0.25356138 0.0020315913
-0.042706918 0.014550817 -0.0041857506 -0.49238172 -0.81623495 -0.30219352 0.0022690296
-0.040537681 0.013496031 -0.0045885132 -0.46365601 -0.83512181 -0.29596406 0.001955641
-0.038271453 0.012399393 -0.0048676804 -0.44940266 -0.84498584 -0.28988996 0.0022757251
0.047285229 0.012315298 -0.0049198451 0.47811681 -0.83618844 -0.26868781 0.0019435572
0.04939967 0.013418633 -0.0045955349 0.49145103 -0.82897812 -0.2669667 0.0015822445
0.051483616 0.014573571 -0.0043877303 0.51301169 -0.811602 -0.27950156 0.0019170052
-0.048128016 0.017861141 -0.0031240564 -0.57466167 -0.79713553 -0.18530755 0.00030738066
-0.046283275 0.017102137 -0.0043891426 -0.54535967 -0.78916121 -0.28250226 0.0021999739
-0.044034105 0.01569451 -0.0048013651 -0.53620821 -0.79689187 -0.27828801 0.0015833148
0.052939758 0.015725095 -0.0047951024 0.53830719 -0.79779774 -0.2715587 0.0016658381
0.055175979 0.017174982 -0.0044798199 0.56114113 -0.779728 -0.27774966 0.0017531958
-0.051486205 0.020697443 -0.0038840536 -0.56275082 -0.77090347 -0.29836103 0.0019735147
-0.049557049 0.019502234 -0.0045722895 -0.572644 -0.76989251 -0.28168121 0.0019246027
-0.04752503 0.018242503 -0.005149568 -0.56574333 -0.77506375 -0.28144407 0.001994462
0.05638431 0.018287504 -0.0051349327 0.57719034 -0.76208657 -0.29338595 0.0021925394
0.058385473 0.019673323 -0.0045974199 0.61932766 -0.72716683 -0.29607716 0.0023039046
0.060249668 0.020876862 -0.0037484029 0.64065659 -0.71138006 -0.28895926 0.0016262662
-0.054781463 0.023344202 -0.0042310553 -0.59583038 -0.74891794 -0.29001376 0.0018752565
-0.052773129 0.021966854 -0.0047072228 -0.58492011 -0.76006657 -0.28313836 0.0017481296
0.059736598 0.021252807 -0.0053808801 0.6361376 -0.69757801 -0.32971793 0.0016329738
0.061137397 0.022267006 -0.0047651576 0.64462131 -0.67619938 -0.35667586 0.002462331
0.063424662 0.023857426 -0.0035570776 0.71211892 -0.64755899 -0.27120849 0.0014371244
-0.058021892 0.026099836 -0.0043877405 -0.62440789 -0.71515411 -0.31411695 0.0021258302
-0.05609845 0.024665305 -0.0047952696 -0.60890728 -0.73730493 -0.29259777 0.0018055615
0.062795162 0.024258297 -0.0057319859 0.68792665 -0.64299899 -0.33661452 0.0020248999
0.064365193 0.025544032 -0.0045769536 0.72902101 -0.60839367 -0.31366467 0.0015595687
0.066195443 0.026984742 -0.0030755915 0.78916639 -0.55697209 -0.25884065 0.0016782919
-0.060934734 0.028964458 -0.0044305734 -0.68555546 -0.64486021 -0.33788899 0.0020002301
-0.059405148 0.02754344 -0.0048683542 -0.66541713 -0.68425733 -0.2983487 0.0020266718
0.065605015 0.027547982 -0.0052953828 0.74771219 -0.56603795 -0.3471705 0.0027287884
0.066792175 0.028690618 -0.0043901759 0.78002208 -0.50635219 -0.36765888 0.0021193614
-0.063759089 0.03205999 -0.0043508625 -0.73108387 -0.58953214 -0.34346518 0.0020124547
-0.062366974 0.030739836 -0.0049233478 -0.71188372 -0.62269008 -0.32477477 0.0025512448
-0.0071308454 0.032736268 -0.0058902698 0.17738493 0.86500365 -0.46936482 0.00091906445
-0.004340806 0.032617636 -0.0052008294 0.14356311 0.8780902 -0.45645067 0.00082753418
-0.0013399012 0.032429129 -0.0047652563 0.097607531 0.8823548 -0.46035084 0.00043540887
0.002272543 0.032051027 -0.0050434195 0.022004267 0.87464201 -0.48426977 0.0025424652
0.0034712532 0.032483235 -0.0038896708 0.04365721 0.89082921 -0.45223594 0.0010658955
0.014801947 0.032781616 -0.0050692102 -0.17322063 0.88803476 -0.42589778 0.0011043978
0.015353486 0.03254455 -0.0059295045 -0.19035693 0.87194538 -0.45108271 0.0010190646
0.068050027 0.031238806 -0.0049997619 0.81095177 -0.41893747 -0.40847108 0.0020690123
0.069142438 0.032114476 -0.0035823616 0.82994628 -0.40802485 -0.38040087 0.0020277598
-0.066573225 0.035462141 -0.0039818981 -0.76339495 -0.53845018 -0.35679054 0.0023661696
-0.065198921 0.034156889 -0.0047567203 -0.74653226 -0.568326 -0.34596983 0.0021353092
-0.016832363 0.035128642 -0.0059998357 0.256282 0.84894347 -0.46218458 0.00063132856
-0.012427072 0.033997502 -0.005664099 0.20771757 0.83177626 -0.51478308 0.00096939196
-0.0063509136 0.033338774 -0.0041355276 0.16435003 0.86472553 -0.47459331 0.0009360059
0.014259887 0.033036239 -0.0041546752 -0.17321979 0.88803375 -0.42590013 0.0011034757
0.019692287 0.033987164 -0.0047398848 -0.21450007 0.88126808 -0.42113698 0.0003375102
0.022867827 0.034930475 -0.0046093678 -0.25107938 0.87263173 -0.41889504 0.00029066415
0.025251631 0.035426982 -0.0051016128 -0.27111042 0.86469162 -0.42285654 0.00059404707
0.068857528 0.033688471 -0.0057417243 0.82571232 -0.34726718 -0.44452751 0.0012366242
0.069739036 0.034472369 -0.0046525095 0.85957319 -0.33296743 -0.38764241 0.0020214524
-0.069094166 0.038767483 -0.0033958969 -0.80801046 -0.47274509 -0.35161239 0.0022578165
-0.067620009 0.037511725 -0.0045876238 -0.78767508 -0.49423608 -0.36782977 0.0032645285
-0.065975226 0.036123693 -0.00584818 -0.75924575 -0.47275913 -0.44726366 0.0059917374
-0.025934519 0.038796559 -0.0053618345 0.35505465 0.83332145 -0.42368802 0.00055937731
-0.020528836 0.036819391 -0.004743888 0.31074065 0.83400738 -0.45592982 0.00084380864
0.028297041 0.03641722 -0.0049738418 -0.28945529 0.86401653 -0.41193581 0.00044569236
0.031705257 0.037804667 -0.0044889469 -0.32013148 0.85573936 -0.40648001 0.00055621855
0.033850469 0.038537741 -0.0050095846 -0.37969333 0.83325559 -0.40189326 0.001023407
0.070674494 0.037447773 -0.0048404597 0.8728956 -0.24933416 -0.41938737 0.0023661931
-0.069696665 0.040757913 -0.0041930564 -0.82909781 -0.40132812 -0.38927183 0.0037699293
-0.068634614 0.039819781 -0.0052827164 -0.80682063 -0.40920621 -0.42613468 0.0043319808
-0.031659845 0.041704692 -0.0046312218 0.39531925 0.81648803 -0.42079693 0.00043958638
-0.026741523 0.039699197 -0.0040166886 0.36879575 0.82779896 -0.42277488 0.00066510477
0.035049342 0.039343394 -0.004339234 -0.40373001 0.81560004 -0.41448617 0.00096127298
0.037428472 0.040312078 -0.0049809585 -0.4441283 0.80697656 -0.38928005 0.00054538174
0.039415546 0.041391984 -0.0052115358 -0.4631995 0.7911002 -0.39950818 0.00023876043
0.071301527 0.040211495 -0.0048471671 0.87793833 -0.17688401 -0.4449003 0.0029657418
0.07211671 0.04105594 -0.0033136986 0.8938778 -0.1637022 -0.41735369 0.006683846
-0.070578121 0.043505967 -0.0046039391 -0.84680527 -0.3038815 -0.43655115 0.0033534209
-0.036927719 0.044625301 -0.0039717038 0.41195971 0.79000986 -0.45406359 0.0012531964
0.041279696 0.043050177 -0.0040436215 -0.46505496 0.77336895 -0.43084145 0.00098973582
0.043421619 0.04406672 -0.0047429567 -0.48208743 0.77841592 -0.40207013 0.00032301602
0.071556374 0.04331344 -0.0051191449 0.84320372 -0.071516968 -0.53281587 0.0028221635
0.072345294 0.04318567 -0.0034776588 0.88199478 -0.072113782 -0.46570903 0.0014806056
-0.072307192 0.046963856 -0.0036356151 -0.84319437 -0.28404957 -0.45644173 0.0032559279
-0.071284018 0.046303332 -0.0049801134 -0.82587475 -0.23190771 -0.51395494 0.0067648669
0.044771597 0.045352299 -0.0036890656 -0.49152815 0.77373511 -0.39966759 0.00027524086
0.046302762 0.046115786 -0.0044341767 -0.47980905 0.74822152 -0.45820075 0.00094829767
0.049106359 0.047512334 -0.0053914199 -0.46220332 0.73887038 -0.49034542 0.0013225029
0.071554556 0.04649993 -0.0051729004 0.81221169 0.024934726 -0.58282971 0.0017878218
0.072143719 0.047241837 -0.004130492 0.8260144 0.022999164 -0.56317949 0.0014291815
-0.072772689 0.049638178 -0.0040401309 -0.78811437 -0.22144289 -0.57431602 0.0065243435
-0.071573511 0.049363434 -0.0055315648 -0.76480985 -0.14274065 -0.6282444 0.0076485095
-0.049653906 0.050786648 -0.0056169382 0.33850431 0.7438854 -0.57623732 0.00068971189
0.049887083 0.048534133 -0.0042135287 -0.46268567 0.75322312 -0.46752211 0.00073058554
0.052415773 0.049793754 -0.0048090112 -0.47744778 0.7595796 -0.44168136 0.0010724736
0.054377422 0.050551344 -0.0056079645 -0.44069204 0.75433689 -0.48658651 0.0026663472
0.071329385 0.049648549 -0.0053268857 0.76200134 0.071414754 -0.64362568 0.0031999438
0.072376542 0.049612261 -0.0036661455 0.79841882 0.04996302 -0.60002595 0.0030495904
-0.073389307 0.052554559 -0.0043368167 -0.72338474 -0.17718725 -0.66732252 0.0075385715
-0.071729772 0.052409779 -0.0057425387 -0.62645417 -0.041180484 -0.77836961 0.0082663754
-0.055651851 0.053540282 -0.0052772174 0.27704021 0.7858699 -0.5528627 0.00060523179
-0.052668773 0.052216161 -0.0056451019 0.31771699 0.75729847 -0.57057422 0.001005369
-0.050624054 0.051188886 -0.0057203416 0.34038588 0.74036407 -0.57965386 0.00071944011
0.053823881 0.051121261 -0.0041464493 -0.44082108 0.74029547 -0.50758189 0.0016098067
0.055440243 0.051669378 -0.0048876982 -0.43646029 0.72719908 -0.52979606 0.0016088848
0.05827279 0.053129986 -0.0051247482 -0.44663715 0.69705516 -0.56091839 0.0033207748
0.071117476 0.052713253 -0.0052402574 0.75417721 0.07437215 -0.65244585 0.0034872373
0.072516605 0.052113481 -0.0033913306 0.76757383 0.061469037 -0.63800621 0.0028288034
-0.075238228 0.055346884 -0.0031904266 -0.76074296 -0.036804639 -0.64800894 0.030480277
-0.073549174 0.055374358 -0.0046871169 -0.64085519 0.0067678872 -0.76763195 0.017783416
-0.071201801 0.055937383 -0.0058214716 -0.35392663 0.1244464 -0.92695689 0.016646575
-0.067110918 0.056904465 -0.0059170853 -0.096667901 0.40969738 -0.90708512 0.0070999451
-0.064283036 0.056490421 -0.0055320682 0.20696503 0.65707284 -0.72485912 0.0039701671
-0.061392169 0.055838801 -0.0048474446 0.24971494 0.69463724 -0.67462707 0.0014797208
-0.05890869 0.054945756 -0.0047591799 0.24032035 0.73664111 -0.63214403 0.0014798198
0.059117083 0.05446101 -0.0041622608 -0.42601353 0.69543433 -0.5786913 0.0032851095
0.061628014 0.055633299 -0.004810743 -0.45603806 0.65410227 -0.60347289 0.0047577657
0.06427037 0.056554329 -0.0055870246 -0.27848405 0.54245406 -0.7925846 0.0098768743
0.070842825 0.055579841 -0.0051175058 0.60321426 0.10460415 -0.79068995 0.015639599
0.072218597 0.055861562 -0.0036937688 0.68220848 0.053745773 -0.72917968 0.0094311582
-0.073254831 0.057402935 -0.0045931921 -0.51861703 0.10855561 -0.84808731 0.019347252
-0.070770174 0.057763949 -0.0054318612 -0.24864329 0.32821587 -0.91129082 0.019388275
-0.068183877 0.057763033 -0.0053934436 0.0011737591 0.51839423 -0.85514098 0.0062815445
-0.064888984 0.058005325 -0.0042650113 0.24895065 0.6765334 -0.69305569 0.0032302747
-0.062581047 0.057119112 -0.0039359564 0.27313536 0.69291085 -0.66728681 0.0010091297
0.06272091 0.057862882 -0.0032212804 -0.51179039 0.58384961 -0.63023031 0.012227075
0.064835966 0.058497552 -0.0045510014 -0.37272209 0.48795786 -0.78928792 0.012746676
0.06748762 0.058600392 -0.0055440348 -0.10194989 0.34794116 -0.93195665 0.01449968
0.070350192 0.058863115 -0.0049273218 0.24473815 0.22063667 -0.94415188 0.023827067
0.072371259 0.058789998 -0.0034375777 0.54157197 0.063936122 -0.83821952 0.016994989
-0.067412458 0.060092464 -0.0032734224 0.21346273 0.68139327 -0.70009786 0.0041936641
0.065457888 0.06134193 -0.0034980814 -0.50932699 0.33126751 -0.79425931 0.011250008
0.067438699 0.061500337 -0.0045896582 -0.31073672 0.24371666 -0.91871911 0.02616672
0.070274182 0.061650693 -0.0046920059 0.17131609 0.14521508 -0.97445536 0.024420785
0.072342671 0.061187323 -0.0036249983 0.30366263 0.075220317 -0.94980574 0.02493714
0.065812521 0.063766941 -0.0030258654 -0.81824261 0.20934254 -0.53540152 0.022496283
0.067576073 0.064436227 -0.0039576567 -0.43957248 0.19061114 -0.87774909 0.017488681
0.070329674 0.064590596 -0.0044568931 0.070281148 0.075703524 -0.99465042 0.026697019
0.072746314 0.065056115 -0.003542538 0.29946324 -0.043486264 -0.9531163 0.015603095
0.067926936 0.067419499 -0.0037232942 -0.51915324 0.11580608 -0.84679914 0.015655408
0.070431508 0.067453116 -0.0044967229 0.013951685 -0.014876969 -0.99979198 0.028436033
0.072817549 0.067623526 -0.0038783334 0.32518736 -0.082055978 -0.94208276 0.013457854
0.068276234 0.070374869 -0.0035538513 -0.64566809 0.078472219 -0.75957549 0.017591527
0.070465446 0.070646442 -0.0045167385 -0.26368964 -0.031379264 -0.96409708 0.029763451
0.073259763 0.070643999 -0.0041805883 0.31121558 -0.17987362 -0.9331615 0.021001315
0.075130686 0.071635701 -0.0031846175 0.64021182 -0.23302491 -0.73200285 0.0059513859
0.068505019 0.073242538 -0.0035114505 -0.68896484 0.075777158 -0.72082263 0.025800012
0.070511632 0.073538274 -0.0047191898 -0.35205072 -0.063433498 -0.93382895 0.030766368
0.073460683 0.073512346 -0.0048350426 0.2130951 -0.1415001 -0.96673071 0.036741544
0.075671494 0.073249437 -0.0034547569 0.2085233 -0.15149693 -0.96621257 0.037330981
0.068677984 0.0757434 -0.0034152484 -0.60600436 0.19165727 -0.77202737 0.039050002
0.070310675 0.075581871 -0.0046691233 -0.45285046 0.10729682 -0.88510662 0.049583118
0.072894491 0.075285368 -0.0052647144 -0.05209187 -0.067348965 -0.99636871 0.062361002
-0.015830953 0.0027649 -0.0012545433 -0.25116616 -0.95664144 -0.14748843 0.00089924928
-0.013481446 0.002161742 -0.0015959613 -0.21692187 -0.96288496 -0.16061543 0.0012022206
-0.010457457 0.0015328759 -0.0015697647 -0.15536653 -0.97490811 -0.15942217 0.0025637893
-0.0074622803 0.0011042285 -0.0015720181 -0.13199273 -0.98070526 -0.14420497 0.00341186
-0.0045355684 0.00070008932 -0.0015845139 -0.10108229 -0.98909158 -0.10714585 0.0039574504
-0.0014595416 0.00048419368 -0.0015285048 -0.057254061 -0.98971862 -0.13106865 0.0027988197
0.0015441952 0.00038363508 -0.0016901315 -0.032853678 -0.99069452 -0.13207921 0.0057620015
0.0044484851 0.00030198367 -0.0014787003 0.0074155168 -0.99273258 -0.12011245 0.0034682143
0.0074993111 0.00042025335 -0.0014008153 0.042901468 -0.99557948 -0.083552562 0.0033747659
0.010499138 0.00056863547 -0.0013570084 0.084596246 -0.98856628 -0.12482034 0.0023964907
0.013481435 0.00089011778 -0.0016193789 0.12512156 -0.98876321 -0.081804603 0.0054650209
0.016558288 0.0012780601 -0.0013713656 0.13625434 -0.98036933 -0.14251578 0.003365013
0.019521317 0.001755318 -0.001644433 0.17656769 -0.97526133 -0.13300046 0.0025169861
0.022486573 0.0023717182 -0.0015335496 0.19506052 -0.97510773 -0.10543334 0.0019506738
0.024745503 0.0028260835 -0.001194859 0.21772943 -0.97217286 -0.086450808 0.0018965761
-0.024730159 0.0057155471 -0.0014400184 -0.35435876 -0.91692036 -0.18354 0.00069275667
-0.022557104 0.0048980224 -0.0015572738 -0.32994786 -0.92459512 -0.19041622 0.00025759861
-0.019522822 0.0038203821 -0.001537393 -0.29432595 -0.93956017 -0.17492585 0.00045517305
-0.017154794 0.0031927254 -0.0018431364 -0.27745104 -0.94663751 -0.16400734 0.00063274783
0.026134923 0.0031991594 -0.0017191846 0.26916924 -0.95868784 -0.092007868 0.0016662112
0.028419977 0.0038448845 -0.0015232251 0.27974901 -0.9557243 -0.091276936 0.0014812798
0.031476926 0.0047440939 -0.0014086887 0.29127857 -0.9531191 -0.081980951 0.0011973972
0.034072239 0.0056277495 -0.0014939796 0.32298666 -0.94309855 -0.079024263 0.0019293163
-0.033040084 0.0089158397 -0.00014837195 -0.34719715 -0.91605651 -0.20073514 0.0053783716
-0.03137349 0.0083975634 -0.0014963533 -0.38069731 -0.90068656 -0.20936383 0.00040779565
-0.028513767 0.0071993843 -0.0015389477 -0.35567027 -0.90992618 -0.2133846 0.00097559317
-0.026191285 0.0063172034 -0.001794855 -0.3607758 -0.91289598 -0.1909494 0.00060976803
0.035525337 0.0061897486 -0.0015625166 0.36796203 -0.92663848 -0.077104501 0.0019156862
0.037426002 0.0069122878 -0.0015324127 0.36761498 -0.92640471 -0.081447162 0.0018389219
0.040441435 0.0081786076 -0.0016481588 0.39753932 -0.9106406 -0.11267694 0.001430625
0.042261705 0.0088672247 -0.00035557555 0.41732979 -0.90058285 -0.12159922 0.0010912105
-0.039148994 0.011934543 -0.00080096035 -0.45309046 -0.85814548 -0.2414443 0.0022877757
-0.03745731 0.011150162 -0.0015140631 -0.43198526 -0.87159729 -0.23174752 0.001720162
-0.034516037 0.0097307041 -0.0015425807 -0.39302278 -0.88712019 -0.24197286 0.0017334953
-0.032779869 0.0090472735 -0.0020878569 -0.37995204 -0.89689696 -0.22630133 0.0012152869
0.041824833 0.0090158228 -0.0028801872 0.40434361 -0.90767872 -0.11236394 0.0024265761
0.043607727 0.0096705174 -0.0016409154 0.43979567 -0.89077008 -0.11449187 0.0011812565
0.046407562 0.011055174 -0.0014548553 0.45963007 -0.88092154 -0.11277106 0.0014406486
0.048232026 0.011981599 -0.00076054566 0.48896474 -0.86505336 -0.1122324 0.0010979857
-0.043142747 0.014237762 -0.0014910294 -0.51580077 -0.83151096 -0.20625016 0.0026214982
-0.040547058 0.012796023 -0.0016177358 -0.46305406 -0.85522032 -0.2327641 0.0015760291
-0.038897686 0.012124289 -0.0028643329 -0.45271695 -0.86352915 -0.22218192 0.0010416124
0.049593229 0.012902979 -0.0016655609 0.50164539 -0.85665393 -0.1203992 0.0013654237
0.051927704 0.014267575 -0.0015032639 0.52600741 -0.84082741 -0.12777154 0.0012450091
-0.048299402 0.01776181 -0.0010639982 -0.57469887 -0.78636104 -0.22662194 0.001363265
-0.046534967 0.016589493 -0.0015626779 -0.54625165 -0.80604279 -0.2278249 0.0026297991
-0.04467487 0.015315209 -0.0017928729 -0.55450857 -0.79858679 -0.23404996 0.0032273412
0.053379655 0.015332029 -0.0020711375 0.55607879 -0.81422961 -0.16675292 0.001245615
0.055432633 0.016715178 -0.0017378562 0.57711542 -0.7998206 -0.16499962 0.00096251303
0.057163928 0.017787462 -0.0007768147 0.58319914 -0.79529607 -0.16547777 0.0010310697
-0.051771089 0.020381162 -0.001460485 -0.59280086 -0.78021771 -0.1996185 0.0013061775
-0.04973026 0.018871376 -0.0016440802 -0.57360375 -0.78632355 -0.22950828 0.0014026758
0.058523383 0.01899015 -0.0016928784 0.6153087 -0.76846558 -0.17565861 0.0011662886
0.06042055 0.020495322 -0.0014525992 0.64654773 -0.74793631 -0.15022418 0.0018231992
-0.055231471 0.023034329 -0.0015117708 -0.61451542 -0.76747167 -0.18264183 0.0011846704
-0.053279113 0.021527248 -0.0016065723 -0.5999853 -0.7654708 -0.23253399 0.0028879687
0.061894104 0.021977229 -0.002030198 0.68734103 -0.70587987 -0.17116036 0.0019563863
0.063356951 0.02342324 -0.0019177368 0.71566468 -0.66975999 -0.19810499 0.0023211031
-0.060111351 0.026928253 -0.00070471875 -0.68014169 -0.70914024 -0.18581589 0.00059317256
-0.058477968 0.025715409 -0.0014991447 -0.64032096 -0.74629384 -0.18175393 0.00087734713
-0.056750059 0.024331516 -0.0018645028 -0.63140625 -0.7492494 -0.19987859 0.0014249893
0.065001011 0.025245849 -0.0016252107 0.7553674 -0.62624836 -0.19295873 0.0014164402
0.066342965 0.026826819 -0.0013043375 0.7914322 -0.60122663 -0.11028009 0.0044702999
-0.061516915 0.028646255 -0.0015039089 -0.71094918 -0.68140644 -0.17388648 0.00087332289
-0.059841119 0.027131461 -0.0026479852 -0.66331601 -0.69873804 -0.26791236 0.0017682541
0.067777351 0.029137149 -0.0021658293 0.83475214 -0.5014661 -0.22742146 0.0014488435
-0.064156488 0.031531673 -0.0015447425 -0.75872695 -0.63240021 -0.15621558 0.0014517779
-0.062729575 0.030135451 -0.0026035053 -0.73225993 -0.65215331 -0.19619197 0.0010120588
0.068637878 0.030306717 -0.0014985073 0.85523766 -0.50673968 -0.10855173 0.003405611
0.069518454 0.031899992 -0.0015309621 0.885598 -0.44764808 -0.12380378 0.0034116812
-0.066784799 0.03481555 -0.0015125233 -0.80688548 -0.57241392 -0.14587021 0.0024185111
-0.065648846 0.033438846 -0.0018265737 -0.78090441 -0.60794151 -0.14351128 0.0016703828
0.070623174 0.034626249 -0.0021414841 0.89558983 -0.3623375 -0.25812876 0.0022997824
-0.069331028 0.038525555 -0.001255108 -0.84833056 -0.50150359 -0.16979231 0.0043585259
-0.068293191 0.037030969 -0.0017243723 -0.8218106 -0.55122858 -0.14413328 0.0025690738
0.071721934 0.037956331 -0.002378704 0.89805239 -0.27627048 -0.34231067 0.0035904702
0.072044492 0.038119677 -0.0006384814 0.94017577 -0.27536172 -0.20061268 0.0048346929
-0.070394784 0.040471669 -0.0016678401 -0.87874538 -0.44692603 -0.16752206 0.0031778833
0.071934015 0.039165139 -0.0029641101 0.89930379 -0.24183662 -0.36437306 0.004090107
-0.072251357 0.04454146 -0.001198039 -0.90678757 -0.35952583 -0.220176 0.0055794604
-0.071533509 0.043143958 -0.0018978254 -0.89039123 -0.36746487 -0.26865011 0.0037053861
-0.072838791 0.046591535 -0.0017839257 -0.90229243 -0.29393759 -0.3153871 0.006172244
0.072840504 0.046521634 -0.0023522638 0.87059617 -0.021338265 -0.49153537 0.0015270167
-0.073990844 0.049684424 -0.00167253 -0.87450427 -0.29477134 -0.38516501 0.0099936174
0.051839318 0.05028994 -0.0028529197 -0.47853804 0.77433324 -0.41401625 0.00042885297
-0.075423278 0.052860722 -0.001477569 -0.84735781 -0.25327313 -0.46673056 0.017361341
-0.074602313 0.051535949 -0.0022530484 -0.84298974 -0.30433813 -0.44356129 0.012589723
0.055060074 0.052404486 -0.0026988434 -0.47569147 0.7502777 -0.4591307 0.0011559331
0.072883442 0.052563868 -0.0026430432 0.79420823 0.031814732 -0.60681224 0.0025477363
-0.075798161 0.055068474 -0.0019497849 -0.82943761 -0.12010698 -0.54553425 0.030445272
0.058785357 0.055023752 -0.0025894404 -0.46899945 0.71013844 -0.52511227 0.0023918776
0.061142508 0.056750558 -0.0026875786 -0.52611268 0.64688474 -0.55203772 0.0037654024
0.073083438 0.055087455 -0.0022038473 0.7407614 0.033110369 -0.67095184 0.0042209993
-0.064503416 0.058899883 -0.0029302218 0.25302204 0.68246943 -0.68572253 0.0029634794
0.062129207 0.058209352 -0.0015956445 -0.5855878 0.59023428 -0.55561721 0.0065381113
0.063382596 0.059465341 -0.0022421076 -0.69159108 0.52130598 -0.4999418 0.0093419878
0.073312625 0.058950976 -0.002085981 0.68000406 -0.0072331829 -0.73317266 0.0044636861
-0.066908255 0.06066798 -0.0018864811 0.2136015 0.68130022 -0.70014608 0.0042174738
-0.065947309 0.060093857 -0.0022228542 0.21361461 0.68128538 -0.70015651 0.0042257826
0.064516954 0.061577484 -0.0020037673 -0.67677355 0.38242608 -0.62906897 0.0083720246
0.073377073 0.061635442 -0.0024219775 0.60249007 -0.015413417 -0.79797757 0.0056145256
0.065352716 0.064476728 -0.0016639517 -0.70197433 0.23812319 -0.67121482 0.0131973
0.066196226 0.065112837 -0.0027426928 -0.65553463 0.23694137 -0.71703076 0.017558044
0.073869362 0.06455645 -0.0021582404 0.54078853 -0.061893724 -0.83887839 0.0087831784
0.065798573 0.066808015 -0.0013545827 -0.81945497 0.22633699 -0.52655983 0.010588813
0.066482462 0.067685507 -0.0022645101 -0.71917009 0.20516467 -0.66385382 0.020629928
0.074478462 0.067446843 -0.0023571402 0.56760186 -0.17814292 -0.80379921 0.010852539
0.075543992 0.068596996 -0.00068551046 0.73694009 -0.25390145 -0.62646103 0.006234203
0.065991297 0.06925977 -0.00037254352 -0.9166196 0.23022634 -0.32680953 0.024118222
0.066942744 0.070486329 -0.0018542809 -0.75634092 0.17259966 -0.63099748 0.013148873
0.074798621 0.069589809 -0.0026384029 0.57756341 -0.24046832 -0.78012526 0.01197763
0.075713426 0.070900403 -0.0020153606 0.57752919 -0.24051978 -0.7801348 0.011980397
0.067469321 0.073553257 -0.0019202573 -0.79718691 0.11846513 -0.59199589 0.017227741
0.076497376 0.072880402 -0.0021802606 0.5123142 -0.23965141 -0.82468259 0.014710421
0.067756116 0.075864904 -0.001794783 -0.76245564 0.1366495 -0.63244623 0.020207703
-0.018243402 0.0028820385 0.0023203176 -0.24295896 -0.96978289 -0.022182984 0.0065087471
-0.016388023 0.0025760697 0.0014634267 -0.22396044 -0.97444332 -0.017378403 0.0055970922
-0.013498413 0.0019279091 0.0014013472 -0.19804181 -0.98018175 0.0048019998 0.001573273
-0.01050808 0.0014169193 0.001461443 -0.15023096 -0.9861809 0.069841884 0.0035271489
-0.0075678029 0.0010606127 0.0014713377 -0.1260033 -0.98753667 0.09431079 0.0039554313
-0.0044152527 0.00064171443 0.0012939564 -0.089211896 -0.99217105 0.087395504 0.0045206784
-0.0013797622 0.00050090608 0.0017127733 -0.046627812 -0.99157441 0.12085516 0.0039194929
0.0014842475 0.00036281976 0.0012325542 -0.027559897 -0.99740785 0.066469133 0.0032639941
0.0045000943 0.00031925272 0.00142035 0.023995217 -0.98526531 0.16934122 0.0043402421
0.0075800819 0.00042314548 0.0012637365 0.046960793 -0.99602389 0.075704403 0.0083874799
0.010529166 0.00057591166 0.0013165961 0.068807401 -0.98795325 0.13861454 0.0067799417
0.013652886 0.00089589827 0.001232464 0.11208399 -0.99092692 0.074169502 0.0032119642
0.016159935 0.0012496171 0.0014658106 0.1433423 -0.98964435 0.0075420644 0.004708698
0.019369258 0.0017088043 0.0012317629 0.17518106 -0.98208112 0.069485754 0.0025683364
0.022533556 0.0023804817 0.0013296203 0.20175718 -0.97681898 0.071545236 0.0021620949
0.024827106 0.0028381858 0.0010194918 0.2216195 -0.97436041 0.038815256 0.0026163075
-0.027545959 0.0057652388 0.0022124462 -0.33930531 -0.93542987 -0.099211954 0.008914873
-0.025420889 0.0053555071 0.0014442937 -0.31404057 -0.94310778 -0.1092069 0.0062146485
-0.022527076 0.0043886881 0.0014428255 -0.32459337 -0.94310468 -0.072060779 0.0021976507
-0.01964823 0.0034760097 0.0013779639 -0.29679808 -0.95251548 -0.068008907 0.0027554836
-0.017671801 0.0031028818 0.00057073619 -0.22610612 -0.97084922 -0.079547934 0.0017321128
0.025987899 0.0031737399 0.0015202182 0.2575857 -0.96459973 0.056541417 0.0021530699
0.028508285 0.0038684092 0.001291648 0.28218311 -0.95785981 0.053639863 0.001979195
0.031312291 0.0047069434 0.0013181345 0.30299854 -0.95134693 0.055955175 0.0016057384
0.033913817 0.0055881292 0.0015055015 0.32674834 -0.94310218 0.061593272 0.0017401533
-0.036046423 0.0089811711 0.0018827445 -0.40984786 -0.90408355 -0.12106925 0.014618493
-0.034223061 0.0084915943 0.0017436491 -0.37680975 -0.91383255 -0.15140799 0.0062846099
-0.031502418 0.0076782294 0.0013956114 -0.35456318 -0.92140365 -0.15906002 0.0030574016
-0.028671853 0.0066589885 0.0011946815 -0.3646006 -0.91810632 -0.15539375 0.0041681263
-0.026563356 0.006240081 0.00053870928 -0.32854387 -0.93226242 -0.15147874 0.0037129726
0.035453927 0.0062036817 0.0016977143 0.35254815 -0.93379414 0.061142389 0.001707769
0.0372857 0.0069152149 0.0017992799 0.36333057 -0.92921942 0.067395464 0.0013096378
0.040656392 0.0082393186 0.00099852204 0.39542663 -0.91832525 0.01779072 0.0018354567
0.042137884 0.0089279348 0.00095289439 0.42282042 -0.90296066 0.076712839 0.0016863756
-0.042107303 0.011957246 0.0025443984 -0.49200609 -0.85036278 -0.18658286 0.010098402
-0.040185411 0.01133987 0.0017464025 -0.43850303 -0.88137114 -0.17578404 0.0083477879
-0.037536528 0.010317399 0.0013499846 -0.45308095 -0.86875826 -0.19994168 0.0045325626
-0.034879778 0.0094263405 0.00079075876 -0.39616793 -0.89513344 -0.20441899 0.003900571
0.041975193 0.0091172336 0.0026046806 0.42216685 -0.90607232 0.028427204 0.00095416064
0.044174016 0.0099008791 0.00099185738 0.45006365 -0.89294201 0.0098572187 0.0011632828
0.046219319 0.010988798 0.0014788223 0.45262435 -0.88655502 0.095663123 0.0012752768
0.048016012 0.011952447 0.00095864059 0.48550323 -0.87331384 0.040119156 0.0018637666
-0.045681287 0.014493416 0.0019595542 -0.54924214 -0.80970424 -0.20666939 0.005733253
-0.043433476 0.013440936 0.001398927 -0.53134114 -0.8123219 -0.24043673 0.00745425
-0.040918052 0.012523307 0.00078553543 -0.45603046 -0.85424113 -0.24961609 0.0046459329
0.047763579 0.01205125 0.0023111689 0.47696736 -0.87822807 0.034895442 0.0009200676
0.049639896 0.012946874 0.0014307657 0.50980508 -0.85968554 0.032242395 0.0019146382
0.052046683 0.014309814 0.0014631955 0.52610457 -0.84320748 0.11052202 0.0024402845
-0.05107731 0.017863294 0.0029684969 -0.53319442 -0.84584379 0.015877316 0.014493824
-0.049143583 0.017125072 0.0017256006 -0.55947882 -0.80400568 -0.20139107 0.0049149287
-0.046783447 0.015921144 0.0012067811 -0.54211658 -0.80900353 -0.22720666 0.0056005735
-0.044703741 0.015144792 0.00050962425 -0.54326773 -0.8085615 -0.22602752 0.0053845537
0.053564135 0.015339673 0.001396567 0.55290401 -0.82620353 0.10809679 0.0025214946
0.055519585 0.01670227 0.0014140495 0.57959372 -0.80678457 0.11475997 0.002849763
0.057220012 0.0178959 0.0014734637 0.58417153 -0.80196857 0.12486025 0.0026875022
-0.05440576 0.020726325 0.0023286829 -0.61690646 -0.7481004 -0.24448374 0.0047096498
-0.052358467 0.019701624 0.0016550139 -0.58388251 -0.77047658 -0.25582629 0.0054990076
