# .PCD v0.7 - Point Cloud Data file format
VERSION 0.7
FIELDS x y z normal_x normal_y normal_z curvature
SIZE 4 4 4 4 4 4 4
TYPE F F F F F F F
COUNT 1 1 1 1 1 1 1
WIDTH 676
HEIGHT 1
VIEWPOINT 0 0 0 1 0 0 0
POINTS 676
DATA ascii
-18.895571 11.782566 -1.3897734 0.038934503 0.097353883 -0.99448794 0
-18.892393 11.782731 -1.3895396 0.90358055 -0.42391759 -0.061934989 0
-18.889919 11.782714 -1.3892287 0.0016759762 -0.10834451 -0.99411201 0
-18.900257 11.785531 -1.3891195 0.26679105 0.084769115 -0.96001911 0
-18.89838 11.785605 -1.389979 0.0039626635 0.02232963 -0.99974287 0
-18.895418 11.785476 -1.3903109 0.16418009 0.048331384 -0.98524565 0
-18.892635 11.786089 -1.3900609 -0.81375414 -0.57736069 0.066774674 0.00030448596
-18.889977 11.785564 -1.3894243 0.029756119 -0.030851102 -0.99908096 0
-18.887705 11.78652 -1.389099 0.1664443 0.081177637 -0.98270369 0
-18.900824 11.788341 -1.3895565 0.19980186 -0.013425512 -0.97974437 0
-18.89827 11.788467 -1.3905678 0.039163966 0.047435485 -0.99810624 0
-18.895477 11.788553 -1.3907433 -0.020695921 -0.091612719 -0.99557966 8.2771192e-05
-18.892063 11.788315 -1.3902166 0.11495011 -0.065940283 -0.9911803 0
-18.889492 11.788378 -1.3896656 0.034542609 -0.1165341 -0.99258584 0.0027156267
-18.887581 11.789021 -1.3892287 0.30448911 0.94015896 -0.15292972 0.001567507
-18.903082 11.791864 -1.3890225 -0.068635248 -0.1286418 -0.98931319 0.0094145387
-18.901369 11.791662 -1.3900537 0.0085410448 -0.26354921 -0.96460813 0
-18.898546 11.7915 -1.3909895 0.37101543 -0.13583122 -0.91863894 0
-18.895727 11.791529 -1.391049 0.081164397 0.097316273 -0.99193847 0
-18.892988 11.791763 -1.390663 0.18659481 0.38540596 -0.90368396 0
-18.889521 11.791555 -1.3899856 0.34108984 0.87811941 0.3355056 0
-18.887068 11.791527 -1.3892698 0.37944597 -0.91057879 0.16391173 0
-18.903559 11.794871 -1.3894643 0.1391411 0.054652717 -0.98876333 0
-18.901043 11.79441 -1.3907889 0.11181525 -0.053566877 -0.99228424 0
-18.898426 11.794574 -1.3913648 -0.036679804 0.13866383 -0.98966002 0.0028878239
-18.895517 11.794496 -1.3912995 0.08385697 0.016575202 -0.99633998 0
-18.892124 11.794421 -1.3907311 -0.90260345 -0.42239985 0.082978278 0.0022168534
-18.888985 11.794508 -1.3900588 0.093459509 0.99310386 -0.070781156 0
-18.886665 11.794638 -1.3893337 0.76626265 0.64249331 0.006626748 0
-18.904749 11.798684 -1.3893144 -0.042786457 -0.10375444 -0.99368227 0
-18.901608 11.797444 -1.39105 -0.0072257644 -0.018583326 -0.99980122 0
-18.898451 11.797482 -1.3916367 -0.019632826 -0.078683883 -0.99670631 0.00051264087
-18.895014 11.797868 -1.3913702 0.29772717 0.95228165 -0.067216709 0
-18.892614 11.797442 -1.3911779 0.0037836721 0.092547677 -0.99570107 0
-18.88969 11.797376 -1.3904144 -0.03766543 0.081698507 -0.99594516 0
-18.886639 11.797653 -1.3894527 -0.45214209 -0.66582733 0.5934993 0
-18.903587 11.800274 -1.3904405 0.050395701 -0.28312257 -0.95775878 0
-18.901236 11.800552 -1.3915752 0.84508061 0.41059986 0.3424128 0
-18.898409 11.800546 -1.3918489 -0.058532648 -0.075962663 -0.99539119 0
-18.895359 11.800503 -1.3917166 0.025363499 0.023923203 -0.99939203 0
-18.892523 11.800812 -1.3912427 0.016340828 0.13148265 -0.99118376 0.00051480369
-18.889683 11.80062 -1.390569 0.058301218 0.19190621 -0.97968006 0
-18.886702 11.800454 -1.3895276 0.23918864 0.97077119 -0.01980109 0
-18.901552 11.803561 -1.391659 -0.16225594 -0.042506158 -0.98583275 0
-18.898417 11.80349 -1.3919563 0.22070377 0.077533767 -0.97225428 0
-18.895374 11.80344 -1.3918059 -0.0089927679 -0.12423052 -0.99221265 0
-18.892372 11.803658 -1.391243 0.12144341 0.12591861 -0.98457903 0.0015064933
-18.889462 11.803593 -1.3905386 0.27770996 0.95525521 -0.10180725 0.00064475444
-18.886753 11.803493 -1.3894966 0.25180596 0.96653563 0.049016412 0
-18.904959 11.806399 -1.3902549 -0.019455643 -0.11236239 -0.99347681 0
-18.901676 11.806581 -1.3917948 0.059291046 -0.036418375 -0.99757618 0.0065336567
-18.898148 11.806203 -1.3919797 -0.006043416 -0.047099203 -0.99887198 0
-18.89551 11.806467 -1.391829 -0.04943357 -0.1921293 -0.98012382 0
-18.892345 11.806461 -1.391202 0.1833701 -0.10404092 -0.97752285 0
-18.889473 11.80644 -1.390451 -0.65104818 -0.686984 0.32278365 0
-18.887096 11.806463 -1.3894989 -0.25339946 -0.96611995 0.049000613 0
-18.904184 11.809202 -1.3910936 0.066005945 -0.18475413 -0.98056573 0.0074740471
-18.901888 11.809459 -1.3918781 0.094497614 0.4906913 -0.86619413 0
-18.897448 11.808704 -1.391994 -0.12879784 0.065502912 -0.98950517 0
-18.895678 11.809543 -1.3918244 -0.082243033 -0.42850724 -0.8997876 0
-18.892601 11.809415 -1.3911734 0.26498777 0.28099093 -0.92240202 0
-18.889294 11.809498 -1.3902383 0.13869214 0.2837857 -0.94880456 0.0041705179
-18.887075 11.809413 -1.389528 0.0086492905 -0.0002206498 -0.99996257 0
-18.904055 11.812492 -1.3913778 0.067044862 -0.11550672 -0.99104148 0
-18.902533 11.812528 -1.3918839 0.067044862 -0.11550672 -0.99104148 0
-18.897964 11.813557 -1.3918822 -0.36497518 -0.7832607 0.50328499 0
-18.895498 11.812551 -1.3917611 0.1589092 0.47127867 -0.86755079 0
-18.892683 11.812374 -1.3911057 0.80315912 0.59545612 0.019165324 0.0010319502
-18.889545 11.812586 -1.3901856 0.82884306 0.48592985 -0.27729288 0
-18.887077 11.812322 -1.3894012 0.055523038 -0.013381058 -0.99836773 0
-18.903984 11.81554 -1.3915973 0.12947004 -0.25293559 -0.95878106 0.0039865891
-18.902765 11.815544 -1.3919475 -0.030839574 -0.15706648 -0.98710644 0
-18.897568 11.815681 -1.3918447 0.54961693 -0.035078347 -0.83468002 0
-18.895439 11.815361 -1.3917114 0.038831383 -0.095499687 -0.99467182 0
-18.89271 11.815491 -1.3910377 0.78289574 0.62212759 -0.0056189438 0
-18.889454 11.815483 -1.3900567 0.21121961 -0.74138755 0.63696992 0
-18.887085 11.815513 -1.3892863 -0.26237401 -0.51640582 -0.81515938 0
-18.906965 11.81841 -1.3898232 0.035335112 -0.018786551 -0.99919897 0.0030536519
-18.904139 11.818467 -1.3916104 0.027119296 -0.051818423 -0.99828827 0
-18.902889 11.818132 -1.3919669 -0.035980444 0.09292756 -0.99502259 0
-18.897552 11.818499 -1.3918211 0.029594259 -0.01731251 -0.99941206 0
-18.895399 11.818449 -1.3916723 -0.028714178 -0.043599237 -0.99863636 0
-18.892712 11.818504 -1.3909971 0.0306325 0.084011368 -0.99599379 0
-18.889603 11.81853 -1.3900366 -0.54403424 -0.82963711 0.12541524 0
-18.88743 11.818547 -1.3893697 0.063924655 -0.018371547 -0.99778569 0
-18.903807 11.821581 -1.3917466 -0.044555061 -0.015185314 -0.99889153 0
-18.89761 11.821445 -1.3918052 0.39823559 0.88183039 0.25255406 0
-18.895575 11.821546 -1.3916785 0.0058771372 0.048462525 -0.99880773 0
-18.89278 11.821367 -1.3909909 0.13374718 0.92610735 -0.35275617 0
-18.88962 11.821563 -1.389986 0.59914201 -0.79829925 0.061214454 0
-18.887545 11.821466 -1.3893464 -0.049326878 -0.095746934 -0.99418283 0
-18.903938 11.824383 -1.3916745 0.01020725 -0.10611529 -0.99430144 0
-18.897377 11.824297 -1.3917702 0.062774643 0.99459517 -0.08270324 0
-18.896301 11.825232 -1.391634 0.66429651 -0.74510145 0.059447803 0
-18.89278 11.824459 -1.3909702 0.082958326 -0.99655253 -0.0010150879 0
-18.889744 11.824495 -1.3899732 -0.5914492 -0.72778386 0.34715763 0
-18.887665 11.824416 -1.3893141 0.12687621 -0.02038742 -0.99170905 0
-18.904419 11.827405 -1.3914399 -0.25506902 -0.03439286 -0.96631104 0
-18.902447 11.82786 -1.3919489 0.024254208 -0.0053893896 -0.99969131 0
-18.89801 11.827726 -1.3919536 -0.0072993375 -0.069209859 -0.9975754 0
-18.896244 11.82759 -1.3915952 -0.61808211 -0.78590441 0.018133221 0
-18.892754 11.827443 -1.3909068 0.10472158 -0.076548681 -0.9915511 0
-18.889744 11.827476 -1.3898904 0.067375794 -0.098375328 -0.99286592 0
-18.887518 11.827328 -1.3891561 0.030811869 0.0035173388 -0.99951899 0
-18.906233 11.831266 -1.3903883 0.096327037 0.022711245 -0.9950906 0
-18.904573 11.830159 -1.3913136 0.094584733 0.20978704 -0.97316146 0
-18.901827 11.830672 -1.3919222 0.023184311 -0.070941649 -0.99721098 0
-18.897715 11.830778 -1.391711 0.043290496 -0.034956057 -0.99845082 0
-18.896118 11.829933 -1.3915358 0.97667241 -0.20035802 0.077250756 0
-18.892345 11.830503 -1.3907048 0.06822709 -0.098393075 -0.99280602 0
-18.889473 11.830372 -1.3897161 0.80459362 0.59347379 -0.020445008 0
-18.88763 11.830644 -1.3891401 -0.33537239 -0.40002066 -0.85294133 0
-18.906893 11.832769 -1.3898736 0.012439078 -0.05154625 -0.99859321 0
-18.903852 11.833422 -1.3914919 -0.0050460952 -0.094781399 -0.99548537 0
-18.90127 11.83344 -1.3919162 0.0062882672 -0.13757786 -0.99047101 0
-18.898018 11.833481 -1.3916733 0.89013565 0.45366856 0.042933166 0
-18.8955 11.833553 -1.3915027 -0.36844271 -0.40154451 -0.83845812 0
-18.892231 11.833456 -1.3906059 0.94297343 0.33045509 -0.040004198 0
-18.889338 11.833488 -1.3896201 0.94773364 0.30594519 -0.090545103 0
-18.887718 11.833637 -1.3891431 -0.035976756 0.063664712 -0.99732268 0
-18.904238 11.836284 -1.3912323 0.081355162 0.030866235 -0.99620712 0
-18.901468 11.836497 -1.3918214 0.0043722764 -0.036208641 -0.99933469 0
-18.898376 11.836408 -1.3916324 0.96863443 0.24829802 0.0097647347 0
-18.895645 11.836488 -1.3914453 0.01787862 -0.060559776 -0.99800444 0
-18.892523 11.836435 -1.3906202 0.88321006 0.46896347 -0.0036466862 0
-18.889381 11.836508 -1.3896185 0.095255114 0.019653626 -0.99525887 0.0029306845
-18.887779 11.836637 -1.3891675 0.23216096 0.093943574 -0.96813011 0
-18.906124 11.838394 -1.3900808 0.021854382 -0.0021716303 -0.99975884 0
-18.904135 11.839408 -1.3911502 0.055607062 -0.074566156 -0.99566454 0
-18.901478 11.839523 -1.3917081 0.095616214 -0.018462602 -0.99524707 0
-18.898518 11.83948 -1.3915908 0.98034686 0.16955303 -0.10085573 0.00028062827
-18.895519 11.839497 -1.3913715 0.10631754 -0.028684773 -0.99391842 0
-18.892544 11.839343 -1.3905933 0.19113074 0.05475612 -0.98003614 0
-18.889574 11.839666 -1.3896997 0.99812984 -0.052404851 0.03147256 0
-18.887695 11.8398 -1.3891805 -0.052860577 -0.025091527 -0.9982866 0
-18.903913 11.84233 -1.3909793 0.14252549 -0.062897317 -0.9877907 0
-18.901211 11.842404 -1.3916227 0.015290032 -0.085081518 -0.99625671 0
-18.898685 11.842424 -1.3915375 0.38724607 0.82276976 0.41604125 0
-18.895348 11.842434 -1.3913126 0.017642159 0.028699262 -0.99943238 0
-18.892906 11.842606 -1.3906962 0.076506667 0.051275767 -0.99574971 0
-18.889698 11.842518 -1.389786 0.021052396 0.028392572 -0.99937516 0
-18.887531 11.84255 -1.3891804 0.036869768 0.13934755 -0.98955691 0.0046998197
-18.903885 11.844541 -1.3908542 0.024984146 -0.052072298 -0.99833077 0
-18.901426 11.845435 -1.3914403 0.11936794 0.073105641 -0.99015498 0
-18.89846 11.845498 -1.3915552 0.078030393 0.017368777 -0.99679971 0
-18.895298 11.845467 -1.391281 0.072610602 0.10204548 -0.99212623 0
-18.892818 11.845518 -1.3907068 0.53985184 -0.84137094 -0.025589753 0
-18.889622 11.845472 -1.3898207 0.31046411 -0.10557203 -0.94470447 0
-18.887529 11.845564 -1.3892637 0.016797431 -0.096926227 -0.99514979 0
-18.903559 11.847985 -1.3905345 0.012033477 -0.05855849 -0.99821144 0
-18.901213 11.848692 -1.3913283 0.056527771 -0.17254259 -0.98337871 0
-18.89852 11.848378 -1.3915266 0.0091411211 -0.17088339 -0.98524886 0
-18.895506 11.848507 -1.3913193 0.66255981 0.60739535 -0.43827564 0
-18.892597 11.848373 -1.3907036 0.20307815 -0.81331646 -0.54522985 0
-18.889328 11.848526 -1.3897922 0.061687361 -0.065557748 -0.99594021 0.0074489391
-18.887344 11.848614 -1.389271 -0.057086371 -0.016446713 -0.9982338 0
-18.903017 11.851274 -1.3903971 0.021368984 -0.084272884 -0.99621356 0.013417322
-18.900927 11.851215 -1.3912145 0.071566328 0.18127507 -0.98082495 0
-18.898382 11.851479 -1.3914928 0.13552371 -0.1925631 -0.97188109 0
-18.895985 11.852224 -1.3912992 0.083737224 -0.25940555 -0.96213138 0
-18.892433 11.851445 -1.3907211 0.041284677 0.061474178 -0.99725443 0
-18.88965 11.851472 -1.3899958 -0.71831733 -0.67785436 0.15663223 0
-18.887493 11.851498 -1.3892657 0.65143728 0.75767946 0.039387137 0
-18.901014 11.854275 -1.3909389 0.13466103 -0.11125948 -0.98462576 0
-18.898542 11.854537 -1.3914168 0.15040347 -0.77689093 -0.6114077 0
-18.89576 11.85446 -1.3913059 0.74995571 0.66035271 -0.038738944 0
-18.892067 11.854557 -1.390739 0.17947885 0.087443396 -0.97986788 0.002773002
-18.889402 11.854362 -1.3900421 0.37494648 0.90750629 -0.18933427 0
-18.886932 11.854437 -1.3892615 0.38696837 0.92193979 -0.016808631 0
-18.901264 11.857688 -1.3904444 -0.2560434 -0.44506678 -0.85811269 0
-18.898491 11.857563 -1.3912967 -0.061909556 -0.068203919 -0.9957487 0
-18.895176 11.8573 -1.3912752 0.048975784 -0.12714449 -0.99067438 0
-18.892582 11.857436 -1.3911083 -0.028738279 0.2250005 -0.97393477 0
-18.889553 11.857381 -1.390282 -0.19903621 -0.88271457 0.42567533 0
-18.886614 11.857634 -1.3894018 -0.91482949 0.29707813 0.27355343 0.011584266
-18.900705 11.859636 -1.3905106 -0.13413975 -0.27212465 -0.95286655 0
-18.898149 11.860339 -1.3912189 0.037756309 -0.034520738 -0.99869055 0
-18.895447 11.860415 -1.3914026 -0.25078753 -0.80641329 0.53554022 0
-18.892941 11.860441 -1.391139 0.52310401 -0.85015756 -0.05995249 0
-18.889416 11.860567 -1.3904901 0.53034341 0.83792627 -0.12890124 0
-18.886356 11.86039 -1.3895692 0.59002882 0.80397624 -0.074083515 0.0049699424
-18.884626 11.860994 -1.3892015 -0.025109537 -0.16766612 -0.98552406 0
-18.900047 11.862563 -1.3904432 0.043921061 0.084811084 -0.99542856 0
-18.898119 11.863461 -1.3910527 -0.12573148 -0.026169464 -0.99171913 0
-18.89562 11.863377 -1.3913584 0.012126147 -0.039453141 -0.99914789 0
-18.8922 11.863344 -1.3911362 0.11869109 -0.1850452 -0.97553611 0.0026566996
-18.88938 11.863465 -1.3906668 0.032919563 0.046714239 -0.9983657 0
-18.886486 11.863823 -1.3899652 0.63098329 0.76665956 -0.11871477 0
-18.884195 11.863635 -1.3893319 0.79156435 -0.56068528 -0.24301848 0
-18.898291 11.866192 -1.3908062 -0.04364185 -0.1093594 -0.99304378 0
-18.895584 11.866547 -1.3912867 0.050619975 0.0043260721 -0.99870861 0
-18.892511 11.866418 -1.3913635 0.040852744 0.12433211 -0.99139935 0.00045813224
-18.889727 11.866648 -1.3909657 0.41662869 0.90893823 -0.015867472 0
-18.886578 11.866604 -1.3902916 0.24863796 -0.049028818 -0.96735489 0
-18.884079 11.86671 -1.3895006 0.14901146 0.15075752 -0.97727567 0
-18.897808 11.869509 -1.3905834 -0.02690617 -0.14473623 -0.98910439 0
-18.895102 11.869414 -1.3912729 0.31136301 -0.13492502 -0.94066381 0
-18.892359 11.86963 -1.3914156 0.13193746 0.085127212 -0.98759604 0
-18.889017 11.869336 -1.3910042 -0.0044358554 0.24036931 -0.97067142 0
-18.886282 11.86948 -1.3904612 0.12412205 0.3705596 -0.92047775 0.00091828121
-18.883568 11.869797 -1.3896987 -0.010589592 -0.050357271 -0.99867511 0
-18.881567 11.870018 -1.3891734 -0.0011392998 -0.092974961 -0.99566782 0
-18.897028 11.873389 -1.3904488 0.15113038 -0.05616533 -0.98691696 0
-18.895208 11.872467 -1.3911251 0.22625118 0.12058305 -0.96657652 0
-18.892372 11.872468 -1.3914299 -0.24190192 -0.0781634 -0.96714735 0
-18.889576 11.872511 -1.3913445 0.12358183 0.085066773 -0.98868155 0
-18.886793 11.872379 -1.3908231 0.050991703 0.99805593 -0.035836693 0.00049470644
-18.883453 11.872497 -1.3899965 0.97120333 0.21986739 0.091774017 0
-18.881342 11.873069 -1.3893468 0.86276782 0.50294518 -0.051748026 0
-18.895012 11.875387 -1.3909721 -0.024554005 -0.15536158 -0.98755252 0
-18.892622 11.8754 -1.3913732 0.076875478 -0.18242659 -0.98020953 0
-18.889534 11.87558 -1.3914351 0.048164062 0.077270113 -0.99584621 0
-18.885975 11.875208 -1.3908652 0.013818358 -0.11078962 -0.99374783 0
-18.88335 11.875507 -1.3902984 0.74909663 0.66239804 0.0091154268 0
-18.880697 11.875767 -1.389529 -0.10381416 -0.39293993 0.91368526 0
-18.878811 11.876598 -1.3891164 0.12666661 0.055214521 -0.99040747 0
-18.894836 11.878436 -1.3906391 -0.041490037 -0.1221048 -0.99164969 0
-18.892712 11.878482 -1.3912334 0.2303236 -0.024548057 -0.97280443 0
-18.889521 11.878468 -1.3914568 0.09145876 -0.044239886 -0.99482572 0
-18.886372 11.878418 -1.3912574 -0.080455936 -0.11548374 -0.99004567 0
-18.883587 11.878412 -1.39065 0.089220613 -0.082124397 -0.99262035 0
-18.880341 11.878513 -1.3898323 0.87000489 0.49281603 -0.014963186 0
-18.878319 11.8792 -1.3892241 0.65370858 -0.73850495 -0.16515309 0
-18.891872 11.881428 -1.3911625 0.01127834 0.064086229 -0.99788064 0
-18.889278 11.88149 -1.3914542 -0.034228228 -0.088315934 -0.99550426 0
-18.886265 11.881643 -1.3912632 0.29930753 -0.27396256 0.91398007 0.00011822314
-18.882837 11.88109 -1.3907213 0.59447819 0.79743379 -0.10341638 0
-18.880463 11.881559 -1.3902606 0.095982403 0.019578813 -0.99519044 0.003651266
-18.877674 11.881777 -1.3894513 0.20278467 0.84908766 -0.48777917 0
-18.875628 11.882668 -1.3890297 0.061257064 0.15788706 -0.98555529 7.0525202e-05
-18.892036 11.884342 -1.3907995 0.041512456 -0.0083421757 -0.99910319 0
-18.889408 11.884422 -1.3913414 0.085771732 -0.0074999575 -0.99628663 0
-18.885719 11.884172 -1.391275 0.60301107 0.79763943 -0.012200912 0
-18.883717 11.884747 -1.3911023 -0.8974241 0.44010106 0.030676739 0
-18.880127 11.884346 -1.3905168 0.93402857 0.24301356 -0.26179221 0
-18.877382 11.884561 -1.3898225 0.36836952 0.92085874 0.12776169 0
-18.875267 11.885002 -1.3891827 -0.026113743 0.54306799 -0.83928257 0
-18.891211 11.887381 -1.3906454 -0.0039049913 0.0023351926 -0.99998969 0.0038132323
-18.889431 11.887245 -1.3911803 0.074895747 -0.1246556 -0.98936933 0
-18.886305 11.887526 -1.3914543 0.042744309 -0.061484922 -0.99719232 0
-18.883018 11.88703 -1.3911684 0.040824529 0.29753688 -0.9538371 0
-18.880823 11.88789 -1.3909557 -0.23038644 0.97125512 -0.059880316 0
-18.877253 11.887564 -1.3902664 0.67240775 0.63070786 0.3873955 0
-18.874847 11.887693 -1.3895731 0.46385252 -0.86413217 -0.19523446 0
-18.872978 11.888567 -1.3892188 0.0021702948 0.067427859 -0.99772179 0
-18.888475 11.890594 -1.3910477 0.037201609 -0.17404181 -0.98403531 0
-18.886389 11.890392 -1.3913654 0.20128459 0.44825321 -0.87094986 0
-18.88339 11.890462 -1.3914723 -0.14134018 -0.23236823 -0.96230346 0
-18.880049 11.890259 -1.3910509 -0.59485322 -0.7802043 0.19347073 0
-18.87742 11.890526 -1.3906453 0.30774117 0.9450888 -0.11001123 0
-18.874474 11.890524 -1.389974 0.91880649 -0.39396885 0.02414798 0
-18.872522 11.890958 -1.3894002 0.64019918 0.76786608 0.0229495 0
-18.886257 11.893402 -1.39118 0.024199113 -0.025390318 -0.9993847 0
-18.883614 11.89356 -1.3914723 0.054070953 0.091111332 -0.99437171 0
-18.880527 11.89351 -1.3914568 -0.080640033 -0.055139497 -0.99521697 0
-18.877274 11.893104 -1.3909264 0.08192946 -0.034000989 -0.99605799 0
-18.874474 11.893602 -1.3904691 0.097746246 0.011404547 -0.99514604 0
-18.871735 11.893431 -1.389643 0.18183798 0.95899028 -0.21742229 0
-18.869547 11.89406 -1.3891622 -0.22633173 -0.11432359 -0.967318 0
-18.886339 11.896062 -1.3908048 0.045336548 -0.052461848 -0.99759328 0
-18.88364 11.896437 -1.3913589 -0.15977019 0.32867581 -0.93083066 0
-18.880499 11.896523 -1.3915423 0.2536453 0.011381515 -0.96723038 0
-18.877218 11.896765 -1.3913112 0.02729819 -0.032048952 -0.99911344 0
-18.87414 11.896265 -1.3907819 -0.15196408 -0.56170845 0.81325918 0
-18.871338 11.896322 -1.3901175 0.15227593 0.17694792 -0.97236907 0
-18.868801 11.896645 -1.3894031 0.67902631 -0.66558534 0.30970842 0.0082528498
-18.866472 11.897822 -1.3890648 0.14484701 0.10120835 -0.98426431 0
-18.885363 11.898673 -1.3906888 0.011809752 -0.053119361 -0.99851835 0
-18.883463 11.899564 -1.3910905 0.13638861 0.023643926 -0.99037325 0
-18.880331 11.899439 -1.3915397 0.023568626 -0.029506912 -0.99928671 0
-18.877422 11.899527 -1.3915778 -0.054404959 -0.093442596 -0.99413711 0
-18.874481 11.899611 -1.3912358 0.98285341 0.18274926 -0.024533158 0
-18.871487 11.899086 -1.3906451 0.11574075 -0.072267026 -0.99064708 0.0016229525
-18.868553 11.899339 -1.3899605 0.10615818 -0.11593731 -0.98756719 0
-18.866108 11.899924 -1.3893517 -0.049594205 -0.98416698 0.17016414 0
-18.863987 11.900977 -1.3890424 0.14046286 0.050747342 -0.98878461 0
-18.882729 11.901619 -1.3910421 -0.40069059 -0.91148901 0.092923865 0
-18.880339 11.90235 -1.3913976 -0.12381821 -0.29377961 -0.94781995 0
-18.877523 11.902511 -1.391606 -0.032314412 -0.12406896 -0.99174732 0
-18.87454 11.902503 -1.3915795 -0.091386601 -0.13980094 -0.98595345 0
-18.871536 11.902184 -1.3911204 -0.57274872 0.81972027 -0.0041812654 0
-18.868362 11.902475 -1.3906019 -0.42132613 0.89299887 -0.15823175 0.0034719978
-18.865482 11.902488 -1.3898342 0.11763429 0.24140352 -0.96326864 0
-18.863323 11.902782 -1.3891954 0.77063924 0.58085048 0.26216006 0
-18.882351 11.904947 -1.3903573 0.052084487 -0.0023087582 -0.99864006 0
-18.88018 11.905107 -1.3911005 -0.027154699 -0.085957199 -0.99592876 0
-18.877739 11.905487 -1.391446 -0.32516453 -0.84445769 -0.42562816 0
-18.87454 11.905486 -1.3916428 0.090875782 -0.015939953 -0.99573469 0
-18.871353 11.906137 -1.391505 -0.57099181 -0.81806952 0.068779193 0
-18.868078 11.905179 -1.3910306 -0.58923638 0.79887438 -0.12083101 0.0022825813
-18.865479 11.905519 -1.3905897 0.99879807 0.040159006 -0.028099168 0
-18.86277 11.905371 -1.3898437 0.049199261 0.042371523 -0.99788982 0
-18.860229 11.906367 -1.3894036 0.080158748 -0.0096023679 -0.99673581 0
-18.879091 11.907352 -1.391014 -0.46284702 -0.74887049 -0.47430554 0
-18.877146 11.908424 -1.3912299 0.075784646 0.028444832 -0.99671841 0
-18.874271 11.908451 -1.3915672 0.055827137 -0.330915 -0.94200778 0
-18.871414 11.908386 -1.3916907 0.021940552 -0.15891907 -0.98704785 0
-18.868605 11.908512 -1.3915907 0.041151807 0.0085243285 -0.9991166 0
-18.865452 11.908297 -1.3911333 0.20037474 -0.84822541 0.49026909 0
-18.86235 11.908324 -1.3905729 0.011991342 0.022130257 -0.99968314 0
-18.859436 11.908505 -1.3898704 0.79280293 0.46982828 0.38823316 0.0055565774
-18.856819 11.909164 -1.3893597 -0.26507688 -0.80915123 -0.52441251 0
-18.85466 11.909967 -1.3891768 0.030229183 -0.92232674 -0.38522676 0
-18.876492 11.910524 -1.3910509 -0.012115967 0.34076655 -0.94006991 0
-18.874441 11.91153 -1.3912634 0.0084601725 -0.37778163 -0.92585605 0
-18.871702 11.911447 -1.3915904 0.10079454 0.23936528 -0.96568358 0
-18.868387 11.911412 -1.3917358 -0.060570363 -0.030035498 -0.99771196 0
-18.865431 11.911367 -1.3916686 0.020380577 0.061821517 -0.99787915 0
-18.862484 11.911207 -1.3912635 0.59150833 0.80063719 -0.095383227 0
-18.859417 11.911376 -1.3907776 0.27707002 0.53200024 -0.80012995 0
-18.85648 11.911255 -1.3900149 0.26137707 -0.16409694 -0.9511857 0
-18.853584 11.911896 -1.3894502 0.0010354831 -0.23932123 -0.97093987 0
-18.851257 11.912751 -1.3892498 0.081083111 0.085475311 -0.9930355 0
-18.874056 11.913906 -1.3909258 0.053731244 0.010420708 -0.99850106 0
-18.871368 11.914238 -1.3913828 -0.14871781 0.014242131 -0.98877716 0
-18.868315 11.914242 -1.3916965 0.073535956 0.14132866 -0.9872278 0
-18.865417 11.91447 -1.3918179 0.084100932 -0.036688577 -0.99578154 0
-18.862463 11.914463 -1.3918062 -0.020160129 0.063439764 -0.99778199 0
-18.86018 11.914392 -1.3915505 0.20067905 -0.061117534 -0.97774875 0
-18.856358 11.914454 -1.3909963 0.9356342 0.34694883 -0.064924367 0
-18.853329 11.914108 -1.3902339 0.99208033 -0.11637565 0.047259513 0.005132393
-18.850464 11.914568 -1.389636 0.090653449 0.015531187 -0.99576133 0
-18.847889 11.915269 -1.389302 0.083506361 0.22317484 -0.97119498 0
-18.870714 11.916532 -1.391112 -0.0037411675 -0.0066655832 -0.99997079 0
-18.868275 11.917205 -1.3914326 0.16996263 -0.53667265 0.82649577 0
-18.865442 11.917559 -1.3917143 -0.043937802 -0.18470517 -0.98181134 0
-18.862337 11.917454 -1.3919015 0.019091813 0.36035103 -0.93262142 0
-18.859388 11.917493 -1.3919209 0.053552359 0.011038659 -0.99850404 0
-18.856606 11.917522 -1.391768 0.12326995 0.16917251 -0.97784722 0
-18.853374 11.917061 -1.3911593 0.96357143 0.26290691 0.049092859 0
-18.850422 11.917461 -1.3907204 0.021904636 0.064234257 -0.99769443 0
-18.84762 11.917477 -1.3900707 0.68156993 0.5952791 -0.42556462 0
-18.845005 11.918028 -1.3895123 0.94229287 -0.33350638 -0.029286221 0
-18.842636 11.918825 -1.3891796 0.067190066 0.0065979427 -0.99771839 0
-18.867613 11.920349 -1.3909295 0.02666574 -0.048883628 -0.99844849 0
-18.865679 11.920102 -1.3913994 0.0058889324 -0.17256938 -0.98497975 0
-18.862413 11.92031 -1.3917302 -0.33787054 -0.72093725 -0.60505617 0
-18.859364 11.920681 -1.3919294 0.094711438 -0.073325738 -0.99280065 0
-18.85597 11.919392 -1.3919719 0.15479338 -0.053484153 -0.98649806 0
-18.85323 11.920085 -1.391853 0.051379316 0.010808874 -0.99862075 0
-18.85047 11.920417 -1.3916316 0.046545081 -0.12252364 -0.99137354 0
-18.847092 11.919973 -1.3908234 0.39980394 -0.067009486 -0.91414809 0
-18.844276 11.9201 -1.3901215 -0.40478474 -0.90905672 0.098819032 0
-18.841522 11.920645 -1.3894283 0.68355781 -0.68770057 0.24457446 0
-18.839359 11.921462 -1.389148 0.021959195 -0.0056631919 -0.99974287 0.010663715
-18.86488 11.92215 -1.3910871 -0.12639143 -0.56073231 -0.81829375 0
-18.862371 11.923098 -1.3913311 0.048609301 0.046826001 -0.99771965 0
-18.85968 11.923725 -1.3915906 0.056976389 -0.31241563 -0.94823533 0
-18.856583 11.923498 -1.3919071 0.0062793447 -0.074903883 -0.99717098 0
-18.853817 11.924877 -1.3919706 -0.047491591 -0.06434758 -0.99679691 0
-18.849844 11.92326 -1.3919431 0.092432313 0.11928754 -0.9885478 0
-18.84742 11.923561 -1.3917441 0.11924699 0.21237808 -0.96988446 0
-18.844471 11.923285 -1.391234 0.043123826 0.13902278 -0.98934978 0
-18.841476 11.923561 -1.3905691 0.86317563 -0.44224411 0.24361461 0
-18.838659 11.923543 -1.3897295 0.015624392 -0.2218169 -0.97496319 0
-18.836342 11.92433 -1.3892648 0.51098871 -0.48077145 -0.71256536 0
-18.858719 11.926177 -1.3912603 0.17106964 0.36776391 -0.91404867 0
-18.856407 11.926214 -1.391555 0.042582586 -0.014290357 -0.99899077 0
-18.853552 11.926457 -1.3917941 -0.091776736 0.018228104 -0.9956128 0
-18.850521 11.926527 -1.3918729 0.12981933 0.039615206 -0.99074596 0
-18.84724 11.926488 -1.3918091 0.049466129 0.043130752 -0.9978441 0
-18.844257 11.926431 -1.3915488 0.0029257359 -0.099497333 -0.9950335 0
-18.841402 11.92639 -1.3911198 0.10312933 0.028167505 -0.99426907 0
-18.838467 11.926371 -1.3904483 0.52169985 -0.17227076 -0.83555496 0
-18.835604 11.926436 -1.389627 -0.64799565 -0.43012297 -0.6285665 0
-18.833536 11.927281 -1.3892372 -0.0085039493 -0.094252676 -0.99551201 0
-18.853502 11.928346 -1.3913901 0.54648566 0.56841093 -0.61503047 0
-18.85055 11.929659 -1.3912681 -0.15797415 -0.2063989 -0.96563125 0
-18.847347 11.92932 -1.3915248 0.14919844 0.038436133 -0.98805994 0
-18.844185 11.929487 -1.3914479 0.036236793 -0.32098249 -0.94639164 0
-18.841135 11.929362 -1.3912243 0.10124858 0.027896579 -0.99447 0
-18.838381 11.92944 -1.3907815 -0.14020596 -0.17538777 -0.97446471 0
-18.835476 11.929448 -1.3900853 0.018452914 -0.013748669 -0.99973524 0
-18.83256 11.929527 -1.3894243 -0.076486841 0.12252818 -0.98951334 0
-18.829838 11.93043 -1.3891294 0.084451698 0.29390177 -0.95209754 0
-18.82596 11.93089 -1.3890247 0.04182566 -0.066851079 -0.99688596 0
-18.823177 11.930897 -1.3890685 0.87757623 -0.46455565 0.11852434 0
-18.820364 11.930817 -1.3891754 0.072550312 0.11741163 -0.9904297 0
-18.817369 11.930634 -1.3892245 -0.053570259 -0.13251084 -0.98973286 0
-18.81447 11.930513 -1.3893844 0.090222165 0.045229945 -0.99489409 0
-18.811172 11.930389 -1.3894243 -0.42214993 -0.73547739 0.52996445 0
-18.808874 11.93058 -1.3895203 0.42144457 -0.063910067 -0.90459943 0.033836227
-18.849239 11.931083 -1.3909888 0.18882687 -0.065453999 -0.97982663 0
-18.847218 11.931892 -1.3908343 0.31567696 0.47945839 -0.81882095 0
-18.844492 11.932166 -1.3908938 0.052739415 -0.050602108 -0.99732542 0
-18.841173 11.932581 -1.3907144 0.15135118 0.42095956 -0.8943634 0
-18.838463 11.93313 -1.3902801 0.3700693 0.32838902 -0.86902779 0
-18.835665 11.932538 -1.3901085 0.03388454 0.078728765 -0.99632007 0
-18.832605 11.932257 -1.3896613 0.0035396693 0.041500088 -0.99913222 0
-18.829571 11.932434 -1.389439 0.03288934 -0.015545409 -0.99933815 0
-18.826475 11.932446 -1.3894284 -0.004872093 0.35459718 -0.9350065 0
-18.823538 11.932478 -1.3896091 0.083164364 -0.16331998 -0.98306167 0
-18.820463 11.932465 -1.3898348 0.74269664 0.35470691 -0.56796551 0
-18.817474 11.932495 -1.390148 0.049639422 -0.14277118 -0.98851019 0
-18.814493 11.932328 -1.3904517 -0.056333635 0.13868473 -0.98873305 0
-18.811506 11.932384 -1.3909485 -0.31343409 -0.64580202 -0.69620323 0
-18.808367 11.932465 -1.3902448 0.19410393 -0.10819088 0.97499657 0
-18.844231 11.934056 -1.390075 -0.091737635 -0.018973706 -0.99560243 0
-18.841608 11.934308 -1.3898693 0.1457199 0.44299716 -0.88460118 0
-18.838886 11.934694 -1.3894341 0.64091045 0.53402328 -0.55140996 0
-18.832218 11.934311 -1.3894029 0.0010723096 0.014099104 -0.99990004 0
-18.828588 11.934147 -1.3894458 0.37880445 -0.83611196 -0.3967669 0
-18.826458 11.934564 -1.3895885 0.053288147 -0.11697815 -0.99170381 0
-18.82305 11.934601 -1.3900878 0.040083092 -0.027185358 -0.9988265 0
-18.820459 11.934787 -1.3904459 -0.10479256 -0.26039672 -0.95979792 0
-18.817553 11.935208 -1.3908728 -0.13761567 -0.28651348 -0.94814134 0
-18.814493 11.935081 -1.3913076 0.058850899 0.15616332 -0.98597646 0
-18.811638 11.934903 -1.3917444 0.022349352 0.0019325209 -0.99974835 0
-18.808111 11.934906 -1.3903108 -0.28629157 -0.58988392 0.75503248 0
-18.813807 11.938949 -1.3894653 0.042104475 0.44177911 -0.89613527 0
-18.808548 11.938007 -1.3900206 -0.98667532 0.11415751 0.11593077 0
-18.891113 11.765951 -1.3861607 0.026602909 0.1476374 -0.98868376 0
-18.894947 11.768796 -1.3861979 0.055207394 0.036571514 -0.99780488 0
-18.892244 11.767625 -1.3867741 0.010227334 0.029125646 -0.99952346 0
-18.889219 11.767696 -1.3864629 0.69630587 0.40650001 -0.59153682 0
-18.887432 11.76826 -1.3862702 0.059820376 0.036972903 -0.99752426 0
-18.895058 11.770682 -1.3869783 -0.059726246 -0.03090813 -0.99773622 0.010963271
-18.892441 11.770397 -1.3876451 0.031181155 -0.26224795 -0.96449661 0
-18.889084 11.770522 -1.387162 0.49611747 0.86420029 -0.083817236 0
-18.886795 11.770557 -1.3863722 0.067166552 0.044767011 -0.99673694 0
-18.897383 11.773447 -1.3867742 0.31587276 0.48911631 -0.81301272 0
-18.895369 11.773636 -1.3879166 -0.015377666 -0.009286073 -0.99983865 0
-18.892431 11.773438 -1.3883476 0.67095017 0.21520945 -0.70958495 0
-18.889206 11.773865 -1.3878303 -0.67788976 -0.70712626 0.2010918 0.0075763036
-18.886383 11.773422 -1.3867235 0.11133482 0.14707632 -0.98283929 0
-18.884626 11.774103 -1.3861645 -0.10828391 0.38471958 -0.91665995 0
-18.900024 11.777221 -1.3861035 -0.22659254 -0.43216324 -0.87286359 0
-18.898214 11.776665 -1.387295 0.031406451 0.024864458 -0.99919742 0
-18.895441 11.776325 -1.3886359 0.15443955 -0.64866298 -0.74524146 0
-18.892395 11.776017 -1.3888258 -0.0043114335 -0.8680262 0.49649972 0
-18.889431 11.77677 -1.3882594 0.072912283 0.10070147 -0.99224138 0.00058653438
-18.886475 11.776455 -1.3871614 0.0079891942 -0.10203332 -0.99474889 0
-18.884575 11.776671 -1.3862408 0.97600353 0.21689346 0.019349521 0.0055478327
-18.900499 11.780149 -1.3869858 0.097765617 0.092406087 -0.99091023 0
-18.898214 11.779505 -1.3882469 0.05526286 0.061742838 -0.99656105 0
-18.896313 11.778511 -1.3888487 0.31128314 0.07707613 -0.94718641 0
-18.891277 11.778854 -1.3887738 0.040004533 0.021303993 0.99897242 0
-18.889122 11.77956 -1.3884537 -0.056822576 -0.28400138 -0.95713866 0.0030748688
-18.886326 11.779595 -1.3873709 0.20691514 0.73777813 -0.6425494 0
-18.884193 11.779619 -1.3862863 0.028717263 0.11881682 -0.99250084 0
-18.901087 11.782578 -1.3875122 -0.3033818 -0.63936234 -0.70652342 0
-18.899389 11.782228 -1.3885678 0.10902159 0.080456823 -0.99077797 0
-18.888969 11.782336 -1.3887448 0.01275752 -0.99918979 0.038171392 0
-18.886501 11.782514 -1.3878272 0.52439368 0.84679562 0.089154564 0.0012616698
-18.883881 11.782669 -1.3865263 0.99543136 0.088582605 -0.035630941 0
-18.903776 11.786696 -1.3866987 -0.0361307 -0.086133666 -0.99562824 0
-18.901594 11.785176 -1.3880939 -0.014300951 -0.001544555 -0.99989659 0
-18.888178 11.784705 -1.3887656 -0.5011254 0.86537212 -0.0021417816 0.00042630269
-18.886387 11.785492 -1.3882431 0.70374161 0.62279379 0.34187067 0
-18.883781 11.785496 -1.3869023 0.66767794 -0.73905379 0.089474909 0
-18.881977 11.786276 -1.3860807 -0.18178263 -0.071773864 -0.98071593 0
-18.903822 11.789096 -1.3874954 -0.19703193 -0.31354925 -0.92890549 0
-18.902607 11.789466 -1.3886122 -0.05966378 0.077115804 -0.99523532 0
-18.885855 11.788292 -1.3884764 0.048553046 -0.98114562 0.18707192 0
-18.883602 11.788608 -1.3872888 0.85934252 -0.49970883 -0.1087271 0
-18.881838 11.788482 -1.3862548 -0.040985994 -0.084526405 -0.99557799 0
-18.904217 11.791444 -1.3879766 -0.03947673 -0.32745612 -0.94404137 0
-18.8855 11.791483 -1.3886725 0.095133916 -0.080942832 -0.99216825 0.0028393194
-18.883413 11.791525 -1.3874722 -0.0027152265 -0.75475878 -0.6559968 0
-18.881544 11.791703 -1.3862729 0.24698091 0.43650788 -0.86513662 0
-18.904799 11.794226 -1.3883164 0.38090426 -0.040190019 -0.92374063 0
-18.885193 11.794359 -1.3886993 0.79523373 0.6055572 0.030062234 0
-18.883236 11.794619 -1.387552 0.90289062 0.428074 -0.039257284 0
-18.881481 11.794465 -1.3863398 0.20513412 0.136034 -0.96923417 0
-18.905479 11.798287 -1.3886368 0.60941809 0.28279263 -0.74070096 0
-18.883364 11.797567 -1.3876963 0.11110191 0.98820353 -0.10540469 0
-18.881516 11.797435 -1.3863589 0.29960606 0.33710575 -0.89252228 0
-18.883436 11.800502 -1.387663 0.82603914 0.56317979 -0.022088256 0
-18.88163 11.800493 -1.3862988 0.08292304 0.055493794 -0.99500966 0
-18.885281 11.804207 -1.3886839 0.9109084 0.40918654 -0.053029101 0
-18.8834 11.803467 -1.387491 0.47247401 0.87852806 -0.070403747 0
-18.881855 11.803363 -1.3863798 0.1609211 0.65197128 -0.74097097 0
-18.885546 11.806576 -1.3886859 0.56931305 0.24445587 0.78493565 0
-18.883366 11.80653 -1.3872495 0.090849057 -0.013329614 -0.99577546 0.024911141
-18.881992 11.80543 -1.3864059 0.26458398 0.23726189 -0.93472034 0
-18.885857 11.809546 -1.3886865 0.14231719 0.0075373212 -0.98979235 0.0076484429
-18.883583 11.80944 -1.3872346 0.89789212 -0.43836764 -0.04029233 0
-18.886017 11.81256 -1.3886371 0.40108895 0.91502166 -0.04316283 0
-18.883741 11.812494 -1.3871788 0.01756225 0.33873409 -0.94071829 0.0066019618
-18.886131 11.815575 -1.3885841 0.77904391 0.5985043 -0.1867705 0
-18.883476 11.815795 -1.3867081 0.19953646 -0.29616556 -0.93406171 0.011828261
-18.885979 11.818548 -1.3883924 0.11698715 -0.098140307 -0.98827249 0.0039531202
-18.883478 11.81811 -1.3866812 0.00075721496 0.35292158 0.93565261 0
-18.886133 11.821546 -1.3884039 0.94529432 0.32478979 0.030501237 0
-18.883636 11.821438 -1.3868253 -0.76481688 0.64125556 0.062019378 0
-18.886187 11.824514 -1.3883529 0.0044793366 -0.02895561 -0.99957067 0.02745864
-18.883694 11.824502 -1.3868258 0.77907783 -0.62412477 0.059211183 0
-18.886326 11.827522 -1.3883505 -0.36017257 -0.10999378 -0.92637843 0
-18.883755 11.827465 -1.3868263 0.072416931 0.09263894 -0.99306285 0.015239959
-18.886322 11.83053 -1.3882973 0.86611456 -0.49638346 0.058728311 0
-18.883703 11.830458 -1.3868101 0.054497566 0.99516827 -0.081670769 0
-18.886286 11.833483 -1.3882513 0.10410642 0.11881636 -0.98744345 0.0062044477
-18.883448 11.83358 -1.3866746 -0.040415213 0.14307158 -0.98888683 0
-18.886261 11.836466 -1.3882554 0.039604347 0.075830691 -0.9963339 0
-18.883457 11.836517 -1.3867232 0.35607284 -0.90746999 0.22295816 0
-18.886433 11.839522 -1.3884146 0.15236481 -0.026968878 -0.98795623 0
-18.883511 11.839458 -1.3868787 -0.18384334 0.9819684 0.044041369 0
-18.886143 11.842583 -1.3883778 0.29007077 0.30646694 -0.90660739 0.0027753056
-18.883417 11.842424 -1.3869905 0.26072511 -0.96286762 0.070060767 0
-18.881739 11.842826 -1.3862389 0.066982538 -0.094179429 -0.99329937 0.019119976
-18.886135 11.84539 -1.3884678 0.59565085 0.73247063 -0.32967684 0
-18.883467 11.845428 -1.3871603 0.58157182 0.63151598 -0.51279801 0.0040352759
-18.881783 11.845852 -1.3862022 0.10388514 0.18371379 -0.97747487 0
-18.885962 11.848341 -1.3884885 0.20132351 0.090521798 -0.97533309 0
-18.883423 11.848543 -1.3873053 0.71269006 0.55208588 0.43275174 0
-18.881485 11.8486 -1.3862287 0.64235574 -0.76560974 0.034939691 0
-18.885954 11.851515 -1.3886437 -0.0072605181 -0.99594331 0.089689113 0
-18.883465 11.85144 -1.3874996 -0.52698737 0.84983504 0.0080386624 0
-18.881138 11.851776 -1.3863137 0.024329979 0.1181408 -0.99269873 0
-18.885406 11.854386 -1.3886518 0.98877001 -0.13866317 -0.055735961 0
-18.883404 11.854451 -1.3877625 0.36312297 0.93028718 -0.052033827 0
-18.881098 11.854529 -1.386595 0.03390288 -0.021421149 -0.99919552 0.0027703757
-18.885176 11.856258 -1.3887016 -0.0088749146 0.52093655 -0.85354918 0
-18.883503 11.857504 -1.3881271 0.059009265 -0.11252287 -0.99189544 0
-18.880859 11.857656 -1.3868318 0.51560748 -0.72411871 0.45804042 0
-18.883192 11.860531 -1.3883419 0.6315617 0.77305913 -0.059240576 0
-18.880512 11.860559 -1.3870595 -0.0078225816 -0.21435444 -0.97672468 0
-18.878651 11.860868 -1.386282 -0.021686744 -0.067701437 -0.99746996 0.023936406
-18.883194 11.863493 -1.3887135 0.22868803 0.41380712 -0.88117272 0
-18.880478 11.863422 -1.38745 0.52609509 -0.84527528 -0.093454719 0.0035117923
-18.878519 11.863844 -1.3864579 -0.0021626533 0.95399326 0.29982036 0.0043539405
-18.882561 11.866501 -1.3888803 0.064731769 0.042346835 -0.99700379 0.0016624916
-18.880531 11.866449 -1.3879448 -0.96764654 0.2129114 0.13538432 0
-18.878044 11.866602 -1.3866694 0.53730267 0.84332865 -0.010127576 0
-18.882158 11.868661 -1.3888369 -0.037474416 0.1266555 0.99123865 0
-18.880367 11.869432 -1.388355 -0.98767418 -0.15439831 0.025706114 0.016098138
-18.877666 11.869551 -1.3870083 0.28151879 0.34376103 -0.8958658 0
-18.875721 11.870167 -1.3862045 -0.030243974 -0.011731623 -0.99947369 0
-18.879829 11.872349 -1.3885984 0.30834836 -0.95068401 0.033483539 0.0027425813
-18.877396 11.87243 -1.3874068 0.46860388 0.83179235 -0.29754314 0
-18.875431 11.872848 -1.3863931 0.66605985 0.73650438 -0.11800613 0.0085900957
-18.879251 11.874783 -1.3887792 -0.84681875 0.52202564 0.10191787 0
-18.877491 11.875521 -1.3880863 0.6638658 -0.57133436 0.48255476 0
-18.87487 11.875565 -1.3866813 -0.033975184 0.45993608 -0.88730186 0
-18.872803 11.876853 -1.3860261 0.15203658 -0.12607393 -0.98030114 0
-18.877003 11.87832 -1.3884819 -0.3225641 0.94452679 -0.061818819 0
-18.874512 11.878395 -1.3872118 0.29083934 0.94179404 -0.16863102 0.0023513963
-18.872551 11.879023 -1.3862805 0.17280753 0.036382612 -0.98428345 0.0035092528
-18.876312 11.880539 -1.38866 0.071556389 -0.99737132 -0.011409794 0
-18.874395 11.881395 -1.3879197 0.54272813 0.83196729 -0.1152237 0
-18.871746 11.88166 -1.3865722 0.16995487 -0.25567645 -0.95170629 0
-18.873936 11.884228 -1.3884263 0.83863354 -0.53509194 -0.10183516 0
-18.871426 11.884478 -1.387219 0.38816199 0.9080447 0.15743271 0.013274053
-18.869423 11.884953 -1.3862126 -0.1580749 -0.79151487 -0.59035295 0
-18.873465 11.886934 -1.3888483 0.70459843 0.70861882 -0.037422661 0
-18.871399 11.887427 -1.3880123 0.079595163 -0.053517379 -0.99538964 0
-18.86886 11.887556 -1.386728 0.35300943 0.2660988 -0.89698148 0
-18.866852 11.888674 -1.3861986 0.018955091 -0.071341895 -0.99727184 0
-18.87097 11.890285 -1.3885713 -0.54593891 -0.81224 0.20546721 0.0022695605
-18.868408 11.890511 -1.3874499 0.021276651 0.1160646 -0.99301374 0.0095502324
-18.866196 11.891115 -1.3865032 0.95565975 0.29445595 -0.0031719652 0
-18.870558 11.892653 -1.3888167 0.0046311468 0.088945843 0.99602568 0
-18.868351 11.893478 -1.3883519 0.42715916 0.8979736 -0.10572808 0
-18.865631 11.893471 -1.387076 0.073402174 0.035782017 -0.99666029 0
-18.863499 11.894525 -1.3863754 0.099474035 -0.99048442 -0.095108099 0
-18.867691 11.895904 -1.3887994 -0.15122162 -0.86623496 -0.47620279 0.0046115671
-18.865414 11.896355 -1.3879983 0.56153071 0.35453498 -0.74765515 0
-18.862724 11.89665 -1.3868245 -0.99202746 0.12445513 -0.019807281 0.0075449659
-18.860687 11.897324 -1.3862563 0.051443789 -0.10177111 -0.99347681 0.021283735
-18.864929 11.898876 -1.3886127 0.3880142 0.92094862 0.036037054 0
-18.86252 11.899439 -1.3877747 0.36122081 0.91427845 -0.18334235 0.0044948626
-18.859837 11.89971 -1.3866615 0.11747192 0.055050459 -0.99154919 0
-18.857388 11.9007 -1.3860846 -0.011263918 -0.051320918 -0.99861872 0
-18.862053 11.90218 -1.3885598 0.81230891 0.58302248 0.015462168 0.00022479673
-18.859608 11.902566 -1.3877261 -0.19414169 0.88771427 -0.41745943 0
-18.856865 11.902733 -1.3865855 0.75935966 0.64890009 -0.047975052 0
-18.854675 11.903946 -1.3862951 0.0058345553 -0.28419843 -0.95874774 0
-18.859131 11.905138 -1.3885686 0.11159841 0.56309599 -0.81882149 0
-18.856384 11.905415 -1.3875794 0.79680848 0.60384965 -0.021490082 0
-18.853783 11.905586 -1.3864106 -0.1475212 0.24691032 -0.9577437 0
-18.851843 11.906517 -1.3862191 0.5162462 0.6414209 -0.56751132 0
-18.855909 11.907907 -1.3885155 0.24947684 -0.19207621 -0.94914067 0
-18.853336 11.908497 -1.387802 0.37513095 0.89175212 0.25309068 0
-18.850742 11.908563 -1.3865937 0.17779665 -0.060192723 0.98222458 0.022007762
-18.848373 11.909715 -1.3863709 0.28488442 -2.7050593e-05 -0.9585619 0
-18.852772 11.910542 -1.3885899 -0.17283194 0.98453677 -0.028572742 0
-18.850349 11.911433 -1.388118 -0.18445595 -0.051095475 -0.98151171 0
-18.847488 11.911667 -1.3869041 0.30145684 0.42583045 -0.85310739 0
-18.845549 11.912538 -1.386304 0.45900112 0.34597078 -0.81830448 0
-18.849346 11.913292 -1.3886654 -0.067102998 -0.23036012 -0.97078902 0.0055403463
-18.847179 11.914348 -1.3884008 -0.83999991 0.54247558 0.010969608 0
-18.844362 11.914458 -1.3870684 0.46756542 -0.2500931 -0.84784198 0
-18.842257 11.915399 -1.3864287 0.27553532 0.54506075 0.79182631 0
-18.846176 11.916285 -1.3888818 0.091062739 -0.017542941 -0.99569064 0
-18.844204 11.916871 -1.3885802 0.37646049 -0.51075006 0.7729243 0
-18.841251 11.917157 -1.3872037 -0.32737872 0.36536962 -0.8713944 0
-18.838905 11.918274 -1.3866552 0.19917995 -0.035076298 0.97933495 0
-18.841005 11.919565 -1.3887486 0.98998076 -0.14086413 -0.0097649302 0.024891824
-18.837984 11.920021 -1.3874918 0.25814101 0.26157832 0.93002141 0
-18.835815 11.920971 -1.386916 -0.48910886 -0.83050931 -0.26650849 0.0052468325
-18.833639 11.921957 -1.3862417 -0.066059105 -0.11132745 -0.99158585 0
-18.837538 11.922396 -1.3889149 0.14394683 0.47612056 -0.86751866 0
-18.834925 11.922641 -1.3876324 0.15115485 0.15901439 0.97563654 0
-18.83272 11.923514 -1.3868171 0.050200857 -0.12754837 -0.99056113 0
-18.830448 11.924803 -1.3864369 0.43034494 0.87774456 0.21063645 0
-18.834244 11.925406 -1.3888954 0.1620529 0.43661764 -0.88493162 0
-18.832224 11.926238 -1.3885036 -0.089508593 -0.033156157 -0.99543399 0
-18.82954 11.926088 -1.3872013 -0.47719887 -0.87308884 0.099985771 0
-18.826981 11.927114 -1.3868243 -0.3582716 0.88392758 0.30052209 0
-18.824705 11.927899 -1.386224 0.15873028 -0.59651411 -0.78675008 0.071152963
-18.831333 11.928254 -1.3889024 -0.066275857 0.061149746 -0.99592584 0
-18.829283 11.929008 -1.388756 -0.2047157 -0.42434996 -0.88205367 0
-18.825924 11.928648 -1.3876901 -0.99860984 0.048370495 -0.020942861 0.023180563
-18.823456 11.928917 -1.38727 -0.85099953 -0.12069622 0.51110876 0
-18.820415 11.929415 -1.3873634 -0.6634683 -0.74452513 -0.074109271 0
-18.817455 11.929732 -1.3873408 -0.9737801 0.21272746 -0.08061856 0
-18.814457 11.929964 -1.3874006 -0.39101303 -0.92034376 0.0087301675 0
-18.81148 11.930104 -1.3874866 0.4927775 0.85068703 -0.18303528 0.048850983
-18.808777 11.930388 -1.3875359 0.42019308 0.25803998 0.86997312 0
-18.807503 11.932267 -1.3875399 0.35588455 0.48492852 0.79886824 0
-18.806805 11.93331 -1.3868494 0.064184353 -0.028885119 -0.99751997 0
-18.840727 11.936055 -1.3884711 0.14307277 0.18263038 -0.97271597 0
-18.838161 11.936141 -1.3881385 0.16525921 0.071993418 -0.98361903 0
-18.835566 11.93624 -1.3878075 0.20048195 -0.46245274 -0.86368078 0
-18.807266 11.935548 -1.3878946 -0.31793568 -0.38616458 0.86590648 0
-18.806883 11.935044 -1.3866324 -0.2293445 -0.457827 0.85895026 0
-18.840998 11.937531 -1.3869497 0.52340096 -0.45438397 0.72082359 0
-18.838423 11.937608 -1.3866267 0.095291518 0.16934115 0.98093992 0
-18.834961 11.937392 -1.3865342 -0.037592005 0.23031677 0.97238934 0
-18.829807 11.938088 -1.3861409 0.0909888 -0.071685448 -0.99326849 0.063602142
-18.82033 11.939812 -1.3865864 0.018142112 -0.1493437 0.98861897 0
-18.816153 11.939829 -1.3881208 0.19004688 0.89019716 -0.41404259 0.0069331485
-18.814699 11.939694 -1.3885456 0.13288921 -0.077027157 -0.98813325 0
-18.812916 11.939642 -1.3889544 0.03546888 0.016392678 0.99923635 0
-18.807673 11.938103 -1.3873144 -0.00092546141 -0.21811417 0.97592282 0
-18.816423 11.940247 -1.3867067 0.10460706 -0.1185806 -0.98741889 0
-18.813843 11.940376 -1.3868644 0.37376148 0.20085645 0.90551597 0
-18.811703 11.940409 -1.3870337 0.040580895 -0.080390178 0.99593705 0
-18.808458 11.940321 -1.3874261 -0.14592946 -0.74638659 -0.64931631 0.0073511619
-18.894741 11.765295 -1.3837286 0.016428655 -0.0056305244 -0.9998492 0
-18.892326 11.764602 -1.3839592 0.44782832 -0.89220917 0.058417287 0
-18.889429 11.765041 -1.3841938 -0.60918272 -0.7248525 0.32169154 0.001390565
-18.88718 11.765567 -1.3836256 -0.076476522 -0.98832726 0.13175993 0.026995847
-18.89715 11.768462 -1.3841401 -0.068662755 -0.10147092 -0.99246621 0
-18.895355 11.76733 -1.3849835 -0.14638829 -0.59564185 -0.7897982 0
-18.893375 11.766486 -1.3858204 0.0043052719 -0.099256217 -0.99505258 0
-18.888298 11.766467 -1.385785 0.4213475 -0.15981419 -0.89270693 0.039926481
-18.886078 11.76724 -1.3845496 -0.06754861 0.035788368 0.99707395 0
-18.884123 11.768214 -1.3837099 -0.0058159702 0.11269141 0.993613 0.017794849
-18.898136 11.770355 -1.3844332 0.65755707 0.14120471 -0.74005401 0
-18.896572 11.769551 -1.3854244 -0.050875142 -0.52401751 -0.85018665 0
-18.885448 11.77005 -1.385537 0.83746487 -0.063479148 -0.54279184 0
-18.883551 11.770595 -1.3840832 -0.0225762 -0.33488446 -0.94198871 0.012864326
-18.898769 11.772816 -1.3852941 0.12955165 0.088306174 -0.98763275 0
-18.883055 11.773604 -1.3843098 -0.34631789 -0.43323615 0.83208799 0
-18.881809 11.773827 -1.3833474 -0.011027502 -0.018665358 -0.99976498 0
-18.901028 11.776546 -1.3847964 0.44807923 0.2948719 -0.84396416 0
-18.899363 11.775354 -1.3859189 -0.11931574 -0.28939196 -0.9497453 0
-18.882658 11.776611 -1.3846675 -0.28450119 -0.47039971 -0.83533418 0.0057415604
-18.881706 11.77709 -1.3836452 0.24148951 -0.96718395 0.07898131 0
-18.902182 11.779763 -1.3851923 -0.030728646 0.24000926 -0.97028416 0
-18.882725 11.779321 -1.3851638 0.89013225 0.44500688 -0.098150089 0
-18.88151 11.779597 -1.383696 -0.0041543311 -0.44225976 -0.89687741 0
-18.903202 11.781748 -1.3851873 -0.30476275 -0.42397121 -0.85285878 0.011044873
-18.882498 11.782277 -1.3853812 0.072771683 -0.063796483 0.99530613 0.0053866426
-18.881365 11.782662 -1.3840343 0.0089510968 -0.1004895 0.9948979 0
-18.903833 11.784374 -1.3858161 0.40187088 0.4379127 -0.80419666 0
-18.882242 11.785625 -1.3857765 0.57426691 0.39009345 -0.71975315 0.0014530979
-18.881189 11.785617 -1.3842348 0.064640164 0.21068574 -0.97541434 0
-18.882168 11.788641 -1.3859534 0.033675075 0.10643011 0.9937498 0
-18.881042 11.78849 -1.3844557 -0.0012998634 0.24752602 -0.96888036 0.02240348
-18.880884 11.791519 -1.3844513 0.35673955 0.84150749 -0.40571183 0
-18.880783 11.794525 -1.3843347 0.36715129 0.90483689 -0.2155692 0
-18.880869 11.797511 -1.3844 0.17657074 0.19340755 -0.9650991 0
-18.881107 11.800513 -1.3845903 0.16058603 0.47583827 0.8647486 0.01064666
-18.882067 11.803796 -1.3858234 -0.084739588 0.0067666387 0.99638015 0
-18.881216 11.803531 -1.3843808 0.17692259 0.14714418 0.97316337 0
-18.882206 11.805817 -1.3858793 0.12215499 0.066143371 0.99030459 0
-18.881348 11.80648 -1.3842959 0.065682642 0.69295663 0.71798116 0
-18.8822 11.809834 -1.3853124 0.072383858 0.11696059 0.9904952 0
-18.881454 11.809346 -1.3841559 0.60776126 -0.20558085 -0.76704806 0.02912808
-18.882273 11.812451 -1.385519 0.025612844 0.16454604 0.98603678 0
-18.881544 11.812428 -1.3839693 -0.067796752 0.20768528 0.97584349 0
-18.882339 11.815288 -1.3855098 0.17637755 0.43649593 0.88224834 0.0083472943
-18.881636 11.815475 -1.3839741 0.027635142 0.24140105 -0.97003186 0.01512247
-18.882275 11.818478 -1.3854427 0.010746703 0.99896336 -0.044235032 0.035869017
