# .PCD v0.7 - Point Cloud Data file format
VERSION 0.7
FIELDS x y z normal_x normal_y normal_z curvature
SIZE 4 4 4 4 4 4 4
TYPE F F F F F F F
COUNT 1 1 1 1 1 1 1
WIDTH 558
HEIGHT 1
VIEWPOINT 0 0 0 1 0 0 0
POINTS 558
DATA ascii
-0.010490689 0.016487848 -0.016607011 -0.0075441943 -0.16743667 -0.98585397 0.0038492889
-0.0074186372 0.016500186 -0.016624173 -0.0024958337 -0.12358448 -0.99233091 0.004317468
-0.0044222367 0.016428879 -0.016621806 -0.0032110955 -0.10352714 -0.9946214 0.0046560774
-0.0015985701 0.016340194 -0.016629463 -0.0091329245 -0.10624965 -0.99429756 0.0047132801
0.0014955285 0.016467763 -0.016667249 -0.014158627 -0.046631992 -0.99881178 0.0050822273
0.0045854053 0.016483413 -0.016733808 -0.029116923 -0.036888886 -0.99889505 0.0050576697
0.0075669517 0.016445547 -0.016821122 -0.03498612 -0.033838425 -0.99881476 0.0056013595
0.010549508 0.016491961 -0.016933683 -0.041843798 -0.040431861 -0.99830574 0.0039617158
0.013464271 0.016458087 -0.017048759 -0.041752759 -0.080662787 -0.9958666 0.0047056181
0.016420869 0.016481923 -0.017160898 -0.029462516 -0.092918269 -0.99523777 0.0045374371
0.019529039 0.016613932 -0.017267777 -0.013792015 -0.16565792 -0.98608679 0.0045620999
0.022490297 0.016435361 -0.017270386 0.0014511826 -0.21302849 -0.97704488 0.0048929811
0.025491977 0.016584355 -0.017254004 0.025110351 -0.25733015 -0.96599722 0.0043760664
0.028396741 0.01648259 -0.017104689 0.066022426 -0.30173758 -0.95110226 0.0043011643
0.031557646 0.01656251 -0.016823703 0.093378045 -0.34336686 -0.9345479 0.0033805235
0.034460112 0.016587559 -0.016445164 0.13460174 -0.38621637 -0.91253453 0.0025798564
0.037386641 0.016711537 -0.015940851 0.19908427 -0.45435479 -0.86828977 0.0021567948
0.040231228 0.017285559 -0.015535196 0.22376351 -0.46295831 -0.85767102 0.0024500773
0.042743307 0.017905295 -0.015123804 0.29587409 -0.51994377 -0.80132204 0.0015714479
-0.036566716 0.020640977 -0.015126186 -0.26896542 -0.48151737 -0.83414555 0.0021100501
-0.034305442 0.020098494 -0.015441317 -0.20421791 -0.4384596 -0.87524188 0.0029553503
-0.031467058 0.019492295 -0.015760155 -0.17105056 -0.38967198 -0.90492952 0.0022543755
-0.028550223 0.019462101 -0.016213574 -0.11792638 -0.33236283 -0.93575013 0.0026232181
-0.025531968 0.019437531 -0.016544364 -0.07974162 -0.28000656 -0.95668048 0.0035028877
-0.02251997 0.019476524 -0.016773505 -0.047675442 -0.21993573 -0.97434866 0.003955211
-0.019621059 0.019450763 -0.01685904 -0.022537038 -0.16650812 -0.9857825 0.0049223434
-0.016595928 0.01943196 -0.016854303 0.012686116 -0.077072382 -0.99694479 0.00590955
-0.01357505 0.019428581 -0.016783023 0.030994974 0.072380602 -0.99689531 0.0054044267
-0.010483261 0.019448675 -0.016671114 0.035840336 0.12772174 -0.9911623 0.0047017266
-0.0074458537 0.019483062 -0.016537601 0.033203807 0.1514069 -0.98791373 0.0036636218
-0.0045204484 0.019468078 -0.016441666 0.024487251 0.17143846 -0.98489052 0.0032544294
-0.0014859155 0.019403912 -0.016386677 0.013009618 0.19117089 -0.98147053 0.0029390773
0.0015253467 0.019455949 -0.016359514 -0.0043401704 0.20629217 -0.97848082 0.002874933
0.0044827056 0.019399537 -0.016411118 -0.021958152 0.21197477 -0.97702837 0.0028000062
0.0075120633 0.019454427 -0.01649512 -0.037984386 0.21572429 -0.97571528 0.0027959892
0.010501247 0.019457491 -0.016646281 -0.058760237 0.21224491 -0.97544825 0.0031082637
0.013474291 0.019447068 -0.016832102 -0.062107656 0.20081821 -0.97765779 0.0037207259
0.016506664 0.019488253 -0.017039467 -0.071098037 0.18195647 -0.98073286 0.004574005
0.019536531 0.019448325 -0.017262904 -0.068732411 0.11810448 -0.9906196 0.0054949229
0.022547644 0.019478945 -0.017442612 -0.055071846 0.062044635 -0.99655288 0.0032925135
0.02553381 0.01953407 -0.01758706 -0.025193045 -0.032249607 -0.99916226 0.0033363395
0.028504349 0.019508969 -0.01764776 -8.7684093e-05 -0.043231823 -0.99906504 0.0056280647
0.031519048 0.019511331 -0.017597208 0.030860322 -0.16586997 -0.98566467 0.0059796972
0.034433946 0.019518107 -0.017446114 0.078235753 -0.23428819 -0.96901405 0.0047356342
0.037396129 0.019612376 -0.017139811 0.12622525 -0.29038259 -0.94854897 0.0042298939
0.040414579 0.019572292 -0.016583612 0.19509996 -0.35886273 -0.91277248 0.0030270081
0.043378506 0.019665278 -0.015851742 0.25807214 -0.41101548 -0.87433684 0.00234544
0.045958292 0.020341834 -0.015343282 0.32076341 -0.45850685 -0.82878363 0.0024093499
-0.042052735 0.023738861 -0.01505995 -0.32917646 -0.45761976 -0.82597041 0.0015733386
-0.040069569 0.023283981 -0.015343587 -0.27712968 -0.4144167 -0.86686671 0.0026674734
-0.037448648 0.0225532 -0.015746083 -0.22320065 -0.35947287 -0.90606886 0.0023794232
-0.034532893 0.022438474 -0.016322372 -0.14735894 -0.30061269 -0.94229364 0.0027543923
-0.031506203 0.022446262 -0.01674412 -0.10275935 -0.24449353 -0.96419054 0.0042208671
-0.028505025 0.0224334 -0.016968487 -0.045616206 -0.16949913 -0.98447406 0.0057043885
-0.02543941 0.022444086 -0.017033072 -0.0026264268 -0.075626396 -0.99713272 0.006246048
-0.022472786 0.02237602 -0.016990809 0.025431519 0.040037673 -0.99887449 0.0043486096
-0.019577749 0.022440176 -0.016840305 0.057041511 0.13765399 -0.98883653 0.0050135651
-0.016559025 0.022367606 -0.016628081 0.083258286 0.18427193 -0.97934258 0.0041752132
-0.0135295 0.022416724 -0.016338777 0.080487914 0.23303163 -0.96913254 0.0028700416
-0.010601466 0.022407647 -0.016072694 0.077132836 0.27094218 -0.95950037 0.0025275019
-0.007534774 0.022401152 -0.015809493 0.066078082 0.30458575 -0.95019007 0.0018851291
-0.0044679088 0.022358289 -0.015613128 0.052621916 0.35480127 -0.93345976 0.001871006
-0.0015094888 0.022135086 -0.015565638 0.025151568 0.37064737 -0.92843312 0.0020590639
0.0014738432 0.022100998 -0.015518042 0.0028714554 0.3840619 -0.92330289 0.0021986763
0.0045134672 0.022142142 -0.015518119 -0.018124498 0.38917658 -0.92098486 0.0021294404
0.0075705731 0.022214442 -0.015589091 -0.035358869 0.39443204 -0.91824454 0.0022190199
0.010544199 0.022413703 -0.015675165 -0.058869235 0.38626948 -0.9205054 0.0021115406
0.013612569 0.022365311 -0.015959825 -0.084512845 0.35328302 -0.93169135 0.0019921961
0.016480912 0.022512343 -0.016189734 -0.093670167 0.35182407 -0.93136764 0.0024335478
0.01946675 0.022412984 -0.016585736 -0.099793978 0.30951256 -0.94564432 0.0027325302
0.022484429 0.02251243 -0.016913958 -0.10587414 0.27732116 -0.95492595 0.0033880405
0.025564618 0.022478554 -0.017262675 -0.09110292 0.23813495 -0.96694988 0.00427705
0.02850895 0.022502335 -0.017509894 -0.074494697 0.18479477 -0.97994977 0.0056656082
0.031479489 0.022535436 -0.017691566 -0.039778419 0.065106675 -0.99708515 0.0038666802
0.034455605 0.022480607 -0.01777079 -0.00056603021 0.0046074553 -0.99998927 0.0039536683
0.037430879 0.022492541 -0.017687567 0.054228604 -0.072924897 -0.99586207 0.0043596928
0.040425509 0.022510594 -0.017417682 0.1126501 -0.17735483 -0.97767848 0.0056740888
0.043456431 0.02253443 -0.016916269 0.18059537 -0.24992447 -0.95127445 0.0041104704
0.046439826 0.022448402 -0.016110668 0.24892297 -0.30728748 -0.9184835 0.0026869413
0.04899317 0.022943998 -0.01544844 0.33241713 -0.38856101 -0.85937142 0.0024260287
-0.04520775 0.026674906 -0.01510366 -0.3283962 -0.41926059 -0.84639019 0.0023182156
-0.043179292 0.025897332 -0.015460839 -0.27183145 -0.35322848 -0.8951745 0.0033593504
-0.040545788 0.02543354 -0.016025973 -0.21177302 -0.28378987 -0.9352088 0.0028653254
-0.037561197 0.025472408 -0.016636679 -0.14795686 -0.22690938 -0.9626115 0.0045361654
-0.034613598 0.025386088 -0.016968096 -0.095230237 -0.16495652 -0.98169273 0.0068792156
-0.031681761 0.025324235 -0.017081633 -0.028141785 -0.046107404 -0.99854004 0.0044138725
-0.028470498 0.025365258 -0.017033922 0.043757465 0.11592024 -0.99229425 0.006221598
-0.025596118 0.02541418 -0.016832896 0.069288231 0.17366058 -0.98236507 0.0045261984
-0.0225897 0.025448591 -0.016521314 0.092472874 0.23145559 -0.96844047 0.0037282198
-0.019510135 0.02532357 -0.016161816 0.11536982 0.29722983 -0.94781023 0.0030511091
-0.016583595 0.025362769 -0.015726974 0.12949821 0.35353994 -0.92641222 0.0017653683
-0.01354715 0.024929777 -0.015462549 0.11812407 0.39504427 -0.91103613 0.0026538069
-0.010831593 0.024594504 -0.015241727 0.1096575 0.45087215 -0.88582706 0.0022542903
-0.0080603212 0.024266763 -0.015072079 0.089069895 0.4811323 -0.87211138 0.0017032097
0.013849673 0.024200572 -0.015099831 -0.096390322 0.52025265 -0.84855539 0.001881288
0.016772944 0.024579491 -0.015266018 -0.11816689 0.50380218 -0.85569853 0.0020542145
0.019601908 0.024946423 -0.01549944 -0.13356712 0.47861344 -0.86780691 0.0024561435
0.022600269 0.025333643 -0.015804034 -0.14340462 0.43674397 -0.88808209 0.0022451035
0.025447309 0.025392624 -0.016264422 -0.13274503 0.37600246 -0.91706097 0.002391435
0.028649213 0.025395954 -0.01675679 -0.12050764 0.335493 -0.93430316 0.0028530902
0.031559732 0.025438786 -0.017135369 -0.1074922 0.29169285 -0.95045286 0.0040547159
0.034523085 0.025519453 -0.017420413 -0.074346818 0.2343967 -0.96929395 0.004673149
0.037430827 0.025520233 -0.017597532 -0.029927772 0.13411634 -0.99051362 0.0049614105
0.040386554 0.025444828 -0.017622076 0.02870225 0.032239139 -0.99906796 0.0045372401
0.043264672 0.025627786 -0.017427346 0.092510194 -0.042436864 -0.994807 0.0053575775
0.046316609 0.025597911 -0.016979752 0.16895847 -0.13451946 -0.97640032 0.0041981856
0.04929309 0.025458645 -0.016216369 0.25728822 -0.21775453 -0.94148058 0.0026017129
0.051849835 0.025817906 -0.015455018 0.33153468 -0.28665265 -0.89884096 0.0020745203
-0.04848079 0.029586354 -0.015137985 -0.32504895 -0.33754456 -0.8834064 0.0026648184
-0.046304327 0.028725708 -0.015518442 -0.26058492 -0.2893478 -0.92107183 0.0034608275
-0.043541715 0.028443063 -0.016142538 -0.20336102 -0.22033775 -0.95398933 0.0034658627
-0.040503204 0.028469445 -0.016704561 -0.14894581 -0.13184907 -0.98001581 0.005252833
-0.037515793 0.028466623 -0.016963046 -0.048999909 0.018090826 -0.99863487 0.0073299482
-0.034594912 0.028421151 -0.016968392 0.029042015 0.12130309 -0.9921906 0.0061797947
-0.031618193 0.028351106 -0.016782474 0.070448793 0.18894535 -0.97945726 0.0049627805
-0.028680943 0.028322501 -0.016448854 0.10418312 0.25402704 -0.96156967 0.0031481253
-0.02554876 0.028364589 -0.015948968 0.14461495 0.33161539 -0.93226486 0.0030751417
-0.022724219 0.028085062 -0.015573537 0.14792487 0.37410474 -0.91551292 0.0023991165
-0.019769302 0.02754388 -0.015280668 0.16087116 0.45140368 -0.87769878 0.0022770339
-0.017649068 0.027179118 -0.015066437 0.15317054 0.47658288 -0.86568332 0.0016619187
0.023665708 0.027188888 -0.015006585 -0.1691445 0.56111789 -0.81026965 0.001364897
0.025816495 0.02744874 -0.015260975 -0.17293209 0.51702446 -0.83831984 0.0017422067
0.02863634 0.027931433 -0.015564437 -0.16246815 0.49617603 -0.85288531 0.0022860835
0.031585965 0.028410237 -0.015891984 -0.17348278 0.46279591 -0.86932367 0.001952003
0.034473054 0.028462175 -0.01640413 -0.13863185 0.39660004 -0.90746319 0.0028039697
0.037492849 0.028424572 -0.016882051 -0.10133018 0.31585985 -0.9433794 0.003698851
0.040514376 0.028532153 -0.017164726 -0.062178191 0.25232798 -0.96564204 0.0042810999
0.043459907 0.028488468 -0.017285133 0.0041925153 0.15979964 -0.98714054 0.0057553281
0.046360135 0.028495664 -0.017152335 0.09997806 0.036055796 -0.99433613 0.006052813
0.049550299 0.028605713 -0.016690366 0.16717753 -0.035171956 -0.98529917 0.0041592265
0.052553911 0.028480781 -0.015883999 0.27098268 -0.15618046 -0.94982952 0.0035817781
0.05447926 0.028550684 -0.015237485 0.36380523 -0.21921404 -0.9053126 0.0028672814
-0.051282145 0.032619946 -0.015079363 -0.33705783 -0.24425167 -0.90924865 0.0033113388
-0.049316209 0.031651679 -0.015443037 -0.24998213 -0.20301297 -0.94672847 0.003926727
-0.046558678 0.031451255 -0.016089708 -0.18560383 -0.14226159 -0.97227204 0.0042920918
-0.043511212 0.031371709 -0.016557716 -0.12538145 -0.068256706 -0.98975784 0.007687856
-0.040644314 0.031353202 -0.016716817 -0.028227746 0.1136757 -0.99311686 0.0065847677
-0.037686061 0.03134869 -0.016648134 0.043438561 0.19030927 -0.98076266 0.0048538749
-0.034487911 0.031440523 -0.016283777 0.1092547 0.29191425 -0.95018393 0.0031248818
-0.031564288 0.031362716 -0.015810035 0.18454136 0.38528278 -0.904158 0.0019895188
-0.028713064 0.030794062 -0.015486698 0.17104143 0.41861668 -0.89191079 0.0027126884
-0.026251538 0.030336939 -0.015176474 0.19853328 0.4910841 -0.84818685 0.0019739757
0.032567229 0.03020864 -0.015062927 -0.20234419 0.56974798 -0.79651994 0.0015700784
0.034731578 0.030496508 -0.01539858 -0.19282345 0.52551609 -0.82864463 0.0022829161
0.03765998 0.031165496 -0.015677784 -0.1777298 0.46268764 -0.868523 0.0027627288
0.040507056 0.031478107 -0.016101409 -0.15330291 0.39353758 -0.90643609 0.0029508329
0.043551777 0.031510673 -0.01654808 -0.07183186 0.29711235 -0.95213681 0.0034472495
0.04652423 0.031492267 -0.016749432 -0.0007139282 0.22345148 -0.97471482 0.0041346955
0.049512323 0.031449404 -0.016640244 0.075726911 0.14885767 -0.98595476 0.0050395858
0.052239355 0.031664275 -0.016226601 0.16906016 0.036494952 -0.9849298 0.0041426499
0.055309199 0.031569306 -0.015445305 0.29230088 -0.076854572 -0.95323324 0.0035977894
-0.051874399 0.034688469 -0.015225311 -0.27034333 -0.10180965 -0.95736575 0.0037489722
-0.0496151 0.034418877 -0.015733441 -0.18009838 -0.056146629 -0.98204482 0.0041348995
-0.046638984 0.034335017 -0.016164327 -0.098085396 0.079182364 -0.99202293 0.0057631508
-0.043505967 0.034335632 -0.016280601 -0.016627863 0.17037551 -0.98523891 0.0048924792
-0.040585533 0.034226194 -0.016133724 0.057085462 0.25467426 -0.9653405 0.0034984015
-0.037674785 0.034146357 -0.015773261 0.13271539 0.3394475 -0.93121535 0.0025404962
-0.034862194 0.033826262 -0.015382548 0.17640869 0.42713779 -0.88681078 0.0026940249
-0.032447387 0.033223186 -0.01512818 0.21705781 0.48972201 -0.84442776 0.0017206557
0.040950157 0.033390217 -0.015238388 -0.21610346 0.5082069 -0.8336817 0.0021939641
0.043640412 0.03401836 -0.015517729 -0.16587302 0.43867415 -0.88320512 0.003010517
0.046534713 0.034393668 -0.015827624 -0.091470443 0.33671969 -0.93715155 0.0026984774
0.04951084 0.034416612 -0.016039355 0.0046541239 0.24592181 -0.96927857 0.0033004647
0.052495562 0.034440503 -0.0159312 0.090845078 0.17179985 -0.9809342 0.0035669901
0.055361461 0.034699187 -0.015448228 0.18837762 0.083531559 -0.97853792 0.0035496934
0.057090592 0.035073288 -0.015067157 0.24571869 0.022230197 -0.96908629 0.0048171701
-0.05218247 0.037382923 -0.015211344 -0.19045106 0.048895821 -0.98047823 0.003580746
-0.049612209 0.037299853 -0.015550422 -0.099189758 0.11579089 -0.98830855 0.0033247333
-0.046742115 0.037312172 -0.015612862 0.0074355779 0.22333516 -0.97471339 0.0036327504
-0.04368877 0.036968805 -0.015514423 0.078808814 0.32241815 -0.94331104 0.0036206499
-0.040907342 0.036527552 -0.015300855 0.13994193 0.40120959 -0.90523314 0.002443946
-0.038892493 0.036146909 -0.015062429 0.20229076 0.5018521 -0.84096545 0.0020615794
0.047237761 0.036277704 -0.015117258 -0.17046323 0.47304967 -0.86438781 0.0020899002
0.049580827 0.036578875 -0.015292147 -0.088589847 0.38859585 -0.91713959 0.0030977216
0.052461945 0.03691598 -0.015320303 0.01265179 0.30871475 -0.95107055 0.0030134795
0.055072986 0.036919452 -0.015181859 0.097275041 0.25464305 -0.96213019 0.0040724375
-0.051783543 0.039263826 -0.015056733 -0.11139284 0.18020631 -0.977301 0.0033039392
-0.049718089 0.039263584 -0.015113754 -0.023299031 0.27691132 -0.96061307 0.0034595956
-0.047540117 0.03916369 -0.015062558 0.084370658 0.40144351 -0.91198939 0.0028872273
-0.0011073838 0.0059697246 -0.012121499 -0.052426267 -0.69513947 -0.71696067 0.0017441084
0.0014497708 0.005911238 -0.012123259 -0.038009029 -0.68332529 -0.72912407 0.0019811185
0.0043459171 0.0058418876 -0.012133969 -0.0089053195 -0.70268011 -0.71145016 0.0012486794
0.0075748488 0.005834817 -0.012144258 0.010586272 -0.68652117 -0.72703272 0.0015392679
0.010363445 0.0059011527 -0.012106122 0.035992105 -0.70215976 -0.7111091 0.0015233448
0.012561888 0.0059303306 -0.012054138 0.053256601 -0.7236073 -0.68815416 0.0014838339
-0.015986493 0.0086910976 -0.012260329 -0.17995164 -0.66262883 -0.72700781 0.0010001158
-0.01338772 0.0083589572 -0.012509624 -0.14670075 -0.65193385 -0.74394971 0.001168954
-0.010436333 0.0080354316 -0.012736287 -0.11833726 -0.63725013 -0.76151729 0.0010515153
-0.0074619264 0.007795386 -0.012930539 -0.091485247 -0.62634188 -0.77416176 0.0010254964
-0.0044998615 0.0076516573 -0.013110187 -0.064230368 -0.60769856 -0.79156613 0.0016365362
-0.0015452203 0.0075255819 -0.01322677 -0.051402759 -0.60230786 -0.79660726 0.0019015583
0.0014961091 0.0075004175 -0.013380316 -0.036774561 -0.59925729 -0.79971135 0.001946385
0.0044844816 0.0074726152 -0.013472551 -0.017622881 -0.58724934 -0.80921423 0.0015047319
0.0075048455 0.0075723766 -0.013577725 0.0022251063 -0.58703101 -0.80956137 0.0017652774
0.010461905 0.0073983911 -0.013401995 0.019082429 -0.60397458 -0.7967751 0.0016529857
0.013402569 0.0074621099 -0.013333324 0.03659898 -0.62790167 -0.77743167 0.0018091011
0.016447091 0.0076548439 -0.013279469 0.063554399 -0.6449635 -0.76156616 0.0014776915
0.019453535 0.0078640003 -0.013143593 0.095597774 -0.66537672 -0.74036127 0.0015886445
0.022375379 0.0081213433 -0.012937342 0.12850092 -0.6838944 -0.71817541 0.0012998736
0.025587142 0.0084963832 -0.012648149 0.16326098 -0.68428355 -0.71070516 0.001730454
0.028000988 0.0087464303 -0.012293277 0.19756529 -0.71533942 -0.67026669 0.0011821327
-0.024842942 0.011671334 -0.012311071 -0.23987426 -0.6592955 -0.71259373 0.0010837953
-0.022364935 0.011214484 -0.012662846 -0.22115645 -0.63783884 -0.73773396 0.0012243219
-0.01942976 0.010713778 -0.013045929 -0.19872688 -0.60931289 -0.76762325 0.0013666343
-0.016501198 0.01044781 -0.013499994 -0.16423076 -0.57779104 -0.79949093 0.001451295
-0.013527788 0.010402638 -0.014003149 -0.12300982 -0.54241681 -0.83105516 0.00106853
-0.010573659 0.010205319 -0.014284235 -0.10389332 -0.51997131 -0.84784192 0.0013174241
-0.0075790831 0.0099736629 -0.014452533 -0.07658115 -0.50359571 -0.8605386 0.0017320396
-0.0046052742 0.0097967135 -0.014577826 -0.0582706 -0.48812544 -0.87082613 0.0020525905
-0.0015464756 0.0096379202 -0.014667455 -0.045045674 -0.47597885 -0.87830228 0.0022452746
0.001405703 0.0095335199 -0.014740631 -0.034694318 -0.47398171 -0.87985092 0.0022123703
0.0044340598 0.0093966834 -0.014758312 -0.022783527 -0.48661587 -0.87331891 0.002223436
0.0075214626 0.0093741538 -0.014799505 -0.0053281025 -0.51965213 -0.8543613 0.0015617695
0.010589217 0.0093213916 -0.014772486 0.0078518959 -0.53393555 -0.84548873 0.001687109
0.01351133 0.0093678329 -0.014752875 0.027322482 -0.54812795 -0.83594811 0.0018734089
0.016361039 0.0094748074 -0.014689622 0.047635604 -0.56318402 -0.82495731 0.0015739662
0.019427016 0.0096837925 -0.014600278 0.07094916 -0.54377645 -0.83622575 0.0020717566
0.022617789 0.0099815214 -0.014450707 0.10173477 -0.56006402 -0.82217902 0.0019501027
0.025613386 0.01006194 -0.01402708 0.1442844 -0.60732734 -0.78123969 0.0021779758
0.02843084 0.010608932 -0.013882557 0.17188583 -0.61638123 -0.76845908 0.0011793416
0.031541452 0.010629958 -0.013072662 0.2160652 -0.6656974 -0.71425688 0.0013421505
0.034335658 0.011231382 -0.012719932 0.24699683 -0.66658312 -0.70332032 0.0010625632
0.036486536 0.011623405 -0.01232955 0.26221275 -0.68407607 -0.68065 0.0014830289
-0.033281922 0.014810364 -0.01218477 -0.29040331 -0.63690937 -0.7141515 0.0016224545
-0.031190878 0.014394906 -0.012524483 -0.26884499 -0.6504162 -0.71040916 0.0012292535
-0.028385967 0.013801458 -0.01295491 -0.24466918 -0.61930072 -0.7460587 0.0015446609
-0.025532367 0.013466045 -0.013523932 -0.22199738 -0.58542067 -0.77974343 0.0016033225
-0.022634856 0.013304322 -0.014163758 -0.18490203 -0.5352208 -0.82422686 0.0010232833
-0.019652147 0.012832589 -0.014511348 -0.16368981 -0.50107163 -0.84978396 0.0018230323
-0.016745465 0.012381796 -0.014761192 -0.13205501 -0.47221527 -0.87153554 0.002352634
-0.014483326 0.012161149 -0.014942321 -0.10915618 -0.45868585 -0.88186866 0.0028103946
0.02948874 0.012200937 -0.014898626 0.14886439 -0.56582564 -0.81097519 0.0012106522
0.031592641 0.0125205 -0.014650908 0.18842807 -0.57202476 -0.79829985 0.0018199716
0.034579176 0.013075096 -0.014264298 0.20697454 -0.56840289 -0.79629117 0.0014281174
0.037346993 0.013545578 -0.013781574 0.2460942 -0.59369522 -0.76613539 0.00094531593
0.040255476 0.013892824 -0.012963093 0.31262189 -0.65068609 -0.69200808 0.0016887183
0.04273507 0.014630778 -0.012517633 0.34616911 -0.66475743 -0.66201544 0.0017492761
-0.03925835 0.017817648 -0.012139166 -0.36339137 -0.60714728 -0.70662498 0.0018502238
-0.037190232 0.01728115 -0.012593125 -0.32971969 -0.61345923 -0.71760207 0.0012278066
-0.034431022 0.016615381 -0.013152741 -0.29349872 -0.60348392 -0.7413944 0.0012288103
-0.031600975 0.01636756 -0.013926714 -0.23098303 -0.55053234 -0.80222249 0.00097500626
-0.028721355 0.015891995 -0.014415131 -0.20706201 -0.51361459 -0.83266157 0.0016164472
-0.026000256 0.015386534 -0.014747006 -0.18135212 -0.49239966 -0.85126609 0.0018530074
-0.02375539 0.015106489 -0.014968457 -0.15575694 -0.51039356 -0.84571761 0.0022897951
0.038319062 0.015285348 -0.014844285 0.22998446 -0.5374012 -0.81136131 0.0021676447
0.040695772 0.015882812 -0.014454686 0.26712441 -0.53402656 -0.80215961 0.0018298862
0.043508008 0.016524427 -0.013793406 0.32463419 -0.57238442 -0.75298655 0.0010857414
0.046243295 0.017018877 -0.012879159 0.38160428 -0.60799581 -0.69621783 0.0011946516
0.048357714 0.017638117 -0.012255999 0.41152117 -0.62974811 -0.65883815 0.0010304169
-0.042804644 0.020468453 -0.012412659 -0.40500835 -0.59361792 -0.6954034 0.0012622606
-0.040354896 0.019711357 -0.0130417 -0.36513993 -0.57373714 -0.73314285 0.001169715
-0.037621096 0.019343209 -0.013952732 -0.29366982 -0.51751578 -0.8037011 0.00089205272
-0.034836538 0.018720096 -0.014542348 -0.25212333 -0.49020559 -0.8343454 0.0020456177
-0.03257449 0.018224554 -0.014873238 -0.21273269 -0.51223898 -0.83207941 0.0014459582
0.04443403 0.018391179 -0.014787915 0.3043907 -0.52959442 -0.79175502 0.0019321741
0.046602588 0.019156462 -0.0143521 0.35751343 -0.51318425 -0.78027302 0.0017614526
0.049342461 0.019575637 -0.013257056 0.40715507 -0.55376428 -0.72634012 0.0014787549
0.051740151 0.02022226 -0.012371988 0.44112256 -0.57248688 -0.69113648 0.0011832151
-0.048181105 0.023900611 -0.012062875 -0.44323796 -0.5732761 -0.68912596 0.001341096
-0.046091676 0.023120804 -0.012604054 -0.42084089 -0.56133515 -0.71259791 0.0013746993
-0.043481391 0.022494799 -0.013503388 -0.37640694 -0.50317943 -0.77789998 0.0014624824
-0.040793978 0.021987768 -0.014405321 -0.32023257 -0.46442103 -0.82569009 0.001355004
-0.038643464 0.021318845 -0.014833211 -0.27307972 -0.47835746 -0.83462662 0.0021997308
-0.0065032318 0.023935435 -0.01498452 0.091429427 0.43086579 -0.89777243 0.00051472249
-0.0041007483 0.023852788 -0.014921764 0.069268204 0.48409912 -0.87226713 0.0014093001
-0.0013098166 0.023674751 -0.014857175 0.040595856 0.47151205 -0.88092476 0.0018585883
0.0016041694 0.023676176 -0.014777027 0.013732161 0.47019854 -0.88245386 0.0021551815
0.0043943459 0.02364861 -0.014795475 -0.014937993 0.46515521 -0.88510305 0.0020331324
0.0073328912 0.023692552 -0.014863148 -0.039199922 0.50057954 -0.86480254 0.0025201789
0.0097108753 0.023852674 -0.014897394 -0.06789878 0.53768605 -0.84040672 0.001422177
0.012192021 0.023856465 -0.014993886 -0.10050467 0.52187562 -0.84708005 0.0015707777
0.05000478 0.021918448 -0.014502195 0.37578869 -0.43819979 -0.8165561 0.0014846219
0.052412827 0.022581657 -0.013632451 0.42672974 -0.47151858 -0.77173311 0.0014209967
0.054744326 0.023335354 -0.012760448 0.47770247 -0.5002687 -0.72217143 0.0010626975
-0.051388104 0.026676493 -0.012202784 -0.45293272 -0.55399263 -0.69853002 0.0016951744
-0.049252361 0.025850022 -0.012828301 -0.42326725 -0.52744335 -0.73664671 0.0017361757
-0.046571944 0.025404446 -0.01386974 -0.36474147 -0.45835754 -0.81047642 0.0011259607
-0.044055667 0.024753325 -0.014638363 -0.3266885 -0.41360545 -0.84982657 0.0021258255
-0.041779842 0.024084669 -0.014987054 -0.33411437 -0.45641878 -0.82465118 0.0012120497
-0.01540464 0.026735956 -0.014860323 0.16868809 0.48623511 -0.85739124 0.0022326678
-0.013267278 0.026334524 -0.014697621 0.15403681 0.46774891 -0.87033534 0.0021209703
-0.010148589 0.025880042 -0.014453987 0.12731564 0.47834718 -0.86889279 0.0018701237
-0.0074366443 0.025582487 -0.014259987 0.10332006 0.49880424 -0.86053431 0.0015328142
-0.0044860346 0.025410438 -0.014044149 0.077898346 0.5150224 -0.85362983 0.001174056
-0.0014528192 0.025396997 -0.01380749 0.047889985 0.53540677 -0.84323555 0.0012622791
0.0014738607 0.025433594 -0.013660876 0.020082001 0.55879903 -0.82905996 0.0014364722
0.0045146374 0.025406908 -0.01366237 -0.010305903 0.5624069 -0.82679641 0.001378911
0.0076072728 0.025424082 -0.013739933 -0.035236504 0.57295835 -0.81882662 0.0016048506
0.010568501 0.02545486 -0.01392795 -0.072761878 0.5738607 -0.81571406 0.001489217
0.013466261 0.025638293 -0.014122792 -0.11160883 0.56365824 -0.81843323 0.0016823759
0.0163945 0.02595837 -0.014337167 -0.13593453 0.55084085 -0.823466 0.0015972055
0.019369576 0.026392693 -0.014587812 -0.16128759 0.55289114 -0.81749475 0.0019314667
0.021684188 0.026719183 -0.014846459 -0.1716591 0.53304875 -0.82848793 0.0016018962
0.053122994 0.024992485 -0.014584373 0.39649993 -0.3621226 -0.84359652 0.0016040141
0.055340651 0.025577735 -0.013676527 0.44326279 -0.39901158 -0.80268788 0.002043867
0.057459008 0.026058301 -0.012669584 0.50118673 -0.41594523 -0.75881588 0.0020045277
-0.054416642 0.029564248 -0.012290597 -0.4811314 -0.47871676 -0.73439962 0.0018485906
-0.052348796 0.028705003 -0.012967314 -0.4374291 -0.4706749 -0.76623809 0.0020740603
-0.049638558 0.028360412 -0.014127418 -0.37183177 -0.40425131 -0.83565664 0.0013863702
-0.047314662 0.027606694 -0.014751411 -0.31819737 -0.35602608 -0.8786329 0.003157215
-0.024459833 0.029977655 -0.014898107 0.23066278 0.53265852 -0.81429082 0.0013549017
-0.021981373 0.029646179 -0.014561639 0.20651859 0.52543664 -0.82538867 0.001316717
-0.019446477 0.028990416 -0.014358264 0.19877653 0.51112914 -0.83620268 0.0019151819
-0.016384754 0.028464764 -0.013971668 0.18727332 0.5434171 -0.8183071 0.0010428602
-0.013423782 0.028322514 -0.013378697 0.17978203 0.58023846 -0.79435623 0.0019451362
-0.010599766 0.028046794 -0.013013995 0.14040458 0.59176636 -0.7937879 0.001470606
-0.0075200405 0.027724259 -0.01274442 0.11826774 0.60725611 -0.78565437 0.0013825945
-0.0047015282 0.027445916 -0.012587365 0.094800249 0.6345346 -0.76705849 0.0013240208
-0.0017777149 0.027419796 -0.012270663 0.064933129 0.65274841 -0.75478685 0.0014081344
0.0015860383 0.027259028 -0.01221248 0.028569803 0.65668774 -0.75362116 0.0013729272
0.0044025793 0.027214292 -0.012218079 -0.0055164737 0.64614588 -0.76319396 0.0013907392
0.0074154623 0.027263988 -0.012258001 -0.039000724 0.64411199 -0.76393634 0.0012195364
0.010741867 0.027452264 -0.012346407 -0.075781047 0.67877233 -0.73042822 0.0013251159
0.013716936 0.027495379 -0.012693644 -0.10991055 0.65168601 -0.75048321 0.0013447831
0.016563941 0.027896354 -0.012832868 -0.14937431 0.65574253 -0.74006009 0.0016806771
0.019511919 0.028268415 -0.013157392 -0.17824632 0.63326877 -0.75312603 0.0019223675
0.022479599 0.028471673 -0.013729771 -0.18639581 0.59162867 -0.78436726 0.0010086134
0.025380194 0.028838849 -0.014195317 -0.19742589 0.57163674 -0.79640096 0.0014538441
0.028184041 0.029332167 -0.014561681 -0.20223004 0.58125114 -0.78819412 0.0016224518
0.030426303 0.029736826 -0.014849199 -0.19853239 0.57792538 -0.79157257 0.001317151
0.055898335 0.02825203 -0.014509956 0.40049025 -0.27050295 -0.87546313 0.0019496443
0.058328893 0.028435351 -0.0132564 0.48119062 -0.33942485 -0.80823654 0.0025250197
0.060419828 0.029355686 -0.012326143 0.54090232 -0.35330173 -0.76328403 0.002008006
-0.057230834 0.032572467 -0.012186073 -0.51990592 -0.40918273 -0.74984491 0.0022110073
-0.055325698 0.031665847 -0.012867749 -0.45551398 -0.3879196 -0.80126482 0.0029173307
-0.05259471 0.031421445 -0.014151529 -0.38993812 -0.31475663 -0.86537659 0.0016600367
-0.050440639 0.030639099 -0.014791384 -0.32768506 -0.2747699 -0.90394914 0.0036048812
-0.030489748 0.032697182 -0.014897468 0.20863757 0.46641478 -0.85960895 0.0021583454
-0.028275983 0.032201912 -0.01458803 0.22729324 0.48965564 -0.8417691 0.0016459072
-0.025454866 0.031504389 -0.014239124 0.22116861 0.52972049 -0.81882882 0.0012236182
-0.022608858 0.031251945 -0.013559912 0.22183642 0.5724684 -0.78934693 0.0014218166
-0.019657977 0.03114759 -0.012781586 0.21569152 0.59187782 -0.77663237 0.0011457149
-0.017169245 0.030310879 -0.012763482 0.21255083 0.60690659 -0.76582414 0.0011641772
-0.014942067 0.030302413 -0.012129115 0.19122301 0.65895295 -0.72747153 0.0025899922
0.023031987 0.030188296 -0.012385868 -0.20448002 0.67306221 -0.71075678 0.0010525733
0.025631746 0.030655935 -0.012729007 -0.22188024 0.67940044 -0.69941705 0.0011724185
0.028649211 0.031177735 -0.013176316 -0.23266496 0.64448327 -0.72836 0.0016871274
0.03147728 0.031541508 -0.013733978 -0.23014215 0.60516703 -0.76210719 0.001078925
0.034388859 0.03197974 -0.014283644 -0.23865804 0.56733078 -0.78814858 0.0017613648
0.037120335 0.032571979 -0.014678752 -0.23607312 0.55199945 -0.79972881 0.0019382903
0.039205059 0.03295318 -0.014938902 -0.20877089 0.52227086 -0.82682997 0.0024203383
0.056573391 0.030711245 -0.014864953 0.37428856 -0.15197705 -0.91477376 0.003240786
0.058378696 0.031345893 -0.014154777 0.40457925 -0.1630674 -0.89984703 0.0029526183
0.061205558 0.032080203 -0.012785 0.46504682 -0.20612642 -0.86095494 0.0029599955
-0.058020983 0.034740336 -0.012605209 -0.47747931 -0.29694495 -0.82694447 0.0033255015
-0.055528965 0.034458097 -0.013802652 -0.39382648 -0.22249247 -0.89185077 0.0021071418
-0.053213608 0.034184601 -0.014711934 -0.34196886 -0.17705815 -0.92288011 0.0034236899
-0.037041631 0.035711102 -0.014896112 0.20072961 0.47076371 -0.85912108 0.0018313074
-0.03426908 0.035070732 -0.014517341 0.21854633 0.46376777 -0.85857838 0.0015261492
-0.031420056 0.034405466 -0.014071613 0.23006359 0.5083043 -0.82987797 0.0011022807
-0.028549643 0.033955239 -0.013422909 0.25425196 0.56302679 -0.78635669 0.0015475469
-0.025651827 0.033666983 -0.01262539 0.24552402 0.58099884 -0.77598858 0.0012291423
-0.023483993 0.033202033 -0.012206346 0.25559106 0.6467424 -0.71860802 0.0015278459
0.032142721 0.033325888 -0.012360793 -0.25453001 0.67531466 -0.69221717 0.0010986277
0.034688801 0.033860676 -0.012784971 -0.26696855 0.66714352 -0.69544756 0.0017325735
0.037565194 0.034435324 -0.013373402 -0.28839329 0.60863942 -0.73918021 0.0016550487
0.040387444 0.034776378 -0.014152564 -0.25893185 0.547571 -0.79568857 0.0014477114
0.043203067 0.03539551 -0.014647921 -0.23326212 0.51101685 -0.82731527 0.0019548745
0.045448054 0.035856549 -0.014880185 -0.17247401 0.50782382 -0.84401882 0.00291829
0.056892358 0.035934534 -0.014935805 0.17960978 0.065511182 -0.98155421 0.0029522639
0.058765218 0.034429565 -0.014419897 0.33590776 -0.01711221 -0.94173944 0.0031763273
0.061205201 0.034664467 -0.013310956 0.43267092 -0.09008649 -0.89703965 0.0023110816
0.063299432 0.035051044 -0.012176404 0.53924966 -0.16873953 -0.82506776 0.0027984597
-0.060455024 0.038112797 -0.012243054 -0.50036287 -0.2347772 -0.83337677 0.0029408399
-0.05852947 0.037486285 -0.013094921 -0.41277942 -0.16897295 -0.89502031 0.0035713052
-0.055545732 0.03747008 -0.014326817 -0.32097661 -0.05803135 -0.94530755 0.0052262787
-0.053516865 0.037531238 -0.014907476 -0.23504224 0.0034437962 -0.97197908 0.0048180958
-0.045510683 0.038827978 -0.014957475 0.11300122 0.4293161 -0.89605713 0.0030814926
-0.043266047 0.038576994 -0.014715835 0.1513148 0.44183496 -0.88424301 0.0021978836
-0.040578034 0.037938826 -0.01447148 0.19738854 0.47267303 -0.8588469 0.0018014096
-0.037635367 0.037248939 -0.014070219 0.22721536 0.52057052 -0.82303071 0.0017206339
-0.034542199 0.036860012 -0.013321413 0.25306293 0.54614407 -0.79855227 0.0010075762
-0.031547423 0.036487818 -0.012444266 0.28471038 0.62191182 -0.72949678 0.0010645177
0.038713578 0.036352873 -0.012181827 -0.31964806 0.64323103 -0.69575787 0.0014059301
0.040756661 0.036760218 -0.012742651 -0.31690395 0.62171918 -0.7162661 0.0016772381
0.04349329 0.037440307 -0.013311483 -0.29725781 0.5769307 -0.76078165 0.0016408724
0.046380036 0.037613742 -0.014134196 -0.21806684 0.50950766 -0.83237535 0.0011951905
0.04944922 0.038061839 -0.014580926 -0.15694496 0.44891125 -0.8796857 0.0021147509
0.052458595 0.0384533 -0.014764841 -0.061622579 0.3729814 -0.92579019 0.0032440338
0.055707209 0.038124092 -0.014817012 0.066959009 0.25712377 -0.96405596 0.0039316812
0.058454122 0.037536688 -0.014443368 0.21950334 0.16380958 -0.96176118 0.0034311167
0.061864417 0.037690993 -0.013214118 0.3640793 0.03077814 -0.93085927 0.0031063636
0.063400105 0.036945645 -0.012384576 0.4091019 0.0075768833 -0.91245723 0.0028197572
-0.060852379 0.040603783 -0.012442858 -0.43740138 -0.078868531 -0.89580119 0.003785922
-0.05854623 0.04044006 -0.013393589 -0.33106619 0.014349315 -0.94349843 0.0040319865
-0.055623293 0.040371247 -0.014244512 -0.23125328 0.10349774 -0.96737283 0.0060421489
-0.052684132 0.040422048 -0.014639421 -0.11426466 0.23403017 -0.96549135 0.0059263487
-0.049612381 0.040696688 -0.014573175 0.043818396 0.36834046 -0.92865771 0.0041330238
-0.046510193 0.040324364 -0.014358516 0.11647275 0.44344217 -0.88870305 0.0021760068
-0.043636203 0.040237378 -0.013791658 0.20752251 0.51969552 -0.82876468 0.0013823296
-0.040645935 0.039828829 -0.01319574 0.23301764 0.55941767 -0.79545879 0.0014216793
-0.038327795 0.039423387 -0.012682324 0.26207823 0.57337976 -0.77624142 0.00085961883
0.044477675 0.039351873 -0.0122033 -0.32994625 0.62359554 -0.70870596 0.0017366275
0.046735756 0.039875232 -0.012700634 -0.27523705 0.59057236 -0.75859666 0.0023118588
0.049516018 0.040511519 -0.013147327 -0.2266738 0.53349227 -0.81486499 0.0022402909
0.052431308 0.040525857 -0.01376566 -0.10992532 0.44785741 -0.88732189 0.0023955223
0.055415012 0.040525142 -0.0140243 -0.0056918655 0.36373666 -0.93148446 0.00397419
0.058328211 0.040603183 -0.013853371 0.12300203 0.28395391 -0.95091569 0.0050350549
0.061323449 0.040502038 -0.013209998 0.25885382 0.17426966 -0.95006567 0.0051839296
0.063417166 0.04074363 -0.012389071 0.32951519 0.11534496 -0.93707806 0.0051809959
-0.061015707 0.043373782 -0.012384304 -0.35867298 0.074712686 -0.9304685 0.0037404485
-0.058610205 0.043370012 -0.013103792 -0.23003802 0.16037564 -0.95987612 0.0050955866
-0.05558832 0.043354105 -0.013562877 -0.10394566 0.29462489 -0.94994295 0.0052492563
-0.052646857 0.043313913 -0.013582831 0.021286279 0.40307394 -0.91491979 0.0031111629
-0.049749386 0.043281492 -0.013274906 0.11605617 0.46755767 -0.87631088 0.0025206809
-0.046879955 0.042818759 -0.012948236 0.17015986 0.52353537 -0.83483911 0.00186839
-0.044214178 0.042418581 -0.012415844 0.22620495 0.55870497 -0.79792237 0.0013065182
0.050557569 0.042464092 -0.012096886 -0.28120393 0.59383196 -0.75384873 0.0020328921
0.052650265 0.042766057 -0.012490762 -0.19776824 0.54216713 -0.81666559 0.0031169909
0.055516839 0.043278713 -0.012727499 -0.10567056 0.47414148 -0.87408441 0.0032648321
0.058377676 0.04358666 -0.012764108 0.0061604129 0.39748535 -0.91758788 0.0050648027
0.061144538 0.043522272 -0.012535385 0.1740713 0.29168618 -0.94054157 0.0033255981
0.063235603 0.04307279 -0.012123083 0.25759926 0.22742717 -0.93910569 0.0033796595
-0.060695078 0.045507837 -0.012149976 -0.2497374 0.27094534 -0.92963421 0.00494286
-0.058519579 0.04577234 -0.012445138 -0.12827693 0.33568895 -0.93319774 0.0039498652
-0.055665661 0.045817025 -0.012522651 0.011305182 0.44521862 -0.89535052 0.0036133614
-0.052604862 0.045554694 -0.012395851 0.11257699 0.51184899 -0.85166723 0.0023966772
-0.050509948 0.045330491 -0.012101281 0.18732616 0.5762983 -0.79548055 0.001731121
0.059111204 0.04517423 -0.012080572 -0.002250717 0.46093348 -0.88743186 0.0054778494
0.060698166 0.045075111 -0.012073625 0.12220478 0.358915 -0.92533559 0.0045602857
-0.01564962 0.0057941768 -0.0092852032 -0.21793708 -0.767079 -0.60340142 0.0011972967
-0.013297606 0.0055231503 -0.0096122688 -0.17492835 -0.76076531 -0.625009 0.0012153621
-0.010419101 0.0052254708 -0.0099521978 -0.14462648 -0.75768363 -0.63639504 0.0011857032
-0.0074353497 0.0049866145 -0.010231662 -0.11239603 -0.7528283 -0.64854968 0.0012526743
-0.0044182297 0.0048046741 -0.010439041 -0.079151563 -0.7524665 -0.65385723 0.0017167582
-0.001438297 0.0047352053 -0.010649635 -0.055546392 -0.74233437 -0.66772324 0.0017965498
0.0015703827 0.00460464 -0.010682217 -0.036450505 -0.74445784 -0.66667366 0.0015358297
0.0043759178 0.0044961204 -0.010651945 -0.0097958688 -0.75278205 -0.65819705 0.0013735931
0.0074283499 0.004463939 -0.010598701 0.015028373 -0.77117038 -0.63645148 0.0009590346
0.01046386 0.0046139257 -0.010636967 0.042245045 -0.77191263 -0.63432342 0.0012284499
0.013447314 0.004837669 -0.010651975 0.063864976 -0.76999158 -0.63484973 0.0016551319
0.016393309 0.0049621644 -0.010434845 0.09954159 -0.77954227 -0.61838919 0.0015588545
0.019373316 0.0051586539 -0.010143452 0.13193585 -0.79543227 -0.59150684 0.0012958403
0.022169372 0.0053946944 -0.0097668525 0.16516526 -0.80426168 -0.57086211 0.0013489642
0.025167679 0.0057586702 -0.0093710236 0.19846794 -0.80946457 -0.55260986 0.00089809729
-0.02464775 0.0087874681 -0.0092239836 -0.29747179 -0.7559787 -0.58310091 0.001373912
-0.022298053 0.008364127 -0.0097758221 -0.27617374 -0.74435496 -0.60799986 0.0011772311
-0.019405713 0.0078314831 -0.010308593 -0.23349369 -0.73594058 -0.63550937 0.0015082563
-0.01657193 0.0073052826 -0.010675012 -0.20429681 -0.72300214 -0.65994745 0.0015299576
-0.013629877 0.0068868152 -0.011052408 -0.16577235 -0.72247112 -0.67123395 0.0010412853
-0.010627997 0.0065739215 -0.011390928 -0.13028152 -0.69982255 -0.70233554 0.0012405399
-0.0076817968 0.006312937 -0.011631048 -0.10011642 -0.71786982 -0.68894088 0.0011942177
-0.0048684361 0.0061314963 -0.011815935 -0.064970665 -0.68496394 -0.72567433 0.0023993144
0.014121698 0.0060535492 -0.011972709 0.053950306 -0.72728395 -0.68421298 0.0016346227
0.016778687 0.0061254622 -0.011811489 0.077373356 -0.7084831 -0.70147347 0.0014389668
0.019749504 0.0063570216 -0.011606774 0.11222478 -0.71918857 -0.68569195 0.0016264275
0.022720946 0.0065805269 -0.011219088 0.15305114 -0.75510937 -0.63748342 0.0013299856
0.025599753 0.0069874292 -0.010897544 0.18518624 -0.76661181 -0.6148271 0.0014554267
0.028375845 0.00745766 -0.010562182 0.21468265 -0.78590894 -0.57987797 0.0013202135
0.031476375 0.0081138704 -0.010243697 0.24944843 -0.7813704 -0.57204533 0.0013095415
0.034094509 0.0085435305 -0.0096025728 0.28936377 -0.7848267 -0.54801059 0.0011076009
-0.03304914 0.011968339 -0.0091695385 -0.3461493 -0.74128276 -0.57504839 0.0019971896
-0.031087959 0.011620957 -0.0095967343 -0.31836262 -0.74504036 -0.58613998 0.0009180046
-0.028367596 0.011018603 -0.010183063 -0.28973052 -0.74275422 -0.60363263 0.001769543
-0.025560781 0.01032941 -0.010629959 -0.27097088 -0.72604799 -0.63200402 0.0014719233
-0.022677744 0.0097503737 -0.01117709 -0.25001568 -0.70804709 -0.66042519 0.0014204603
-0.020061104 0.0092888558 -0.01164843 -0.21678208 -0.69200844 -0.68857086 0.0011235996
-0.017792201 0.0090712663 -0.011988874 -0.19474144 -0.65185529 -0.73291236 0.0030120916
0.032094985 0.0093730157 -0.011617776 0.22697414 -0.71676737 -0.65933841 0.0012286593
0.034688599 0.0098008066 -0.011014729 0.27575716 -0.75452548 -0.59552437 0.0017898844
0.037615336 0.010618061 -0.010581609 0.30893466 -0.75676626 -0.57607657 0.0012712415
0.040403925 0.0114153 -0.010048777 0.35001969 -0.75408155 -0.5557403 0.001065131
0.042345073 0.011823555 -0.0093526635 0.39111367 -0.76144576 -0.5169434 0.0014059846
-0.039155543 0.014964252 -0.0092029786 -0.41316706 -0.72068155 -0.55669665 0.0014097393
-0.037121389 0.014413265 -0.0097047361 -0.37714967 -0.71837753 -0.58454406 0.0010905644
-0.034403641 0.013771054 -0.010440164 -0.31983244 -0.71719521 -0.61914307 0.0014293171
-0.031692021 0.01299847 -0.010908934 -0.30082133 -0.71974266 -0.62568134 0.0013792934
-0.028973296 0.012449495 -0.011523102 -0.26395217 -0.67827731 -0.68576169 0.0011342234
0.038598172 0.012074845 -0.011873374 0.3029809 -0.70634389 -0.6397506 0.0024681599
0.040936191 0.012571031 -0.011227262 0.33316478 -0.72508103 -0.60270947 0.0013141164
0.043611329 0.01351318 -0.010732223 0.37527648 -0.73169869 -0.56902075 0.00080367172
0.046349421 0.014356998 -0.0099048559 0.41718262 -0.71915764 -0.55567163 0.0012398515
0.048264988 0.01483625 -0.0090961708 0.43562427 -0.72009718 -0.54008472 0.00079988834
-0.042677671 0.017513681 -0.0095694223 -0.46012267 -0.67544049 -0.57625276 0.0013053808
-0.040374886 0.016745539 -0.010310807 -0.40121609 -0.6818772 -0.6116119 0.00162001
-0.037778258 0.015931172 -0.01100438 -0.35633156 -0.68646258 -0.63387448 0.0011925899
-0.035397105 0.015327708 -0.011638348 -0.31556833 -0.67773819 -0.66414428 0.0011034583
0.044867408 0.01515292 -0.011896717 0.35930407 -0.66800016 -0.65167189 0.0022036049
0.047100071 0.015731325 -0.011070793 0.40348461 -0.6911369 -0.59960812 0.0012398786
0.049425099 0.016787643 -0.010562496 0.43298468 -0.66687649 -0.60646522 0.001058831
0.051514387 0.017604331 -0.0098815737 0.46670321 -0.66245186 -0.58595699 0.00091078453
-0.048009448 0.020858932 -0.0090647014 -0.49517533 -0.65372723 -0.57222557 0.00075275695
-0.046107281 0.020189432 -0.0098795155 -0.48549411 -0.6504482 -0.58413404 0.0013368981
-0.04369678 0.019288674 -0.010725987 -0.42862099 -0.63480729 -0.64288706 0.00097042014
-0.041278653 0.01847876 -0.011528471 -0.39439145 -0.63635653 -0.6629523 0.00098907889
0.05051285 0.0183769 -0.011532154 0.45282963 -0.6399492 -0.62081426 0.0012116417
0.052439108 0.019012 -0.010720595 0.44898096 -0.61985761 -0.64357805 0.0016362634
0.054635644 0.020105185 -0.010062181 0.49885485 -0.60965985 -0.61600214 0.00096319261
-0.051372539 0.023677869 -0.0093689905 -0.50158828 -0.64812493 -0.57301247 0.0015364668
-0.049253032 0.022822937 -0.01016432 -0.48012149 -0.64124072 -0.59857631 0.0015994505
-0.04687975 0.021940971 -0.011080245 -0.45275554 -0.61015958 -0.65016747 0.0015005027
-0.044799194 0.021155419 -0.011783386 -0.43306509 -0.60346639 -0.66953933 0.0018447276
0.053678691 0.021157488 -0.011846003 0.46001521 -0.57055449 -0.68033344 0.0015446045
0.055726565 0.022467231 -0.011395366 0.49351135 -0.53271425 -0.68750423 0.0014930789
0.057989858 0.023209473 -0.01019473 0.52754319 -0.5205496 -0.67136151 0.0014107882
-0.054615576 0.026431926 -0.0095727062 -0.53260195 -0.61736423 -0.57896161 0.0013242486
-0.052439157 0.025571594 -0.010459278 -0.48104468 -0.60457224 -0.63489252 0.0018262431
-0.050104883 0.024669712 -0.011351573 -0.46068591 -0.59916168 -0.65480816 0.00098690472
0.05690448 0.024125565 -0.011770966 0.51608044 -0.50015378 -0.69534677 0.00049329619
0.058747761 0.025153855 -0.011113946 0.54516751 -0.47812995 -0.6886102 0.0017794173
0.060933277 0.025987245 -0.0098119779 0.60112405 -0.50672275 -0.61796594 0.0013220707
-0.057657715 0.029355504 -0.0096152611 -0.5732426 -0.55485815 -0.60293067 0.0015319027
-0.055551037 0.028454838 -0.010609959 -0.51746303 -0.5261578 -0.67482585 0.0013924312
-0.053377543 0.02757434 -0.011582418 -0.49806887 -0.5638212 -0.65881181 0.0010126896
-0.012717271 0.029996196 -0.01176161 0.19980837 0.7074393 -0.67794263 0.0016534757
-0.009734231 0.029538037 -0.011535883 0.1484264 0.67580837 -0.72197831 0.0016195234
-0.0069640474 0.02904848 -0.011424302 0.12865752 0.66496205 -0.73571235 0.0015696549
-0.0044179019 0.028922353 -0.011134988 0.10652741 0.68877751 -0.71710342 0.0012494631
-0.0014034701 0.028732471 -0.010931958 0.07337036 0.70269334 -0.70769972 0.0013403924
0.0015071337 0.028654261 -0.010783916 0.040813748 0.72389787 -0.68869889 0.0019910666
0.0044264938 0.028634856 -0.0107383 -0.0042571519 0.72566092 -0.6880393 0.0021558632
0.0076930774 0.028522503 -0.010966211 -0.041111957 0.72533047 -0.68717217 0.0021600777
0.010446982 0.028690916 -0.011048412 -0.080482833 0.74168605 -0.66590118 0.001049153
0.013575491 0.029022167 -0.011115827 -0.11264918 0.74346352 -0.65922087 0.001444899
0.016437085 0.02937746 -0.01134022 -0.16044945 0.71940428 -0.67580587 0.001518178
0.01900016 0.029716937 -0.011658264 -0.19157708 0.69902736 -0.68895495 0.0013341602
0.021117311 0.029942347 -0.011975163 -0.21311033 0.6976983 -0.68395984 0.0031875661
0.059739601 0.02711571 -0.01168956 0.57106674 -0.43509632 -0.69611335 0.0017615071
0.061463505 0.0283364 -0.010964915 0.57912427 -0.38985747 -0.71597928 0.0018118166
0.063481703 0.028949657 -0.0095192827 0.62888384 -0.43510544 -0.64435107 0.0018212615
-0.06048562 0.032378275 -0.0094655929 -0.61684579 -0.50085759 -0.60715979 0.0015247241
-0.05851151 0.031522769 -0.010542289 -0.55886477 -0.46096927 -0.68933117 0.001967951
-0.056438655 0.030646265 -0.011604172 -0.53245449 -0.46464202 -0.70753092 0.0017995993
-0.021405272 0.032712866 -0.011912391 0.26040292 0.65340549 -0.71081048 0.0023853322
-0.019600932 0.032500371 -0.011456085 0.24906172 0.68510348 -0.68454474 0.0006757587
-0.016389862 0.031952675 -0.010833075 0.23967749 0.74089259 -0.62740165 0.0014213992
-0.013120442 0.030815519 -0.011027046 0.19053255 0.68127507 -0.70679665 0.001478211
-0.010653323 0.030898228 -0.010212789 0.1809684 0.76178926 -0.62203497 0.0021903745
-0.0075735655 0.030579014 -0.0097885318 0.14578813 0.76630503 -0.62571752 0.0017102747
-0.0049566287 0.030306896 -0.0096205967 0.11337697 0.73410147 -0.66950786 0.0013056757
-0.0015577484 0.030121205 -0.0092638321 0.077037551 0.78031516 -0.62062347 0.0013569987
0.0016015003 0.030034956 -0.0090758428 0.046940885 0.80307847 -0.59402144 0.0025297347
0.0047489461 0.030022573 -0.0090077575 0.004157539 0.78819078 -0.61541694 0.0011060502
0.0080131181 0.030047148 -0.0090458859 -0.042622913 0.79787254 -0.60131747 0.0020649689
0.010325632 0.030093078 -0.0092996359 -0.081221305 0.78676331 -0.61188781 0.0010671727
0.013874824 0.030379832 -0.009479112 -0.11153448 0.78800547 -0.60548115 0.0015718403
0.016587177 0.030601099 -0.0098718461 -0.16934359 0.78208238 -0.59972483 0.0016622115
0.019711461 0.031001279 -0.010353573 -0.20022637 0.76890486 -0.60720241 0.0017400999
0.022747025 0.031657141 -0.010611873 -0.22772627 0.75177807 -0.61884612 0.0013755357
0.025435368 0.032196634 -0.011010013 -0.23707277 0.73672044 -0.63327676 0.0015100085
0.028067652 0.032565258 -0.011593604 -0.24391672 0.71274829 -0.65764314 0.0010818534
0.030267682 0.032932948 -0.011883474 -0.26833341 0.69986719 -0.66195405 0.0030382851
0.062501624 0.031180775 -0.011558553 0.57380265 -0.30001542 -0.7620638 0.0026431757
0.064122654 0.031416807 -0.010289195 0.63946587 -0.34808439 -0.6855076 0.0012626658
-0.063223116 0.035762552 -0.0092137614 -0.63843781 -0.43290296 -0.63638997 0.001930802
-0.061317746 0.034659203 -0.010206656 -0.593817 -0.39453316 -0.701231 0.0019710034
-0.059291925 0.034069881 -0.011496483 -0.54223865 -0.3516925 -0.76307905 0.0019426
-0.027930485 0.035717133 -0.011561087 0.30044103 0.69857728 -0.64940357 0.0018306767
-0.025505679 0.035172034 -0.011001361 0.29529178 0.69707352 -0.65336913 0.0018917761
-0.022524679 0.034327369 -0.010554013 0.27987045 0.73359424 -0.6192835 0.001457151
-0.019746425 0.033665996 -0.010144873 0.26826724 0.73855263 -0.61852467 0.0015479743
-0.016858466 0.03330617 -0.0093231378 0.24207583 0.77641666 -0.58187318 0.0014744102
0.02378577 0.033045933 -0.0091712382 -0.2397034 0.78076828 -0.57701224 0.001427969
0.025815396 0.033336613 -0.0096876631 -0.2565015 0.77878267 -0.57245487 0.0010475363
0.028754937 0.033907052 -0.010224909 -0.26206326 0.76093376 -0.59355092 0.0011502089
0.031521816 0.034526024 -0.01069352 -0.27938738 0.75027609 -0.59918988 0.0011195089
0.034281306 0.035184909 -0.011205288 -0.2982195 0.72682214 -0.61870408 0.0017280908
0.036611579 0.035758745 -0.011696764 -0.32279074 0.68410593 -0.65406823 0.0019680359
