# .PCD v0.7 - Point Cloud Data file format
VERSION 0.7
FIELDS x y z normal_x normal_y normal_z curvature
SIZE 4 4 4 4 4 4 4
TYPE F F F F F F F
COUNT 1 1 1 1 1 1 1
WIDTH 556
HEIGHT 1
VIEWPOINT 0 0 0 1 0 0 0
POINTS 556
DATA ascii
0.016509097 0.027906831 -0.012822704 -0.14771648 0.6716274 -0.72601414 0.0014259538
0.019580765 0.028282329 -0.01312076 -0.17545764 0.64427429 -0.74439591 0.0022624149
0.02246272 0.028524181 -0.013644749 -0.19586211 0.60791296 -0.76946723 0.0013429881
0.025410986 0.028886262 -0.014122305 -0.20198292 0.58472031 -0.78568757 0.0020113112
0.028303374 0.029361332 -0.014547567 -0.20103377 0.5433653 -0.81507033 0.0019436225
0.030434182 0.029804891 -0.014796415 -0.20698129 0.57355207 -0.79258865 0.0013608392
0.05580451 0.028643025 -0.014574294 0.35681596 -0.20798658 -0.91072714 0.0031516713
0.057980165 0.02845245 -0.013407063 0.46997735 -0.31500787 -0.82455522 0.0015410674
0.06028083 0.029081656 -0.012167119 0.49317551 -0.31522617 -0.81080854 0.00085072505
-0.057122894 0.032733198 -0.012183075 -0.51644069 -0.40675271 -0.75355244 0.0018644346
-0.055315956 0.03172667 -0.012816045 -0.46226987 -0.37651983 -0.80283213 0.0028412647
-0.052651089 0.031521626 -0.01408097 -0.38426006 -0.29783872 -0.87386292 0.0020542447
-0.050351776 0.030750789 -0.014750514 -0.32985219 -0.27383807 -0.90344352 0.0036016868
-0.030457873 0.032742478 -0.014798282 0.20685855 0.45954379 -0.86372972 0.0024915612
-0.028180843 0.032315318 -0.014414133 0.23996675 0.5011428 -0.83142763 0.0030829937
-0.025462694 0.031576212 -0.014130371 0.23025091 0.54755682 -0.80446631 0.0020029636
-0.02264145 0.031442318 -0.013374661 0.23780072 0.59270591 -0.76951313 0.0015232953
-0.019448215 0.031006655 -0.01277435 0.22365206 0.63792038 -0.73691058 0.0015464021
-0.016701091 0.030324539 -0.012566467 0.21382551 0.65102673 -0.72831506 0.0017133764
-0.014631581 0.030073985 -0.012142263 0.17305312 0.66176027 -0.72946972 0.0024033361
0.023180081 0.030297745 -0.012277108 -0.21106029 0.69906491 -0.68319964 0.001033926
0.025647292 0.030746613 -0.012626119 -0.22368658 0.68920267 -0.6891762 0.0010205561
0.028629391 0.031296283 -0.013031673 -0.22476436 0.66733724 -0.71002966 0.0019840407
0.03143549 0.031596608 -0.013650171 -0.23084229 0.61649746 -0.75275677 0.0012260688
0.034340151 0.031980887 -0.014243156 -0.23910607 0.57945216 -0.7791428 0.0020331722
0.037027493 0.032488663 -0.014704605 -0.23316643 0.55259836 -0.80016774 0.0020890585
0.039095897 0.032876126 -0.014807608 -0.23649123 0.5592497 -0.79455125 0.0010811153
0.056527406 0.03089783 -0.014801294 0.3095488 -0.098901123 -0.94572622 0.0029241391
0.058105439 0.031701222 -0.014249217 0.35030851 -0.092581287 -0.93204755 0.0024132917
0.061270982 0.031720579 -0.012533618 0.47403654 -0.20784302 -0.85562295 0.0013806378
-0.058034394 0.03479661 -0.012547939 -0.48272035 -0.30755341 -0.81999511 0.0032074407
-0.055554379 0.034426443 -0.013682707 -0.40842518 -0.23214018 -0.8827796 0.0022527727
-0.053084236 0.034261808 -0.014668006 -0.34202373 -0.17023323 -0.92414302 0.0037372871
-0.036909569 0.035626601 -0.014889712 0.20158423 0.45384112 -0.86798155 0.0021235927
-0.034436602 0.035282154 -0.014364543 0.22579175 0.48557106 -0.84453464 0.0015607475
-0.031570897 0.034638923 -0.013888171 0.23495616 0.50719607 -0.82918495 0.0011704833
-0.028619435 0.033990424 -0.013367771 0.26649475 0.57133359 -0.77624637 0.0018121352
-0.025821391 0.033601664 -0.012669926 0.2695761 0.64609122 -0.71406931 0.0017097041
-0.023772465 0.033304255 -0.012142397 0.25483981 0.62587494 -0.73711413 0.00085902709
0.032101579 0.033312127 -0.012345811 -0.25843582 0.68257946 -0.68359071 0.00096521695
0.034695093 0.033841655 -0.012797061 -0.27298501 0.66155076 -0.69844818 0.0017900332
0.037500359 0.034430239 -0.013348335 -0.2906768 0.60503834 -0.74123919 0.0017334436
0.040335901 0.034860577 -0.014044168 -0.25953758 0.55089176 -0.79319513 0.0012525354
0.043235648 0.035335153 -0.014633524 -0.23065153 0.49026451 -0.84050024 0.0020140046
0.045420993 0.035809472 -0.014850539 -0.17834964 0.48324561 -0.85712612 0.0028365597
0.056215681 0.035786357 -0.014995132 0.13764043 0.15513337 -0.97825801 0.0039958092
0.058388114 0.034654938 -0.014456251 0.3159112 0.024562126 -0.94847071 0.0039609778
0.060981274 0.034456167 -0.013332749 0.37125689 -0.04475278 -0.92745107 0.0022851657
0.063297875 0.035289817 -0.012163526 0.54373664 -0.15633775 -0.82456601 0.0022432185
-0.060371719 0.0382374 -0.012218943 -0.50303543 -0.23121136 -0.83276451 0.0028915803
-0.058544755 0.037471179 -0.012995353 -0.42508176 -0.17900147 -0.88727891 0.0031712444
-0.055517327 0.037493359 -0.014258655 -0.3147563 -0.053796116 -0.9476468 0.0044339998
-0.053293306 0.037427887 -0.014871161 -0.22926243 0.009887645 -0.9733144 0.0045664124
-0.048131417 0.038954914 -0.014968173 0.017490242 0.30687788 -0.95158821 0.01082595
-0.045589998 0.038817376 -0.014907414 0.10913675 0.38896272 -0.91476613 0.0036326081
-0.043144032 0.038306028 -0.014751641 0.15761578 0.41875362 -0.89431685 0.002850451
-0.040353019 0.037854724 -0.014409682 0.19626234 0.48027533 -0.85487819 0.0013289142
-0.037587445 0.037401244 -0.013883799 0.22167201 0.51152319 -0.83018404 0.0013811522
-0.034671862 0.037034221 -0.013189973 0.25586423 0.54448313 -0.79879379 0.0014734382
-0.031836476 0.036479041 -0.012513091 0.295093 0.64674628 -0.70330602 0.0012378797
0.038479976 0.036202587 -0.012203257 -0.3201113 0.66463339 -0.6751231 0.0013251557
0.040748108 0.036790714 -0.012684687 -0.31546074 0.63409585 -0.70597947 0.0017930972
0.043546747 0.037457623 -0.013289234 -0.30266646 0.58761096 -0.75040412 0.0012707631
0.046420898 0.037631813 -0.01409563 -0.22135438 0.51647002 -0.82720071 0.0014757939
0.049301557 0.038051803 -0.014523585 -0.15860249 0.45345441 -0.87705433 0.0019838482
0.052429497 0.038440891 -0.014702338 -0.06744469 0.38992202 -0.91837466 0.003062627
0.055600338 0.038022842 -0.014772485 0.05950579 0.28261334 -0.95738643 0.0036148822
0.058622982 0.037330892 -0.014363286 0.17497407 0.19809932 -0.96443808 0.0025900269
0.061376028 0.037914865 -0.013340679 0.31191233 0.074777633 -0.94716364 0.0033910393
0.063637853 0.038633689 -0.012320427 0.39673305 0.064400136 -0.91567218 0.0019265551
-0.060796462 0.040616106 -0.012403917 -0.45056179 -0.089903586 -0.88820684 0.0037759738
-0.058671676 0.040343162 -0.013252724 -0.34269792 -0.0010187409 -0.93944508 0.0036629171
-0.055565655 0.040418688 -0.014142993 -0.22578575 0.1173699 -0.96708077 0.0061417944
-0.052736551 0.040416151 -0.014568547 -0.1148164 0.22839755 -0.96677387 0.0059143086
-0.049561858 0.040628299 -0.014519964 0.046852279 0.35489723 -0.9337306 0.0051466716
-0.046449356 0.04040736 -0.014239595 0.124795 0.44504839 -0.88676834 0.0021692046
-0.043666724 0.040276058 -0.013711834 0.172655 0.49505016 -0.85153717 0.0019887835
-0.040644299 0.039890092 -0.013083106 0.22248954 0.53497726 -0.81504464 0.001401998
-0.037918068 0.039430253 -0.012467547 0.28069782 0.62347692 -0.72971594 0.0011399107
0.04442323 0.039299056 -0.012172526 -0.32486644 0.62578422 -0.70912331 0.0017916657
0.046737898 0.039884727 -0.012656345 -0.28105608 0.59219366 -0.75519145 0.0020125564
0.049467113 0.040624686 -0.013015077 -0.23458518 0.54353231 -0.80594188 0.0023241609
0.052427478 0.040593434 -0.013676329 -0.1120974 0.46219054 -0.87966698 0.0020153138
0.055266805 0.040581614 -0.013949051 -0.039656248 0.38839296 -0.92064017 0.0025572756
0.058273017 0.040617693 -0.013786007 0.058910552 0.32460767 -0.94401234 0.0036463137
0.06130261 0.040668137 -0.013084291 0.25582454 0.1868331 -0.9484973 0.0043971972
0.063390106 0.040447168 -0.012393503 0.29244059 0.17007053 -0.94103909 0.0050563156
-0.060866423 0.043345489 -0.012336394 -0.35068929 0.082408026 -0.932859 0.0036602945
-0.058577526 0.043423753 -0.013012143 -0.21867989 0.17208777 -0.96050245 0.0049139201
-0.05563749 0.043375902 -0.013482997 -0.11297845 0.28322938 -0.9523744 0.0053703939
-0.052624483 0.043400612 -0.013487997 0.024699925 0.40689382 -0.91314143 0.0035311182
-0.049522564 0.043311305 -0.013163468 0.14193362 0.48913229 -0.86058378 0.0026416006
-0.04668621 0.042957582 -0.012731451 0.18303095 0.54188526 -0.82028049 0.0022337413
-0.044121556 0.042424917 -0.012309062 0.25296026 0.59001273 -0.76674384 0.0019749305
0.05057377 0.0423696 -0.012168444 -0.2719999 0.59891164 -0.75320709 0.0019125238
0.052662201 0.042712562 -0.012476923 -0.19867146 0.53933167 -0.818322 0.0028823188
0.055573668 0.043446738 -0.012602895 -0.13209687 0.48634332 -0.86372489 0.0026772136
0.058477126 0.043616712 -0.012694603 -0.041688997 0.43191206 -0.90095174 0.0025057064
0.060947519 0.043609515 -0.01250188 0.048274443 0.39346302 -0.91807204 0.0032933899
0.063208096 0.042270724 -0.012246741 0.38719884 0.17398241 -0.90543205 0.0064743501
-0.06043997 0.045439549 -0.012132186 -0.23207109 0.27376938 -0.93337739 0.005526843
-0.058488972 0.045794822 -0.01234987 -0.11108826 0.36350501 -0.92494518 0.0046341741
-0.055609424 0.045834068 -0.012463283 0.0082303267 0.4504675 -0.89275497 0.003749867
-0.05270021 0.045475125 -0.012403425 0.11435144 0.51549178 -0.84923023 0.0035501574
-0.050464705 0.045294203 -0.01207529 0.21162347 0.58843607 -0.78035796 0.0024323047
0.058779527 0.045087487 -0.012073551 -0.059370503 0.45666066 -0.8876577 0.0027433673
0.060425181 0.045060068 -0.01203219 0.13052054 0.35553661 -0.92550427 0.0066724643
-0.01539669 0.0059033395 -0.0092427339 -0.20595463 -0.76710826 -0.60755879 0.0013613596
-0.013140602 0.0055504777 -0.0095753437 -0.18420307 -0.75912714 -0.62433583 0.00129633
-0.010534291 0.0053791152 -0.010042889 -0.14418706 -0.74722672 -0.64873904 0.0011765356
-0.0074156225 0.0050508985 -0.01018949 -0.11292337 -0.75387508 -0.64724076 0.0013554681
-0.0045925262 0.0048393835 -0.010409514 -0.09097103 -0.75373089 -0.65085638 0.0019037504
-0.0013749897 0.0049251663 -0.010805771 -0.053994216 -0.73941106 -0.67108566 0.0015477911
0.0019879413 0.004898265 -0.010974851 -0.026091089 -0.71257806 -0.7011075 0.0020604646
0.0041400916 0.0044470197 -0.010589941 -0.0090493476 -0.72205174 -0.69177991 0.0016114481
0.0073735751 0.0046070069 -0.010686036 0.010100544 -0.76115215 -0.64849478 0.0017237999
0.010428586 0.0047428929 -0.010742171 0.043456558 -0.7619288 -0.64620131 0.0015849195
0.013428679 0.004896692 -0.010631522 0.066574678 -0.77052039 -0.63392919 0.0018925645
0.016480658 0.0051354067 -0.010566116 0.09040194 -0.7663489 -0.63603216 0.0016598968
0.019309375 0.0051635532 -0.010099255 0.13770171 -0.80020577 -0.5837028 0.00138331
0.022225112 0.0053550298 -0.009582852 0.17184781 -0.80648768 -0.56572604 0.0019187352
0.025051121 0.0057906057 -0.0093881469 0.19278523 -0.81342459 -0.54879344 0.0020473867
-0.02451345 0.0088354163 -0.009265352 -0.28924713 -0.75765008 -0.58506614 0.0015118483
-0.02225833 0.0084224809 -0.0097724181 -0.27526596 -0.75308514 -0.59757125 0.0013127378
-0.019460831 0.0079355249 -0.010343242 -0.22491975 -0.73166639 -0.64348698 0.0013723478
-0.016518498 0.0073155635 -0.01056545 -0.1965524 -0.72537631 -0.65969414 0.0012451647
-0.013678804 0.0069278125 -0.010957257 -0.16992503 -0.71782613 -0.6751675 0.0018009146
-0.01067828 0.0066315667 -0.011393747 -0.1292955 -0.70036089 -0.70198101 0.0012334357
-0.0074513666 0.0063541071 -0.011607243 -0.099331476 -0.70303577 -0.70418316 0.0013307446
-0.0050757644 0.0061955885 -0.011795375 -0.073496476 -0.69477409 -0.71546298 0.0022209138
-0.001676647 0.0060215564 -0.011944393 -0.041067783 -0.69160116 -0.72111118 0.0016940963
0.014059842 0.0061027333 -0.011951993 0.056866448 -0.69338053 -0.71832412 0.00091973104
0.016399439 0.0062007923 -0.011834259 0.075023666 -0.71712494 -0.69289482 0.0018590041
0.019639291 0.0064767487 -0.011653511 0.12080707 -0.71386111 -0.68978834 0.0013000631
0.022361055 0.0065618735 -0.01117739 0.15526094 -0.75113475 -0.64163119 0.0021557056
0.025383348 0.0068224105 -0.010683347 0.17991152 -0.76999015 -0.61216593 0.0018701145
0.028448055 0.0075877681 -0.01058597 0.1993646 -0.77180755 -0.60379374 0.0025794888
0.031487856 0.0080629801 -0.010065638 0.24783373 -0.79528069 -0.55326939 0.0011760691
0.033816926 0.008661557 -0.0097660515 0.29163504 -0.78792971 -0.54232442 0.0010749078
-0.031072438 0.01166803 -0.0095766783 -0.31741562 -0.74518591 -0.58646852 0.00088891439
-0.028307041 0.011086575 -0.010215972 -0.28573471 -0.73188955 -0.61862224 0.0015479893
-0.025537338 0.01043088 -0.010692153 -0.26701239 -0.71248078 -0.64890331 0.0013749147
-0.022674419 0.0097953556 -0.011126112 -0.25267643 -0.71144319 -0.6557464 0.0013421112
-0.020137459 0.0093146842 -0.011576578 -0.21233627 -0.68950188 -0.69245964 0.0011478784
0.032231893 0.0095499288 -0.0116998 0.21414669 -0.68266606 -0.69864756 0.00098665245
0.034865543 0.0098479819 -0.010835523 0.2800394 -0.76736051 -0.57683253 0.0015203749
0.037661541 0.010576098 -0.010399617 0.3060497 -0.76294881 -0.56942308 0.0011709093
0.040557187 0.011596594 -0.010044131 0.34281152 -0.75248814 -0.56235385 0.0011067025
-0.037026539 0.014537526 -0.0097405501 -0.37889349 -0.71775413 -0.58418214 0.0014049595
-0.034447536 0.013875794 -0.010453941 -0.32390225 -0.70522642 -0.6306687 0.0012535128
-0.031714328 0.013037764 -0.010865759 -0.29840812 -0.71919191 -0.62746757 0.001197324
-0.028924827 0.012438931 -0.011438095 -0.2633473 -0.68678844 -0.67747319 0.0013327603
0.038895641 0.012007132 -0.011572164 0.32845977 -0.74109006 -0.58557642 0.0021029273
0.040626831 0.01267672 -0.011373063 0.32104462 -0.70261031 -0.63503474 0.0014292691
0.043645531 0.013673229 -0.010803403 0.37319162 -0.69565445 -0.61383462 0.0018376615
0.046633873 0.014568137 -0.009847885 0.41320989 -0.72667277 -0.54882085 0.00084142457
-0.042634692 0.017580051 -0.0095828483 -0.46183211 -0.68103909 -0.56824011 0.0012218049
-0.040432096 0.016865823 -0.010323608 -0.4032321 -0.6842531 -0.60761958 0.0016885358
-0.037704196 0.015956782 -0.010921563 -0.35569772 -0.68791211 -0.63265789 0.001281327
-0.035317738 0.015370149 -0.011590574 -0.31704116 -0.67441177 -0.66682351 0.0010528122
0.046926707 0.015756663 -0.011055092 0.41835475 -0.65752125 -0.62661409 0.0017501299
0.049332947 0.016746925 -0.010485012 0.42726773 -0.64174181 -0.63687497 0.0010357299
0.051733822 0.017943289 -0.0099641941 0.45228371 -0.64658862 -0.61429852 0.00040135233
-0.048018854 0.020753657 -0.0090345778 -0.48768586 -0.65978974 -0.57169932 0.00076339795
-0.046113007 0.020264573 -0.0098955305 -0.47359234 -0.65758413 -0.58591247 0.0012135351
-0.043555353 0.01922092 -0.010641599 -0.43128654 -0.63688457 -0.63903826 0.0008951326
-0.041294415 0.018548954 -0.011504448 -0.4006559 -0.6441747 -0.65154731 0.00099506835
0.052826576 0.019436445 -0.01065981 0.45563239 -0.59190345 -0.66486794 0.0006987832
0.054428071 0.019730266 -0.0097206701 0.45373663 -0.60439062 -0.65485501 0.0012004785
-0.051478002 0.023695806 -0.009288949 -0.51354837 -0.64595383 -0.56481129 0.0012946404
-0.049247634 0.022835955 -0.01015516 -0.48004767 -0.64476579 -0.59483713 0.001423244
-0.046887346 0.021907821 -0.011016004 -0.44571745 -0.62348276 -0.6423434 0.0016634644
-0.044791125 0.021152433 -0.011756076 -0.42731842 -0.60979027 -0.66749895 0.001921938
0.053826429 0.021323197 -0.011827445 0.44314766 -0.54507577 -0.71169692 0.0022410313
0.055659115 0.022344094 -0.01128795 0.4842853 -0.52446765 -0.70028675 0.0015733329
-0.054584842 0.026499957 -0.0095277913 -0.52957129 -0.6050989 -0.5944826 0.0012935052
-0.052439351 0.02558871 -0.010413641 -0.49127328 -0.60200769 -0.62947375 0.0018811537
-0.050146312 0.024723185 -0.011332848 -0.45607588 -0.57875299 -0.67604715 0.0010696093
0.058611076 0.025554698 -0.011442477 0.48859879 -0.42737079 -0.76067436 0.0023136283
-0.057597272 0.029310849 -0.0095803477 -0.57113671 -0.55843014 -0.60162997 0.0016571038
-0.055556845 0.028482616 -0.01055487 -0.51374054 -0.53124774 -0.67368126 0.0017753954
-0.053372718 0.027713206 -0.011567874 -0.48839062 -0.54537785 -0.68120301 0.0011282077
-0.012604546 0.02985006 -0.011753348 0.19708836 0.70653629 -0.67967838 0.0020359515
-0.010347646 0.02963591 -0.011484755 0.16039951 0.69078171 -0.70504797 0.0018488136
-0.0074543981 0.02918651 -0.011292435 0.13508758 0.69763094 -0.70360672 0.0016109714
-0.0044639981 0.028942728 -0.011045474 0.11068736 0.73228413 -0.6719436 0.0021687252
-0.0014850631 0.02882798 -0.010760056 0.078836896 0.74119556 -0.66664374 0.0022968021
0.0016247956 0.028696861 -0.010651327 0.029790545 0.74540085 -0.66595048 0.0024863658
0.0045120153 0.028651681 -0.010653263 -0.00093845185 0.74544322 -0.66656846 0.0021981993
0.0076461718 0.028760185 -0.010611234 -0.05262392 0.75154924 -0.65757465 0.0025492907
0.010436499 0.02890571 -0.010755285 -0.091897503 0.76899439 -0.63261563 0.0013280606
0.013418935 0.029036054 -0.011022852 -0.1217543 0.76643199 -0.63068056 0.0015824264
0.016418118 0.029385621 -0.011295797 -0.15595233 0.72542483 -0.67040122 0.0014106359
0.019041818 0.029690165 -0.011607985 -0.18661369 0.71913326 -0.66934502 0.0014902484
0.021210723 0.02993864 -0.011896078 -0.21844608 0.69780469 -0.68216568 0.002927498
0.061231397 0.028923519 -0.011405854 0.49125543 -0.2951301 -0.81949151 0.0020065042
-0.060460594 0.032451838 -0.0094652632 -0.60163087 -0.50200057 -0.6213178 0.0024907019
-0.058449708 0.031536859 -0.010488937 -0.55297029 -0.46302855 -0.69269651 0.0018213978
-0.056443237 0.030714214 -0.011556743 -0.52859795 -0.43691093 -0.72780013 0.0029066622
-0.021502109 0.032722592 -0.011810967 0.25595155 0.68459231 -0.68251157 0.0035790766
-0.019385407 0.032372437 -0.011442742 0.24819425 0.69891149 -0.67076248 0.0018994586
-0.016309481 0.031892464 -0.010820902 0.23697162 0.73570567 -0.63449311 0.0012476111
-0.013409959 0.031139914 -0.010685435 0.19952463 0.74013311 -0.6421783 0.0018840854
-0.010768932 0.030739095 -0.010400349 0.17335896 0.73644537 -0.65390742 0.0016457809
-0.0076892194 0.030591603 -0.0097557819 0.14868936 0.76588523 -0.62554878 0.0016296258
-0.0047277887 0.030290857 -0.0095067164 0.10953601 0.77721596 -0.6196267 0.0012846835
-0.0011250854 0.030114755 -0.0091365958 0.074468695 0.77932578 -0.62217826 0.0010797817
0.00063655112 0.030037435 -0.0090750381 0.049834613 0.77998 -0.62381709 0.0022123738
0.008909462 0.030044883 -0.0090565784 -0.030841684 0.81363124 -0.58056277 0.0034765739
0.010819536 0.030097941 -0.0092809116 -0.08383546 0.79031539 -0.60693747 0.001096006
0.013763746 0.030306643 -0.0095285838 -0.12170458 0.79017925 -0.60067034 0.0015222203
0.016593833 0.030578807 -0.009908271 -0.16860756 0.7820881 -0.59992468 0.0014734543
0.019652706 0.031002861 -0.010284921 -0.20006353 0.77346998 -0.60143071 0.001964042
0.022449998 0.031670835 -0.010450258 -0.23047431 0.77366406 -0.59019107 0.0012609069
0.025318062 0.032170624 -0.010955626 -0.23606639 0.76228529 -0.60265565 0.0012660596
0.028154455 0.032604422 -0.011518693 -0.24560405 0.72154164 -0.6473456 0.0012434834
0.062539093 0.031324204 -0.011465068 0.53018087 -0.26860535 -0.80421358 0.00037065076
0.064714111 0.032201581 -0.010146634 0.5196144 -0.21875189 -0.82592279 0.0022505538
-0.063220464 0.035831396 -0.0091270478 -0.63158542 -0.4244709 -0.64878684 0.0021587526
-0.061287425 0.034707561 -0.010165723 -0.59477782 -0.41506842 -0.68844569 0.0019056253
-0.059256956 0.034141697 -0.011475435 -0.52387697 -0.34918118 -0.77693337 0.0017455443
-0.027875591 0.035535939 -0.011631638 0.30394626 0.67656904 -0.67072427 0.0017187657
-0.025328653 0.034916706 -0.011154674 0.29079992 0.69439447 -0.65821856 0.0020118447
-0.022552475 0.034304563 -0.010521105 0.27706707 0.73531878 -0.61849827 0.0018574838
-0.019676855 0.033503685 -0.010274229 0.26134145 0.74779719 -0.61032778 0.0014272424
-0.017365595 0.033362675 -0.009353458 0.24861911 0.75620347 -0.60526425 0.0012428452
0.02367712 0.033070013 -0.0091370456 -0.24921767 0.78090066 -0.57278687 0.0011435314
0.025792861 0.033386514 -0.0096257683 -0.24508882 0.78364134 -0.57082188 0.00099089323
0.028669691 0.0339269 -0.010117059 -0.25976354 0.77814758 -0.57184738 0.001844928
0.031452142 0.03456077 -0.010573343 -0.28507233 0.76213235 -0.58128142 0.0016717286
0.034285404 0.035251305 -0.011099736 -0.31035301 0.73505795 -0.60280257 0.0016907689
0.036621083 0.035784353 -0.011715548 -0.32778943 0.69395411 -0.64107853 0.0017213544
0.064022958 0.034524634 -0.011491628 0.54384297 -0.15637654 -0.82448846 0.0022251154
-0.063823342 0.037827134 -0.0096737947 -0.62187064 -0.34084436 -0.7050547 0.0027551884
-0.061703313 0.0373597 -0.011093496 -0.54511231 -0.28051549 -0.79004025 0.0017059795
-0.059896301 0.036456883 -0.011884022 -0.52651012 -0.24376111 -0.81447381 0.0031044085
-0.034140661 0.038571954 -0.011515334 0.32126296 0.6720686 -0.66716868 0.0016616108
-0.031318579 0.037842758 -0.010844914 0.33430499 0.7187162 -0.60966158 0.0017286653
-0.028678959 0.037010718 -0.010399599 0.32591295 0.72922313 -0.60167629 0.0015774575
-0.025967384 0.036475249 -0.009511428 0.31685492 0.74690092 -0.58458704 0.0012794409
0.032934338 0.036062274 -0.0092487643 -0.32538128 0.76789838 -0.55177808 0.00099960191
0.034829136 0.036585771 -0.0097612748 -0.33816713 0.7528066 -0.56473464 0.0013156506
0.037649207 0.037373874 -0.010410359 -0.3535457 0.73454607 -0.57917827 0.0018345119
0.040292833 0.038174316 -0.011109877 -0.35754058 0.67929953 -0.640872 0.001446301
0.042427871 0.038706377 -0.011800149 -0.34496969 0.6446811 -0.68218923 0.0018797162
0.064492092 0.036974698 -0.011660866 0.43420461 -0.022345601 -0.90053707 0.0028572278
-0.066186942 0.041613724 -0.0091745555 -0.64471346 -0.25937414 -0.71907544 0.0029990701
-0.064424634 0.040551346 -0.010151807 -0.57491887 -0.22218136 -0.7874667 0.0041011567
-0.062268794 0.040386457 -0.011577613 -0.4997507 -0.14335039 -0.85422474 0.0027078749
-0.04008298 0.041513782 -0.011420412 0.31382024 0.68182528 -0.66078073 0.0019904359
-0.037387833 0.040732712 -0.01086253 0.33659127 0.70547003 -0.62371337 0.0013962716
-0.034676328 0.039994899 -0.010206926 0.34597087 0.72658497 -0.59361482 0.0014596207
-0.032004409 0.039258108 -0.0094931442 0.35727504 0.74261123 -0.5664655 0.0011216088
0.038983755 0.03904625 -0.0093076862 -0.41862115 0.72828615 -0.5425455 0.0013359506
0.04077179 0.039663311 -0.0097135603 -0.4063375 0.71484512 -0.56910998 0.0012985874
0.04347907 0.040477287 -0.010508728 -0.36234888 0.68587577 -0.63109243 0.0012395096
0.046180584 0.041290592 -0.011218576 -0.33539653 0.65073425 -0.68121523 0.0014991176
0.048554592 0.041741326 -0.011784188 -0.2867406 0.63255882 -0.71947837 0.0017178846
0.06453789 0.040949851 -0.011744867 0.3575308 0.1371168 -0.92378062 0.0044651795
0.066922344 0.041181266 -0.010188242 0.46001792 0.12233572 -0.87944156 0.0010386754
-0.066467352 0.04367657 -0.0093659125 -0.60235715 -0.13041478 -0.78750098 0.0038319258
-0.064560764 0.043475647 -0.010593102 -0.50671685 -0.058717184 -0.86011064 0.0025715956
-0.062320054 0.04360681 -0.011741916 -0.41872832 0.013218246 -0.90801537 0.0037495315
-0.048507623 0.044843178 -0.0118259 0.2168466 0.60006571 -0.76999915 0.0020790063
-0.046141647 0.044384919 -0.011444097 0.23582235 0.61071914 -0.75591666 0.0014113474
-0.043442477 0.043716826 -0.010812291 0.31613445 0.662121 -0.67945182 0.0018905706
-0.040795803 0.04304589 -0.010150654 0.34464595 0.71951014 -0.60292977 0.0016115808
-0.038330495 0.042329073 -0.0095621273 0.36515537 0.72850668 -0.5796029 0.0013741734
0.044538938 0.042221528 -0.009252131 -0.42518181 0.69911778 -0.57485193 0.0015262035
0.046735059 0.042882122 -0.0098983878 -0.38891616 0.67979401 -0.62179124 0.0016220268
0.049379524 0.043569747 -0.010615862 -0.32018852 0.63436145 -0.70360845 0.0012581331
0.052196082 0.044199437 -0.011272787 -0.26354834 0.59897113 -0.75615865 0.0018868516
0.054992519 0.044657402 -0.011755263 -0.1744018 0.54442906 -0.82047606 0.0021488513
0.057857603 0.044914179 -0.011958957 -0.051991083 0.47472963 -0.87859476 0.0036150501
0.062237103 0.044421691 -0.011923128 0.1735222 0.30081937 -0.93776208 0.0050455895
0.064137876 0.043691009 -0.011557983 0.31922111 0.22527 -0.92051691 0.0044400538
0.06684462 0.043939378 -0.010094426 0.40137717 0.19352345 -0.89523464 0.0013075201
-0.066652969 0.046459481 -0.0093908552 -0.53929764 0.01719813 -0.84193963 0.0047226953
-0.064511493 0.046358094 -0.010535641 -0.41541624 0.11504523 -0.90232694 0.0062917802
-0.061726999 0.046557385 -0.011510282 -0.28306413 0.24659012 -0.9268592 0.0064735427
-0.058606401 0.047301996 -0.011721868 -0.042025752 0.42172757 -0.90574819 0.0038246168
-0.055399485 0.047350664 -0.011564947 0.066679716 0.49669331 -0.86536086 0.002396018
-0.05238485 0.047027528 -0.011240497 0.18166962 0.58619565 -0.78953832 0.0025953297
-0.049518198 0.046457034 -0.010832405 0.23177311 0.62486809 -0.74553406 0.0011697682
-0.046947777 0.045673281 -0.010523056 0.28110519 0.65943915 -0.69722301 0.0016968296
-0.044135142 0.045364425 -0.009429167 0.35804287 0.70174724 -0.61591887 0.0016981813
0.050226871 0.045314785 -0.0093359146 -0.37530553 0.67322415 -0.63711464 0.0017612923
0.052628469 0.045997761 -0.009907837 -0.32318151 0.65132821 -0.68653131 0.0019158267
0.055453528 0.046623554 -0.010470198 -0.2426178 0.58994967 -0.77012718 0.002021167
0.058381665 0.046659481 -0.011118744 -0.11460327 0.51282012 -0.85081232 0.0023004618
0.061341882 0.046807177 -0.011158062 -0.034453649 0.47810629 -0.877626 0.0033294931
0.06444151 0.046642233 -0.010636164 0.23715274 0.31479862 -0.91905409 0.0063902899
0.067014456 0.046441872 -0.0095838867 0.43160087 0.23080753 -0.87203699 0.0032541021
-0.06652014 0.048874021 -0.009264512 -0.41757685 0.17840873 -0.89095449 0.0071342643
-0.064616792 0.049286164 -0.0098373601 -0.31501982 0.24982655 -0.91561419 0.0050054709
-0.06152235 0.049458317 -0.010367469 -0.13449559 0.42610815 -0.89461875 0.006462371
-0.05857661 0.049446512 -0.010471458 0.041497312 0.54878676 -0.83493179 0.0032437195
-0.055654816 0.049298868 -0.010200294 0.12397786 0.59484076 -0.79422534 0.0028211954
-0.052854214 0.048648208 -0.010011827 0.21604401 0.64504027 -0.73297203 0.0019778586
-0.050595373 0.048479613 -0.0093115615 0.26979738 0.66760421 -0.69391209 0.0016223796
0.056024447 0.048343018 -0.0093035009 -0.30007067 0.63677359 -0.7102654 0.0026197887
0.058548313 0.048938997 -0.009615168 -0.1947615 0.59120685 -0.78265101 0.0040108445
0.061434902 0.049467228 -0.0097519802 -0.11205171 0.53683859 -0.83621091 0.0036152969
0.064054966 0.049726345 -0.0095939394 -0.052719474 0.49277624 -0.86855757 0.003414829
0.066396333 0.048463821 -0.0094274841 0.34566581 0.26330921 -0.90065724 0.0036461924
-0.064051479 0.051318165 -0.0091388263 -0.17912437 0.4129014 -0.89298755 0.0075787511
-0.061704159 0.051314563 -0.009272607 -0.019039776 0.55909735 -0.82888341 0.0046150256
-0.058941741 0.051144831 -0.0092563648 0.10039911 0.63858813 -0.76297128 0.0029917806
0.064304769 0.051013488 -0.0090673994 -0.04404876 0.47275358 -0.8800931 0.0050538145
-0.0097298026 0.0028158706 -0.0062743477 -0.16444343 -0.88185269 -0.44192109 0.0018853263
-0.0073906095 0.0026351181 -0.0065862709 -0.1227393 -0.87247372 -0.47299549 0.0018517228
-0.004821952 0.0025593492 -0.0071316147 -0.087701127 -0.84555632 -0.52663362 0.0015745785
-0.0014832134 0.0023088478 -0.0071536982 -0.047874622 -0.87689406 -0.4782936 0.0022390457
0.0012248119 0.0023863749 -0.0075028376 -0.030535731 -0.860847 -0.50794691 0.001687704
0.0042778747 0.0023381894 -0.0075780945 -0.00061590754 -0.86559695 -0.50074089 0.0014222919
0.0075032781 0.0022788704 -0.0073159449 0.024237938 -0.88424051 -0.4664025 0.0020326907
0.010443743 0.0023759394 -0.0072796661 0.059091948 -0.88903928 -0.45400149 0.0018948854
0.013412672 0.0025295513 -0.0070234537 0.09438134 -0.89013195 -0.445822 0.0017880072
0.01622887 0.0026951814 -0.006659538 0.11403573 -0.8833254 -0.45467806 0.001830599
0.018690834 0.0028605801 -0.0063814837 0.14432614 -0.88656539 -0.43951309 0.0015432388
-0.021342615 0.0058163903 -0.0062179277 -0.32280397 -0.83910537 -0.4378354 0.0019914643
-0.019400151 0.0055642193 -0.0070241885 -0.26319551 -0.84434718 -0.46669698 0.0016428286
-0.016457886 0.0051130746 -0.0076187132 -0.21839939 -0.83502793 -0.50500506 0.0017341273
-0.013416532 0.0042914716 -0.0075847954 -0.20725276 -0.84041643 -0.50074601 0.0016421416
-0.010493694 0.0037971169 -0.0078305556 -0.16299826 -0.84057754 -0.51658589 0.0014472557
-0.0078835376 0.0036925157 -0.0082928184 -0.12361277 -0.81775427 -0.56213677 0.0012160309
-0.0047152699 0.0033154334 -0.0084145395 -0.089193076 -0.80958581 -0.58018559 0.0012354564
-0.0018945562 0.0032751255 -0.008700354 -0.059656519 -0.8213585 -0.56728429 0.0016483495
0.00091503782 0.00326166 -0.0088825505 -0.037739959 -0.81831259 -0.57353306 0.0013446581
0.0040444569 0.0031630334 -0.008920908 -0.028576164 -0.77833772 -0.62719518 0.0024842687
0.0078058033 0.0030972003 -0.0087017994 0.019525183 -0.80909503 -0.58735341 0.0016485831
0.010574215 0.003152468 -0.0086451713 0.046105791 -0.81233203 -0.58136994 0.0010775516
0.013705579 0.0033361292 -0.0085042268 0.091157936 -0.85962236 -0.5027321 0.0018071043
0.016556092 0.0034270994 -0.0080481842 0.11694677 -0.8681677 -0.48229486 0.0017614501
0.019357443 0.0037216577 -0.0078104977 0.14843579 -0.86767101 -0.47446167 0.0015255943
0.02247069 0.0042252406 -0.0075597591 0.17311248 -0.86199087 -0.47644916 0.0013841452
0.025135389 0.0047358782 -0.0074722818 0.19699793 -0.84940147 -0.48960069 0.0011508625
0.028571624 0.0054584406 -0.0070398385 0.23830418 -0.85950983 -0.45216581 0.0011655177
0.030445984 0.0059393886 -0.0069475309 0.27396286 -0.86435467 -0.42170539 0.0017993497
-0.027898649 0.0086265132 -0.0068675349 -0.33506811 -0.82768905 -0.45017806 0.0017534146
-0.025336215 0.0080674468 -0.0075816885 -0.30547097 -0.8133176 -0.49517867 0.0018141549
-0.022582181 0.0070942095 -0.0076650633 -0.3020657 -0.81523281 -0.4941172 0.0018041456
-0.019930765 0.0064448691 -0.0082039228 -0.25534853 -0.81469768 -0.52063882 0.0017423135
-0.017708939 0.0061477842 -0.0087246029 -0.23573352 -0.8026191 -0.54793465 0.0013245477
0.029103544 0.0063850097 -0.0085598789 0.23766628 -0.83120954 -0.50259858 0.0012608825
0.031540021 0.0064808894 -0.0073560625 0.26901004 -0.83611798 -0.47805893 0.0009451689
0.034325041 0.0076614851 -0.0077375406 0.29859248 -0.83085328 -0.46960133 0.00086470542
0.037320085 0.0085793026 -0.007351283 0.3147262 -0.81603694 -0.48480016 0.0009951035
-0.03616897 0.011863947 -0.0062415339 -0.40760487 -0.8124966 -0.41678244 0.0018513228
-0.034268785 0.011431999 -0.0071282568 -0.36877313 -0.81177545 -0.45279905 0.0015105199
-0.031456523 0.01050685 -0.0075606359 -0.33701119 -0.81196523 -0.47658786 0.0019832428
-0.028780172 0.0096523296 -0.0079909004 -0.32916194 -0.80277097 -0.49720341 0.0024293365
-0.026502598 0.009237458 -0.0087686535 -0.29357177 -0.76147848 -0.57789797 0.0010598891
0.037982374 0.0094437506 -0.0085100243 0.33181325 -0.81941235 -0.46740073 0.0017034176
0.040270563 0.0099630142 -0.007586509 0.34485206 -0.8136211 -0.46807876 0.0017917538
0.042701762 0.011227588 -0.00780757 0.37801182 -0.77051967 -0.51323158 0.00034622042
0.045110341 0.011835402 -0.0068251812 0.39123136 -0.76105028 -0.5174365 0.00042644897
-0.042120468 0.014884788 -0.0061499919 -0.47384933 -0.77550143 -0.41721019 0.0012185229
-0.040077537 0.014325674 -0.0070373961 -0.42811179 -0.78098112 -0.45474046 0.0015740491
-0.037490174 0.013265507 -0.0075307284 -0.40839463 -0.79423988 -0.44988531 0.0016626935
-0.034886997 0.012540566 -0.0084816134 -0.35264301 -0.75758874 -0.54927421 0.0013420925
0.044445008 0.012290904 -0.0082363673 0.37997827 -0.7349987 -0.56159908 0.00053795776
0.047227725 0.013877001 -0.0082196668 0.4069342 -0.73230058 -0.54602236 0.00092742749
-0.045590412 0.017599329 -0.0066521205 -0.51110429 -0.74027479 -0.43676728 0.0010633881
-0.043469932 0.016605048 -0.007425664 -0.48586744 -0.75132674 -0.44658822 0.0010382517
-0.04120452 0.015536198 -0.0080623198 -0.434874 -0.74943638 -0.49922922 0.0018040683
0.05038048 0.015798954 -0.0083387727 0.43632773 -0.67038715 -0.60016596 0.00092440075
-0.048955481 0.020251557 -0.007114551 -0.53954542 -0.71735549 -0.44078544 0.0014505037
-0.046706807 0.019047227 -0.0077295252 -0.50549948 -0.72386241 -0.46956748 0.0016271733
-0.044657558 0.01830034 -0.0086991712 -0.47941115 -0.68761325 -0.54530078 0.0013103684
-0.054221671 0.023759143 -0.0062614097 -0.56305712 -0.71275753 -0.41826242 0.001355654
-0.052491337 0.02304408 -0.0072802035 -0.54764092 -0.70402884 -0.45214239 0.0017617447
-0.050131969 0.021681678 -0.0079086404 -0.53411752 -0.71103293 -0.45732996 0.0014076619
-0.0574634 0.026676148 -0.0066144951 -0.59163833 -0.66525835 -0.4554067 0.0011596243
-0.055437177 0.025584076 -0.007478659 -0.5748589 -0.68416101 -0.44884408 0.0013436496
-0.053445209 0.024538692 -0.0083596194 -0.54669476 -0.66334063 -0.51098335 0.0012703104
-0.060409583 0.029555881 -0.0065131681 -0.65019691 -0.60826916 -0.45525017 0.0012468372
-0.058614433 0.028514236 -0.007596822 -0.63258904 -0.61420584 -0.47178626 0.0016293988
-0.056617826 0.027426574 -0.0085847247 -0.56112099 -0.60134524 -0.56879449 0.0011422691
0.0022925399 0.029941939 -0.0088920575 0.042800661 0.78440601 -0.61876923 0.0010267179
0.003533334 0.029970292 -0.0089482209 0.013617268 0.79156947 -0.61092752 0.0013647558
0.0074713212 0.029974513 -0.0088785207 -0.04151573 0.79055887 -0.61097729 0.0011658749
-0.063243829 0.032659657 -0.0064150416 -0.68459451 -0.53588897 -0.49411881 0.0013591063
-0.061548118 0.031634782 -0.0074812458 -0.6689958 -0.55473793 -0.4946821 0.0021713877
-0.059643876 0.03047221 -0.0085175727 -0.60287255 -0.54542601 -0.58228445 0.0011075252
-0.015274083 0.032983899 -0.0089403205 0.24654754 0.76291353 -0.59764302 0.0012761886
-0.013483087 0.032749087 -0.0085933032 0.23094004 0.8129794 -0.53453821 0.0011332001
-0.010444218 0.032269772 -0.0081581967 0.19814886 0.83420801 -0.5146203 0.0023076341
-0.0073946044 0.031951316 -0.0076060514 0.16643681 0.86619747 -0.4711695 0.001168387
-0.0044467254 0.031482149 -0.007631111 0.11465194 0.86253756 -0.49283254 0.0024377794
-0.0014624427 0.031151639 -0.0075644283 0.095797025 0.86337399 -0.49538696 0.0021112817
0.0016499822 0.030902725 -0.0076128985 0.039351109 0.86252534 -0.50448138 0.0022673314
0.0046857074 0.030820966 -0.0076327887 0.0020273963 0.85368514 -0.52078557 0.0019829217
0.0077069518 0.030856391 -0.0076541286 -0.045469142 0.8604694 -0.50746912 0.0019090939
0.010516604 0.031055983 -0.0076990412 -0.093584239 0.85947245 -0.50254256 0.0017589856
0.013640642 0.031548705 -0.0074710133 -0.135074 0.8777293 -0.45972422 0.0028752082
0.016570862 0.032047514 -0.007555027 -0.18554698 0.87178373 -0.45339322 0.0016811035
0.019220905 0.032395124 -0.0080835754 -0.22361678 0.84908605 -0.47859001 0.0018962999
0.021620171 0.032757271 -0.0086433832 -0.2455318 0.80963033 -0.53311616 0.0010964302
-0.064069062 0.034691978 -0.0072671454 -0.69404012 -0.48700273 -0.53022319 0.0025998761
-0.062510319 0.033808507 -0.0084087383 -0.64572155 -0.46327984 -0.6069724 0.0012203719
-0.021867093 0.035541903 -0.0084558567 0.31288475 0.80911487 -0.49742958 0.0019955626
-0.019553563 0.034965627 -0.0080290427 0.29245812 0.80250067 -0.52005869 0.0011195745
-0.01613274 0.034112684 -0.0075776302 0.24591208 0.81938326 -0.51782078 0.001112477
-0.01375079 0.033604175 -0.0073519573 0.23329929 0.83626509 -0.49621779 0.0015718585
-0.010843088 0.033231672 -0.0065576434 0.20689966 0.856628 -0.4726319 0.0014620255
0.019989701 0.033346437 -0.0067528677 -0.22881076 0.87156612 -0.43361053 0.0019781755
0.02260188 0.033785816 -0.0073774089 -0.2418797 0.86165321 -0.44614786 0.0018665916
0.025532337 0.034526005 -0.0075743813 -0.25620031 0.85417187 -0.45249519 0.0022369919
0.028318828 0.035264283 -0.0078084515 -0.29398194 0.85064179 -0.43587056 0.001620914
0.030854767 0.035741523 -0.0085470965 -0.31393182 0.81440234 -0.48805279 0.0014435038
-0.066623852 0.037990615 -0.0067952853 -0.71869576 -0.43313038 -0.54394346 0.0022836691
-0.065146416 0.037239518 -0.0080439411 -0.69335073 -0.3956002 -0.60229993 0.0028844872
-0.030268159 0.038925834 -0.0087222233 0.37563252 0.77096522 -0.51430809 0.0015919956
-0.028090622 0.038381446 -0.0080584977 0.37093922 0.804519 -0.46384612 0.0016790712
-0.025430942 0.037474986 -0.0075932005 0.34997183 0.81880254 -0.45506287 0.0018602366
-0.022789624 0.036566563 -0.0073633827 0.31825843 0.82871449 -0.46037364 0.0015364458
-0.020676658 0.036183707 -0.0063557122 0.31516811 0.8360734 -0.44905508 0.001452599
0.029262858 0.036249768 -0.0065396922 -0.29695678 0.86369699 -0.40723976 0.0019082091
0.031672422 0.036726341 -0.0072959829 -0.32105359 0.8414824 -0.43454808 0.0019366016
0.03447691 0.037798285 -0.0075393603 -0.37390777 0.82341957 -0.42681766 0.0021926402
0.036930546 0.038529497 -0.0082640275 -0.40510255 0.77493095 -0.48515347 0.0020292366
-0.069134004 0.041712426 -0.0061984668 -0.74186122 -0.34575295 -0.5745405 0.004293567
-0.067440547 0.040639661 -0.0074677994 -0.70943487 -0.30303299 -0.63629645 0.0023113564
-0.065721393 0.039584782 -0.0087404624 -0.65704525 -0.27919272 -0.7002449 0.0026631563
-0.036422491 0.041928865 -0.0087273363 0.39072105 0.76002872 -0.51932025 0.0015805459
-0.034176864 0.041352861 -0.007880087 0.39766905 0.78296095 -0.47836336 0.0012687328
-0.031533629 0.040191792 -0.0076908991 0.3716712 0.7968055 -0.4764047 0.0014948212
-0.029203419 0.039384477 -0.0071624927 0.37513995 0.81203574 -0.44706598 0.0015251236
0.035794303 0.039120898 -0.0061467616 -0.43913746 0.81749588 -0.37263769 0.0021768224
0.037887786 0.039696943 -0.0071528372 -0.43234447 0.78779715 -0.4386957 0.0019999621
0.040400341 0.040882576 -0.0076075196 -0.45636562 0.76963353 -0.44653633 0.0021321706
0.042555381 0.04165104 -0.0084146895 -0.45152816 0.73310715 -0.5086022 0.0023618962
-0.069453314 0.043806914 -0.0065315138 -0.74001694 -0.24637812 -0.62583768 0.0026726588
-0.067986041 0.04341324 -0.0079767583 -0.67152798 -0.18306714 -0.71800882 0.0033599278
-0.042038646 0.044921417 -0.0085411351 0.39087704 0.77847815 -0.49110788 0.0022641358
-0.040114913 0.044389103 -0.0078737661 0.40692145 0.76243031 -0.50310534 0.0017795647
-0.037721939 0.043329541 -0.0075914492 0.39647979 0.78619051 -0.47403395 0.0012365084
-0.035357814 0.042469554 -0.0070092087 0.39249814 0.78872931 -0.4731293 0.0010694371
0.041604329 0.042310111 -0.0064374153 -0.46993941 0.77121729 -0.42939582 0.0011193259
0.04367343 0.043042716 -0.0073065413 -0.4513486 0.75737923 -0.47186983 0.0018845684
0.046198834 0.044228524 -0.0078403018 -0.43220767 0.74466389 -0.50859827 0.0019688013
0.048375621 0.044773307 -0.0087739937 -0.39364299 0.69839191 -0.59774077 0.0022054983
-0.069888778 0.046573281 -0.006856848 -0.70516199 -0.13409314 -0.69625103 0.0051397886
-0.06819164 0.046482455 -0.0083252648 -0.59217405 -0.058087975 -0.80371368 0.0032005245
-0.048250012 0.047777478 -0.0088804727 0.31292251 0.68732947 -0.65548289 0.002003279
-0.046187744 0.047369521 -0.0081231119 0.36020669 0.75244617 -0.55143082 0.0024114591
-0.043460198 0.046374124 -0.0075049661 0.39142558 0.76777691 -0.50725204 0.0016266592
-0.04105258 0.045477223 -0.0069368053 0.40936512 0.77628875 -0.47937027 0.001188064
0.047210302 0.045567945 -0.006735872 -0.46438229 0.74561119 -0.47792575 0.0018452216
0.049523566 0.046445049 -0.0074738758 -0.41613472 0.73966557 -0.52889198 0.0017224599
0.052109186 0.047337994 -0.0082424022 -0.36815581 0.67517298 -0.63922048 0.0014822594
0.054340977 0.047950201 -0.008848303 -0.32820123 0.67532903 -0.66046554 0.001942989
0.06831117 0.046385445 -0.0087182838 0.45853174 0.20180321 -0.86546177 0.0024309894
0.069009051 0.046893343 -0.0080950204 0.45647332 0.19576766 -0.86793268 0.0022927453
-0.070148803 0.049481209 -0.006919391 -0.6369487 -0.030204447 -0.77031422 0.0077256588
-0.067970283 0.049610451 -0.0083977142 -0.48133761 0.074818283 -0.87333632 0.0071208472
-0.065858863 0.050882537 -0.0089090541 -0.19647506 0.29347959 -0.93555725 0.010172077
-0.054921526 0.050766878 -0.0087021412 0.20635486 0.68906373 -0.6947006 0.0018550667
-0.052332878 0.050142732 -0.0082319351 0.29221696 0.73354399 -0.61361432 0.0027228359
-0.049878784 0.04930111 -0.0079492526 0.29274502 0.71385014 -0.63617474 0.0011261965
-0.046929758 0.048625536 -0.0068135634 0.38533628 0.76506811 -0.51593292 0.0017006857
0.05061892 0.048090216 -0.0061229207 -0.45419419 0.73496753 -0.50351799 0.0012519091
0.052832805 0.048806742 -0.0069653499 -0.42231137 0.72225052 -0.54772925 0.002456228
0.055355813 0.049674395 -0.007627279 -0.3535426 0.70200503 -0.61822051 0.0024150112
0.058204863 0.050347708 -0.0083575873 -0.28801194 0.65870154 -0.69509816 0.0030140809
0.060879536 0.050740231 -0.0088239219 -0.16711327 0.56776893 -0.80604684 0.0050973161
0.065280668 0.050821591 -0.0089089191 0.10000775 0.42046964 -0.9017781 0.012483523
0.067193955 0.049926892 -0.0085870521 0.30017748 0.29494375 -0.9071393 0.0078862468
0.069468945 0.049078234 -0.0073363152 0.42751408 0.21404354 -0.87830353 0.002753583
-0.070346005 0.052439485 -0.0067381905 -0.5108099 0.080763534 -0.85589164 0.0088216243
-0.067663133 0.052419316 -0.0079286071 -0.2956076 0.26534459 -0.91771913 0.011217133
-0.064715654 0.052639961 -0.0083229467 -0.088825516 0.4464677 -0.89038002 0.0093431622
-0.061638337 0.052748851 -0.0081785005 0.051743336 0.58990127 -0.80581576 0.0034679566
-0.058533911 0.052503128 -0.0078199543 0.14231929 0.67980617 -0.71945041 0.0030276475
-0.055733666 0.051789422 -0.0078287758 0.19770956 0.71146834 -0.67433208 0.0018868961
-0.052972566 0.051563419 -0.0068042502 0.33561751 0.76669896 -0.54729652 0.0013965217
0.056456283 0.05130421 -0.0064357375 -0.41259888 0.71446002 -0.56507438 0.0032298351
0.058693908 0.052011255 -0.0069478289 -0.35903838 0.68995905 -0.62852842 0.0031726537
0.061347857 0.052640483 -0.0075350199 -0.27368701 0.60444242 -0.74816096 0.0057490496
0.06425564 0.052724957 -0.0080866339 -0.12586658 0.51104486 -0.85028869 0.0041041966
0.066952772 0.052813567 -0.0077187875 0.02337946 0.43359581 -0.9008041 0.0046456764
0.069216192 0.053505901 -0.0066418424 0.18714786 0.31537193 -0.93033123 0.0063489773
-0.070288286 0.055069998 -0.0063818614 -0.33970016 0.25489315 -0.90533596 0.013128978
-0.067746997 0.055224109 -0.006813515 -0.17514025 0.36636469 -0.91383958 0.0072951829
-0.064777352 0.05494196 -0.0068897661 0.046340875 0.53024238 -0.84657872 0.0073281485
-0.061650112 0.054463942 -0.0066194958 0.16056761 0.64270926 -0.74909467 0.0046290783
-0.059330601 0.054098815 -0.0061793621 0.24723975 0.75096047 -0.61231601 0.0031019542
0.062216595 0.054493431 -0.0063921511 -0.36057675 0.63213134 -0.685853 0.0060968827
0.064562961 0.055222858 -0.0066622915 -0.26252389 0.55405051 -0.7900058 0.0086111818
0.067097224 0.055768918 -0.0066550174 -0.22882685 0.47971597 -0.84706014 0.0089442572
0.069491565 0.055029228 -0.0061847181 0.11172924 0.32339957 -0.93964314 0.0062276497
0.066937394 0.057300843 -0.0060893549 -0.28857839 0.41957417 -0.86062765 0.010604215
-0.01550642 0.0029430473 -0.0032074894 -0.26299462 -0.94428158 -0.1979043 0.00098013098
-0.013085411 0.0026906827 -0.0043860036 -0.18992251 -0.92248178 -0.33609048 0.0033441603
-0.010515828 0.0022666592 -0.0046437313 -0.16415636 -0.93730789 -0.3074193 0.0017152942
-0.0072461679 0.0018252691 -0.0046909093 -0.13052502 -0.92584795 -0.35463902 0.0022358429
-0.0042821066 0.0015106356 -0.00500423 -0.093646564 -0.89117682 -0.44388551 0.0019311297
-0.0014595215 0.0011340571 -0.0044141863 -0.054295361 -0.93717021 -0.34462157 0.0022147894
0.00147794 0.0010407123 -0.0045021642 -0.036239456 -0.9320271 -0.3605721 0.0020716588
0.0044101407 0.00096631778 -0.0044825785 0.0041862079 -0.93753535 -0.34786487 0.0019496484
0.0076033114 0.0011435219 -0.0046258927 0.043679707 -0.9382425 -0.34320995 0.0020010222
0.010488587 0.0012441759 -0.004529899 0.060263585 -0.94090587 -0.33326331 0.0018192064
0.01353878 0.0016068921 -0.0047074622 0.094749592 -0.93856174 -0.33184981 0.001496732
0.016421322 0.0019719754 -0.004673156 0.12410893 -0.93878156 -0.3213816 0.0014719659
0.019082325 0.0023979063 -0.0048087798 0.14968361 -0.92811608 -0.34087449 0.0013246533
0.021829139 0.0027571162 -0.0041292198 0.20116177 -0.94706631 -0.25019848 0.0020830599
-0.024231452 0.0058388831 -0.0033297453 -0.35187915 -0.90318078 -0.24585658 0.0017334699
-0.02237667 0.0054817162 -0.0044070152 -0.3271237 -0.89002216 -0.31757 0.0022424399
-0.019654574 0.0045842412 -0.0045971214 -0.28629038 -0.89836019 -0.33314675 0.0019356997
-0.016553078 0.0037782178 -0.0047637657 -0.24860597 -0.90421808 -0.34725308 0.001707226
-0.014267812 0.0033464897 -0.0053052865 -0.21736303 -0.89836365 -0.38170153 0.0021655271
0.022864431 0.0032752287 -0.0051242448 0.19679101 -0.91534108 -0.35131758 0.0020269488
0.025171412 0.0037528651 -0.0050526951 0.2199249 -0.91947937 -0.32586917 0.0029976468
0.028523106 0.004502465 -0.0045224512 0.26030251 -0.92322904 -0.28264949 0.0020032756
0.031498097 0.0054340824 -0.0047009843 0.27568156 -0.91673875 -0.28911889 0.0020963144
-0.030785937 0.0086825006 -0.0041476386 -0.35679695 -0.88730031 -0.29222274 0.0018244357
-0.028474877 0.0078523196 -0.0045222519 -0.35444385 -0.88548958 -0.30046278 0.0018547728
-0.025696071 0.0068785371 -0.0047976011 -0.35306385 -0.88310164 -0.30899414 0.0017825812
-0.023347205 0.0062618018 -0.0055947066 -0.32857198 -0.86632234 -0.3761996 0.0017689755
0.034596439 0.0065214722 -0.0046997112 0.30491054 -0.88542587 -0.35078561 0.0017767578
0.037305009 0.0075438344 -0.0046834848 0.3190228 -0.85498786 -0.40892574 0.00085360493
-0.037089035 0.011503374 -0.0041414425 -0.41980508 -0.85832787 -0.29502022 0.0019623199
-0.034640856 0.01045148 -0.0045457501 -0.39579463 -0.86738753 -0.30163801 0.0014753626
-0.032036722 0.0094437227 -0.0048185308 -0.37018573 -0.87839156 -0.30230898 0.0018499728
-0.042801954 0.014558039 -0.0041192346 -0.49152887 -0.81963575 -0.29427284 0.0018634389
-0.040471375 0.01340197 -0.0045001055 -0.4626455 -0.84019184 -0.28290769 0.0018911788
-0.038187444 0.012390449 -0.005043501 -0.4459888 -0.84476405 -0.29574966 0.0018878093
-0.048147235 0.017965011 -0.0034979153 -0.55435157 -0.7853539 -0.27552426 0.0018881422
-0.0463011 0.017058203 -0.0043558469 -0.54321736 -0.78605419 -0.2950148 0.0018532483
-0.044095602 0.015684932 -0.0047979793 -0.52583933 -0.79888886 -0.29200959 0.0019461053
-0.051434908 0.020629786 -0.003966142 -0.56879556 -0.76978445 -0.2896609 0.0017730062
-0.049648069 0.01953665 -0.0045958897 -0.56513983 -0.7644943 -0.31010538 0.0017158755
-0.047625639 0.018267505 -0.0051515149 -0.5562138 -0.77776808 -0.2927509 0.00199056
-0.054796264 0.023318278 -0.0042994991 -0.59652692 -0.7480669 -0.29077733 0.0018595606
-0.052879713 0.022035901 -0.004780143 -0.57940376 -0.75543517 -0.30595589 0.001818384
-0.050863888 0.021123912 -0.0059436802 -0.55221158 -0.72721314 -0.40770525 0.00083490601
-0.058116592 0.026133487 -0.0044074496 -0.6235829 -0.71413445 -0.31805101 0.0019358251
-0.056192361 0.024718374 -0.0048539285 -0.60679138 -0.73386776 -0.30535594 0.0015867986
-0.061030429 0.028972518 -0.0043891021 -0.68528622 -0.64278769 -0.34235486 0.0019976895
-0.059452284 0.027571406 -0.0049487045 -0.6616506 -0.68156475 -0.31255066 0.0020492731
-0.06385605 0.032068074 -0.0043299468 -0.73285979 -0.58616996 -0.34542912 0.0028257694
-0.062401701 0.030692497 -0.0048810495 -0.71043837 -0.62765163 -0.3183251 0.0021003284
-0.0066523189 0.032851279 -0.0054483148 0.16842376 0.91193229 -0.374183 0.0016012192
-0.0042743338 0.032641303 -0.0051458916 0.1372014 0.91993278 -0.3672865 0.0017027067
-0.0013661773 0.032482255 -0.0046368088 0.11473615 0.93827862 -0.32629558 0.0024741367
0.0016465395 0.032258969 -0.0046238531 0.064791694 0.94917578 -0.30800551 0.0028745763
0.0046265447 0.032143209 -0.0047170999 0.0091646174 0.94874036 -0.31592369 0.0026926133
0.0076024951 0.032197684 -0.0046573677 -0.034011468 0.94965309 -0.31145167 0.0027404116
0.010474404 0.032450553 -0.0045085954 -0.10132566 0.95083684 -0.29264751 0.0027605938
0.013399178 0.032652631 -0.0048784306 -0.14522003 0.93552911 -0.32201928 0.0021383748
0.015964791 0.032837767 -0.0055582575 -0.19344495 0.92637426 -0.32312495 0.0027523753
-0.06650576 0.035349675 -0.0041039865 -0.76365632 -0.53891981 -0.35552019 0.0021780317
-0.065175585 0.034090083 -0.0048488239 -0.74583572 -0.56852102 -0.34714967 0.002759438
-0.018589376 0.035769794 -0.0056594224 0.30619314 0.88930851 -0.33967072 0.0023553541
-0.016306616 0.035453394 -0.0048598722 0.27743793 0.89812589 -0.34117165 0.0018466274
