# .PCD v0.7 - Point Cloud Data file format
VERSION 0.7
FIELDS x y z rgb
SIZE 4 4 4 4
TYPE F F F U
COUNT 1 1 1 1
WIDTH 670
HEIGHT 1
VIEWPOINT 0 0 0 1 0 0 0
POINTS 670
DATA ascii
0.051211022 0.14648734 1.3201836 53970
0.053559214 0.14639518 1.3193531 65278
0.051165991 0.14873834 1.3190228 56540
0.053502273 0.14861743 1.3179505 65021
0.055913411 0.14870588 1.3187349 65535
0.05109505 0.15090863 1.317194 64507
0.053439241 0.15081741 1.3163978 65535
0.055847909 0.15090819 1.3171901 65535
0.050983597 0.15295079 1.3143208 62451
0.053351738 0.15294164 1.3142422 65535
0.055771798 0.15307578 1.3153949 65535
0.050865009 0.15496084 1.3112637 61937
0.053232729 0.15496638 1.3113106 65535
0.055668015 0.15515979 1.3129472 65535
0.050718095 0.15687226 1.3074764 59624
0.053071816 0.1568567 1.3073468 65535
0.055535927 0.15715486 1.3098319 65535
0.050517287 0.15860079 1.3022997 62965
0.052892454 0.15867735 1.3029284 65535
0.055362619 0.15902029 1.3057443 65535
0.045684513 0.1604815 1.2985054 52171
0.047977436 0.16031484 1.297157 61680
0.050323118 0.1603318 1.2972941 65278
0.052718457 0.16049841 1.2986423 65535
0.055184562 0.16085713 1.3015448 65535
0.043171842 0.16218612 1.293416 55255
0.04547137 0.16206463 1.2924472 62451
0.047805041 0.16207074 1.292496 65535
0.05016806 0.16217117 1.2932968 65535
0.052559569 0.16235067 1.2947284 65535
0.055022284 0.16272548 1.2977175 65535
0.040708426 0.16399682 1.289305 58596
0.043011066 0.16390702 1.2885991 63736
0.045334041 0.16389999 1.2885438 65535
0.047677871 0.16396536 1.2890577 65535
0.050042305 0.16409221 1.290055 65535
0.052440025 0.16431208 1.2917836 65535
0.054882031 0.16464609 1.2944095 65535
0.057462018 0.1653499 1.2999426 252405
0.035989698 0.166017 1.2869328 54484
0.038275011 0.16585839 1.2857033 61423
0.040577836 0.16578944 1.2851689 64250
0.042893492 0.16577755 1.2850767 65535
0.045225419 0.16582653 1.2854564 65535
0.047575846 0.16593528 1.2862993 65535
0.049942568 0.16608807 1.2874838 65535
0.052336603 0.1663141 1.2892359 65535
0.054771628 0.16664559 1.2918056 65535
0.057291612 0.16719796 1.2960875 63479
0.033574954 0.16787477 1.2833846 58596
0.035865489 0.16775793 1.2824913 63736
0.038166247 0.16770017 1.2820498 65278
0.040477496 0.16769248 1.281991 65535
0.042804297 0.16774656 1.2824044 65535
0.045142356 0.16783696 1.2830955 65535
0.0474924 0.16796093 1.2840432 65535
0.049864113 0.16814643 1.2854613 65535
0.052255746 0.16837962 1.2872441 65535
0.054682996 0.16870286 1.2897152 65535
0.057183087 0.16921525 1.2936324 64507
-0.084805191 0.17077211 1.2877719 61423
-0.082437076 0.17067957 1.2870742 62194
-0.080104724 0.17065789 1.2869107 252145
0.028898425 0.16992274 1.2813671 55769
0.031180616 0.16976114 1.2801484 62965
0.033474721 0.1696822 1.2795532 63993
0.035773549 0.16963586 1.2792037 65535
0.038083475 0.16964456 1.2792693 65535
0.040401839 0.16968772 1.2795948 65535
0.042729113 0.16976161 1.280152 65535
0.04507352 0.1698925 1.281139 65535
0.047429439 0.17005189 1.2823409 65535
0.049795549 0.1702313 1.2836938 65535
0.052187733 0.17047992 1.2855687 65535
0.054614875 0.17081675 1.2881086 65535
0.057104744 0.17131424 1.2918601 63736
-0.087052807 0.1729449 1.2866514 53713
-0.084628344 0.17273457 1.2850865 59110
-0.082218044 0.1725421 1.2836546 59881
-0.07982301 0.17237143 1.2823849 60909
-0.077434875 0.17220592 1.2811536 59624
-0.075059272 0.17205895 1.2800602 60138
-0.072681993 0.17189869 1.2788678 60652
-0.070346527 0.17183004 1.2783571 62194
-0.068033464 0.17181332 1.2782328 60395
-0.065740608 0.17184825 1.2784926 252145
0.024234677 0.1719508 1.2792555 54998
0.026513593 0.17176197 1.2778507 60909
0.02880417 0.17167285 1.2771877 63736
0.031099653 0.17162402 1.2768244 65535
0.033398837 0.17160092 1.2766526 65535
0.03570326 0.17160599 1.2766902 65535
0.038017619 0.17165531 1.2770572 65535
0.04033995 0.17173292 1.2776346 65535
0.042673506 0.17184736 1.278486 65535
0.045014955 0.17198022 1.2794744 65535
0.047370993 0.17215313 1.2807608 65535
0.049741153 0.17235889 1.2822915 65535
0.052133996 0.17262146 1.284245 65535
0.054559894 0.17296648 1.2868118 65535
0.057055034 0.17349388 1.2907355 63993
-0.08207655 0.17455716 1.2814454 55255
-0.079655454 0.17431846 1.279693 56540
-0.07724636 0.17409255 1.2780346 58853
-0.074847743 0.17387706 1.2764527 60138
-0.072480589 0.17372331 1.275324 62451
-0.070121512 0.17357947 1.274268 63736
-0.067779414 0.17346936 1.2734597 64764
-0.065463796 0.17342164 1.2731093 64507
-0.06315098 0.17337814 1.2727901 64764
-0.060856599 0.17338389 1.2728323 63993
-0.058580585 0.17344448 1.273277 62965
-0.056315985 0.17354518 1.2740163 61166
0.019576892 0.17388886 1.2765393 56540
0.021859251 0.17372352 1.2753255 61423
0.024151646 0.17366183 1.2748727 65535
0.026442025 0.17359765 1.2744014 65535
0.028737603 0.17357512 1.2742361 65535
0.031036701 0.17357562 1.2742398 65535
0.033339422 0.17359491 1.2743814 65535
0.03564845 0.17364244 1.2747303 65535
0.037965152 0.17371933 1.2752948 65535
0.040291734 0.17383005 1.2761075 65535
0.042626712 0.17396307 1.2770841 65535
0.044968393 0.1741084 1.2781509 65535
0.047323063 0.17428738 1.2794648 65535
0.049696304 0.17451492 1.2811353 65535
0.052091967 0.17479749 1.2832097 65535
0.054526091 0.17517957 1.2860146 65535
0.057032526 0.1757533 1.2902263 59367
-0.079540111 0.17637156 1.27784 52685
-0.077114105 0.17609638 1.2758464 56026
-0.074724205 0.17588928 1.2743459 58339
-0.072340302 0.17568359 1.2728556 60138
-0.069979466 0.17552227 1.2716868 62451
-0.067633085 0.1753875 1.2707103 64764
-0.065298721 0.1752755 1.269899 65278
-0.06298025 0.1751996 1.269349 65535
-0.06067526 0.17515688 1.2690395 65535
-0.058370013 0.17511004 1.2687001 65535
-0.056083985 0.17511939 1.2687678 65535
-0.053800646 0.17513826 1.2689047 65278
-0.051525824 0.1751878 1.2692635 65021
-0.049260549 0.17527591 1.2699019 63479
-0.047011465 0.17543302 1.2710402 61680
0.014934943 0.17577279 1.2735019 58339
0.017221412 0.1756584 1.2726731 63222
0.01951072 0.17559648 1.2722244 64507
0.021801477 0.17555927 1.2719549 65535
0.024095247 0.17555107 1.2718955 65535
0.026390376 0.17555337 1.2719121 65535
0.028686432 0.17556097 1.2719672 65535
0.030987194 0.17559411 1.2722073 65535
0.033293191 0.1756503 1.2726144 65535
0.035604343 0.17572466 1.2731532 65535
0.037926044 0.17583893 1.2739811 65535
0.040252086 0.17595911 1.2748518 65535
0.042584334 0.17609197 1.2758144 65535
0.044932317 0.17627293 1.2771255 65535
0.047289681 0.17647125 1.2785623 65535
0.049663778 0.17671065 1.2802968 65535
0.052065808 0.17702374 1.2825652 65535
0.054506209 0.1774351 1.2855456 64764
-0.07702516 0.17819254 1.2743748 51914
-0.074625336 0.17795272 1.2726598 54998
-0.072247468 0.17775171 1.2712221 58082
-0.069884904 0.17757639 1.2699684 60652
-0.0675264 0.17739987 1.268706 62965
-0.065195754 0.1772867 1.2678965 65278
-0.062868245 0.17717415 1.2670916 65535
-0.060551748 0.1770853 1.2664562 65535
-0.058249567 0.17703299 1.2660822 65535
-0.055949599 0.17698342 1.2657276 65535
-0.053658288 0.17695819 1.2655472 65535
-0.051372848 0.17695092 1.2654952 65535
-0.049094986 0.1769703 1.2656338 65535
-0.04681851 0.17699681 1.2658234 65535
-0.044546198 0.17704257 1.2661507 65535
-0.04228406 0.17713593 1.2668183 65021
-0.040017724 0.17722136 1.2674292 64250
-0.037764322 0.17737786 1.2685486 62194
-0.035508282 0.1775414 1.2697182 250861
0.0057389061 0.17790608 1.2723262 249578
0.008027913 0.17776093 1.2712882 60395
0.010314964 0.17764661 1.2704705 62194
0.012602307 0.17757796 1.2699796 64250
0.014890307 0.17753828 1.2696958 65021
0.017178504 0.1775112 1.2695022 65535
0.019468851 0.17751013 1.2694944 65535
0.021761861 0.17753097 1.2696435 65535
0.024054144 0.17754249 1.2697259 65535
0.026349194 0.17757066 1.2699274 65535
0.028645946 0.17760487 1.270172 65535
0.030949457 0.1776728 1.2706579 65535
0.033257235 0.17775418 1.2712399 65535
0.035571884 0.17785941 1.2719924 65535
0.037892759 0.17798114 1.272863 65535
0.04021867 0.17811124 1.2737935 65535
0.04255376 0.17826575 1.2748984 65535
0.044901729 0.17845559 1.2762561 65535
0.047264468 0.17868274 1.2778807 65535
0.049644835 0.17895232 1.2798085 65535
0.052052837 0.17929311 1.2822458 65278
0.054514594 0.17978217 1.2857434 60138
-0.074562065 0.18009606 1.2715807 51914
-0.072181277 0.17988034 1.2700576 54998
-0.069813348 0.17968354 1.2686681 58339
-0.067457825 0.17950642 1.2674176 60138
-0.065123394 0.17937496 1.2664894 62451
-0.062786885 0.17922801 1.2654518 64507
-0.060474411 0.17914118 1.2648387 65535
-0.05816466 0.17905591 1.2642367 65535
-0.055859879 0.17897962 1.263698 65535
-0.053567804 0.17893927 1.2634131 65535
-0.05127684 0.1788992 1.2631302 65535
-0.048990432 0.17887205 1.2629385 65535
-0.046712749 0.17887564 1.2629639 65535
-0.044435073 0.17887965 1.2629921 65535
-0.042159714 0.17889391 1.2630929 65535
-0.039890759 0.17893855 1.2634081 65535
-0.037620641 0.17898305 1.2637222 65535
-0.035349376 0.17902748 1.2640359 65535
-0.033084109 0.17911051 1.2646222 65535
-0.030816291 0.17919102 1.2651906 65021
-0.028545914 0.17926835 1.2657366 63993
-0.026276732 0.17936724 1.2664349 62965
-0.024006953 0.17948055 1.2672349 62194
-0.021731578 0.17957146 1.2678767 59881
-0.019452782 0.17965217 1.2684466 251376
-0.017172441 0.17973822 1.2690542 251120
-0.014886605 0.17978439 1.2693801 250862
-0.012599683 0.17983185 1.2697152 250093
-0.010306968 0.17979935 1.2694857 250092
-0.0080163889 0.17979614 1.2694632 250862
-0.005724872 0.17976098 1.2692149 58596
-0.0034338443 0.17970452 1.2688162 58853
-0.0011443004 0.17965516 1.2684678 62451
0.0011439626 0.17960212 1.2680932 62708
0.0034308741 0.17954907 1.2677187 63736
0.0057171006 0.17951696 1.2674919 64764
0.0080021983 0.17947787 1.267216 65535
0.010288107 0.17947032 1.2671626 65535
0.012573494 0.17945805 1.267076 65535
0.014860339 0.17946717 1.2671404 65535
0.017149035 0.17949323 1.2673244 65535
0.019438412 0.17951946 1.2675096 65535
0.021728659 0.17954734 1.2677064 65535
0.02402222 0.1795947 1.2680408 65535
0.026316809 0.17964081 1.2683665 65535
0.028616276 0.17971021 1.2688564 65535
0.030919671 0.17979217 1.269435 65535
0.033231616 0.17990908 1.2702606 65535
0.035545815 0.18002236 1.2710603 65535
0.037863564 0.18013877 1.2718823 65535
0.040193833 0.18029806 1.2730069 65535
0.042531963 0.18047346 1.2742454 65535
0.044881038 0.18067496 1.275668 65535
0.047250189 0.18093364 1.2774945 65535
0.049638972 0.18123996 1.2796574 65021
0.052064806 0.18164831 1.2825406 62965
-0.069765039 0.18184657 1.2677902 54484
-0.06741339 0.18167336 1.2665826 56797
-0.065070085 0.18151128 1.2654526 59624
-0.062737614 0.18136874 1.2644588 61680
-0.060421512 0.18126453 1.2637323 63993
-0.058104571 0.18114954 1.2629306 65278
-0.055801269 0.18106942 1.262372 65535
-0.053505443 0.18100777 1.2619423 65535
-0.051209282 0.18093947 1.261466 65535
-0.048922572 0.18089975 1.2611891 65535
-0.046641793 0.18087915 1.2610455 65535
-0.044360284 0.18085346 1.2608664 65535
-0.042082265 0.18084 1.2607726 65535
-0.039811257 0.18085685 1.26089 65535
-0.037539355 0.18087143 1.2609917 65535
-0.035267666 0.180889 1.2611141 65535
-0.032996561 0.18091218 1.2612758 65535
-0.030728744 0.18095815 1.2615963 65535
-0.028459983 0.18100549 1.2619263 65535
-0.026190218 0.18105412 1.2622653 65535
-0.023919133 0.18110201 1.2625992 65535
-0.021646505 0.18114707 1.2629133 65535
-0.019372726 0.18119197 1.2632264 65535
-0.017098112 0.18123998 1.2635611 65535
-0.014821311 0.18127602 1.2638124 65535
-0.012543604 0.18131208 1.2640638 65535
-0.010264176 0.18133377 1.264215 65535
-0.0079842601 0.18135677 1.2643753 65278
-0.0057036434 0.18137586 1.2645085 65535
-0.0034222184 0.18137757 1.2645204 65535
-0.0011407621 0.18138118 1.2645456 65535
0.0011407165 0.18137392 1.2644949 65535
0.0034223562 0.18138488 1.2645713 65535
0.0057042581 0.18139541 1.2646447 65535
0.0079863006 0.18140312 1.2646985 65535
0.010269356 0.18142529 1.264853 65535
0.012553527 0.18145552 1.2650639 65535
0.014839321 0.18149631 1.2653482 65535
0.01712551 0.1815304 1.2655859 65535
0.019413296 0.18157141 1.2658718 65535
0.021703808 0.1816266 1.2662566 65535
0.023996608 0.18168861 1.2666888 65535
0.026293451 0.18176778 1.2672408 65535
0.02859416 0.18185885 1.2678758 65535
0.030899817 0.18196559 1.2686199 65535
0.033209704 0.18208079 1.269423 65535
0.035523865 0.18220305 1.2702755 65535
0.037844285 0.18234065 1.2712348 65535
0.040175539 0.18251173 1.2724274 65535
0.042519219 0.18271773 1.2738636 65535
0.044876907 0.18295971 1.2755506 65535
0.047249872 0.1832373 1.277486 64764
0.049654037 0.18360446 1.2800457 63222
0.052101254 0.18409111 1.2834384 56540
-0.06737899 0.18386471 1.2659364 52942
-0.06503427 0.18369329 1.2647561 56797
-0.06270732 0.18356141 1.2638482 58082
-0.060384665 0.18343265 1.2629616 60909
-0.058066014 0.18330644 1.2620926 62708
-0.055763327 0.18322237 1.2615137 64764
-0.053461697 0.18313475 1.2609105 65535
-0.051163532 0.18305175 1.260339 65535
-0.048877437 0.18300621 1.2600255 65535
-0.046592187 0.18295957 1.2597044 65535
-0.044307623 0.18291095 1.2593696 65535
-0.042031683 0.18289463 1.2592572 65535
-0.039758351 0.1828884 1.2592144 65535
-0.03748456 0.18287921 1.2591511 65535
-0.035213318 0.18288207 1.2591708 65535
-0.032942444 0.18288736 1.2592071 65535
-0.030673729 0.18290631 1.2593377 65535
-0.028406102 0.1829353 1.2595372 65535
-0.026137948 0.18296564 1.2597461 65535
-0.023869008 0.18299572 1.2599533 65535
-0.021599682 0.18302888 1.2601815 65535
-0.019329691 0.18306354 1.2604202 65535
-0.017058801 0.18309781 1.2606561 65535
-0.014787042 0.18313183 1.2608904 65535
-0.012514502 0.1831668 1.2611312 65535
-0.010240876 0.1831979 1.2613453 65535
-0.0079664188 0.18322763 1.2615499 65535
-0.0056912559 0.18325844 1.2617621 65535
-0.0034151347 0.18327889 1.2619029 65535
-0.0011384982 0.18329822 1.262036 65535
0.0011386684 0.1833256 1.2622246 65535
0.0034165552 0.18335512 1.2624278 65535
0.0056951758 0.18338466 1.2626312 65535
0.0079748342 0.18342119 1.2628827 65535
0.010255685 0.18346281 1.2631693 65535
0.012537855 0.18350859 1.2634845 65535
0.014821512 0.18355872 1.2638296 65535
0.01710749 0.18362039 1.2642542 65535
0.019394923 0.18368134 1.2646738 65535
0.021684889 0.18375091 1.2651528 65535
0.023978187 0.18383276 1.2657164 65535
0.026276363 0.18393454 1.2664171 65535
0.028579431 0.18405153 1.2672226 65535
0.03088345 0.18415686 1.2679479 65535
0.033191286 0.18426888 1.2687191 65535
0.035507765 0.1844113 1.2696997 65535
0.037833337 0.18458082 1.2708669 65535
0.040165577 0.18476166 1.272112 65535
0.042518832 0.18501438 1.273852 65535
0.044882141 0.18528269 1.2756994 64250
0.047270264 0.18562225 1.2780373 63222
0.049693532 0.18606183 1.2810639 55769
-0.065020271 0.18593515 1.2644838 53456
-0.0626866 0.18578029 1.2634306 56283
-0.060361117 0.1856389 1.2624692 58339
-0.058046516 0.18552122 1.2616688 59110
-0.055739231 0.18541826 1.2609686 61166
-0.053433232 0.18531099 1.2602391 63479
-0.05113722 0.18523037 1.2596909 65021
-0.048847083 0.18516453 1.259243 65535
-0.046558067 0.1850967 1.2587818 65535
-0.044274069 0.1850429 1.2584159 65535
-0.041997813 0.18501738 1.2582424 65535
-0.039722048 0.18499126 1.2580646 65535
-0.037447281 0.18496688 1.2578989 65535
-0.035176095 0.18495817 1.2578397 65535
-0.032905858 0.18495362 1.2578087 65535
-0.030637553 0.18496005 1.2578524 65535
-0.028370462 0.18497542 1.257957 65535
-0.026103044 0.18499114 1.2580639 65535
-0.023835411 0.1850082 1.2581799 65535
-0.021568215 0.18503258 1.2583457 65535
-0.01930069 0.18505956 1.2585292 65535
-0.017032577 0.18508734 1.2587181 65535
-0.014764179 0.18512009 1.2589408 65535
-0.01249508 0.18515438 1.259174 65535
-0.010225122 0.18518831 1.2594048 65535
-0.0079543395 0.18522248 1.2596371 65535
-0.0056827944 0.18525909 1.2598861 65535
-0.003410296 0.18529275 1.260115 65535
-0.0011369628 0.18532494 1.2603339 65535
0.0011372125 0.18536563 1.2606107 65535
0.0034124204 0.18540817 1.2609 65535
0.0056886724 0.18545072 1.2611893 65535
0.0079662697 0.18550028 1.2615263 65535
0.010245304 0.18555382 1.2618905 65535
0.01252638 0.18561818 1.2623281 65535
0.014809122 0.18568361 1.2627732 65535
0.017093383 0.1857481 1.2632117 65535
0.019381465 0.18583405 1.2637962 65535
0.021671699 0.18592037 1.2643833 65535
0.023966784 0.1860279 1.2651145 65535
0.026265496 0.18614243 1.2658935 65535
0.028566031 0.18625052 1.2666285 65535
0.030870769 0.18636797 1.2674273 65535
0.033179577 0.1864921 1.2682714 65535
0.035500254 0.18666263 1.2694311 65535
0.037829451 0.18685457 1.2707365 65535
0.040172841 0.18709067 1.2723421 65535
0.04252829 0.18735436 1.2741354 63479
0.044910006 0.18770081 1.2764914 59367
0.047316436 0.18811168 1.2792857 56026
-0.060354553 0.18789625 1.2623318 53456
-0.058038712 0.1877723 1.2614992 56540
-0.055726647 0.18765095 1.2606839 58339
-0.053418331 0.18753244 1.2598877 59624
-0.051122099 0.1874477 1.2593184 61937
-0.048828207 0.18736404 1.2587564 62708
-0.046536367 0.18728051 1.2581952 64250
-0.044254649 0.18723121 1.257864 65278
-0.041975774 0.18718927 1.2575822 65535
-0.03969793 0.18714739 1.2573009 65535
-0.037423011 0.18711506 1.2570837 65535
-0.035151523 0.1870968 1.256961 65535
-0.032882057 0.18708757 1.2568989 65535
-0.030613465 0.18708229 1.2568635 65535
-0.028346248 0.18708524 1.2568833 65535
-0.026079219 0.18709004 1.2569156 65535
-0.023812445 0.18709777 1.2569675 65535
-0.021546658 0.18711571 1.2570881 65535
-0.019280702 0.18713623 1.2572259 65535
-0.017014401 0.18715841 1.2573749 65535
-0.014748327 0.18719029 1.2575891 65535
-0.012481571 0.18722357 1.2578126 65535
-0.010214065 0.18725787 1.2580431 65535
-0.0079458617 0.1872953 1.2582946 65535
-0.0056768353 0.18733557 1.2585651 65535
-0.0034068378 0.18737608 1.2588372 65535
-0.0011358596 0.18741684 1.259111 65535
0.0011361439 0.18746375 1.2594262 65535
0.0034093533 0.18751442 1.2597667 65535
0.0056838272 0.1875663 1.2601151 65535
0.007960082 0.18763052 1.2605466 65535
0.01023794 0.18769556 1.2609836 65535
0.012517395 0.18776093 1.2614228 65535
0.014799343 0.18783782 1.2619393 65535
0.017084438 0.18792883 1.2625507 65535
0.019372195 0.18802424 1.2631917 65535
0.021664599 0.18813995 1.2639691 65535
0.023959782 0.18825543 1.2647449 65535
0.026255947 0.18835787 1.2654332 65535
0.028556149 0.18847059 1.2661904 65535
0.030863229 0.18860862 1.2671177 65535
0.03317799 0.18877132 1.2682108 65535
0.035501275 0.18895839 1.2694676 65535
0.037839364 0.18919683 1.2710694 64507
0.04019149 0.18947417 1.2729326 61937
0.042557415 0.18978307 1.275008 56797
-0.060367268 0.19021384 1.2625978 51914
-0.058044914 0.19006865 1.261634 51914
-0.055726111 0.18992367 1.2606717 53713
-0.053416502 0.18979906 1.2598445 55255
-0.051116791 0.18970008 1.2591876 58082
-0.0488194 0.18960093 1.2585294 60138
-0.046527058 0.18951264 1.2579434 61166
-0.044244491 0.18945716 1.2575752 63479
-0.041963328 0.18940206 1.2572093 64250
-0.039683577 0.18934736 1.2568462 65021
-0.037408981 0.18931212 1.2566123 65278
-0.035137661 0.18928997 1.2564653 65535
-0.032866996 0.18926856 1.2563232 65535
-0.030598022 0.18925443 1.2562294 65535
-0.028330367 0.18924685 1.2561791 65535
-0.026063383 0.18924282 1.2561524 65535
-0.023797017 0.18924293 1.2561531 65535
-0.021532126 0.18925604 1.2562401 65535
-0.01926706 0.18927054 1.2563363 65535
-0.017001871 0.1892875 1.2564489 65535
-0.014737391 0.18931879 1.2566566 65535
-0.012472178 0.18935034 1.256866 65535
-0.010206284 0.18938327 1.2570846 65535
-0.0079398826 0.18942291 1.2573477 65535
-0.0056726164 0.18946539 1.2576298 65535
-0.0034043563 0.18950917 1.2579203 65535
-0.0011350666 0.18955612 1.258232 65535
0.0011353794 0.18960837 1.2585788 65535
0.0034072078 0.18966791 1.258974 65535
0.0056806025 0.18973212 1.2594002 65535
0.0079554757 0.18979493 1.2598171 65535
0.010232268 0.18986543 1.260285 65535
0.012511849 0.18995263 1.2608639 65535
0.014793527 0.19003993 1.2614434 65535
0.017078958 0.19014575 1.2621458 65535
0.019368527 0.19026729 1.2629526 65535
0.021659598 0.19037646 1.2636772 65535
0.023953171 0.19048475 1.264396 65535
0.026250249 0.19059962 1.2651585 65535
0.028553411 0.19073679 1.2660689 65535
0.030863119 0.1908941 1.2671132 65278
0.033185806 0.19110447 1.2685096 64764
0.035514709 0.19132118 1.269948 62451
0.037863299 0.19161123 1.2718734 59367
0.04022833 0.19194661 1.2740995 53713
-0.05342894 0.19211683 1.2601379 53456
-0.051123116 0.1919957 1.2593434 53456
-0.048820198 0.19187473 1.2585499 55255
-0.046527959 0.19178599 1.2579678 58082
-0.044242736 0.19171852 1.2575253 59881
-0.041959308 0.19165197 1.2570888 61423
-0.039677806 0.19158712 1.2566634 62708
-0.037403855 0.19155309 1.2564402 63479
-0.035130914 0.19152015 1.2562242 64507
-0.032859083 0.19148915 1.2560208 65535
-0.030589545 0.1914679 1.2558814 65535
-0.028321428 0.19145285 1.2557827 65535
-0.026053961 0.19143999 1.2556983 65535
-0.023787688 0.19143426 1.2556608 65535
-0.021523178 0.191443 1.2557181 65535
-0.019258458 0.19145173 1.2557753 65535
-0.016993975 0.19146547 1.2558655 65535
-0.014730344 0.19149446 1.2560557 65535
-0.012466055 0.19152395 1.2562491 65535
-0.010201137 0.19155468 1.2564507 65535
-0.0079359347 0.19159614 1.2567226 65535
-0.0056698201 0.19163992 1.2570097 65535
-0.0034026874 0.19168472 1.2573036 65535
-0.001134541 0.19173743 1.2576493 65535
0.0011348802 0.19179477 1.2580254 65535
0.0034057011 0.19185451 1.2584172 65535
0.0056783506 0.19192825 1.258901 65535
0.0079530133 0.19200845 1.2594271 65535
0.010229732 0.19209164 1.2599727 65535
0.012509152 0.19218607 1.2605921 65535
0.014792124 0.19229761 1.2613237 65535
0.017078189 0.19241427 1.2620889 65535
0.019366037 0.19252118 1.2627902 65535
0.021656351 0.19262755 1.2634878 65535
0.023950038 0.19274078 1.2642306 65535
0.026251413 0.19289082 1.2652147 65278
0.028559543 0.19306251 1.2663409 65021
0.030874992 0.19325458 1.2676007 62708
0.033205334 0.19350694 1.269256 59624
0.035545252 0.19377896 1.2710402 55255
-0.048834469 0.19420218 1.2589178 52428
-0.046540786 0.19410914 1.2583146 55255
-0.044251505 0.19402583 1.2577746 54741
-0.041964188 0.19394261 1.2572351 56797
-0.0396812 0.19387101 1.256771 57825
-0.037405487 0.19382843 1.256495 59624
-0.035130817 0.19378613 1.2562207 61423
-0.032857552 0.19374625 1.2559623 62451
-0.030587228 0.19371912 1.2557863 63736
-0.028318284 0.19369707 1.2556434 64507
-0.026049975 0.19367591 1.2555062 64764
-0.023783617 0.19366659 1.2554458 65278
-0.021518931 0.19367038 1.2554704 65535
-0.019254198 0.19367458 1.2554976 65535
-0.016989863 0.19368443 1.2555615 65535
-0.014726527 0.19371048 1.2557303 65535
-0.012462681 0.19373804 1.255909 65535
-0.010198222 0.19376621 1.2560916 65535
-0.0079337247 0.19380955 1.2563726 65535
-0.0056682578 0.19385442 1.2566634 65535
-0.0034017509 0.19389981 1.2569577 65535
-0.001134283 0.1939624 1.2573633 65535
0.0011347195 0.19403704 1.2578472 65535
0.0034051973 0.19409624 1.258231 65535
0.0056776307 0.19417498 1.2587414 65535
0.0079520084 0.1942562 1.2592679 65535
0.010229332 0.19435732 1.2599235 65535
0.012509975 0.19447325 1.260675 65535
0.014792616 0.1945798 1.2613657 65535
0.017077163 0.19467965 1.262013 65535
0.019365244 0.19479157 1.2627385 65535
0.021657806 0.19492026 1.2635727 64764
0.023955077 0.19506277 1.2644966 63479
0.026261827 0.19525097 1.2657166 62194
0.028576678 0.19546446 1.2671006 58853
0.030900218 0.19570138 1.2686363 56283
-0.044266682 0.19636247 1.258206 53456
-0.041978385 0.19627732 1.2576604 53456
-0.039695773 0.19621055 1.2572325 57054
-0.037417267 0.19615719 1.2568907 56540
-0.035139866 0.19610313 1.2565442 55769
-0.032863766 0.19604936 1.2561997 57054
-0.030592199 0.19601668 1.2559904 59624
-0.028321395 0.19598405 1.2557813 59624
-0.026051342 0.1959514 1.2555721 61166
-0.02378366 0.19593206 1.2554481 62451
-0.021517674 0.19592407 1.255397 63479
-0.019253191 0.19592953 1.2554319 63736
-0.016988883 0.19593845 1.2554891 64250
-0.014725106 0.19595717 1.255609 64250
-0.012461578 0.19598664 1.2557979 65278
-0.010197625 0.19602101 1.256018 65278
-0.0079336492 0.19607447 1.2563607 65535
-0.005668466 0.19612893 1.2567096 65535
-0.0034018049 0.19617075 1.2569776 65535
-0.0011343394 0.19624071 1.2574258 65535
0.0011346808 0.19629978 1.2578043 65021
0.0034052338 0.19636849 1.2582445 63993
0.0056781513 0.19646403 1.2588568 65021
0.0079534994 0.19656505 1.2595041 64250
0.010231216 0.1966667 1.2601554 63993
0.012511226 0.19676746 1.2608011 65535
0.01479391 0.19687282 1.261476 65535
0.01707967 0.19698553 1.2621983 63993
0.019370163 0.19711989 1.2630593 62965
0.021667663 0.19728976 1.2641478 59881
0.023971129 0.19747645 1.2653439 58082
0.026283856 0.19770032 1.2667783 53456
-0.039711978 0.1985599 1.2577457 52428
-0.037430305 0.19849405 1.2573286 52428
-0.035151862 0.19843793 1.2569731 53713
-0.032875653 0.19838756 1.2566541 57568
-0.030603012 0.19835286 1.2564343 57568
-0.028330712 0.19831498 1.2561944 57311
-0.026059279 0.19827713 1.2559546 58082
-0.02379098 0.19825816 1.2558345 59881
-0.021523224 0.19824022 1.2557209 60652
-0.01925802 0.19824433 1.2557468 61423
-0.016992753 0.19824879 1.2557751 62965
-0.014728362 0.1982664 1.2558867 61937
-0.012464118 0.19829279 1.2560538 64250
-0.010199304 0.19831979 1.2562249 64507
-0.007934765 0.19836912 1.2565373 64507
-0.0056688832 0.19841091 1.2568021 64507
-0.0034022215 0.19846292 1.2571315 62451
-0.0011345397 0.19854444 1.2576479 63479
0.0011350337 0.1986309 1.2581955 62708
0.0034063517 0.19870384 1.2586576 61937
0.0056800288 0.19880101 1.2592731 62708
0.0079563987 0.19890997 1.2599633 62708
0.010233834 0.19899122 1.2604779 62708
0.012514647 0.19909666 1.2611458 61937
0.014799762 0.19922756 1.2619749 60138
0.017089108 0.19937293 1.2628958 58082
0.019384718 0.19954856 1.2640083 55512
0.021688052 0.19975838 1.2653373 52428
-0.026069801 0.20062412 1.2564617 52428
-0.023799522 0.20059597 1.2562854 54741
-0.021530436 0.20057303 1.2561417 55255
-0.019264014 0.20057239 1.2561377 56026
-0.016997973 0.20057608 1.2561609 57825
-0.014733016 0.20059568 1.2562835 57311
-0.012468116 0.20062333 1.2564567 59881
-0.01020295 0.20065801 1.2566739 57311
-0.0079374397 0.20070383 1.2569609 59367
-0.0056712665 0.20076284 1.2573304 60909
-0.003403754 0.20082147 1.2576977 59367
-0.0011350142 0.20089751 1.2581739 59110
0.0011355939 0.20100012 1.2588165 59367
0.0034079999 0.20107199 1.2592666 57311
0.0056823441 0.20115498 1.2597864 59624
0.0079597682 0.20126843 1.2604969 57825
0.010239895 0.2013846 1.2612244 54998
0.012523533 0.20151502 1.2620412 53713
-0.017008731 0.20297086 1.2569559 53456
-0.014741809 0.20298336 1.2570333 52942
-0.012475289 0.20300698 1.2571796 53456
-0.01020888 0.20304327 1.2574043 53713
-0.0079424875 0.20310076 1.2577603 53456
-0.0056750309 0.20316611 1.258165 53456
-0.0034061603 0.20323423 1.2585869 53199
-0.0011358333 0.20331417 1.259082 54998
0.0011363979 0.20341523 1.2597078 53456
