# .PCD v0.7 - Point Cloud Data file format
VERSION 0.7
FIELDS x y z normal_x normal_y normal_z curvature
SIZE 4 4 4 4 4 4 4
TYPE F F F F F F F
COUNT 1 1 1 1 1 1 1
WIDTH 559
HEIGHT 1
VIEWPOINT 0 0 0 1 0 0 0
POINTS 559
DATA ascii
0.042763125 0.061883103 -0.024427818 0.60211521 -0.29888004 -0.74035656 0.0036023085
0.040691212 0.064514339 -0.026297648 0.43462208 -0.034987126 -0.8999331 0.0038737766
0.043087896 0.064567059 -0.024825871 0.59632063 -0.065111928 -0.8001014 0.0048699989
0.038555823 0.068513095 -0.026712466 0.28464872 0.27143234 -0.91940176 0.0054898039
0.041014981 0.067802213 -0.025849497 0.50377738 0.17716122 -0.84547168 0.0040215999
0.043017667 0.067406528 -0.024721287 0.59478903 0.18257682 -0.78287405 0.0050677913
0.026364118 0.070048556 -0.025980324 -0.14553505 0.48056167 -0.86480057 0.0052945339
0.028475797 0.07084322 -0.026051225 -0.11949676 0.4927645 -0.86191857 0.0036280148
0.031823255 0.070954323 -0.026453601 -0.02310803 0.50105518 -0.86510676 0.0033091488
0.03477611 0.070894361 -0.026430104 0.068629518 0.50777811 -0.85874993 0.0024589067
0.03760282 0.070603348 -0.026071936 0.21922854 0.44718921 -0.86715668 0.0028414938
0.040711854 0.070574701 -0.024886468 0.43170142 0.46097988 -0.77532661 0.0044870758
0.042483326 0.069572054 -0.024422362 0.55001009 0.37873238 -0.74434578 0.0061859246
0.025246182 0.072219193 -0.02406786 -0.28518656 0.6972816 -0.65762228 0.0020560215
0.028801834 0.072825871 -0.024642292 -0.17816043 0.67542326 -0.71558535 0.0017435952
0.031924874 0.073044941 -0.024956953 -0.060319141 0.63864434 -0.76713431 0.0026050638
0.034709394 0.073044464 -0.024961866 0.079259351 0.62387425 -0.77749521 0.0022707372
0.037491791 0.072773904 -0.024671311 0.22084518 0.60694146 -0.76344579 0.00295409
0.039560441 0.072449066 -0.024210939 0.36055705 0.59906811 -0.7149238 0.0032764678
0.038171239 -0.073694937 -0.023090601 0.26616412 -0.68918437 -0.67392993 0.0056902277
0.040912021 -0.072982162 -0.022520093 0.42111805 -0.633129 -0.64946687 0.0031127925
0.042983569 -0.072655194 -0.021326324 0.54146749 -0.60100836 -0.58787924 0.0028306104
0.041450229 -0.071385235 -0.023711154 0.4077141 -0.52362317 -0.74805611 0.0049769874
0.043950014 -0.070385516 -0.022444807 0.6274544 -0.43873277 -0.6432842 0.0049466472
0.045479864 -0.069632769 -0.021437395 0.71406198 -0.41927126 -0.56064892 0.0045932103
0.044357825 -0.067304991 -0.023539083 0.68697727 -0.1285595 -0.71521646 0.005449295
0.045844574 -0.067318149 -0.021950059 0.77646828 -0.16372296 -0.6085161 0.0044632871
0.044522017 -0.064379282 -0.023598028 0.68869466 0.077043124 -0.72094661 0.0037262945
0.045975562 -0.064419113 -0.022007206 0.78876269 0.079352669 -0.60955447 0.0041864738
0.044069558 -0.061177801 -0.023078846 0.65842265 0.29311207 -0.69322801 0.0033351847
0.04556039 -0.061782923 -0.021700606 0.74954718 0.31151649 -0.58406883 0.0029587543
0.04119603 -0.057756696 -0.023489146 0.48773324 0.52017576 -0.70109457 0.0032113928
0.043298233 -0.058624696 -0.022219295 0.64429277 0.46234262 -0.60920125 0.0021883203
0.045241721 -0.059990853 -0.021039372 0.72846198 0.35118398 -0.58822864 0.0029262318
0.013730453 -0.054174542 -0.021946106 -0.20685709 0.64715677 -0.73375618 0.0017302014
0.016317304 -0.054799031 -0.023267644 -0.22511591 0.56527185 -0.79359347 0.0020642029
0.018572953 -0.054344464 -0.023638379 -0.19431138 0.56607902 -0.80112278 0.0012293756
0.032690518 -0.054080267 -0.023973387 0.13249594 0.67608523 -0.72481287 0.0020452654
0.034693006 -0.054332647 -0.023750627 0.21893954 0.71903819 -0.65958285 0.0013655755
0.0377689 -0.054831024 -0.022962265 0.34440088 0.69392818 -0.63233829 0.0020541837
0.040335465 -0.055762213 -0.022277065 0.44695675 0.64676505 -0.61800051 0.0017694797
0.042245042 -0.056584235 -0.021486141 0.56892973 0.5885846 -0.57435805 0.0025081628
0.014529759 -0.053107254 -0.021536589 -0.21893565 0.65266031 -0.72532868 0.0014630184
0.01692339 -0.052813128 -0.022025915 -0.18926562 0.67355114 -0.71449804 0.0024732912
0.019532265 -0.052389916 -0.022206888 -0.14642917 0.68333131 -0.71527398 0.0029523049
0.022453096 -0.052282542 -0.022506632 -0.070074186 0.73638892 -0.67291969 0.0030140067
0.025959222 -0.052103415 -0.022448624 0.0045815953 0.78226984 -0.62292302 0.0017410694
0.028513009 -0.052190114 -0.022395872 0.062867336 0.78654283 -0.61432743 0.0012737158
0.031405237 -0.05247727 -0.022353284 0.12229507 0.78003693 -0.6136663 0.00058410055
0.034406811 -0.053011596 -0.022263199 0.21531434 0.75371748 -0.6209265 0.0010181984
0.037277192 -0.053502928 -0.021650227 0.33770096 0.73040748 -0.59368593 0.0010830656
0.019884966 0.051691573 -0.021004872 -0.05356824 -0.79863638 -0.59942508 0.0014463487
0.02261889 0.053169232 -0.023003679 -0.0820233 -0.71340626 -0.6959337 0.0051289657
0.02606892 0.052627824 -0.022500796 0.033771873 -0.76938736 -0.63788921 0.0014747827
0.028633421 0.052722901 -0.022464523 0.034312069 -0.76631004 -0.64155406 0.0013893711
0.031310175 0.052853983 -0.022266481 0.11421636 -0.77928734 -0.61617029 0.00086929282
0.034430895 0.05326936 -0.022018967 0.21152589 -0.76375031 -0.60987073 0.00083414954
0.03710153 0.053686488 -0.021440517 0.32109526 -0.74068207 -0.59015924 0.00090794568
0.021192009 0.054356422 -0.023928717 -0.097014025 -0.64115435 -0.76125515 0.0050844038
0.031911802 0.054012395 -0.023604847 0.10093804 -0.71063846 -0.69627905 0.0029495752
0.034312919 0.054403543 -0.023471011 0.2030931 -0.73305321 -0.64914274 0.0010617771
0.037609722 0.05505164 -0.022826966 0.33529821 -0.67515755 -0.6570673 0.0020746749
0.040397346 0.056062199 -0.022085816 0.49426651 -0.64455885 -0.58330488 0.0028680647
0.042047963 0.056516498 -0.021263918 0.57847643 -0.59626687 -0.55662465 0.0035555142
0.041102283 0.058010504 -0.023412634 0.54125935 -0.50510168 -0.67224294 0.0025323324
0.043220658 0.058947697 -0.022232609 0.64035708 -0.47050309 -0.60709935 0.0030362394
0.044103239 0.061427027 -0.022967249 0.67841029 -0.33662653 -0.65302527 0.0041456684
0.045435365 0.061786253 -0.021654988 0.7476759 -0.33965036 -0.57062978 0.0026350489
0.044565186 0.064450003 -0.023545109 0.70405406 -0.095264956 -0.7037276 0.0041951663
0.045985024 0.064601608 -0.021992067 0.78681469 -0.10262778 -0.60859686 0.0043276516
0.044389974 0.067852832 -0.023509799 0.67826498 0.15347114 -0.71861202 0.0039407765
0.045962155 0.067409158 -0.021941243 0.77374887 0.15408926 -0.61446649 0.0054545398
0.020145448 0.071477674 -0.022054296 -0.36829537 0.70632941 -0.60453069 0.0010182504
0.041531757 0.071640179 -0.023795856 0.45886031 0.55299687 -0.69544345 0.0043647094
0.043738678 0.070694774 -0.022726923 0.58565205 0.419806 -0.69337904 0.0040659332
0.045489933 0.069916882 -0.021503562 0.703183 0.39323899 -0.59236544 0.0043743453
0.022901144 0.072570682 -0.02242041 -0.32373691 0.72645861 -0.60617852 0.00087856007
0.025658697 0.073822066 -0.022356769 -0.28848389 0.73453069 -0.61420006 0.00080309081
0.028299576 0.074260868 -0.022944262 -0.1909797 0.72528553 -0.66142851 0.0016381167
0.032224555 0.074688748 -0.023356959 -0.013610149 0.74613208 -0.66565883 0.002087764
0.034797102 0.074545816 -0.023517232 0.073733851 0.72876251 -0.6807853 0.0023726644
0.03806898 0.073983721 -0.023341229 0.29675025 0.70181173 -0.6476106 0.0034961794
0.040629145 0.073571824 -0.022484338 0.38728803 0.68029827 -0.6222558 0.0024255721
0.042810451 0.072799049 -0.02177012 0.53595531 0.59827536 -0.59566647 0.002437915
0.028962582 0.075478658 -0.021648124 -0.18032858 0.76886541 -0.61345553 0.0011056785
0.031963807 0.075703457 -0.022072215 -0.045713406 0.79526418 -0.60453713 0.0019585965
0.034642503 0.075798005 -0.021992575 0.079698958 0.79913396 -0.59584635 0.0020232932
0.037424415 0.075590417 -0.021623392 0.22885711 0.78774315 -0.57191354 0.0022794018
0.039579954 0.075109981 -0.021298412 0.35722703 0.75139606 -0.55479079 0.0023693428
0.03779301 -0.077018209 -0.018304285 0.37806872 -0.80820084 -0.45152578 0.0039166454
0.040521193 -0.075611763 -0.019064572 0.42263663 -0.78724521 -0.44902492 0.0017954789
0.040991589 -0.074598119 -0.020388074 0.38396218 -0.76810658 -0.51243091 0.0025992242
0.043939233 -0.073157623 -0.019474825 0.62382895 -0.66399288 -0.41225106 0.0041391011
0.045605965 -0.072320923 -0.018407367 0.74043661 -0.55452299 -0.37981293 0.0035756859
0.044797659 -0.071546435 -0.020565402 0.68802547 -0.50450456 -0.52162832 0.0081223529
0.046452478 -0.070207007 -0.019398088 0.80626357 -0.3680889 -0.46308696 0.0051649013
0.047362972 -0.067496181 -0.01964687 0.86158991 -0.16370897 -0.48048121 0.0048677232
0.048145428 -0.066840552 -0.018332655 0.91416067 -0.17449309 -0.36587209 0.007009354
0.047384262 -0.064312004 -0.019840384 0.86835289 0.1020407 -0.48533586 0.0042536398
0.048148543 -0.064823322 -0.018408185 0.91839945 0.069380984 -0.38952371 0.0057644011
0.046784844 -0.061469451 -0.019581011 0.83380061 0.30965075 -0.45704815 0.0028422561
0.044441614 -0.057749864 -0.020046493 0.71292931 0.51973128 -0.47075593 0.0024493125
0.045741986 -0.058919098 -0.019191176 0.75097769 0.4754743 -0.45821032 0.0017762665
0.041266274 -0.05466048 -0.020164026 0.51086539 0.6884799 -0.51479328 0.0028904825
0.043237541 -0.055800993 -0.019318817 0.64512736 0.60692024 -0.46417502 0.0015348004
0.010379082 -0.051757004 -0.018778328 -0.23505303 0.71190727 -0.66176885 0.0014305322
0.013223441 -0.051852204 -0.020013474 -0.21766159 0.6996761 -0.68049753 0.002336639
0.016171314 -0.051459312 -0.020541567 -0.15878683 0.71647865 -0.67929751 0.0025376508
0.019837905 -0.051061243 -0.020834913 -0.083951525 0.77434182 -0.62717378 0.0014219446
0.022512546 -0.051030692 -0.020926535 -0.067574777 0.78036523 -0.62166208 0.002386855
0.025804413 -0.051015299 -0.02097434 0.039200671 0.82846862 -0.55866194 0.00028291825
0.02890281 -0.051074848 -0.020765413 0.053299543 0.8135919 -0.57898825 0.00024632562
0.031765785 -0.051205467 -0.020577388 0.12124809 0.7997629 -0.58794403 0.00041287512
0.034711882 -0.051532686 -0.020226156 0.20631382 0.78556037 -0.58337772 0.0006128457
0.037661854 -0.052137833 -0.019611226 0.33813912 0.76492149 -0.54823089 0.0013014184
0.040213484 -0.053218212 -0.019180337 0.4784843 0.71467543 -0.51018792 0.0015121112
0.042178281 -0.053945038 -0.01835857 0.58138418 0.68743241 -0.43523464 0.0027568007
0.01158832 -0.050667014 -0.018285971 -0.23230623 0.71861774 -0.65545583 0.0016797255
0.013798822 -0.050416544 -0.018694637 -0.18338919 0.74944055 -0.6361661 0.0017982041
0.016523689 -0.050194286 -0.01906676 -0.12335704 0.78618413 -0.60555553 0.0013328393
0.019511387 -0.050071523 -0.01932149 -0.066333815 0.81471074 -0.57606101 0.00056846539
0.022414019 -0.049866896 -0.019222289 -0.012487284 0.83052558 -0.55684048 0.00020884385
0.025535025 -0.050108269 -0.019559827 0.020356856 0.83043474 -0.55674392 0.00010801336
0.028669529 -0.050250184 -0.019611865 0.054954223 0.82977808 -0.55538148 0.00010260204
0.031517342 -0.050180782 -0.019169293 0.10996618 0.82317692 -0.55703419 0.00034198022
0.034374803 -0.050403595 -0.018755412 0.21374974 0.80926508 -0.54717559 0.0010917896
0.036615949 -0.05080371 -0.018339338 0.3373763 0.78200984 -0.52405906 0.001271637
0.020985233 0.050725266 -0.019727165 -0.038879104 -0.80083597 -0.59762043 0.0016606165
0.022938047 0.050343007 -0.019200737 -0.01737711 -0.82631636 -0.56293815 0.00041422478
0.025785794 0.050029475 -0.018749626 0.017039953 -0.83412451 -0.55131304 7.0673006e-05
0.028677026 0.05023779 -0.018925598 0.049229123 -0.83217621 -0.55232173 0.00013740786
0.031549409 0.050439272 -0.018848335 0.10639255 -0.82682562 -0.55230439 0.0003016642
0.034880187 0.050663155 -0.018313905 0.21542589 -0.81146497 -0.54324621 0.00093388738
0.023236956 0.05140619 -0.020837873 -0.034092035 -0.79800183 -0.60168999 0.0016872759
0.024884377 0.05100261 -0.020235078 0.00082144531 -0.81970727 -0.57278216 0.00036186998
0.028508307 0.051254265 -0.020422451 0.052760083 -0.82273072 -0.56597757 0.00013505195
0.031871527 0.051481396 -0.020296635 0.11514981 -0.80681652 -0.57947195 0.00026698629
0.034613084 0.05179533 -0.019993857 0.21270415 -0.7945841 -0.56867665 0.00094353169
0.037814982 0.052445479 -0.019284829 0.4188574 -0.75163186 -0.50951755 0.0011248159
0.040260524 0.053429715 -0.018819876 0.49363589 -0.71863371 -0.48978487 0.001257256
0.041187026 0.054846004 -0.019901071 0.52444375 -0.68411922 -0.50689209 0.0025425367
0.043273974 0.056068283 -0.019046225 0.66877306 -0.59328806 -0.44805339 0.0019715759
0.044327844 0.058008015 -0.019983644 0.70935822 -0.5224992 -0.47308078 0.0022917246
0.045665402 0.058997959 -0.01897566 0.74731803 -0.48955905 -0.4492746 0.0015889347
0.046683192 0.061501145 -0.019493202 0.82480943 -0.33254287 -0.45727956 0.0024842981
0.047415182 0.064379454 -0.019729359 0.8699559 -0.14357018 -0.47176719 0.0042722747
0.04818685 0.064958774 -0.018364115 0.90969563 -0.13383849 -0.39311719 0.0044295136
0.047436833 0.067568816 -0.019713333 0.87096751 0.1563839 -0.46578932 0.0049253996
0.048157156 0.067010425 -0.018424025 0.90639025 0.16531572 -0.38875115 0.005868969
0.016032394 0.070909269 -0.019679915 -0.41545284 0.72747296 -0.5460605 0.00024519456
0.044790771 0.071766965 -0.020826856 0.61697829 0.54779184 -0.56503266 0.0039507821
0.046552401 0.070468433 -0.019432152 0.82306904 0.38741934 -0.41528738 0.0036106303
0.020152837 0.073621027 -0.019238057 -0.39440969 0.73535109 -0.55108976 0.00015645284
0.022569934 0.074222118 -0.020098209 -0.3529937 0.7472499 -0.56303906 0.00019985168
0.041540075 0.074636452 -0.020612083 0.44155151 0.73275447 -0.51778686 0.0034371961
0.043742448 0.073655359 -0.019639276 0.56053984 0.70892978 -0.42803466 0.0025218402
0.045463514 0.072631627 -0.018793086 0.67900831 0.60302019 -0.41870567 0.0036282698
0.023254324 0.075717479 -0.018564951 -0.35885072 0.7648626 -0.53498733 0.00023220267
0.025816893 0.076259799 -0.019303711 -0.27831289 0.78044313 -0.55986643 0.00069294329
0.028487718 0.076896332 -0.019552173 -0.16455758 0.82092184 -0.54681635 0.00081629743
0.031938627 0.077329651 -0.019706972 -0.0098512135 0.84600556 -0.53308308 0.0013545979
0.034792773 0.077218711 -0.019783484 0.093489602 0.85470539 -0.51062548 0.0016943885
0.037758533 0.077003725 -0.019183107 0.28456965 0.85504246 -0.43350041 0.0016491855
0.040477406 0.075879306 -0.019365095 0.38804686 0.79852486 -0.46019313 0.002100514
0.042491708 0.075341009 -0.018386632 0.51412082 0.74932337 -0.41736597 0.0021238883
0.031358495 0.078232855 -0.018176593 -0.0023665819 0.86489356 -0.50194979 0.0017851007
0.034029491 0.078233093 -0.018169377 0.11091822 0.8754133 -0.47047722 0.0012731445
0.038841423 -0.077319197 -0.016992435 0.45717984 -0.83074087 -0.31757867 0.0034443531
0.041265987 -0.076433495 -0.01661318 0.45713857 -0.83075833 -0.31759241 0.0034674478
0.043020733 -0.075529441 -0.016032021 0.60275286 -0.76514858 -0.22635514 0.0048340666
0.044281654 -0.07439322 -0.016626243 0.64312053 -0.71825624 -0.26552603 0.0046837507
0.045959547 -0.072857685 -0.016289376 0.76453239 -0.60887331 -0.21157381 0.0042877952
0.047471892 -0.070494145 -0.016544323 0.90104765 -0.3939198 -0.18149486 0.0083119432
0.048187498 -0.069430754 -0.015896764 0.9037807 -0.39381564 -0.16760005 0.0069458997
0.047943432 -0.068847045 -0.017595043 0.90988183 -0.31610054 -0.26869223 0.0081138844
0.048586477 -0.067376949 -0.016326776 0.97164518 -0.16767517 -0.1667057 0.0052373647
0.04870702 -0.064378448 -0.016397465 0.98146367 0.066775635 -0.17963889 0.0049121254
0.047687825 -0.060822755 -0.017125463 0.90250963 0.31453997 -0.29417861 0.0032514932
0.048354011 -0.061874956 -0.016063543 0.93817687 0.25475448 -0.23435952 0.0042056008
0.046731811 -0.058414225 -0.016521968 0.82646036 0.46880105 -0.31175122 0.0022040224
0.044132099 -0.0550326 -0.016810179 0.70088077 0.60876858 -0.37170812 0.0018943379
0.045509357 -0.056244433 -0.016128024 0.75983924 0.55335617 -0.34123486 0.0022396725
0.0073930919 -0.051612243 -0.017258506 -0.26911959 0.73041475 -0.6277492 0.00062180409
0.038652766 -0.051228613 -0.01759477 0.39392886 0.77888143 -0.48802033 0.0019393108
0.040790677 -0.052049667 -0.016746223 0.49841484 0.74694699 -0.44006002 0.0013828017
0.042778354 -0.053322557 -0.016222991 0.62124497 0.67234451 -0.4025014 0.0012425304
0.0059133666 -0.050177127 -0.01519635 -0.24547423 0.74931633 -0.61503458 0.0012560488
0.0079279989 -0.049921457 -0.015884995 -0.23930453 0.75193071 -0.6142748 0.00067000702
0.010862108 -0.049390223 -0.016424429 -0.21809199 0.76846647 -0.60157722 0.0012788232
0.013659421 -0.04887614 -0.016536139 -0.1474423 0.8003341 -0.58114213 0.00079984614
0.016442262 -0.048713043 -0.016865902 -0.096455343 0.82237929 -0.56070375 0.00033995585
0.019551242 -0.0485107 -0.016958298 -0.036841933 0.84003741 -0.54127622 7.0577982e-05
0.022529896 -0.048533536 -0.017163627 -0.014790586 0.84054989 -0.5415321 0.00010544505
0.025580799 -0.048517484 -0.017171897 0.018733375 0.84455717 -0.53513765 7.3655508e-05
0.028618677 -0.048621211 -0.017125646 0.051076576 0.8452214 -0.5319699 0.00011561814
0.031581312 -0.048647892 -0.016800396 0.10262946 0.84046257 -0.53206187 0.00034771484
0.034623981 -0.049031407 -0.016572496 0.19964653 0.82576001 -0.52750516 0.00085358205
0.037478935 -0.049919873 -0.016370522 0.35436636 0.7933771 -0.49495178 0.0013875384
0.039548982 -0.050587568 -0.0156739 0.46905434 0.76211393 -0.4462851 0.0013819936
0.016780987 -0.04771357 -0.015380704 -0.083694927 0.83833259 -0.53869623 0.0001079283
0.019595129 -0.047632102 -0.015577951 -0.045479219 0.8454318 -0.53214353 8.486482e-05
0.02251157 -0.047558986 -0.015636792 -0.010405029 0.85037887 -0.52606797 0.00011324717
0.025572339 -0.047563571 -0.015584419 0.020426583 0.85228711 -0.52267528 8.532084e-05
0.028625609 -0.047576755 -0.015408183 0.054078784 0.85629678 -0.51364511 0.00012720558
0.031527165 -0.047759142 -0.015335033 0.11098816 0.85688686 -0.50341487 0.00066507951
0.03355496 -0.04792035 -0.015195783 0.2198935 0.84458953 -0.48817554 0.0016379791
0.023589911 0.047771987 -0.015199055 -0.0049016899 -0.85286278 -0.52211225 0.0001542547
0.019718606 0.049052112 -0.017029954 -0.025995061 -0.84266597 -0.53780872 0.00011568093
0.022705488 0.048755579 -0.016789123 -0.012959074 -0.84737855 -0.53083116 7.8595818e-05
0.025636591 0.048456132 -0.016286703 0.01830356 -0.8466447 -0.53184378 6.5886496e-05
0.028383965 0.048793059 -0.016652642 0.049095299 -0.8486045 -0.52674478 7.5156197e-05
0.031604964 0.048902851 -0.016470211 0.10504845 -0.84509742 -0.52419001 0.00026539387
0.034552142 0.049409315 -0.016481182 0.23023377 -0.82636267 -0.51392335 0.0013707057
0.037759632 0.050381184 -0.016208611 0.40003875 -0.7971617 -0.45221928 0.0011786504
0.039686032 0.050904639 -0.015346046 0.52210456 -0.76129615 -0.38449314 0.0016409948
0.038145322 0.051488969 -0.017694533 0.34005287 -0.78627044 -0.51589042 0.0010851291
0.040745419 0.052315027 -0.016532926 0.52866864 -0.73451793 -0.42543256 0.0018916478
0.042580418 0.05334834 -0.015868619 0.61395848 -0.68602926 -0.39040858 0.0010607217
0.043965429 0.055217672 -0.016677467 0.69973177 -0.61560082 -0.36250666 0.0020734691
0.045551967 0.056464132 -0.015699016 0.7602967 -0.56093121 -0.3275747 0.0021345555
0.046554435 0.058488648 -0.016468888 0.81109232 -0.48779032 -0.32278433 0.0021406161
0.047660489 0.060990859 -0.016937999 0.89336437 -0.3360267 -0.29830557 0.0034982238
0.048315119 0.062065411 -0.016021753 0.93243945 -0.27046451 -0.2395948 0.005004196
0.048679337 0.06453044 -0.016482377 0.98070723 -0.088146709 -0.17448048 0.0047611385
0.04864442 0.067451008 -0.016455194 0.97708863 0.13875084 -0.16138768 0.0046707359
0.047483142 0.070905775 -0.016682936 0.87850028 0.42237401 -0.22324301 0.0051567541
0.048243601 0.069487624 -0.016174415 0.91343051 0.3518537 -0.20455718 0.0064816289
0.017935466 0.07458353 -0.016282957 -0.40515217 0.74472344 -0.53031951 0.00029305005
0.01930945 0.074384443 -0.017654683 -0.39065227 0.75410873 -0.52793068 0.00014106155
0.044491351 0.074547879 -0.01693693 0.6421771 0.7249341 -0.24915677 0.003857591
0.04599436 0.073221184 -0.016385442 0.75605804 0.61147243 -0.23340456 0.0053328834
0.019799227 0.075885005 -0.015815474 -0.39629617 0.75920564 -0.51629078 0.00010160016
0.022761304 0.076807231 -0.01665226 -0.35751614 0.77210909 -0.52538544 0.00020993863
0.025388634 0.077511176 -0.017305508 -0.29408586 0.7922768 -0.53461301 0.00080770138
0.038185399 0.077736162 -0.017483702 0.29204825 0.87608445 -0.38364553 0.0014250763
0.040698908 0.077131368 -0.016554961 0.39307517 0.85210824 -0.34554803 0.0012453259
0.043173034 0.075784057 -0.016340097 0.5544064 0.77918142 -0.2924206 0.0031229488
0.025802126 0.078657925 -0.015788071 -0.26271281 0.83564645 -0.482366 0.0013738596
0.028600326 0.07894446 -0.016405612 -0.12809528 0.86706001 -0.4814547 0.0012008133
0.031586714 0.079238579 -0.016363334 0.026742391 0.90167677 -0.43158293 0.0022195433
0.03455266 0.078975931 -0.016498053 0.13182741 0.90348649 -0.40784037 0.0019814712
0.037594672 0.078551881 -0.015998421 0.27845302 0.89653397 -0.3445152 0.0020156016
0.039293479 0.078240193 -0.01531704 0.37224528 0.88202643 -0.28889933 0.0035142011
0.040811457 -0.077489987 -0.013806944 0.49353448 -0.85529304 -0.15778972 0.0027164172
0.043395374 -0.075862661 -0.013322085 0.65813494 -0.75143468 -0.046950024 0.0039258692
0.044566661 -0.074854963 -0.01370744 0.69966233 -0.71325672 -0.041682445 0.0050492901
0.04599683 -0.073275104 -0.013411909 0.79501611 -0.60651559 0.0093946857 0.0060393307
0.047597017 -0.070685096 -0.013524477 0.90821487 -0.4157989 0.047507729 0.0055528567
0.048204429 -0.069419697 -0.013694584 0.94695961 -0.31195688 0.077138841 0.0059263292
0.048691746 -0.067380048 -0.013481674 0.98137426 -0.17512371 0.078969941 0.0040994952
0.048951045 -0.064402387 -0.013481797 0.99844348 0.018368045 0.052661099 0.0037949996
0.048571091 -0.061473116 -0.013492751 0.98278755 0.18316576 -0.024061501 0.0056949556
0.047406536 -0.058208603 -0.013514124 0.89242786 0.43193904 -0.1303885 0.0030215904
0.048133254 -0.059813302 -0.013143263 0.94357866 0.32478985 -0.064582519 0.006177552
0.044750441 -0.054340795 -0.014265269 0.74763352 0.63029665 -0.20921336 0.0027020294
0.045933764 -0.055640612 -0.013422687 0.8197965 0.54737395 -0.16827175 0.0041370536
0.04164331 -0.051382076 -0.014447175 0.59062231 0.73554212 -0.33187824 0.0037373193
0.043450147 -0.052637581 -0.013422888 0.68911648 0.680399 -0.24935076 0.0018247245
0.004625849 -0.048964489 -0.013206506 -0.27022126 0.76517618 -0.58436799 0.00050630746
0.0075211069 -0.04856709 -0.014093093 -0.22123413 0.78903419 -0.57313222 0.00039778955
0.010377297 -0.048212841 -0.014635079 -0.18436848 0.80363983 -0.56583691 0.00039022806
0.035571188 -0.048122201 -0.014658763 0.25323826 0.85902375 -0.44491422 0.0032061997
0.03786255 -0.048634391 -0.013682625 0.43941298 0.82790285 -0.34855855 0.0024169621
0.040439047 -0.050037455 -0.013326786 0.56099832 0.76740253 -0.31044191 0.0020393247
0.042112969 -0.050824262 -0.012138665 0.63670361 0.73802799 -0.22343491 0.00456953
0.0058728205 -0.047660433 -0.012163145 -0.27027693 0.76511782 -0.58441871 0.00054005213
0.0076342481 -0.047484331 -0.012593763 -0.20637171 0.80254483 -0.55976117 0.00042164297
0.010763928 -0.047129162 -0.013118897 -0.16436356 0.82121509 -0.54643428 0.00014330659
0.013556397 -0.046966419 -0.013595984 -0.12104618 0.83380997 -0.53861755 0.00014065779
0.016499897 -0.046559013 -0.013503588 -0.075156137 0.84659356 -0.52690685 6.8099194e-05
0.019192787 -0.046233464 -0.013329535 -0.029178061 0.85549909 -0.5169816 0.00013166819
0.02250845 -0.046223957 -0.013436191 -0.0011149768 0.85770351 -0.51414341 0.00012155087
0.025518158 -0.046377957 -0.01360146 0.035135847 0.86690921 -0.49722627 0.00020594615
0.028547367 -0.046344358 -0.013344006 0.080386132 0.88204539 -0.46425638 0.0012085069
0.031479221 -0.04672718 -0.013540854 0.12574755 0.88699716 -0.44432369 0.0014109773
0.034509759 -0.047139633 -0.01330993 0.24948372 0.88941306 -0.38301721 0.0027693734
0.036776915 -0.047663927 -0.012721538 0.36472303 0.8558619 -0.36671171 0.0030349416
0.020404926 0.046987422 -0.013789598 -0.017303728 -0.85456413 -0.51905751 7.3525291e-05
0.022729373 0.046380483 -0.012855988 0.013953468 -0.86503631 -0.50151521 0.00017792807
0.025521629 0.046871692 -0.01364324 0.030424532 -0.86785764 -0.49588057 0.00026053691
0.028414743 0.047231983 -0.014067113 0.064293459 -0.87611198 -0.47780141 0.00090011809
0.031435672 0.047335822 -0.01384369 0.12671496 -0.88608164 -0.44587296 0.0017473934
0.035006426 0.047463901 -0.012676767 0.30832145 -0.8902725 -0.3351908 0.0044272924
0.036229625 0.047672328 -0.012308305 0.37381262 -0.87031305 -0.32065457 0.0070213298
0.03536864 0.048165902 -0.013967956 0.2926234 -0.86979258 -0.39728138 0.0030455105
0.037732586 0.048949953 -0.01354222 0.42625475 -0.83192956 -0.35524645 0.0015415684
0.040069394 0.050247576 -0.013417985 0.528997 -0.78200346 -0.32959485 0.0017410798
0.041535988 0.051399723 -0.01363128 0.62253302 -0.7297377 -0.28272873 0.0021224476
0.043385159 0.052945212 -0.013258316 0.70959365 -0.66646796 -0.22868598 0.0030899539
0.044608254 0.054418158 -0.013760912 0.74832052 -0.63234842 -0.20037904 0.0025093912
0.045808811 0.055864405 -0.013371262 0.82223332 -0.54465485 -0.16517703 0.0039864113
0.047320317 0.058457643 -0.013499987 0.89746976 -0.4280965 -0.10621411 0.0035213295
0.048025865 0.059549704 -0.012506877 0.92943454 -0.36872235 -0.013975388 0.0058077513
0.047957242 0.060193818 -0.014802572 0.92227364 -0.37318164 -0.10073088 0.0071885828
0.04850373 0.061587434 -0.013429065 0.97849566 -0.20564523 -0.016006511 0.0046284422
0.048944879 0.064529024 -0.013507639 0.99815381 -0.041532226 0.044317693 0.003877958
0.048759788 0.067506216 -0.013465955 0.98224717 0.16383989 0.091362245 0.0038785757
0.047581747 0.071201466 -0.013453809 0.88910258 0.45489386 0.050677247 0.0042486708
0.048255909 0.069658615 -0.013724734 0.94643104 0.31321281 0.078523785 0.0053982292
0.01299162 0.073481351 -0.013674703 -0.43834814 0.74390906 -0.50443053 0.00038289206
0.016191062 0.074530907 -0.014932317 -0.42224249 0.75241423 -0.50555336 8.402489e-05
0.044951275 0.074825019 -0.014161043 0.70698702 0.70547181 -0.049788691 0.006440972
0.046157215 0.073489904 -0.013502347 0.81004131 0.58637273 0.00025489251 0.0053592981
0.016292943 0.07576292 -0.013198865 -0.41974142 0.76248425 -0.49237683 0.00031340373
0.019238882 0.077223264 -0.013410124 -0.3924107 0.7808376 -0.4861137 0.00052146247
0.021965291 0.077683985 -0.01476485 -0.3497428 0.79090303 -0.50214773 0.00011095078
0.041350853 0.077642463 -0.013730806 0.49944639 0.8558414 -0.13449413 0.0028943687
0.043501526 0.076192714 -0.01347825 0.62297946 0.77870327 -0.074281715 0.0029276374
0.045024659 0.075040556 -0.013063825 0.69436198 0.71897703 -0.030554246 0.0048187058
0.020095076 0.078388415 -0.012222362 -0.35871953 0.81836766 -0.44899294 0.0013146672
0.022606818 0.079081625 -0.012952243 -0.32943198 0.83873653 -0.43358466 0.0012274811
0.025644943 0.079871871 -0.013565461 -0.24611083 0.87691265 -0.4128603 0.0019379009
0.028574361 0.080472551 -0.013394266 -0.088003218 0.92401922 -0.37208071 0.0039617964
0.031546995 0.080486968 -0.013573826 0.076996252 0.94740695 -0.31063119 0.0029780008
0.034603778 0.080234282 -0.013270185 0.22170137 0.94637996 -0.23497538 0.0020204484
0.037631541 0.079370447 -0.013463754 0.32300061 0.9219625 -0.21367219 0.0029498655
0.039961826 0.078457125 -0.013290793 0.44703096 0.8802982 -0.15886608 0.0030952117
0.030357681 0.081016652 -0.01214878 0.032565556 0.97375512 -0.22525637 0.0022073397
0.038762942 -0.078788042 -0.0094908113 0.5732922 -0.77228141 0.27371055 0.0017116709
0.040154889 -0.078190289 -0.010107853 0.59224904 -0.79338717 0.14063431 0.0065080984
0.041272439 -0.077424929 -0.010493318 0.59908378 -0.79402393 0.10307603 0.0021073907
0.043317318 -0.075830355 -0.010471866 0.69697505 -0.6958037 0.17344475 0.0032218969
0.044773895 -0.074150242 -0.010082002 0.79430503 -0.54783863 0.26258805 0.005108098
0.045808613 -0.072862707 -0.010549449 0.83627808 -0.48073429 0.26369202 0.0039916714
0.047081757 -0.070353158 -0.010499979 0.88613546 -0.35797644 0.29430723 0.0026796053
0.048127383 -0.06905178 -0.011719421 0.93664688 -0.27074179 0.22224221 0.0067712539
0.04772399 -0.067802101 -0.0098312059 0.91583836 -0.24149819 0.32080925 0.0031882164
0.048332483 -0.067002058 -0.011097811 0.94433475 -0.18535534 0.27180013 0.0039454065
0.047869891 -0.065549664 -0.0090995533 0.91863734 -0.079659879 0.38698795 0.0033245629
0.048463073 -0.064397432 -0.010602023 0.97277594 -0.014626507 0.2312856 0.0031640723
0.047908653 -0.060508445 -0.0093956999 0.96318549 0.14556034 0.22602174 0.0067132595
0.048334464 -0.061565015 -0.010653819 0.97166717 0.10539017 0.21155596 0.0044115614
0.047448833 -0.0582687 -0.010454747 0.92416197 0.36143205 0.12365909 0.0051007695
0.048096795 -0.059746031 -0.011492256 0.95825583 0.24057974 0.1544901 0.0055769589
-0.037203513 -0.054265913 -0.0092968158 0.18975994 -0.21566452 -0.95785177 0.0024986872
0.046062689 -0.055420995 -0.010518636 0.86947244 0.49348736 0.02208758 0.0042744926
-0.051620953 -0.051352728 -0.011007198 0.65206456 0.16772135 -0.73937911 0.052363005
-0.049836162 -0.052231763 -0.0098696742 0.32984564 0.11573427 -0.93691379 0.04155406
-0.037535191 -0.052375562 -0.010037231 0.14650941 -0.084372871 -0.98560452 0.0098937023
-0.034536462 -0.052450318 -0.0094455257 0.18977624 -0.21562374 -0.95785773 0.0025021071
-0.032292366 -0.051653944 -0.0091419322 0.22139747 0.0362367 -0.97451019 0.0041646855
0.043830287 -0.05234148 -0.010508501 0.75676101 0.64830625 -0.083736815 0.0030109107
0.0451435 -0.053872973 -0.0099769551 0.80785173 0.58903819 -0.020240966 0.0038775939
-0.05161982 -0.049142197 -0.010977812 0.50572008 0.26996982 -0.81936771 0.040147472
-0.049741834 -0.049622029 -0.010057024 0.33359432 0.20852019 -0.91936618 0.044776078
-0.044026207 -0.048893999 -0.0090720821 0.10348818 0.31308842 -0.94406879 0.060761299
-0.037868343 -0.04931505 -0.010480128 0.17469923 0.24967724 -0.95243973 0.01811358
-0.034975044 -0.049394395 -0.0098153763 0.20853932 0.20362768 -0.95658094 0.00788227
-0.032208864 -0.049346104 -0.0091798436 0.18613063 0.25613433 -0.94855183 0.012405832
-0.00085773086 -0.048586987 -0.0095946947 -0.2784673 0.73735261 -0.61544061 0.0008669658
0.0014047581 -0.048477899 -0.010851883 -0.28184873 0.7639429 -0.58047616 0.00030174974
0.038633462 -0.048170205 -0.011508036 0.48106697 0.84976703 -0.21557027 0.0041856966
0.040529858 -0.04924025 -0.010474929 0.59451663 0.7911334 -0.14372864 0.0027818561
0.042302173 -0.050680514 -0.010281906 0.68548959 0.7221784 -0.092533529 0.0034354655
-0.051880181 -0.046956513 -0.0098718302 0.54783267 0.48101228 -0.68447542 0.044928711
-0.049892977 -0.047279403 -0.0097630471 0.37715057 0.43862334 -0.81570035 0.03481584
-0.039091308 -0.04534471 -0.0091169868 0.00087945198 0.63223457 -0.77477658 0.02449638
-0.037384383 -0.04661309 -0.0095938714 0.14171569 0.53074259 -0.83560097 0.016243599
-0.034626845 -0.047359616 -0.0093188137 0.22452775 0.42664778 -0.87610441 0.0064445576
-0.00011715154 -0.047918376 -0.0093955966 -0.29356548 0.73883992 -0.60657638 0.0010134137
0.0016958918 -0.047285825 -0.0096455263 -0.27003562 0.75999624 -0.59117383 0.00065020163
0.0046935659 -0.046662651 -0.010197394 -0.24970374 0.78866202 -0.56183642 0.00031234202
0.0074180234 -0.045976289 -0.010280188 -0.18973842 0.81779462 -0.54333353 0.00011333282
0.010368425 -0.045727685 -0.010858729 -0.15279248 0.82805538 -0.53942448 0.00013441773
0.013545657 -0.04552982 -0.011333788 -0.10945372 0.84106791 -0.52974021 0.0001121391
0.016630366 -0.045278423 -0.01145675 -0.071472436 0.85072827 -0.52072352 0.00013764959
0.019575326 -0.045189019 -0.011624788 -0.022118209 0.8616401 -0.50703764 0.00029198674
0.022462744 -0.045184333 -0.011657596 0.0082301479 0.87273443 -0.48812589 0.00031172999
0.025614968 -0.045213904 -0.011646141 0.053652897 0.89057523 -0.45166036 0.0013327174
0.028746121 -0.045303259 -0.011243894 0.11330614 0.92091519 -0.3729302 0.0030122455
0.031599212 -0.045549531 -0.010582219 0.20347324 0.94005859 -0.2736578 0.0039595994
0.034596298 -0.046207238 -0.010505814 0.28531224 0.93347013 -0.21732566 0.0037373358
0.037451982 -0.047277797 -0.01040678 0.4062103 0.89284092 -0.19449493 0.0035997741
0.039035432 -0.047870021 -0.0094480542 0.5350064 0.82637078 -0.17572588 0.0044707288
0.0084818378 -0.04493019 -0.0090667875 -0.18481117 0.82012707 -0.5415132 0.00018534978
0.010758601 -0.04473374 -0.0094283 -0.13864009 0.83504838 -0.53242195 0.00014648563
0.013624595 -0.044559866 -0.0097980574 -0.098052889 0.84794873 -0.52093047 0.0001317311
0.016631769 -0.044425569 -0.010033043 -0.055226233 0.86126548 -0.50514543 0.00025573332
0.019695202 -0.044241954 -0.010010281 -0.0017516629 0.87950122 -0.47589338 0.00061191659
0.022639504 -0.044341728 -0.010203908 0.043834705 0.89467061 -0.44457045 0.0014159605
0.025480187 -0.044459715 -0.010106629 0.10277475 0.91600353 -0.38778201 0.0024411401
0.028349021 -0.044686574 -0.0097155692 0.17409116 0.93385303 -0.31242725 0.0027415773
0.030950019 -0.044976894 -0.0091638574 0.2234326 0.96357834 -0.14695132 0.0025639448
0.02207784 0.04472632 -0.010022575 0.02721652 -0.8868022 -0.46134707 0.0017214098
0.025396947 0.044735517 -0.0096620386 0.09748853 -0.91853929 -0.38312092 0.0034685577
0.027803015 0.044925295 -0.0093130851 0.17703456 -0.95929348 -0.22003363 0.0039736847
-0.052304294 0.047596652 -0.0099770287 0.48083347 -0.10155404 -0.870911 0.016571345
-0.049437109 0.047273684 -0.0093548661 0.49227965 -0.10268623 -0.8643589 0.017737446
-0.037424639 0.047096699 -0.0096319513 0.085462123 -0.49579844 -0.86422229 0.021770973
-0.03451572 0.047716454 -0.0092696724 0.18574183 -0.49983534 -0.84596968 0.0053248848
0.017921872 0.04571205 -0.011499641 -0.0042225071 -0.86584818 -0.50028908 0.00055501156
0.020710485 0.045413595 -0.011224606 0.0077965339 -0.87595636 -0.48232737 0.00044134047
0.025766298 0.04556933 -0.011350705 0.082022898 -0.90524769 -0.41689202 0.0018837412
0.028770601 0.04572155 -0.011082397 0.10501744 -0.91996819 -0.37766376 0.0026606903
0.031834904 0.0459412 -0.010085743 0.27079085 -0.94485897 -0.1841573 0.0045676799
0.034834616 0.046723977 -0.010480183 0.31976151 -0.92906427 -0.18598975 0.0028451914
0.037108094 0.047519274 -0.010249216 0.42961812 -0.88955057 -0.155332 0.003974203
-0.05157271 0.050042067 -0.011045656 0.47150293 -0.019348528 -0.88165224 0.01744849
-0.049737468 0.049552165 -0.010037919 0.4745253 0.14651942 -0.86796188 0.019062918
-0.036806535 0.049738832 -0.010258522 0.1731652 -0.050754838 -0.98358417 0.011289588
-0.034064569 0.049922295 -0.0096528046 0.1648519 -0.031582642 -0.98581254 0.0052380175
-0.032521218 0.048849933 -0.0091733728 0.22125904 -0.32325542 -0.92008173 0.0052988832
0.038627408 0.048423842 -0.010689473 0.49095979 -0.85499513 -0.16715804 0.0033634077
0.040639862 0.049762513 -0.010438843 0.59023219 -0.79583532 -0.1351742 0.0026060373
0.042389039 0.05099402 -0.0092907296 0.73288244 -0.67938203 -0.036378231 0.0027984579
-0.051784009 0.052934147 -0.010573577 0.47648141 0.35581091 -0.80396771 0.050279118
-0.049834311 0.052477039 -0.0099144159 0.48986813 0.28637981 -0.82341719 0.016973369
-0.037269294 0.052144375 -0.010177766 0.14186259 0.012061273 -0.98981285 0.0079169441
-0.035164252 0.051919274 -0.0097849891 0.16369312 -0.012731043 -0.98642921 0.0061619608
0.041977763 0.051042289 -0.011513986 0.69214481 -0.71517169 -0.097288683 0.0036824767
0.043595701 0.052528799 -0.010493129 0.76886261 -0.63834035 -0.037039503 0.0026605716
-0.051796433 0.054493207 -0.0094387652 0.47919554 0.60218042 -0.63855332 0.069263488
-0.050102986 0.054497264 -0.0093256235 0.44602305 0.50687283 -0.73766071 0.025860053
-0.03911512 0.054732163 -0.009584141 0.076143041 0.46461344 -0.88223386 0.024285018
-0.037937023 0.054684915 -0.0094104679 0.076047607 0.46456793 -0.88226616 0.02429411
0.044935357 0.054147884 -0.010698862 0.79467022 -0.60676974 -0.018157978 0.0028009955
0.045979068 0.05571695 -0.010460217 0.86357462 -0.50339395 0.028868428 0.0037715889
0.047368091 0.058490921 -0.010456917 0.92171395 -0.37618399 0.094493769 0.0049219006
0.048026137 0.059763219 -0.011010226 0.95183796 -0.28413513 0.11520322 0.006792102
0.047908347 0.060684443 -0.0095745316 0.96751314 -0.14622998 0.20624036 0.0074416907
0.048300013 0.061733972 -0.010642066 0.97333527 -0.14233035 0.17989042 0.0063569187
0.047967277 0.065237671 -0.0092796385 0.948825 0.046821505 0.31231213 0.0032113718
0.048467193 0.064478792 -0.010570284 0.97106558 0.0055623972 0.23874821 0.0036041483
0.047761977 0.067969538 -0.0097456351 0.91543472 0.19946763 0.34955969 0.0029917855
0.04834329 0.067273922 -0.011012559 0.94973952 0.15806225 0.27020589 0.0039427462
0.047167044 0.07058271 -0.010431909 0.8847447 0.34048387 0.31827289 0.0022749109
0.048075017 0.069237739 -0.01164816 0.92740691 0.28541306 0.24177651 0.0056860768
0.04475962 0.074587584 -0.0099651767 0.76445353 0.61068201 0.20658724 0.0037722595
0.045834422 0.073271208 -0.010578894 0.82105678 0.51978976 0.23597538 0.0045676907
0.013753626 0.076331936 -0.010165381 -0.43291387 0.78016835 -0.45157832 0.0013010663
0.016273737 0.077480577 -0.010507938 -0.38730541 0.82209319 -0.41732165 0.0014281296
0.018342372 0.0777523 -0.011845079 -0.39529032 0.7908811 -0.46717525 0.00059775525
0.041542027 0.077672295 -0.010215755 0.57967484 0.81198072 0.068295382 0.003414046
0.043367986 0.076206587 -0.010515499 0.67519581 0.72739834 0.12248433 0.0052384473
0.017142357 0.078362852 -0.0094919475 -0.35880497 0.87113887 -0.33522549 0.0015355544
0.019532774 0.079001695 -0.010271098 -0.35083026 0.87076229 -0.34451571 0.0015217685
0.022544023 0.08002913 -0.010435053 -0.29114598 0.92459649 -0.24567324 0.0018380505
0.025032179 0.080734044 -0.010783709 -0.26060459 0.94250965 -0.20919101 0.0032634388
0.02701607 0.080923147 -0.011833441 -0.17809568 0.94796383 -0.26390648 0.008667931
0.032653961 0.080958307 -0.011591387 0.11906277 0.98163092 -0.14907977 0.0020927568
0.035013381 0.080688588 -0.010502126 0.29478043 0.95313758 -0.068068616 0.0032228569
0.03765754 0.07977476 -0.010535248 0.37159014 0.92771322 -0.035623517 0.0026378008
0.0401293 0.07859391 -0.010525971 0.49795994 0.86694121 0.021186696 0.003630643
0.026396129 0.081266381 -0.0098128123 -0.18213437 0.96565729 -0.18529177 0.004078194
0.028708771 0.08151482 -0.0099278986 0.046116062 0.99273854 -0.11110155 0.0054022265
0.031439699 0.081284493 -0.010659178 0.12305042 0.98633957 -0.10951186 0.0030355342
0.033401001 0.08116588 -0.0097127054 0.20294124 0.97679329 -0.068480983 0.0040697297
0.038069673 -0.078973383 -0.0078491652 0.5465951 -0.80158859 0.24225913 0.0055557871
0.039145656 -0.078444362 -0.0079550734 0.58551532 -0.75521469 0.29465684 0.0033670682
0.040905304 -0.076961502 -0.0071810638 0.61465329 -0.7298398 0.29922435 0.004608748
0.04260315 -0.075671107 -0.0077615674 0.66104144 -0.67540467 0.32688341 0.0050588958
0.044109166 -0.073487438 -0.0074397917 0.77476466 -0.478686 0.41303688 0.0034805459
0.045368526 -0.072406374 -0.0086106351 0.79899704 -0.45559406 0.39247656 0.0034140509
0.044660818 -0.071541451 -0.0065344363 0.794029 -0.36546135 0.48575285 0.0028140729
0.045821231 -0.070259944 -0.0076014218 0.82691795 -0.32381421 0.45972943 0.0017733942
0.046703588 -0.067420669 -0.0075598285 0.85235524 -0.22478482 0.47218892 0.0018216103
0.047194302 -0.064492129 -0.007483603 0.89215326 -0.076678529 0.44517735 0.002568583
0.047330569 -0.061456788 -0.0075390493 0.9205327 0.066451393 0.38497224 0.0051901224
0.04684158 -0.058419596 -0.0075659044 0.9117406 0.2645866 0.31420204 0.0065817167
-0.049278211 -0.054355059 -0.0084403837 0.33657232 -0.19188708 -0.92189938 0.029067647
-0.034369186 -0.054956056 -0.0084806141 0.19013432 -0.21877076 -0.95707279 0.002169309
-0.031631209 -0.055230755 -0.0078555811 0.17746975 -0.21269517 -0.96086699 0.0025689318
-0.028635904 -0.055139687 -0.0075139133 0.18192115 -0.2249711 -0.95723182 0.0022513492
-0.02574962 -0.055530027 -0.0069054058 0.13153054 -0.19783594 -0.97137052 0.0036127577
-0.022422396 -0.055103786 -0.0067279032 0.13545446 -0.14949031 -0.97944105 0.0056900801
-0.019624334 -0.05505256 -0.0065144124 0.04597779 -0.085971162 -0.99523616 0.0061976793
-0.016087482 -0.054389775 -0.0066294004 0.035998326 -0.0014052381 -0.99935091 0.0036467304
0.04486623 -0.054378595 -0.0065521649 0.84564728 0.48939082 0.21301988 0.0045749932
0.045739606 -0.055571269 -0.0075817034 0.87698114 0.42093968 0.23176253 0.0048678746
-0.048912175 -0.051850654 -0.0087812729 0.33282292 0.016511153 -0.94284481 0.036398537
-0.031531706 -0.052750912 -0.0087841749 0.19890621 -0.19253807 -0.96091908 0.0038317328
-0.02855674 -0.052592207 -0.0082494533 0.19816454 -0.16776749 -0.96570438 0.0034692409
-0.025580969 -0.052096821 -0.007745686 0.17564031 0.024877388 -0.98414004 0.003700872
-0.022676332 -0.052385282 -0.0073071914 0.12096693 -0.14366257 -0.98220575 0.0063989223
-0.02013791 -0.052089423 -0.0069893505 0.095796578 0.15163985 -0.98378271 0.0053579556
-0.01657301 -0.052409746 -0.0067840004 0.028324122 0.058875151 -0.99786347 0.0050474624
-0.01347468 -0.051900256 -0.0068866489 -0.056665741 0.32643223 -0.94352049 0.0070678974
0.043771256 -0.052451193 -0.007521166 0.79434556 0.5881424 0.15199904 0.0040498176
0.045194265 -0.053951163 -0.008682834 0.80455875 0.57590002 0.14499833 0.0051582116
-0.048572533 -0.04939016 -0.0087989476 0.28919107 0.19197141 -0.9378249 0.049907997
-0.046035908 -0.048509173 -0.0085608307 0.10348228 0.31309175 -0.94406831 0.060758621
-0.044589464 -0.048051465 -0.0087923678 0.097764865 0.57583874 -0.81169689 0.048539132
-0.030444598 -0.049676396 -0.0088332891 0.26727289 0.12684615 -0.95523572 0.0070200395
-0.028561415 -0.049166143 -0.0083229924 0.22307454 0.23520635 -0.94599986 0.0068356795
-0.025641464 -0.049370594 -0.007731454 0.17173153 0.28441256 -0.94319552 0.0099952407
-0.022465566 -0.049074993 -0.0070947008 0.15924899 0.24842089 -0.95547199 0.007647275
-0.019727577 -0.049341887 -0.0066758557 0.1346947 0.32435676 -0.93629587 0.011081208
-0.016613144 -0.049072504 -0.0063398252 0.058478538 0.34516558 -0.93671823 0.0075485464
-0.013659364 -0.049103536 -0.0062789931 -0.042047646 0.37519035 -0.92599362 0.010023262
-0.010735847 -0.049243659 -0.0065245917 -0.11569981 0.48419002 -0.86727941 0.0074778786
-0.0076106424 -0.048730843 -0.006894215 -0.17609392 0.60927641 -0.77315795 0.0023566296
-0.0044606598 -0.048426226 -0.0077025918 -0.22852288 0.68795657 -0.68883461 0.0024993431
0.040591706 -0.049132857 -0.0074533559 0.60615158 0.79013187 0.090950087 0.0038355961
0.042259667 -0.050613191 -0.0076923412 0.71010858 0.69521171 0.11147422 0.0044231918
-0.051564798 -0.045536544 -0.0077561783 0.18982394 0.74699014 -0.63715982 0.03928341
-0.04920806 -0.045915525 -0.0078350492 0.27186868 0.70707625 -0.65278673 0.038299546
-0.046725102 -0.046185803 -0.007289866 0.10038225 0.70252073 -0.70454806 0.033451643
-0.044028752 -0.046056561 -0.0075531807 -0.1909256 0.68347389 -0.70456433 0.017961115
-0.037197106 -0.045260713 -0.0085753705 0.12111652 0.66903281 -0.73329788 0.026542429
-0.034400739 -0.045729257 -0.0082519101 0.210838 0.5041818 -0.83746523 0.0099394433
-0.031424992 -0.046284758 -0.0078446139 0.21773012 0.52040219 -0.82569677 0.00822403
-0.028446745 -0.046423703 -0.0072034113 0.20047301 0.52816546 -0.82513744 0.0088066552
-0.025590444 -0.046769544 -0.0067731463 0.16298231 0.50720036 -0.84627688 0.0061702011
-0.022641033 -0.047127746 -0.006412887 0.15556464 0.49841931 -0.8528645 0.0057828324
-0.020127404 -0.047707766 -0.0062448569 0.13501549 0.3986516 -0.90710956 0.015080003
-0.009372009 -0.047794573 -0.0060205674 -0.10711714 0.59319586 -0.79790008 0.0032662069
-0.0067369347 -0.047842361 -0.0065775034 -0.1835293 0.62096387 -0.76205045 0.0020263393
-0.0040847352 -0.046993852 -0.006699793 -0.23780616 0.69699836 -0.67649209 0.0026905728
-0.0008588268 -0.04630737 -0.0071748453 -0.24923417 0.74734384 -0.61592174 0.0016673417
0.0013000355 -0.046036284 -0.0077693537 -0.26091874 0.76574707 -0.5878374 0.0007459739
0.0041881204 -0.045494616 -0.0083118249 -0.22836976 0.79671508 -0.55954659 0.00017777446
0.032313999 -0.045202333 -0.0075052809 0.29582259 0.95415223 -0.045635685 0.003440486
0.034563001 -0.045916665 -0.0075541325 0.34167627 0.93978739 -0.0075540151 0.0033443745
0.037591618 -0.047137726 -0.0074287467 0.45559341 0.88914025 0.043177489 0.0038974129
0.039158925 -0.047949135 -0.0077041169 0.56894439 0.81942225 0.069637462 0.004466597
-0.049989354 -0.044936769 -0.0062534786 0.085523948 0.86870354 -0.48789325 0.0060345135
-0.047463544 -0.044940639 -0.0062640971 0.11580599 0.80946034 -0.57564133 0.025182711
-0.039777584 -0.043789886 -0.0070435852 -0.12717317 0.80772614 -0.57567829 0.010794234
-0.037656941 -0.044158474 -0.0072291633 0.098063968 0.8309955 -0.54756725 0.0063660555
-0.034683086 -0.044423677 -0.0069237081 0.14572054 0.76976842 -0.62146777 0.007176639
-0.031644721 -0.044690114 -0.0065082591 0.13855708 0.7358802 -0.6627838 0.0036379597
-0.029329985 -0.044704624 -0.0060156733 0.15036662 0.71979284 -0.67770809 0.001934505
0.0018476469 -0.044807419 -0.006327563 -0.23412381 0.7866984 -0.5712195 0.00017087618
0.0047671348 -0.044302262 -0.0068183127 -0.21543825 0.80416733 -0.55398679 0.0001676595
0.007668579 -0.043936364 -0.0073011224 -0.17396849 0.82207143 -0.5421564 0.00014195856
0.010634099 -0.043535035 -0.0075041037 -0.12576534 0.83981049 -0.52811128 5.8849779e-05
0.01362442 -0.043211639 -0.0075791879 -0.086791284 0.85369557 -0.51348919 0.00013179153
0.016205342 -0.042814028 -0.0072833304 0.0070231953 0.8985759 -0.43876189 0.00093825004
0.019587161 -0.042798061 -0.007272352 0.057398032 0.91827041 -0.39177144 0.0024170319
0.022601396 -0.043120738 -0.0074591744 0.11493386 0.93911237 -0.32381794 0.0033139542
0.025584495 -0.043562979 -0.0074495669 0.17487521 0.94803619 -0.2657932 0.0039715436
0.028499952 -0.044152588 -0.0073553361 0.21882217 0.95968813 -0.17639619 0.0031242047
0.030781524 -0.044755146 -0.0074469387 0.25251496 0.96049917 -0.11695086 0.0034324899
-0.03460202 -0.013423983 -0.006298725 0.20057428 -0.22156237 -0.95429564 0.00014755949
-0.032596856 -0.01234805 -0.0061049457 0.22173171 -0.21142809 -0.95191032 7.2207091e-05
-0.034226641 -0.010581869 -0.0068053827 0.21628459 -0.19337605 -0.95698833 8.2794926e-05
-0.031547859 -0.0099450443 -0.0063505648 0.24188964 -0.16424789 -0.95630121 8.7915927e-05
-0.034116264 -0.0077067963 -0.0073202024 0.20496371 -0.16926201 -0.96402293 0.00018167324
-0.031468276 -0.0074494914 -0.0068174726 0.22573422 -0.15551487 -0.96169609 0.0002282245
-0.029031353 -0.0072921067 -0.0061989892 0.25944754 -0.15550384 -0.95315558 0.0001539324
-0.033989429 -0.0043171593 -0.0077571203 0.22423799 -0.086818486 -0.97065955 0.00055862172
-0.031475779 -0.0045406497 -0.0072448049 0.2351151 -0.11385696 -0.96527588 0.00028966158
-0.028581211 -0.0044662445 -0.0064538908 0.26738587 -0.10589975 -0.95775265 0.00012370199
-0.034085438 -0.0014123262 -0.0080520855 0.19813602 -0.038460117 -0.97941971 0.0015126575
-0.031422157 -0.0015047767 -0.0074915891 0.24062996 -0.049880769 -0.96933436 0.00029582367
-0.028334411 -0.0016141143 -0.0066315699 0.26148519 -0.052096505 -0.96380055 0.00027237486
-0.026539654 -0.00044069299 -0.0062057893 0.2628628 -0.04800282 -0.96363837 0.0002981557
-0.033818536 0.0016183853 -0.0080928206 0.21312147 0.021170886 -0.97679633 0.0013286195
-0.031489931 0.0014837345 -0.0075282175 0.2423324 0.023864774 -0.96989971 0.00033996435
-0.028449519 0.0016100087 -0.0067004194 0.25406575 0.027836701 -0.96678632 0.00020030976
-0.026489347 0.0010402189 -0.0062074345 0.25956774 0.01485716 -0.96561068 0.00033578376
-0.033896346 0.0048268479 -0.0078698695 0.22925164 0.11015674 -0.96711385 0.00022905204
-0.031553559 0.0043187034 -0.0073555564 0.2454942 0.089198969 -0.96528554 0.00010077668
-0.028323455 0.0044877268 -0.0064917421 0.25279209 0.079788834 -0.96422505 0.00013647327
-0.033950571 0.0072663738 -0.0075737578 0.22068729 0.12558183 -0.96722615 0.00023208941
-0.031456087 0.0075276005 -0.0069715409 0.23291583 0.12447423 -0.96449798 0.00010690842
-0.028619869 0.0071873022 -0.0062814695 0.24157453 0.1158462 -0.9634425 6.7455127e-05
-0.034037203 0.010583782 -0.0070788767 0.15008964 0.18534425 -0.97114396 0.0018083518
-0.03152892 0.010424699 -0.0065658861 0.21676853 0.16042197 -0.96295184 0.00012139188
