# .PCD v0.7 - Point Cloud Data file format
VERSION 0.7
FIELDS x y z normal_x normal_y normal_z curvature
SIZE 4 4 4 4 4 4 4
TYPE F F F F F F F
COUNT 1 1 1 1 1 1 1
WIDTH 564
HEIGHT 1
VIEWPOINT 0 0 0 1 0 0 0
POINTS 564
DATA ascii
-0.044045392 -0.036832165 0.010167607 -0.70958233 0.65028888 -0.27132484 0.02908189
0.0081646116 -0.036409572 0.0097125135 0.54215103 0.64842874 -0.53442717 0.04650864
0.010540196 -0.03717481 0.010224239 0.57428366 0.75692308 -0.31187466 0.052948091
0.012469202 -0.03887032 0.0094194338 0.529311 0.83583891 0.14561296 0.009755889
-0.043569863 -0.034483429 0.010441519 -0.92334539 0.20508507 -0.32461277 0.024571249
0.0081645111 -0.034615666 0.01014592 0.64519644 0.056151424 -0.76195055 0.050709784
0.010405999 -0.034273174 0.010449816 0.58409667 0.0021183714 -0.81168133 0.06864284
0.01263816 -0.033408877 0.011659723 0.52717131 -0.27994096 -0.80232382 0.027490033
-0.04357934 -0.031490952 0.01046373 -0.9336822 -0.00029886366 -0.35810268 2.5670608e-06
0.0080843689 -0.031306047 0.0097407838 0.34999153 -0.16278587 -0.92250025 0.032165587
0.01057191 -0.031496916 0.0097165052 0.31949881 -0.18548436 -0.9292556 0.019981984
0.01298165 -0.031110797 0.010778704 0.46572828 -0.20881972 -0.85993689 0.014245253
-0.043595929 -0.028590718 0.010504563 -0.93368298 -0.00027885611 -0.35810056 5.6134031e-06
0.0080289328 -0.028408611 0.0093554333 0.21205936 -0.041345909 -0.97638178 0.028868841
0.010981011 -0.029004145 0.009277001 0.40811044 -0.076569028 -0.90971595 0.013169133
0.013147729 -0.028335467 0.010017216 0.4862045 -0.075581737 -0.87057024 0.0089317858
0.015146567 -0.027499272 0.011775633 0.52166009 -0.088213317 -0.84858066 0.012174073
-0.043607857 -0.025657941 0.010509311 -0.92740244 -0.10993762 -0.35754487 0.0062925573
0.0080507398 -0.025308872 0.0091772005 0.2738826 -0.0052072071 -0.96174908 0.028890096
0.01038271 -0.025498873 0.0094516473 0.17888662 -0.023810498 -0.98358154 0.019287687
0.012921646 -0.025617113 0.0095790671 0.44956779 -0.038443293 -0.89241856 0.010006942
0.015558198 -0.024990061 0.011856434 0.72817302 0.025098313 -0.68493372 0.0059350468
-0.045216486 -0.021684567 0.011371981 -0.96860826 -0.13682967 -0.20754674 0.0097397817
-0.044428188 -0.022400623 0.010043965 -0.91997069 -0.1851185 -0.34552145 0.0083819004
0.008113821 -0.022411158 0.009214662 0.22927636 -0.0059193298 -0.97334337 0.034122482
0.01059116 -0.0225098 0.0094582811 0.2150196 0.024611296 -0.97629958 0.020158984
0.01289364 -0.022328654 0.0096092522 0.45535481 0.074679092 -0.88717246 0.010337415
0.015510987 -0.023220628 0.011906093 0.73794788 0.080628447 -0.67002392 0.0049503529
-0.045237456 -0.019532079 0.011392416 -0.99050224 -0.027893195 -0.13463777 0.008576571
-0.044661373 -0.019560045 0.0099237496 -0.94267237 -0.037960455 -0.33155361 0.0095794518
0.0080601964 -0.019471336 0.0094294371 0.34352744 0.064978234 -0.93689203 0.036478575
0.011014563 -0.018979847 0.0093357135 0.34196872 0.12494976 -0.93136728 0.01312572
0.013164497 -0.019581024 0.010188102 0.54481882 0.1547042 -0.82415962 0.006760817
-0.045218233 -0.016492981 0.011373202 -0.98453951 0.0024028977 -0.17514594 0.0055130147
-0.044670254 -0.016497012 0.0099443318 -0.95543826 -0.0077612675 -0.29508901 0.0071110036
0.0081785358 -0.01650944 0.0099450918 0.41282129 0.19042411 -0.89068365 0.026606271
0.011096939 -0.016919969 0.009854068 0.39954752 0.16514082 -0.90171516 0.010846297
0.012902553 -0.016836392 0.010870812 0.51576453 0.19870715 -0.83336812 0.0083861416
-0.045227084 -0.01352357 0.011393938 -0.98883474 -0.0033089251 -0.14897949 0.006051308
-0.044661924 -0.013462978 0.0099202348 -0.96267289 0.0051694964 -0.27061811 0.0067818873
0.0082153259 -0.013587323 0.010328734 0.64793813 0.1158412 -0.75283271 0.02506993
0.010581528 -0.014000624 0.011166 0.47518125 0.33777833 -0.81247061 0.039799962
0.012291786 -0.014651496 0.011648114 0.52242911 0.50884223 -0.68421292 0.02174052
-0.045268308 -0.010526889 0.0114665 -0.9924022 -0.0097181946 -0.12265134 0.0064584254
-0.044658363 -0.010511707 0.0099085076 -0.96015888 -0.0041905018 -0.27942351 0.0061884462
0.0081236893 -0.010594289 0.010241092 0.71734017 0.050633416 -0.69488084 0.009159659
0.010211676 -0.010227454 0.011763079 0.76936132 0.04738475 -0.63705409 0.021529794
-0.045255948 -0.007384229 0.011464155 -0.98948812 -0.0012483472 -0.1446083 0.0061474312
-0.044674207 -0.0075296573 0.0099474667 -0.96108317 -0.0067661349 -0.27617636 0.0063662757
0.008038911 -0.0075051822 0.010134548 0.75034034 0.00061506982 -0.66105145 0.0073763113
0.010116 -0.0073993756 0.011535852 0.81825423 0.027402416 -0.57420301 0.023896929
-0.045241285 -0.0044731437 0.011423535 -0.9880833 0.0073167421 -0.15374617 0.0056156735
-0.044657022 -0.0045325933 0.0099002505 -0.96147931 -0.0064659407 -0.27480137 0.0064318399
0.0079871723 -0.0044918181 0.010069779 0.75218904 -0.0023526007 -0.65894324 0.0082073342
0.010040902 -0.0044768807 0.011407242 0.77115458 0.0059011015 -0.63662064 0.022208553
-0.04522942 -0.001581053 0.011358365 -0.98728687 0.0034672301 -0.15891036 0.0073278127
-0.044643819 -0.0015173495 0.0098633254 -0.96402848 0.0038691722 -0.26577061 0.0067210826
0.008156471 -0.0015173365 0.0102863 0.75497246 -0.0046657291 -0.6557399 0.0087883873
0.0099895801 -0.0014333003 0.011317704 0.79299867 0.009307079 -0.60915226 0.022318009
-0.045228556 0.001511619 0.011385594 -0.9849509 -0.0098541835 -0.17255306 0.007654943
-0.044655439 0.0015122452 0.0098912362 -0.96041471 -0.0016642163 -0.27856919 0.00655352
0.0080996854 0.0014781171 0.010214368 0.73808277 -0.022058675 -0.67434955 0.0093396008
0.0099802651 0.0016974639 0.011329642 0.81662077 0.026034953 -0.57658714 0.026726853
-0.04524174 0.0045265444 0.011417352 -0.98400193 -0.0061484906 -0.17805156 0.0076861628
-0.044637877 0.0044853706 0.0098429983 -0.95794636 -0.0024736272 -0.28693667 0.0060946723
0.0080162324 0.0044769594 0.010109425 0.72940648 0.019117724 -0.68381333 0.0128158
0.010167371 0.0046655149 0.011398599 0.82581341 -0.017524114 -0.56367111 0.026577324
-0.045239653 0.0074924901 0.01137808 -0.98735994 0.0069707762 -0.15834039 0.0079249702
-0.044675767 0.0074313325 0.0099395337 -0.96036792 -0.0034236291 -0.27871448 0.0062806006
0.0080283908 0.007428153 0.010125938 0.70368385 0.010136687 -0.71044081 0.0089669852
0.0099972477 0.0077029779 0.011258063 0.86413705 -0.031720214 -0.50225592 0.031838674
-0.045254353 0.010597051 0.011445358 -0.98657525 -0.0011725657 -0.16330285 0.0078991745
-0.044671178 0.010429519 0.0099251783 -0.96087879 -0.0051665166 -0.27692103 0.0068925028
0.0079408828 0.010499983 0.010016057 0.70284325 0.012212004 -0.71123993 0.0047042593
0.0096112182 0.01051671 0.011325802 0.71081549 -0.029156882 -0.70277399 0.0095078042
-0.045225363 0.013420924 0.011367571 -0.98441738 -0.0082341582 -0.17565483 0.0078234356
-0.04464924 0.01353212 0.009844359 -0.9549638 0.0079919603 -0.29661474 0.006081522
0.0079712607 0.013604947 0.010039065 0.6332283 -0.11882079 -0.76478994 0.019352248
0.0095894346 0.013416762 0.011252393 0.62382412 -0.16646908 -0.76363045 0.018498985
-0.045266438 0.016467413 0.011415699 -0.98486066 -0.018084954 -0.17240177 0.0084256902
-0.044659544 0.016560001 0.0098691098 -0.94655836 0.016531259 -0.3221086 0.0075876447
0.008034314 0.016529689 0.0098666204 0.47679093 -0.16826862 -0.86276072 0.030078733
0.010648431 0.016522754 0.010065305 0.35223132 -0.24088077 -0.90438354 0.015205559
0.012511479 0.01716109 0.010658177 0.3836433 -0.23143154 -0.89401191 0.01398334
-0.045265552 0.019553574 0.011447027 -0.98585314 0.0613399 -0.15598409 0.012430659
-0.044662461 0.019521918 0.0098744212 -0.93911004 0.056598693 -0.33892319 0.0099553149
0.0080425851 0.019523526 0.0094755841 0.32381153 -0.061778333 -0.94410259 0.035771135
0.010794593 0.019409519 0.0094201257 0.24286188 -0.13584308 -0.96050239 0.019391123
0.013040997 0.019517422 0.010307665 0.41104785 -0.18402514 -0.89284623 0.0095021008
0.015042693 0.020992488 0.01168918 0.5792557 -0.091260597 -0.81002122 0.0060313339
-0.045204591 0.021989044 0.011294146 -0.96045417 0.16536181 -0.22401617 0.011922478
-0.044274554 0.022814034 0.010090651 -0.92157644 0.18973505 -0.33867002 0.0080111334
0.0080188429 0.022426317 0.0092119081 0.28972924 0.029109223 -0.95666593 0.038986728
0.010467315 0.022296686 0.0094327498 0.18421036 -0.047493558 -0.98173875 0.019916823
0.013033267 0.022278849 0.0097903889 0.39557347 -0.12771909 -0.90951055 0.014209198
0.015380661 0.023282476 0.011675671 0.75307769 -0.069019109 -0.6543014 0.0050263065
-0.04360285 0.025479037 0.010459874 -0.93224287 0.11859871 -0.34184447 0.0073459377
0.0077920035 0.02519042 0.0091084028 0.28344855 -0.020739973 -0.95876318 0.02627079
0.010193058 0.02544672 0.0095002865 0.17943092 0.0080840746 -0.98373735 0.01905228
0.013244851 0.025445191 0.009731587 0.46366319 0.015327225 -0.88587892 0.014495072
0.015462685 0.025510278 0.01173793 0.59886688 0.024027474 -0.80048805 0.011539456
-0.043581523 0.028410522 0.010402338 -0.92629868 0.0069432328 -0.37672603 0.0010767904
0.0080299824 0.028565768 0.0092615224 0.31630999 0.005287752 -0.94864112 0.04347609
0.010572902 0.028380238 0.0094984276 0.22813824 0.074174441 -0.97079927 0.0211388
0.013307642 0.028519468 0.010122987 0.51632649 0.1466123 -0.84374863 0.012076851
0.015360462 0.027295008 0.011846192 0.79007906 0.14102508 -0.59656268 0.0057742186
-0.043631352 0.031423815 0.010495814 -0.92462957 -0.0035432875 -0.38085127 0.0010282036
0.0081329048 0.031545654 0.0096821953 0.41011304 0.035082478 -0.91135973 0.035069428
0.010645907 0.031576786 0.0096348375 0.2959359 0.14470112 -0.94418406 0.018992215
0.01305306 0.031099871 0.010574814 0.51496911 0.2112627 -0.83076763 0.018336553
-0.043564472 0.034074206 0.010311107 -0.9304961 -0.079830356 -0.35749698 0.0074933255
0.0083832657 0.034441736 0.010189265 0.58530939 -0.00053800549 -0.81080985 0.044686269
0.010736945 0.033754382 0.010230292 0.46695238 0.080140255 -0.88064355 0.035621639
0.012459113 0.033671964 0.011313197 0.59724081 0.36065245 -0.71640301 0.012586628
-0.048568428 0.038570989 0.010796506 -0.51318449 -0.82379043 -0.24085471 0.011659246
-0.045590613 0.037597962 0.01077564 -0.61406153 -0.7196846 -0.32401001 0.027915921
-0.044220276 0.036795016 0.010058483 -0.77136344 -0.5773139 -0.26778176 0.021713678
0.010090455 0.036377676 0.01069126 0.65775228 0.11365299 -0.74461061 0.045072027
-0.051046807 0.041839056 0.010031199 -0.93152493 -0.33247089 -0.14739186 0.011840643
-0.050367679 0.040556952 0.010301193 -0.86897647 -0.46964252 -0.15593582 0.014914123
-0.037207119 0.039709054 0.0097681284 -0.51488405 0.82193542 -0.24354991 0.10693259
-0.05141788 0.043501746 0.010328099 -0.96011132 -0.24620721 -0.13254514 0.006174312
-0.051909864 0.046484675 0.010316521 -0.98460191 -0.11347175 -0.13297853 0.0044381544
-0.052076444 0.049471185 0.010490977 -0.98978209 -0.0035859223 -0.14254312 0.0046064667
-0.051953122 0.052473925 0.010406081 -0.98093009 0.12623341 -0.14778759 0.0049169613
-0.05149854 0.055496387 0.010382421 -0.96126854 0.23631097 -0.14184479 0.0073489589
-0.050987829 0.05689133 0.011919852 -0.94584227 0.28050882 -0.16339283 0.010190615
-0.051110502 0.057337061 0.01009768 -0.90323484 0.41112915 -0.12304337 0.018351771
-0.050205801 0.059126318 0.010310467 -0.79150796 0.58611101 -0.17317362 0.019864116
-0.048665043 0.060856953 0.010859334 -0.59328336 0.78185427 -0.1916215 0.0088728638
-0.04650021 0.062130626 0.010487732 -0.40191588 0.89379793 -0.19896935 0.0041252542
-0.044093437 0.06274651 0.0098528145 -0.30714568 0.91965616 -0.2447325 0.00071289414
-0.04310986 0.06339547 0.010884866 -0.30787358 0.91857201 -0.24786973 0.00069889484
-0.0405058 0.064139895 0.010466169 -0.30038622 0.91336769 -0.27482274 0.00058393367
-0.037521314 0.065114863 0.010476821 -0.28620499 0.9153378 -0.28327277 0.00050271879
-0.034911063 0.065654226 0.0098800268 -0.2609804 0.91735852 -0.30057037 0.0005210294
-0.032724224 0.065975398 0.0093725063 -0.2363877 0.92531258 -0.296509 0.00073136279
-0.036147416 0.066030495 0.011982508 -0.261002 0.95336425 -0.15157381 0.0027786738
-0.03408039 0.066309363 0.011137497 -0.25127149 0.92780125 -0.27576703 0.00069117971
-0.031510528 0.066791654 0.010492066 -0.24237885 0.92913741 -0.27920622 0.00075426133
-0.028467931 0.067640625 0.010427454 -0.25488332 0.93096393 -0.26142061 0.0014925811
-0.025567897 0.068454318 0.010273444 -0.28876653 0.92589414 -0.24358562 0.0024921326
-0.023423553 0.068814769 0.0093777673 -0.28416249 0.93176621 -0.22597241 0.0047038584
-0.024305496 0.069117062 0.011408472 -0.24721181 0.95509797 -0.16332239 0.0047826124
-0.022336101 0.069467358 0.010456916 -0.24239035 0.95379102 -0.17756566 0.0060159396
-0.019492455 0.070279919 0.010273121 -0.26025814 0.94917166 -0.17702794 0.0072079301
-0.01652134 0.071140483 0.010170023 -0.2971282 0.94997543 -0.096237607 0.0070374357
-0.014076415 0.071802668 0.010381709 -0.3026984 0.9513393 -0.057681203 0.0085017309
-0.012694031 0.072206825 0.010054247 -0.24302909 0.96997285 -0.0094643347 0.011069588
-0.010488352 0.072710611 0.010226172 -0.22918804 0.97193044 0.053143155 0.0085168732
-0.0076047815 0.073389128 0.010187656 -0.25943667 0.95906001 0.11356311 0.0060134837
-0.0044426434 0.074052572 0.010388823 -0.23283771 0.95013815 0.20742266 0.0035747823
-0.0016452132 0.074604534 0.010528103 -0.21278842 0.94195122 0.2597093 0.0027390521
0.001223591 0.074777402 0.01151847 -0.15728846 0.92688006 0.34081319 0.0024364884
0.0045997957 0.074906588 0.011744276 -0.0019059229 0.8948192 0.44642457 0.003842986
0.0079971701 0.074682958 0.011550467 0.10538843 0.87671643 0.46932024 0.0020273803
0.010767776 0.074496068 0.011003047 0.1341016 0.84709632 0.51424181 0.0014582371
0.013462896 0.07443013 0.010186431 0.15321024 0.82680875 0.54121512 0.00076656882
0.016492963 0.073832482 0.0096113086 0.18794236 0.7855559 0.58955884 0.00058889017
-0.00068733562 0.075165331 0.0094047394 -0.21288857 0.95034516 0.22698569 0.003004018
0.0014111131 0.075415142 0.010041662 -0.17054881 0.95005769 0.26134932 0.0026485045
0.0044164802 0.075726375 0.010091258 -0.066813573 0.9422645 0.32813665 0.0024929431
0.0074076648 0.075657353 0.0099535091 0.001047714 0.94126129 0.33767754 0.0019375485
0.010015968 0.075410731 0.0098330537 0.1023613 0.86820322 0.48553616 0.0022753791
0.012622398 0.075281672 0.0093388287 0.13581017 0.83785772 0.52872485 0.0015190369
-0.0072271507 -0.07232365 0.012208902 0.21841164 0.97541225 -0.029450841 0.0169066
-0.0054734256 -0.072543398 0.012504958 0.18636988 0.90812004 -0.37494567 8.3938794e-05
-0.001657658 -0.073467799 0.012113209 -0.27805462 -0.95998198 0.033470988 0.0065856716
-0.021799067 -0.069197863 0.012758051 -0.63426 0.18783844 -0.74995404 0.0099375201
-0.019983929 -0.069452152 0.012998592 0.19686125 0.97994339 -0.03092894 0.0058978391
-0.016258776 -0.070232406 0.012772146 -0.27221701 -0.94492215 -0.18171389 0.0081026368
-0.013627873 -0.070694365 0.012816094 -0.25034475 -0.95526499 -0.15746842 0.010047157
-0.010965033 -0.0712464 0.012768055 -0.25606552 -0.96653813 0.015313962 0.018706698
-0.0085142637 -0.071703866 0.012886648 0.22405261 0.94916892 -0.22108546 0.0016404879
-0.034302786 -0.066348955 0.013379764 -0.30245492 -0.82484376 -0.47765449 0.022177188
-0.030516598 -0.067219682 0.012890282 -0.25484139 -0.82266945 -0.50820363 0.039736483
-0.028692164 -0.067012042 0.013108766 -0.22362131 -0.89790469 -0.37915796 0.018041601
-0.025825247 -0.067054145 0.012156698 -0.22795695 -0.87267894 -0.43181852 0.011093025
-0.022639647 -0.068855233 0.014210526 0.088559113 0.08955849 -0.99203658 0.0074949171
-0.020781351 -0.068989776 0.014866585 0.12705012 0.98267883 -0.13490957 0.00087752048
-0.043651149 -0.063237138 0.013179898 -0.25442734 -0.87168366 -0.4188489 0.038072191
-0.04066053 -0.064159311 0.013309439 -0.26632518 -0.8830328 -0.3864246 0.032937359
-0.037475098 -0.064553395 0.013127935 -0.2395189 -0.86778539 -0.43540695 0.016208457
-0.03340612 -0.065323159 0.013197535 -0.26925382 -0.82162982 -0.50242096 0.032496952
-0.032770656 -0.065276086 0.012235885 -0.23720042 -0.85342968 -0.4641054 0.036409669
-0.04853237 -0.061055139 0.013289937 -0.63806069 -0.76813453 -0.053365663 0.016663823
-0.046740424 -0.062072784 0.012619141 -0.30853558 -0.95102406 0.018950034 0.036667336
-0.043695867 -0.061933678 0.013117572 -0.25442806 -0.87170064 -0.41881305 0.038080953
-0.040877484 -0.062925562 0.012832722 -0.28742561 -0.86786467 -0.40521288 0.033859447
-0.051531166 -0.058289655 0.01321936 -0.94057453 -0.3219617 -0.10798201 0.0099692689
-0.05070091 -0.058978334 0.012201215 -0.92301679 -0.35890263 -0.13866855 0.0097831087
-0.052173808 -0.055390634 0.013062879 -0.97286159 -0.18894041 -0.13357291 0.004437359
-0.052637514 -0.052436601 0.013074561 -0.98756832 -0.10366385 -0.11816337 0.0041975677
-0.052788984 -0.049391862 0.013070191 -0.99543679 0.021858839 -0.09288618 0.0044822455
-0.052637491 -0.046481062 0.013077903 -0.98364705 0.11854041 -0.13559751 0.0044182125
-0.052240696 -0.043460246 0.013178632 -0.96700239 0.2117933 -0.14159811 0.0055487291
-0.050944533 -0.042919558 0.012022262 -0.94999671 0.233522 -0.20730105 0.011009024
0.015848026 -0.042729523 0.012525304 0.56359804 0.72615355 0.39377442 0.0017930053
-0.051612277 -0.04059327 0.013329632 -0.88881803 0.42983758 -0.1588778 0.028518677
-0.050669681 -0.039820284 0.012221862 -0.85090077 0.45825616 -0.25684482 0.025976796
0.011628563 -0.039460156 0.01381845 0.63874984 0.69809222 0.32352129 0.028306132
0.013272515 -0.040964685 0.01307391 0.59001201 0.71734732 0.37053835 0.0074627502
-0.051144954 -0.038711853 0.013624129 -0.67868668 0.72938734 -0.085898876 0.03779443
-0.049345296 -0.038335774 0.013427191 -0.51954824 0.85016406 -0.085385427 0.025423197
-0.046542678 -0.037082162 0.013511213 -0.60231507 0.77260685 -0.20073664 0.038317811
-0.044607881 -0.036688332 0.012908085 -0.8064692 0.51288748 -0.29420042 0.041594919
0.010664934 -0.037391961 0.013293864 0.72418094 0.68075675 0.1101459 0.040379845
-0.045144323 -0.034567408 0.014511776 -0.91608912 0.16914481 -0.36355293 0.020474436
-0.044557448 -0.03455371 0.013016504 -0.9175356 0.19312677 -0.34760672 0.027030075
0.010822024 -0.035616621 0.012334007 0.64275473 -0.53891534 -0.54446006 0.057649147
0.013467047 -0.033217497 0.012661946 0.63624209 -0.29127073 -0.71439302 0.015299886
-0.045148741 -0.031373121 0.014555232 -0.94574791 -0.00074270705 -0.32490078 0.00031363344
-0.044557925 -0.031530451 0.013015245 -0.93881398 0.00026390201 -0.3444244 0.00018668744
0.014218841 -0.031206151 0.01214342 0.55061412 -0.20755683 -0.80854458 0.0078923926
-0.045177009 -0.028530287 0.014533571 -0.94467354 -0.0025567664 -0.32800221 0.00029120338
-0.044605266 -0.028510407 0.013136454 -0.93945724 0.00069940725 -0.3426654 0.00017590483
0.015420739 -0.028207012 0.012544757 0.5811733 -0.11489234 -0.80562854 0.0098227579
-0.045181848 -0.025480518 0.01458215 -0.93359357 -0.035801992 -0.35654065 0.0021808108
-0.044621181 -0.025533296 0.013141795 -0.95260483 -0.069182687 -0.29623932 0.0058870944
0.015787888 -0.025790254 0.012526629 0.67979681 -0.02941411 -0.73281038 0.0084608616
-0.045146059 -0.022453269 0.014486751 -0.95034605 -0.092961319 -0.29698586 0.012212722
-0.044741586 -0.022878557 0.013453806 -0.96644455 -0.093795747 -0.23913892 0.012417704
0.015738711 -0.021910384 0.012621433 0.80437028 0.13159586 -0.57937127 0.0094066989
-0.045376092 -0.019420126 0.013323377 -0.97503155 -0.02842691 -0.22023912 0.016274434
-0.044831641 -0.019401884 0.013649384 -0.99134892 -0.019645417 -0.12977397 0.018045351
0.014860711 -0.018790171 0.012301045 0.72819531 0.24635898 -0.63956147 0.008679267
0.015439394 -0.019580321 0.013064829 0.72478867 0.27885115 -0.63001859 0.010199227
-0.045334693 -0.016649237 0.013402801 -0.97026348 0.0093059316 -0.24187227 0.01486593
-0.044814289 -0.01650962 0.013602126 -0.98730236 0.0037685002 -0.15880755 0.017958058
0.014110618 -0.01632349 0.0130076 0.70363837 0.43386436 -0.56272089 0.014294076
-0.045315601 -0.013636434 0.013467996 -0.97353786 0.016861701 -0.22790286 0.01598037
-0.044823028 -0.013476729 0.013622431 -0.98234528 -0.0079416437 -0.1869085 0.019144457
0.01069812 -0.012958691 0.013072308 0.69530904 0.51613814 -0.50014663 0.048862111
0.01279556 -0.013914303 0.013444599 0.64108902 0.51901108 -0.56536043 0.028681809
-0.045302812 -0.01064745 0.013711665 -0.96505189 0.02656718 -0.26070878 0.015314487
-0.044813383 -0.010491095 0.013594939 -0.98751992 -0.0048224716 -0.15742028 0.01600229
0.010756917 -0.011310243 0.013253261 0.76670814 0.31073287 -0.56178617 0.037925247
-0.045348972 -0.0075251297 0.01351197 -0.96849966 0.0053051147 -0.24895853 0.015623945
-0.04484009 -0.0074597942 0.013662159 -0.98955524 -0.0028022986 -0.14412721 0.016809843
0.010575331 -0.0067667961 0.013569884 0.8451407 0.045933131 -0.53256679 0.016991295
-0.045326002 -0.0044483864 0.013713891 -0.96814179 -0.0060521895 -0.25032938 0.017251689
-0.044831339 -0.0045429738 0.013637151 -0.98613483 0.01511639 -0.16525626 0.017279401
0.010410895 -0.0044506611 0.013486582 0.82512575 0.010087604 -0.56485903 0.015731273
-0.045339689 -0.0013955726 0.013575952 -0.96254635 -0.010176342 -0.270926 0.016990999
-0.04479824 -0.0015320329 0.013548656 -0.98298019 -0.0020930625 -0.18369965 0.020619998
0.010351196 -0.0016662447 0.013491419 0.82384366 -0.015577743 -0.566603 0.015743712
-0.045553695 0.0014138991 0.013790463 -0.93913901 -0.035349783 -0.34171396 0.01841961
-0.044806074 0.0014765341 0.013566526 -0.97481972 -0.033940583 -0.22039644 0.023532931
0.010423089 0.0013970737 0.013935181 0.85870695 0.013048304 -0.51230085 0.01689665
-0.04565784 0.0045664171 0.013802725 -0.93069237 -0.012754678 -0.36558032 0.018427234
-0.044829637 0.0043420764 0.013625957 -0.97525489 0.012229102 -0.22074503 0.023358598
0.01031782 0.0044751149 0.014197409 0.90140128 0.013748362 -0.43276644 0.025538912
-0.045574799 0.0075161997 0.013662818 -0.94435817 -0.00089594867 -0.32891789 0.016532173
-0.044831023 0.0075121559 0.013627016 -0.97704953 0.0049090576 -0.21295579 0.022796743
0.010265161 0.0070029558 0.013990581 0.90837634 -0.038694192 -0.41635954 0.027235908
-0.045522917 0.010420996 0.013641263 -0.94858652 0.0031796086 -0.31650189 0.01791501
-0.044805989 0.010517856 0.013559578 -0.97530037 0.010216162 -0.22064632 0.024117351
0.010931605 0.010789325 0.013250613 0.82934648 -0.026133733 -0.55812317 0.02997957
-0.045628492 0.013384835 0.014145652 -0.93105841 0.0094223386 -0.36474854 0.0206527
-0.044812873 0.013624455 0.013574996 -0.96960104 -0.010667129 -0.24445866 0.024702489
0.011023486 0.01306355 0.013089523 0.59924901 -0.20608322 -0.77358276 0.030930519
0.012200745 0.014194285 0.012419529 0.44010985 -0.23349951 -0.86705321 0.014733783
-0.045695793 0.016400997 0.013873509 -0.92490023 0.0030963749 -0.38019717 0.018717768
-0.044828944 0.01645284 0.013609339 -0.96935928 -0.022174293 -0.24464452 0.022314996
0.013301739 0.015944313 0.012252018 0.5836274 -0.36971411 -0.72297347 0.0075071068
-0.045732591 0.019478856 0.013866815 -0.9567166 0.035659507 -0.28882813 0.02178959
-0.044833798 0.019870345 0.013664991 -0.97274834 0.049017832 -0.22662309 0.022239747
0.014386783 0.018281579 0.01206316 0.58126503 -0.2639547 -0.76971352 0.0068218331
0.015412355 0.020082759 0.012825474 0.60064507 -0.18812008 -0.77706909 0.0063106259
-0.045556806 0.022424048 0.014452847 -0.90021783 0.061867058 -0.43102229 0.018019462
-0.04463787 0.022678731 0.013154638 -0.94813997 0.11812543 -0.29508802 0.017730819
0.015668135 0.022880249 0.012231689 0.69778478 -0.044757627 -0.71490777 0.0041186903
-0.045574952 0.025537085 0.014604064 -0.8655901 0.010339683 -0.50064641 0.0041554961
-0.044589672 0.025521744 0.012998216 -0.91506118 0.069850139 -0.3972204 0.011750558
0.015764246 0.025953179 0.012316984 0.7009002 0.077939749 -0.70898831 0.0029684086
-0.045668386 0.028529216 0.014596249 -0.87422144 0.001714336 -0.48552451 0.0035208073
-0.044623561 0.028538045 0.013085024 -0.88999236 -0.001329328 -0.45597342 0.0026026291
0.015270674 0.029195178 0.012408998 0.5788511 0.18698253 -0.79370582 0.014824495
-0.045587502 0.031346686 0.01452311 -0.87834907 0.00422676 -0.47800097 0.0043482361
-0.044599134 0.031414323 0.013019718 -0.89328426 0.0032588753 -0.4494805 0.0026056885
0.014545469 0.031485729 0.012564386 0.65265679 0.30761513 -0.69239593 0.0085196737
0.015265824 0.030584235 0.013441434 0.66256601 0.24908219 -0.70637405 0.008710579
-0.045426253 0.03420268 0.014515448 -0.89035535 -0.015284103 -0.45500967 0.0077725276
-0.044585004 0.034079652 0.012931941 -0.8963145 -0.081510559 -0.43586281 0.0097035952
0.011918072 0.035646018 0.012391011 0.54033935 0.38783321 -0.74673885 0.019262465
0.013195496 0.034249172 0.012865286 0.70889324 0.42072809 -0.56609029 0.0066098934
-0.048539542 0.038359448 0.013252271 -0.51059246 -0.84868157 -0.13796727 0.0071174325
-0.046116933 0.037029941 0.013508813 -0.72708094 -0.58771652 -0.35488394 0.033200946
-0.044668011 0.036299508 0.01307236 -0.75904435 -0.52248609 -0.38840708 0.033906352
0.011312934 0.036264505 0.012285923 0.49586529 0.38164768 -0.78004026 0.020531652
0.012130198 0.036003973 0.013330655 0.54033935 0.38783321 -0.74673885 0.019262465
-0.051570594 0.040674224 0.013299799 -0.91991234 -0.38192692 -0.088843316 0.014809387
-0.050697215 0.04003429 0.012201689 -0.88904607 -0.43172538 -0.15234931 0.015587851
-0.052186657 0.043518532 0.01307079 -0.96598166 -0.22416952 -0.12894757 0.0077228444
-0.05267043 0.04654105 0.013111705 -0.98587441 -0.10040112 -0.134057 0.005493334
-0.052873362 0.049544852 0.013173459 -0.99649805 -0.0041388879 -0.083513178 0.0042814841
-0.052717853 0.052549347 0.013158134 -0.98150349 0.12181037 -0.14769283 0.006362942
-0.052251086 0.055523086 0.01309408 -0.95930076 0.23238698 -0.16043159 0.0077787279
-0.050968386 0.056780525 0.012012977 -0.9000991 0.33043724 -0.28395912 0.025922634
-0.051638518 0.058426499 0.01331849 -0.90136409 0.40682775 -0.14843829 0.024716783
-0.050673373 0.059176572 0.012194207 -0.83577621 0.50074625 -0.22523619 0.025499037
-0.051177215 0.060231671 0.013903848 -0.74387479 0.66454381 -0.070935301 0.036450248
-0.049148381 0.060901377 0.013453974 -0.59526128 0.80102974 -0.063366808 0.019395409
-0.046809234 0.062539704 0.013358465 -0.46919569 0.88279486 -0.022994479 0.0052293162
-0.045274962 0.063118339 0.013381463 -0.36176091 0.93022758 -0.061689783 0.0064955084
-0.043517545 0.063760832 0.013437691 -0.33345926 0.93892473 -0.085001491 0.0047223507
-0.040474597 0.064860605 0.013364435 -0.3386009 0.93437153 -0.11090187 0.0026481634
-0.038137875 0.065655649 0.013132975 -0.32255951 0.93725181 -0.13234195 0.0028505861
-0.036725383 0.066195272 0.013782918 -0.27610669 0.95237994 -0.12937357 0.002811657
-0.034440316 0.066768341 0.013380638 -0.24504839 0.9569838 -0.15534863 0.0022128792
-0.031502698 0.067487225 0.013447123 -0.23401752 0.96454906 -0.1219876 0.001944328
-0.028597318 0.068156786 0.013364806 -0.23971312 0.96550637 -0.10166136 0.0017809465
-0.025884723 0.068768159 0.013433148 -0.22629966 0.97370762 -0.02611324 0.0025911976
-0.024441428 0.069092624 0.013017168 -0.21215765 0.97715712 -0.012369646 0.00275298
-0.02265049 0.069429353 0.013488965 -0.16905181 0.98533303 0.023243802 0.0034864985
-0.019634213 0.070003569 0.013234568 -0.17735134 0.97480476 0.13528596 0.005700022
-0.016716275 0.070566915 0.012974855 -0.19320746 0.95796978 0.21204877 0.005124473
-0.013548998 0.071050964 0.013108826 -0.18790779 0.91432512 0.35874811 0.0049724006
-0.010798189 0.071310326 0.013530361 -0.20847273 0.8574838 0.47038341 0.0047529391
-0.0074704154 0.071726911 0.013987456 -0.16866891 0.85889971 0.48357219 0.0033308016
-0.0047417339 0.071719736 0.01461531 -0.1492551 0.72877914 0.6682843 0.0016966154
-0.0028457099 0.07199353 0.014691832 -0.11264942 0.74094236 0.66205329 0.00064612314
0.0089723496 0.071158454 0.01482268 0.18831916 0.69439584 0.69451451 0.00087860122
-0.0098318411 0.072125107 0.012568271 -0.20419674 0.91515559 0.34755427 0.0035278555
-0.0071734185 0.072704792 0.012512708 -0.21485378 0.92263097 0.32029665 0.0072136791
-0.0044131381 0.073045574 0.012917784 -0.17834923 0.8841697 0.43178177 0.00234287
-0.001392464 0.073510237 0.013053886 -0.16463555 0.88025743 0.44501907 0.0018485731
0.0016569919 0.073854394 0.01319171 -0.12962978 0.87134027 0.47324646 0.004022364
0.0042184391 0.074424982 0.012659281 -0.042143364 0.89331484 0.44745126 0.0029032358
0.007220658 0.073717363 0.013102111 0.11191475 0.82009315 0.5611794 0.0023615465
0.0097983349 0.073255733 0.012682423 0.16403426 0.77805018 0.60640806 0.0014066141
0.012402806 0.072681285 0.012224006 0.21775503 0.72902238 0.64892924 0.00078429579
0.0043345634 0.075027488 0.01204271 -0.0036332414 0.92135876 0.38869643 0.0039751912
-0.02453348 -0.068340167 0.01732807 0.23442492 0.97201753 -0.015066361 0.011197426
-0.022165896 -0.068651862 0.017158723 0.08445023 0.98955429 -0.1168356 0.00062406133
-0.020112487 -0.068698145 0.016580639 0.12890677 0.98429835 -0.12058129 0.0012326203
-0.048624702 -0.060822673 0.016209515 -0.84045726 0.52820152 0.12097396 0.015306773
-0.045732308 -0.060727779 0.016694196 0.24437065 0.94488508 -0.21788806 0.019363534
-0.044416897 -0.060943354 0.017569738 0.27703685 0.94587255 -0.16904354 0.014325395
-0.051527467 -0.058118887 0.016196931 -0.92804384 -0.36751375 0.060566913 0.012479112
-0.052211262 -0.055323225 0.016420841 -0.97311485 -0.20425767 0.10642505 0.006248774
-0.052672438 -0.052482683 0.016242791 -0.990749 -0.092427976 0.099365301 0.0038609323
-0.052836269 -0.049445592 0.016240764 -0.99545068 -0.0019471187 0.095258676 0.0048761899
-0.052700102 -0.046316121 0.016208243 -0.98857367 0.11184838 0.10105415 0.0034591483
-0.052234747 -0.043501206 0.016540216 -0.96782982 0.19295585 0.16147317 0.0052670678
-0.051566605 -0.040636573 0.016290747 -0.80613393 0.5274201 0.26828349 0.028860599
-0.049658068 -0.039375756 0.017242676 -0.56828684 0.76890403 0.292979 0.016778179
-0.047863547 -0.039745338 0.017940681 -0.63890833 0.69026649 0.33960021 0.030527037
0.0111551 -0.039970089 0.015413266 0.68943632 0.70334065 0.17317465 0.044816479
0.012022072 -0.04117896 0.015166685 0.59000915 0.71734631 0.37054488 0.0074607241
-0.051126339 -0.038920213 0.015553053 -0.6419543 0.74780911 0.16934058 0.029246667
-0.048849285 -0.038328286 0.01620537 -0.52050012 0.83072013 0.19744331 0.019502064
-0.046715427 -0.036955681 0.016411979 -0.74036914 0.66677737 -0.08521492 0.036789637
0.010689271 -0.037458755 0.016107341 0.65066147 -0.58595073 -0.48301288 0.043443743
-0.04566896 -0.03442841 0.016388383 -0.95816714 0.18779743 -0.2159813 0.024745172
-0.045654755 -0.03152125 0.01633678 -0.9781127 0.014639087 -0.20755984 0.0042726449
-0.045688089 -0.028529359 0.016397865 -0.97247136 -0.038785826 -0.22977184 0.003702949
-0.045675896 -0.025555523 0.016282722 -0.94503415 -0.078723423 -0.3173534 0.006033625
-0.046395957 -0.022421626 0.016535133 -0.91278207 -0.11012153 -0.39332193 0.0032610621
-0.0465816 -0.019490508 0.016463391 -0.9153021 -0.043092489 -0.40045622 0.0034730565
0.015661886 -0.019033542 0.01595136 0.94321859 0.30946538 -0.12070598 0.019643927
-0.046675112 -0.016506042 0.016543327 -0.92345703 -0.0051638931 -0.38366711 0.0027802745
0.014399517 -0.016185647 0.016498119 0.89220649 0.45161152 0.0038398674 0.0045589176
-0.046650544 -0.013486293 0.016531887 -0.92697316 0.013791958 -0.37487403 0.0027191201
0.01085012 -0.012241808 0.016088264 0.83837479 0.53984398 -0.075473517 0.030746002
0.012427473 -0.013060243 0.015925117 -0.4486793 0.8296032 0.33233336 0.025568537
-0.046643492 -0.010471399 0.016506501 -0.92207217 -0.0027791534 -0.38700795 0.0032479942
0.010978853 -0.011016543 0.016546652 -0.45429069 0.86839223 0.1987834 0.018804586
-0.0466353 -0.0074672201 0.016506104 -0.92080575 -0.0060518431 -0.38997445 0.0029989833
0.010851653 -0.0078798579 0.015633792 -0.98943365 -0.099343784 0.10560266 0.012833426
-0.04662393 -0.0045034434 0.016497765 -0.92045474 -0.0084678466 -0.39075753 0.0031113047
-0.046785112 -0.0015773452 0.016621139 -0.92547226 -0.030053671 -0.37762135 0.0044181845
-0.046973761 0.0015349946 0.016425895 -0.9205336 -0.015757183 -0.3903456 0.0064952336
-0.046953011 0.0044881054 0.016363753 -0.91675973 -0.00049817812 -0.39943871 0.0072975941
-0.046910435 0.0075052623 0.016376114 -0.9259128 0.0061232485 -0.37768763 0.0066442289
0.010365574 0.0079771131 0.016099628 0.93629253 -0.11972099 -0.33018661 0.039121382
-0.046951354 0.01054842 0.016392166 -0.90914392 -0.00019006984 -0.41648203 0.0095557617
0.010874202 0.010751272 0.016670745 0.92581511 -0.24500532 -0.2878173 0.028771793
-0.046989337 0.013512718 0.016413456 -0.90886343 0.0095018847 -0.41698563 0.0097518172
-0.046907406 0.016460331 0.016304217 -0.9242329 -0.017424624 -0.38143143 0.0079891514
-0.04687953 0.019470373 0.016349483 -0.93135762 0.030558247 -0.36282107 0.0091566416
-0.04689388 0.022379549 0.016331086 -0.92480397 0.046742689 -0.37756157 0.010364404
-0.046748009 0.025414471 0.016360914 -0.92080283 0.036021426 -0.38836122 0.010517819
-0.046670415 0.028525075 0.016243905 -0.93839812 0.015565237 -0.34520525 0.010110146
-0.046694748 0.031467043 0.016347695 -0.93489647 0.0064619957 -0.35486186 0.011333365
-0.046747044 0.034300931 0.016367922 -0.95564514 -0.026541986 -0.29332235 0.029156664
-0.048594188 0.03843911 0.016311007 -0.74257445 -0.66886884 0.03460763 0.032893986
-0.04703971 0.03671781 0.016473491 -0.90679806 -0.3869493 -0.16729449 0.039782509
-0.051527034 0.040818863 0.016322477 -0.89644295 -0.42676145 0.11943492 0.01513391
-0.048648313 0.039050676 0.017036296 -0.66752976 -0.73721379 0.10449843 0.011057863
-0.052208629 0.043503363 0.016420653 -0.96892798 -0.19562578 0.15135776 0.0048217583
-0.052701291 0.04652445 0.016382597 -0.98625255 -0.10058405 0.13110608 0.0039850939
-0.052788652 0.0495454 0.016573282 -0.99106658 -0.0057958835 0.13324194 0.0041838242
-0.052677386 0.052508872 0.016637944 -0.98357862 0.10415615 0.1473926 0.0034001968
-0.052295737 0.055586353 0.016324135 -0.9720909 0.18856005 0.13958663 0.0049095005
-0.051578455 0.058413327 0.01636776 -0.8079235 0.52147913 0.27444324 0.026854707
-0.049504615 0.059689604 0.017165305 -0.58720338 0.75240159 0.29846957 0.015776817
-0.051106047 0.060128368 0.015566068 -0.66967976 0.72262806 0.17128265 0.031740695
-0.048763964 0.060841355 0.016228527 -0.54044217 0.80862814 0.23247075 0.012618854
-0.046579756 0.062256441 0.016450034 -0.47665396 0.85373938 0.2095952 0.0044652848
-0.044692498 0.062761985 0.017426759 -0.39154664 0.88802642 0.2410401 0.0052126287
-0.045135554 0.063090555 0.01539568 -0.40788403 0.89033735 0.20231156 0.0046939217
-0.04340617 0.063628949 0.016221981 -0.36118388 0.91769218 0.16549121 0.0044835876
-0.040496252 0.064792357 0.016303172 -0.35920832 0.92740077 0.10438923 0.0023033549
-0.038088262 0.065698534 0.016466565 -0.35677284 0.92968547 0.091640465 0.0024200308
-0.036654547 0.066225812 0.016192509 -0.30120122 0.9510414 0.069268622 0.0022960505
-0.034552608 0.066825278 0.016413111 -0.26429316 0.96209013 0.067317747 0.0016619868
-0.031555682 0.067551062 0.016460067 -0.23227966 0.9720192 0.034998864 0.00073054514
-0.028452093 0.068184666 0.016520834 -0.20206077 0.9785732 0.039571494 0.0003201309
-0.025547093 0.06872566 0.016467202 -0.16825446 0.9837808 0.062175933 0.00019705188
-0.023696711 0.068956748 0.01726597 -0.094488323 0.9923225 0.079799488 0.00082056096
-0.01829965 0.068938002 0.017661138 0.061829537 0.98250318 0.17568298 0.0016610753
-0.016467497 0.068797447 0.017370258 0.10426061 0.95573157 0.27514872 0.0031028003
-0.013787857 0.068613 0.017192867 0.035548564 0.90550029 0.42285413 0.0074286344
-0.011159904 0.068456776 0.017186563 -0.023147164 0.87258595 0.48791191 0.0072888248
-0.0074419552 0.06833519 0.017442208 -0.040126074 0.71238452 0.70064127 0.0043173693
-0.0047058072 0.068407908 0.017654635 -0.068837598 0.65675586 0.75095481 0.0018578001
-0.0023346008 0.068550549 0.017802149 -0.07290408 0.5931403 0.80179143 0.0013158282
0.0015061757 0.06858889 0.017870927 0.0050580874 0.52184445 0.85302573 0.0021205482
0.0041346471 0.068119526 0.017919842 0.031904891 0.52034342 0.85336089 0.0019054528
-0.024256611 0.069009662 0.015224208 -0.17466055 0.98257703 0.063529484 0.00053552678
-0.022702407 0.069169737 0.016285297 -0.11237571 0.99073809 0.07622131 0.0011956027
-0.019810412 0.069237672 0.016410757 0.015672322 0.98657554 0.16255191 0.002304743
-0.016653707 0.069311306 0.015736783 0.0033283364 0.94300759 0.33275467 0.0060943817
-0.01351244 0.069271527 0.015892411 -0.020513877 0.88294935 0.46901986 0.0053071976
-0.010843446 0.069727093 0.015610758 -0.092570692 0.80965507 0.57955968 0.0028575202
-0.007607305 0.070310779 0.015570113 -0.16359778 0.80604744 0.56879097 0.0027725722
-0.0044449279 0.070369884 0.016045772 -0.11735009 0.6943199 0.71003443 0.0019301593
-0.0021135123 0.071249746 0.015709277 -0.13800037 0.78765744 0.60045964 0.001570971
0.0014980328 0.07073313 0.016451456 -0.039130017 0.64999622 0.75892937 0.0030020201
0.0045259278 0.071127228 0.016022317 0.068744615 0.69511795 0.71560127 0.0018816837
0.0066685909 0.071201891 0.015666453 0.10402691 0.69829571 0.70821005 0.0023090662
-0.00016645224 0.072049044 0.015208443 -0.095456697 0.74369425 0.66166979 0.001228265
0.0019155077 0.072156593 0.015233139 -0.043452557 0.72868985 0.68346393 0.0024737655
0.0041535213 0.072057925 0.015281151 0.06951049 0.67957032 0.73030984 0.0045198621
-0.025196331 -0.06803561 0.020092024 0.10440403 0.99101758 -0.083570533 0.0003218354
-0.022146882 -0.068367563 0.020328335 0.082675703 0.99268186 -0.088020161 0.00045384903
-0.020631557 -0.068425402 0.019520542 0.082653604 0.9926852 -0.088003263 0.00050682336
-0.043140404 -0.061149001 0.018386239 0.31758842 0.92761952 -0.19662063 0.017032813
-0.05127864 -0.057444204 0.018331727 -0.9144755 -0.32529721 0.24065809 0.010548797
-0.048795801 -0.058794357 0.019765554 -0.73059624 -0.47178966 0.49360281 0.020959489
-0.051482748 -0.055140741 0.019271694 -0.94075346 -0.15590137 0.30112734 0.0057265414
-0.050870232 -0.05592997 0.020455491 -0.91054356 -0.19127588 0.36650231 0.0054462827
-0.051824477 -0.052531544 0.019454852 -0.93747711 -0.085930698 0.33727223 0.0027135378
-0.051999107 -0.049534392 0.019415716 -0.93676645 0.001305673 0.34995279 0.0052909805
-0.051876225 -0.046526868 0.019418322 -0.92600369 0.10883642 0.36148557 0.0043081138
-0.051533483 -0.043622956 0.019236008 -0.86479312 0.27542982 0.41984677 0.016061138
-0.050601877 -0.042731937 0.02059078 -0.77713239 0.33932188 0.53002447 0.012898941
-0.051194452 -0.041282862 0.018638771 -0.75936711 0.49506587 0.42222205 0.017020974
-0.049035314 -0.04018113 0.019665677 -0.68712825 0.62136257 0.37651479 0.012398002
-0.047728695 -0.039348297 0.020637531 -0.73292613 0.52167213 0.43666631 0.016918395
-0.048308812 -0.03846731 0.018931575 -0.69135857 0.65912074 0.29594475 0.016579382
-0.046925668 -0.037402425 0.019535705 -0.78211743 0.5567553 0.27984977 0.021448061
-0.045793116 -0.034627691 0.019394327 -0.97024906 0.21030176 0.11995792 0.020287652
-0.045803837 -0.031520326 0.019389499 -0.99805415 -0.0015242423 0.062334511 0.0055674324
-0.045844305 -0.028515644 0.019277481 -0.99236333 -0.12053735 0.026189251 0.014962507
-0.046782862 -0.025093865 0.019010458 -0.96806079 -0.21297498 -0.13228717 0.014351585
-0.047688164 -0.022340631 0.019287257 -0.97981447 -0.13364916 -0.14866567 0.020469658
-0.047693036 -0.019439356 0.019234026 -0.99121398 -0.023818681 -0.13010606 0.019199673
0.014948601 -0.018348182 0.018965429 0.89456183 0.4274027 0.13071395 0.0032450748
-0.047661997 -0.016450506 0.019487923 -0.99994862 -0.0097749773 -0.0027099876 0.020381602
0.013830408 -0.016267207 0.019517262 0.80063581 0.56183153 0.20815322 0.0062095271
-0.047679998 -0.013447118 0.019370576 -0.99956435 0.0099479128 -0.027784709 0.017272847
0.011194965 -0.012949372 0.019225109 -0.45171088 0.78187656 0.42968169 0.011708203
0.012666713 -0.014375214 0.019446118 0.73971272 0.64629269 0.18743248 0.0051507112
-0.047670871 -0.010435088 0.019493429 -0.99696863 -0.0061841868 -0.077558137 0.018605078
-0.047684778 -0.00742725 0.01937867 -0.99808174 -0.017152537 -0.059486225 0.01691887
-0.047670774 -0.0044930154 0.019460324 -0.9998467 -0.011193351 -0.013467089 0.01927611
-0.047683895 -0.0014105431 0.019376745 -0.9994756 -0.018991059 -0.026227169 0.01357157
-0.047687709 0.001463898 0.01935399 -0.99801362 -0.019414715 -0.059932228 0.013638189
-0.047699429 0.0045327945 0.019272376 -0.9995448 0.0085152229 -0.028941436 0.014732599
-0.047695167 0.0074535375 0.019307869 -0.99932867 -0.00052390347 -0.036632247 0.017740805
-0.047680948 0.010523692 0.019465785 -0.99945015 -0.01616871 -0.02894932 0.01441595
-0.047695845 0.013550122 0.019378908 -0.99672264 -0.0041561299 -0.080787614 0.017365277
-0.047697682 0.016536351 0.019286405 -0.99785841 -0.00018215923 -0.065410234 0.015395318
-0.04768233 0.019597702 0.019445078 -0.99996662 -0.0081197266 0.00088729826 0.016182588
-0.047702286 0.022459228 0.019304695 -0.99712902 0.052901324 -0.054176766 0.020005191
-0.047268979 0.025475988 0.019274687 -0.9930371 0.10086345 -0.060858689 0.018763211
-0.046936039 0.028521737 0.019245241 -0.99964327 0.026374804 -0.0041973167 0.015155566
-0.047057446 0.031373993 0.01926364 -0.99984246 -0.017104443 -0.0047312845 0.014375735
-0.047055595 0.034203559 0.019401018 -0.99815011 -0.052380256 0.030864194 0.016396292
-0.048214819 0.038789187 0.019054793 -0.77812326 -0.55721521 0.28988835 0.024196573
-0.047233444 0.03719002 0.019532643 -0.93918538 -0.28520557 0.19128156 0.01805301
-0.051144689 0.041332379 0.018583674 -0.89469689 -0.34566036 0.28290713 0.011058527
-0.049414434 0.040627543 0.019785658 -0.79595596 -0.44967315 0.4052754 0.010868762
-0.04776112 0.039239176 0.020799953 -0.81810951 -0.4741753 0.32535303 0.025681389
-0.051536743 0.043673601 0.019119605 -0.93479878 -0.18691131 0.30201894 0.0069279391
-0.050913431 0.04359201 0.020651354 -0.89420009 -0.21220404 0.39417705 0.0078322059
-0.051892392 0.046579774 0.019410038 -0.93736291 -0.097081766 0.33455327 0.0031177721
-0.05204729 0.049508139 0.019423153 -0.93845332 -0.01187501 0.34520206 0.004151524
-0.05191572 0.052624576 0.019399688 -0.93956339 0.10638928 0.32542571 0.005966159
-0.051554345 0.055504736 0.01921384 -0.85890669 0.28036749 0.42857137 0.014347501
-0.05071206 0.055864088 0.020753104 -0.77702898 0.3403146 0.52953929 0.013573281
-0.051211912 0.057797499 0.018641243 -0.76195061 0.5154109 0.39215168 0.016590796
-0.049111824 0.058807176 0.019438479 -0.59227204 0.65380234 0.47091007 0.011254201
-0.047261089 0.059590742 0.020519018 -0.49807438 0.63008219 0.59575027 0.010455343
-0.048434209 0.060537424 0.018516246 -0.51680553 0.74239951 0.42632732 0.0062008891
-0.046358541 0.061145995 0.019156601 -0.4641557 0.76983196 0.43808472 0.0054704114
-0.043686613 0.062211957 0.019548822 -0.40720749 0.81870759 0.40484554 0.0021816322
-0.041506402 0.062750168 0.020589784 -0.4264335 0.80095488 0.42026865 0.0014083489
-0.042591982 0.063303076 0.018460592 -0.39124483 0.85199338 0.34790075 0.0025743996
-0.040368512 0.063940912 0.019333865 -0.38976082 0.85651273 0.33833769 0.0025742976
-0.03752711 0.065174252 0.019432381 -0.38904044 0.88289338 0.26295775 0.0014259533
-0.035563953 0.065837279 0.020007048 -0.35337579 0.90877366 0.22193667 0.0017300792
-0.0090636024 0.065486729 0.020972246 0.26011622 0.82492876 0.50182879 0.010987233
-0.0072016725 0.065475918 0.020288534 0.1364136 0.74866867 0.6487577 0.010479838
-0.0042271037 0.064699776 0.020149959 0.088783368 0.56511641 0.82022011 0.0035782075
-0.0016556624 0.06514331 0.019591693 0.043653268 0.50908571 0.85960817 0.0040481254
0.000361232 0.06504593 0.019458715 0.0047723767 0.48999965 0.87170959 0.0016385665
-0.036072701 0.066081971 0.018234354 -0.32424787 0.93181419 0.16305104 0.0015097834
-0.03419216 0.06648837 0.019323345 -0.30747661 0.93750459 0.16292121 0.0010451752
-0.031413049 0.067296006 0.01950576 -0.25843188 0.95992458 0.10843302 0.00076236692
-0.028462987 0.067990609 0.019512054 -0.20423201 0.97538036 0.083200671 0.00049311586
-0.025477219 0.068527326 0.019518785 -0.1589186 0.98438978 0.07564126 0.00016414782
-0.02290111 0.068860851 0.019832587 -0.072568975 0.99342114 0.088590078 0.0013061443
-0.019589987 0.068814881 0.019712653 0.046607476 0.99051785 0.12923704 0.0010880664
-0.016768161 0.068435334 0.019429514 0.16175354 0.96516335 0.20565863 0.0026579793
-0.01368018 0.067808419 0.019511711 0.16764794 0.93913966 0.29985145 0.0047737136
-0.010461811 0.067214809 0.019226797 0.1944508 0.83899736 0.508205 0.0071340296
-0.0075153173 0.066929847 0.018914759 0.021661414 0.71876717 0.69491327 0.0037924726
-0.0043125972 0.067151666 0.018612109 -0.024373922 0.63426793 0.77272898 0.0030087463
-0.0011552848 0.067577779 0.018445915 -0.049339306 0.57819527 0.8144052 0.0014456561
0.0012317037 0.067239501 0.018532984 0.0033323779 0.4990921 0.86654258 0.0014959492
-0.02191362 0.06904611 0.018678457 -0.04674593 0.99510598 0.087057024 0.0018501456
-0.020666305 0.069042593 0.018420376 0.02541269 0.99404544 0.10596194 0.0017356627
-0.025410222 -0.067788139 0.023002043 0.12424291 0.98848772 -0.086346634 0.00075442914
-0.022640908 -0.06810122 0.02333937 0.10572214 0.99095356 -0.082667038 0.0002463549
-0.037144326 -0.064009748 0.021860903 -0.38505405 -0.91712201 0.10305702 0.0038113666
-0.039585974 -0.06289503 0.021347936 0.41031784 0.90029919 -0.14526078 0.0093524996
-0.048884127 -0.057263754 0.021421673 -0.7662456 -0.34052348 0.54489583 0.011007644
-0.049614169 -0.055323143 0.021714602 -0.6398378 -0.27614099 0.71718448 0.024032604
-0.045061506 -0.054073773 0.023987699 -0.46912381 -0.13639303 0.87253642 0.0087435693
-0.05113855 -0.052092057 0.021275133 -0.89053613 -0.095932119 0.44468245 0.0054114237
-0.05037709 -0.052667003 0.021947984 -0.85729301 -0.11283157 0.50231248 0.0078452434
-0.045839503 -0.051891569 0.023922037 -0.44890118 -0.10129287 0.88782179 0.0046563642
-0.051097888 -0.049397271 0.021527708 -0.88975048 0.056957759 0.45287958 0.0121354
-0.050165083 -0.049740549 0.022375533 -0.90182459 0.0029807219 0.43209207 0.0065380414
-0.045889746 -0.049695496 0.023874059 -0.40334997 -0.061826833 0.91295469 0.001407756
-0.051068239 -0.046878956 0.021428475 -0.85684443 0.11126895 0.50342506 0.0081904465
-0.050359622 -0.046183135 0.022008223 -0.77612078 0.16814353 0.60775357 0.010654861
-0.047137309 -0.046160799 0.023768034 -0.46041048 0.03048034 0.88718277 0.0033068298
-0.051049605 -0.044413272 0.021034427 -0.81050736 0.24574065 0.53168541 0.01530455
-0.048994265 -0.043330684 0.02209341 -0.79332685 0.38935995 0.4680078 0.012937664
-0.04656066 -0.043881193 0.023475617 -0.65872002 0.43407542 0.61454576 0.012456259
-0.048555888 -0.04111072 0.02154984 -0.70663536 0.47209963 0.52705634 0.012919421
-0.047182322 -0.039979901 0.022302499 -0.72982347 0.44402778 0.51980484 0.015806001
-0.046231676 -0.037577171 0.022376232 -0.7892372 0.45722905 0.40993446 0.019273927
-0.044672102 -0.037260279 0.022849422 -0.81004411 0.25785404 0.52663064 0.0198368
-0.045359738 -0.035057496 0.021334242 -0.87560862 0.18797012 0.44494578 0.019123897
-0.044715479 -0.034547228 0.022695415 -0.88881159 0.12797907 0.44004011 0.014788575
-0.045226213 -0.03128757 0.021677455 -0.93831944 0.01200721 0.34556112 0.012813499
-0.04481839 -0.031808715 0.022504263 -0.89389062 0.016315397 0.44798809 0.0045110644
-0.045272715 -0.028821286 0.021571947 -0.95689219 -0.19039422 0.21933402 0.013771251
-0.044778898 -0.02847119 0.022648398 -0.913706 -0.17495474 0.36678621 0.014554466
-0.046659734 -0.02468274 0.022405535 -0.95661533 -0.23939751 0.16606031 0.011879038
-0.044807144 -0.026508003 0.022641599 -0.93160319 -0.27060398 0.24267039 0.017345948
-0.046884604 -0.022537982 0.022320282 -0.98354232 -0.094722733 0.15385744 0.014417304
-0.046906758 -0.01943971 0.022264203 -0.97488785 0.0079646185 0.22255412 0.011542792
0.014304252 -0.018623171 0.022353567 -0.29559749 0.43761113 0.84918708 0.0080173416
-0.046842147 -0.01637427 0.022445194 -0.96613699 -0.0017707988 0.25802368 0.0094603496
0.013373869 -0.016605679 0.02220444 0.85379624 0.51459348 0.078902356 0.010648748
-0.046813928 -0.013399584 0.022479096 -0.96402788 -0.012620226 0.26550165 0.0093158409
0.011554645 -0.014052121 0.021916624 -0.4688895 0.68515462 0.55740988 0.013554942
0.012383454 -0.014673977 0.021426845 -0.45511496 0.75315088 0.47500953 0.012143807
