# .PCD v0.7 - Point Cloud Data file format
VERSION 0.7
FIELDS x y z normal_x normal_y normal_z curvature
SIZE 4 4 4 4 4 4 4
TYPE F F F F F F F
COUNT 1 1 1 1 1 1 1
WIDTH 552
HEIGHT 1
VIEWPOINT 0 0 0 1 0 0 0
POINTS 552
DATA ascii
0.016486319 0.048971672 -0.016530629 -0.097921073 -0.83002752 -0.54905909 0.00015047236
0.019605454 0.048900187 -0.016805159 -0.04942099 -0.8387683 -0.5422411 6.7069297e-05
0.022561805 0.048679441 -0.016674981 -0.016847322 -0.8436954 -0.53655773 8.9066139e-05
0.025497293 0.04873886 -0.016784508 0.01332502 -0.84557277 -0.53369385 9.4005096e-05
0.028515274 0.048794135 -0.016678248 0.04520309 -0.84628189 -0.53081411 6.0939819e-05
0.031539951 0.048884422 -0.016491525 0.099406771 -0.84698719 -0.52223647 0.00028531361
0.034562252 0.049340844 -0.016432291 0.21901904 -0.82952338 -0.51373303 0.001316281
0.03739265 0.05015403 -0.016235502 0.34750229 -0.80240875 -0.48516214 0.0016027081
0.039510168 0.050732724 -0.015438336 0.47610462 -0.76468241 -0.43426397 0.0014601728
0.0047422051 0.052569292 -0.015894659 -0.46835679 -0.49600944 -0.73117483 0.0025890297
0.0072365189 0.051943373 -0.016866209 -0.31001535 -0.68454993 -0.65975887 0.0021190133
0.0097985044 0.051311105 -0.017597293 -0.26851451 -0.71675259 -0.64355701 0.0015805773
0.038310073 0.051392488 -0.017530346 0.35080284 -0.79010206 -0.5026691 0.0020040327
0.040678013 0.052204914 -0.016647864 0.49445283 -0.75011581 -0.43913865 0.0015768902
0.042708896 0.053405665 -0.016046496 0.60671324 -0.68558067 -0.40234089 0.0012109643
0.002529969 0.054945901 -0.01551812 -0.5345763 -0.38679239 -0.75141191 0.0018551433
0.0046878727 0.055218037 -0.017189451 -0.50168228 -0.41226193 -0.7604965 0.0018663424
0.041993443 0.05418963 -0.017988214 0.52499819 -0.70483023 -0.47706529 0.0016852838
0.043958064 0.055065595 -0.016798891 0.67182171 -0.63548332 -0.38054779 0.0020633982
0.045493081 0.056331612 -0.016047709 0.74479997 -0.57089221 -0.34547791 0.0019321188
0.0020784799 0.057784297 -0.015822666 -0.57109213 -0.28791183 -0.76873958 0.00083662657
0.046698131 0.05844456 -0.016545808 0.81645566 -0.48046997 -0.32023242 0.002144705
0.048057463 0.059703931 -0.015289552 0.87748241 -0.42231563 -0.22731939 0.004059033
0.047681183 0.060708828 -0.017148588 0.88947535 -0.34886715 -0.29516995 0.0033615965
0.048414499 0.061858494 -0.016145974 0.9256109 -0.291976 -0.24082035 0.0039998549
0.048863161 0.064413644 -0.016512971 0.9739452 -0.10170203 -0.2027005 0.0049017658
0.048875086 0.067377664 -0.016364858 0.97815204 0.11953677 -0.17008688 0.0057852445
0.047607545 0.070998624 -0.017019359 0.90809089 0.36824471 -0.19941607 0.0073514758
0.048357945 0.06966909 -0.01641136 0.93595761 0.29308373 -0.19515426 0.0087219011
0.044413954 0.074770309 -0.016975934 0.67197692 0.6923508 -0.26286364 0.0053629125
0.046135694 0.073222302 -0.016411066 0.76652986 0.59937793 -0.23060372 0.0051334728
0.040863171 0.077100441 -0.016763713 0.45961303 0.82336885 -0.33289582 0.0028400829
0.043310564 0.075923726 -0.016004503 0.61296785 0.75484425 -0.23341079 0.0059167752
0.020703161 -0.078231685 -0.012170206 -0.37088269 -0.81869733 -0.43838415 0.0012842565
0.022817401 -0.078691065 -0.013002836 -0.33156425 -0.84046429 -0.42858472 0.0016324513
0.0256279 -0.079532921 -0.013430906 -0.25892514 -0.87486994 -0.40934142 0.0016461532
0.028554004 -0.080107383 -0.013421299 -0.0820591 -0.93253237 -0.35163864 0.0024532403
0.031556375 -0.080174871 -0.013450518 0.055217594 -0.94488323 -0.32271752 0.0025538243
0.034613177 -0.079828165 -0.01346451 0.18208934 -0.94226873 -0.28102151 0.0027905153
0.037558902 -0.079080947 -0.013445996 0.29964152 -0.92606252 -0.22939739 0.0032592944
0.039695617 -0.07830707 -0.013230689 0.41903624 -0.88952672 -0.18207382 0.0031613519
0.014686164 -0.075178742 -0.012073733 -0.43494913 -0.74992734 -0.49842575 0.0003987299
0.016961763 -0.075926632 -0.012805111 -0.41198006 -0.76448339 -0.49582016 0.00025688074
0.019512445 -0.076798499 -0.013540764 -0.3957032 -0.78191 -0.48170087 0.00060775003
0.02208438 -0.077543303 -0.014367366 -0.35641012 -0.79292464 -0.49420887 0.00040116085
0.041156951 -0.077499934 -0.013608605 0.49285617 -0.85979909 -0.1335603 0.0032116501
0.043383751 -0.076068372 -0.013459522 0.60618234 -0.79076594 -0.08504232 0.0045342478
0.011335636 -0.072625868 -0.012715038 -0.47391722 -0.71085346 -0.51970172 7.7193312e-05
0.013595149 -0.073479846 -0.013493048 -0.43898505 -0.74602973 -0.50073123 0.00026343248
0.016396822 -0.074641518 -0.014220886 -0.42043436 -0.75246185 -0.50698733 8.5822569e-05
0.044815317 -0.074836187 -0.01396026 0.6839143 -0.72748405 -0.055027965 0.0056305807
0.046124522 -0.073396623 -0.013502269 0.78766525 -0.61606503 -0.006879217 0.0046458244
0.0078569911 -0.069858596 -0.013050878 -0.51866055 -0.66551417 -0.53673291 8.6225387e-05
0.010240988 -0.071051873 -0.013799001 -0.49024072 -0.69198287 -0.52992809 0.00014570345
0.012245218 -0.071760751 -0.014756666 -0.47069827 -0.70495403 -0.53054971 0.00014112314
0.047590211 -0.071189307 -0.013439954 0.87807071 -0.47566605 0.052283898 0.0045626746
0.048278343 -0.069734707 -0.013659734 0.92483485 -0.37505952 0.063330553 0.0055898488
0.0029541627 -0.06602814 -0.012555663 -0.56959277 -0.60602045 -0.55525059 0.00020694367
0.0047339406 -0.067196414 -0.013134377 -0.56423557 -0.6143434 -0.55156177 0.0003596177
0.0069251424 -0.068266988 -0.014092884 -0.53911883 -0.63869977 -0.54901141 0.00034246792
0.048869058 -0.067598201 -0.013503391 0.97951174 -0.18447712 0.080777459 0.0043630698
0.0017761748 -0.064349696 -0.012991213 -0.60836262 -0.54548246 -0.57649261 0.00080445386
0.0036623836 -0.065114029 -0.014266551 -0.58675534 -0.55411059 -0.590491 0.0015077025
0.049158845 -0.064581178 -0.013461057 0.99824077 0.012012589 0.058060527 0.0049149492
-0.00055113359 -0.061490379 -0.012544755 -0.65979421 -0.40283468 -0.63434678 0.002031408
0.00093125849 -0.061987981 -0.013789427 -0.65873325 -0.40529731 -0.63388062 0.0020192487
0.048795898 -0.0616161 -0.01347355 0.97829688 0.20381531 -0.037343442 0.0042433823
-0.0013062137 -0.059299059 -0.012628207 -0.65930325 -0.31302646 -0.68361807 0.0010149427
0.00042286888 -0.059714131 -0.014174656 -0.65155923 -0.30823615 -0.69315308 0.002166179
0.047553398 -0.058101863 -0.013523023 0.90135628 0.42124474 -0.10054614 0.0030296154
0.04820564 -0.059532382 -0.013234451 0.93525851 0.34942377 -0.056520287 0.0045747967
0.044777509 -0.054237861 -0.014384191 0.7386924 0.63427556 -0.22809674 0.0025537608
0.046248749 -0.055804979 -0.013228257 0.84805149 0.51674724 -0.11739225 0.0031768982
0.041791972 -0.051319133 -0.01434309 0.59720463 0.73290718 -0.32587376 0.0026885474
0.043721724 -0.052696291 -0.01339944 0.72552156 0.65246797 -0.21886952 0.0033728648
0.045117129 -0.053956356 -0.012641109 0.75269961 0.62500536 -0.20690988 0.0034619644
0.035788134 -0.048010308 -0.014486955 0.27205721 0.86759329 -0.4162533 0.0037119151
0.038086582 -0.048628852 -0.01362748 0.47727042 0.81594801 -0.32625431 0.0015072593
0.04048929 -0.049981948 -0.013494425 0.54671347 0.77302021 -0.32178268 0.0029505873
0.042151392 -0.050884228 -0.012474376 0.62879103 0.72866094 -0.27143154 0.0027356911
0.020224508 -0.045769729 -0.012679162 -0.0072857598 0.85738742 -0.51462007 0.00012184387
0.022497106 -0.04675062 -0.014370726 -0.0049457545 0.85461938 -0.51923138 0.00010735023
0.02535212 -0.046184439 -0.013331257 0.029728616 0.86874706 -0.49436295 0.0002063213
0.028660227 -0.046317361 -0.013355107 0.099697061 0.89459294 -0.43561909 0.001213794
0.03146733 -0.046665061 -0.013507508 0.13369338 0.89165574 -0.43252307 0.0015292142
0.034623884 -0.047155794 -0.013434286 0.23695289 0.88951641 -0.39065841 0.0032749292
0.036648311 -0.047542185 -0.012743361 0.43767011 0.84953916 -0.29449621 0.004089233
0.0080258287 0.047760036 -0.012374334 -0.21946989 -0.79946589 -0.55918437 0.00047291789
0.010633503 0.047425982 -0.01275768 -0.16666137 -0.82095098 -0.54613495 0.0002369726
0.013610908 0.047255531 -0.01326658 -0.12178292 -0.836061 -0.53494948 0.00012615381
0.016573425 0.047018792 -0.013464949 -0.084212735 -0.84455752 -0.52880138 0.00010187413
0.019618729 0.046775389 -0.013426227 -0.038047124 -0.85378444 -0.51923454 7.3528463e-05
0.022614336 0.046750102 -0.013507532 -0.0026397251 -0.8603577 -0.50968391 0.00010839285
0.025560558 0.046770625 -0.013506338 0.031485844 -0.86841798 -0.49483219 0.00030685193
0.02854507 0.046903238 -0.01352673 0.075469367 -0.87966615 -0.46956563 0.00096420787
0.031511933 0.047125645 -0.013477338 0.12219328 -0.89121443 -0.43681309 0.0014374594
0.034425218 0.047421839 -0.013114661 0.22726426 -0.89234799 -0.38995638 0.0029463405
0.036491048 0.047772836 -0.012439028 0.35938528 -0.85441279 -0.3752614 0.0028060521
0.0022460208 0.050253399 -0.012498885 -0.43359375 -0.60484236 -0.66795373 0.0030518891
0.0048071896 0.049521413 -0.013212712 -0.2950072 -0.73207468 -0.6140337 0.0011008797
0.007598252 0.048708018 -0.013568537 -0.23272187 -0.78295904 -0.57690179 0.00074327178
0.010397512 0.048462704 -0.014249926 -0.18352807 -0.80348474 -0.56633013 0.00051345199
0.013034075 0.04825988 -0.014686055 -0.13346383 -0.82734001 -0.54561508 0.0001896661
0.015428845 0.048093051 -0.014908371 -0.090704016 -0.83734 -0.5391053 0.00013042903
0.032617863 0.048019547 -0.014843746 0.1274444 -0.86922878 -0.47770214 0.0017547668
0.035098352 0.048254244 -0.014430048 0.22643942 -0.87225968 -0.43346071 0.0029186993
0.037689708 0.048841011 -0.013572261 0.39077476 -0.83949834 -0.37754166 0.0021601149
0.040199954 0.050152402 -0.013278423 0.52914381 -0.78527671 -0.321477 0.0027592247
-0.00043879231 0.052971788 -0.012502722 -0.51438415 -0.42331511 -0.74579716 0.0024990817
0.0015120537 0.05239749 -0.013542099 -0.52011216 -0.46795052 -0.71449679 0.0034320261
0.0037129181 0.051575474 -0.01454995 -0.46334258 -0.5277124 -0.71192223 0.0039943745
0.041473988 0.051396571 -0.014118552 0.59160274 -0.74871498 -0.29905188 0.0031865102
0.043303359 0.052712727 -0.013400081 0.67315805 -0.69595248 -0.25001678 0.0019571516
0.045031615 0.053930379 -0.01217531 0.73375756 -0.65805244 -0.16901757 0.0035361405
-0.0011262789 0.054882437 -0.012629537 -0.54027098 -0.35964149 -0.76076627 0.0013684048
0.00099013175 0.055616587 -0.014533713 -0.55416197 -0.31571993 -0.7702114 0.0016994409
0.044689283 0.054364819 -0.013983059 0.72708279 -0.64862818 -0.2250156 0.0025379998
0.045915958 0.055737622 -0.013402556 0.81214809 -0.55620283 -0.17622098 0.0038701966
0.047384202 0.05818503 -0.013596365 0.87980515 -0.45514581 -0.13705894 0.0026054699
0.048129775 0.059687801 -0.013219151 0.92660969 -0.36716866 -0.081128076 0.0055377064
0.047985464 0.060177352 -0.014770064 0.94262159 -0.31056643 -0.12252793 0.0061475094
0.048681933 0.061484981 -0.013455659 0.97216737 -0.22884408 -0.050209872 0.0043144776
0.049157724 0.064482592 -0.013512826 0.99797922 -0.049742464 0.039536249 0.0044279932
0.04899808 0.067408346 -0.013481757 0.9884665 0.13471796 0.069173142 0.005048939
0.047662064 0.071252875 -0.013207357 0.90580833 0.41404423 0.089881107 0.0051965639
0.048402704 0.069797166 -0.013514316 0.95385462 0.29149815 0.072042547 0.0062737106
0.04493273 0.074967183 -0.01461333 0.71879411 0.69233888 -0.063260958 0.0059517184
0.04663365 0.073093943 -0.013399283 0.86285579 0.49775234 0.08787743 0.004519748
0.041359417 0.077806525 -0.013282592 0.61571503 0.78771919 0.019838149 0.0044557392
0.044001549 0.075950064 -0.01337983 0.67944157 0.73313153 -0.029617887 0.005338233
0.04505584 0.075075373 -0.012388531 0.75624937 0.65332025 0.035489269 0.009390993
0.040285055 0.078409612 -0.013383319 0.53460079 0.84033734 -0.089638732 0.0023451124
0.02670219 -0.081054166 -0.0092919189 -0.12713385 -0.98877442 -0.078499563 0.0049760551
0.028804617 -0.081139199 -0.0099623399 -0.042301089 -0.9899388 -0.1350248 0.0050939238
0.031198872 -0.081105649 -0.0097840494 0.10810418 -0.98964179 -0.094459355 0.0038657321
0.033113733 -0.081017628 -0.0098594753 0.15840933 -0.98152089 -0.10734641 0.0051513198
0.017614424 -0.078191198 -0.0093092099 -0.37146538 -0.86044496 -0.34878051 0.0021668191
0.019713886 -0.078664228 -0.010163325 -0.33541167 -0.88982701 -0.30936536 0.0024553486
0.022548189 -0.079609424 -0.010397998 -0.28633186 -0.92710781 -0.24183726 0.0025855436
0.025489844 -0.080470301 -0.010641032 -0.23392256 -0.94740993 -0.21839127 0.0029872747
0.028441777 -0.080849901 -0.011280017 -0.073171124 -0.97031492 -0.23050995 0.0036404929
0.031983566 -0.080799997 -0.011115749 0.11199877 -0.98106676 -0.15800095 0.0041111009
0.034591231 -0.080446444 -0.010476362 0.23873276 -0.96646428 -0.094622657 0.0034735613
0.037547801 -0.079513654 -0.010482264 0.35714051 -0.93300134 -0.044262748 0.002675182
0.03988133 -0.078450315 -0.010513023 0.48150769 -0.87631661 0.014818498 0.0036092857
0.011738523 -0.075306885 -0.0093061989 -0.44373652 -0.75415266 -0.48409876 0.00076379225
0.013712677 -0.076041862 -0.0098120449 -0.41419551 -0.79562336 -0.44206962 0.0015532678
0.016410898 -0.077049889 -0.010512527 -0.39172828 -0.82055855 -0.41621229 0.0014873082
0.018891741 -0.077717751 -0.011554089 -0.36867362 -0.83247417 -0.41360199 0.0018142464
0.041388243 -0.077550039 -0.010415364 0.56068689 -0.8257255 0.061706778 0.0032324335
0.043270316 -0.076098569 -0.010517813 0.66202796 -0.73906875 0.12448458 0.0056652375
0.0081196968 -0.072578579 -0.0097877812 -0.4958266 -0.69547492 -0.52006793 0.00017181787
0.010584037 -0.073812917 -0.010344408 -0.45801961 -0.7394045 -0.49345618 0.00043696171
0.013004986 -0.074618645 -0.011381999 -0.44193247 -0.74933529 -0.49314532 0.00034503947
0.044665378 -0.074606672 -0.010091185 0.72586131 -0.66691655 0.16836746 0.0037390019
0.045828659 -0.073199786 -0.010602343 0.81007797 -0.53394675 0.24222833 0.0041265022
0.0029762043 -0.069113962 -0.009148607 -0.56377858 -0.63392806 -0.52942336 0.00028137825
0.0048842747 -0.069920182 -0.010047233 -0.53460699 -0.65452486 -0.53459555 0.00017988574
0.0071595432 -0.071069278 -0.010871105 -0.50883925 -0.6808089 -0.5268603 0.00016663359
0.009164664 -0.071938492 -0.011624578 -0.48296982 -0.70371348 -0.52108318 0.00012870847
0.047185969 -0.070601717 -0.010421989 0.87680274 -0.37115574 0.30571297 0.0027199341
0.048116572 -0.069375664 -0.011576189 0.90026891 -0.35121623 0.25722176 0.0047803842
-0.00020879148 -0.066140041 -0.0090476964 -0.5908525 -0.59710628 -0.54254711 0.00012254888
0.0018372694 -0.067087032 -0.01019049 -0.58502764 -0.60024107 -0.54539287 0.00012879848
0.0038233891 -0.068232119 -0.010984118 -0.56281614 -0.62597483 -0.53980887 0.00016760215
0.047769066 -0.068109706 -0.0096016536 0.91098863 -0.21910231 0.34941941 0.0029024363
0.048403043 -0.067364953 -0.010895986 0.94416785 -0.18901677 0.26985142 0.0034449808
-0.00092683174 -0.064469531 -0.0099498145 -0.61872452 -0.54528475 -0.56554806 0.00082376011
0.00077320391 -0.065210909 -0.011076972 -0.60505313 -0.56867683 -0.5572409 0.0005969989
0.047820717 -0.065851465 -0.0090040145 0.89615816 -0.087829001 0.43495592 0.0028456948
0.048609272 -0.064551063 -0.010455106 0.96555555 -0.049578518 0.2554298 0.0033121407
-0.003684815 -0.061417121 -0.0094586872 -0.60768062 -0.4612242 -0.64652646 0.0026307572
-0.0017360492 -0.062334973 -0.010833879 -0.63226426 -0.46961108 -0.61620402 0.0017900582
0.047959138 -0.060406487 -0.0093129985 0.96761429 0.15207587 0.20148391 0.0048194141
0.048517108 -0.061767112 -0.010457565 0.97071731 0.092765391 0.22159091 0.0037499107
-0.0044547245 -0.058754012 -0.0098998044 -0.60861123 -0.27987906 -0.74246883 0.0032474417
-0.0023085559 -0.059831243 -0.01155569 -0.65610534 -0.31905869 -0.68390596 0.00038834318
0.047599744 -0.058228053 -0.010352026 0.9295935 0.3506752 0.11350231 0.0052782954
0.048176304 -0.059619337 -0.010968784 0.95157164 0.27207232 0.14313634 0.005242208
-0.051451676 -0.054189179 -0.0093976483 0.41840288 -0.59763998 -0.68393391 0.046286762
-0.0502389 -0.054234412 -0.0093179112 0.3869994 -0.63927436 -0.6644997 0.041246634
-0.037815191 -0.054528281 -0.0093970587 -0.036977772 -0.55748445 -0.82936347 0.015703579
-0.034903254 -0.054451734 -0.0091489069 0.14787166 -0.49041808 -0.85885048 0.006516716
-0.004705763 -0.05563163 -0.010049941 -0.47529763 -0.050979957 -0.87834692 0.0077181119
0.046400532 -0.055703439 -0.010364989 0.88298362 0.46426356 0.069276556 0.0046096845
-0.051666267 -0.052872181 -0.010433576 0.42161939 -0.43598223 -0.79508275 0.039340518
-0.049694356 -0.052606095 -0.0099009983 0.37592867 -0.47674671 -0.79460061 0.02684916
-0.043057133 -0.051955819 -0.0091566285 -0.15991648 -0.32642952 -0.93159568 0.012035406
-0.040853042 -0.052185621 -0.0093454821 -0.25488153 -0.37318587 -0.89205813 0.0088035082
-0.037136182 -0.052540205 -0.010064637 0.0029201852 -0.24431233 -0.96969217 0.012295244
-0.034555666 -0.052617244 -0.0095728189 0.16401044 -0.2927089 -0.94203085 0.0045631155
-0.031795513 -0.052187104 -0.0092282109 0.19078147 -0.20232648 -0.96055526 0.00431437
-0.0055015581 -0.053254928 -0.0093414951 -0.39667535 0.035314098 -0.91727948 0.010538119
0.044068236 -0.052421074 -0.010450481 0.78656477 0.61749578 -0.0038587917 0.0035665978
0.045140687 -0.053684793 -0.010046421 0.82996374 0.55695873 0.030938599 0.0045098164
-0.051681727 -0.049988508 -0.01123434 0.4654949 -0.10987046 -0.87820446 0.017401619
-0.049465705 -0.0496675 -0.010129946 0.4438943 -0.26633802 -0.85558277 0.029446244
-0.045098986 -0.04956077 -0.0090218754 -0.16720209 0.010080724 -0.98587114 0.010146024
-0.043432679 -0.049983118 -0.0093233101 -0.12904198 -0.21113478 -0.96890157 0.0083109625
-0.041144982 -0.049930256 -0.0096314456 -0.19280602 -0.22071071 -0.95609242 0.0099271154
-0.03665179 -0.049281757 -0.010389392 0.085175037 -0.073459983 -0.99365431 0.010081821
-0.034706466 -0.049687929 -0.0099437982 0.18875051 -0.094045527 -0.97751147 0.0052012512
-0.032208417 -0.050059546 -0.0093871374 0.1983618 -0.037364293 -0.97941637 0.0037000964
0.038684398 -0.04817263 -0.011701405 0.49393523 0.83823997 -0.23104504 0.0045489152
0.040914465 -0.049460076 -0.010874903 0.60743117 0.77609885 -0.16940458 0.0040003797
0.042329729 -0.050590929 -0.010416031 0.68401992 0.72226602 -0.10221767 0.0032798657
-0.052275203 -0.046628777 -0.009680164 0.39012501 0.12114754 -0.91275722 0.019486563
-0.049311921 -0.047477305 -0.0097814687 0.45297134 0.068411902 -0.88889641 0.016259512
-0.042529505 -0.047877062 -0.0092172669 -0.081275269 0.12570617 -0.98873264 0.0067052352
-0.041837223 -0.047499813 -0.0091289459 -0.16992542 0.17336954 -0.97008681 0.0057653235
-0.037287578 -0.046750974 -0.0098405238 -0.016811909 0.38384253 -0.92324555 0.015957605
-0.034627579 -0.047290448 -0.0094954008 0.20265301 0.26586089 -0.94247001 0.0041893311
-0.032348342 -0.047809087 -0.0091484413 0.20363469 0.46451509 -0.86183447 0.0073856208
0.021562973 -0.045346722 -0.011996465 0.0044407072 0.86842525 -0.49580029 0.00036399
0.025779516 -0.045164742 -0.011616299 0.033660106 0.89420253 -0.44639534 0.0011896639
0.028502867 -0.045383245 -0.011615073 0.10200591 0.91752779 -0.38436648 0.002169142
0.031611662 -0.045301024 -0.0097745135 0.27532232 0.95107692 -0.14017971 0.0030661267
0.034525707 -0.046103261 -0.010344298 0.30302879 0.93142128 -0.20156397 0.002848553
0.037582934 -0.047247682 -0.010287606 0.44364321 0.88173634 -0.16037986 0.0040092231
0.039189328 -0.047953587 -0.0094298543 0.55131787 0.82157964 -0.14510567 0.0042164391
0.019812085 -0.043858405 -0.0093682781 0.039345074 0.89861125 -0.43697804 0.00082519255
0.02322568 -0.044418383 -0.010353226 0.040187825 0.89384437 -0.44657269 0.0011558901
0.025768243 -0.044270117 -0.0096813776 0.10118902 0.91702956 -0.38576877 0.0018244042
0.028441364 -0.044841494 -0.010288526 0.16118357 0.93822372 -0.30619615 0.0036258467
0.030237174 -0.04497445 -0.0097680781 0.19540277 0.93782383 -0.2868872 0.0033731337
0.011768103 0.044830877 -0.009129528 -0.12796678 -0.83830422 -0.5299722 0.00012856908
0.013802696 0.04477727 -0.0093841581 -0.10244399 -0.84597063 -0.52329624 0.00012968881
0.016655061 0.044630714 -0.0096028261 -0.05980723 -0.85878658 -0.50883067 0.00022277345
0.01964058 0.044554695 -0.0097265197 -0.011372088 -0.87383193 -0.48609504 0.00062085962
0.022489864 0.04454799 -0.0097205061 0.041475777 -0.8920207 -0.45008743 0.0014666191
0.025378089 0.044715278 -0.0096649863 0.10574732 -0.91613197 -0.38667783 0.0023252151
0.02779288 0.044874359 -0.009305384 0.17244902 -0.94330835 -0.2836031 0.0024516049
-0.05178928 0.04747656 -0.0099175489 0.39828819 -0.55900896 -0.7272383 0.052523561
-0.049834467 0.047375768 -0.009631169 0.30703151 -0.56537652 -0.76555926 0.031097975
-0.039978098 0.047130134 -0.0090841046 -0.086433537 -0.49539304 -0.86435819 0.010733134
-0.037459455 0.046884794 -0.0095944777 0.060156837 -0.55172139 -0.83185619 0.015488977
-0.034837935 0.047360051 -0.0092664985 0.2140411 -0.50351471 -0.83705395 0.010059074
-0.032698765 0.047790647 -0.0091178613 0.25155365 -0.43373752 -0.86521244 0.018597335
0.0020616997 0.04756213 -0.0094676483 -0.28030849 -0.7592451 -0.58734488 0.00082069746
0.0047940733 0.047083288 -0.010076938 -0.24613103 -0.78565264 -0.56759977 0.00049403461
0.0075050569 0.046548143 -0.010371298 -0.19892846 -0.81259686 -0.54782635 0.00016393691
0.010465811 0.046006911 -0.010514605 -0.15309048 -0.82985008 -0.53657448 0.00012509605
0.013458865 0.045736566 -0.010845543 -0.11280835 -0.8399033 -0.53088307 9.3653172e-05
0.016508188 0.045538783 -0.011062728 -0.073836178 -0.84950161 -0.52239376 0.00010928795
0.019441709 0.045437295 -0.011218875 -0.034661211 -0.86045825 -0.5083406 0.00015335885
0.022483433 0.045375977 -0.011207521 0.01029966 -0.8782106 -0.47816318 0.0006230115
0.025619105 0.045431133 -0.011160695 0.05571346 -0.89590299 -0.44074225 0.0013155558
0.028644213 0.045503907 -0.010630598 0.15276395 -0.93110645 -0.33121601 0.002951399
0.03155667 0.045942195 -0.010529222 0.21368505 -0.94256365 -0.25673425 0.0028391914
0.034547366 0.046583936 -0.010483803 0.27801344 -0.93629813 -0.21460263 0.0036689234
0.037140779 0.047456611 -0.010328176 0.40217978 -0.90030223 -0.16645503 0.0041773538
-0.051992755 0.049251176 -0.01092203 0.42284516 -0.37217805 -0.82624781 0.042253513
-0.049575083 0.049527351 -0.010189162 0.43441844 -0.29822305 -0.84990805 0.035857763
-0.043384675 0.049374547 -0.0092038205 -0.17768209 -0.37139288 -0.9113158 0.028750276
-0.040861353 0.049156819 -0.0094911121 -0.19906703 -0.29229075 -0.93538147 0.013232937
-0.03741359 0.049259711 -0.010446425 0.15588178 -0.34038767 -0.92727399 0.014502549
-0.034774989 0.049293123 -0.0098332604 0.20923115 -0.26225656 -0.94204235 0.0093395459
-0.032028209 0.049437169 -0.0092208469 0.21948324 -0.24091072 -0.94540423 0.0097618569
-0.029979866 0.050214037 -0.0090626003 0.25398818 -0.17376621 -0.95147008 0.016255531
-0.0035696798 0.050660633 -0.0091599785 -0.36220369 -0.50437731 -0.78384441 0.0058598882
-0.00056690525 0.049069978 -0.0096010249 -0.34709689 -0.66959924 -0.65662819 0.0024441646
0.0016459801 0.048950285 -0.010805498 -0.31500393 -0.72810352 -0.60880029 0.0014555028
0.0039277528 0.048359472 -0.011440055 -0.27146989 -0.769283 -0.57836646 0.00077587937
0.038513191 0.04826697 -0.010844062 0.48977795 -0.85704643 -0.15996598 0.0032318314
0.04055031 0.049551584 -0.010482632 0.58019185 -0.79781628 -0.16391023 0.0024618667
0.042185612 0.050754819 -0.0099518644 0.67354786 -0.72956079 -0.11863538 0.0029635301
-0.051658962 0.051822282 -0.01114745 0.50447422 -0.028218457 -0.86296552 0.018718628
-0.049563441 0.05213552 -0.010111813 0.44533488 -0.19457024 -0.87396747 0.03288231
-0.042968538 0.051762439 -0.0093334336 -0.12028053 -0.029971285 -0.9922874 0.0032778096
-0.040678479 0.051731568 -0.0095883673 -0.18709566 0.027079681 -0.9819684 0.005654335
-0.036907546 0.052220546 -0.010225322 0.116785 -0.01488372 -0.99304569 0.012149551
-0.034259588 0.052291848 -0.0096787577 0.20107728 0.063598722 -0.97750866 0.0032432089
-0.031903844 0.051628392 -0.0092261313 0.22006026 -0.10302746 -0.97003031 0.0048306761
-0.0043221004 0.052609719 -0.0096114501 -0.39882377 -0.41601661 -0.81723303 0.0053540543
-0.0015901516 0.052104551 -0.011133454 -0.47196525 -0.43172541 -0.76867551 0.0030094157
0.043671764 0.052389849 -0.010525797 0.74631298 -0.66136348 -0.074935816 0.0026707817
0.045087531 0.053917583 -0.010429204 0.79261851 -0.60863054 -0.036397565 0.0039526015
-0.049365405 0.054187346 -0.0094230762 0.421801 0.13033049 -0.89727253 0.026770249
-0.037428956 0.054808836 -0.0094870143 0.076667145 0.20747705 -0.97523093 0.006582513
-0.035170361 0.054408852 -0.0093045542 0.17842759 0.2017248 -0.96305281 0.0038341447
-0.032947723 0.054366443 -0.0090188496 0.17101479 0.2964395 -0.93961567 0.00046551731
-0.0050208387 0.055287052 -0.0097513972 -0.53535956 -0.12143966 -0.83584839 0.0059703509
-0.0024520271 0.054182086 -0.011390893 -0.58073914 -0.25598097 -0.77279741 0.0091733383
0.044910826 0.054130934 -0.010603309 0.80730206 -0.58957613 -0.025756005 0.0028711348
0.046084799 0.055549122 -0.010504331 0.86089921 -0.50846046 0.017901372 0.0042024557
-0.0052710329 0.057535212 -0.0095536448 -0.53397942 -0.11942177 -0.83702123 0.0044210991
0.047498547 0.058283985 -0.010458927 0.91653508 -0.38951471 0.090783723 0.0049165869
0.048119441 0.059663177 -0.011001155 0.94552034 -0.29699108 0.13336959 0.0052541327
0.047945149 0.060525477 -0.0092927292 0.9673965 -0.16795056 0.1895695 0.0050722631
0.048463885 0.061480165 -0.010595116 0.9724853 -0.15905198 0.17021999 0.0041142381
0.047978494 0.065892391 -0.0092361802 0.95750284 0.061603509 0.28176835 0.003845518
0.048680555 0.064419881 -0.010558807 0.9729346 0.0019431763 0.23107235 0.003481054
0.047855318 0.0677329 -0.0093493061 0.90735638 0.19640435 0.37165809 0.0027472707
0.048501495 0.067257196 -0.010811655 0.95693451 0.14649151 0.25063241 0.0039342185
0.047394954 0.07041201 -0.010343614 0.88866216 0.33329582 0.31494996 0.0030730234
0.048253018 0.069251902 -0.011532326 0.90637505 0.31518239 0.28132588 0.0047456799
0.044837687 0.074565478 -0.0093731284 0.8116805 0.49245262 0.31411025 0.0070492681
0.046220403 0.072831199 -0.010274686 0.84841812 0.4467777 0.28385985 0.0035210354
0.041585106 0.077805422 -0.0097319242 0.5961625 0.79721123 0.095103078 0.0043354686
0.043747116 0.0760298 -0.010521713 0.72250748 0.66404462 0.19242583 0.0050495244
0.038231276 0.079672366 -0.0093466509 0.54194593 0.82096457 0.17975451 0.0073012356
0.040576272 0.078454554 -0.010617635 0.57864124 0.80874556 0.10537969 0.0025996212
0.026644833 -0.081031412 -0.0079587828 -0.13635987 -0.99039733 0.022784134 0.0039700205
0.028711416 -0.081208579 -0.0073952447 -0.032113757 -0.99653727 0.076694801 0.003141172
0.031276118 -0.081152521 -0.0076560932 0.11489645 -0.99169397 0.057808954 0.0044305017
0.033139799 -0.081034921 -0.0082996516 0.20514543 -0.97670585 0.062936485 0.0065021673
0.014683632 -0.078118786 -0.0060663591 -0.31264642 -0.92401123 -0.22012603 0.0004827173
0.0167585 -0.078459822 -0.0072305673 -0.31718341 -0.91917628 -0.2334732 0.0031232086
0.019566232 -0.079333514 -0.0072805011 -0.25931469 -0.95559978 -0.13994564 0.0032441565
0.022473507 -0.080093995 -0.0074914619 -0.24221069 -0.96804678 -0.06495735 0.0034879744
0.025262799 -0.080724597 -0.0073980838 -0.19462404 -0.98085302 0.0069792341 0.0040815426
0.027208012 -0.080972835 -0.0062388787 -0.10566453 -0.99211544 0.067395099 0.0033514805
0.032484718 -0.080927029 -0.0068731168 0.17609544 -0.97917402 0.10103825 0.0041442635
0.03458434 -0.080444597 -0.0074462406 0.28202319 -0.95273143 0.11298542 0.0039418973
0.037538011 -0.07931909 -0.0074988981 0.41929254 -0.88762748 0.1905551 0.0036589007
0.039539155 -0.078330733 -0.0077960105 0.52227795 -0.82377577 0.22049731 0.0042497353
0.0085497759 -0.075217441 -0.0063649295 -0.43108734 -0.79175907 -0.43276012 0.0015636066
0.010586379 -0.075932033 -0.0070276707 -0.39475617 -0.84605533 -0.35827082 0.0021323545
0.013428093 -0.077090487 -0.0074196551 -0.36630222 -0.87524456 -0.31586331 0.0017076868
0.015584122 -0.077733144 -0.0082256114 -0.3522425 -0.89019823 -0.28891584 0.0020730183
0.040985849 -0.077155314 -0.007318499 0.58241892 -0.76849335 0.26496458 0.0031419294
0.042725231 -0.075772561 -0.0077312342 0.67511791 -0.6634379 0.32259256 0.0042987415
0.0050930399 -0.072601683 -0.006868958 -0.50489563 -0.68918389 -0.51971722 0.00037952646
0.0074383598 -0.073707879 -0.0075897602 -0.47136438 -0.733504 -0.48968104 0.00062291394
0.0094677443 -0.07473667 -0.0079952525 -0.42724404 -0.80028421 -0.4207229 0.00060847355
0.044102814 -0.073773317 -0.0073423828 0.76893586 -0.5225237 0.368384 0.0041014636
0.045334309 -0.072612554 -0.0083412286 0.79022884 -0.45818743 0.40694293 0.0025742648
0.0019520118 -0.069874316 -0.0070934435 -0.55436212 -0.6345033 -0.53859842 0.0002048999
0.0040916195 -0.071022443 -0.0078950915 -0.52897227 -0.66547048 -0.52662832 0.0002547754
0.044809461 -0.071539216 -0.0064278631 0.79469538 -0.35549927 0.49201578 0.0031182512
0.045959879 -0.070474632 -0.0076201824 0.82059407 -0.32702944 0.46869731 0.0016617965
-0.0010080051 -0.06709376 -0.0070908042 -0.57966214 -0.5931775 -0.55868804 0.00022336251
0.00099938433 -0.06814602 -0.0080783796 -0.57390094 -0.61317497 -0.54282057 0.00019470877
0.046876889 -0.067512728 -0.0075442288 0.85743552 -0.21460365 0.46770674 0.0015671955
0.048011865 -0.066217624 -0.0089386581 0.88893205 -0.14897718 0.4331347 0.0034374043
-0.0040045055 -0.064062104 -0.0070261057 -0.57682127 -0.54506218 -0.60842788 0.0012567779
-0.0020066495 -0.065094963 -0.0081301453 -0.60498649 -0.55631226 -0.56965607 0.00063447276
0.04729965 -0.064563967 -0.0073178373 0.88203639 -0.098323196 0.46080837 0.0019037714
0.048079185 -0.064056523 -0.0087063089 0.91395426 -0.085418984 0.39672562 0.0022513899
-0.0092694368 -0.060443979 -0.0061145448 -0.3573845 -0.5518297 -0.75349867 0.0036271326
-0.0071446626 -0.061305627 -0.006713884 -0.47127327 -0.50795227 -0.72103119 0.0040725353
-0.0050903871 -0.061813645 -0.0078854226 -0.55045491 -0.48735866 -0.67785025 0.0033954133
0.047394142 -0.061645657 -0.0072472882 0.90865982 0.036500569 0.41593871 0.0046148803
0.048093371 -0.061797366 -0.0087339869 0.94218057 0.074336633 0.32675642 0.0048309085
-0.039895087 -0.05715435 -0.0063550044 -0.23601642 -0.79383224 -0.56046993 0.0082443934
-0.037479721 -0.057238527 -0.0065293936 -0.052554853 -0.8129527 -0.57995331 0.0060222745
-0.034535784 -0.05735717 -0.0064967303 0.011386021 -0.77534765 -0.631432 0.0068975007
-0.031586789 -0.057402767 -0.0063962238 0.019702189 -0.77198511 -0.63533515 0.0053130495
-0.028600495 -0.057245582 -0.0063979346 0.049287319 -0.70100856 -0.71144772 0.0096366834
-0.025880354 -0.057330757 -0.0061952113 0.048929468 -0.63191384 -0.77349257 0.007560384
-0.02287131 -0.057174284 -0.0061246976 0.040370572 -0.56606925 -0.82336861 0.008111163
-0.019932816 -0.057110187 -0.0060442183 -0.0056101223 -0.55108082 -0.83443308 0.0055579874
-0.015854388 -0.057264086 -0.0060906052 -0.097813308 -0.4370876 -0.89408445 0.0075946413
-0.01329897 -0.057715666 -0.0062462077 -0.15815704 -0.42119545 -0.8930738 0.0060103298
-0.010346115 -0.058539506 -0.0066355132 -0.32057509 -0.42715034 -0.84544319 0.0066083292
-0.0078358715 -0.058724705 -0.00765695 -0.45842928 -0.37111121 -0.80753887 0.0069752499
-0.0058273408 -0.05891788 -0.0088018747 -0.55239499 -0.31793138 -0.77057087 0.0044835382
0.047060024 -0.05868027 -0.0074843047 0.91454172 0.23198523 0.33135536 0.0049146493
-0.051422656 -0.054977793 -0.0078163259 0.25504023 -0.82444727 -0.5052141 0.020220818
-0.049528472 -0.054939818 -0.0076110996 0.26127499 -0.78787613 -0.55766165 0.020876246
-0.046673231 -0.054743215 -0.0068066297 0.066938631 -0.84156615 -0.5359903 0.024990512
-0.043803934 -0.054911736 -0.0068898723 -0.22713034 -0.77699554 -0.58710277 0.014464179
-0.040013928 -0.056068983 -0.0075814868 -0.20731109 -0.70206559 -0.68126798 0.013265586
-0.037535191 -0.056119125 -0.0080930265 -0.010452521 -0.71277452 -0.70131528 0.013097181
-0.034554429 -0.055782199 -0.0080898758 0.07495755 -0.60539293 -0.79238927 0.0066047423
-0.031535789 -0.055750322 -0.0077270707 0.099316686 -0.56475395 -0.81926137 0.009906549
-0.028519701 -0.055762228 -0.0073400401 0.087044977 -0.56128788 -0.82303047 0.010775144
-0.025603911 -0.055797547 -0.006922734 0.089427315 -0.46989357 -0.87818152 0.008132074
-0.022707267 -0.0558975 -0.0065803765 0.084239252 -0.47431272 -0.87631685 0.0054591699
-0.01956098 -0.055507481 -0.0065253749 0.041981004 -0.38786742 -0.92075861 0.0064116283
-0.016572477 -0.055580337 -0.0065628439 -0.03904682 -0.24876197 -0.96777725 0.0046594976
-0.013568689 -0.055676132 -0.0067804721 -0.13842396 -0.21826458 -0.96602243 0.0046366826
-0.010531726 -0.055517327 -0.0073961415 -0.26008385 -0.20292599 -0.94402194 0.0051575885
-0.0078169759 -0.055754989 -0.0083163064 -0.44708648 -0.17922992 -0.87635058 0.00464442
0.044828095 -0.054151516 -0.0065522883 0.83652836 0.49173269 0.2417009 0.0036732003
0.045968395 -0.055694383 -0.0075474037 0.87815601 0.40994939 0.24654326 0.0044474583
-0.048593871 -0.05285012 -0.0086181099 0.44302845 -0.3714723 -0.8159253 0.023270527
-0.047108449 -0.052789483 -0.0080711935 0.26783937 -0.43939137 -0.85743642 0.035482325
-0.043721315 -0.053137749 -0.0085466122 -0.15120731 -0.52015591 -0.84057969 0.010718713
-0.041278206 -0.053654883 -0.0085903592 -0.2475896 -0.49874619 -0.83063328 0.014748432
-0.03319991 -0.053981058 -0.0088881413 0.14867403 -0.42889777 -0.8910346 0.011462541
-0.031363834 -0.053059515 -0.0088334829 0.17008047 -0.28798994 -0.94240886 0.0035538469
-0.028367784 -0.052819092 -0.0083191525 0.16188504 -0.2762602 -0.9473508 0.0028209526
-0.025289947 -0.05315743 -0.0077254884 0.12882163 -0.30896226 -0.94230956 0.0058186091
-0.022558952 -0.052447896 -0.0074703093 0.12530135 -0.22114602 -0.96715772 0.005321118
-0.01960141 -0.052675754 -0.0071392716 0.07078851 -0.10689821 -0.99174678 0.004869414
-0.016531451 -0.052590027 -0.006976027 -0.0058309981 -0.068176441 -0.99765617 0.0048931018
-0.013697577 -0.052771788 -0.0070619979 -0.095697284 -0.065948345 -0.99322349 0.004946365
-0.011307512 -0.053094357 -0.0073647979 -0.15989438 -0.045462687 -0.98608673 0.0058221645
-0.0075785173 -0.052232135 -0.0082306685 -0.27396587 0.2179621 -0.93671519 0.0082714437
0.043923255 -0.05245547 -0.0074851066 0.80378938 0.55950665 0.20217547 0.00446299
0.045155425 -0.053800356 -0.0085016824 0.83047557 0.53909898 0.14029446 0.0058592395
-0.048297595 -0.050434213 -0.0088723227 0.52145559 -0.17077856 -0.83601362 0.011272437
-0.047048703 -0.049679793 -0.0086481515 0.24007094 0.012516058 -0.97067469 0.03338027
-0.030237481 -0.049218446 -0.0088229673 0.19348851 -0.00028157679 -0.98110253 0.0036477514
-0.028428128 -0.050011318 -0.0086706011 0.20853493 -0.054160159 -0.97651416 0.0046278532
-0.025429804 -0.050198417 -0.0079802666 0.14734654 -0.11192556 -0.98273176 0.0075734546
-0.022796771 -0.050095875 -0.0075462121 0.14788818 -0.0058266534 -0.98898697 0.0039697853
-0.019364402 -0.050005525 -0.0070221499 0.099565595 0.014779011 -0.99492121 0.0046250871
-0.016653329 -0.049884349 -0.0067406679 0.038969923 0.1628779 -0.98587632 0.0072283102
-0.013580766 -0.050073892 -0.0067204144 -0.029764337 0.16178513 -0.98637706 0.006296793
-0.010683795 -0.049764778 -0.0068747862 -0.13726181 0.32340676 -0.93625176 0.0042436603
-0.008046696 -0.049264774 -0.0071391007 -0.17182483 0.34266117 -0.92361224 0.0046818322
0.041187786 -0.049639862 -0.0067440518 0.71234018 0.66903311 0.21205232 0.0044157496
0.042307783 -0.050617702 -0.0070334999 0.75540459 0.62337106 0.20192182 0.0047535072
-0.048502773 -0.046372619 -0.0084958011 0.38503927 0.14252485 -0.91182858 0.026755041
-0.047486309 -0.047294259 -0.0083101867 0.27276295 0.14266133 -0.95144528 0.03667571
-0.044506729 -0.046731822 -0.0082945991 -0.10300437 0.19280773 -0.97581524 0.0047631194
-0.041334454 -0.046985708 -0.0088846628 -0.14065823 0.14544396 -0.97931683 0.0073778625
-0.03685756 -0.045256317 -0.0086913202 0.14883484 0.53134871 -0.83397645 0.015229103
-0.034274533 -0.045883007 -0.0085531771 0.21568982 0.47883552 -0.85099614 0.0083241928
-0.031384364 -0.046477057 -0.0081794597 0.22155438 0.52675152 -0.82063782 0.009288067
-0.028532835 -0.046878591 -0.00770562 0.18832022 0.37041619 -0.90957534 0.0037090797
-0.02611072 -0.046356022 -0.0068205683 0.16411959 0.61398673 -0.77206546 0.0056260708
-0.022522433 -0.047269516 -0.0067268652 0.15123698 0.51087451 -0.84624738 0.0080422396
-0.019851035 -0.047556784 -0.0063851387 0.11481901 0.49742836 -0.85987306 0.0065249875
-0.01620074 -0.047799919 -0.0060396781 0.057284608 0.29434124 -0.953982 0.0069236821
-0.012882109 -0.047922686 -0.0060114991 -0.00055744575 0.52347094 -0.85204333 0.0053466349
-0.0097853439 -0.047738828 -0.006086282 -0.090572722 0.43755028 -0.89462078 0.0087854862
0.032426603 -0.04518066 -0.0075473203 0.31788516 0.94800013 -0.015644295 0.0021971844
0.03500263 -0.046057343 -0.0069179796 0.37982982 0.92363924 0.051185094 0.0024567957
0.037622247 -0.047079559 -0.0074637602 0.47478566 0.87780905 0.063480482 0.003286646
0.039179191 -0.047950536 -0.0069947806 0.54445463 0.83049375 0.11768292 0.0034355433
-0.039471932 -0.044089876 -0.0077099777 -0.015572013 0.59328252 -0.80484366 0.0081073595
-0.037504084 -0.044170428 -0.0073347976 0.14343342 0.6790365 -0.71995574 0.02280234
-0.034222219 -0.044634268 -0.0072215996 0.16339026 0.76237196 -0.62617308 0.0058990316
-0.03164874 -0.044567019 -0.006549845 0.19547626 0.71944416 -0.66647506 0.0062972638
0.015718937 -0.04213433 -0.0060211439 0.10064784 0.93437827 -0.34177068 0.0012663001
0.020312123 -0.042818077 -0.0073721688 0.076229751 0.91563171 -0.39472476 0.0011471491
0.022640118 -0.042873077 -0.0068571875 0.13450953 0.95193893 -0.27517167 0.0046895985
0.025468584 -0.043513175 -0.0075660292 0.18197744 0.94782752 -0.26173913 0.0038732123
0.028621227 -0.044176459 -0.0075956769 0.26553491 0.96024692 -0.086122297 0.0021817577
0.030378658 -0.044503689 -0.0065477239 0.30423671 0.95227498 -0.024746405 0.0032853517
-0.036003139 -0.015473361 -0.0060636741 0.095374085 -0.20621952 -0.97384667 0.0018759656
-0.035017371 -0.015555162 -0.0061074561 0.093464904 -0.20702533 -0.97386074 0.0033997037
-0.036357611 -0.01328321 -0.0064378441 0.019396931 -0.16502157 -0.98609924 0.0066910307
-0.034302156 -0.013492315 -0.0063599739 0.16388652 -0.21022722 -0.96381831 0.00138555
-0.032248486 -0.01244638 -0.0061518992 0.19940577 -0.2026293 -0.95873803 0.00046479024
-0.036760181 -0.010295538 -0.006677554 0.029884627 -0.1786533 -0.98345816 0.0023224934
-0.03423544 -0.010340483 -0.0069739982 0.15322484 -0.18343258 -0.9710173 0.0019412145
-0.031546593 -0.01047719 -0.0064107892 0.2017494 -0.18987191 -0.9608568 0.00041043997
-0.029523367 -0.0095293801 -0.0061196722 0.2445237 -0.18484972 -0.95186067 5.4217242e-05
-0.036758143 -0.0073321452 -0.0071568401 -0.038289934 -0.1204868 -0.99197626 0.0036172827
-0.03414496 -0.0073240255 -0.0074999165 0.16296366 -0.16756363 -0.97229898 0.0021804252
-0.031434055 -0.0075103026 -0.0069472031 0.20855273 -0.1606492 -0.96472663 0.00053854438
-0.029112905 -0.0072475481 -0.0063792933 0.24365203 -0.14857402 -0.95841509 0.00021067157
-0.036448304 -0.004599303 -0.0075812154 -0.065827481 -0.10466874 -0.9923262 0.0062134257
-0.033796869 -0.004852253 -0.0077852248 0.15690205 -0.10099605 -0.98243654 0.0018877059
-0.031486761 -0.0044495794 -0.007404801 0.21255149 -0.10217547 -0.97179317 0.0013590889
-0.028705643 -0.0044705933 -0.0066397642 0.25667658 -0.10337672 -0.96095288 0.00031585147
-0.026682962 -0.0036230446 -0.0061506815 0.27067485 -0.094600134 -0.95801145 0.00022718948
-0.036468904 -0.0015545572 -0.0077278614 -0.024362065 -0.059371702 -0.99793869 0.0054320069
-0.033972565 -0.0016244776 -0.0081568016 0.15227249 -0.043911789 -0.9873625 0.0037092778
-0.031378381 -0.0014950959 -0.007626568 0.22060318 -0.051840585 -0.97398502 0.0016051878
-0.028754752 -0.0015430086 -0.0069022947 0.2539942 -0.049034756 -0.96596199 0.0003448904
-0.026308911 -0.0012608265 -0.0062099979 0.26234907 -0.045484234 -0.96390051 0.00031124867
-0.036841579 0.00080967689 -0.0075237183 -0.059365939 0.0086724591 -0.99819863 0.004000342
-0.033962 0.0014780267 -0.0081921136 0.12149649 0.018846335 -0.99241292 0.0021353366
-0.031336479 0.0013972968 -0.0076327915 0.21412849 0.025425877 -0.97647452 0.0023290098
-0.028763058 0.001593122 -0.0069252932 0.25147328 0.021800864 -0.9676187 0.00038253929
-0.026141331 0.0012761683 -0.006214323 0.25684285 0.014252996 -0.96634811 0.00030789568
-0.034189418 0.0045455205 -0.0080058714 0.16936578 0.078063674 -0.9824568 0.0025696487
-0.031562004 0.0044268142 -0.0074886302 0.22166578 0.096747532 -0.9703114 0.0011201722
-0.028453756 0.0046123629 -0.0066558188 0.24896917 0.083773494 -0.96488154 0.00012733835
-0.026545495 0.0038387238 -0.0061970213 0.2517617 0.06694752 -0.96547097 0.00034364109
-0.036422007 0.0066110017 -0.0074403444 -0.0097225914 0.095960952 -0.99533767 0.0049231471
-0.033840992 0.0072423629 -0.0076854117 0.19632782 0.12101649 -0.97304183 0.0013124098
-0.031492371 0.0073563019 -0.0071426281 0.22829245 0.12251785 -0.96585298 0.00018780108
-0.028804477 0.0078849429 -0.0063254535 0.23406328 0.11672739 -0.96518862 0.000103079
-0.02680034 0.0070092939 -0.0061128386 0.23510051 0.10888804 -0.96585256 6.3940191e-05
-0.036468513 0.011192657 -0.0068652206 0.0069510071 0.16724625 -0.98589069 0.0027364488
-0.033861347 0.010220747 -0.0072093001 0.16984993 0.16061118 -0.97229373 0.0011511175
-0.030931216 0.010186215 -0.0065474198 0.22357428 0.14126857 -0.96439505 0.00014880442
-0.02939016 0.0098924739 -0.0062666712 0.22983286 0.14823328 -0.96187514 0.00010472233
-0.036368061 0.014636851 -0.0063532982 0.02862812 0.21197213 -0.97685635 0.0024217493
-0.03401918 0.013304936 -0.0066576954 0.1689925 0.19143383 -0.96684778 0.00094685028
-0.031892989 0.012780419 -0.006365601 0.20405114 0.18630479 -0.96106905 0.0001703084
-0.029718654 0.012812418 -0.0060243891 0.21349996 0.18156099 -0.95992362 0.00011359006
-0.034198541 0.015745506 -0.0061855917 0.15334341 0.20235406 -0.96723241 0.00093677716
-0.039731991 0.044096023 -0.006776114 -0.13104515 -0.8104797 -0.57092017 0.0082631866
-0.037601691 0.044443376 -0.006990042 0.056047481 -0.83245236 -0.55125463 0.0082226451
-0.034696065 0.044649985 -0.0066438532 0.13471755 -0.79329735 -0.59374285 0.0054525211
-0.032413211 0.044861909 -0.0063795336 0.15133984 -0.73428595 -0.6617555 0.0046221442
0.0025568167 0.0449384 -0.0061510471 -0.23085836 -0.78587848 -0.57367188 0.00026806965
0.0051131495 0.044538271 -0.0065123835 -0.21201935 -0.80702984 -0.55113578 0.00020626863
0.0077051353 0.044271298 -0.0069870949 -0.17344072 -0.82247037 -0.54172027 9.5064825e-05
0.010575794 0.044005856 -0.0074287495 -0.13599356 -0.83619589 -0.53130227 0.00017046971
0.013523274 0.043700747 -0.007570073 -0.080665 -0.85555714 -0.51138538 0.00027231791
0.016631749 0.043401562 -0.0074932845 -0.025546553 -0.88250881 -0.46960142 0.00068154035
0.019587176 0.043330394 -0.0074145114 0.03691943 -0.91151887 -0.40959772 0.0017281569
0.022527913 0.04355526 -0.0074391691 0.11301818 -0.9322502 -0.34370983 0.0032133511
0.02554526 0.043999098 -0.00747234 0.16458283 -0.95247865 -0.25631407 0.0034376434
0.028455546 0.044557557 -0.0073026717 0.21236582 -0.96242183 -0.16924842 0.0026523541
0.03021198 0.044920623 -0.006820119 0.25024953 -0.95954758 -0.12901042 0.0035677971
-0.051445652 0.046008971 -0.0076701408 0.2349492 -0.78528303 -0.57282591 0.025126938
-0.0493479 0.046193045 -0.0076931715 0.20173497 -0.8010149 -0.56362945 0.023880975
-0.046740536 0.046449739 -0.0072264178 0.07843437 -0.76762962 -0.63607609 0.02967922
-0.043614645 0.04641524 -0.0074396878 -0.13555871 -0.75713587 -0.63903767 0.017769115
-0.040468212 0.046024401 -0.0080789877 -0.13940214 -0.6902377 -0.7100274 0.0079779634
-0.037364334 0.045451753 -0.0083874827 0.066306479 -0.68461615 -0.72588164 0.01453101
-0.034381829 0.04589862 -0.0080483016 0.1888289 -0.63859713 -0.74601424 0.011857489
-0.031494472 0.046298169 -0.0076049776 0.20367908 -0.61031687 -0.76552474 0.0089059016
-0.028557023 0.046510164 -0.0070587746 0.1804041 -0.58976191 -0.7871691 0.0082466314
-0.025481027 0.046961207 -0.0066742823 0.16737562 -0.55817676 -0.81266481 0.0059281294
-0.02263706 0.047395017 -0.0063921511 0.15856528 -0.53262317 -0.83136612 0.0060260831
-0.020378955 0.047812056 -0.0062208679 0.16008028 -0.51412296 -0.84264576 0.0063593872
-0.0071510542 0.047812209 -0.0061517418 -0.15011977 -0.59325045 -0.79089701 0.0036968563
-0.004533404 0.047468167 -0.0064923614 -0.20523325 -0.66610968 -0.71706152 0.0025659399
-0.001301764 0.046874501 -0.0069879582 -0.24890414 -0.73048192 -0.63595825 0.0021648479
0.0015382677 0.046242412 -0.0074250326 -0.24359122 -0.7788074 -0.57803315 0.00045966238
0.0043574478 0.045636848 -0.0078221057 -0.22639854 -0.79965723 -0.5561403 0.00017598626
0.0071054879 0.045309279 -0.0083669266 -0.18718061 -0.8165496 -0.54608613 0.00013179808
0.010101154 0.045029785 -0.0089160353 -0.14850853 -0.83159107 -0.53516495 0.00011458095
0.029691102 0.04508093 -0.0086156689 0.22160238 -0.96287274 -0.15417032 0.0030524591
0.031611077 0.045407198 -0.0075555542 0.25290465 -0.96191007 -0.1037709 0.0028549298
0.034513306 0.046285376 -0.0074254302 0.32848248 -0.94441432 -0.013445332 0.0027205034
0.037406243 0.047387294 -0.0075276745 0.42220533 -0.90569377 0.038228337 0.0035007552
-0.048393358 0.049017739 -0.0088308677 0.38360521 -0.29384649 -0.87550056 0.032968741
-0.046867404 0.048769042 -0.0084038079 0.11799935 -0.38824072 -0.91397232 0.063430808
-0.044385184 0.048335835 -0.008835976 -0.10651276 -0.4866637 -0.86707181 0.010655913
-0.030396318 0.048532426 -0.008636903 0.26058644 -0.30499575 -0.91600889 0.012849139
-0.02848153 0.049311418 -0.0083616348 0.22124429 -0.23057233 -0.94756919 0.0070015178
-0.025551287 0.049411867 -0.0077309543 0.17710564 -0.31076291 -0.93384147 0.01021619
-0.022417741 0.049171112 -0.0070804465 0.16301808 -0.32181144 -0.93266422 0.0076030833
-0.019583514 0.049342219 -0.0066274223 0.11289904 -0.34443572 -0.93199664 0.0068445131
-0.016534969 0.049371719 -0.0063541802 0.073003702 -0.37971172 -0.92221981 0.0068865856
-0.013482527 0.049505051 -0.0062992615 -0.024800736 -0.43918943 -0.8980521 0.0069707269
-0.010349275 0.049335975 -0.0064080069 -0.11785527 -0.46222395 -0.87889653 0.0056583146
-0.0074200421 0.049075767 -0.0067963097 -0.15992844 -0.5926199 -0.78944576 0.003738791
-0.0044018091 0.049084943 -0.0077546933 -0.26791194 -0.61418319 -0.74229527 0.0044832346
-0.0015157444 0.04838511 -0.0085185636 -0.30358061 -0.69115371 -0.65585464 0.0027788344
0.038773768 0.048169911 -0.0068373764 0.52548373 -0.84409827 0.10660609 0.0053891344
0.040536571 0.049374126 -0.0075085284 0.60696185 -0.78921384 0.093481816 0.004461159
0.042236414 0.05079443 -0.0078965388 0.6997245 -0.70472419 0.11725772 0.0033259499
-0.048580542 0.052453134 -0.0088420482 0.445384 -0.018862722 -0.89514095 0.023724442
-0.047246769 0.052352875 -0.0084607005 0.19644415 0.15837067 -0.96764064 0.035140708
-0.043676592 0.053085405 -0.0087877354 -0.15564816 0.077863894 -0.98473901 0.0087661119
-0.030727707 0.052875064 -0.008847679 0.20948279 0.075124986 -0.97492212 0.0025479258
-0.028351931 0.05214614 -0.0084373085 0.2139145 -0.11070535 -0.97055906 0.0044052345
-0.02519298 0.051972944 -0.0078395605 0.1805739 -0.11634235 -0.97665632 0.0033855918
-0.022224596 0.05224273 -0.0074094785 0.14776255 -0.091639541 -0.98476821 0.0065282481
-0.019421162 0.05192421 -0.0070267823 0.10515854 -0.21458039 -0.9710288 0.0050710673
-0.016449044 0.052389022 -0.0069098733 0.03280843 -0.091983385 -0.99521995 0.0058075427
-0.013636089 0.052252967 -0.0068969037 -0.041564822 -0.2961804 -0.95422715 0.0059106611
-0.01007535 0.051923726 -0.0073241964 -0.16095118 -0.24732329 -0.95547163 0.0053770095
-0.0075668432 0.05231351 -0.0081020938 -0.30032697 -0.26756343 -0.91553998 0.0079911314
-0.0053621102 0.051797077 -0.0088147921 -0.46353373 -0.27158767 -0.84343147 0.0054974309
0.043627899 0.052444972 -0.0075301179 0.77200782 -0.6149531 0.16073781 0.0037719696
0.045052212 0.053879678 -0.0088201556 0.79286182 -0.59574085 0.12830856 0.0044222591
-0.048697729 0.054860827 -0.008137729 0.32880214 0.20449507 -0.92199296 0.031208182
-0.047609128 0.054733437 -0.0074793627 0.097513586 0.27200535 -0.95734227 0.044136297
-0.034034006 0.055722564 -0.0084508415 0.17894953 0.26055756 -0.94872904 0.0015207337
