# .PCD v0.7 - Point Cloud Data file format
VERSION 0.7
FIELDS x y z normal_x normal_y normal_z curvature
SIZE 4 4 4 4 4 4 4
TYPE F F F F F F F
COUNT 1 1 1 1 1 1 1
WIDTH 573
HEIGHT 1
VIEWPOINT 0 0 0 1 0 0 0
POINTS 573
DATA ascii
0.061473522 0.052533776 0.0076930788 -0.23981471 0.60396308 0.7600773 0.0036555268
0.064548224 0.052543271 0.0082644792 0.023393236 0.46057019 0.88731498 0.0092360536
0.067522936 0.052510459 0.0077826567 0.3265931 0.29156235 0.8990708 0.010915502
0.069679551 0.052412588 0.0065882853 0.67071992 0.15981406 0.72428882 0.009477485
-0.070062257 0.055815142 0.0064174994 -0.11560679 0.39129549 0.91297472 0.0098642716
-0.067458533 0.055435438 0.0067711989 0.010128061 0.46538165 0.88505214 0.0098557426
-0.064529061 0.054978091 0.0066991556 0.13645531 0.60246992 0.78639048 0.010470912
-0.061709419 0.054433335 0.0064444579 0.19573194 0.70746291 0.67910618 0.0055828453
-0.059599645 0.054220386 0.006096445 0.24040067 0.75332141 0.61213917 0.0034000073
0.062295392 0.054511685 0.0064656665 -0.35227033 0.58719313 0.72877288 0.0058622197
0.06468498 0.055223439 0.0067813206 -0.17174828 0.4827047 0.85877746 0.01233724
0.067524523 0.055466648 0.0067266147 0.14843275 0.33336139 0.9310413 0.025957465
0.069358297 0.054932933 0.0062503084 0.51085746 0.23718186 0.82629859 0.010075896
-0.069722943 0.0571394 0.0060034143 -0.0079706162 0.67539907 0.73740935 0.015934207
-0.068200454 0.057080425 0.0060510444 0.11349263 0.52292043 0.84479213 0.011313197
0.067221127 0.057268333 0.0060757343 0.10671605 0.36813849 0.92362636 0.027760983
-0.0096562244 0.0053273938 0.010826917 -0.058845196 -0.6785199 0.73222131 0.00076562882
-0.0077313669 0.0049585733 0.010530988 -0.040535714 -0.66176277 0.74861664 0.00038565695
-0.0044207061 0.0052872342 0.011152113 -0.020278139 -0.65724915 0.7534005 0.00060682441
-0.0014038789 0.0051800255 0.011111733 0.014906973 -0.62832975 0.77780432 0.00066060427
0.0010657024 0.0049975561 0.01090724 0.016570942 -0.65962815 0.75140947 0.00087019044
0.0043577976 0.005096158 0.010905804 0.023526516 -0.65694308 0.753573 0.0011761471
0.0076099718 0.0053262385 0.010912905 0.063918956 -0.67076665 0.73890901 0.0013848988
0.010570988 0.0052498966 0.01051886 0.088569902 -0.695535 0.71301222 0.00081163656
0.012920298 0.0053864368 0.010344913 0.11114059 -0.72860163 0.67586046 0.00055029418
0.01638357 0.0054661417 0.0097780991 0.12458614 -0.6970827 0.70608354 0.0012187705
0.019116493 0.0056650639 0.0093678068 0.16077533 -0.75140357 0.63995624 0.00054348452
-0.016464639 0.0066346284 0.010989057 -0.11550967 -0.64313644 0.75698948 0.00052418525
-0.01110205 0.0064148884 0.011671912 -0.082481004 -0.63052279 0.77177578 0.0012597747
-0.007839446 0.0060421019 0.011804928 -0.056490283 -0.66736972 0.74258101 0.001235906
-0.0059174658 0.0060919216 0.011964233 -0.043619413 -0.67419529 0.73726392 0.0010140195
-0.0027907505 0.006071703 0.011901294 0.0066765682 -0.61517221 0.78836453 0.00058556936
0.0048140348 0.0060188095 0.011914527 0.043249074 -0.65932459 0.75061357 0.0029785905
0.0072322465 0.0062948354 0.01192241 0.05428426 -0.6408841 0.76571584 0.0013122088
0.010592964 0.0064486112 0.011734597 0.079364583 -0.65452296 0.75186497 0.0014065921
0.013905356 0.0066437754 0.011493889 0.10654915 -0.67001593 0.73466045 0.0018475329
0.016617183 0.0068365932 0.01119259 0.12907383 -0.67394179 0.72742176 0.00138911
0.019473532 0.0071990332 0.010979946 0.14495164 -0.66117072 0.73609948 0.0019085417
0.022522394 0.0080165165 0.011008084 0.17837207 -0.68759149 0.70384747 0.001403772
0.025270931 0.0078476667 0.010134743 0.18404289 -0.69548649 0.69456959 0.00055170653
0.028573468 0.0080493726 0.0093923993 0.18555148 -0.68268222 0.70676422 0.00058107497
0.031250499 0.0086892201 0.0093276389 0.20275539 -0.66205698 0.72150588 0.00036395178
0.025646951 0.0093286075 0.011466485 0.18246382 -0.66914517 0.72038305 0.00066985498
0.028621953 0.0098403469 0.011033764 0.1990626 -0.63196403 0.74899638 0.001333798
0.03163752 0.010394292 0.0106887 0.20392244 -0.6404019 0.74047357 0.00043832592
0.034368455 0.01057566 0.010160121 0.20749944 -0.63479304 0.74429947 0.00070360972
0.037304059 0.011412022 0.010023846 0.24834834 -0.65633637 0.71242243 0.001315886
0.040322658 0.011817735 0.0093071684 0.28458768 -0.65729314 0.69783634 0.0011548912
0.0326286 0.012160564 0.011869128 0.20320609 -0.60876071 0.76688838 0.00035979753
0.034579694 0.012508409 0.011606802 0.20620787 -0.6088903 0.76598358 0.00029566244
0.037768595 0.013114683 0.011255795 0.22147223 -0.57907373 0.78461689 0.00049397856
0.040261179 0.013593761 0.010839821 0.26363525 -0.6032837 0.75269204 0.0013604537
0.043104723 0.013847781 0.01001915 0.32167569 -0.64401537 0.69409585 0.0012158586
0.045860544 0.014685841 0.0094605237 0.34995365 -0.62579334 0.69707614 0.001677004
0.041434404 0.015112878 0.011640523 0.25471824 -0.5728026 0.77911222 0.00057846098
0.043731675 0.015791565 0.011314364 0.28549522 -0.56931579 0.77095526 0.0012535916
0.046524271 0.016596645 0.010777077 0.34563312 -0.57268316 0.7433517 0.0017756945
0.04910659 0.017159419 0.009959463 0.39068499 -0.61395574 0.68587428 0.0019151765
0.051621288 0.017855864 0.009148825 0.46139887 -0.65214533 0.60151279 0.0014589994
0.047567487 0.01865368 0.011859953 0.3032144 -0.50003773 0.81118637 0.00148616
0.049807459 0.019134361 0.01117923 0.36091 -0.53914881 0.76096153 0.0023545511
0.052324504 0.019890649 0.010384172 0.4229413 -0.55793899 0.71402013 0.0018068342
0.054468267 0.020273566 0.0093377754 0.468052 -0.59284186 0.65533644 0.0010216876
0.050890613 0.021017747 0.011837666 0.37940669 -0.5097335 0.77215439 0.0013133489
0.053012863 0.021953732 0.011495188 0.38051477 -0.4687472 0.79717284 0.0016016453
0.055385951 0.022563953 0.010526429 0.445728 -0.50701666 0.73774022 0.0014723944
0.057646099 0.023329422 0.0095821116 0.50297576 -0.53257823 0.68071717 0.00097779161
0.0066963439 0.02696524 0.011973205 -0.0383652 0.64528579 0.7629773 0.0035374581
0.056193065 0.024968797 0.011617738 0.42864165 -0.40981427 0.8051824 0.0021122259
0.058505688 0.025609074 0.010552426 0.49472216 -0.43455201 0.75260514 0.0023047843
0.060571123 0.026074005 0.0093351593 0.56570464 -0.47040913 0.67726916 0.0024068605
-0.012857621 0.029881759 0.01182596 0.19411111 0.72365624 0.66230094 0.0015859493
-0.010274914 0.029559093 0.011550568 0.17450991 0.68671447 0.70566958 0.0010980883
-0.0073813596 0.029229036 0.011213143 0.14370874 0.73253489 0.66538751 0.0016471207
-0.0043926598 0.029022118 0.010876601 0.11397459 0.75686371 0.6435582 0.0013389798
-0.0015142797 0.028803572 0.010685797 0.085724808 0.75977057 0.64451534 0.0011786382
0.0015009582 0.028654715 0.010550506 0.05141696 0.75462765 0.65413558 0.0017256382
0.0045584901 0.028539205 0.010568707 0.016816439 0.73704952 0.67562944 0.0025191093
0.0075000892 0.028546549 0.010561924 -0.025385516 0.73506135 0.67752522 0.0026777613
0.010393082 0.02869265 0.010587365 -0.072266586 0.7333315 0.67601961 0.0023675624
0.013421922 0.02881673 0.010838334 -0.11071478 0.70368779 0.70183027 0.0015703045
0.016358061 0.029104808 0.011084144 -0.14756405 0.70636183 0.69229901 0.0018945414
0.019219546 0.029434437 0.011440133 -0.17303933 0.70865744 0.68400437 0.0017792825
0.021793678 0.029812494 0.01174955 -0.18726707 0.67766392 0.71112782 0.0017203046
0.059211519 0.02818354 0.011487945 0.46600881 -0.35513958 0.81037748 0.0011239987
0.061449081 0.028629124 0.010197266 0.5479548 -0.40194193 0.73361319 0.0018000955
0.063195243 0.029447673 0.0092467722 0.62611955 -0.42095831 0.65632939 0.0028366242
-0.059274964 0.031300358 0.011626204 -0.5269416 -0.30257776 0.79421604 0.0015872251
-0.02130953 0.032784592 0.011727138 0.26379281 0.70819855 0.65488034 0.0029640666
-0.019310383 0.032431386 0.011330727 0.25432464 0.72189468 0.64357358 0.00049121305
-0.01644299 0.031984709 0.010713487 0.23684716 0.76341778 0.60091329 0.0011321382
-0.013598576 0.031311944 0.01049232 0.20743367 0.76356786 0.61150253 0.0024767369
-0.010630033 0.030867599 0.01013198 0.18166317 0.76927984 0.61254144 0.0018188002
-0.0076180627 0.030535312 0.0097291246 0.14874254 0.77546191 0.6136241 0.0015175963
-0.0048290794 0.030303776 0.0094172657 0.11359549 0.7817409 0.61316973 0.0012944196
-0.0015852748 0.030089892 0.0091318209 0.083301447 0.78921586 0.60843992 0.0010067238
0.00026000006 0.030110547 0.0090123815 0.063215807 0.77179664 0.63271928 0.0011320593
0.011476714 0.030055391 0.0091909356 -0.073948465 0.76608598 0.63847005 0.0014810178
0.01381215 0.030244648 0.0092973569 -0.11564026 0.76539177 0.6330899 0.0016474095
0.01659934 0.030462794 0.0096553611 -0.16301364 0.75228047 0.63835776 0.0017291858
0.019582594 0.030893102 0.010013897 -0.19369555 0.73673671 0.64784342 0.001992705
0.022555383 0.031343207 0.01040563 -0.20543726 0.72411829 0.65836787 0.0024897216
0.025490379 0.031822234 0.010862102 -0.23646718 0.68228924 0.69178373 0.0023271029
0.028343225 0.032283381 0.011337752 -0.22917278 0.67063028 0.70550334 0.0015824045
0.030873669 0.032695901 0.011795892 -0.23323487 0.65541232 0.71835655 0.0017710241
0.059860677 0.030623278 0.011985432 0.50276887 -0.28844559 0.81487578 0.0011906931
0.06173503 0.031395812 0.011244934 0.50946122 -0.29230985 0.80932325 0.0010666675
0.063941739 0.031906486 0.0098653147 0.6057694 -0.33333302 0.722449 0.0019684604
-0.063698612 0.035339154 0.009791418 -0.60199624 -0.25009212 0.75832349 0.0010648248
-0.061221752 0.034467977 0.011561575 -0.54694366 -0.24036863 0.80191994 0.0018626209
-0.027906545 0.035612356 0.011541498 0.30560943 0.7003991 0.6450147 0.0011102391
-0.025324553 0.035051893 0.010921207 0.30310851 0.74826115 0.59011054 0.0013490053
-0.022622466 0.034337986 0.010449362 0.2854808 0.76604164 0.57591748 0.00093055191
-0.019764112 0.033719886 0.0099219009 0.27070212 0.76637799 0.58256769 0.0013231888
-0.017231399 0.033272892 0.0093395011 0.251791 0.78184444 0.57036877 0.00094314065
0.025892472 0.033294614 0.0093508353 -0.23808457 0.75398922 0.61222219 0.0010838039
0.028647089 0.033748578 0.0098911989 -0.25497752 0.7263869 0.63823861 0.0016378289
0.031623136 0.03428844 0.010455319 -0.26071021 0.7126568 0.65126836 0.002734825
0.034328789 0.034934804 0.010902491 -0.29316902 0.65743989 0.6941359 0.0021895347
0.03699103 0.035470907 0.01156405 -0.30399466 0.63279361 0.71215135 0.0022242402
0.039093833 0.03597746 0.011938006 -0.29849178 0.59523505 0.74605495 0.0011542233
0.062431347 0.034256071 0.011704725 0.50442523 -0.19620581 0.84086764 0.0019461387
0.064465344 0.034580424 0.010411573 0.59150988 -0.24187636 0.76916313 0.0020954378
0.066268213 0.03528057 0.0091831898 0.6733734 -0.26538387 0.69002879 0.0023402178
-0.064029589 0.038111173 0.010567272 -0.59371632 -0.17775775 0.78479493 0.0017171158
-0.062314048 0.037112869 0.01163101 -0.54714954 -0.17752661 0.81799245 0.0022250444
-0.03404237 0.03850938 0.011446062 0.32356983 0.68757719 0.65003085 0.0012205543
-0.031406384 0.037902772 0.010696433 0.33352143 0.74036282 0.58363211 0.0012654918
-0.028694985 0.037042644 0.010231084 0.32799774 0.74254978 0.58398408 0.0014706237
-0.025985012 0.036343426 0.0095826015 0.32190794 0.7714569 0.54884374 0.00081506121
0.034987513 0.036469296 0.0095711602 -0.32443619 0.71694791 0.61703074 0.0020365573
0.037636776 0.037121445 0.010280665 -0.3358174 0.68549663 0.6460039 0.0025500832
0.040263843 0.037903454 0.010916363 -0.33454052 0.60069543 0.72611815 0.0019335039
0.042995822 0.038575936 0.011638421 -0.30815348 0.60347313 0.73543304 0.0026510265
0.06277436 0.036809772 0.011964211 0.49735308 -0.10935187 0.8606289 0.0025133356
0.064494409 0.037477501 0.011060182 0.52713197 -0.12437351 0.84063268 0.0012958539
0.066549204 0.037729155 0.0096210921 0.65507436 -0.16819507 0.73660576 0.002532454
-0.066262238 0.040307909 0.0092461491 -0.61877757 -0.1247224 0.7756021 0.00060972327
-0.064336069 0.040780406 0.010855509 -0.56622797 -0.067931049 0.82144463 0.0019855804
-0.06279806 0.039754126 0.011806699 -0.53302473 -0.041988026 0.84505725 0.0022890035
-0.042085502 0.041815717 0.011888901 0.31269404 0.64836645 0.69414943 0.0026573287
-0.040009856 0.041392881 0.011408641 0.31408179 0.6757347 0.66688472 0.0012298072
-0.037416056 0.040783927 0.010672745 0.34230328 0.72410429 0.59874982 0.0014018888
-0.034719422 0.039939944 0.010117706 0.34934324 0.7340222 0.58238363 0.0013956567
-0.032265227 0.039332855 0.0093571395 0.36193946 0.75934714 0.54073262 0.00130837
0.041063536 0.039631676 0.0096707623 -0.393498 0.67943037 0.61930096 0.0020620257
0.043619946 0.040378492 0.010362208 -0.36052421 0.63121283 0.68672597 0.0025048442
0.046312187 0.040884506 0.011224913 -0.3008123 0.56242073 0.77019143 0.0015039459
0.04894191 0.041564059 0.011725049 -0.25929409 0.56993127 0.77970821 0.0024470224
0.062960722 0.039431628 0.011988034 0.46251935 0.007075916 0.88658094 0.0043968544
0.064606808 0.040486962 0.01129138 0.45421764 0.0025081125 0.8908872 0.0042920969
0.066890009 0.040570091 0.0097774202 0.61975098 -0.070734337 0.78160441 0.0031185325
-0.066583075 0.043651763 0.009512254 -0.59344816 -0.044819105 0.80362338 0.0027550387
-0.06440933 0.04346611 0.010955499 -0.47976652 0.015152891 0.87726533 0.0042085522
-0.062748224 0.044570714 0.011730497 -0.38676915 0.13010761 0.91295218 0.0083310138
-0.048560124 0.044777364 0.011859615 0.22411652 0.61876899 0.75292546 0.0018907143
-0.046235096 0.044295553 0.011396495 0.28097096 0.65773869 0.69888133 0.0011273081
-0.043429196 0.043725401 0.010634288 0.32088006 0.70025885 0.63770968 0.0014860114
-0.040733453 0.042893875 0.010101705 0.35318249 0.71539575 0.60288554 0.0014859143
-0.038407847 0.042308506 0.0094064046 0.380885 0.73255503 0.56417167 0.0011362293
0.044737536 0.042177219 0.0092447018 -0.39087471 0.66902637 0.63215554 0.0017529175
0.046830188 0.04282416 0.0097933337 -0.36825994 0.64738476 0.6672911 0.0021213216
0.04951885 0.043458287 0.010487539 -0.30922744 0.59921032 0.73846149 0.0024265589
0.052372992 0.043879542 0.01123966 -0.24282126 0.5262776 0.81490475 0.0015235181
0.055250168 0.044394467 0.011686001 -0.17197818 0.46256486 0.86974549 0.0026832691
0.058008488 0.044803888 0.011882286 -0.045621701 0.43664417 0.89847678 0.0043906928
0.061971154 0.044338245 0.011843142 0.16383475 0.22776024 0.95983511 0.007901134
0.064493425 0.043512717 0.011208363 0.39672819 0.10766735 0.91159999 0.0043822937
0.067088574 0.043495763 0.0097528743 0.57288414 0.029733026 0.8190968 0.0039565745
-0.066602603 0.046778649 0.0094873337 -0.5051409 0.09344814 0.85796279 0.0052108425
-0.06415949 0.047065515 0.010749504 -0.25749168 0.31731206 0.91269445 0.0015459517
-0.061556812 0.046922754 0.011582844 -0.17170234 0.38381079 0.90730792 0.0055086096
-0.058417559 0.047516942 0.011675145 -0.0070657418 0.49089313 0.87119108 0.0029692862
-0.055372339 0.047358777 0.01155769 0.11476694 0.55021846 0.82709622 0.0021278537
-0.052378848 0.046963651 0.011213299 0.2001604 0.60030806 0.77431649 0.0015004916
-0.049482435 0.046521951 0.010588535 0.25645003 0.64080119 0.72360712 0.00085436786
-0.046666246 0.045888733 0.0099727055 0.32989946 0.705203 0.62757879 0.0014233487
-0.044466805 0.045371443 0.0093742162 0.36456871 0.7084024 0.60436398 0.0018123823
0.050398078 0.045345534 0.0092682438 -0.36387137 0.6556437 0.66161084 0.001932146
0.052690685 0.045951635 0.009805155 -0.31061801 0.62147975 0.71922135 0.0023214261
0.055518229 0.046487212 0.010422737 -0.23665257 0.54173684 0.80654627 0.0018979436
0.058537614 0.046556134 0.011047601 -0.085785173 0.45273373 0.88750941 0.0035249244
0.061540928 0.046529334 0.011181953 0.070729837 0.35648054 0.93162173 0.0059871157
0.064540446 0.046477124 0.010642145 0.30813363 0.24765584 0.91854244 0.0086209858
0.066972665 0.046420503 0.009588412 0.50662869 0.14036956 0.8506608 0.0057394207
-0.066347435 0.049709592 0.0091925981 -0.23524201 0.35184526 0.90601659 0.0030583108
-0.064428441 0.049699157 0.0097897155 -0.17886122 0.39460036 0.90127647 0.0025950246
-0.061447322 0.049589265 0.010355177 -0.089076556 0.4883818 0.86807185 0.0045254841
-0.058450621 0.049568623 0.01036201 0.085267074 0.58229643 0.8084926 0.0028984763
-0.055564288 0.049336832 0.010062416 0.18107136 0.64791942 0.73987406 0.0024305305
-0.052682694 0.048705589 0.0097430702 0.25902441 0.68039989 0.68553793 0.0019171992
-0.050371319 0.048274517 0.009260267 0.32317755 0.69002622 0.6476264 0.0017688783
0.056323051 0.048365142 0.0093368208 -0.28809914 0.61930621 0.73038256 0.0030066546
0.058671173 0.048908204 0.0096468963 -0.18968242 0.55589932 0.8093186 0.0045163971
0.061551064 0.049366999 0.0098367147 -0.057690904 0.45111871 0.8905974 0.0063443477
0.064479865 0.049430951 0.0096986173 0.1671073 0.33472228 0.9273814 0.0075037922
0.066546716 0.048986524 0.0092751691 0.39903471 0.26693797 0.87722033 0.0072975531
-0.063793592 0.051304776 0.0091445185 -0.10175733 0.47316003 0.87507999 0.0049708574
-0.061504006 0.051337618 0.0092464779 0.013075083 0.60981005 0.7924397 0.0042013298
-0.058824893 0.051145062 0.0092044426 0.12011652 0.64284176 0.75652272 0.002334187
0.062572397 0.051040675 0.0090667251 -0.081490934 0.51020509 0.85618335 0.0089223403
0.064032212 0.051148623 0.0090663964 0.056279927 0.44411033 0.89420277 0.0096646212
-0.00082894589 0.0059771449 0.012005055 0.0081999479 -0.627119 0.77888036 0.0010615005
-0.015901584 0.0086266957 0.013161037 -0.095742926 -0.59495586 0.79803556 0.0014583283
-0.013272973 0.0081890756 0.01313713 -0.0693729 -0.620094 0.78145432 0.0013548424
-0.010234466 0.0079687415 0.013263369 -0.038074292 -0.60817772 0.79288727 0.0013233997
-0.007377977 0.0079362327 0.013414268 -0.040749613 -0.61296624 0.78905755 0.0013618476
-0.0044907816 0.0077546206 0.013356319 -0.016008912 -0.59818971 0.80119467 0.0014769414
-0.0015995742 0.0077517368 0.013359593 0.0001001016 -0.59078538 0.8068288 0.0016885563
0.0014578719 0.0076329121 0.01321353 0.023527931 -0.57971758 0.8144778 0.0016799343
0.0045009227 0.0077132769 0.013152596 0.046409737 -0.56005865 0.82715201 0.0017820953
0.00755799 0.0077988505 0.013037168 0.053130198 -0.57368898 0.81734824 0.0010894949
0.010539749 0.0079660844 0.0129331 0.083395943 -0.58447123 0.8071174 0.0013813879
0.01338481 0.00813221 0.012772748 0.093162328 -0.58542579 0.80535549 0.0014676056
0.016408794 0.0082551483 0.012473773 0.11076643 -0.60689604 0.7870248 0.0019420364
0.019154061 0.0086550778 0.01235041 0.12533475 -0.60797155 0.78400367 0.0027024709
0.021791933 0.0089416252 0.012171227 0.17281684 -0.66078007 0.73041362 0.0013847179
-0.027760625 0.011649625 0.013082108 -0.17971388 -0.57972264 0.79474813 0.00055992475
-0.025681838 0.01088941 0.01297844 -0.16528501 -0.59759241 0.78457904 0.00038093494
-0.021623434 0.011622908 0.014602808 -0.12077952 -0.5338344 0.83691883 0.00067629735
-0.019548465 0.010403983 0.014006166 -0.096505247 -0.54062057 0.83571297 0.00053870893
-0.016393531 0.010157773 0.014323033 -0.083560064 -0.54212326 0.83613402 0.0010731661
-0.013604641 0.01005902 0.014564689 -0.067656167 -0.54126841 0.83812362 0.001357961
-0.010463687 0.0097526265 0.014568392 -0.0426322 -0.51852536 0.85399878 0.0018389244
-0.0073610973 0.0096788313 0.014624828 -0.016320968 -0.49627998 0.86800915 0.0019060228
-0.0045720898 0.00965547 0.014629522 0.0041159424 -0.47591394 0.87948227 0.0020261132
-0.0014397355 0.0096782371 0.014603855 0.020516096 -0.4666287 0.88421535 0.0019451191
0.0015015416 0.0098022372 0.014585854 0.034002669 -0.45709407 0.88876814 0.0019163346
0.0044461349 0.0099999774 0.014564451 0.045242786 -0.45273367 0.89049727 0.0018401877
0.007583715 0.01030317 0.014529551 0.05520913 -0.45181486 0.89040178 0.0015956357
0.01060481 0.010374723 0.01436691 0.073773965 -0.44713485 0.89141899 0.00129097
0.013542201 0.010584288 0.014225835 0.079028375 -0.44909588 0.88998169 0.0012904775
0.01655497 0.010546267 0.013903987 0.0913008 -0.4549219 0.88583869 0.0012983875
0.019552074 0.010502222 0.013504102 0.11732131 -0.49528959 0.86076939 0.0028688684
0.022455407 0.010676324 0.013177935 0.14251643 -0.51916659 0.84270704 0.0019963465
0.025376219 0.011028316 0.012873771 0.16284145 -0.54315454 0.82369035 0.0023540743
0.028536433 0.011465866 0.012484943 0.18284705 -0.58178717 0.79252172 0.0012825774
0.030258512 0.011962787 0.01232068 0.19818741 -0.60393447 0.77200061 0.00073353422
-0.033962626 0.014281069 0.013435684 -0.23696572 -0.54682088 0.80301571 0.0011263805
-0.031260729 0.014576848 0.014590484 -0.19888303 -0.57363749 0.79459774 0.00050106028
-0.028783446 0.013339917 0.014241468 -0.15993413 -0.55741054 0.81468683 0.0012839709
-0.025890753 0.013023625 0.01473518 -0.16954629 -0.55784243 0.81244439 0.0014762903
-0.022967547 0.012277663 0.014754864 -0.1405901 -0.52186924 0.84136015 0.0022366329
0.013931213 0.012354696 0.01488772 0.071916699 -0.3046855 0.94973403 0.0018521121
0.016700489 0.01261362 0.014855726 0.081359655 -0.35471094 0.93142939 0.002975825
0.019573575 0.01295892 0.01470968 0.1013869 -0.36428532 0.9257521 0.0019246951
0.022662692 0.013354551 0.014528045 0.11264774 -0.39180872 0.91312456 0.001702363
0.025123602 0.013826351 0.014447775 0.114133 -0.34108388 0.93307847 0.0013723482
0.02822271 0.013924339 0.014057726 0.1281528 -0.37883291 0.91654921 0.0017224589
0.03145089 0.013570543 0.013213636 0.18798968 -0.5075596 0.84085852 0.0024670947
0.03436999 0.014028583 0.012810775 0.1909018 -0.54286617 0.81783432 0.00097069534
0.037288547 0.014460446 0.01230439 0.21010339 -0.54895729 0.80901331 0.00037794354
-0.039573342 0.017397815 0.013824338 -0.29526708 -0.53810817 0.78946632 0.00026763996
-0.037256755 0.016082309 0.013718684 -0.25826302 -0.53477323 0.80456066 0.0010164344
-0.0348312 0.016276138 0.014844596 -0.24799444 -0.53673959 0.80647963 0.0010921402
0.023547977 0.01511724 0.014982303 0.08427044 -0.27866369 0.95668441 0.00056261237
0.025899559 0.015355236 0.014924468 0.097342461 -0.26468214 0.95941013 0.0021187398
0.028691957 0.015761679 0.014740888 0.12145808 -0.32131562 0.93915081 0.0026975945
0.031586058 0.016199585 0.01454377 0.13831165 -0.37526584 0.91653991 0.0022836011
0.034184601 0.016572503 0.014337617 0.13423568 -0.35302237 0.92593515 0.0014229334
0.037465535 0.01665787 0.013660623 0.1981477 -0.46377143 0.86351234 0.0015387505
0.040511392 0.016631946 0.01283109 0.22374481 -0.49468499 0.83977675 0.00053996791
0.043286074 0.017324861 0.012473511 0.2546939 -0.51006204 0.8215642 0.0010644454
0.045387387 0.017760172 0.012090635 0.29956272 -0.53833652 0.78769028 0.0014413155
-0.046128329 0.020865759 0.01330374 -0.36686894 -0.48337498 0.79483074 0.00063912623
-0.043572783 0.020279896 0.014172478 -0.32626146 -0.50023961 0.80206847 0.00092303427
-0.041271355 0.019316364 0.014576055 -0.31151789 -0.51722592 0.79714119 0.0010013632
0.035014492 0.018343724 0.014920066 0.095748223 -0.23209606 0.96796882 0.0020891686
0.037747908 0.01895006 0.014697209 0.16739854 -0.34359068 0.92407972 0.0030720038
0.040523626 0.019458527 0.014340363 0.20274457 -0.39388135 0.89652222 0.0012560484
0.043558232 0.019542843 0.013584056 0.23438737 -0.41891098 0.8772549 0.00084092666
0.046391729 0.019843163 0.012902951 0.27378154 -0.45250034 0.8486973 0.0011359956
0.048794806 0.020164065 0.01228996 0.32668635 -0.47642314 0.81627017 0.0018147549
-0.046543419 0.022739286 0.014427369 -0.37296799 -0.47717616 0.79573727 0.0006111323
-0.043656204 0.02141672 0.014975169 -0.33227438 -0.4836297 0.80975062 0.00077314989
-0.0037932752 0.023813 0.014895815 0.09789633 0.51961529 0.8487733 0.0012888343
-0.0012427295 0.023619408 0.014766055 0.072462976 0.4630852 0.88334662 0.0019540854
0.0016168933 0.023424203 0.014673236 0.048146054 0.44068855 0.89636803 0.0023269749
0.0045628273 0.023236131 0.014654693 0.020650014 0.44356596 0.89600384 0.0022659216
0.0074417046 0.023216084 0.014633776 -0.0064604837 0.43918011 0.89837575 0.0022299334
0.010408972 0.023272326 0.01465466 -0.031562679 0.42053595 0.90672672 0.0024576655
0.013402291 0.023365503 0.014737532 -0.054815903 0.39110711 0.9187113 0.002796395
0.016018381 0.023684284 0.014780012 -0.07368134 0.34840786 0.9344427 0.0031387126
0.018729581 0.02380708 0.014974016 -0.083598576 0.28862205 0.95378643 0.0030949013
0.041423719 0.021390533 0.014824591 0.13284832 -0.245882 0.9601528 0.00342302
0.043658461 0.022036372 0.014710438 0.19806437 -0.2900075 0.93630451 0.0024211954
0.046063218 0.022214768 0.014147718 0.23535016 -0.32831648 0.91477787 0.00087852479
0.049384344 0.022545872 0.013263739 0.29235932 -0.37901458 0.87799424 0.00067467598
0.052191187 0.023289384 0.012632999 0.33488125 -0.39054304 0.85751426 0.0012981532
0.054152235 0.023820275 0.012113651 0.39175698 -0.40881473 0.82425547 0.0022162814
-0.051542118 0.025876388 0.013755858 -0.40075999 -0.39228842 0.82795006 0.00043993353
-0.050360013 0.024551079 0.013591876 -0.38442212 -0.40773886 0.82823223 0.00038425549
-0.047262885 0.024142493 0.014979092 -0.34908524 -0.44249818 0.82603568 0.0019588147
-0.015527863 0.026776513 0.014887151 0.183548 0.51912647 0.83475608 0.00053532358
-0.013228618 0.026501318 0.014714492 0.17279695 0.51461762 0.8398273 0.0013903165
-0.010374393 0.02605428 0.014458302 0.15016022 0.52435207 0.83815682 0.001528243
-0.0074644871 0.025736278 0.014178616 0.12889224 0.54860628 0.82608587 0.0016251676
-0.004478815 0.025598722 0.01385044 0.1015747 0.54610324 0.83153707 0.001061364
-0.0014876224 0.025536517 0.013569508 0.073916763 0.54511505 0.8350963 0.0010855511
0.0014920126 0.025538927 0.013339845 0.051765535 0.55401272 0.83089721 0.0016576899
0.0045090816 0.025533251 0.013217814 0.021071734 0.58449775 0.81112176 0.0018584765
0.0075322441 0.025525367 0.013222873 -0.016525099 0.56068379 0.82786512 0.001820576
0.010479976 0.025572518 0.013305925 -0.044729564 0.55790055 0.82870156 0.0016429597
0.013466234 0.025547385 0.013537899 -0.071672328 0.50656205 0.85921937 0.0012640908
0.016528366 0.025551468 0.013844277 -0.098710813 0.48796108 0.86726588 0.001337368
0.01944337 0.025533363 0.014239043 -0.1068107 0.45726573 0.88289273 0.0022085046
0.022414304 0.025820425 0.014503152 -0.1223338 0.42594099 0.89644217 0.0022285779
0.025335491 0.026240369 0.014697333 -0.12691963 0.37213427 0.91946048 0.0032993408
0.0279897 0.026685594 0.014852487 -0.11130863 0.30183879 0.94683886 0.0035107892
0.030166699 0.026994402 0.014871817 -0.093849182 0.38923678 0.9163444 0.0041700918
0.044892177 0.024016 0.014940616 0.19703759 -0.22107026 0.95514613 0.0094346022
0.047042388 0.024700979 0.014794628 0.21327321 -0.23535886 0.94821978 0.0027264401
0.04948248 0.025602207 0.014414369 0.24582194 -0.27460113 0.92960519 0.0023207355
0.052484114 0.025554543 0.013434318 0.3186132 -0.33390176 0.88712758 0.00072385394
0.05526812 0.025935175 0.012526006 0.37937933 -0.35624799 0.85390782 0.0015325421
-0.054857988 0.028490987 0.013258131 -0.46451238 -0.34705716 0.81472671 0.0013373625
-0.052865773 0.02824438 0.01432343 -0.40732884 -0.35937044 0.83960474 0.0012121731
-0.024018992 0.029958053 0.014898127 0.22207369 0.57746518 0.78563178 0.00087656296
-0.021934858 0.029576352 0.014762527 0.22175971 0.57960808 0.78414094 0.0011124173
-0.019333476 0.029134706 0.014358911 0.21264052 0.55145013 0.80665153 0.0013595213
-0.016444257 0.028678318 0.013919763 0.19707459 0.57572645 0.79353684 0.00082106999
-0.013541515 0.028477339 0.01333468 0.1885078 0.61103362 0.76883203 0.0018301998
-0.01060905 0.02810812 0.012977815 0.15908189 0.64488077 0.74754375 0.0015911035
-0.007598815 0.027774597 0.01266389 0.13592993 0.66211599 0.73697054 0.0014569336
-0.004651532 0.0275399 0.012403126 0.1065415 0.67340189 0.7315591 0.0014410467
-0.001756505 0.027259404 0.012272186 0.078985348 0.68401676 0.72517753 0.0014983184
0.0012160473 0.027147254 0.012114269 0.04839348 0.69334739 0.71897668 0.0014864277
0.0042133201 0.027070351 0.012103984 0.016860049 0.69044119 0.7231921 0.0012746055
0.0078131873 0.02708956 0.012088796 -0.022138795 0.68840533 0.72498822 0.0013949196
0.011193093 0.027194992 0.012132771 -0.057831638 0.67679518 0.73389637 0.0012891322
0.0137972 0.027335845 0.012295213 -0.091166005 0.65686071 0.74848032 0.0017084059
0.016669385 0.027659291 0.012451529 -0.12180376 0.62759453 0.7689532 0.0020559933
0.019644985 0.027991444 0.01273457 -0.14582184 0.59651232 0.7892459 0.0020239658
0.022543132 0.028428314 0.012988607 -0.16234487 0.56807679 0.80680406 0.0019980997
0.025437584 0.028555907 0.01348374 -0.16176112 0.51314932 0.84291822 0.0020667475
0.028459074 0.028545549 0.014045953 -0.14922996 0.45459855 0.8781063 0.0016014565
0.031446312 0.028722188 0.01445523 -0.14107765 0.41352344 0.89949733 0.0025164131
0.034253374 0.029145697 0.014689145 -0.14043018 0.34237054 0.92901117 0.0034748819
0.037142433 0.029613979 0.014897318 -0.11914466 0.2858752 0.95083117 0.0025125553
0.050375696 0.027901066 0.014800345 0.19234158 -0.15793313 0.96853596 0.0036921732
0.052480627 0.028460735 0.014352289 0.27073351 -0.20459339 0.94066197 0.002580788
0.055484161 0.028453315 0.013316647 0.35284391 -0.28496841 0.89123178 0.0013036263
0.058000538 0.028942233 0.012445092 0.41863981 -0.3141267 0.85209459 0.0018238361
-0.057844199 0.03192893 0.012993131 -0.49921528 -0.30151793 0.81232452 0.00068014499
-0.055391133 0.032098345 0.014562177 -0.35868472 -0.14579527 0.92200273 0.0011501571
-0.053823154 0.03088727 0.014934279 -0.39714772 -0.23605201 0.88687831 0.0038106069
-0.030372323 0.032851681 0.014868993 0.24487035 0.56179094 0.79020852 0.00086350244
-0.02813278 0.032371745 0.014576495 0.24991125 0.58018905 0.77519351 0.0013917116
-0.025366338 0.031798575 0.014098923 0.24111699 0.58108371 0.77730578 0.001168992
-0.022525297 0.031477556 0.013418936 0.24645716 0.62420756 0.74136609 0.0010736121
-0.019616691 0.030985704 0.012917343 0.23354705 0.66433555 0.71000987 0.0011145989
-0.016733715 0.030513553 0.012464161 0.21869695 0.6974678 0.68242961 0.0012771632
-0.014666804 0.030215986 0.012176733 0.19796859 0.70802176 0.67787433 0.0010633316
0.025811277 0.030330328 0.012341249 -0.18652605 0.63670421 0.74820834 0.0018601427
0.028653631 0.030888317 0.012608107 -0.18864487 0.59580922 0.78065652 0.0025014102
0.031554993 0.031355955 0.013005763 -0.197329 0.55104291 0.81081003 0.0025426438
0.034467001 0.031537343 0.013557584 -0.18971039 0.4889622 0.85142583 0.0028934923
0.037434112 0.031540159 0.01418328 -0.16506155 0.40727547 0.89826572 0.0021998701
0.040377099 0.031793311 0.014584064 -0.1570745 0.34064686 0.92697752 0.0024931668
0.043334156 0.032308612 0.01481767 -0.12593278 0.2676135 0.95526117 0.0026820451
0.045873832 0.032781314 0.014950494 -0.062151585 0.19348539 0.97913253 0.0019978301
0.050168764 0.032109838 0.014967931 0.091431007 0.0037614512 0.99580431 0.0039475411
0.052763853 0.031442791 0.0147622 0.16277136 -0.049471278 0.98542285 0.002909905
0.055568736 0.03157891 0.014063404 0.27216986 -0.14276443 0.9515996 0.002884581
0.058513511 0.031570911 0.012985374 0.36269695 -0.20769224 0.90846843 0.0022141745
0.060412824 0.03221916 0.012286765 0.46786499 -0.25981095 0.84474885 0.00211592
-0.060105752 0.034986261 0.012583514 -0.53565246 -0.24096283 0.80932897 0.002085336
-0.058487613 0.034669656 0.013495428 -0.46703053 -0.20882004 0.85923034 0.0032734859
-0.056343243 0.034550808 0.014683375 -0.34095687 -0.067596734 0.93764549 0.002150432
-0.036609799 0.035716534 0.014846635 0.22972402 0.53880143 0.81050593 0.0011260476
-0.034207013 0.03525272 0.014446097 0.2552655 0.5615775 0.78706431 0.0013068101
-0.031390671 0.034669388 0.013894985 0.26289192 0.58409214 0.76793504 0.00087949313
-0.028604897 0.034254257 0.013189298 0.28991807 0.63374794 0.7171548 0.0019600063
-0.025718132 0.033632364 0.012658444 0.2760123 0.67407066 0.68516123 0.0011661967
-0.023404261 0.033167992 0.012170751 0.25845987 0.6848045 0.68135244 0.00079185836
0.032659747 0.033161107 0.012014083 -0.23371725 0.6619882 0.71214324 0.0026851057
0.034909081 0.033520445 0.012380582 -0.23107882 0.60455364 0.76231056 0.0027603908
0.03762624 0.034102164 0.012821213 -0.24074325 0.53743565 0.80821133 0.0033597418
0.040475298 0.034563303 0.013367041 -0.22875689 0.4687846 0.85317713 0.0028610609
0.043442458 0.034500625 0.014069702 -0.15847029 0.37289062 0.91424268 0.0021404799
0.04644661 0.03463991 0.014479145 -0.1172265 0.31597438 0.9414978 0.0025825046
0.049476329 0.034742419 0.014718346 -0.014959187 0.19810762 0.98006612 0.0023163171
0.052475691 0.034556977 0.014734306 0.051076207 0.13410255 0.98965031 0.0038651088
0.055455904 0.034587275 0.014357378 0.2129432 -0.00673794 0.97704136 0.0052033151
0.058505338 0.034573346 0.013525549 0.31347144 -0.077188224 0.9464553 0.0026404231
0.061019581 0.034711063 0.01253523 0.42340234 -0.14338769 0.89452249 0.0025767926
-0.060984541 0.037643213 0.012636323 -0.4874683 -0.11211581 0.86591262 0.0028630816
-0.057950348 0.037756339 0.014278749 -0.31040287 0.027198095 0.95021594 0.0032968004
-0.05621979 0.037691973 0.014804238 -0.30902973 0.019172018 0.95085913 0.0040136278
-0.045158874 0.038847405 0.014896514 0.13046727 0.51416308 0.84771138 0.0026439372
-0.043036431 0.038608957 0.014746778 0.19184421 0.51399279 0.83606648 0.001450608
-0.040250976 0.038045168 0.014346681 0.23547007 0.53825325 0.80922014 0.0012893835
-0.037407655 0.037567455 0.013753955 0.26247647 0.58129418 0.77019686 0.00094282167
-0.034645293 0.037157863 0.01305335 0.29947838 0.63439101 0.7126435 0.0017048077
-0.031894702 0.036499843 0.012516349 0.30364561 0.67189991 0.67553669 0.0011004357
-0.029983915 0.036047574 0.012087201 0.31518602 0.6843518 0.6575107 0.0021273396
0.040983383 0.036548868 0.012339647 -0.27961588 0.56211883 0.77835554 0.0028922744
0.04366675 0.037247244 0.012765792 -0.24358833 0.49397278 0.83465898 0.0033331129
0.046545494 0.037529536 0.013356221 -0.19039179 0.42133099 0.88669676 0.0027116772
0.049550738 0.037501041 0.01390212 -0.11116875 0.33363318 0.93612516 0.0025906714
0.052557316 0.037501603 0.014166738 -0.031147694 0.26205716 0.9645496 0.0037241175
0.055500031 0.037481591 0.014113774 0.087554246 0.16497275 0.98240435 0.0059087104
0.058447972 0.037508726 0.013646353 0.25162062 0.043733049 0.96683735 0.0054544453
0.061459426 0.037608232 0.012661052 0.36652026 -0.037691183 0.92964631 0.0036481367
-0.060574662 0.04109725 0.013147767 -0.2826657 0.16427416 0.94504714 0.0026803063
-0.058583487 0.040657546 0.013942326 -0.22032696 0.20427993 0.95379549 0.0028851833
-0.055486038 0.040876288 0.014590293 -0.13427074 0.28113791 0.95022768 0.0050421041
-0.052471291 0.041147679 0.014693064 0.0030340056 0.36298805 0.93178886 0.0026468763
-0.049333978 0.041111711 0.014485516 0.11156704 0.45605537 0.88293052 0.0020880955
-0.04637764 0.040723488 0.014169902 0.17665185 0.51674962 0.8377136 0.0012259585
-0.043431994 0.040526461 0.013507287 0.24200988 0.5600512 0.79232192 0.0010508318
-0.040673163 0.040073115 0.012920559 0.289563 0.62668675 0.72347569 0.0014158883
-0.038019057 0.039446313 0.012415741 0.30537018 0.66210741 0.6843704 0.0012804222
0.046891432 0.039581642 0.012358139 -0.25212213 0.52376014 0.81370127 0.0027991061
0.049619388 0.040268924 0.012678853 -0.18767612 0.4547146 0.87063903 0.0029381129
0.052466329 0.0404738 0.013109655 -0.11938059 0.37764749 0.91822147 0.0030725405
0.055513348 0.040484849 0.013386232 -0.0091921547 0.29567534 0.9552443 0.0035544636
0.058511358 0.040537614 0.013252847 0.1303129 0.20437936 0.97017914 0.0049835532
0.061550569 0.040490728 0.012598404 0.27477762 0.095892236 0.95671415 0.0040690266
0.06332887 0.040539257 0.012035144 0.42757115 0.040943775 0.90305406 0.004880453
-0.061163615 0.04330219 0.012675545 -0.23301868 0.24228236 0.94180763 0.0030858396
-0.05830659 0.043650318 0.013342686 -0.16467068 0.29838771 0.94013208 0.0037787778
-0.055381749 0.043642923 0.013619176 -0.027345471 0.39298356 0.91913879 0.0032926889
-0.052458614 0.043531906 0.013535385 0.083648443 0.47691774 0.87495857 0.001917564
-0.049563151 0.04346098 0.013099075 0.18247373 0.54030424 0.82144672 0.0027340415
-0.04673031 0.042909291 0.012754531 0.23915011 0.60481721 0.75960732 0.0019699235
-0.044186313 0.042328577 0.012344777 0.28118306 0.64398682 0.71148932 0.0014181285
0.052847821 0.042444795 0.012241489 -0.19088319 0.48800576 0.85171241 0.0026018533
0.055632118 0.042971995 0.012456113 -0.097050644 0.40718246 0.908176 0.0033468741
0.0585403 0.043329101 0.012482047 0.039480235 0.31172985 0.94935018 0.0039013273
0.061221074 0.043059934 0.012306605 0.19664676 0.22099054 0.95524508 0.0063785198
0.063258566 0.042071283 0.012013855 0.4289833 0.089652523 0.89885247 0.0037705216
-0.060721163 0.045611802 0.012262899 -0.18092719 0.35477495 0.91727859 0.0042007249
-0.058427364 0.046074826 0.012402109 -0.087067939 0.41250634 0.90678424 0.0043217572
-0.055585504 0.045830164 0.01253105 0.051023703 0.50318944 0.86266857 0.0029261324
-0.052743156 0.045490857 0.012398448 0.15202571 0.5622952 0.81284213 0.0024879407
-0.050672483 0.045147154 0.012190697 0.21220653 0.60943282 0.76391101 0.0016608493
-0.018881863 0.011824865 0.015143791 -0.09650746 -0.54062229 0.83571166 0.00053972384
-0.016253753 0.011518151 0.015252148 -0.0808127 -0.52366298 0.84808391 0.0012408736
-0.013148747 0.011490617 0.015489466 -0.053079307 -0.49475148 0.86741203 0.0016866631
-0.010485469 0.011256407 0.015472444 -0.018256577 -0.46975526 0.88260788 0.001808767
-0.0075732754 0.011140671 0.015447412 0.0021540017 -0.44264325 0.8966952 0.0017731835
-0.0046185353 0.011221571 0.015473664 0.017302964 -0.42699704 0.90408742 0.001952547
-0.0017163154 0.011210009 0.015400294 0.028201854 -0.412076 0.91071296 0.0019372145
0.0014786007 0.0113366 0.015333207 0.038874611 -0.40609089 0.91300541 0.0020718924
0.0041721589 0.01138021 0.015260796 0.044434614 -0.3276614 0.94374973 0.0016336575
0.0071342271 0.011736261 0.015212454 0.053927861 -0.40221724 0.91395468 0.0019638347
0.0098352674 0.011802386 0.015074199 0.069089681 -0.37301224 0.92525053 0.003392993
-0.027445512 0.014709815 0.015637653 -0.12864552 -0.45878708 0.87918413 0.0014473611
-0.025166018 0.013947468 0.015561369 -0.11864576 -0.46225989 0.87877125 0.0017281693
-0.022445315 0.013818296 0.01588783 -0.088371336 -0.4575606 0.88477612 0.0013060808
-0.01949615 0.013710767 0.016165869 -0.076738805 -0.43439969 0.89744532 0.0028487092
-0.01646468 0.013651928 0.01635424 -0.039765418 -0.38780299 0.92088413 0.0026426038
-0.013665751 0.013965946 0.016589368 0.0083005447 -0.2575019 0.96624219 0.002125575
-0.010660055 0.013758282 0.01653523 0.029069288 -0.22781856 0.97326958 0.0023918811
-0.0073684193 0.013901963 0.016502155 0.036658108 -0.20207252 0.97868425 0.002375612
-0.0044232463 0.013634521 0.016341859 0.038881045 -0.18323003 0.98230094 0.0023826819
-0.0014747373 0.013662728 0.016228521 0.049105249 -0.19211908 0.98014235 0.0027876815
0.00151888 0.01365501 0.016095338 0.043688267 -0.18777913 0.9812392 0.002773541
0.0044948282 0.013813308 0.015985383 0.038719848 -0.17392817 0.98399681 0.00312356
0.0075504147 0.013828672 0.015831755 0.039454378 -0.17569181 0.98365426 0.002489693
0.010569815 0.013854521 0.015677981 0.053317733 -0.17790824 0.98260158 0.001627456
0.013228469 0.013703761 0.015483391 0.049269296 -0.18801156 0.98093027 0.0014104983
0.016323222 0.014202665 0.015420561 0.053824183 -0.21521606 0.97508204 0.0014831588
0.019159511 0.014460363 0.015289021 0.070732459 -0.22308715 0.97222894 0.0012982389
0.021757076 0.014672394 0.015136652 0.078469455 -0.27847403 0.95723289 0.0016689434
-0.036315128 0.017239945 0.015022757 -0.25053182 -0.53461647 0.80710536 0.0010079602
-0.034374774 0.016997991 0.015497459 -0.19359711 -0.44953051 0.87203354 0.0015382441
-0.031460315 0.01683338 0.016093984 -0.1587954 -0.4264769 0.89045012 0.0020986411
-0.028508585 0.016630311 0.016522042 -0.10464209 -0.38940477 0.9151032 0.0023756218
-0.025472952 0.016594116 0.016901907 -0.072949335 -0.35513294 0.93196511 0.0027191564
-0.022486016 0.016567089 0.017123248 -0.045551669 -0.33685562 0.94045383 0.0043465546
-0.019313874 0.016906826 0.0173489 0.016820993 -0.18360257 0.98285663 0.0038685885
-0.016512454 0.016765239 0.017318631 0.026693013 -0.15178831 0.98805249 0.0042460179
-0.013518258 0.016702309 0.017227441 0.047741208 -0.1199415 0.99163234 0.0044474136
-0.010492466 0.016579907 0.017091164 0.044486407 -0.11332431 0.99256158 0.0039481837
-0.0075347554 0.016680377 0.01694029 0.055676024 -0.062207498 0.99650908 0.0056406097
-0.0045055533 0.016605353 0.01676547 0.060176618 -0.036028408 0.99753731 0.0052808183
-0.0014279125 0.016578704 0.016590279 0.045841765 -0.0090117315 0.99890804 0.0041576982
0.0016214611 0.016519599 0.016437897 0.041120719 -0.036838617 0.99847478 0.0035871556
0.0044159815 0.016462667 0.016312806 0.038935039 -0.058747459 0.99751329 0.0048937085
0.0072533586 0.016644629 0.016210953 0.035230085 -0.021841625 0.99914044 0.0036990347
0.010344437 0.016603107 0.016098605 0.031969152 -0.045019794 0.99847442 0.00378169
0.013405864 0.016602164 0.015988249 0.036825407 -0.064754471 0.99722153 0.0033183836
0.016432131 0.016616872 0.015863443 0.030625369 -0.086070448 0.99581826 0.0027670879
0.019494187 0.016542455 0.01569731 0.047931857 -0.13507161 0.98967582 0.0016958109
0.022452483 0.016671309 0.01554566 0.052485395 -0.16189951 0.98541057 0.0014115106
0.025448024 0.016875954 0.015384874 0.064145282 -0.20287225 0.97710198 0.0014698704
0.02809746 0.017153068 0.015241422 0.072019413 -0.22460066 0.97178584 0.0021229382
0.030901341 0.017482573 0.015090522 0.088069193 -0.27624789 0.95704287 0.0021436021
-0.040386893 0.020070843 0.015515463 -0.23988555 -0.41191438 0.87907988 0.0013074777
-0.037360929 0.019672703 0.016249657 -0.2194138 -0.41546351 0.88275003 0.0017234989
-0.034510404 0.019617923 0.01687694 -0.14529428 -0.35825419 0.92224914 0.0028153744
-0.031458318 0.01971993 0.017391123 -0.10898376 -0.30082577 0.94743145 0.0039775865
-0.028330512 0.019653229 0.017688612 -0.029894087 -0.17789923 0.98359454 0.0035270385
-0.025457203 0.019498305 0.017767934 0.0086716497 -0.09917444 0.99503231 0.0045403582
-0.022400895 0.019748898 0.017785726 0.042845357 -0.056933671 0.99745822 0.0043971762
-0.019242201 0.019606737 0.017657638 0.05221333 0.024397308 0.99833781 0.0031050297
-0.016307184 0.019657545 0.017475752 0.070954069 0.038997419 0.99671698 0.0028323773
-0.013575283 0.019604662 0.017267816 0.08528626 0.10003567 0.99132186 0.0042589833
-0.010619168 0.019539317 0.017019762 0.085508846 0.18099706 0.97975928 0.0042670667
-0.0075929216 0.019588068 0.016749529 0.079964556 0.20384642 0.97573173 0.0034679722
-0.0045344331 0.019551501 0.016506089 0.078072317 0.21986811 0.97240049 0.0029849906
-0.0014906119 0.019547448 0.016290715 0.060882557 0.22555062 0.97232723 0.0027907491
0.001488136 0.01949071 0.016132647 0.045631114 0.22141328 0.97411186 0.0028472512
0.0044953874 0.019528044 0.016005054 0.028194938 0.21262892 0.97672617 0.00273746
0.0074737663 0.019606175 0.015914455 0.015308126 0.19943886 0.97979069 0.0027857088
0.010466172 0.01954083 0.015895333 0.0088210404 0.17999734 0.98362762 0.0029119446
0.013470196 0.019515881 0.015890192 0.0052398029 0.14920509 0.98879242 0.0030708553
0.016477058 0.019545516 0.015891116 0.003637111 0.11530715 0.99332315 0.0036755453
0.019514317 0.019582136 0.015876304 0.0028536911 0.071065657 0.99746758 0.0035320353
0.022402525 0.019553795 0.01583878 0.016007662 0.0092057651 0.99982947 0.0033126492
0.025342787 0.01953367 0.015752899 0.02604164 -0.047925685 0.99851137 0.0026341351
0.028418362 0.019523345 0.015622308 0.035088658 -0.11345668 0.99292314 0.0022261585
0.031479299 0.019674307 0.015491195 0.048533577 -0.14150913 0.98874652 0.0016819508
0.034336839 0.019901352 0.015357748 0.057710826 -0.17068306 0.98363441 0.0023078432
0.037235256 0.020174816 0.01517402 0.088463522 -0.22709708 0.96984595 0.0024732749
0.039648056 0.02078674 0.015118379 0.13544686 -0.25425881 0.95760465 0.0026993067
-0.045305572 0.023912096 0.015695577 -0.32928798 -0.4475753 0.8314119 0.0019324223
-0.043130074 0.022807339 0.015987471 -0.24324927 -0.33374134 0.9107396 0.002325383
-0.040339448 0.022624597 0.016785827 -0.2007705 -0.31442893 0.92780691 0.0031642802
-0.037521504 0.02257691 0.017374989 -0.1882917 -0.29217574 0.93764579 0.0043797167
-0.034438256 0.022552043 0.01783151 -0.071866848 -0.12628309 0.98938757 0.003981112
-0.031543404 0.022070182 0.017911177 -0.058611505 -0.13045786 0.98971993 0.0033222991
-0.028877512 0.021848176 0.017940221 -0.0074366177 -0.057184692 0.9983359 0.0022179636
-0.025222721 0.022938171 0.017864494 0.080994628 0.086105898 0.99298829 0.0027564943
-0.022432523 0.022569187 0.01768293 0.075178243 0.12754196 0.98897994 0.0029023339
-0.019444944 0.022537773 0.017390253 0.11550077 0.21612956 0.96950895 0.0047618416
-0.016415445 0.022589937 0.017012864 0.1160037 0.28126055 0.95259416 0.0034788761
-0.013426128 0.022558076 0.01663252 0.11628079 0.31143889 0.94312489 0.0028424906
-0.010430876 0.022551434 0.016241858 0.10760357 0.33229408 0.93701762 0.0023688658
-0.0074911606 0.022541001 0.015882811 0.098602384 0.35020235 0.9314698 0.0019554214
-0.0045573646 0.022398518 0.015604698 0.085360296 0.36952129 0.92529333 0.001946102
-0.0015297282 0.022121483 0.015458868 0.063797243 0.383881 0.92117608 0.0021048058
0.0015139923 0.021894747 0.015363608 0.044054274 0.39283982 0.91855109 0.0023198023
0.0045513697 0.021718422 0.015328765 0.022383273 0.39510241 0.91836435 0.0025083048
0.0075084753 0.021761706 0.015278573 0.0047992319 0.38692099 0.92210042 0.0026371432
0.010483812 0.021756386 0.015312795 -0.011614722 0.36754057 0.92993498 0.002845681
0.013554131 0.021910891 0.015339509 -0.025140878 0.33347511 0.94242358 0.0029536625
0.016578063 0.022209166 0.015365385 -0.033548851 0.2883487 0.95693755 0.0030552754
0.019522702 0.022430418 0.015451056 -0.043497503 0.22519131 0.97334313 0.0028018563
0.02247408 0.022556581 0.015568275 -0.030158995 0.17081951 0.98484069 0.0026938918
0.025333837 0.02246934 0.015680008 -0.011495133 0.1202603 0.99267584 0.0027068194
0.028328376 0.022568656 0.015697939 -0.0015409135 0.078481056 0.99691439 0.0026104122
0.03141382 0.02259057 0.01569909 0.0059238295 0.033898484 0.99940777 0.0020340614
0.034543786 0.022543445 0.015654495 0.017858591 -0.05777657 0.99816978 0.0024322567
0.037602868 0.022613997 0.015559389 0.052979399 -0.11698369 0.99171966 0.001957794
0.040466491 0.02260334 0.01534913 0.089644745 -0.15659995 0.98358536 0.0027297533
0.043005198 0.023441842 0.015231632 0.13234325 -0.20112418 0.97058451 0.0028680179
0.045121852 0.023852233 0.015052386 0.17719117 -0.20813866 0.96191561 0.0017102697
-0.048783652 0.026172314 0.015337425 -0.35849905 -0.37257421 0.85595965 0.0017700939
-0.046045985 0.025907882 0.016343022 -0.22868225 -0.23795167 0.94397217 0.0029625087
-0.043407939 0.025610488 0.016993299 -0.20428179 -0.22650036 0.95234787 0.0027349642
-0.040451963 0.025881752 0.017664181 -0.11486174 -0.075624987 0.99049866 0.0029310056
-0.037278995 0.024863442 0.01790305 -0.056837037 -0.051822279 0.99703765 0.0029471286
-0.034494556 0.025527757 0.017913233 -0.00081526575 -0.032809753 0.99946129 0.0080906358
-0.031240558 0.026086615 0.017877983 0.068553492 0.14634117 0.98685598 0.0030829392
-0.028381815 0.025746791 0.017685501 0.11268093 0.23012221 0.96661615 0.0038124726
-0.025542529 0.025592966 0.017379045 0.12475248 0.26331085 0.9566108 0.0033895113
-0.02253543 0.02554673 0.01695965 0.14792721 0.35043725 0.92483038 0.0026495692
-0.019456564 0.025549352 0.016439794 0.15369651 0.39063102 0.90762591 0.0021966116
-0.01647841 0.025498927 0.015924295 0.15738501 0.42553338 0.89115167 0.0019542964
-0.013583166 0.025116459 0.01558952 0.14528534 0.45742232 0.87730098 0.002196077
-0.010758501 0.024604423 0.01539364 0.13271903 0.4844484 0.86469382 0.0018784953
-0.0079760375 0.024231777 0.015179687 0.11688651 0.50476301 0.85530806 0.001501495
0.020403903 0.024146399 0.015043776 -0.094517611 0.42174289 0.90177566 0.0023724954
0.022827668 0.024335198 0.015145699 -0.079922624 0.34926561 0.93360907 0.0024137616
0.025710301 0.024752447 0.015256017 -0.070257187 0.3052763 0.94966853 0.0036826062
0.028599212 0.025313715 0.015313868 -0.059059639 0.22603941 0.97232616 0.0030510586
0.031457778 0.025536016 0.015416369 -0.050396051 0.16586411 0.98486012 0.0029122259
0.034535754 0.025507396 0.015541987 -0.021007041 0.11157845 0.99353361 0.0020065287
0.037611652 0.025600908 0.015621415 -0.0057211253 0.063691221 0.9979533 0.0023947291
0.040566985 0.025548009 0.01561897 0.024795121 -0.0068126819 0.99966931 0.0021513181
