# .PCD v0.7 - Point Cloud Data file format
VERSION 0.7
FIELDS x y z normal_x normal_y normal_z curvature
SIZE 4 4 4 4 4 4 4
TYPE F F F F F F F
COUNT 1 1 1 1 1 1 1
WIDTH 556
HEIGHT 1
VIEWPOINT 0 0 0 1 0 0 0
POINTS 556
DATA ascii
0.053687979 0.021309519 -0.011854139 0.48604158 -0.58706677 -0.64739186 0.0010419508
0.05582412 0.022132782 -0.010934509 0.49752259 -0.55503619 -0.6666379 0.0022950142
0.057984862 0.023020072 -0.0099180862 0.55837256 -0.567334 -0.60527039 0.0015724343
-0.054444756 0.026530547 -0.0095192874 -0.53080904 -0.61191475 -0.58634639 0.0012021417
-0.052320357 0.025687426 -0.010351639 -0.48475471 -0.60795975 -0.62880671 0.0019918669
-0.049846012 0.024721874 -0.011277725 -0.45427921 -0.60572326 -0.65324551 0.0016871979
0.056829531 0.024147501 -0.011801548 0.50127631 -0.50139076 -0.70521587 0.00099001883
0.058829471 0.025211809 -0.010985675 0.54179031 -0.47624564 -0.69257003 0.0020171383
0.060804557 0.025967369 -0.009841294 0.59657574 -0.51685381 -0.61397022 0.0012215049
-0.057520285 0.029389447 -0.0094545111 -0.57183462 -0.56321257 -0.59648693 0.00130592
-0.055371981 0.028536513 -0.010506867 -0.51951641 -0.52409965 -0.67484993 0.0013398913
-0.053214163 0.027598366 -0.011404431 -0.49554604 -0.57094067 -0.65456921 0.0010323814
-0.012372276 0.029543228 -0.011940228 0.19851713 0.64450788 -0.73837698 0.0024149329
-0.010758032 0.029428987 -0.011730589 0.15971051 0.68686587 -0.70901895 0.002148885
-0.0070868968 0.029305672 -0.011020772 0.12878825 0.69069898 -0.71158171 0.0016356515
-0.0043392666 0.028683975 -0.011215537 0.097362041 0.69310892 -0.71422738 0.0010905829
-0.001459092 0.028608842 -0.010897533 0.069934756 0.70608056 -0.70466971 0.0016614137
0.0015477714 0.02841928 -0.010870278 0.045804001 0.70246071 -0.7102471 0.0016680137
0.0045631058 0.028379627 -0.010832491 -0.0074081784 0.70268452 -0.71146297 0.0017610799
0.0074415808 0.028271606 -0.011029605 -0.047835127 0.70647627 -0.70611835 0.0016682852
0.010499698 0.028492099 -0.011077936 -0.078965954 0.69470173 -0.71495026 0.0020234992
0.013413709 0.02886834 -0.011051204 -0.11987627 0.76280802 -0.63541603 0.0013300129
0.016358418 0.029012956 -0.011493261 -0.14871505 0.66166353 -0.73490489 0.0012183791
0.01907248 0.029504236 -0.011675503 -0.1824872 0.72652596 -0.66246384 0.0024198201
0.021422677 0.029996326 -0.01176877 -0.2128471 0.68830758 -0.69349027 0.0026567276
0.059588898 0.027365543 -0.011837638 0.54560798 -0.39203155 -0.74069101 0.0017132262
0.06162734 0.028398618 -0.010751334 0.58295846 -0.3962568 -0.70932359 0.0015267116
0.063501686 0.029248605 -0.0095823472 0.64330417 -0.43190166 -0.63215566 0.0014864098
-0.060280722 0.032403126 -0.0093413619 -0.61849225 -0.49675199 -0.60885525 0.0015257573
-0.058329243 0.031552549 -0.010398195 -0.56471229 -0.45918483 -0.68574733 0.0020154642
-0.05625565 0.030745769 -0.011490781 -0.52629131 -0.45808348 -0.71636379 0.001243051
-0.021901883 0.032852821 -0.0118527 0.25795203 0.6808551 -0.68549043 0.0014664959
-0.019256486 0.032338783 -0.011392456 0.24277498 0.70204937 -0.66946775 0.0015429413
-0.016459778 0.031959627 -0.010754634 0.23778032 0.71722198 -0.65502143 0.0020896925
-0.013645601 0.031574842 -0.010188466 0.20461129 0.72170371 -0.66126984 0.0016948493
-0.010377607 0.030955777 -0.0099430755 0.16637953 0.74068981 -0.65091968 0.001464421
-0.0078301392 0.03042415 -0.0099315057 0.14299247 0.74693841 -0.64933521 0.0011462732
-0.0046814932 0.03025588 -0.0094822757 0.11055841 0.79048306 -0.60242295 0.0013020062
-0.0012038434 0.030037131 -0.0092063416 0.086399719 0.78502023 -0.6134153 0.0019010813
3.1855227e-05 0.030018322 -0.0090140151 0.080067396 0.7588554 -0.64631861 0.00097791781
0.011245133 0.030178951 -0.0090963393 -0.082035087 0.79941797 -0.59514797 0.0024821749
0.013680018 0.030249149 -0.0094133867 -0.11609553 0.78331494 -0.61068773 0.001316482
0.01676053 0.030483056 -0.0098631755 -0.16533493 0.77558619 -0.60920477 0.0014588374
0.01965525 0.030850314 -0.010303276 -0.21023576 0.75952792 -0.61556333 0.0015144611
0.022537662 0.031371444 -0.010666115 -0.23179592 0.75111681 -0.61813778 0.0021596579
0.025330162 0.032102451 -0.010834735 -0.23477258 0.75846189 -0.60796177 0.00087591622
0.028017834 0.032455511 -0.011465885 -0.25067288 0.71613556 -0.65139312 0.0016674263
0.030547783 0.032761663 -0.011996758 -0.2575919 0.69502538 -0.67125714 0.0031753483
0.062417656 0.03116568 -0.011514048 0.59453869 -0.28547305 -0.75168395 0.0015959522
0.064295329 0.031633791 -0.010131236 0.64112806 -0.33867884 -0.68865925 0.0019114609
-0.063053787 0.035795309 -0.0090337712 -0.64910829 -0.43293223 -0.62548232 0.001734724
-0.061106462 0.034657989 -0.010067963 -0.5925706 -0.42257929 -0.68577462 0.0017068317
-0.059057716 0.034069847 -0.011362088 -0.51879376 -0.36535835 -0.7728948 0.0020029226
-0.027835617 0.035588376 -0.011568113 0.29844874 0.64504993 -0.70344794 0.0014458429
-0.025300406 0.034915682 -0.011109876 0.28914341 0.69977725 -0.65322888 0.0010991294
-0.022638002 0.034344759 -0.010505736 0.27049682 0.71608418 -0.643471 0.001903715
-0.019789342 0.033762343 -0.0099415369 0.26421529 0.7543062 -0.60100955 0.0018272917
-0.017195724 0.033350594 -0.0093185715 0.25325665 0.7613976 -0.59677023 0.0012796675
0.026009884 0.033409692 -0.0094312187 -0.25935757 0.79637963 -0.54636365 0.0019817026
0.028756045 0.033743776 -0.010195673 -0.26204324 0.76068747 -0.59387541 0.0011169452
0.031509865 0.034330443 -0.010683833 -0.28270021 0.74295175 -0.6067152 0.0012616722
0.034398384 0.035161458 -0.011041657 -0.30324596 0.74229413 -0.59752941 0.0018503193
0.036633074 0.035566598 -0.011684968 -0.32303923 0.69757265 -0.63956082 0.00184412
0.062649399 0.03311336 -0.011924933 0.5896073 -0.23748042 -0.77198851 0.0023952238
0.064583935 0.034411874 -0.010927145 0.60469598 -0.21440913 -0.76705372 0.0014921124
0.066436291 0.034811284 -0.0094480719 0.68315476 -0.25923225 -0.68271381 0.0014691619
-0.063660353 0.037896391 -0.0096142702 -0.60907024 -0.34436098 -0.71445704 0.0026189366
-0.061634164 0.037312109 -0.010912704 -0.54086238 -0.26939756 -0.79680169 0.0014708639
-0.059894204 0.036350861 -0.011778632 -0.52012521 -0.24428396 -0.81841016 0.002273893
-0.033817511 0.038434584 -0.011514571 0.31392011 0.6426087 -0.69893366 0.0013537575
-0.031430095 0.037791666 -0.010961804 0.31882608 0.69626027 -0.64309537 0.0016290079
-0.028974017 0.037280668 -0.010231811 0.31996751 0.71112454 -0.6260373 0.0016864928
-0.026100375 0.036473352 -0.009622843 0.3143656 0.73194528 -0.6045084 0.00088775461
0.032999974 0.036027066 -0.0090434281 -0.32178986 0.76477325 -0.55818748 0.00065160269
0.034733523 0.036431491 -0.009623019 -0.32780963 0.74939322 -0.57528311 0.0012550415
0.03767366 0.037168495 -0.01043695 -0.35576308 0.70894635 -0.60895622 0.0018654446
0.040339243 0.038051605 -0.011025252 -0.3721014 0.69533443 -0.61485815 0.0020177471
0.042726956 0.038631368 -0.011767942 -0.33397058 0.61436433 -0.71485674 0.0014809808
0.065026909 0.037452031 -0.011237717 0.56578374 -0.098719142 -0.81862277 0.0018440221
0.066938765 0.037662271 -0.0097396402 0.67006922 -0.14709234 -0.72757894 0.0023418027
-0.064239584 0.040548876 -0.010098659 -0.5807057 -0.20543024 -0.78776854 0.0031129203
-0.061986566 0.040313587 -0.011539773 -0.49465984 -0.13935964 -0.8578406 0.0029794339
-0.042047929 0.041807707 -0.011926118 0.29895985 0.61739296 -0.7276324 0.003902405
-0.039848939 0.041284803 -0.011537022 0.30459842 0.66228408 -0.68454343 0.0018422086
-0.037412494 0.040814828 -0.010790534 0.32625002 0.70197046 -0.63308644 0.0013054603
-0.03482854 0.040023427 -0.010259535 0.3276073 0.70693386 -0.62683177 0.0013101819
-0.032102961 0.039377797 -0.0094324509 0.34930411 0.72609961 -0.59225506 0.00095087523
0.040954992 0.039563067 -0.0097232256 -0.39686856 0.70205855 -0.59127754 0.001268174
0.043580562 0.04034134 -0.010493234 -0.36722377 0.68311912 -0.63126457 0.0014097022
0.046158452 0.040919572 -0.011324831 -0.29990223 0.62337232 -0.72212577 0.0014744062
0.048455909 0.041707177 -0.011683956 -0.27263263 0.59987932 -0.75220752 0.0010846833
0.064995967 0.040574253 -0.011414743 0.51410627 0.014638379 -0.85760158 0.0023856133
0.067139082 0.040496808 -0.0099022193 0.62898374 -0.03890565 -0.77644438 0.0027881432
-0.06642627 0.043980852 -0.0092340214 -0.61035657 -0.12621827 -0.7820062 0.0037160376
-0.064540774 0.043414429 -0.010407315 -0.54526228 -0.11027554 -0.83098036 0.0025948233
-0.062189847 0.043494433 -0.011661652 -0.40533295 0.022202577 -0.91389948 0.0045192218
-0.04853962 0.044708088 -0.011836816 0.21024528 0.6118021 -0.76255834 0.0024253174
-0.046031445 0.044177871 -0.011514295 0.26234353 0.6392042 -0.72290647 0.0017771764
-0.043399233 0.043699842 -0.010797094 0.31477475 0.67378509 -0.66852862 0.001381524
-0.040821735 0.04284801 -0.010382409 0.33676228 0.69168341 -0.63887817 0.0016622152
-0.038270131 0.042344503 -0.0095038973 0.36756429 0.71991646 -0.58874172 0.0010593418
0.046784636 0.042742617 -0.0098688258 -0.38407168 0.68744457 -0.61636746 0.0011338212
0.049790543 0.0434389 -0.010675519 -0.28709996 0.61467475 -0.73467588 0.00093812571
0.052513212 0.044051107 -0.011262025 -0.24375637 0.56933337 -0.78513843 0.0012349541
0.055148631 0.044536572 -0.011688889 -0.17687842 0.54727566 -0.81804848 0.0026685966
0.057665616 0.044893727 -0.011892366 -0.059124582 0.50177002 -0.86297798 0.0048633921
0.062202036 0.044545267 -0.011833835 0.16308622 0.30340481 -0.93880159 0.0038809383
0.064585648 0.043541338 -0.01129019 0.40581858 0.16307655 -0.8992871 0.0037028277
0.067163251 0.043406691 -0.0098397499 0.5698598 0.08151751 -0.8176887 0.0038189564
-0.066467792 0.046461523 -0.0093386099 -0.53522652 0.032642495 -0.84407765 0.0053986087
-0.064417489 0.046464439 -0.010408733 -0.39747784 0.13963987 -0.90692449 0.0062010796
-0.061537582 0.046595443 -0.011410209 -0.23196898 0.29471979 -0.92700094 0.0062661269
-0.058512364 0.047157478 -0.011685868 -0.0430177 0.41721699 -0.90778822 0.0042576487
-0.055283975 0.047231462 -0.011543408 0.085439645 0.51131558 -0.85513532 0.0030267725
-0.052320704 0.04692037 -0.011261108 0.18992847 0.5857712 -0.7879082 0.0025616067
-0.049475968 0.046434376 -0.010773507 0.24825639 0.63790029 -0.7290076 0.0013766504
-0.046604317 0.045870949 -0.01013495 0.32188499 0.68360645 -0.65503603 0.0015156429
-0.044489011 0.045620441 -0.00932342 0.34702653 0.69984925 -0.62432653 0.0011369291
0.050598212 0.045292564 -0.0093291532 -0.3618294 0.66104501 -0.65734243 0.0025322326
0.052691031 0.045756802 -0.0099014128 -0.29114312 0.61230487 -0.73506349 0.0014167003
0.05562146 0.046472713 -0.010409744 -0.22774357 0.57058185 -0.78903055 0.0021381297
0.05853856 0.046499152 -0.011053371 -0.09488342 0.50938433 -0.8552922 0.0030821629
0.061540622 0.046422988 -0.011178698 0.10538919 0.41041207 -0.90578973 0.0066937231
0.064566925 0.046448607 -0.010574567 0.30223608 0.28983614 -0.9081015 0.007926262
0.066950656 0.04640745 -0.0095408047 0.49612314 0.18490773 -0.84833419 0.004679712
-0.066414304 0.048675746 -0.0091734333 -0.41947311 0.1892496 -0.8878215 0.0084070424
-0.064462863 0.049419139 -0.0097094756 -0.25779417 0.28409031 -0.92349058 0.0062518758
-0.06155692 0.049429253 -0.010325844 -0.1284619 0.43400618 -0.89170408 0.007317571
-0.058547586 0.049423784 -0.010427141 0.037848789 0.53665179 -0.84295452 0.0040213028
-0.055597883 0.049221326 -0.010194763 0.13633916 0.60258251 -0.78632432 0.0025202923
-0.052560847 0.048813362 -0.0097174076 0.23591784 0.65038049 -0.72204435 0.0018877186
-0.05017779 0.048342623 -0.00925285 0.30255908 0.68900234 -0.65858471 0.0015622091
0.056214985 0.0482498 -0.0091992794 -0.26733783 0.60778767 -0.74774641 0.0019438927
0.058776796 0.048715387 -0.0096433507 -0.17229459 0.57279605 -0.80138582 0.0032847458
0.061605003 0.049151734 -0.0097651184 -0.027342735 0.49452958 -0.86873055 0.0048933742
0.064516336 0.049234848 -0.0095676286 0.16174535 0.38654074 -0.9079783 0.0076091173
0.066533558 0.048646092 -0.0092017194 0.40992829 0.30684111 -0.85895717 0.0061658714
-0.063694142 0.051340684 -0.009061534 -0.16666555 0.44265172 -0.88106865 0.0096171871
-0.061432663 0.051203296 -0.0093044536 -0.019980703 0.5556162 -0.83119887 0.0048405612
-0.058794677 0.051177811 -0.0091955503 0.09799502 0.61386293 -0.78330666 0.0024003028
-0.0099934787 0.0029119027 -0.0063659572 -0.17080741 -0.87161446 -0.45947042 0.0016058193
-0.0072241328 0.0025848029 -0.0065780436 -0.12249926 -0.87756771 -0.46353939 0.0015579163
-0.0042882245 0.0024722416 -0.0069721756 -0.086969584 -0.86618418 -0.49209887 0.0017466404
-0.001481579 0.0023888117 -0.0072100093 -0.052998759 -0.86867166 -0.49254498 0.0017746297
0.0015514558 0.0023071221 -0.0073147467 -0.024566451 -0.87071186 -0.49117947 0.0018961933
0.0044807517 0.0022739572 -0.0073412526 0.0073205014 -0.87286991 -0.48789802 0.0018029242
0.0074799941 0.0023309714 -0.0073646028 0.03200002 -0.87628847 -0.4807229 0.0017956888
0.010412122 0.0023423443 -0.0071120444 0.056537431 -0.88512546 -0.46190512 0.0022222146
0.013478175 0.002490392 -0.0068944278 0.085109241 -0.88344127 -0.46074718 0.0016716953
0.016290357 0.0026330771 -0.0065523833 0.11921097 -0.89948308 -0.42037958 0.0016139044
0.018884212 0.0028084742 -0.0062202914 0.15804353 -0.89976913 -0.40674043 0.0010072065
-0.021200165 0.0058309454 -0.0062584174 -0.31687197 -0.83548808 -0.44894516 0.001723829
-0.019112684 0.0055120587 -0.0069363178 -0.2777997 -0.83444834 -0.47594467 0.0017481972
-0.016453249 0.0050542257 -0.0075159608 -0.22208674 -0.82826179 -0.51445109 0.0015533427
-0.013467331 0.0043377802 -0.0075837914 -0.19415809 -0.84565622 -0.4971602 0.0015280634
-0.01055601 0.0038841432 -0.0078272345 -0.15665948 -0.83542824 -0.52679926 0.0013954869
-0.007585017 0.0035846138 -0.008136034 -0.11480048 -0.83838952 -0.53284508 0.001488017
-0.0045346846 0.0033988447 -0.0084166611 -0.083861448 -0.83584833 -0.54251713 0.0015834281
-0.0015674649 0.0032550276 -0.0085799815 -0.057043202 -0.8063966 -0.58861762 0.00096049049
0.0013361983 0.0032638337 -0.0088238614 -0.027800992 -0.81105912 -0.58430314 0.0012336487
0.0043470385 0.0031932872 -0.008824775 -0.0032936716 -0.81270808 -0.58266181 0.0010505038
0.0074879667 0.0031383117 -0.0087686181 0.024014434 -0.8273105 -0.56123132 0.0015428371
0.010551281 0.0032652412 -0.0086901831 0.04729452 -0.82385755 -0.56482035 0.0013535687
0.013481028 0.0033128185 -0.008424486 0.078738563 -0.84186655 -0.53391105 0.0012977106
0.016678443 0.0034962085 -0.0081103416 0.11273647 -0.86272013 -0.49295485 0.0016469354
0.019552266 0.0037182691 -0.0077221706 0.15368688 -0.86795926 -0.47225752 0.0011596112
0.02248615 0.0042113778 -0.0076071373 0.18237585 -0.86980176 -0.45845816 0.001544749
0.025485924 0.0048630326 -0.0075651631 0.21052881 -0.86797106 -0.44978198 0.001498453
0.028319923 0.0054094442 -0.007194065 0.23870075 -0.87058866 -0.43022946 0.0015948379
0.0306748 0.0057296944 -0.0064131985 0.28816536 -0.87898356 -0.3799324 0.00089409115
-0.028011786 0.0087198345 -0.0066942503 -0.33183944 -0.82430691 -0.45869446 0.001120123
-0.025325194 0.0080682104 -0.0073930542 -0.30596808 -0.81145889 -0.49791369 0.0013128665
-0.022529261 0.007182043 -0.007684039 -0.29386294 -0.81897438 -0.49287486 0.0014723359
-0.01977239 0.0065094996 -0.0082108155 -0.26095775 -0.81049615 -0.52440166 0.0019672767
-0.017557701 0.0062465514 -0.008857145 -0.24979797 -0.76903141 -0.58838046 0.0016915282
0.028920954 0.0063024499 -0.0085671386 0.23113483 -0.83546388 -0.49857464 0.0012763772
0.031615492 0.0067129806 -0.0077979513 0.2839081 -0.85290021 -0.43812957 0.0011103187
0.034497753 0.00758918 -0.0075753513 0.29939392 -0.84225565 -0.4482953 0.0013999067
0.037192322 0.0083868587 -0.0071417312 0.3359988 -0.84410453 -0.41784254 0.0013623144
0.039283346 0.0087699536 -0.0062343455 0.38354969 -0.84557807 -0.37133178 0.0021340949
-0.034166798 0.01148393 -0.0070550959 -0.36760455 -0.80608869 -0.46377578 0.0012185477
-0.031463057 0.010624525 -0.0075561777 -0.33223832 -0.81461143 -0.47542182 0.0012024214
-0.028754281 0.0097530959 -0.0079503907 -0.32488477 -0.8057878 -0.49513224 0.0017922035
-0.026291603 0.0092722159 -0.0086959917 -0.30723283 -0.7725963 -0.55561036 0.00098209735
0.038059946 0.0093820794 -0.0083779441 0.32628477 -0.81783259 -0.47401267 0.0017358242
0.040566366 0.01005148 -0.0075934753 0.38081631 -0.82888383 -0.40979317 0.00093574775
0.043333068 0.011233504 -0.0073604011 0.39228046 -0.81238431 -0.43144846 0.0013136576
0.045441836 0.011810283 -0.0063969009 0.43217579 -0.80673528 -0.40299168 0.001045626
-0.042030748 0.014925138 -0.0060813637 -0.50704283 -0.7794466 -0.36792737 0.0035622846
-0.039969798 0.014379643 -0.007094773 -0.44116423 -0.76997644 -0.46098843 0.0012637224
-0.037518647 0.01341736 -0.0076579396 -0.39088377 -0.78830373 -0.47517049 0.0013819612
-0.034978952 0.012525361 -0.0081828628 -0.35968414 -0.79535306 -0.48789424 0.0015497647
-0.032717776 0.012015749 -0.0089374762 -0.32138598 -0.73744714 -0.59403932 0.0011716153
0.044339105 0.012327597 -0.0084430026 0.40995952 -0.78650677 -0.46188772 0.0016869986
0.04663996 0.013136006 -0.0076524019 0.44451907 -0.79422909 -0.41424996 0.00098947191
0.049097765 0.014320824 -0.0072144847 0.47402823 -0.77091885 -0.42541915 0.0011838485
-0.045359802 0.017642448 -0.0067966357 -0.5174045 -0.72170043 -0.45982727 0.0013928888
-0.043299224 0.016743645 -0.0075858026 -0.47182813 -0.74210536 -0.47608587 0.0013646707
-0.040996384 0.015598565 -0.0081178993 -0.44148475 -0.75509435 -0.48468933 0.001624049
0.050139438 0.015546245 -0.0082231546 0.46966308 -0.75182158 -0.46279681 0.0021419709
0.052458152 0.016654989 -0.0074985339 0.51578301 -0.74403256 -0.42471567 0.0015698351
0.054578081 0.017571503 -0.0065364316 0.53268313 -0.72593629 -0.43504623 0.0011280632
-0.048781812 0.02037124 -0.0071598594 -0.53561878 -0.70808744 -0.46013546 0.0012310544
-0.046720505 0.019249417 -0.0077319969 -0.52325851 -0.71418113 -0.46491483 0.00097111985
-0.044570427 0.018303985 -0.0085954377 -0.5041917 -0.69443154 -0.51337659 0.0016732913
0.053641241 0.018196451 -0.0086136693 0.50701171 -0.70556587 -0.49509189 0.001876732
0.055684317 0.019194895 -0.0077664857 0.5438031 -0.70235807 -0.45931616 0.0017433908
0.057764161 0.020378476 -0.0069995918 0.58503085 -0.6729787 -0.452591 0.0013801703
-0.054415163 0.023961583 -0.0060987417 -0.55466861 -0.70850968 -0.43629906 0.00075999968
-0.052098643 0.023023285 -0.007360578 -0.53767604 -0.71053815 -0.45391628 0.0012781633
-0.049947497 0.02189061 -0.0080709988 -0.5288853 -0.70504069 -0.47243822 0.0020135876
-0.047982257 0.021137424 -0.0089011174 -0.51157326 -0.66841716 -0.53991801 0.00070248102
0.05895384 0.022062741 -0.0078596091 0.59790462 -0.6350981 -0.48904026 0.002005324
0.060802203 0.023163756 -0.0069491826 0.62564838 -0.61571723 -0.4790161 0.0014192673
-0.057419673 0.026795495 -0.0065868683 -0.59849417 -0.65395975 -0.46275422 0.00095642963
-0.055432696 0.025718614 -0.0074398327 -0.55827606 -0.68032414 -0.47485474 0.0014305031
-0.053163707 0.024491327 -0.0082913898 -0.53315014 -0.67264128 -0.51313215 0.00087801268
0.061943743 0.025174906 -0.0078657418 0.65092307 -0.56387782 -0.50827241 0.002115743
0.063632809 0.026329419 -0.0069377515 0.67440391 -0.53619307 -0.50761843 0.0016329839
-0.060352139 0.029603919 -0.0064746179 -0.64611518 -0.60050255 -0.47109643 0.00080218853
-0.058342587 0.028455028 -0.0075336006 -0.61975241 -0.59794176 -0.50830358 0.0023479937
-0.056471806 0.027391458 -0.0084201284 -0.57013786 -0.62172419 -0.53703058 0.001103962
0.062788591 0.027227277 -0.0088265296 0.64086062 -0.50997168 -0.57378274 0.0023526363
0.064630903 0.028467974 -0.0076763816 0.71082574 -0.46140766 -0.53087634 0.0021715283
0.066307358 0.029680349 -0.006536942 0.73716861 -0.46875459 -0.48667392 0.0022496856
-0.063072301 0.032661136 -0.0063514551 -0.68266678 -0.5575459 -0.47234368 0.0020626474
-0.061256532 0.03167 -0.0075648869 -0.65726447 -0.53845412 -0.52732408 0.0023224808
-0.059449434 0.030455776 -0.0084852949 -0.60748094 -0.55206519 -0.57113135 0.00089137553
-0.01506188 0.032926649 -0.0089314114 0.25049666 0.75871694 -0.60133195 0.0016887807
-0.012732866 0.032549221 -0.0085794013 0.21602327 0.78542972 -0.58002931 0.0012131563
-0.010334273 0.032399088 -0.0078803394 0.19658279 0.8346957 -0.51443011 0.001153594
-0.0074079554 0.031848721 -0.0077636819 0.15649818 0.84174234 -0.51669931 0.0015953672
-0.0044379965 0.031412937 -0.0077165929 0.12133081 0.83959401 -0.52949107 0.0017783099
-0.0016203596 0.031076701 -0.0076805479 0.089077376 0.84204346 -0.53200382 0.001843719
0.0014036621 0.030786376 -0.0077667851 0.050548594 0.84680545 -0.52949548 0.0020613747
0.0045584082 0.0307339 -0.0077129435 0.0082976492 0.84642303 -0.53244644 0.0020422249
0.0075150351 0.030704059 -0.0078081293 -0.060768083 0.82852709 -0.55664182 0.00162759
0.010397434 0.030911071 -0.0078199552 -0.071800835 0.84116483 -0.53599107 0.001500203
0.013373862 0.031292118 -0.0077112727 -0.11217853 0.85995644 -0.49788645 0.0030331644
0.016348675 0.03186477 -0.0075909542 -0.1862288 0.864546 -0.46677509 0.0016515765
0.019364364 0.032393787 -0.0079631256 -0.22006279 0.82956207 -0.51322436 0.0016493495
0.021667484 0.032569073 -0.0087351743 -0.23005344 0.81141794 -0.53728604 0.0011438066
0.065579593 0.030907124 -0.008434481 0.68810809 -0.35922492 -0.6304481 0.0014254522
0.066932328 0.031774681 -0.0072522513 0.74084836 -0.39349684 -0.54433811 0.0023029784
-0.06396585 0.034871761 -0.0072932704 -0.67847937 -0.47133604 -0.56347853 0.0022909422
-0.062408287 0.033854049 -0.008275535 -0.64998972 -0.46680486 -0.59967202 0.0017574722
-0.022176538 0.03570902 -0.0084176483 0.3084797 0.7946294 -0.52288085 0.0013207789
-0.019364014 0.035064004 -0.0077565759 0.27864534 0.80836689 -0.51855558 0.0012769231
-0.016463678 0.034229897 -0.0075278673 0.24539033 0.81415808 -0.52624148 0.0011956993
-0.013742534 0.033614293 -0.0072532585 0.22605428 0.82860243 -0.51216936 0.0014828184
-0.011328986 0.033259727 -0.0067275567 0.19572096 0.85754651 -0.47571763 0.00056027487
0.01941121 0.03319978 -0.0064842091 -0.22123714 0.85399348 -0.47090268 0.0011563038
0.022655267 0.033677332 -0.0072764596 -0.24327545 0.84727174 -0.47217339 0.0013836415
0.025523581 0.034262154 -0.0078041749 -0.25387681 0.84567428 -0.46944818 0.001616726
0.028419167 0.035068624 -0.0080276541 -0.2792818 0.83565152 -0.4729569 0.0014790047
0.030782998 0.035639118 -0.0085016713 -0.30382594 0.81378847 -0.49541712 0.0009701096
0.067741536 0.034380808 -0.0077538597 0.75727004 -0.29313362 -0.5836221 0.0019799762
0.069193296 0.03555062 -0.006395496 0.79361856 -0.30394682 -0.52705401 0.0029798467
-0.066532992 0.038054708 -0.006696979 -0.6973381 -0.4291696 -0.57404977 0.002021319
-0.064908475 0.037283421 -0.0080524338 -0.67074519 -0.38641885 -0.63307297 0.0024575677
-0.030045949 0.038838897 -0.0087368926 0.34444812 0.78218317 -0.51917726 0.0043599969
-0.028007366 0.038532048 -0.0077703316 0.36509964 0.79053992 -0.49167964 0.0010225897
-0.025517175 0.037542216 -0.0075676674 0.32655787 0.800497 -0.50255799 0.0012488679
-0.022846576 0.036571741 -0.0073722778 0.31831363 0.80698079 -0.49745199 0.0010292373
-0.020926775 0.036225103 -0.006602617 0.30934501 0.81185114 -0.49518013 0.0011987231
0.029334012 0.036142915 -0.0066095227 -0.29273018 0.85071349 -0.43657264 0.0013448158
0.031875186 0.036613975 -0.0074403509 -0.30057421 0.8323378 -0.46569189 0.0018213529
0.034591727 0.037551556 -0.0077648694 -0.35872954 0.80796272 -0.46744981 0.002117373
0.037005793 0.038466241 -0.0081945984 -0.40504962 0.78273892 -0.47249833 0.002274272
0.068385996 0.037393313 -0.0082078287 0.75643235 -0.17841524 -0.62926793 0.0020728533
0.069598295 0.037639439 -0.0067558996 0.79544199 -0.20894706 -0.56887013 0.0022001299
-0.069077425 0.041810926 -0.0060087419 -0.77307683 -0.31754676 -0.54910499 0.0098486245
-0.067201793 0.04059761 -0.0074577741 -0.6895346 -0.28716353 -0.66489023 0.0022905266
-0.065736361 0.039811566 -0.0086327652 -0.65412694 -0.28127497 -0.70214128 0.0032882725
-0.036363333 0.041876245 -0.0088538434 0.37700081 0.73783869 -0.55987906 0.0027832149
-0.034326017 0.041383795 -0.0080303978 0.38948512 0.77092832 -0.50395513 0.00080896151
-0.031646557 0.040352426 -0.007554776 0.38233516 0.77356595 -0.50538659 0.0012214157
-0.029144887 0.03958315 -0.0067685889 0.3694663 0.79059803 -0.48831269 0.00098312355
0.038112186 0.039639451 -0.0072438656 -0.43490064 0.774297 -0.4597016 0.0015570945
0.040445257 0.040690467 -0.0077300044 -0.45079929 0.76077569 -0.46690506 0.0013930851
0.042716697 0.041637242 -0.0083367424 -0.44735724 0.74348122 -0.49709874 0.0020588771
0.068649188 0.040419344 -0.0085352696 0.7046181 -0.077383325 -0.70535463 0.002232061
0.069888197 0.040556956 -0.0071210251 0.78552532 -0.10981257 -0.60900825 0.0021177477
-0.069409542 0.043608528 -0.006269129 -0.72974324 -0.21123379 -0.65027297 0.0022983283
-0.067802817 0.043397557 -0.0079205958 -0.67598194 -0.19342682 -0.71107972 0.0028250602
-0.042226568 0.044887114 -0.0087748524 0.34248608 0.71050614 -0.61472291 0.0018334234
-0.040132288 0.04419237 -0.0082502039 0.37261695 0.74026459 -0.55961144 0.0013563934
-0.037426133 0.043017417 -0.0079132887 0.36617473 0.74777097 -0.55385429 0.0010714707
-0.035608962 0.042421386 -0.0073718396 0.39659458 0.77315462 -0.49491885 0.00086479622
0.041386165 0.042120993 -0.0062611736 -0.47606018 0.77188808 -0.42137331 0.001617112
0.043734893 0.042858317 -0.0074214311 -0.44610956 0.74758863 -0.49203417 0.0016740221
0.046270128 0.044056047 -0.0078921588 -0.43416876 0.74264908 -0.50987244 0.0030098055
0.048692979 0.044780135 -0.0087648593 -0.38465685 0.69792581 -0.60410154 0.0014794352
0.068680823 0.043523099 -0.008640904 0.70866704 0.026680458 -0.70503849 0.0028090293
0.070018053 0.043517362 -0.0072198212 0.76072764 -0.0085853459 -0.64901441 0.0028819721
-0.069722049 0.046527922 -0.006711591 -0.6849587 -0.10850301 -0.72045732 0.00351937
-0.068007752 0.046393704 -0.0082452623 -0.60905099 -0.058225151 -0.79099101 0.0040422846
-0.048348203 0.047903553 -0.0087278066 0.3281427 0.7163769 -0.61573255 0.0025491023
-0.046633262 0.047514658 -0.0082529932 0.34427774 0.72733778 -0.59367722 0.0017835445
-0.043625969 0.046369076 -0.0077137877 0.3669652 0.74564582 -0.55619138 0.001167483
-0.041115757 0.045567114 -0.006890716 0.40970641 0.76272255 -0.50039482 0.001097603
0.047218636 0.04536543 -0.0068150926 -0.44420522 0.74927098 -0.49119726 0.0015527916
0.049607269 0.046185002 -0.0076232566 -0.39417458 0.72576845 -0.56381428 0.0016477535
0.05219423 0.047287233 -0.0080736205 -0.38353863 0.69945705 -0.60304058 0.0019263416
0.054270796 0.047821883 -0.0087707471 -0.34206626 0.66843402 -0.66044426 0.0018512958
0.068341501 0.046633769 -0.0085904123 0.56599426 0.12123518 -0.81544626 0.0036136629
0.069952533 0.046500336 -0.0071480293 0.71141958 0.072293267 -0.69903916 0.0033995539
-0.069776714 0.049572695 -0.0069508888 -0.61270273 -0.0072019054 -0.79028058 0.0075848978
-0.067610785 0.049529389 -0.0083585456 -0.48903728 0.097013712 -0.86685115 0.0067937844
-0.065713942 0.050769717 -0.0089157159 -0.21751001 0.29208463 -0.9313302 0.0090449182
-0.054774214 0.050720174 -0.0086876303 0.2059211 0.66724801 -0.71580482 0.0019595819
-0.052276865 0.050140917 -0.0082026534 0.29416704 0.72474551 -0.62306476 0.0025719763
-0.049823854 0.049345884 -0.00785481 0.3269628 0.73443162 -0.59473151 0.0013087341
-0.047122728 0.048664734 -0.0069811228 0.36013034 0.73963237 -0.56855094 0.0011570262
0.050800119 0.048023749 -0.0061670425 -0.46696538 0.74404109 -0.47785598 0.0038122167
0.053052329 0.048735142 -0.0069698421 -0.43993154 0.70286626 -0.55896264 0.0021693865
0.055572458 0.049483262 -0.007718456 -0.3321934 0.67741531 -0.65632004 0.0018573732
0.058303792 0.050152734 -0.0083209835 -0.22343947 0.61636645 -0.75509417 0.0026399523
0.061346978 0.050707281 -0.0087527996 -0.11466797 0.55691367 -0.82261688 0.0041990541
0.065140873 0.050635472 -0.0088637127 0.095428243 0.41426602 -0.90513927 0.0081488825
0.067748241 0.049655143 -0.0082753254 0.46132278 0.20799279 -0.86250818 0.005772986
0.069912344 0.049486443 -0.006799933 0.67999351 0.13580444 -0.72053176 0.0059562498
-0.070004545 0.05256395 -0.00669938 -0.48032781 0.08848007 -0.87261474 0.011181039
-0.06748531 0.052590717 -0.0077294111 -0.27039391 0.28649542 -0.91913408 0.013624392
-0.064592369 0.052633781 -0.0082149692 -0.11831499 0.46119881 -0.87937313 0.010580442
-0.061588854 0.052803125 -0.0080523873 0.058015998 0.61398518 -0.78718257 0.0054179193
-0.058511186 0.052346397 -0.0080280965 0.15877606 0.68607795 -0.70999104 0.0033143386
-0.055866104 0.051711153 -0.0079519367 0.21203637 0.70975745 -0.67177755 0.0025829116
-0.052941155 0.051398601 -0.0070259259 0.2927174 0.72268862 -0.62612915 0.0013388457
-0.050689336 0.051069763 -0.0060331342 0.36764967 0.76696348 -0.5259285 0.00041169365
0.056356207 0.051044613 -0.0063292747 -0.39441723 0.73039991 -0.55762988 0.0048224921
0.059061948 0.051925305 -0.006970054 -0.25410572 0.640809 -0.72442687 0.0035278583
0.061670795 0.052385729 -0.0075644222 -0.19047515 0.57476765 -0.79584002 0.0034838121
0.064573713 0.052387744 -0.0080498382 0.057324033 0.44553861 -0.89342564 0.009120089
0.06754519 0.052547589 -0.007505869 0.31227708 0.30719197 -0.89895278 0.012212855
0.069604367 0.052449066 -0.0064964811 0.6102398 0.16412874 -0.77502853 0.008543768
-0.069965087 0.055134773 -0.0063207331 -0.25898072 0.28025806 -0.92432916 0.011880845
-0.067576014 0.055421282 -0.0066298856 -0.049366262 0.40671641 -0.91221964 0.011242617
-0.06464579 0.055020522 -0.0067237406 0.10012727 0.57784277 -0.80998296 0.0095275538
-0.061667755 0.054519054 -0.0064609931 0.16943641 0.68527085 -0.70830441 0.0052599963
-0.059555944 0.054202747 -0.0060541607 0.2411502 0.7863037 -0.56883478 0.0062692622
0.062530227 0.054305941 -0.0063883238 -0.28691635 0.57514805 -0.76608342 0.0052401158
0.064798512 0.055015657 -0.0066197938 -0.11313983 0.46825373 -0.87632066 0.0091493214
0.067477882 0.055440288 -0.0065380894 0.11944013 0.37121803 -0.9208318 0.019143144
0.069227971 0.054833394 -0.0062066079 0.43677196 0.23436809 -0.86850548 0.012006141
0.067456029 0.057074185 -0.0060729324 0.024861084 0.30102277 -0.95329285 0.020839939
-0.015478557 0.0029249678 -0.0033817892 -0.26128158 -0.93115461 -0.25432858 0.001824975
-0.013243237 0.0026742637 -0.0041714814 -0.20212781 -0.92028946 -0.33498007 0.0017520408
-0.010487319 0.0022845317 -0.0046531972 -0.16676372 -0.92892325 -0.33059275 0.0016107507
-0.0074676857 0.0017522756 -0.0045395773 -0.12660815 -0.93126225 -0.34164459 0.0018976522
-0.0045424602 0.001477633 -0.0047206436 -0.094385028 -0.92876273 -0.35845667 0.0020787716
-0.0014336798 0.0012310082 -0.0047182855 -0.056914501 -0.93216902 -0.35752156 0.0020997578
0.0015524003 0.0010463878 -0.0045872997 -0.028769629 -0.92975479 -0.36705372 0.0025740264
0.0045495364 0.00098110165 -0.0045033074 0.0051288973 -0.92979324 -0.36804664 0.0020131879
0.0075135157 0.0010453352 -0.0044819131 0.043613967 -0.93843621 -0.34268838 0.002182741
0.010399113 0.0011964819 -0.0044446415 0.066469565 -0.93750399 -0.34156707 0.0022068399
0.013516553 0.0015674699 -0.0047227773 0.097265206 -0.94292301 -0.3184897 0.0020416032
0.016465643 0.0018772198 -0.0045536472 0.13385743 -0.94191521 -0.30802274 0.0017559938
0.01935829 0.0023390495 -0.0045844861 0.15370582 -0.9427014 -0.29612243 0.0015573986
0.022073386 0.0026455775 -0.0038936746 0.19746351 -0.94885862 -0.24632408 0.0014566947
0.024275228 0.002911543 -0.0032139369 0.23296517 -0.95985323 -0.15623409 0.0017110396
-0.024328928 0.0058681602 -0.0033223128 -0.35418621 -0.89465451 -0.27229652 0.0011007511
-0.022107579 0.0054237819 -0.0043998677 -0.32272279 -0.88245827 -0.342224 0.0017378731
-0.019464167 0.0045868312 -0.0046508531 -0.28871644 -0.88449818 -0.3664774 0.0016083317
-0.016580457 0.0037245469 -0.0047350512 -0.24426533 -0.89582062 -0.371268 0.001783636
-0.014035139 0.0032981446 -0.0053568073 -0.21678106 -0.89997411 -0.37822306 0.0018197232
0.02077869 0.0030625011 -0.0058873142 0.17304927 -0.93307811 -0.315308 0.0018459423
0.022843787 0.0032393809 -0.0052732998 0.199944 -0.92326134 -0.32804081 0.0014591782
0.025583893 0.0036592127 -0.0045962273 0.24684073 -0.92784041 -0.27961013 0.0013263008
0.028503684 0.0044431584 -0.0046197432 0.25587869 -0.92273098 -0.28825966 0.0015762508
0.031436335 0.0053021894 -0.004530089 0.28775987 -0.91677672 -0.27697399 0.0018167617
0.033493143 0.005718634 -0.0036342412 0.3217099 -0.90976101 -0.26236936 0.001593449
-0.030604007 0.0087913498 -0.0044254144 -0.34168461 -0.86459655 -0.36840796 0.0012070846
-0.028321711 0.0079815807 -0.0047256425 -0.33810797 -0.87503183 -0.34641352 0.0014320648
-0.025541732 0.0068728398 -0.0047570281 -0.34672946 -0.87270278 -0.34375644 0.0014604506
-0.023287127 0.0062355432 -0.0053923819 -0.34252849 -0.86893272 -0.35725373 0.0021390421
0.032692 0.0060775392 -0.0056879767 0.30645508 -0.9082827 -0.28479448 0.0020156794
0.034717977 0.0064924508 -0.0047628535 0.34388033 -0.89769429 -0.27548373 0.0014483165
0.037522957 0.0075047598 -0.0045642625 0.35240611 -0.89083964 -0.28673112 0.0016866332
0.040093418 0.0085027739 -0.0043213721 0.38165405 -0.88817686 -0.2558946 0.001470423
-0.036854628 0.011593912 -0.004561726 -0.40164158 -0.84422904 -0.3549104 0.0016534366
-0.034432292 0.010585782 -0.0048395176 -0.38526717 -0.8499822 -0.35930416 0.0011301391
-0.031848758 0.0095307222 -0.0050487095 -0.36028382 -0.85540473 -0.37212682 0.0013373924
0.041315336 0.0092722867 -0.0050380738 0.41244212 -0.87088561 -0.26730093 0.001318845
0.043483317 0.010165338 -0.0046002096 0.41906992 -0.86770493 -0.26733628 0.0012450494
0.046096195 0.01141543 -0.0043516872 0.44527128 -0.85281199 -0.27284682 0.001569209
-0.042516917 0.014598268 -0.0044424031 -0.48591089 -0.80068368 -0.35042295 0.0014147641
-0.040449694 0.013556992 -0.0048048743 -0.46293968 -0.81397194 -0.35090825 0.001456231
-0.038124721 0.012323911 -0.0049098958 -0.42588422 -0.83356184 -0.35184848 0.0014851961
0.047420453 0.012369736 -0.0050520566 0.46544608 -0.83862019 -0.28297743 0.0017631798
0.049525257 0.013445902 -0.0046170331 0.4930999 -0.82089454 -0.2880708 0.0014187325
0.051673453 0.0146261 -0.0042292029 0.50827444 -0.80981195 -0.29302147 0.0015901547
-0.048044674 0.017987572 -0.003100568 -0.56023234 -0.78913772 -0.25179654 0.00064240483
-0.046183825 0.017036308 -0.0043687625 -0.55330604 -0.78027558 -0.29158622 0.0020479751
-0.043879431 0.015781844 -0.0051060598 -0.515104 -0.78205037 -0.35080633 0.001145684
0.052946296 0.015686857 -0.0048428271 0.53642279 -0.79763258 -0.27574065 0.0013099302
0.055159926 0.017064972 -0.0044074724 0.56175613 -0.77434325 -0.29124314 0.0017218381
-0.051335014 0.020787328 -0.0041296394 -0.56444228 -0.77115762 -0.29448405 0.0017429149
-0.049811333 0.01985275 -0.0046519791 -0.57150191 -0.75047332 -0.33192673 0.0012228199
-0.047326837 0.018303951 -0.0053668604 -0.54725689 -0.74704093 -0.37741199 0.0017413978
0.05642641 0.018323189 -0.005230254 0.5748685 -0.75971216 -0.30391386 0.0019079194
0.058433902 0.019666351 -0.0045704017 0.61365366 -0.72684449 -0.30842537 0.0022439107
0.060188118 0.020806355 -0.0037443421 0.63184524 -0.71505117 -0.29912123 0.001964062
-0.054642122 0.023421519 -0.0044499612 -0.5727194 -0.73736548 -0.35816854 0.0012089547
-0.052197069 0.021874206 -0.0050903168 -0.56703955 -0.75015402 -0.34019861 0.0012417615
-0.050829597 0.021074839 -0.0056043905 -0.56880063 -0.72188133 -0.39414871 0.0016689015
0.059783954 0.021184424 -0.0054316451 0.63622564 -0.69734305 -0.33004472 0.001887491
0.061551441 0.02251295 -0.0046236808 0.67679662 -0.6709938 -0.30284265 0.001434619
0.063244268 0.023687351 -0.0035569582 0.71253091 -0.64209682 -0.28286305 0.0013463211
-0.057903342 0.026048597 -0.0043978924 -0.63334471 -0.70550394 -0.31802303 0.0018143068
-0.055705506 0.024562368 -0.0051312763 -0.59265369 -0.72281522 -0.35538679 0.0010155533
0.062785052 0.024192195 -0.005398904 0.69626594 -0.63894492 -0.32705227 0.0022046408
0.064297207 0.025507981 -0.0046054567 0.72161001 -0.60680985 -0.33325797 0.0019650334
0.066024199 0.026907435 -0.0032633711 0.76380342 -0.57039559 -0.30208156 0.0016252812
-0.06057781 0.028793804 -0.0046823439 -0.66560525 -0.63224113 -0.39653608 0.0015037478
-0.059234291 0.027742356 -0.0052240542 -0.65362054 -0.65755981 -0.37469351 0.0013856735
0.065626346 0.027649844 -0.0052995081 0.76114213 -0.546085 -0.34993404 0.0023865718
0.066840746 0.028808907 -0.0044024861 0.77933645 -0.52347285 -0.34439939 0.0024430007
-0.063647822 0.03208109 -0.0044199266 -0.72917509 -0.57855624 -0.36548105 0.0022055428
-0.062233504 0.030843278 -0.0050640125 -0.69654739 -0.60686886 -0.38279486 0.0012476911
-0.0068719862 0.032844111 -0.0056866277 0.16167919 0.88836139 -0.42973697 0.0016115746
-0.0042704595 0.032531969 -0.0054860185 0.13753399 0.89358455 -0.42730659 0.0015034976
-0.0013387797 0.03228296 -0.0051954109 0.092504531 0.90109277 -0.42364457 0.0015675172
0.0020492559 0.032025687 -0.0052508824 0.043448556 0.88524693 -0.46308753 0.0021786722
0.0038494905 0.032133937 -0.0048366273 0.029718362 0.89319879 -0.44867882 0.0018352626
0.0075683729 0.032174222 -0.0046651992 -0.063379005 0.93285501 -0.35463303 0.0018588444
0.01061321 0.032318041 -0.004754297 -0.086331688 0.91901964 -0.38464239 0.0020012127
0.014076207 0.032645941 -0.0050681247 -0.14508183 0.9023965 -0.40574849 0.0015465033
0.016210506 0.032858651 -0.0054298183 -0.20315978 0.91367507 -0.35202846 0.0015243927
0.068112724 0.031271473 -0.0048327739 0.81209481 -0.44119397 -0.38190299 0.0020886364
0.069181286 0.032238942 -0.0036137581 0.83394557 -0.41386449 -0.36503556 0.0019897849
-0.066479921 0.035574943 -0.004153972 -0.75094777 -0.53202248 -0.3911899 0.0033091777
-0.064830534 0.034034934 -0.0050723813 -0.72719705 -0.5429728 -0.41995844 0.0016461724
-0.018644176 0.035889924 -0.0055652745 0.31595436 0.89383537 -0.31816843 0.0026934636
-0.016429609 0.035467993 -0.0047145751 0.28077161 0.90998918 -0.30510163 0.0021262344
-0.013425075 0.034609865 -0.004725561 0.23524633 0.914868 -0.32813996 0.0024444654
-0.010562234 0.033703983 -0.00534525 0.20081717 0.88051265 -0.42938316 0.0013449399
-0.0082098758 0.033357501 -0.0049926182 0.16532859 0.89766908 -0.40848091 0.0015439361
-0.0055898437 0.033426844 -0.0033887448 0.13567346 0.93706524 -0.32171655 0.0033658787
0.014320199 0.033129681 -0.0038280324 -0.18037078 0.89186978 -0.4147706 0.0011963778
0.016769884 0.033421669 -0.0041646729 -0.19147192 0.92158759 -0.33766094 0.0017955186
0.019485004 0.033772491 -0.0051308414 -0.2270276 0.88137293 -0.41429475 0.0014712056
0.02266412 0.034701109 -0.0049764938 -0.25286487 0.88587439 -0.38895482 0.00043782734
0.025151113 0.035297938 -0.0053669186 -0.27215862 0.87883741 -0.39188582 0.00068489584
0.027201455 0.03571894 -0.0059035057 -0.30116087 0.86297882 -0.40567186 0.0011305144
0.068814106 0.033463407 -0.0056541376 0.83557814 -0.35615993 -0.41828135 0.0027687419
0.069784246 0.034573097 -0.0045781429 0.84783691 -0.34459299 -0.40302393 0.0027050294
-0.067089736 0.037036836 -0.0048637027 -0.75019157 -0.46956655 -0.46553189 0.002684192
-0.06576474 0.036012609 -0.0059660343 -0.72893071 -0.51492858 -0.45111921 0.0040058917
-0.025205361 0.038592163 -0.0049420889 0.37563601 0.87320393 -0.31050375 0.0018054327
-0.022540364 0.03764011 -0.004602192 0.35358348 0.8766309 -0.32633877 0.002298726
-0.019748645 0.036645807 -0.004436112 0.31377658 0.90473694 -0.28808928 0.0019427895
0.026445244 0.036141809 -0.0039480282 -0.28314525 0.89324147 -0.34921116 0.0012701286
0.028264439 0.03647235 -0.0048655928 -0.28743306 0.88434881 -0.36784431 0.00072860922
0.031555921 0.037645783 -0.0047926223 -0.33260536 0.86636513 -0.37253875 0.0012152558
0.034033872 0.038555205 -0.0050584376 -0.38343009 0.84254122 -0.3782931 0.0016595048
0.070737526 0.03750512 -0.004728029 0.88136244 -0.2410133 -0.40634078 0.0025108662
-0.06962835 0.040860504 -0.0042533809 -0.80689406 -0.39152518 -0.44230086 0.003722874
-0.068595447 0.040221874 -0.0054702498 -0.7712276 -0.35435984 -0.52880734 0.0034314238
-0.033036303 0.041876968 -0.0058377762 0.4265506 0.8273859 -0.36535904 0.0034269805
-0.031332221 0.041465823 -0.0047575929 0.41111782 0.8573271 -0.30979407 0.0021412289
-0.028538253 0.040185168 -0.0046100705 0.38803768 0.87100059 -0.3013052 0.0018979645
-0.026466954 0.03939376 -0.0042408211 0.36047289 0.8810308 -0.30633977 0.0018468718
0.035356298 0.03932403 -0.0047184136 -0.41616449 0.82023931 -0.39244696 0.001520396
0.03730423 0.040228039 -0.0050457153 -0.45596918 0.80868 -0.37165686 0.0010005353
0.039647967 0.041588444 -0.0051511563 -0.4727622 0.78933126 -0.39172944 0.00077546033
0.071358465 0.040452946 -0.0047429944 0.87734753 -0.15480651 -0.45419848 0.0018672195
0.072104402 0.041172802 -0.0033087551 0.91828895 -0.16562131 -0.35960382 0.0041235634
-0.07017117 0.043582577 -0.0051727588 -0.79803687 -0.25355297 -0.54666996 0.0035276792
-0.037429757 0.044522874 -0.0048690573 0.43309772 0.8370536 -0.33431679 0.0017709542
-0.034532376 0.04311261 -0.0045789327 0.43723574 0.84757453 -0.30073634 0.0021309464
-0.032623097 0.042420045 -0.0038295598 0.42455289 0.85363817 -0.30175617 0.002074382
0.041017871 0.042613398 -0.0045787496 -0.4682155 0.78705531 -0.40164432 0.0010468559
0.043500468 0.044080425 -0.004856722 -0.47572282 0.77988374 -0.40677887 0.00068820745
0.071533285 0.043368232 -0.0050856569 0.85120785 -0.05161874 -0.52228409 0.002505878
0.072206751 0.043555807 -0.0037459391 0.90203518 -0.075910635 -0.42493543 0.003653568
-0.072293244 0.047605231 -0.0036801761 -0.79160202 -0.21505432 -0.57194215 0.002553846
-0.071185015 0.046565816 -0.0049347724 -0.77214426 -0.17610508 -0.61055726 0.0029326668
-0.0431532 0.047509369 -0.0051364242 0.44509929 0.82388884 -0.3508473 0.0022440045
-0.04063746 0.046193473 -0.0050801188 0.42471328 0.79214007 -0.43832958 0.0015140722
-0.038419589 0.045464743 -0.0037312063 0.46506682 0.84625328 -0.25993901 0.0042408532
0.044694647 0.045244113 -0.0039759614 -0.49618882 0.78489971 -0.37111872 0.00098250143
0.046571627 0.046112686 -0.004631245 -0.47616938 0.7642709 -0.43491691 0.0010233354
0.048971102 0.047366828 -0.0051478827 -0.46106508 0.74875987 -0.47621182 0.0015797782
0.071575388 0.046360563 -0.0051173386 0.82667029 0.011169136 -0.56257576 0.0030130753
0.072249778 0.046934675 -0.0039404659 0.88542658 0.0075416146 -0.46471804 0.0027409538
-0.07261195 0.050055351 -0.004188722 -0.72490633 -0.18153691 -0.66449624 0.0053895093
-0.071348391 0.04952183 -0.0055069537 -0.6963253 -0.13392326 -0.70512104 0.0066515314
-0.048941229 0.050455149 -0.0055016512 0.39844865 0.79464823 -0.45800966 0.0018248095
-0.046527043 0.049448404 -0.0049590794 0.39994046 0.79261935 -0.46021968 0.0013854709
-0.044135492 0.04852327 -0.003966148 0.4553172 0.8453753 -0.27933282 0.0039232126
0.050191168 0.048550501 -0.0043396559 -0.47719589 0.76688772 -0.42914727 0.001200965
0.052465647 0.049770162 -0.0048456579 -0.47532511 0.75811249 -0.44646552 0.0019735
0.054450218 0.050500814 -0.0057168314 -0.43736365 0.75877357 -0.48267558 0.0032403136
0.071331866 0.049497258 -0.0052615069 0.80606872 0.07231342 -0.58738744 0.0034046664
0.072369426 0.049602222 -0.0036432315 0.86141866 0.042401765 -0.50612265 0.0032148983
-0.07322266 0.052632511 -0.0044013425 -0.65692312 -0.13317424 -0.74210292 0.0074173193
-0.071577214 0.052630279 -0.0057545174 -0.58156067 -0.027212711 -0.81304771 0.0067532212
-0.055108868 0.053280555 -0.0055367486 0.29192418 0.81360877 -0.5028131 0.0027323377
-0.052810948 0.052754365 -0.0047481814 0.36025268 0.7994355 -0.48075038 0.0020762444
-0.049967188 0.05147532 -0.0043526152 0.41628611 0.83150649 -0.3678354 0.0018819371
0.053656965 0.051123954 -0.0038196798 -0.47500935 0.7698372 -0.42628255 0.0034397137
0.055785552 0.051908664 -0.0046425918 -0.45467743 0.75745875 -0.46853462 0.0025330298
0.058358267 0.053156808 -0.005053957 -0.4542819 0.72497416 -0.51772624 0.0022907106
0.060421277 0.053740516 -0.0057257325 -0.43705264 0.69704598 -0.56842929 0.0046223514
0.071101457 0.05262959 -0.0051291785 0.73183167 0.090999544 -0.67538244 0.0054738638
0.072469033 0.052174803 -0.0033178043 0.80738181 0.049002107 -0.58799106 0.0046601291
-0.075242743 0.055261251 -0.0031028646 -0.72219867 -0.2251146 -0.654028 0.029729553
-0.073535442 0.055478822 -0.0045398171 -0.5873549 0.046589199 -0.80798739 0.01524075
-0.071086019 0.055945616 -0.0057677212 -0.34259242 0.14817668 -0.92772526 0.0151162
-0.067701153 0.056875397 -0.0058878474 0.025646348 0.51538742 -0.85657346 0.008042396
-0.064275026 0.056495287 -0.0054551931 0.2207939 0.70119798 -0.677917 0.0068435762
-0.061701458 0.055822182 -0.0049438383 0.23726533 0.70205092 -0.67143846 0.0043623033
-0.058706716 0.054769818 -0.0049109338 0.24961926 0.78695905 -0.56425667 0.0024122426
-0.056206428 0.054220453 -0.0045424923 0.29117405 0.8305549 -0.47475907 0.0026165408
0.059309345 0.054470275 -0.0039628241 -0.45776442 0.6929543 -0.5570153 0.0035217954
0.061580494 0.055389062 -0.0047784201 -0.44022641 0.66544288 -0.60281545 0.0055883178
0.063967384 0.056269366 -0.0055054002 -0.23748933 0.55020922 -0.80054277 0.012730834
0.067666516 0.056666315 -0.0059258039 0.05485107 0.40513206 -0.91261131 0.018333044
0.070659705 0.055599291 -0.0050686249 0.56056827 0.15623109 -0.81323743 0.013839341
0.072199978 0.055706564 -0.0035953287 0.75402236 0.033455253 -0.65599614 0.0057686237
-0.072684072 0.057334963 -0.0048264717 -0.38493973 0.18706143 -0.90378618 0.02827465
-0.07037241 0.058182042 -0.0051605594 -0.18349873 0.50322908 -0.84444577 0.020251015
-0.067520574 0.058468018 -0.0047221887 0.13888675 0.62980479 -0.76423585 0.011694011
-0.064624019 0.057807952 -0.0043088961 0.25043795 0.6786232 -0.69047183 0.005729835
-0.062560916 0.057248134 -0.0036811749 0.36481255 0.75857782 -0.53988087 0.0071265101
0.062642306 0.057324782 -0.0035802957 -0.48955113 0.59610301 -0.63639677 0.0053700693
0.064898238 0.058366377 -0.0045242161 -0.36089519 0.44081306 -0.82185066 0.012475711
0.067522794 0.058532611 -0.005400497 -0.0072143893 0.31646946 -0.94857532 0.019902499
0.070477329 0.058557067 -0.0047797109 0.42446929 0.16684757 -0.88993692 0.02115362
0.072280578 0.058662388 -0.0034350622 0.65285045 0.056207787 -0.75539863 0.018596904
-0.067821398 0.0600788 -0.0033590528 0.15782946 0.72240454 -0.67321736 0.014917349
0.065561004 0.061100379 -0.0034932494 -0.43526456 0.30296129 -0.84779668 0.011979432
0.067528673 0.061506417 -0.0044432352 -0.253658 0.23985089 -0.93708545 0.023782095
0.070580177 0.061531186 -0.0044101584 0.32737532 0.098310314 -0.93976623 0.025849758
0.072476387 0.061533313 -0.0032963138 0.57500291 -0.014097029 -0.81803 0.025433093
0.067759931 0.064404152 -0.0038899567 -0.39568689 0.16283424 -0.90383452 0.022146007
0.070469752 0.064548917 -0.0042655761 0.20663624 0.026785713 -0.97805113 0.024960538
0.07261315 0.064596601 -0.003429963 0.62710422 -0.072667927 -0.77553833 0.019523876
0.06806501 0.067322947 -0.0035883619 -0.47351018 0.087495282 -0.87643182 0.013505193
0.070573397 0.067487925 -0.0042271493 -0.038652509 -0.001334163 -0.99925184 0.02290958
0.072970375 0.067614764 -0.0036032449 0.48760104 -0.11153176 -0.86591333 0.015406466
0.068351887 0.070345424 -0.0034192472 -0.50109208 0.047223024 -0.86410457 0.018072056
0.070556588 0.070491664 -0.0043411623 -0.20488197 -0.050977096 -0.9774583 0.023490667
0.07344874 0.070542701 -0.0039395904 0.39906904 -0.2228432 -0.88942945 0.021672552
0.075091496 0.071444795 -0.0032058847 0.68386608 -0.23239179 -0.69160777 0.012470614
0.068719313 0.073430903 -0.0034523767 -0.5819934 0.034929328 -0.81244302 0.012955993
0.070636362 0.073502176 -0.0045729824 -0.36037034 0.015660524 -0.93267781 0.020803653
0.073561899 0.073465891 -0.0046514771 0.30832839 -0.15056597 -0.93928879 0.029821148
0.075627141 0.073624223 -0.0035888862 0.63451767 -0.18821897 -0.74964052 0.026469037
0.068864085 0.075561382 -0.0034253774 -0.47568837 0.085092284 -0.8754884 0.02370052
0.070458896 0.075693727 -0.0044996124 -0.4044846 0.11849047 -0.90683633 0.036796223
0.07323207 0.075295679 -0.0050045294 0.048886929 -0.054347765 -0.99732465 0.050600484
0.075008966 0.075300753 -0.0037954836 0.51077658 -0.14895846 -0.84671056 0.064286388
-0.015996873 0.0027250305 -0.0014789511 -0.24713083 -0.95935655 -0.13623999 0.001473523
-0.013385951 0.0021655397 -0.0019180048 -0.1972062 -0.95547271 -0.21950343 0.001394344
