# .PCD v0.7 - Point Cloud Data file format
VERSION 0.7
FIELDS x y z normal_x normal_y normal_z curvature
SIZE 4 4 4 4 4 4 4
TYPE F F F F F F F
COUNT 1 1 1 1 1 1 1
WIDTH 562
HEIGHT 1
VIEWPOINT 0 0 0 1 0 0 0
POINTS 562
DATA ascii
0.043626063 0.0096630696 -0.0016360099 0.44367301 -0.88718122 -0.12674265 0.0013801069
0.046451893 0.011070693 -0.0014917492 0.45948124 -0.88039267 -0.11741237 0.0013332122
0.04817839 0.011869711 -0.00052445137 0.48438093 -0.86892903 -0.10167315 0.0018028459
-0.043074004 0.014196068 -0.0014297263 -0.50645816 -0.83469588 -0.21629368 0.002464345
-0.040465806 0.012765567 -0.0016052183 -0.45838916 -0.85612261 -0.23860732 0.0013351339
0.049578335 0.012867589 -0.0015869425 0.50572836 -0.8547532 -0.11677218 0.0013845814
0.052004375 0.014299915 -0.0014879867 0.52782065 -0.84116483 -0.11767355 0.0014432304
-0.048325043 0.017841762 -0.0015435999 -0.57549107 -0.78496194 -0.22944427 0.0012006896
-0.046501417 0.016583253 -0.0015982005 -0.55443394 -0.79788858 -0.23659411 0.002499185
-0.044535991 0.015254887 -0.001928504 -0.55346143 -0.79857981 -0.23653914 0.0027799974
0.053519823 0.015381624 -0.0018490506 0.55518216 -0.82107931 -0.13267066 0.0013003121
0.055409584 0.016659474 -0.0015747133 0.56989735 -0.80969244 -0.14005427 0.001319245
0.057209674 0.01783501 -0.0010235094 0.59129274 -0.79320067 -0.1456212 0.0018078564
-0.051774316 0.020383717 -0.0014255493 -0.59557968 -0.77758151 -0.20162314 0.0011621745
-0.049878124 0.01900121 -0.0016792162 -0.57535017 -0.78349847 -0.23473908 0.0012277657
0.058664694 0.01908429 -0.0016612962 0.618559 -0.7711736 -0.15058546 0.001848132
0.060480352 0.0205345 -0.0014237077 0.65560001 -0.74421883 -0.12777676 0.0030016943
-0.055096995 0.022930468 -0.001450003 -0.60598594 -0.77044487 -0.19797938 0.00097051653
-0.053211454 0.021523472 -0.0018885899 -0.60104316 -0.77031165 -0.21299528 0.0014885741
0.06199291 0.021983787 -0.001557596 0.69967765 -0.7078377 -0.097040847 0.0029236849
0.06349396 0.023473531 -0.0013819495 0.7270624 -0.67852956 -0.10477531 0.0031522166
-0.060079046 0.026820421 -0.00066597341 -0.6812765 -0.70768404 -0.18720457 0.0005767165
-0.058368057 0.025651935 -0.0016622139 -0.6416651 -0.73990268 -0.20201458 0.00069230807
-0.056643333 0.024217939 -0.0018452666 -0.62850702 -0.74987704 -0.2065507 0.00074624742
0.065095425 0.025508227 -0.0019635609 0.77195835 -0.60927379 -0.18128885 0.0027421569
0.066238061 0.026813183 -0.0013649197 0.79508734 -0.57970202 -0.17827442 0.0024191204
-0.0630714 0.029947726 -0.0010433202 -0.73539817 -0.65796155 -0.1620995 0.001385601
-0.061546352 0.028719382 -0.001776834 -0.71423614 -0.6746189 -0.1864298 0.0013989452
-0.059958998 0.027211741 -0.0025336402 -0.67539686 -0.70881003 -0.20353749 0.0010988002
0.067485616 0.028630441 -0.0016136541 0.82015276 -0.54747659 -0.1661897 0.0022904971
-0.064296611 0.031710409 -0.0016356554 -0.76589549 -0.62262154 -0.16045719 0.0017141935
-0.062844485 0.030255832 -0.0027206661 -0.73301035 -0.65039718 -0.19919673 0.001927576
-0.00070286915 0.032924581 -0.0025115106 0.095013246 0.97741264 -0.18877792 0.0011933685
0.0015804736 0.032881491 -0.0016273536 0.06396202 0.970954 -0.23055859 0.0022669658
0.004455294 0.032861412 -0.0011031368 0.019080764 0.97273356 -0.23113921 0.002337981
0.0076182797 0.032848679 -0.0013776009 -0.048668504 0.97216135 -0.22920221 0.0028942397
0.010462386 0.03291465 -0.0022282004 -0.10494678 0.96718913 -0.23136847 0.0021471877
0.012333603 0.032924831 -0.0026823319 -0.1265723 0.98185933 -0.14117964 0.0024194329
0.068676092 0.030628717 -0.0018102919 0.85358322 -0.4952502 -0.161626 0.0028278674
0.069547877 0.032055158 -0.0013150582 0.8884837 -0.43274683 -0.15273128 0.0037215003
-0.066855602 0.034930274 -0.0016811193 -0.80071956 -0.57971007 -0.15094528 0.0028319203
-0.065653659 0.033393871 -0.0016743712 -0.78239602 -0.60608107 -0.14325622 0.0017976463
-0.01561949 0.035878759 -0.0018648941 0.29825124 0.94590843 -0.12768501 0.0020934576
-0.013734936 0.035395689 -0.001656102 0.26935172 0.94066334 -0.20640291 0.0014737317
-0.010312478 0.034429338 -0.002085777 0.20287371 0.94776064 -0.2461544 0.0026149245
-0.0074931751 0.03396203 -0.0014777941 0.16484334 0.96546853 -0.2017355 0.0014408637
-0.0044319918 0.03349527 -0.001468439 0.13446562 0.97339076 -0.18555163 0.0014524771
-0.0022658352 0.033310767 -0.00080566556 0.1073741 0.9794327 -0.17082861 0.0013686992
0.00076491601 0.033075895 -0.00052077498 0.043771729 0.99887842 -0.018056788 0.0015448026
0.0032787467 0.03301293 -0.00013245446 0.023581317 0.99967003 -0.010189579 0.00068614323
0.0082283095 0.033009328 -0.00017216186 -0.036267389 0.99914098 -0.020050285 0.00097939186
0.010963181 0.033102028 -0.0008437864 -0.083533376 0.99557269 -0.043095332 0.0018854362
0.013758984 0.033388536 -0.0014929345 -0.14629768 0.97030205 -0.19264199 0.001839007
0.016542014 0.033852972 -0.0016252595 -0.19167838 0.96603787 -0.17329249 0.0024991971
0.019435842 0.03454845 -0.0015101515 -0.25431547 0.95615929 -0.14519989 0.0016842529
0.022440758 0.035363544 -0.0016085157 -0.27398691 0.95513678 -0.11244988 0.0014662399
0.024444902 0.035910256 -0.0018281846 -0.30050707 0.94702506 -0.11330933 0.0015674088
0.070578739 0.034443282 -0.0016276152 0.92147344 -0.34868705 -0.17118454 0.0036384985
-0.069281116 0.038466696 -0.0014242303 -0.85217273 -0.49359104 -0.1736934 0.004603419
-0.068309627 0.037059605 -0.0017601752 -0.82570058 -0.54210591 -0.15601192 0.0034395487
-0.024255671 0.038860686 -0.0021779381 0.3901414 0.91235447 -0.12409279 0.001915016
-0.022539586 0.038249273 -0.001461482 0.36762422 0.920717 -0.13089199 0.0016748647
-0.019488528 0.037073046 -0.0014969116 0.31237435 0.9375397 -0.1531069 0.0030836156
-0.016986812 0.036344606 -0.0013886426 0.27164352 0.95477158 -0.12091718 0.0021417323
0.02590093 0.036386471 -0.0014384527 -0.28316668 0.95279431 -0.10954318 0.0015839258
0.028467534 0.037210282 -0.0015245143 -0.31533477 0.93794852 -0.14427927 0.0022172031
0.031544186 0.0383173 -0.0014463348 -0.36299369 0.92508698 -0.11157785 0.0022583264
0.033239845 0.038915921 -0.0022799999 -0.43249026 0.89374083 -0.1190783 0.0021542844
0.071552053 0.037318904 -0.0017188946 0.94192749 -0.28661364 -0.17500061 0.0037176316
0.072080344 0.038654707 -0.00068851624 0.96060282 -0.24722148 -0.12697907 0.008199689
-0.070397854 0.040452272 -0.0016363729 -0.88378912 -0.43520805 -0.17178705 0.0042049284
-0.030675411 0.041736897 -0.0018598894 0.45855227 0.87936389 -0.12825347 0.0017050463
-0.028548436 0.04076333 -0.0014378134 0.41066918 0.90299225 -0.12631637 0.0017396711
-0.025681106 0.039547071 -0.0014893194 0.378838 0.91784847 -0.11847363 0.0019872938
0.032881502 0.039014932 -8.1111197e-05 -0.37695375 0.92558831 -0.034528352 0.0051487098
0.034663554 0.03969584 -0.0015597515 -0.43089533 0.89562744 -0.11036666 0.00227614
0.037389286 0.041100305 -0.0016145455 -0.48701471 0.86400419 -0.12772377 0.0022597625
0.039114051 0.041947961 -0.0022078459 -0.52769655 0.8424269 -0.10887348 0.0029818518
0.071926408 0.039651129 -0.0026765761 0.95414388 -0.18798193 -0.23296419 0.0037642594
0.072341859 0.04062311 -0.0014351211 0.97252464 -0.16697997 -0.16221398 0.0041018575
-0.072197907 0.04446939 -0.0014032722 -0.92104542 -0.34155652 -0.18712161 0.0075099957
-0.071543016 0.043088742 -0.0017912319 -0.90943187 -0.37130556 -0.18725877 0.0061508394
-0.036573268 0.044718254 -0.0020094689 0.47698534 0.8696838 -0.12702398 0.0019951956
-0.034535915 0.043758284 -0.0014685803 0.45015225 0.8854264 -0.11568527 0.0015741378
-0.032046165 0.042500772 -0.0014045826 0.43006855 0.89357626 -0.12869529 0.0018716098
0.038827945 0.042098884 -0.00087639241 -0.52477372 0.84389317 -0.11160978 0.002352216
0.04052702 0.043029841 -0.0015048983 -0.51842463 0.84532297 -0.12909277 0.002407077
0.042819664 0.044469502 -0.001799277 -0.53485453 0.8345601 -0.13206097 0.0021609797
0.072758503 0.043207105 -0.0012559545 0.97351527 -0.094535239 -0.20816104 0.0058059655
-0.07285209 0.046510387 -0.0016403269 -0.92328006 -0.3013376 -0.23822184 0.010881996
-0.042339623 0.047876451 -0.0020226736 0.49885339 0.85603386 -0.13546698 0.0021493679
-0.0405262 0.046965219 -0.0014810351 0.48091137 0.86671716 -0.13238439 0.0019678841
-0.03798987 0.045553386 -0.0014049734 0.4636209 0.87717879 -0.12495229 0.0019213692
0.044181656 0.04541821 -0.0014033496 -0.5388363 0.83527422 -0.10941842 0.0031833046
0.046459503 0.046916556 -0.0015655768 -0.55175763 0.82268357 -0.1369492 0.0033746473
0.048214316 0.047863513 -0.0024433294 -0.55432892 0.81522804 -0.16769812 0.0037407053
0.072800644 0.046421111 -0.0017057158 0.98201042 -0.035477031 -0.18546358 0.0057375901
-0.075067103 0.050866306 -0.00061846193 -0.93437755 -0.31940013 -0.15786754 0.032684635
-0.073939815 0.049558904 -0.0017067948 -0.87538475 -0.31861949 -0.36356989 0.0093993405
-0.048177041 0.050944179 -0.0027282841 0.41734529 0.8867619 -0.19868648 0.0035438808
-0.046319459 0.050207086 -0.0015856207 0.48136291 0.86162519 -0.16090915 0.0024373052
-0.043638468 0.048720341 -0.0014597442 0.47413352 0.87052763 -0.13182959 0.0028174468
0.047928195 0.048193872 -0.00051910098 -0.56831461 0.81195265 -0.13323455 0.0031936844
0.04957857 0.048975211 -0.0017270659 -0.53824812 0.8214314 -0.18851893 0.0029888977
0.051694237 0.050359655 -0.0018581026 -0.5540849 0.81502998 -0.16945826 0.0026446795
0.072955064 0.049566627 -0.0015318618 0.96701205 -0.025166878 -0.25348431 0.0087008514
-0.075464793 0.052897781 -0.0014566554 -0.87361807 -0.20913155 -0.43938085 0.022615641
-0.074599184 0.051746618 -0.0023795373 -0.83406198 -0.26592866 -0.48334524 0.0085254097
-0.054149888 0.053831335 -0.0027191623 0.37073311 0.89758277 -0.23854166 0.005377301
-0.052329794 0.053390212 -0.0017096632 0.40329346 0.89152765 -0.20623478 0.0029927124
-0.049408395 0.051838927 -0.0021713676 0.43291911 0.84988809 -0.3004517 0.0019796796
-0.047805116 0.051154196 -0.00071870245 0.46615633 0.8689298 -0.1663107 0.0032218848
0.05322912 0.051444374 -0.0015838728 -0.52845752 0.82247806 -0.21038656 0.00462789
0.055501863 0.052879497 -0.001734251 -0.52925265 0.81939894 -0.22017503 0.0048231841
0.057270702 0.053785652 -0.002571818 -0.55136359 0.7862336 -0.27898917 0.0057908595
0.073027968 0.052521657 -0.0015760893 0.94641131 -0.019380152 -0.32238191 0.0096952403
-0.075725041 0.055299222 -0.0019157939 -0.84788597 0.017972901 -0.52987385 0.034493882
-0.060522199 0.056752257 -0.0020077277 0.48321822 0.8415212 -0.24154131 0.0080687068
-0.058514807 0.055908296 -0.0019083043 0.37600869 0.87066859 -0.31710196 0.0049383491
-0.055213355 0.054556239 -0.0019788281 0.32630408 0.89101386 -0.31562644 0.0026987449
-0.053705726 0.054098144 -0.00069705787 0.3751601 0.91016215 -0.1756694 0.0046384945
0.058677442 0.055088773 -0.0017330509 -0.55837619 0.7760393 -0.29322189 0.0067734709
0.06080107 0.056549676 -0.0020777478 -0.62476867 0.71186137 -0.32080755 0.0092403833
0.072964653 0.05545022 -0.0019374841 0.86173302 0.040949784 -0.50570673 0.011484107
-0.075313382 0.057207044 -0.0017967359 -0.79942018 0.45533073 -0.39192015 0.082999066
-0.073687442 0.058263365 -0.0017230893 -0.52984995 0.76207232 -0.37216228 0.025883749
-0.071013242 0.059626997 -0.00088591111 -0.32637671 0.90801644 -0.26264906 0.012321431
-0.066294223 0.059647474 -0.0027390169 0.3059468 0.8543269 -0.42014527 0.017925944
-0.064314492 0.05912165 -0.0019724346 0.418161 0.79839367 -0.43325391 0.0046561756
-0.061809205 0.057581462 -0.0019239087 0.41217899 0.80318493 -0.43011916 0.006177275
0.062091939 0.058012232 -0.0016133743 -0.70816773 0.61145216 -0.35302234 0.015694691
0.063462287 0.059401445 -0.0022053889 -0.72609055 0.58629233 -0.35924056 0.017974081
0.073035881 0.058298331 -0.0019911467 0.78532946 0.0021751714 -0.61907417 0.015718129
-0.069373123 0.060369819 -0.0018416261 -0.17489073 0.94592506 -0.27320135 0.023205558
-0.067401163 0.060506228 -0.001935414 0.070046246 0.92764676 -0.36683095 0.029432591
-0.065746561 0.060141224 -0.0015000293 0.28662202 0.89987892 -0.32873344 0.025241539
0.06446626 0.061494615 -0.001791251 -0.79842657 0.3778227 -0.46879107 0.021325661
0.073378466 0.061239686 -0.002071711 0.6205973 0.015442789 -0.78397739 0.016045371
0.06534712 0.064288072 -0.0015766949 -0.82987875 0.24453044 -0.50150371 0.018545032
0.066284806 0.065016344 -0.0027250932 -0.78458428 0.21092266 -0.58304298 0.018678788
0.073735863 0.064610608 -0.0021591326 0.63712406 -0.096857555 -0.76465124 0.0090874694
0.065714337 0.066995762 -0.00088798295 -0.89481771 0.21802479 -0.38957211 0.020834038
0.066584229 0.06746681 -0.0022705782 -0.76562244 0.19476205 -0.61309868 0.018811641
0.074331962 0.067510791 -0.0023546538 0.66001844 -0.1774381 -0.72999406 0.013150362
0.075333938 0.068252228 -0.00070570118 0.88037145 -0.23213521 -0.4135932 0.020694105
0.065992326 0.069260716 -0.00037172867 -0.91665959 0.22999258 -0.32686183 0.024112424
0.067160957 0.070532769 -0.0019977279 -0.76758504 0.12974134 -0.62767869 0.0120328
0.074754216 0.069845207 -0.0025616561 0.68298697 -0.24190165 -0.68921137 0.011517122
0.075580224 0.070596077 -0.0018590202 0.69890147 -0.26026845 -0.66618091 0.014735466
0.067548335 0.073592201 -0.0019019827 -0.82180589 0.15615469 -0.54795152 0.024275491
0.076519154 0.073347256 -0.001926977 0.72699648 -0.029921236 -0.6859889 0.03162517
0.067973502 0.076223992 -0.0017034 -0.78093368 0.35822842 -0.51167864 0.048883244
0.070189238 0.07678175 -0.001806682 -0.2181886 0.77089232 -0.59843022 0.064637758
0.073499568 0.075781725 -0.0014125123 0.31826043 0.93935966 -0.1277252 0.017407196
0.07556922 0.075142391 -0.0015019983 0.41418245 0.86936921 -0.26953685 0.062932327
-0.018427655 0.0029068887 0.0022636033 -0.24644035 -0.96913236 0.0070514153 0.0077406592
-0.016624225 0.0026373148 0.0015281079 -0.23989104 -0.96987611 -0.042339623 0.0041081165
-0.013749274 0.0019870896 0.0014762759 -0.22429675 -0.97372246 -0.039439678 0.0014966896
-0.010474365 0.0013871862 0.0014447046 -0.15165186 -0.98329461 0.10066529 0.0048921248
-0.007435252 0.0010167153 0.0014204127 -0.12090498 -0.98578382 0.11667185 0.0046984707
-0.004514596 0.00064825814 0.0015261803 -0.086456522 -0.98765987 0.13058811 0.004572833
-0.0015456075 0.00046221918 0.0014552262 -0.042185962 -0.98767513 0.15072538 0.0046939789
0.0014563852 0.00035858178 0.0014157301 -0.012030439 -0.99454021 0.10365865 0.0053834114
0.0044379118 0.00031552435 0.0014448307 0.025958257 -0.98324353 0.18043905 0.0051669721
0.0075094039 0.00044640346 0.0014323882 0.046825603 -0.98638105 0.15766965 0.0060391156
0.010469974 0.00059536862 0.0014741543 0.073378645 -0.97738236 0.19834144 0.0060744956
0.013425836 0.00089022337 0.0015141582 0.10776669 -0.97768718 0.18031643 0.0053670229
0.016430188 0.0012775548 0.0014137077 0.1369642 -0.98057938 0.14037402 0.0052429442
0.01930479 0.0016961325 0.0013282159 0.17334144 -0.97295594 0.15267424 0.0036701933
0.022527315 0.0024113543 0.0015191537 0.19534574 -0.97061968 0.14049035 0.0029728008
0.024744991 0.002824056 0.0011273971 0.21906491 -0.9680596 0.12194724 0.0030972071
-0.027499283 0.0057958504 0.0020412335 -0.34489146 -0.92971599 -0.12914324 0.0066182655
-0.025537357 0.0053845039 0.0015520069 -0.32251152 -0.9342342 -0.1522918 0.0036190024
-0.022456644 0.0044018016 0.0013732699 -0.31872752 -0.94291365 -0.096574157 0.0024025354
-0.019614702 0.0034798787 0.0013882442 -0.29230776 -0.95334333 -0.075449832 0.002109275
-0.017865654 0.0031945892 0.00060934492 -0.2544744 -0.9626444 -0.092512347 0.0015120304
0.025973953 0.0031856142 0.0017324663 0.23982972 -0.96071684 0.13965999 0.003915742
0.028519973 0.0038464244 0.0014481364 0.27706516 -0.95450735 0.11022965 0.0024283861
0.031346928 0.0046847095 0.0014440675 0.29057661 -0.95084792 0.10702103 0.001719087
0.034064945 0.0055849054 0.0012994289 0.32237455 -0.94164795 0.096818745 0.0024165316
-0.036046423 0.0089811711 0.0018827445 -0.41109496 -0.90357441 -0.12064125 0.014558845
-0.034213096 0.0085402709 0.001708118 -0.38187358 -0.90641642 -0.18050431 0.0036601066
-0.03156117 0.0077252486 0.0013992534 -0.36695984 -0.91207546 -0.18291754 0.0029794879
-0.028719958 0.0067038676 0.0012023634 -0.36215243 -0.91640276 -0.17044547 0.0034751152
-0.026645316 0.006258145 0.00054403202 -0.3289907 -0.92941171 -0.16720927 0.0025796907
0.035567489 0.0061705313 0.0013823585 0.36059272 -0.92740005 0.099508688 0.0023659384
0.037464917 0.006913593 0.0015335464 0.36585546 -0.925915 0.093974769 0.0021434715
0.040419955 0.0081280395 0.0014472144 0.39399755 -0.91489607 0.08792571 0.0017836835
0.042232543 0.0089079821 0.00077570695 0.41746178 -0.90440154 0.088224381 0.0018755267
-0.042160135 0.011927634 0.0023203765 -0.43572089 -0.88914061 -0.13991532 0.013137705
-0.04012825 0.011380203 0.0016950845 -0.44449311 -0.87049007 -0.21135978 0.0061243935
-0.037604362 0.010361427 0.0013818013 -0.43892592 -0.87234193 -0.21532223 0.002759594
-0.035040397 0.0094812289 0.0008708114 -0.40053722 -0.88906687 -0.22165291 0.0021723022
0.041975215 0.0091172336 0.0026046596 0.42219764 -0.90605927 0.028385557 0.0009510474
0.043731336 0.0096871601 0.0013918942 0.4440369 -0.89141506 0.090611167 0.0018988835
0.046294987 0.010985139 0.0014803839 0.45141152 -0.8863259 0.10321837 0.0015335787
0.048113998 0.011938217 0.00078618346 0.4837012 -0.87272191 0.066253856 0.0020633116
-0.045661055 0.014488643 0.001947587 -0.54125363 -0.81277722 -0.21549416 0.005732466
-0.043421008 0.013418214 0.0014681327 -0.51288855 -0.82167995 -0.2485708 0.0048050703
-0.040995806 0.012508254 0.00090645521 -0.46182746 -0.84987658 -0.2538211 0.0038566946
0.04776359 0.01205125 0.0023111585 0.47694308 -0.87824243 0.03486485 0.00092313864
0.049614746 0.012889453 0.0015004746 0.51186085 -0.85678399 0.062608048 0.0020141096
0.05201022 0.014215726 0.0010115445 0.53907114 -0.84212106 0.015313802 0.0017803038
-0.051225021 0.017927196 0.002977246 -0.56091541 -0.82564467 -0.060702041 0.014668811
-0.049184676 0.017157676 0.0017857396 -0.56794864 -0.79313672 -0.21992847 0.0048908079
-0.046766281 0.015910534 0.0012567084 -0.55399507 -0.79808772 -0.23695025 0.0042251111
-0.044752941 0.0150902 0.00066561886 -0.54191029 -0.80320376 -0.24738014 0.0051098536
0.053510308 0.015311306 0.0017414063 0.55090386 -0.82757998 0.10777919 0.002409322
0.055904921 0.016916921 0.0010910832 0.58398032 -0.81132728 0.026740659 0.0020167676
0.057227686 0.017795555 0.0010067907 0.59528571 -0.79557896 0.11264595 0.0033661048
-0.054414619 0.020711338 0.0024194899 -0.61821753 -0.74904352 -0.23820348 0.0053034173
-0.052311081 0.01968969 0.0016819892 -0.59160733 -0.76207042 -0.26315284 0.0047099874
-0.050147947 0.018616915 0.0010355611 -0.57975084 -0.77208865 -0.26032296 0.0034676071
0.058722984 0.019082112 0.0014235764 0.63658124 -0.76857215 0.063726842 0.002648962
0.060556501 0.020577025 0.0013397438 0.66038746 -0.74100161 0.12167598 0.0032755912
-0.05747211 0.023639577 0.0022114397 -0.67110443 -0.72054636 -0.17444691 0.0041051912
-0.055596773 0.022455806 0.0015747846 -0.61793995 -0.7468093 -0.2458172 0.0043077106
-0.05353127 0.021371234 0.00090312253 -0.58612937 -0.76834077 -0.25710875 0.0041130865
0.062218536 0.02229579 0.0020180803 0.69676465 -0.71243262 0.083420046 0.0022771517
0.063495092 0.023465641 0.0013935182 0.72569263 -0.67694438 0.12294921 0.0035118116
-0.060389701 0.026551414 0.0021116014 -0.72525054 -0.66651356 -0.17254333 0.0018172871
-0.058839701 0.025309365 0.001652292 -0.67403066 -0.70907861 -0.20709957 0.001838046
-0.056790851 0.024082096 0.00046663877 -0.61925679 -0.75022274 -0.23170424 0.0036016456
0.065168373 0.025364608 0.001206288 0.76739806 -0.63744557 0.069016762 0.0031629612
0.066296518 0.026776746 0.00074409816 0.81246489 -0.58288842 0.011915632 0.0026283048
-0.063152589 0.029619943 0.0024218876 -0.76991916 -0.62861943 -0.10982814 0.0017000959
-0.061695226 0.028250555 0.0016554353 -0.74168056 -0.65442395 -0.14710312 0.0010473946
0.067321502 0.028286377 0.0013660222 0.83384138 -0.54961503 0.051300995 0.0027117124
-0.064441696 0.031462494 0.001728993 -0.78892821 -0.60882849 -0.083187222 0.00142387
-0.062934242 0.030002473 0.00098629599 -0.75774765 -0.64030433 -0.12581345 0.00086708955
-0.00070142251 0.032957818 0.0026753291 0.090241268 0.98273891 0.16149551 0.0028184603
0.0017996837 0.032892104 0.001843843 0.075143851 0.99027562 0.11707934 0.0033561585
0.0045165471 0.032856595 0.0014282255 0.027734317 0.99386424 0.10707342 0.0033798199
0.0076782121 0.032821663 0.0018118684 -0.059997082 0.99120259 0.11797362 0.0055106827
0.01015164 0.032909796 0.0023930827 -0.095791996 0.98453313 0.14669171 0.0034687691
0.012430195 0.032981507 0.0027381708 -0.14440688 0.97871715 0.14580598 0.0031432845
0.068639785 0.030345263 0.0012726239 0.86172539 -0.50494355 0.0496126 0.0028593957
0.069455795 0.031867191 0.0016012373 0.89541638 -0.43920875 0.072974391 0.0029620102
-0.066929221 0.034797102 0.0014777527 -0.82140344 -0.57034099 -0.0027432244 0.0010440565
-0.065819763 0.033339497 0.0015007593 -0.80886757 -0.58729011 -0.028695829 0.00086949981
-0.015435085 0.035913687 0.0019506837 0.2996608 0.94978011 0.090117201 0.0039298437
-0.013577534 0.035465255 0.0011475354 0.269871 0.96260238 0.023798726 0.0028057813
-0.010469531 0.034605563 0.0013954038 0.22516073 0.96725804 0.11710885 0.0050439108
-0.0078608897 0.034183599 0.0010707553 0.17399007 0.9839983 0.038402855 0.004074615
-0.0048435014 0.033695646 0.0012106341 0.13373759 0.99062133 0.027994199 0.0034296394
-0.0015281573 0.033215325 0.0012862849 0.084311843 0.99515933 0.050491776 0.0050294786
0.00096427416 0.033069592 0.00065971748 0.053174172 0.99655604 0.063627414 0.0045527131
0.003806829 0.033014573 0.00029194172 0.031796761 0.99810284 0.052722715 0.003891136
0.0088222055 0.033052552 0.00062409253 -0.075934865 0.99615908 0.043600298 0.0041157603
0.010820864 0.033129875 0.0010478878 -0.080489807 0.99452698 0.066614635 0.0053032506
0.013587354 0.033408131 0.0014043942 -0.12275182 0.98806578 0.093048535 0.0046199639
0.016485197 0.033892017 0.0015347082 -0.18943076 0.97463208 0.11919887 0.0046748854
0.020028591 0.034779664 0.0014611573 -0.2634109 0.96464843 0.0082529336 0.0024192501
0.023113972 0.035669118 0.00088414917 -0.27455187 0.96148652 0.012842757 0.001740163
0.024265312 0.03591191 0.001897464 -0.31628942 0.94482315 0.085265741 0.0036176185
0.070674852 0.034532215 0.0012168165 0.92630851 -0.37414402 0.044371694 0.0031109622
-0.069441006 0.038567208 0.0010590752 -0.86257339 -0.50514817 0.028151 0.0025262653
-0.068363287 0.03693575 0.0015849547 -0.83727503 -0.54671699 0.008433871 0.0012138996
-0.024287747 0.038912609 0.0026022841 0.40248978 0.90960497 0.10305777 0.0043750666
-0.022283116 0.038259018 0.0013339105 0.36849535 0.92922199 0.027525302 0.0027079596
-0.019413993 0.037136346 0.0014335877 0.31412154 0.94231009 0.11566907 0.0049646813
-0.016803432 0.036397964 0.0013750636 0.27518055 0.96129423 0.013748973 0.0027674621
0.025707895 0.036424249 0.001074291 -0.29058096 0.95684707 -0.0025381725 0.0026582102
0.028041601 0.037159085 0.00115667 -0.30919215 0.95084894 0.016927194 0.002345612
0.031656347 0.038422283 0.001248495 -0.37440115 0.92726427 -0.0021756538 0.0027743771
0.033165962 0.03890501 0.0024832042 -0.42173764 0.89727867 0.13049267 0.0053532431
0.071640804 0.037352007 0.0013507335 0.95413786 -0.29428485 0.054931186 0.0044033327
0.072117031 0.038632549 0.00093939225 0.97060317 -0.24062747 0.0052852225 0.0051589799
-0.070303358 0.040225942 0.001654175 -0.896164 -0.44278619 0.028819323 0.0018409907
-0.030541494 0.04178822 0.0015771049 0.46566412 0.8805927 0.087825641 0.0035747653
-0.028568579 0.040884085 0.0014258726 0.41622466 0.90891933 0.024954651 0.0028021727
-0.025683912 0.039697912 0.0010246668 0.37669522 0.92616671 0.017774004 0.0030519923
-0.023958944 0.039006487 0.0012077894 0.37742689 0.92592943 -0.014271368 0.0026156772
0.032917075 0.039026603 0.0009891924 -0.39633951 0.9144156 -0.082213536 0.0018434003
0.034547653 0.039743099 0.001147304 -0.43819597 0.89850289 0.026016545 0.002079179
0.037288506 0.041118972 0.0012346996 -0.48340896 0.87444794 0.040701997 0.0021484036
0.039127093 0.041935541 0.0024304574 -0.48976439 0.86500955 0.1090386 0.0043183812
0.072411045 0.040544953 0.0011800645 0.98569453 -0.16168784 0.04757585 0.0030895278
-0.072155587 0.044495966 0.0011564767 -0.93503815 -0.35446018 -0.0078539466 0.004253835
-0.071553193 0.042973429 0.0013859151 -0.92012525 -0.39142576 0.012464877 0.0038558613
-0.036445778 0.044789534 0.0015622303 0.47927913 0.87115341 0.1066921 0.0042980881
-0.03460855 0.043895282 0.0015021581 0.44943339 0.89248937 0.038371235 0.0031129092
-0.031868726 0.042528965 0.0012178489 0.44528401 0.89442205 0.041609872 0.0035188249
0.038836312 0.042125732 0.00059420202 -0.50864762 0.86059904 0.025432173 0.0023271022
0.040693741 0.043157209 0.0012970421 -0.5261783 0.84840375 0.057856433 0.0020349773
0.042746566 0.044420991 0.0017489382 -0.54900301 0.83451116 0.046763409 0.0012088101
0.072809555 0.043907162 0.0014970418 0.99567127 -0.081171453 0.045275733 0.0031425518
-0.072802797 0.046481706 0.0013810259 -0.94571716 -0.32011577 0.056079816 0.0056933477
-0.042137437 0.047844991 0.0020160584 0.48604351 0.86965829 0.086349033 0.0039156964
-0.040444285 0.047051374 0.0012229539 0.48031577 0.87670058 0.026322741 0.0027718041
-0.037827089 0.045574598 0.0013136109 0.46345294 0.88528717 0.038445141 0.003353477
0.044261407 0.045454152 0.0014851419 -0.54833812 0.83606362 0.017970691 0.0029075406
0.046457537 0.04693846 0.0013669869 -0.55458021 0.83197165 0.016249634 0.0025524194
0.048123393 0.04783069 0.0023441468 -0.5222128 0.83765191 0.16010325 0.0046753627
0.072945006 0.046593528 0.001348104 0.99817514 -0.04712107 0.03776167 0.0039292648
-0.07507024 0.050864633 3.6913368e-06 -0.95671672 -0.28993464 -0.025121879 0.013023822
-0.073870465 0.049316 0.0012012081 -0.92538375 -0.3761681 0.046502721 0.008568434
-0.046316609 0.050306626 0.0014070921 0.49418506 0.86876279 0.032129981 0.0024941105
-0.043570735 0.048824709 0.0010635762 0.48480606 0.87446684 0.016457321 0.0026868246
0.047929566 0.048193451 3.6764357e-06 -0.5291152 0.84838992 0.016480468 0.0081883157
0.049490858 0.048986528 0.0013140006 -0.55190086 0.83388472 0.0064513395 0.00234667
0.051703274 0.050488066 0.001195106 -0.56690764 0.82371378 -0.010550305 0.0022091197
0.073077954 0.049254928 0.0010692653 0.99899769 -0.038697571 0.022498788 0.0075242058
-0.07554853 0.052880641 0.001071511 -0.95419055 -0.29767379 0.030177489 0.012725157
-0.074734576 0.051618427 0.0017798627 -0.92230946 -0.36477521 0.12761 0.010895477
-0.052272044 0.053509813 0.0012076396 0.41984433 0.90593457 0.054893218 0.0033212262
-0.049526095 0.052090026 0.0012791955 0.45275453 0.89151353 0.014729438 0.0023703855
-0.047644749 0.051128786 0.0008036067 0.47714362 0.87870246 0.014696559 0.003545213
0.053062461 0.051400635 0.0011659667 -0.5495171 0.83532727 -0.016102741 0.0036532308
0.055508018 0.053003937 0.0010899524 -0.55175924 0.83396953 0.007517946 0.0032743174
0.057261761 0.053799856 0.0023944583 -0.55050188 0.80558872 0.21903092 0.0079764538
0.073182315 0.05236204 0.0011647617 0.99401879 -0.027181532 0.10577279 0.011889435
-0.075990446 0.055809245 0.0011227087 -0.95678318 0.26923618 0.10989889 0.031261805
-0.060418852 0.056785002 0.0018020953 0.48660958 0.86282545 0.13690606 0.009138912
-0.058400255 0.055922616 0.0014593193 0.40047124 0.90816158 0.12192367 0.0077595343
-0.055929251 0.054996386 0.0011933118 0.36324313 0.93120182 0.030291567 0.0048170472
-0.053767383 0.054154646 0.0010037663 0.37302464 0.92538625 0.067178532 0.0080173099
0.058851667 0.055369105 0.0010161386 -0.58505946 0.80849165 -0.063612595 0.0060935616
0.060660675 0.056506801 0.0016607568 -0.67651355 0.7160899 0.17188571 0.012425132
0.073272318 0.055532835 0.0011895691 0.99767745 -0.067948021 0.0047756364 0.0162505
-0.075330697 0.057266697 0.0013678955 -0.80933648 0.57365537 0.12607147 0.029752648
-0.073701113 0.05823794 0.0018896376 -0.64748359 0.74034649 0.18069907 0.012444347
-0.071063973 0.059577391 0.0012999889 -0.38249305 0.92218286 0.057251826 0.0032155195
-0.06639421 0.059862126 0.0028514464 0.26274484 0.89860612 0.35138619 0.01839339
-0.064048752 0.059290633 0.0010469665 0.50652117 0.86218375 -0.0086934147 0.0080076046
-0.061551731 0.057681657 0.0010220301 0.50063157 0.86564338 0.0054394724 0.0078503378
0.06217302 0.05833054 0.00092085759 -0.77588826 0.6288743 -0.050145309 0.018862847
0.063451238 0.059538875 0.0018801106 -0.78040409 0.62508851 0.015290569 0.019133434
0.07350871 0.058365982 0.00090819551 0.96137089 -0.09256725 -0.25922447 0.014852063
-0.069741763 0.06024535 0.0012863784 -0.21355003 0.96539366 -0.14970487 0.017948056
-0.067548998 0.060697366 0.0013283152 0.092507794 0.98765469 0.12641367 0.015710354
-0.065452598 0.060235959 0.00063512009 0.35114574 0.93533713 -0.04290846 0.017643915
0.0641165 0.061446257 0.00091108715 -0.89324236 0.44957095 -0.0020139418 0.019946637
0.073972203 0.06152001 0.0006693317 0.92443597 -0.10590218 -0.36633706 0.0056416951
0.065068588 0.064192168 0.00086799217 -0.96537971 0.25410172 -0.058942921 0.01643968
0.066401005 0.065040052 0.0024536506 -0.92230886 0.22838123 0.31175062 0.023785423
0.074484535 0.064478435 0.00046358249 0.90324122 -0.18673354 -0.38637534 0.010148459
0.065674469 0.06697572 0.0005434815 -0.94654733 0.2240382 -0.23206681 0.012872971
0.066265069 0.068212032 0.00097927486 -0.95074385 0.25296146 -0.17915501 0.019601585
0.074775971 0.066602953 0.0010343314 0.923437 -0.23215374 -0.30556291 0.0091324234
0.075237699 0.067754358 0.00050565985 0.94229352 -0.23035164 -0.24294262 0.014067879
0.066653371 0.070605829 0.00071736012 -0.95049703 0.20459011 -0.2338766 0.014009583
0.069426894 0.070707455 0.0026824852 -0.62597775 0.010970566 0.77976376 0.045909204
0.074745037 0.069498889 0.0025562607 0.96090007 -0.27652407 0.01433836 0.023593655
0.075956911 0.070408821 0.00070018758 0.92874736 -0.27242488 -0.25142193 0.017658161
0.067204423 0.073734708 0.00066552119 -0.96704155 0.21658672 -0.13386884 0.019951627
0.069235064 0.073211268 0.00267671 -0.55795115 -0.041736197 0.82882363 0.0089529399
0.076777287 0.073797129 0.00093209354 0.8861506 0.3740907 -0.27348319 0.032680824
0.067850322 0.076354265 0.00081764022 -0.7877118 0.52539217 -0.32167253 0.058150224
0.070136502 0.076714568 0.0017770389 -0.28156662 0.94547975 0.16367123 0.055993974
0.073480837 0.075788058 0.0016693861 0.27531391 0.96128905 0.011205281 0.002199352
0.075435556 0.075187035 0.0013627893 0.5006637 0.8656376 0.0027247104 0.033040114
-0.018217869 0.0029462429 0.0032490965 -0.21744956 -0.95749062 0.18954532 0.0086369822
-0.016195975 0.0026442604 0.003847376 -0.20379293 -0.96107692 0.1865465 0.0067343339
-0.013461065 0.0023060625 0.0043647112 -0.16742443 -0.94999856 0.26357496 0.0036944612
-0.010556844 0.001835672 0.0043850313 -0.14229584 -0.9446519 0.29560885 0.0035888152
-0.007575071 0.0014487447 0.0042795874 -0.10020875 -0.94759488 0.30335155 0.0034383517
-0.0046494165 0.0012330508 0.004409119 -0.07207197 -0.94019622 0.3329215 0.0039868816
-0.0014438794 0.0010845002 0.0044320696 -0.021096125 -0.94104266 0.33762932 0.0027733906
0.0015607027 0.0010625587 0.0044207037 -0.00058478047 -0.93681425 0.34982666 0.0024634609
0.0044637611 0.0011374821 0.0044441433 0.030918578 -0.93218714 0.36065373 0.0019619102
0.0075057088 0.0013634048 0.0044897269 0.050249297 -0.92547053 0.37547225 0.0020307449
0.010271286 0.001492731 0.0044964859 0.074748777 -0.92097032 0.38239545 0.0020717504
0.013390628 0.0017091478 0.0043156235 0.10310853 -0.92319041 0.37025413 0.0039957468
0.016602539 0.0021095027 0.004372912 0.11611767 -0.91399431 0.38875574 0.0029621557
0.019529045 0.0024272266 0.0041375575 0.13671926 -0.92726976 0.34853801 0.0049460726
0.022318363 0.002776579 0.0036781821 0.20472763 -0.94117188 0.26885334 0.0030163897
-0.027608315 0.0058668819 0.003462781 -0.28736797 -0.95130134 0.11155926 0.011976273
-0.025143497 0.0052960976 0.0039807232 -0.28426486 -0.92959195 0.23463221 0.0072075236
-0.022746261 0.0047154878 0.0044680126 -0.28660473 -0.92545241 0.24778135 0.0060547758
-0.019381225 0.0036828369 0.0044658864 -0.2710118 -0.92123955 0.27905232 0.0048155105
-0.016479548 0.0033017665 0.0053115394 -0.21163514 -0.92211229 0.32391289 0.0034066583
-0.014419821 0.0031323619 0.0058746659 -0.16723657 -0.885777 0.43293306 0.00060995645
0.01999958 0.0032824848 0.0057812748 0.1525543 -0.87255639 0.46408242 0.0046616029
0.022579912 0.0033795459 0.0049503017 0.19657961 -0.90282154 0.38245225 0.0042122863
0.025151365 0.0037534507 0.0044872239 0.22474438 -0.91772127 0.32753268 0.0037675512
0.028184865 0.004478815 0.0042795013 0.25319239 -0.91865516 0.30325955 0.0035471306
0.031782467 0.0054764957 0.0042837318 0.29000577 -0.9201712 0.26302391 0.0022934994
0.033384085 0.005855151 0.0038152747 0.31862274 -0.91226262 0.25740334 0.0025272893
-0.034039646 0.0084209451 0.0037858998 -0.36705136 -0.92773026 0.067747861 0.010176764
-0.031473964 0.0076105627 0.0042248503 -0.33916482 -0.91934907 0.19941036 0.0090673864
-0.028969709 0.0068452777 0.0046825684 -0.3385978 -0.91516596 0.2186842 0.0077363029
-0.026370564 0.0062446524 0.0054332069 -0.2974709 -0.89610994 0.32939035 0.0043947524
0.032658994 0.0061601056 0.0054348577 0.30640006 -0.891801 0.3328813 0.003574024
0.034710925 0.0065156375 0.0042240801 0.33996254 -0.90714818 0.24800737 0.0023856505
0.037475459 0.007583525 0.0044998107 0.3396908 -0.87917918 0.33414707 0.0028252969
0.04005231 0.008540526 0.0042077214 0.38944396 -0.87419379 0.29003227 0.0024240301
-0.042115722 0.01195113 0.0032508406 -0.44652683 -0.89449209 0.022308722 0.017577091
-0.040011611 0.011252686 0.0040816539 -0.4444989 -0.8949523 0.038484864 0.014534218
-0.037438687 0.01007389 0.0041592866 -0.43403706 -0.89461589 0.10618009 0.0044645234
-0.035102557 0.0093447724 0.0051496862 -0.38936478 -0.88575804 0.25264153 0.0068753795
0.041152246 0.0093210321 0.0049230452 0.40171874 -0.86444014 0.30226696 0.0023852568
0.043524038 0.010179481 0.0040252935 0.42573673 -0.87869179 0.21598364 0.0017726474
0.046077572 0.011447841 0.0042014141 0.4519555 -0.84389025 0.28911147 0.0021888865
-0.045840427 0.014543731 0.0039519165 -0.52783734 -0.84504503 0.085361831 0.021237029
-0.043597769 0.013302212 0.0043879426 -0.52295166 -0.81884027 0.23669018 0.0076730736
-0.041453037 0.012344318 0.0051248688 -0.47231066 -0.85311043 0.22164221 0.010522786
0.04730919 0.012417459 0.0049173161 0.47342294 -0.82939845 0.29659557 0.0020684625
0.049542293 0.013530556 0.004459193 0.48583066 -0.82278371 0.29495004 0.002408504
0.051654283 0.014629209 0.0040520318 0.50016737 -0.80337536 0.32314184 0.0022450155
-0.049356151 0.016999016 0.0043001114 -0.56932801 -0.81577408 0.1018735 0.020121707
-0.047070447 0.015639763 0.0047138487 -0.56594044 -0.80840278 0.16185327 0.011458171
0.052915812 0.015795907 0.0047632596 0.53706282 -0.77765381 0.32683036 0.0027163045
0.055216834 0.017177695 0.0042126211 0.5495221 -0.77600241 0.30958951 0.0022423626
-0.054435074 0.02061444 0.0039683841 -0.62547123 -0.77407223 0.097969554 0.02512162
-0.053227603 0.019799408 0.0037567324 -0.61126649 -0.78811842 -0.07226707 0.0080357054
-0.050576519 0.018315842 0.0053053773 -0.58307862 -0.78587961 0.20594314 0.0098160477
0.056528866 0.018425189 0.004966021 0.57489175 -0.75938368 0.30468988 0.0019598273
0.058404788 0.019695345 0.004444642 0.602373 -0.73983335 0.29965541 0.001713877
0.060167052 0.020765191 0.0035709394 0.63676673 -0.70676076 0.30824903 0.0021607643
-0.05769271 0.023467474 0.0036950491 -0.65204108 -0.73610371 -0.18164179 0.010244804
-0.05626744 0.022295259 0.004046889 -0.65964139 -0.7494936 -0.055967905 0.0073235929
-0.053977344 0.021053221 0.0059468704 -0.58519852 -0.74317467 0.32439819 0.0024309754
0.059777029 0.021315429 0.0053921822 0.62637043 -0.68806189 0.3663753 0.003287077
0.061496742 0.022527577 0.0045068744 0.67731827 -0.6651293 0.31439298 0.0028223649
0.063172296 0.023613218 0.0033477845 0.71443123 -0.64517981 0.27079692 0.0032737097
-0.060550656 0.026292399 0.0037032038 -0.7406522 -0.66983682 -0.052469242 0.0072455816
-0.059181012 0.024972484 0.0039961003 -0.70725518 -0.70690811 -0.0084301513 0.0068916427
0.062841132 0.02429584 0.0052044252 0.68809408 -0.63238144 0.3558374 0.0028780513
0.064312339 0.025507722 0.0043491554 0.74091846 -0.60487568 0.29183081 0.0010382456
-0.063290708 0.029557845 0.0039331671 -0.794182 -0.60761476 0.0088968556 0.006584452
-0.062320437 0.028482208 0.0038803087 -0.77002484 -0.63800502 -0.0033651353 0.0051860162
0.065583289 0.027637523 0.005134657 0.76067704 -0.53133184 0.37290338 0.00357883
0.066789202 0.028742602 0.0042373524 0.77429467 -0.5275411 0.34952569 0.0030999545
-0.064564623 0.031432785 0.0037589557 -0.80707347 -0.58948725 0.033722363 0.004291262
-0.0070946291 0.032777198 0.0056197536 0.16211779 0.91464972 0.37031567 0.0015329808
-0.0041010757 0.032570995 0.0050627738 0.13378099 0.92893052 0.34524018 0.0015483847
-0.0014680894 0.032530263 0.0043405523 0.10364599 0.93852645 0.32928044 0.0020858671
0.0015876357 0.032287892 0.0043488089 0.061853141 0.9469313 0.3154287 0.0025013906
0.0046995967 0.032016147 0.0046839565 0.0078834035 0.94035447 0.34010503 0.002196423
0.007532944 0.032099545 0.0045490558 -0.035844944 0.94699728 0.31923553 0.0027974709
0.010530409 0.032329582 0.0044665602 -0.10435592 0.94680536 0.30441654 0.0027290655
0.013403371 0.032516904 0.0048001595 -0.14115271 0.92848974 0.34348616 0.0022560072
0.016240602 0.032743707 0.005435213 -0.19135574 0.90901107 0.37024567 0.0012627302
0.018197313 0.03292134 0.0058391276 -0.22349888 0.8690033 0.44145381 0.0018553789
0.068242311 0.031252492 0.004361229 0.82527447 -0.44171169 0.35187036 0.0021366873
0.069235943 0.032531247 0.0036526504 0.84742832 -0.42976987 0.31170991 0.0040786136
-0.066774614 0.034804966 0.0038573376 -0.83179867 -0.54415554 0.1095702 0.003626423
-0.065713353 0.033343792 0.0039704549 -0.82181555 -0.56434155 0.078344434 0.0048932238
-0.018581895 0.035774324 0.0055622924 0.29693583 0.89367902 0.33640286 0.0018715555
-0.015923955 0.035377137 0.0046389 0.29096046 0.9084329 0.30015254 0.0019009337
-0.013383281 0.034711972 0.0043896851 0.26342833 0.91397876 0.30862346 0.001880461
-0.010470673 0.033995774 0.0042629312 0.19836678 0.93083388 0.30691853 0.001864676
-0.0076155667 0.033458445 0.0042319447 0.15540729 0.94063652 0.3017475 0.0017650343
-0.0047725718 0.033229593 0.0035694081 0.12907806 0.9495073 0.28596291 0.0014709927
-0.0027054283 0.033039968 0.0033726869 0.084180467 0.94375437 0.31975213 0.0028097639
0.014031329 0.03313157 0.0034450623 -0.1338086 0.94709045 0.2917448 0.0021664486
0.016598118 0.033383187 0.0040257322 -0.18187346 0.93414599 0.30707213 0.0024349126
0.019488122 0.03395192 0.0043256846 -0.23337124 0.92084754 0.31237438 0.0021137057
0.022552047 0.03480288 0.004349234 -0.27080533 0.912875 0.30548933 0.0016412141
0.025215726 0.035433643 0.0046604685 -0.28711966 0.90629131 0.31015864 0.0019496127
0.027611321 0.035830759 0.0053976034 -0.2976543 0.89211756 0.33989438 0.0024927112
0.068731651 0.033800252 0.005957847 0.81372535 -0.33598745 0.47430328 0.0010042766
0.069846898 0.034556806 0.0042878846 0.87841755 -0.37649792 0.29433298 0.0049962769
-0.069171041 0.038712084 0.0034265816 -0.85254169 -0.44552732 0.27327284 0.0047508837
-0.068125784 0.0374032 0.0043920986 -0.84731245 -0.45181498 0.27915037 0.0042190286
-0.024888452 0.038515471 0.0048186658 0.3857764 0.87712985 0.28604168 0.0021286663
-0.022198364 0.037510809 0.0045119217 0.35441038 0.88648969 0.29753873 0.0020965647
-0.019629104 0.036694184 0.0040778066 0.29705298 0.90965277 0.29032984 0.0025367122
-0.017376171 0.036160216 0.0036662275 0.27033177 0.91635132 0.29533201 0.0022342557
0.026308436 0.0362029 0.0034942043 -0.27877361 0.91637897 0.28728878 0.0018939667
0.028506614 0.036615644 0.0043088645 -0.30567813 0.90430158 0.29799241 0.0019287221
0.03141214 0.037580229 0.0044878135 -0.3490887 0.88579249 0.30579194 0.0020684744
0.034020189 0.038522754 0.0048383093 -0.39550853 0.85950702 0.32376015 0.0027270261
0.071068302 0.037904155 0.004012452 0.93846053 -0.23316494 0.25480571 0.0033454776
-0.069696687 0.040356118 0.0040056314 -0.86803108 -0.3936061 0.30264857 0.0044384925
-0.068766251 0.039710239 0.0054593347 -0.8093192 -0.33220255 0.48440048 0.0039121895
-0.033282589 0.041976031 0.0057312855 0.42871013 0.83908284 0.33488452 0.0024082414
-0.031154292 0.041317619 0.0047926069 0.42748964 0.8569926 0.28777814 0.0021536546
-0.028404869 0.040088788 0.0045096646 0.3860507 0.87831938 0.28199276 0.0018036575
-0.026095711 0.039370324 0.0038250033 0.36422202 0.8980639 0.24662445 0.0025814516
0.035278823 0.039567396 0.0037112839 -0.4216893 0.867176 0.26492238 0.0025440846
0.037224285 0.040405102 0.0041299388 -0.4535065 0.84990954 0.26830116 0.0030505799
0.039737672 0.041616809 0.0048890724 -0.50882447 0.82175517 0.25654665 0.0027206615
0.07154493 0.0401778 0.0041885553 0.95371491 -0.17380801 0.24539509 0.0025698054
0.072058007 0.041544124 0.0034260293 0.96070498 -0.15147597 0.23259616 0.002729557
-0.070703819 0.043342389 0.0043565826 -0.84726417 -0.27192381 0.45629039 0.0040539671
-0.037168175 0.044422865 0.0045716204 0.44427696 0.84763753 0.29004928 0.0021354931
-0.034573801 0.043166995 0.0044616805 0.42446196 0.86151898 0.27859849 0.0018662717
-0.03235957 0.042303473 0.0037545692 0.41819087 0.86537158 0.27613106 0.0018847922
0.041254334 0.04292544 0.0039097713 -0.51393133 0.81859159 0.25648075 0.0026412976
0.043436322 0.044006005 0.0045827175 -0.49702477 0.80126524 0.33307704 0.0033451123
0.045319393 0.044773269 0.0055792951 -0.48704085 0.78860253 0.37536302 0.0037289318
0.071732402 0.043485794 0.0047705825 0.94221592 -0.061319556 0.32934636 0.0030745538
0.072311901 0.043683603 0.0034468023 0.95749593 -0.067679606 0.28039452 0.0049539674
-0.072303936 0.047212511 0.0035461662 -0.84920472 -0.28249884 0.44614553 0.0025574751
-0.071357049 0.046169143 0.0046293642 -0.8488844 -0.25323814 0.46396744 0.0043076198
-0.042802136 0.047488701 0.0045264959 0.46919081 0.84112006 0.26902983 0.0027666995
-0.040710684 0.046368688 0.0044541196 0.46514672 0.84295094 0.2703189 0.0023701258
-0.038403496 0.045315005 0.0039520562 0.43281445 0.85249573 0.29312584 0.0019667025
0.044541258 0.045240764 0.0032984933 -0.50895017 0.80670661 0.30032331 0.0019585155
0.046532977 0.046103697 0.0043416298 -0.50723189 0.79283357 0.33783251 0.0032841151
0.04889534 0.047414985 0.0048018512 -0.5065167 0.7889719 0.34779885 0.002519421
0.071755759 0.045815673 0.0048664254 0.93539357 -0.023402497 0.35283321 0.0019763636
0.072332785 0.046335317 0.0036075632 0.93674624 -0.018776581 0.34950534 0.0020264317
-0.072736859 0.049775835 0.0040470464 -0.83658415 -0.31424439 0.448751 0.0075552231
-0.071467414 0.049412299 0.0055338549 -0.66086751 -0.13655627 0.73797458 0.0049581402
-0.048696995 0.05055647 0.0048114015 0.43681085 0.83757132 0.32813209 0.0030056937
-0.046531424 0.04954268 0.0044902656 0.43436381 0.83508164 0.33758968 0.0028257202
-0.044103276 0.0485343 0.0037203915 0.46603432 0.85010391 0.2452247 0.0021570746
0.050129484 0.048565071 0.0040514376 -0.50924414 0.78293478 0.35732833 0.0028405085
0.052426424 0.049824122 0.0044953404 -0.4835124 0.78295285 0.39140841 0.0035875421
0.054526519 0.050572623 0.0054954574 -0.43079686 0.74855363 0.50406504 0.0054860502
0.071579903 0.050166719 0.005106803 0.93058342 -0.01799025 0.36563766 0.0012413005
0.072299749 0.049093589 0.0037915907 0.93101835 -0.017307082 0.3645618 0.0012541483
-0.073708445 0.052378111 0.003892384 -0.82513785 -0.25854585 0.50229627 0.0078534056
-0.071630329 0.052225709 0.0057614162 -0.5591346 -0.058643978 0.82700026 0.0051459246
-0.057369031 0.053820517 0.0057305614 0.27356237 0.80045968 0.5333178 0.0048205107
-0.054988336 0.05359422 0.0045185382 0.35735157 0.88888234 0.28668463 0.0031751476
-0.052395932 0.052576408 0.0045128451 0.37875158 0.84424013 0.37921739 0.0028105918
-0.04997636 0.05151768 0.0041370234 0.41588417 0.83698583 0.35566145 0.0035388872
0.053728815 0.051204074 0.0033656347 -0.48332852 0.79354233 0.36970803 0.0026927926
0.055660281 0.051945541 0.0042856224 -0.48025036 0.77630103 0.40830904 0.0039394009
0.058169272 0.053183574 0.0047570593 -0.47433755 0.7497322 0.46141684 0.0043581901
0.060303651 0.053812385 0.0057577547 -0.40981773 0.66628748 0.62298506 0.0033137782
0.071945004 0.05172969 0.0044211559 0.92013448 -0.019438967 0.39111978 0.0012294149
0.072399691 0.052734047 0.0036115814 0.98043495 -0.048258811 0.19083621 0.0071474584
-0.07508532 0.055380538 0.0032603326 -0.88219494 -0.19180053 0.43005189 0.017872106
-0.074207887 0.056080289 0.0040690349 -0.68040788 0.53170097 0.50432044 0.0072323722
-0.071447454 0.055249013 0.0058007766 -0.52901042 0.066724978 0.84598809 0.0039603058
-0.063985914 0.056366473 0.0056076106 0.37994477 0.76270294 0.52337956 0.0053407121
-0.061271586 0.055967636 0.0045578368 0.37486422 0.79031259 0.48464718 0.006570979
-0.058640067 0.055121228 0.004097586 0.32672527 0.88105994 0.34202906 0.0037886181
-0.056147955 0.054341167 0.0038540345 0.3351039 0.86916524 0.36367181 0.0031111045
0.059175014 0.054497611 0.0037733335 -0.47696182 0.74668193 0.4636524 0.0031683019
0.061469797 0.055549759 0.0044140243 -0.47147673 0.69493282 0.5429346 0.0061847889
0.063856684 0.056329641 0.0053467252 -0.47821668 0.60877335 0.63301176 0.0038293712
0.066924945 0.056741707 0.0059284004 -0.35628024 0.5172348 0.7781598 0.0058457442
0.072278738 0.054759748 0.0037504502 0.98637009 -0.04922029 0.15700738 0.0072822329
-0.073260285 0.057995588 0.0038179189 -0.61603034 0.68249464 0.39332902 0.0053804466
-0.070801936 0.059377078 0.0038595423 -0.29907298 0.91949457 0.25511771 0.021343349
-0.066970401 0.058894027 0.0043039978 0.18514384 0.79637986 0.57576114 0.016646594
-0.064422682 0.058022954 0.0040136175 0.39447358 0.76774806 0.50492936 0.0056136614
-0.062333852 0.057256334 0.003433947 0.38465121 0.78409469 0.48707181 0.0061246343
0.062634669 0.057345286 0.0033661164 -0.58153552 0.61278808 0.53507686 0.0073473807
0.06439925 0.058420148 0.0040558856 -0.59550971 0.51647639 0.61532122 0.010423162
0.066656202 0.058878429 0.0050896415 -0.54710102 0.47086781 0.69207227 0.0081660915
-0.069582969 0.060081933 0.0034559942 -0.14134362 0.91896868 0.36812833 0.027832739
-0.068402536 0.060180645 0.0033193622 -0.045546591 0.94717991 0.31745189 0.028441271
0.065650359 0.060940593 0.0035348868 -0.65754247 0.3981891 0.63959622 0.0068158344
0.066558622 0.061893266 0.003689619 -0.8015601 0.33797455 0.49322867 0.017894847
0.06765902 0.064428978 0.0032892374 -0.65493923 0.37264031 0.6574145 0.043261871
0.070988089 0.067300484 0.0032355371 -0.45158818 0.14917628 0.87966734 0.012449238
0.070671566 0.070677653 0.0033153577 -0.46277854 -0.030008003 0.88596594 0.010919908
0.072066195 0.071162753 0.0037713754 -0.50070971 -0.0662743 0.86307442 0.0049697431
0.07042262 0.073662385 0.0036710391 -0.55474418 -0.041433103 0.83098871 0.0095560215
0.075715058 0.074232318 0.0033201335 0.83085865 0.54629451 0.10600059 0.045214996
0.068921767 0.076294109 0.0030853567 -0.2386933 0.97088796 -0.020054601 0.11306287
0.070596986 0.076294251 0.0035694807 -0.050410662 0.96524853 0.25642529 0.029527459
0.073046751 0.075828575 0.0040012938 0.001707282 0.90488839 0.42564544 0.0044990196
0.075319946 0.075144343 0.0033099698 0.32751942 0.94479513 -0.0096542807 0.0039307526
-0.012239745 0.0028663808 0.0062642656 -0.15846598 -0.86698312 0.47247097 0.00099392084
-0.010383529 0.0027323496 0.0064908406 -0.11853565 -0.88701606 0.44626436 0.0020394996
-0.0074583902 0.0025739721 0.0068666041 -0.083817802 -0.88491637 0.45814583 0.002110752
-0.0043559694 0.0024135751 0.007017158 -0.056034874 -0.88237828 0.46719241 0.0018580273
-0.0014694678 0.0022901581 0.0069827801 -0.021100556 -0.86768568 0.49666518 0.0015167451
0.0015020373 0.0023652625 0.0071139988 0.0024250762 -0.86560929 0.50071424 0.0018155356
0.0045620464 0.0023500612 0.0069413655 0.039055821 -0.86772293 0.49551147 0.0016758674
0.0076022693 0.0025283128 0.0068540862 0.06372986 -0.86803317 0.49239904 0.00093372364
0.010662031 0.0025659376 0.0065499777 0.083728291 -0.86773181 0.48992959 0.001155067
0.013376678 0.0027824438 0.0063151973 0.10702448 -0.84910703 0.5172649 0.00050441374
0.016044825 0.002954436 0.0062256353 0.11475054 -0.84160686 0.52775961 0.00054025825
