# .PCD v0.7 - Point Cloud Data file format
VERSION 0.7
FIELDS x y z normal_x normal_y normal_z curvature
SIZE 4 4 4 4 4 4 4
TYPE F F F F F F F
COUNT 1 1 1 1 1 1 1
WIDTH 556
HEIGHT 1
VIEWPOINT 0 0 0 1 0 0 0
POINTS 556
DATA ascii
-0.013752409 0.053927112 -0.022429615 -0.12969384 0.081934936 -0.98816305 0.0031631945
-0.01082294 0.05389509 -0.02267866 -0.040474463 0.14609088 -0.98844284 0.0032556613
-0.0076800492 0.053914551 -0.022529412 0.082281418 0.210287 -0.97417098 0.0026399416
-0.004970456 0.05347243 -0.022209775 0.20118357 0.27340811 -0.94062388 0.0021335133
-0.0030402204 0.05279227 -0.021920655 0.32359996 0.3268207 -0.88795906 0.0019940983
-0.015645768 0.056095485 -0.02190643 -0.14386806 0.21993761 -0.96484679 0.00472866
-0.01368272 0.056387663 -0.022067266 -0.066718802 0.24682 -0.96676189 0.0028536008
-0.010946192 0.056362096 -0.022111267 0.032143291 0.29887968 -0.95374936 0.0028337722
-0.0083903158 0.056031063 -0.022014 0.14816302 0.36101276 -0.92071581 0.0024179388
0.002224704 0.028082954 -0.018918181 -0.24874963 -0.42343235 -0.8711077 0.0038202859
0.0043998468 0.027711824 -0.019044457 -0.051665585 -0.34439236 -0.93740308 0.0038098658
0.0066879215 0.027728481 -0.019003857 0.096100397 -0.26320916 -0.95994043 0.0043489272
-0.0011373173 0.03082316 -0.019162904 -0.33330983 -0.43471178 -0.8366183 0.003169717
0.0014296119 0.029986322 -0.019528924 -0.18338531 -0.34527847 -0.9204089 0.0038444072
0.004257408 0.02983618 -0.019759698 -0.02503817 -0.26079038 -0.96507072 0.0056038857
0.0072043636 0.029859729 -0.019431226 0.21376729 -0.20703021 -0.95469475 0.0025878898
0.0091947485 0.030515729 -0.018976707 0.35725337 -0.16813493 -0.91874951 0.0030045311
-0.0041620652 0.033492345 -0.019309852 -0.40745184 -0.45559201 -0.7914663 0.0025844453
-0.0017297474 0.033041637 -0.020041371 -0.26196551 -0.37946731 -0.88734365 0.004402102
0.0013140375 0.032935541 -0.020626457 -0.081111759 -0.31335077 -0.94616711 0.0035864864
0.0042497967 0.032937329 -0.020606026 0.14564633 -0.21985935 -0.96459782 0.005104458
0.0071959933 0.032987934 -0.019964807 0.29058707 -0.13676421 -0.94702411 0.0036743223
0.0094755478 0.03282946 -0.019100558 0.4348273 -0.064257242 -0.89821845 0.0025840735
-0.0071376069 0.036354456 -0.019388732 -0.46389905 -0.46810234 -0.75211561 0.0020315542
-0.0048045083 0.035860378 -0.020269828 -0.36379924 -0.42673767 -0.82797647 0.0024402724
-0.001891804 0.035987712 -0.021221492 -0.18382372 -0.36705652 -0.91185433 0.0022783799
0.0013406618 0.035996046 -0.021468284 0.070845447 -0.19206636 -0.97882146 0.0035383904
0.0041931062 0.035949167 -0.021133371 0.21202029 -0.13602106 -0.96775293 0.0046593235
0.0071917614 0.035904877 -0.020234674 0.36533707 -0.046657734 -0.92970526 0.0028625941
0.0094742756 0.035770282 -0.019160777 0.48832369 0.015279698 -0.87252885 0.0020881875
-0.010171819 0.039465461 -0.019426899 -0.5064292 -0.47859702 -0.71726865 0.0014760287
-0.0077215163 0.038821977 -0.020449428 -0.41099462 -0.41741017 -0.81046426 0.0030044159
-0.0049690697 0.038445026 -0.021385707 -0.27400437 -0.36157987 -0.89116865 0.0021754131
-0.0028317075 0.03798411 -0.021725826 -0.13293716 -0.26902938 -0.95391339 0.0059301397
0.0025727972 0.038341217 -0.02176086 0.14801519 -0.075152062 -0.98612559 0.0027105741
0.0042954674 0.038845263 -0.021330658 0.29506969 -0.025842682 -0.95512617 0.0038577465
0.0071930168 0.038849123 -0.020168534 0.42030093 0.032293569 -0.90680987 0.0021565491
0.009266125 0.038668361 -0.019109044 0.53363764 0.096569352 -0.84018165 0.001927944
-0.012825752 0.042503674 -0.019524284 -0.52953994 -0.47987238 -0.699507 0.0019219625
-0.010654883 0.041973278 -0.020559832 -0.42426321 -0.42011458 -0.80218726 0.0018395524
-0.0081524616 0.041239411 -0.021438461 -0.32553521 -0.35230181 -0.87744528 0.0019421022
0.0026626869 0.042976592 -0.02179255 0.24141769 0.022490835 -0.97016066 0.0021534509
0.0042438516 0.041900262 -0.021300301 0.36728543 0.038291819 -0.92931968 0.0031346928
0.0071131364 0.041859962 -0.019916071 0.49986595 0.15055743 -0.85291648 0.00097355514
0.0090262014 0.040779825 -0.018904123 0.57344151 0.17001413 -0.80141121 0.0017985455
-0.015895335 0.045719437 -0.01934479 -0.54093945 -0.47840741 -0.6917448 0.0025532662
-0.013659773 0.044791192 -0.02029996 -0.48457414 -0.38655818 -0.78470421 0.0022413279
-0.011330869 0.044560377 -0.021483028 -0.36261216 -0.33742976 -0.86870801 0.0021493088
0.0023515718 0.045259226 -0.021665841 0.32718444 0.12144364 -0.93712419 0.0026046471
0.0042477087 0.044874415 -0.020893928 0.42977655 0.16580763 -0.88758099 0.00086152501
0.0067786104 0.044671819 -0.019580094 0.52159125 0.20733677 -0.82761943 0.0024455779
-0.018801041 0.048998471 -0.019192193 -0.55414993 -0.46021986 -0.69362491 0.0037550593
-0.016659575 0.04798501 -0.020124191 -0.49258506 -0.41019955 -0.76752615 0.0031922404
-0.014123631 0.047507238 -0.02134127 -0.39764675 -0.32303759 -0.85879207 0.0024098526
0.0018806197 0.048103534 -0.021372849 0.37867308 0.21522182 -0.900159 0.0015892325
0.0042266431 0.047854334 -0.02019803 0.47699904 0.25825077 -0.84010619 0.0016630027
0.00610012 0.047295507 -0.01920614 0.55785978 0.28561664 -0.77924037 0.0015759877
-0.0213423 0.052089039 -0.019117389 -0.56975561 -0.43280295 -0.69861299 0.004648352
-0.01951088 0.051111553 -0.019805357 -0.48011664 -0.3826713 -0.78933555 0.006142586
-0.016895425 0.050818853 -0.02115551 -0.41366801 -0.25811467 -0.8730725 0.0034157424
-0.014900397 0.049733873 -0.021770645 -0.31679875 -0.179675 -0.93131918 0.0059270384
-0.0010531181 0.051534366 -0.021550566 0.32741478 0.25831965 -0.90888417 0.0016130733
0.0012544779 0.050852668 -0.020843722 0.40409806 0.28992638 -0.86755258 0.00076710334
0.0039021927 0.050651565 -0.01945213 0.52112836 0.33085158 -0.78674161 0.0016583274
-0.022256751 0.054163467 -0.019502319 -0.46965095 -0.31380877 -0.82519823 0.008610704
-0.019735191 0.053808425 -0.020655131 -0.35596347 -0.15247558 -0.9219768 0.0052716378
-0.017413471 0.053895187 -0.021558857 -0.33005849 -0.093317911 -0.9393366 0.0056694187
-0.0044690198 0.054780602 -0.021634053 0.25042522 0.34246036 -0.90554297 0.0018202927
-0.0017514345 0.053960279 -0.021011826 0.35244977 0.35432458 -0.86616004 0.0011075493
0.0011407983 0.053684507 -0.019736987 0.45293945 0.40325636 -0.79512906 0.0022983807
0.0031310702 0.052784085 -0.018996481 0.52973455 0.41800609 -0.73800564 0.0020301617
-0.025044508 0.057332721 -0.019175265 -0.38312036 -0.25741756 -0.88710481 0.01164692
-0.022653831 0.056953505 -0.020005355 -0.32193565 -0.10548037 -0.9408673 0.012150886
-0.019669406 0.056827743 -0.020934589 -0.26655671 0.061752088 -0.96183896 0.007224041
-0.016920015 0.057067566 -0.021501182 -0.13888542 0.216289 -0.9664005 0.0043257368
-0.013907205 0.057759516 -0.021655152 -0.02697102 0.31495619 -0.94872296 0.0027922923
-0.01069323 0.057746429 -0.021585701 0.081839114 0.37830138 -0.92205775 0.0026262349
-0.0075117014 0.057236299 -0.02134859 0.1902509 0.42041084 -0.88716364 0.0014766906
-0.0047282954 0.056961913 -0.020719446 0.2752651 0.43566328 -0.85698694 0.00096839928
-0.0020314136 0.056578223 -0.019823555 0.38999242 0.48455814 -0.78301293 0.0024245037
0.00010903495 0.055863123 -0.01913704 0.46678203 0.49800304 -0.73082662 0.0022887215
-0.027418489 0.060278405 -0.018895388 -0.20991039 -0.045379225 -0.97666699 0.020519137
-0.02566845 0.059810206 -0.019232694 -0.21177499 0.05673347 -0.97567034 0.014770209
-0.022664877 0.05992325 -0.019797709 -0.17954254 0.22791994 -0.95698327 0.008158328
-0.019700307 0.059853759 -0.020286037 -0.14498754 0.33639279 -0.93049365 0.0078058694
-0.016747655 0.059801362 -0.020654071 -0.085276 0.37324747 -0.92380428 0.0034285812
-0.013616234 0.059814606 -0.020754712 -0.0027901484 0.43788707 -0.89902562 0.0025456611
-0.010696534 0.059784479 -0.020560334 0.10174158 0.47971019 -0.87150842 0.0012139968
-0.0077993376 0.059814174 -0.019956401 0.21990989 0.5490402 -0.80634636 0.002570472
-0.0048634037 0.059194874 -0.019392917 0.32164186 0.56200993 -0.76203102 0.0025820427
-0.0027624462 0.058455642 -0.018960092 0.41426432 0.55528474 -0.72114062 0.0016383749
-0.045783002 0.063289791 -0.019408261 0.052907147 -0.42278486 -0.90468436 0.025911096
-0.043748513 0.063417159 -0.019228002 0.075487688 -0.352382 -0.93280679 0.01853627
-0.041979931 0.063898154 -0.01894618 0.21376006 -0.2036919 -0.95541418 0.039422523
-0.025053645 0.061782036 -0.018948633 -0.15024503 0.37131861 -0.91626894 0.007860695
-0.022610176 0.061875001 -0.019138938 -0.088146254 0.47130904 -0.87755227 0.006142165
-0.01974922 0.06203806 -0.019263243 -0.055111762 0.54770511 -0.83485436 0.004889457
-0.016797855 0.062014312 -0.019424396 -0.018306879 0.59573454 -0.80297279 0.0041357698
-0.013695738 0.061992548 -0.019418521 0.050843399 0.62187868 -0.78146136 0.0030752881
-0.010869633 0.061767347 -0.019254752 0.14203735 0.62018961 -0.77148569 0.0019335017
-0.0091097783 0.061630595 -0.018950585 0.21798021 0.64832014 -0.72949684 0.0024588916
-0.045563098 0.065578528 -0.019536667 9.3340248e-07 0.10712372 -0.99424577 0.040016722
-0.043863576 0.06571202 -0.019318704 0.15885232 0.21290223 -0.96407396 0.016632689
-0.042058397 0.064960457 -0.018917475 0.21115595 0.014845939 -0.97733968 0.010995735
-0.044470124 0.067520127 -0.018977687 0.28895956 0.32639158 -0.89998382 0.015927212
0.0086320853 0.019153779 -0.015844766 -0.020598862 -0.28645104 -0.9578734 0.0070362962
0.0093165878 0.019152531 -0.015872095 0.076044947 -0.3513703 -0.9331432 0.00422438
0.002541607 0.022189617 -0.016015086 -0.39069211 -0.4785555 -0.7863487 0.0021827684
0.0044816388 0.021500474 -0.016324157 -0.24053295 -0.41676056 -0.87661535 0.0038887796
0.0072791628 0.020974105 -0.016536569 -0.063871212 -0.34241593 -0.93737495 0.0041818931
0.0101727 0.021021741 -0.016384939 0.18644544 -0.28243521 -0.94099331 0.002919944
0.012154334 0.021631882 -0.016097989 0.25541946 -0.26732036 -0.92913973 0.0034118241
-0.00050182152 0.025077185 -0.016080413 -0.48595104 -0.49315447 -0.72156101 0.0022547476
0.0016073249 0.024116991 -0.016651107 -0.37389621 -0.43831748 -0.81736124 0.0031629733
0.0042786747 0.023860523 -0.017404148 -0.14746483 -0.40317687 -0.9031626 0.0024006411
0.0072326516 0.023846274 -0.017658617 0.038449693 -0.33948493 -0.9398253 0.0038458232
0.010198127 0.023868868 -0.017261088 0.25279662 -0.25354978 -0.93370575 0.0046250587
0.012786268 0.024014419 -0.016381968 0.40086204 -0.19333524 -0.89550602 0.0025070484
-0.0033918431 0.02811306 -0.016188845 -0.53608727 -0.50769049 -0.67443371 0.00067265128
-0.0014261063 0.027137913 -0.016854795 -0.46560666 -0.48836598 -0.73804408 0.0021547303
0.0012602453 0.026697746 -0.017898656 -0.29522237 -0.44182524 -0.84713304 0.0022997181
0.0041939327 0.026199309 -0.018418895 -0.12042644 -0.39836967 -0.90928495 0.0031853293
0.007408469 0.026384262 -0.018485582 0.096739069 -0.28858927 -0.95255327 0.0043145632
0.010321703 0.026845708 -0.01791081 0.31453544 -0.1918731 -0.92965168 0.0041932999
0.013176412 0.026868176 -0.016629543 0.49126065 -0.094375297 -0.86588466 0.0043946127
-0.0064395606 0.031027889 -0.015853319 -0.59861457 -0.53514552 -0.59605354 0.00078373833
-0.0042921407 0.03020411 -0.017004754 -0.51808053 -0.50904357 -0.68736249 0.0028533675
-0.0018300986 0.029571384 -0.018160239 -0.3933357 -0.45975411 -0.79618669 0.0013079076
0.00032029726 0.028736977 -0.018635767 -0.28929201 -0.45919892 -0.8399086 0.0074332776
0.010634123 0.029819023 -0.018294498 0.39359662 -0.11536513 -0.91201574 0.0045461608
0.013352143 0.029904911 -0.016773863 0.53253114 -0.043319795 -0.84530103 0.0019832414
-0.0073337075 0.033225246 -0.016943049 -0.56881541 -0.52518213 -0.63295561 0.002065087
-0.0050964742 0.032394536 -0.018031165 -0.48540148 -0.49341503 -0.7217527 0.0027583034
0.011083384 0.03289552 -0.018255269 0.48627844 -0.009745731 -0.87374949 0.002007365
0.013356615 0.032782231 -0.016786186 0.57985413 0.020372245 -0.81446564 0.0021748168
-0.010296426 0.036325585 -0.016863354 -0.59457695 -0.54701632 -0.58928049 0.0016893669
-0.0082238726 0.035417534 -0.017959418 -0.53591424 -0.50987041 -0.67292494 0.0029494381
0.011085697 0.035854965 -0.01816744 0.57739592 0.062672012 -0.81405544 0.001315366
0.013037013 0.035841856 -0.016712902 0.63381344 0.11001042 -0.76562279 0.0017312767
-0.012997915 0.039328225 -0.016860843 -0.62797302 -0.53716958 -0.56311518 0.0019883916
-0.011177429 0.038540706 -0.017968161 -0.5670085 -0.51576078 -0.64225554 0.0031285975
0.010672288 0.03893004 -0.018108115 0.57274473 0.1325665 -0.80894357 0.0013486664
0.012585772 0.038887732 -0.016549269 0.66979158 0.17664869 -0.72123122 0.0013313472
-0.01599866 0.042607773 -0.016680775 -0.63652903 -0.55266398 -0.53795296 0.001596911
-0.014039021 0.041528687 -0.017767392 -0.59238195 -0.52355838 -0.61234808 0.0019401781
0.0085749067 0.043058205 -0.018794183 0.57857484 0.1629425 -0.79918766 0.0015953484
0.010272441 0.041937582 -0.017703382 0.59743816 0.18953109 -0.77919549 0.00052725762
0.012065639 0.041446481 -0.016307391 0.66218954 0.24698585 -0.70746243 0.0012512839
-0.018599167 0.045604087 -0.016629644 -0.64781332 -0.52583277 -0.55121475 0.0014790415
-0.0168225 0.044732336 -0.01776227 -0.59494835 -0.50148642 -0.62813044 0.0023106379
-0.015017677 0.043535132 -0.018567894 -0.59568834 -0.51531953 -0.61611778 0.0019192067
0.0081853401 0.04531084 -0.01840953 0.61451286 0.25190285 -0.74760884 0.001680273
0.009976075 0.044765089 -0.017046316 0.65409905 0.29291767 -0.69739062 0.0013350717
-0.021635059 0.049081031 -0.016396984 -0.6419602 -0.537911 -0.54638708 0.0021356801
-0.019732218 0.047804222 -0.017399698 -0.64008754 -0.49107203 -0.59087741 0.0038890389
-0.018040378 0.047158882 -0.018625692 -0.62016469 -0.48814282 -0.61409473 0.0023016857
0.0075348727 0.048067141 -0.017777996 0.60963637 0.32032451 -0.72507644 0.0014167955
0.0094084824 0.047404479 -0.016436739 0.66511714 0.36440217 -0.65178996 0.0017288942
-0.024230197 0.051992033 -0.016216371 -0.63803566 -0.51974946 -0.5681293 0.0045938194
-0.022450866 0.051140729 -0.017365402 -0.6382888 -0.49929577 -0.58591056 0.0046380404
-0.020576315 0.049967397 -0.018323272 -0.64527911 -0.50798821 -0.57058108 0.0033910046
0.005022028 0.051423408 -0.018289948 0.57065636 0.36192533 -0.73713046 0.0010919026
0.0067718681 0.050638046 -0.017110394 0.63018709 0.39728752 -0.66710347 0.0016414926
-0.027434215 0.055205684 -0.016067568 -0.57800168 -0.54662806 -0.60589749 0.0085917963
-0.025438884 0.054228868 -0.017048147 -0.59428132 -0.53773028 -0.59806013 0.0067000519
-0.0235539 0.053430896 -0.018202629 -0.59317309 -0.43885532 -0.67494565 0.010399968
0.0021701264 0.054780208 -0.018461902 0.53900731 0.50106007 -0.67705977 0.0011086856
0.0042579514 0.053859584 -0.017390473 0.57533437 0.44804734 -0.68428355 0.0013161791
0.0061909948 0.052978341 -0.016236294 0.63340437 0.47934809 -0.60747367 0.0015278059
-0.031302907 0.058009688 -0.016498981 -0.31488293 -0.65472281 -0.68715841 0.010434214
-0.028540004 0.057147689 -0.017191926 -0.43640473 -0.55793875 -0.70587194 0.016337084
-0.026158314 0.056420814 -0.018210297 -0.4425697 -0.38353801 -0.81057423 0.0074612959
-0.00095058954 0.057819229 -0.018406805 0.44217119 0.56247866 -0.69864327 0.00086373457
0.0013083649 0.056876998 -0.017518263 0.49415967 0.53956586 -0.68167061 0.0014021492
0.0034509909 0.055901989 -0.016556675 0.59758121 0.52794707 -0.60346383 0.0016404764
-0.046219327 0.060835224 -0.016990097 -0.036235493 -0.67093945 -0.74062628 0.03897246
-0.04370204 0.06077829 -0.017166471 -0.02429124 -0.77533883 -0.63107824 0.012957022
-0.0406227 0.060587287 -0.017061939 -0.013434627 -0.684003 -0.72935557 0.015886612
-0.037702013 0.060381219 -0.01716591 -0.042748809 -0.68405551 -0.7281763 0.023280157
-0.034592219 0.06004924 -0.017240919 -0.14148659 -0.5490678 -0.82371473 0.025036724
-0.03170383 0.059973542 -0.017770937 -0.19780771 -0.39771676 -0.89593166 0.029314714
-0.02887365 0.059802182 -0.018430481 -0.2459776 -0.19079822 -0.95031101 0.014609209
-0.0068483707 0.06122436 -0.018626396 0.27511778 0.70361274 -0.65516353 0.0025103881
-0.0044203461 0.06049446 -0.018110009 0.36128742 0.67540991 -0.64287853 0.0030198742
-0.0017667998 0.059651807 -0.017261086 0.43616015 0.64677942 -0.62565225 0.0029715272
0.00048740889 0.058901351 -0.016299516 0.52470493 0.62183869 -0.58137894 0.0031282173
-0.046401344 0.062038861 -0.018329734 -0.045770507 -0.62155849 -0.78202945 0.051882695
-0.043469567 0.06200574 -0.018518718 0.07071951 -0.51474476 -0.85442179 0.01605919
-0.040619116 0.062826432 -0.018486628 0.094673686 -0.30059206 -0.94904226 0.025130594
-0.037734382 0.062866293 -0.018264228 0.12259638 -0.09547589 -0.98785347 0.020327633
-0.03471813 0.062948488 -0.01803549 0.026717745 0.15799558 -0.98707831 0.03509092
-0.031775035 0.062844977 -0.018105511 -0.047242664 0.26293778 -0.96365547 0.029380471
-0.028662039 0.062888034 -0.018123319 -0.10087092 0.30089256 -0.94830835 0.015305877
-0.025822826 0.063066952 -0.018243421 -0.092543013 0.51069111 -0.85476917 0.01290851
-0.02280088 0.063350834 -0.018233692 -0.035213798 0.59446627 -0.8033492 0.0092189563
-0.019644944 0.06359265 -0.018118171 -0.0074291774 0.71528471 -0.69879371 0.0046019792
-0.016706504 0.063541792 -0.018146666 0.030548617 0.73105043 -0.68163919 0.0024901496
-0.013613662 0.063548945 -0.017984493 0.071700677 0.74487418 -0.66334116 0.0019370386
-0.010661254 0.063329473 -0.017629696 0.17893979 0.77473515 -0.60643715 0.0025973837
-0.0078725796 0.06265185 -0.017447803 0.25975537 0.73607588 -0.62507558 0.0027283404
-0.0048819627 0.061985802 -0.016765457 0.3835488 0.72468883 -0.57246518 0.0017789134
-0.04274879 0.066778861 -0.018570272 0.3035295 0.38151687 -0.87310636 0.0096262265
-0.040617865 0.065924242 -0.018186145 0.28997931 0.34229517 -0.89372593 0.013116284
-0.037788179 0.065685019 -0.017666141 0.18165118 0.44438559 -0.87722534 0.016664244
-0.034730893 0.065559812 -0.017090984 0.10800488 0.52748191 -0.842673 0.011807648
-0.031754181 0.065312929 -0.016937047 0.058225159 0.43096659 -0.90048742 0.028846307
-0.028756848 0.065144524 -0.016743388 0.020401835 0.62391198 -0.7812283 0.0042259684
-0.025922811 0.065008536 -0.016780773 -0.0050038891 0.65799963 -0.75300157 0.004443469
-0.022827316 0.064902827 -0.016832331 0.019694606 0.71246004 -0.70143628 0.0051797363
-0.01964644 0.064931333 -0.0166467 0.047094107 0.78039312 -0.6235131 0.0058699357
-0.016872272 0.064909264 -0.016493568 0.029813338 0.80184805 -0.59678376 0.0047098245
-0.013722868 0.064716265 -0.01656126 0.081160732 0.81812435 -0.56928498 0.0048412601
-0.011919257 0.064820118 -0.015882287 0.20116805 0.8315419 -0.5177542 0.0053061936
-0.045407541 0.067565352 -0.018695895 0.28341001 0.24595504 -0.92692226 0.022961937
-0.043699075 0.068588778 -0.017675757 0.30351457 0.38165718 -0.87305027 0.0095910206
-0.040815171 0.068052143 -0.016755523 0.31961119 0.5144453 -0.7957353 0.0056891418
-0.038140677 0.067494817 -0.01629236 0.2636435 0.49274164 -0.82927543 0.01144904
0.0081689944 0.01301628 -0.013050303 -0.23614506 -0.44629389 -0.86316699 0.0036249093
0.01029242 0.012840074 -0.013174321 -0.016609928 -0.38449937 -0.92297584 0.0034252745
0.012752813 0.012949502 -0.013066101 0.20631793 -0.32496116 -0.92294806 0.0031989985
0.0048530297 0.015441842 -0.013243779 -0.36448401 -0.45019943 -0.81515139 0.0026102087
0.0073287981 0.014915328 -0.013757256 -0.21793191 -0.43601897 -0.8731513 0.0024842189
0.010272057 0.014876995 -0.014054185 0.037465006 -0.35951981 -0.93238509 0.0023447427
0.013266522 0.014891889 -0.01363167 0.24438323 -0.30904976 -0.91911107 0.0031000399
0.01537678 0.015396684 -0.013083366 0.39052904 -0.2818273 -0.87639064 0.002137372
0.0019417403 0.018495992 -0.013456466 -0.48674068 -0.47002643 -0.73631424 0.0012174448
0.0043066507 0.017846653 -0.014318425 -0.36778745 -0.45847079 -0.80903453 0.0022414851
0.0072448025 0.017784581 -0.015120189 -0.1501057 -0.43459114 -0.88803089 0.0021485246
0.010291156 0.017741084 -0.015207882 0.081788935 -0.37659466 -0.92276049 0.0042982376
0.013237092 0.017834784 -0.014611839 0.30174986 -0.28771573 -0.9089371 0.003659829
0.016014021 0.017991612 -0.013457485 0.46186614 -0.20840637 -0.86211741 0.0024489232
-0.00096733717 0.021562804 -0.013364309 -0.58339596 -0.48525006 -0.65129215 0.0011208209
0.0012950499 0.020898137 -0.014547755 -0.43722147 -0.47069064 -0.76634693 0.0012559843
0.0039825183 0.020115297 -0.015429938 -0.29572693 -0.45732909 -0.83868694 0.002675737
0.0058921906 0.019612042 -0.015811536 -0.13065144 -0.38350803 -0.9142493 0.004123189
0.011146884 0.019615633 -0.015733782 0.13809913 -0.33289188 -0.93279779 0.0049517187
0.013516533 0.020814007 -0.015317366 0.38972387 -0.20870219 -0.896972 0.0025835121
0.016240362 0.020846274 -0.013922138 0.52160925 -0.1625358 -0.83755952 0.0027652499
0.017885637 0.021584673 -0.012933765 0.60210389 -0.103862 -0.79163349 0.0011268765
-0.003527052 0.024781112 -0.013318487 -0.62101489 -0.48789001 -0.6134361 0.0016546155
-0.0016035369 0.023858896 -0.014441868 -0.52942604 -0.48798579 -0.6939581 0.001489843
0.00037281727 0.023135392 -0.015410233 -0.49269244 -0.47158855 -0.73134011 0.0019402808
0.014329263 0.023694478 -0.015574819 0.51186919 -0.14258181 -0.8471483 0.0017389723
0.01622498 0.023805108 -0.014338323 0.54692161 -0.1003847 -0.83114356 0.0021725013
0.017880224 0.023876533 -0.01306604 0.63757622 -0.043319434 -0.76916832 0.0018041846
-0.0064882832 0.02802903 -0.012837384 -0.70916837 -0.52438337 -0.47127742 0.0015747064
-0.0044583785 0.027063517 -0.014322288 -0.62137669 -0.52014202 -0.58595508 0.002522659
-0.0023317821 0.026027162 -0.015474183 -0.50867808 -0.49487141 -0.70452034 0.0028365154
0.014572328 0.02623822 -0.015758712 0.5372591 -0.056336917 -0.8415336 0.0027797748
0.016167901 0.026925309 -0.014645832 0.60818827 -0.027252041 -0.79332483 0.00088558684
0.01787594 0.026858095 -0.013170693 0.67535305 0.0083416952 -0.73744738 0.0014566446
-0.0072525465 0.030145623 -0.014061035 -0.6741094 -0.55574882 -0.48653862 0.00088723551
-0.0055798604 0.0291753 -0.015013991 -0.62652957 -0.54462165 -0.55753738 0.001801155
0.016267817 0.029897705 -0.014491984 0.67081499 0.042169794 -0.74042487 0.0016214231
0.017882271 0.029396795 -0.013016007 0.74248034 0.085199222 -0.66442752 0.0013381928
-0.0099612782 0.033253442 -0.013984098 -0.66094208 -0.57713473 -0.47965726 0.0011226657
-0.0083067091 0.03235032 -0.015142903 -0.62776208 -0.55664086 -0.54411912 0.0027746989
0.014571675 0.033774167 -0.015778288 0.650401 0.070274688 -0.75633323 0.0020322981
0.016107231 0.032822512 -0.014350421 0.72173423 0.12337196 -0.68108666 0.0012523335
-0.012854219 0.036554154 -0.013864145 -0.6912117 -0.58200282 -0.42836803 0.0018121408
-0.011377096 0.035430398 -0.014643561 -0.67849594 -0.56536901 -0.46904275 0.0016570475
0.014430867 0.036087599 -0.015433603 0.70710307 0.15068765 -0.69086784 0.0012165877
0.015906483 0.03575154 -0.013989405 0.73431009 0.17584853 -0.65564162 0.001067119
-0.015840739 0.040003709 -0.01364641 -0.69868207 -0.58830285 -0.40711573 0.0013149632
-0.01411238 0.03863512 -0.014643664 -0.70405668 -0.5656532 -0.42934912 0.0018068373
0.014078259 0.039037324 -0.014994616 0.73344183 0.20916657 -0.64677089 0.0012419441
0.015421761 0.038539659 -0.013597123 0.75200158 0.24997672 -0.60992235 0.001257849
-0.018429484 0.042937029 -0.013239417 -0.74089408 -0.5924511 -0.31635049 0.0038059549
-0.016893802 0.041930467 -0.014547212 -0.7129547 -0.57042575 -0.40781114 0.0024781448
-0.015123833 0.040636491 -0.015668903 -0.65718013 -0.57201505 -0.49082896 0.0012585885
0.013516033 0.041985344 -0.014502556 0.74659508 0.29280937 -0.59737629 0.0016457057
0.015121959 0.04065625 -0.013065536 0.7786172 0.30080727 -0.55069971 0.0017169936
-0.019557286 0.044988394 -0.014338468 -0.75064772 -0.55958503 -0.35127276 0.0018659139
-0.017880982 0.043643713 -0.015304748 -0.68776983 -0.57568777 -0.4422175 0.0038547919
0.011233107 0.045621879 -0.015340193 0.69380671 0.30894241 -0.65052807 0.0011337512
0.012589937 0.044704486 -0.014180052 0.74153376 0.34846038 -0.57332635 0.0016349715
-0.02213552 0.048271202 -0.014415962 -0.73599011 -0.57496917 -0.35739201 0.0029962063
-0.020790668 0.046950262 -0.01504071 -0.72041774 -0.59874922 -0.34999657 0.0024122177
0.010541385 0.048054125 -0.014724353 0.72990972 0.3847363 -0.56498653 0.0014357329
0.012013504 0.047185015 -0.013266604 0.75986904 0.42021561 -0.4960019 0.002123663
-0.024837554 0.051498923 -0.014316302 -0.73192871 -0.59338248 -0.33492911 0.0041086758
-0.02348798 0.050195318 -0.014809946 -0.74105698 -0.58018494 -0.33796448 0.0031085531
0.0082617318 0.051369123 -0.014986904 0.70956218 0.46654025 -0.52807361 0.0019267634
0.0097606136 0.050444491 -0.013873577 0.72912467 0.46421769 -0.50287098 0.001959671
-0.02793753 0.054835435 -0.014509916 -0.53045201 -0.70319706 -0.47342867 0.010205072
-0.026344933 0.053368058 -0.014643961 -0.67099422 -0.6734277 -0.31026089 0.0055832542
0.005289698 0.05515964 -0.015251392 0.64851713 0.57694799 -0.49654451 0.0018834602
0.0070896046 0.053720422 -0.01440319 0.6744076 0.52120245 -0.52299362 0.0026395551
0.0091487896 0.052397568 -0.012913469 0.72808135 0.52551353 -0.44015113 0.0014794579
-0.036562826 0.058302749 -0.013448823 -0.19848311 -0.85075188 -0.48664731 0.0049404511
-0.034466203 0.057992294 -0.014376501 -0.24824753 -0.77419263 -0.58223611 0.0075539947
-0.031717371 0.057207011 -0.014759923 -0.34905565 -0.71235228 -0.60886317 0.0064456263
-0.029302472 0.055937927 -0.014738686 -0.48008111 -0.61777264 -0.6227994 0.010935633
0.002544665 0.057880659 -0.015421146 0.60293758 0.64559889 -0.46868795 0.0019871385
0.004214481 0.056923334 -0.014492918 0.62516248 0.64882165 -0.43382293 0.00097837858
0.0060744868 0.055685688 -0.013559613 0.65251601 0.61094558 -0.44829494 0.0020330236
-0.046537574 0.060282461 -0.015031401 -0.073857665 -0.79167229 -0.60646516 0.0096087446
-0.04357418 0.059838388 -0.015122043 -0.024291946 -0.7752558 -0.63118005 0.013016867
-0.040774204 0.059461292 -0.015012894 0.018681478 -0.74617785 -0.66548449 0.011494408
-0.037812401 0.058870148 -0.014875721 -0.10329991 -0.74856055 -0.65497053 0.013246645
-0.035242185 0.058593236 -0.015501831 -0.23175612 -0.66892242 -0.70628023 0.027016772
-0.0010529716 0.060921662 -0.015043858 0.47200942 0.76436603 -0.43926263 0.0032297298
0.0012518242 0.059625629 -0.014389664 0.56573379 0.69589537 -0.44235161 0.0026356007
0.0031695715 0.058818635 -0.013038401 0.603145 0.69595152 -0.38970205 0.0011563859
-0.007001326 0.063940734 -0.015050641 0.32296914 0.83594882 -0.44371215 0.0049560475
-0.0046263272 0.063067317 -0.014728784 0.3907589 0.82569385 -0.4068625 0.0035470081
-0.0018795991 0.061854608 -0.014290158 0.47790179 0.78661501 -0.39095619 0.0027398071
-0.034779076 0.067000292 -0.015572234 0.15684938 0.58009803 -0.79930258 0.0075638606
-0.032056391 0.066620879 -0.015321139 0.062677383 0.5865159 -0.80750901 0.0060528517
-0.029324872 0.066307113 -0.015133301 0.034695983 0.620933 -0.78309542 0.0042300848
-0.025172377 0.065757908 -0.015724657 -0.0050116708 0.65785271 -0.7531299 0.0045256675
-0.022676546 0.065806136 -0.015413775 0.01967895 0.71246129 -0.70143545 0.0051801237
-0.019727282 0.065880634 -0.014933432 0.048083395 0.8139444 -0.57894945 0.0027732581
-0.016400995 0.065896034 -0.014179476 0.085105114 0.88575006 -0.45629373 0.0037837268
-0.013762564 0.065355733 -0.0153697 0.10047513 0.87661839 -0.4705793 0.0050468924
-0.010695045 0.065121658 -0.014660586 0.22755951 0.87650084 -0.42422032 0.0025983241
-0.0085147992 0.064517751 -0.014866043 0.26467079 0.86391705 -0.428482 0.0027468917
-0.037100192 0.067674831 -0.015163068 0.22181426 0.49630752 -0.83933145 0.0099386154
0.0082225865 0.0070886104 -0.010101341 -0.32978934 -0.43417102 -0.83829266 0.002661685
0.010469081 0.0065337084 -0.010351579 -0.11416144 -0.39715129 -0.9106251 0.0031542333
0.013324345 0.0064752894 -0.010348347 0.1011169 -0.36850002 -0.92411208 0.0031452822
0.01573951 0.0070183389 -0.010074153 0.31505671 -0.34453917 -0.8843258 0.002982833
0.0051935073 0.0098449364 -0.010181217 -0.44756603 -0.45497701 -0.76985747 0.0019153624
0.0074376068 0.0090598091 -0.010806649 -0.30137303 -0.41815209 -0.85692656 0.0029215591
0.010332208 0.0089691691 -0.011451616 -0.076288529 -0.40954241 -0.90909576 0.0027242806
0.013334359 0.0089708287 -0.011375737 0.13706714 -0.37710866 -0.91597033 0.0028647673
0.016330443 0.0090203285 -0.010597419 0.32570627 -0.30822605 -0.8938188 0.002887005
0.018120706 0.0098100957 -0.01001877 0.48059148 -0.2923131 -0.82679194 0.0014194959
0.0025701523 0.012848472 -0.010334227 -0.54877371 -0.44534373 -0.70747185 0.0035952718
0.0044136327 0.012074779 -0.011033214 -0.46897569 -0.4489406 -0.76060116 0.0022356177
0.0071537667 0.011737244 -0.012086068 -0.2551747 -0.45555046 -0.85285383 0.0024553763
0.0103086 0.011249808 -0.012474823 -0.057095274 -0.43311659 -0.89952773 0.0029528383
0.0134962 0.011572259 -0.012368471 0.16671957 -0.36234266 -0.91701281 0.0026675763
0.016326234 0.011964325 -0.011604116 0.36520413 -0.28764084 -0.8853749 0.0028252704
0.018565716 0.012054624 -0.010451037 0.52761328 -0.23757146 -0.81558818 0.0015874867
0.0016193746 0.01510646 -0.010992873 -0.55534744 -0.45670098 -0.69499165 0.0023563746
0.0039420947 0.014556943 -0.012239783 -0.41790158 -0.45442843 -0.78667217 0.0016787923
0.0059314999 0.013772471 -0.012769971 -0.30764377 -0.49146381 -0.81475061 0.0038375368
0.016597839 0.014776083 -0.012319746 0.42337477 -0.23804168 -0.87412238 0.0040399521
0.019090295 0.014952237 -0.010812012 0.57938969 -0.17976798 -0.79497868 0.0021036991
-0.0010636214 0.018302137 -0.010815814 -0.64129537 -0.47431445 -0.60313028 0.0018128176
0.00087129039 0.017483013 -0.012018917 -0.56028944 -0.46444681 -0.68583149 0.0025213487
0.017324885 0.01746038 -0.012579009 0.57324761 -0.16842149 -0.80188614 0.001498514
0.019156191 0.017974207 -0.011300496 0.61713457 -0.14199121 -0.77394015 0.0018115911
0.020790597 0.018035127 -0.0098565258 0.69879174 -0.079927996 -0.71084571 0.0018699056
-0.0035775255 0.021647573 -0.010544695 -0.7033757 -0.47007471 -0.53319085 0.0011061681
-0.001947157 0.020640846 -0.011657402 -0.67188865 -0.47893518 -0.56496614 0.0010334906
0.019492883 0.020841125 -0.011386467 0.69601959 -0.059935763 -0.71551692 0.0027394344
-0.0044973567 0.023955034 -0.011383286 -0.68538982 -0.49034473 -0.53833342 0.0012844312
-0.0026573492 0.022677585 -0.012559567 -0.61183536 -0.49332985 -0.61829048 0.0012892274
0.0195146 0.023894962 -0.011499696 0.7361604 0.0079658916 -0.6767602 0.0023229043
-0.0070407293 0.027252153 -0.011062161 -0.73165298 -0.52754551 -0.43171698 0.0015004105
-0.0057876301 0.026199155 -0.011830174 -0.71307939 -0.51370788 -0.47709742 0.001533407
0.019483376 0.026819449 -0.011409596 0.75312853 0.051794812 -0.6558314 0.0018989999
0.020790754 0.026835566 -0.0098532476 0.80893809 0.087657779 -0.58132201 0.002020993
-0.0095751621 0.030794442 -0.011151537 -0.74209875 -0.55083799 -0.38192537 0.0017408354
-0.0082077654 0.029400393 -0.011698388 -0.74090123 -0.52140063 -0.42332813 0.0026075484
0.01910679 0.029858422 -0.011493726 0.77361518 0.13688648 -0.61869347 0.0015864143
-0.01254208 0.034204941 -0.010372911 -0.7589637 -0.58297712 -0.29002056 0.0017654425
-0.01099596 0.032806899 -0.011505972 -0.74944973 -0.57871848 -0.32157433 0.0015852479
0.017433392 0.033786051 -0.012742791 0.75108457 0.14162371 -0.64483696 0.00084330857
0.018738614 0.032770786 -0.011210238 0.80095488 0.1846038 -0.56955487 0.0020238839
-0.013616776 0.036001474 -0.011315117 -0.74255133 -0.60405016 -0.28938025 0.0020141497
-0.012021313 0.034506019 -0.012372706 -0.72548908 -0.60870326 -0.32116327 0.0015758156
0.017225869 0.036249809 -0.012174836 0.76767981 0.20758285 -0.6062814 0.00098261365
0.01828957 0.035550196 -0.010888354 0.8188864 0.2463938 -0.51837748 0.0012174752
-0.016012169 0.03904793 -0.011374376 -0.76363683 -0.59758657 -0.24443656 0.0019013503
-0.014784399 0.037960041 -0.012363557 -0.75303155 -0.58196574 -0.30701667 0.0017924798
0.016735831 0.039012752 -0.011523941 0.80780011 0.27781633 -0.51988184 0.0012644393
0.017991573 0.037677068 -0.010345329 0.82747602 0.29207113 -0.47956008 0.002510227
-0.01889562 0.042738032 -0.011392409 -0.7528519 -0.6039573 -0.26162893 0.0016604275
-0.017456239 0.041065332 -0.011793844 -0.76810169 -0.59525317 -0.23599489 0.0012027008
0.014685018 0.043023545 -0.012383495 0.80501997 0.37428045 -0.46027932 0.0019955484
0.015790939 0.041760292 -0.011298171 0.81332463 0.3207742 -0.48539355 0.0013313571
-0.021452168 0.046006653 -0.011042867 -0.7639246 -0.59723645 -0.2443929 0.00046925768
-0.020214716 0.04451739 -0.011612479 -0.7587592 -0.59386981 -0.26758748 0.0011207412
0.014125147 0.044986717 -0.011668229 0.80655533 0.42258734 -0.41338658 0.0015121229
0.015366087 0.043911044 -0.010458166 0.82672 0.3945078 -0.40112045 0.0016834154
-0.022699526 0.047863692 -0.011816777 -0.74670589 -0.59717208 -0.29294318 0.00089479866
0.011460045 0.049231332 -0.012454364 0.78738052 0.46549118 -0.40416566 0.0014812489
0.012715421 0.047741357 -0.011505178 0.80557656 0.46774676 -0.36367461 0.00054162904
-0.025102038 0.050998066 -0.011787597 -0.73253119 -0.63028109 -0.25718439 0.0020022735
-0.023998816 0.049712483 -0.0122757 -0.74606544 -0.59898007 -0.29087678 0.00093519769
0.010686501 0.051053017 -0.011568174 0.7823481 0.53870261 -0.31261948 0.0029052801
0.011983069 0.04996236 -0.010127548 0.79694504 0.51431644 -0.31679198 0.0036082088
-0.026332108 0.052535746 -0.011787955 -0.69004077 -0.67360139 -0.26477313 0.002745522
0.0080159483 0.054355487 -0.01198167 0.70762366 0.56411326 -0.42549381 0.001208917
0.0095585762 0.05300606 -0.010967097 0.75722879 0.56837839 -0.32179281 0.0026507841
0.0050176792 0.057553366 -0.012191766 0.67214841 0.66457599 -0.32642806 0.0033780383
0.0064010839 0.056184556 -0.012091432 0.6945852 0.64469111 -0.31925651 0.0031986756
0.0014864639 0.06052348 -0.011822585 0.55022138 0.75840741 -0.34939173 0.0013543336
0.003869853 0.058775499 -0.011680666 0.63982427 0.70909047 -0.29633701 0.0026690741
-0.0037395661 0.063615248 -0.011698339 0.42257199 0.84771287 -0.32064894 0.0019944268
-0.0023541581 0.062885799 -0.011953849 0.44290489 0.8349694 -0.32659039 0.0021069665
-0.011090633 0.065761484 -0.012735192 0.17751558 0.91019982 -0.37419873 0.0031678844
-0.0074138795 0.064872906 -0.01252735 0.31508258 0.88446385 -0.34416077 0.0031136654
0.0116053 -0.0018942081 -0.0068348683 -0.1311623 -0.37442553 -0.91793358 0.001022032
0.012304407 -0.0018941113 -0.0068544485 0.010609833 -0.36386809 -0.93139011 0.0038989908
0.0080232453 0.0010588916 -0.0071794181 -0.38379773 -0.38742611 -0.83821249 0.0027689289
0.010354653 0.00022708112 -0.0074602412 -0.21330948 -0.38582087 -0.8975752 0.0026093442
0.013215369 -2.9352028e-05 -0.0075938599 0.033687212 -0.38929555 -0.9204967 0.0046315081
0.015976833 0.00036845356 -0.0073527051 0.23127434 -0.36694163 -0.90103608 0.0031125876
0.018130509 0.0011371947 -0.0069505461 0.44312507 -0.3419936 -0.82866192 0.0024396221
0.005352133 0.003793732 -0.0071013849 -0.50345308 -0.38288552 -0.77455389 0.0016056881
0.0074858353 0.0030732017 -0.0078476826 -0.36228886 -0.39043877 -0.84634763 0.0027777983
0.010395221 0.002989392 -0.008722255 -0.158645 -0.40674078 -0.89966309 0.002413529
0.013176889 0.0029882286 -0.008892687 0.061127193 -0.39276063 -0.91760689 0.0028442922
0.016215155 0.0029921625 -0.0083368877 0.2840063 -0.35304469 -0.89145947 0.0031529746
0.01881321 0.003232317 -0.0073513347 0.450811 -0.30837926 -0.83765846 0.0023610992
0.0046166601 0.0059727146 -0.0076923198 -0.52554196 -0.40480104 -0.74829251 0.002051706
0.0072322567 0.005748461 -0.009025841 -0.3469843 -0.42146775 -0.83783466 0.0023812819
0.010174607 0.0050077238 -0.0095824599 -0.14130779 -0.43523997 -0.88915592 0.0029793801
0.013478497 0.0048832572 -0.0096627036 0.077747434 -0.40590364 -0.91060281 0.0027480305
0.016587501 0.0057191188 -0.0092894183 0.31806955 -0.3353979 -0.88675815 0.0028682114
0.019250527 0.0057853414 -0.0080187768 0.49289769 -0.29126644 -0.81988764 0.0023792225
0.021039208 0.0066143922 -0.0070705898 0.60583752 -0.25185159 -0.75467324 0.0011631959
0.002140271 0.0092171803 -0.0075688362 -0.62313294 -0.40998703 -0.66604501 0.002267485
0.0042143599 0.0086101526 -0.0088949921 -0.47523731 -0.43859783 -0.76274604 0.0013557414
0.0060882121 0.0078498553 -0.0096052252 -0.40943921 -0.44195628 -0.79814416 0.0050273389
0.017555263 0.007848544 -0.0096845068 0.38561621 -0.33074117 -0.86134219 0.0042888848
0.019319616 0.0086798947 -0.0089525152 0.49423185 -0.27726552 -0.82392883 0.0011064641
0.02141154 0.0090409731 -0.007522651 0.6454643 -0.2080086 -0.73492056 0.0013984136
-0.00052106433 0.012788823 -0.0071470477 -0.68471813 -0.42680672 -0.59075981 0.0010596561
0.0013392986 0.011819383 -0.0084924782 -0.6302048 -0.44819149 -0.63400817 0.0028866362
0.0033462548 0.010785324 -0.0095954183 -0.57149309 -0.46005055 -0.6795212 0.0017267269
0.019981062 0.011657486 -0.0093284827 0.57237017 -0.19561927 -0.79632002 0.0019410317
0.02170988 0.011912694 -0.0079291537 0.68516243 -0.14157815 -0.71449852 0.0015591938
-0.0012079356 0.015149942 -0.0081126411 -0.70387733 -0.44609916 -0.55276781 0.0018212765
0.00041086535 0.014101103 -0.0092155356 -0.66798902 -0.43916187 -0.60077238 0.00098598388
0.02033795 0.013873858 -0.0096293231 0.63565236 -0.16184865 -0.75481856 0.0018557488
0.021868747 0.014907897 -0.0083394665 0.71085149 -0.10514954 -0.69543779 0.0012724301
-0.003573007 0.018390408 -0.0075475313 -0.76732004 -0.42612824 -0.47920209 0.0012663411
-0.0022532695 0.017591361 -0.0087709939 -0.73508984 -0.4487755 -0.50817657 0.00078746083
0.022129262 0.017801214 -0.0083877593 0.7543956 -0.040876672 -0.65514606 0.0018177812
-0.0044224649 0.02086376 -0.0084449779 -0.76061565 -0.45712027 -0.46098259 0.0013980545
-0.0028332658 0.019437758 -0.0095664002 -0.7038101 -0.45163989 -0.54833639 0.00064944604
0.022199688 0.020814965 -0.0083825598 0.79889882 0.037805118 -0.60027617 0.0021084915
-0.0068618022 0.02458154 -0.0077453628 -0.81128442 -0.46850029 -0.34975004 0.0017955905
-0.0057513653 0.023437718 -0.0088337967 -0.79232949 -0.47542903 -0.38233638 0.0012894948
0.022018015 0.023900811 -0.0084885899 0.82575649 0.084270239 -0.55769593 0.0014133812
-0.0078687156 0.026776766 -0.0086033437 -0.80926853 -0.50396252 -0.30183813 0.0025530863
0.021737324 0.026892625 -0.0083395857 0.85373342 0.14230546 -0.50088757 0.0014576503
-0.0098984791 0.029800778 -0.008370352 -0.80271769 -0.5463354 -0.23908564 0.0015827494
-0.0088649401 0.028727254 -0.0092693008 -0.77412659 -0.56704926 -0.28139502 0.0028046486
0.020338003 0.030557053 -0.0096282102 0.81230354 0.15346989 -0.56268102 0.0010552384
0.021274196 0.029841743 -0.0082476158 0.86059391 0.18969868 -0.47264418 0.0013871589
-0.012839314 0.033910371 -0.0082315393 -0.79083246 -0.57493812 -0.20983362 0.00064941082
-0.011525917 0.032267094 -0.0088892104 -0.78269917 -0.58173519 -0.22128309 0.00068759255
0.020098239 0.033118527 -0.0089644305 0.86246192 0.23486397 -0.44832838 0.0027149448
0.021032531 0.032367211 -0.007561841 0.86813247 0.26878801 -0.41725171 0.001491393
-0.015429901 0.037244473 -0.007310573 -0.78241742 -0.5947836 -0.18454109 0.00014650535
-0.014183995 0.035761781 -0.008332137 -0.78425103 -0.58737296 -0.19985861 0.00041302197
0.01952255 0.035895728 -0.0083636101 0.8730036 0.28481275 -0.39591214 0.0020149983
-0.016305726 0.03869855 -0.0087587452 -0.76942199 -0.60550499 -0.20335555 0.0005626824
0.017571393 0.04008957 -0.0092797019 0.85358685 0.3752782 -0.36132509 0.0013333056
0.018492345 0.038650017 -0.0085255122 0.86392444 0.33518004 -0.37588418 0.0015178333
-0.01952933 0.043098491 -0.009335611 -0.77413046 -0.59748507 -0.20912589 0.00046596929
-0.018138945 0.041245375 -0.0093168058 -0.76363623 -0.6126585 -0.20373833 0.00050203042
0.016997935 0.041972362 -0.0085211135 0.85159683 0.37929183 -0.36182943 0.0013023439
0.018113766 0.040501263 -0.0073596574 0.8535822 0.37529129 -0.36132231 0.0013321817
0.014307783 0.046293739 -0.0098080374 0.8078292 0.45082423 -0.37969652 0.00062827958
0.015592493 0.044895347 -0.008410193 0.83823174 0.41960356 -0.3482821 0.00092614524
0.013558469 0.047997057 -0.0090706833 0.81524324 0.47132322 -0.33650094 0.00018539284
0.014827737 0.04647674 -0.0081088878 0.82328379 0.4623377 -0.32931393 0.00042649402
0.01152882 0.050927665 -0.0097937025 0.79354334 0.53960091 -0.28128254 0.001722165
0.012240881 0.050075069 -0.0091612674 0.80362535 0.53038114 -0.26996702 0.0016015646
0.010649643 0.052560326 -0.0077974536 0.78195733 0.56081033 -0.27209288 0.0012456941
0.0064507932 0.057116184 -0.0085374154 0.70923191 0.6624431 -0.24116236 0.0016109395
0.010816145 -0.0083213989 -0.0040658601 -0.18598725 -0.32590976 -0.92692584 0.0031522852
0.013256748 -0.0085264947 -0.0041117612 0.030373657 -0.34687138 -0.93742079 0.002794083
0.015339423 -0.0081968196 -0.0040330985 0.24086976 -0.3675136 -0.89828473 0.0026001653
0.00778809 -0.0055550789 -0.0042410004 -0.38310397 -0.32740659 -0.86373395 0.0028495691
0.010251816 -0.0061214059 -0.0047916188 -0.19834135 -0.3444871 -0.91759974 0.0027284818
0.01329011 -0.0061175241 -0.0050713923 0.067382149 -0.36829326 -0.92726463 0.0031793437
0.016256485 -0.0060087689 -0.0046442831 0.26178607 -0.35974073 -0.89557511 0.0028970221
0.018538125 -0.0052496758 -0.0041594617 0.41326833 -0.36934522 -0.83234209 0.0018868336
0.005312514 -0.0025837277 -0.0041730776 -0.52644128 -0.32513455 -0.78558713 0.0013894824
0.0072028148 -0.0030739834 -0.0049612885 -0.39841974 -0.34420672 -0.85016674 0.0022505161
0.010190256 -0.0030951444 -0.0060030646 -0.22627102 -0.37483013 -0.89905715 0.00265241
0.013308915 -0.0031333123 -0.0062888693 0.044350833 -0.3725431 -0.92695451 0.00462378
0.016306704 -0.0030678497 -0.0058370982 0.23234902 -0.36462972 -0.90169787 0.0028581631
0.019264296 -0.0029732496 -0.0046754889 0.4535872 -0.32018107 -0.83171076 0.0019851499
0.021071114 -0.0021414929 -0.0039370693 0.56460667 -0.31385785 -0.76335609 0.0013079302
0.002759096 0.0013802922 -0.0038895051 -0.64978784 -0.33714896 -0.68125361 0.0033711581
0.0046419338 0.00016981689 -0.0048250118 -0.57021582 -0.33196133 -0.7514357 0.0018509038
0.0070424764 -0.00021077786 -0.0061009624 -0.39885417 -0.36863354 -0.83965755 0.0023430786
0.0094842659 -0.001169187 -0.006648819 -0.20691417 -0.39763144 -0.89391035 0.0034069924
0.01690305 -0.00093099615 -0.0065348307 0.26351434 -0.37767029 -0.88765156 0.0024257919
0.019407973 -8.7648164e-05 -0.0057459958 0.45375788 -0.31698963 -0.83283937 0.0023453056
0.021538407 0.00031670462 -0.0044982722 0.59781313 -0.2920841 -0.74652952 0.0014611738
0.0023873863 0.0032540527 -0.004450738 -0.64578974 -0.3331106 -0.68701738 0.0012704686
0.0042258548 0.0028817477 -0.0058176923 -0.54781187 -0.36389238 -0.75331569 0.0018609676
0.0061656311 0.0019933458 -0.0066857575 -0.50030029 -0.39222175 -0.77192086 0.0010688003
0.020051919 0.0026389507 -0.0064480007 0.49678281 -0.28314844 -0.82038641 0.0021394133
0.022082916 0.0030791438 -0.0050687948 0.62684906 -0.24543805 -0.73947299 0.0016908267
0.0017833589 0.0059481855 -0.005202068 -0.68081719 -0.37073663 -0.63169795 0.0027110409
0.0035043173 0.0051657925 -0.0063781403 -0.59783554 -0.38954189 -0.70060676 0.00065362535
0.022288229 0.0057142936 -0.0057217143 0.64100581 -0.22335748 -0.73431802 0.0012844938
0.023996063 0.0060728393 -0.0041174255 0.72795844 -0.17738907 -0.66227615 0.0012804092
-0.00070277223 0.0095263682 -0.0044704899 -0.75476408 -0.37327629 -0.53944045 0.0019093638
0.00074430945 0.0085562672 -0.0056698159 -0.71632898 -0.39313784 -0.57646811 0.0013417401
0.022793109 0.0086258221 -0.0061057759 0.67852867 -0.17616135 -0.71313816 0.00134474
0.024209546 0.0090438109 -0.0046361201 0.76256049 -0.14220394 -0.63109392 0.0014822804
-0.0013341 0.011991003 -0.005342707 -0.77195889 -0.40555793 -0.48949167 0.0027458679
6.0993407e-05 0.011056935 -0.0065217577 -0.68127531 -0.41676322 -0.60180748 0.0014897347
0.023249803 0.01185787 -0.0063394997 0.72306162 -0.11849197 -0.68054503 0.0012377235
0.024360633 0.011799704 -0.0049619041 0.79758018 -0.086700588 -0.59694958 0.0016462492
-0.0035127117 0.015607156 -0.0049045421 -0.81883276 -0.40355942 -0.40823111 0.0019257268
-0.0023943565 0.01449086 -0.0058333124 -0.78393173 -0.42405209 -0.45346552 0.00073218334
0.023564046 0.014719225 -0.0063501485 0.79820323 -0.068570398 -0.59847283 0.0015193094
0.024532281 0.01495913 -0.0050300015 0.82893568 -0.031367458 -0.55846369 0.0018073237
-0.0044263573 0.017836286 -0.0052976683 -0.83821815 -0.40166968 -0.36885187 0.0019300184
0.023757838 0.017948428 -0.0063613146 0.82903337 -0.010711687 -0.55909652 0.0018263373
0.024527896 0.018000441 -0.0051100864 0.85869777 0.026660267 -0.51178837 0.0018010272
-0.0066215983 0.022007329 -0.00458524 -0.85936248 -0.41833729 -0.29409188 0.0012921345
-0.0056696213 0.020717807 -0.0056273658 -0.85521203 -0.41773692 -0.30677071 0.0012171345
0.023646839 0.021105172 -0.0062567927 0.85556114 0.048073221 -0.51546502 0.0017265524
0.024525065 0.020719655 -0.0047768774 0.88095284 0.088905372 -0.46477735 0.0015591141
-0.0072471369 0.023795649 -0.0054025771 -0.85464185 -0.44418383 -0.26886421 0.00067622185
0.023358248 0.023785664 -0.0063507981 0.87633187 0.10719056 -0.46963027 0.0015427098
0.024045307 0.02377589 -0.0049816547 0.89687335 0.14703926 -0.41713011 0.0016246065
-0.0094242189 0.027837904 -0.0050478913 -0.83662158 -0.49208137 -0.2406664 0.00056687783
-0.0086145708 0.026512675 -0.0053782202 -0.85114133 -0.46933174 -0.23512989 0.00073635887
0.02313761 0.027047088 -0.0057263859 0.89639133 0.18685652 -0.4019542 0.0023898024
0.02386752 0.026477603 -0.0043245368 0.92859173 0.20506988 -0.30929554 0.0013569839
-0.010424102 0.029748861 -0.00563158 -0.80900931 -0.54370219 -0.22336483 0.00094565598
0.022529863 0.029774353 -0.0055970121 0.90867519 0.2306281 -0.34802315 0.0017505616
-0.011969721 0.032208554 -0.006103579 -0.7961809 -0.56782413 -0.20897795 0.00054239732
0.021618171 0.033081129 -0.0055625476 0.90236998 0.27250126 -0.33387345 0.00085904141
0.020402705 0.036213711 -0.0057087652 0.89355731 0.30962133 -0.32509995 0.0005138854
0.021015372 0.035093084 -0.0051133474 0.89355719 0.30962482 -0.32509679 0.00052041077
0.019346993 0.038777642 -0.0057929642 0.88123333 0.36615825 -0.29892451 0.00029603162
0.017452307 0.042457726 -0.0064102449 0.86130393 0.41530055 -0.29271299 0.00016592885
0.01815448 0.041061405 -0.0063648559 0.86777437 0.37822548 -0.32235557 0.00065030606
0.0110013 -0.017143069 -0.00093614263 -0.048663147 -0.32955238 -0.9428823 0.0038774302
0.012468425 -0.017050574 -0.00088249543 0.078036055 -0.31207585 -0.9468469 0.004407444
0.0077970279 -0.014577037 -0.0011848754 -0.29179969 -0.28398177 -0.91334945 0.0027115778
0.010354935 -0.015107609 -0.0015438753 -0.13511062 -0.30391899 -0.94306856 0.0031486491
0.013365915 -0.015102783 -0.0015401677 0.13140643 -0.35329896 -0.9262355 0.0022738646
0.015883982 -0.014438387 -0.0012423063 0.28578427 -0.37128299 -0.88344568 0.0024993466
0.0054072523 -0.011506338 -0.0010898791 -0.48082316 -0.257725 -0.83808517 0.0013637725
0.007253163 -0.012062665 -0.0017414365 -0.34061429 -0.28224072 -0.89684004 0.0023394255
0.010301398 -0.012039108 -0.0026013842 -0.14193568 -0.33939841 -0.92987257 0.002872563
0.013359593 -0.012035741 -0.0027262932 0.064822465 -0.36305735 -0.92950928 0.0025053611
0.016205814 -0.012051584 -0.0021519503 0.29255205 -0.35628456 -0.88739771 0.0022997737
0.018490298 -0.011731587 -0.0013705085 0.43989557 -0.36883092 -0.81881356 0.001811976
0.0049067331 -0.0091029536 -0.0014861966 -0.52779537 -0.26010534 -0.80856496 0.002181547
0.0072386884 -0.009211842 -0.0026666312 -0.34974605 -0.30388042 -0.88619095 0.002406009
0.010062875 -0.0095397215 -0.0034566263 -0.17974259 -0.34772426 -0.92020673 0.0034311265
0.013404358 -0.0099255461 -0.0035468906 0.044942945 -0.39424327 -0.91790652 0.0025747053
0.016295068 -0.0093588531 -0.0032468613 0.25308788 -0.39112782 -0.88485336 0.0022274817
0.019240908 -0.0091961306 -0.0020482019 0.43263513 -0.34401953 -0.8333531 0.0010832566
0.021325676 -0.008418018 -0.0010595659 0.5942536 -0.32753786 -0.73456216 0.0013885979
0.0026795517 -0.0053217229 -0.0010997872 -0.64623624 -0.24165285 -0.72386634 0.0010139999
0.0044462513 -0.006123587 -0.0021586916 -0.55194604 -0.25535733 -0.79381877 0.0025997639
0.0067966525 -0.0065712803 -0.0034039358 -0.39682743 -0.32465476 -0.85856122 0.002226484
