# .PCD v0.7 - Point Cloud Data file format
VERSION 0.7
FIELDS x y z normal_x normal_y normal_z curvature
SIZE 4 4 4 4 4 4 4
TYPE F F F F F F F
COUNT 1 1 1 1 1 1 1
WIDTH 551
HEIGHT 1
VIEWPOINT 0 0 0 1 0 0 0
POINTS 551
DATA ascii
0.0046990048 0.048533782 -0.0072320863 0.43448994 -0.32432327 -0.8402577 0.001763751
-0.011460897 0.05155905 -0.0077342805 -0.66239911 -0.48180625 -0.57366371 0.0027344909
-0.0096318033 0.050775599 -0.0088743754 -0.53903073 -0.53866827 -0.64752024 0.0076631987
-0.0071413903 0.049819149 -0.0096322289 -0.27691174 -0.54838586 -0.78904551 0.0054593263
0.00027749356 0.049971983 -0.0096433815 0.23219557 -0.41578078 -0.8793245 0.003364753
0.0027621167 0.05090363 -0.0090763615 0.42439607 -0.30352819 -0.85308772 0.0026772437
0.0053176954 0.051035415 -0.0077143707 0.50600237 -0.26842645 -0.81970048 0.0018507245
-0.012344405 0.053854041 -0.0084232632 -0.75383013 -0.42825028 -0.49833909 0.0031555402
-0.010549159 0.052812722 -0.0097329943 -0.54405391 -0.5426318 -0.63996571 0.0026288254
0.0035532685 0.053660497 -0.009607994 0.48000962 -0.2263878 -0.84754908 0.0054295789
0.0056221932 0.053902648 -0.0081882337 0.58918726 -0.11226551 -0.80015928 0.0046808664
-0.014400302 0.05740935 -0.0076274397 -0.87368512 -0.31896263 -0.36733782 0.0028839677
-0.013534213 0.056460869 -0.0087627908 -0.85330325 -0.35377672 -0.38303471 0.0051646931
0.005595468 0.05691551 -0.0085100746 0.68754035 0.010109592 -0.72607589 0.0072750049
-0.014709206 0.05965019 -0.0086255129 -0.89908367 -0.3067005 -0.31238323 0.0059591853
0.0052830582 0.059818432 -0.0084255338 0.72146547 0.21172035 -0.65928906 0.0078332843
-0.015258422 0.06192578 -0.0074574873 -0.93333238 -0.26259255 -0.24481791 0.0027050551
0.0033962177 0.063254915 -0.0091094337 0.75222301 0.40685111 -0.51829791 0.0085654547
0.0047612325 0.062448304 -0.0077985618 0.74480373 0.4732106 -0.47046706 0.0033020717
0.00066227565 0.066820413 -0.0088547496 0.63355947 0.69194257 -0.34614709 0.0055807498
0.0023241818 0.065426424 -0.008377309 0.69491857 0.59528899 -0.40338472 0.0048531387
-0.0027016778 0.069228359 -0.0082880883 0.61672336 0.72565717 -0.30508024 0.0023000024
-0.00075209886 0.068098418 -0.0083903996 0.60694957 0.72667539 -0.32179981 0.0027518526
0.0038064201 -0.0698127 -0.0062102103 0.80646819 -0.48167655 -0.34292382 0.00063832517
0.0047394405 -0.0685886 -0.006093286 0.81091499 -0.43955553 -0.38627428 0.0020521539
-0.015812984 -0.064843833 -0.0051423931 -0.95889473 0.059247546 -0.27750796 0.002611764
0.0062977634 -0.066145107 -0.0058053755 0.828812 -0.42326865 -0.36594301 0.002755746
0.0070835799 -0.06506934 -0.0051988983 0.84647298 -0.3871977 -0.3654606 0.002342467
-0.015739018 -0.062799498 -0.005549232 -0.94890356 0.055367652 -0.31067079 0.0038478018
0.0070644165 -0.063933499 -0.0065675997 0.86743295 -0.31759125 -0.38300893 0.002835016
0.0080145271 -0.062821582 -0.0054562963 0.86051023 -0.32811278 -0.38969746 0.0031473788
-0.015413266 -0.059832979 -0.0056863786 -0.9200235 0.16133972 -0.35710827 0.0024225372
0.008879316 -0.05990677 -0.0056042438 0.86326063 -0.22159646 -0.45351532 0.005646803
-0.014957985 -0.057052027 -0.0052381726 -0.88709289 0.23317555 -0.39836583 0.0028487029
-0.01389133 -0.056002837 -0.0066652172 -0.81612587 0.29415283 -0.49740595 0.0017142368
0.0091750352 -0.057043374 -0.0058324398 0.77154362 -0.041563559 -0.63481712 0.0033779978
0.010374329 -0.056546357 -0.0042646253 0.836178 -0.16752528 -0.52224672 0.0043387925
-0.014268926 -0.054142855 -0.0047602057 -0.833727 0.2971437 -0.46540838 0.0032765761
-0.013303605 -0.05377062 -0.0060286983 -0.7916013 0.35094613 -0.50020415 0.0019095008
0.0091570877 -0.054019697 -0.0058927462 0.74720186 0.044323754 -0.66311753 0.0024791448
0.010608919 -0.05397239 -0.0042506703 0.77460361 -0.014633724 -0.63227779 0.0037276563
-0.013983284 -0.052363832 -0.0039971196 -0.78419209 0.35547772 -0.50860435 0.0017766423
-0.012305632 -0.051070221 -0.005522863 -0.71643496 0.3889755 -0.57915366 0.0022852293
-0.010476157 -0.049869843 -0.0066822791 -0.63849258 0.45295021 -0.62222457 0.001764872
0.0070621599 -0.049942102 -0.0067287409 0.55974972 0.22343025 -0.7979719 0.0022660349
0.0087483563 -0.05102168 -0.0057889745 0.62898457 0.14080666 -0.76455992 0.0026246861
0.010563376 -0.051357217 -0.0041905753 0.72249508 0.075490795 -0.68724233 0.0037309991
-0.011590173 -0.048603065 -0.004668117 -0.68574649 0.42104426 -0.59369487 0.0022582612
-0.0097840745 -0.047727205 -0.0058308765 -0.54545063 0.45870477 -0.70147955 0.0033340729
-0.0078354478 -0.046910096 -0.006782236 -0.49213281 0.45838252 -0.74006134 0.0029554246
0.0062268414 -0.047846392 -0.006521801 0.41521147 0.28873909 -0.86268717 0.0030857846
0.0086123617 -0.04796106 -0.0051196273 0.56984854 0.19871971 -0.79736012 0.0021361616
0.010380124 -0.049084242 -0.0039956295 0.64216399 0.16304712 -0.74902672 0.0019513308
-0.0090989694 -0.045374624 -0.004833993 -0.54218996 0.45438483 -0.70679873 0.0034204104
-0.0066434704 -0.044849016 -0.00603966 -0.35679847 0.48465475 -0.79862678 0.0038049992
-0.0036194636 -0.044113427 -0.0065276516 -0.14447321 0.49736288 -0.85542828 0.0021048172
-0.00038747187 -0.04389989 -0.0066254376 0.031313255 0.45923215 -0.88776416 0.0018376665
0.002795724 -0.0444245 -0.0064259879 0.19176424 0.39598253 -0.89801133 0.0016486265
0.0054419092 -0.045140725 -0.0058779269 0.35389143 0.33366218 -0.87374502 0.0023490824
0.0080590816 -0.045161504 -0.0046257311 0.48382801 0.28996107 -0.82573181 0.0018774135
-0.0083604092 -0.043224934 -0.0040230178 -0.55194467 0.47818321 -0.68315279 0.0025995567
-0.00623564 -0.042307746 -0.0046644309 -0.37824473 0.47257572 -0.79599184 0.0045940224
-0.0034281425 -0.041927658 -0.005327337 -0.14988536 0.47244611 -0.86852121 0.001674169
-0.00039074244 -0.041900091 -0.0056161997 0.0030841369 0.44929421 -0.89337856 0.0019462602
0.0026446227 -0.041926149 -0.0053454447 0.15525961 0.38940698 -0.90788573 0.0015800241
0.0053955005 -0.042048473 -0.0046810955 0.29907337 0.36252871 -0.88268232 0.0014748414
0.0074621374 -0.042922977 -0.004182593 0.42679185 0.31419027 -0.84801728 0.0016197175
-0.005082055 -0.040187199 -0.0039418661 -0.36464852 0.46013013 -0.80951327 0.0024665326
-0.0031430381 -0.039727852 -0.0041833804 -0.19452015 0.45033452 -0.87141299 0.0022157957
-0.0003948583 -0.039333619 -0.0043540602 -0.029007526 0.42480385 -0.90482056 0.001975266
0.0025633415 -0.039517272 -0.0042829714 0.12643319 0.39594805 -0.90952724 0.0014777095
0.0048356629 -0.040023036 -0.004029063 0.27222967 0.36146933 -0.89175713 0.0011828354
-0.0032063755 0.040238686 -0.0040989444 -0.20713437 -0.56188667 -0.80086118 0.0030664103
-0.0003953384 0.039916739 -0.0042016814 -0.0062183277 -0.49845359 -0.86689413 0.0020280727
0.0023723477 0.04013877 -0.0041046194 0.16330498 -0.44806525 -0.87895906 0.0019328749
-0.0083630569 0.043225285 -0.003900113 -0.57030576 -0.50465506 -0.64813173 0.002789981
-0.0061306017 0.042359252 -0.0045833844 -0.37266532 -0.54486537 -0.75116062 0.0030741002
-0.0033799806 0.042008288 -0.0052377214 -0.17080562 -0.54441547 -0.82124126 0.0044560698
-0.00045200437 0.042042095 -0.0054666535 0.035290636 -0.50527477 -0.86223662 0.0024096349
0.0026459347 0.041945994 -0.0049976208 0.20159025 -0.4428224 -0.87365305 0.0018501376
0.005186636 0.042274784 -0.0043988619 0.32734138 -0.38964319 -0.86082852 0.0016249972
0.0071003269 0.043214995 -0.0040027522 0.39989558 -0.3666701 -0.84002179 0.0023958934
-0.009150289 0.045385726 -0.0049434467 -0.54139584 -0.53564137 -0.64805776 0.004073421
-0.0066498383 0.044576459 -0.0059645474 -0.32781404 -0.55913639 -0.7615146 0.0025002484
-0.0037422618 0.043960508 -0.006479546 -0.1185652 -0.53062671 -0.83927202 0.003315303
-0.00015450164 0.044041131 -0.0066022617 0.064954437 -0.50931764 -0.85812378 0.0020268855
0.0027917658 0.044590276 -0.0062785461 0.22106646 -0.44331321 -0.86867893 0.0012561382
0.0054462529 0.044936448 -0.0054561691 0.34720311 -0.37644145 -0.85891902 0.00085320149
0.0076477127 0.045214109 -0.0044306405 0.47694722 -0.29867932 -0.8266269 0.0017011089
-0.011587121 0.048343875 -0.0047759437 -0.7162959 -0.45281774 -0.53092027 0.0022823112
-0.0099092843 0.047470156 -0.0059629511 -0.59246874 -0.50988793 -0.62369466 0.0056133489
0.0038021407 0.046651009 -0.0068723881 0.3099075 -0.34587812 -0.88562161 0.0021787051
0.0058494741 0.047733072 -0.0063151624 0.42328769 -0.31047124 -0.85113752 0.0017007673
0.0082512405 0.047963262 -0.0048765349 0.55295801 -0.23379183 -0.79973674 0.0019149766
-0.013984527 0.052121911 -0.0039610588 -0.87105763 -0.34390643 -0.35069489 0.0033864297
-0.012474767 0.050811239 -0.0055973702 -0.77901518 -0.43292657 -0.45355257 0.0016521028
0.0068315682 0.050526097 -0.0065705329 0.54802793 -0.21316168 -0.80884331 0.0042748377
0.0086737061 0.050969195 -0.0051853955 0.6657086 -0.074211337 -0.74251246 0.0046165413
-0.014339142 0.054063611 -0.0047809314 -0.87495798 -0.31920195 -0.36408597 0.0023793485
-0.013570798 0.053769365 -0.0063069062 -0.84225726 -0.3686696 -0.39330074 0.002298414
0.0087039862 0.053907771 -0.0053928006 0.75603992 0.012366101 -0.65440869 0.0052641099
-0.014910547 0.056868333 -0.0054374659 -0.88985467 -0.30625162 -0.3381843 0.002361282
0.0070601646 0.058286902 -0.0068712854 0.76497614 0.16010557 -0.62384105 0.009494557
0.0083486885 0.056828529 -0.0054516094 0.80116618 0.20399676 -0.56259936 0.0041783112
-0.015318438 0.059355598 -0.0058653317 -0.92982537 -0.24301037 -0.27635285 0.0014619756
0.0067328801 0.060136374 -0.006484515 0.79947066 0.30624759 -0.51677763 0.0076684603
0.0077714575 0.05974764 -0.0050610905 0.80250239 0.35938439 -0.47626954 0.0022914824
0.0056780605 0.063025966 -0.0056091743 0.75488532 0.5276528 -0.38952616 0.0024790578
0.0070966971 0.061918672 -0.0042620623 0.78286093 0.51297164 -0.35212058 0.0025890514
0.0028754603 0.066108361 -0.0059483745 0.69275677 0.62789458 -0.35473421 0.0025569745
0.0045135869 0.064816527 -0.0052315616 0.72125077 0.59362406 -0.35694233 0.0015906629
0.00054379686 0.06795387 -0.0060734027 0.60834324 0.73229837 -0.3060354 0.0019476071
-0.015868373 -0.06552498 -0.0037138485 -0.96286005 0.03132461 -0.26817748 0.0017119303
0.0075790677 -0.065113947 -0.003324958 0.85318047 -0.39993855 -0.33486134 0.0012276915
-0.016365808 -0.06234543 -0.0029960398 -0.95401794 0.068091474 -0.29191306 0.0027971352
0.0088820979 -0.06285958 -0.0026753121 0.87010181 -0.35796988 -0.33879259 0.00088142644
-0.01637988 -0.060044646 -0.0026428723 -0.93984824 0.11409681 -0.32197401 0.00095153897
0.009743995 -0.06074569 -0.0030173266 0.87059748 -0.29960647 -0.3902511 0.0030480495
0.010612303 -0.059384812 -0.0019674385 0.88388276 -0.25777712 -0.39025918 0.0018204643
-0.015997134 -0.057018444 -0.0024291673 -0.91181535 0.21536523 -0.34958646 0.00067165203
0.011098412 -0.056969862 -0.0026796821 0.88537902 -0.20414445 -0.41764703 0.0015482041
-0.015313486 -0.053999823 -0.0023431294 -0.89056528 0.25238001 -0.37841481 0.0010820187
0.011828514 -0.054057099 -0.0022936687 0.87145191 -0.10843867 -0.47834352 0.0049672434
-0.014423602 -0.05115255 -0.0023194482 -0.82552826 0.3349497 -0.45421562 0.0010943725
-0.013380706 -0.050175309 -0.0033301038 -0.80440742 0.35922799 -0.47316375 0.0014425508
0.011905355 -0.050939769 -0.0024844164 0.84926164 -0.041114785 -0.52636904 0.0039313226
-0.014078159 -0.048920758 -0.0012443089 -0.80336165 0.35095754 -0.48108086 0.0014246813
-0.012735829 -0.047851205 -0.0025787926 -0.75967437 0.39373505 -0.51755935 0.00093101367
0.011690608 -0.047978573 -0.002472352 0.75139236 0.085177146 -0.65433508 0.0058980961
-0.011782887 -0.045299832 -0.0020626129 -0.70195442 0.41590092 -0.57817513 0.0014157385
-0.010290538 -0.044460751 -0.0030715866 -0.67795819 0.41623256 -0.6059069 0.001135587
0.0096329693 -0.044736363 -0.0035115664 0.58369362 0.21945782 -0.78175449 0.00138434
0.011473861 -0.045094807 -0.0021343334 0.66104722 0.13369958 -0.73833668 0.0054024351
-0.011253527 -0.043042291 -0.0010901564 -0.7110979 0.3882283 -0.58618987 0.0028485407
-0.0094536664 -0.042148586 -0.0022817864 -0.60206878 0.44360989 -0.6638701 0.0028682903
-0.0072405669 -0.041137166 -0.0033870165 -0.3968738 0.47036284 -0.78819418 0.0041280487
0.0066347388 -0.040905494 -0.0037759119 0.3058216 0.33132893 -0.89257735 0.0015977295
0.0087261871 -0.04189764 -0.0031365913 0.47851509 0.26748469 -0.83634639 0.0021274956
0.01115712 -0.042142712 -0.0016592168 0.59419942 0.2313402 -0.77033025 0.0021735078
-0.0084783062 -0.039501607 -0.0014758173 -0.56664991 0.43608892 -0.69909543 0.0024040423
-0.0064033493 -0.039007861 -0.002595132 -0.37786365 0.46461657 -0.80084366 0.0020082691
-0.0036594039 -0.03853444 -0.0034474924 -0.21649624 0.47505301 -0.85290921 0.0019940429
-0.00039697299 -0.038034048 -0.003717395 -0.053857576 0.45456147 -0.88908565 0.0019342966
0.0027847958 -0.038204238 -0.0036503547 0.10369708 0.42036432 -0.90141046 0.0012498393
0.0055928393 -0.038866971 -0.0033234551 0.25297627 0.38303179 -0.88841969 0.0011800036
0.0085993912 -0.039027024 -0.0021950647 0.42550912 0.30547059 -0.85183901 0.0020840748
0.010698114 -0.039539788 -0.0011771454 0.5394063 0.26794016 -0.79827875 0.0016472057
-0.0057927938 -0.036457013 -0.0014881606 -0.43747458 0.45353362 -0.77648127 0.0023251767
-0.0034599649 -0.036109593 -0.0022230286 -0.269297 0.44392833 -0.8546384 0.0028221747
-0.00040009501 -0.036064327 -0.0027770509 -0.072339706 0.43643719 -0.89682192 0.00174535
0.0026543229 -0.036068927 -0.00272182 0.087447308 0.40915918 -0.90826303 0.0013667683
0.0054790075 -0.036109459 -0.0022273648 0.23607871 0.36821762 -0.89926785 0.0017520783
0.0080630863 -0.036376346 -0.0014671201 0.379807 0.31775722 -0.868779 0.0019497102
-0.0030379272 -0.033915166 -0.0011996427 -0.29050779 0.42044607 -0.85955238 0.0028233561
-0.00026036042 -0.033281215 -0.0014378445 -0.10490914 0.41319492 -0.90457946 0.0018199201
0.0026592063 -0.033113159 -0.0014079941 0.045347437 0.3989743 -0.91584015 0.002005812
0.005253111 -0.033597175 -0.0012460158 0.20482643 0.36575335 -0.90789348 0.0013538575
0.0073000891 -0.034168843 -0.00096898514 0.29269165 0.36445639 -0.88402665 0.0035506436
6.5782457e-05 0.034090567 -0.0008740747 -0.12399438 -0.44984445 -0.88445765 0.0028508508
-0.005499016 0.037184164 -0.0011171066 -0.41248396 -0.54596204 -0.7292341 0.0023766239
-0.0033150916 0.036425326 -0.001562073 -0.26349422 -0.50184381 -0.82384682 0.0030061118
-0.00037367572 0.035926733 -0.0018356752 -0.085972108 -0.4799003 -0.87310052 0.0028037548
0.002657797 0.035899717 -0.0018072082 0.091321506 -0.44524902 -0.89073765 0.0012419213
0.005350708 0.03624057 -0.0014904391 0.23973802 -0.41007501 -0.87997967 0.0016665935
0.0076713758 0.037077658 -0.001121717 0.37951317 -0.3340393 -0.86277896 0.0019352636
-0.0082631605 0.039876081 -0.0012480889 -0.55372429 -0.52301437 -0.64795476 0.001191114
-0.0061600353 0.03907074 -0.0021204674 -0.37617445 -0.54147363 -0.75186372 0.0014677471
-0.0035156673 0.038744707 -0.0030224202 -0.23223205 -0.53825361 -0.81015515 0.0023914268
-0.00039843982 0.038361199 -0.0032595855 -0.043797079 -0.52124548 -0.85228217 0.0018638326
0.0027507809 0.038657978 -0.003240031 0.13334481 -0.46494684 -0.87523913 0.0025250395
0.0054192445 0.038998667 -0.0027906552 0.27741072 -0.40988636 -0.86892837 0.00191196
0.0083815707 0.039083146 -0.001653407 0.42738736 -0.32483765 -0.84369451 0.0010681524
0.010445145 0.040215623 -0.00097701186 0.5379644 -0.2991108 -0.78811616 0.0032243412
-0.0092520183 0.042097516 -0.0021180045 -0.60580719 -0.49557108 -0.62242019 0.0034192884
-0.0069693238 0.041201409 -0.0032517053 -0.3849971 -0.5411793 -0.74759763 0.0026767089
0.0061691045 0.041170541 -0.0035190789 0.29971662 -0.41208556 -0.86043906 0.0012322118
0.0085591897 0.041908134 -0.0026745975 0.47585863 -0.29351291 -0.8291012 0.0020594972
0.010782365 0.042157844 -0.0013775373 0.57578856 -0.24797559 -0.77908641 0.0020974779
-0.011642176 0.045245957 -0.001929915 -0.71689856 -0.4651618 -0.51930803 0.0021126147
-0.010141784 0.044333283 -0.0030870927 -0.67495835 -0.48991251 -0.55173993 0.0027750144
0.0092124771 0.044756208 -0.0032808324 0.54429036 -0.23169415 -0.80626655 0.0019542063
0.011240555 0.044980567 -0.0017736064 0.64287382 -0.18372363 -0.74361211 0.0027197443
-0.012644872 0.047825303 -0.0025580467 -0.80329359 -0.41324136 -0.42889506 0.0015419169
0.0097780889 0.047658052 -0.0036471032 0.63254058 -0.14715019 -0.76042038 0.0029066256
0.011314981 0.047959417 -0.0022728103 0.70511287 -0.074088804 -0.7052139 0.0031226068
-0.014232486 0.051059738 -0.0022291595 -0.8967675 -0.31328124 -0.3125107 0.0031564301
-0.013449631 0.050061189 -0.0031389557 -0.85657758 -0.35025352 -0.37894234 0.0020765234
0.011371985 0.050948557 -0.0023556328 0.78177589 0.029892089 -0.62284261 0.0036006675
-0.015026784 0.053736847 -0.0022704706 -0.92227793 -0.27108109 -0.27553296 0.00093560893
0.0099150855 0.055184968 -0.003825041 0.80416048 0.14779934 -0.57574409 0.0068626637
0.011018011 0.053845 -0.0024835691 0.82027578 0.14331688 -0.55372179 0.0079440475
-0.015428443 0.056235779 -0.0029471316 -0.93057793 -0.25138336 -0.266141 0.0006583886
0.0097517483 0.057258662 -0.003209325 0.85542428 0.26746929 -0.44351935 0.0068075163
0.010682761 0.056567777 -0.001881022 0.84800905 0.3520335 -0.39617312 0.0033910917
0.0090038171 0.059862588 -0.0024360442 0.83912385 0.40739593 -0.360416 0.0039922493
0.0064897803 0.063527741 -0.0028697674 0.7689203 0.5586139 -0.31098562 0.0030742744
0.0074944524 0.062235657 -0.0027079785 0.79426557 0.50764269 -0.33382803 0.0027085626
0.003827055 0.066323251 -0.003016951 0.70367098 0.65010035 -0.28673455 0.0020560371
0.0050013941 0.065154694 -0.002980704 0.73348254 0.59730643 -0.32438928 0.0016566654
-0.016469728 -0.056101963 -0.00038824716 -0.91746539 0.21785089 -0.33286369 0.00061022106
0.011981638 -0.057014044 8.9964888e-05 0.90063441 -0.20511997 -0.38312343 0.0014983036
-0.016295554 -0.054007266 0.00051146507 -0.90695268 0.24972457 -0.33922613 0.00061246654
0.012832757 -0.05403614 8.9484034e-05 0.90391654 -0.15048937 -0.40035969 0.002060639
0.013329204 -0.053427096 0.00092939293 0.91085535 -0.15316767 -0.38325208 0.0016054414
-0.015555097 -0.050996311 0.00040126994 -0.89744604 0.26244289 -0.35456219 0.0014793035
0.013657345 -0.050844513 0.00055129797 0.89211243 -0.081880115 -0.44433209 0.003898354
-0.014671357 -0.048108265 0.00050140306 -0.84765154 0.32801256 -0.41700682 0.0009976225
-0.013634041 -0.046886172 -0.00042440236 -0.80019552 0.37122142 -0.47104332 0.00035085963
0.013810665 -0.047938343 0.00035145943 0.8580327 -0.015390999 -0.51336432 0.0053318748
-0.014267423 -0.04580833 0.0014924444 -0.84089828 0.33822393 -0.42248628 0.0011004955
-0.013133459 -0.044860851 0.00031173154 -0.79574871 0.36448815 -0.48366556 0.00067084341
0.0128116 -0.044260904 -0.00069622439 0.73062921 0.11682782 -0.67270517 0.0024466431
0.014065697 -0.045055255 0.00080469967 0.80192357 0.041208256 -0.59600377 0.0060194423
-0.012106517 -0.042125542 0.00072236924 -0.73748255 0.38115498 -0.55753052 0.0014502545
-0.010707035 -0.041176036 -0.00036221981 -0.71141857 0.40382791 -0.57515794 0.0016718991
0.012565898 -0.041857556 -0.00038035796 0.71384412 0.16913959 -0.67957222 0.002535006
0.013886648 -0.042118296 0.00095126958 0.77190006 0.097138755 -0.62827897 0.0052447752
-0.011484831 -0.039658897 0.0015192206 -0.70971298 0.40524995 -0.57626379 0.001436192
-0.0098142717 -0.038828209 0.00027721323 -0.67251813 0.41942206 -0.60975772 0.001089929
0.011946076 -0.038884893 -9.0492191e-05 0.57721579 0.23180294 -0.78300023 0.0024035794
0.013759688 -0.039140444 0.0014681905 0.69575834 0.1622508 -0.69971073 0.0026559914
-0.0088724643 -0.036301378 0.0009715092 -0.62431556 0.42465627 -0.65566546 0.0017884219
-0.0069050393 -0.03558794 -0.00030661054 -0.47824585 0.44782442 -0.75546962 0.0032989087
0.0093525574 -0.035459995 -0.00055491168 0.41878927 0.29063278 -0.8603186 0.0015987125
0.011696349 -0.036061145 0.00061934703 0.55699497 0.24462216 -0.79367286 0.0026875664
0.013473767 -0.036443897 0.0018510087 0.615403 0.20874105 -0.76006997 0.0029427977
-0.0081986524 -0.03415205 0.0016846037 -0.61885154 0.40383944 -0.67374802 0.0010684112
-0.0062737023 -0.033097871 0.00076563942 -0.47165671 0.41877392 -0.77599508 0.0025722359
-0.0036530718 -0.032552499 -0.00027156115 -0.31034517 0.43154323 -0.84702796 0.0023154796
-0.0012722703 -0.032144696 -0.00068934006 -0.13251753 0.43876573 -0.88877654 0.0015464034
0.0059202975 -0.032370307 -0.00061498128 0.22300497 0.36028817 -0.90579313 0.0022284468
0.008658953 -0.032904841 6.5934611e-05 0.33226311 0.3405349 -0.87956655 0.0013190832
0.011384379 -0.03324341 0.0013186564 0.50975209 0.2702544 -0.81677133 0.0021135404
-0.0055958796 -0.030535886 0.0016720819 -0.51010346 0.39508116 -0.76400614 0.0022827694
-0.0034920489 -0.02996888 0.00089369895 -0.34479237 0.38338029 -0.85681838 0.0029306302
-0.00040930964 -0.03014449 -6.8666413e-06 -0.14326049 0.38975513 -0.90970731 0.0017117392
0.0026639085 -0.030133834 -0.00016448635 0.029800026 0.35591772 -0.9340421 0.0014975964
0.0054745269 -0.030120678 0.00015154824 0.18786982 0.34864196 -0.91823399 0.0012989843
0.0085945427 -0.029982649 0.0010963846 0.33914399 0.30172309 -0.89103562 0.0017447416
0.010770065 -0.030535515 0.0018588812 0.46022624 0.28202838 -0.84181464 0.0015335913
-0.0031446065 -0.027654305 0.0017648658 -0.35469654 0.37076768 -0.858325 0.0032966426
-0.00041338522 -0.027147202 0.0012397068 -0.1737619 0.36230478 -0.91571945 0.001952626
0.0026681977 -0.027131062 0.00097348803 0.0071769613 0.34175941 -0.93976009 0.001095465
0.0055144923 -0.027147647 0.0012452952 0.17736663 0.32291019 -0.92966133 0.001657582
0.0080355564 -0.027434999 0.0017510843 0.30086562 0.30559579 -0.90337759 0.0013589459
0.00027553341 -0.025181124 0.0019114076 -0.19348517 0.34434578 -0.91868901 0.0026186099
0.0025695493 -0.024910452 0.0018153535 -0.018120248 0.32106224 -0.94688469 0.0023465049
0.005283535 -0.025152424 0.0018945227 0.15965106 0.29712179 -0.94139802 0.002035754
0.00048181956 0.027767858 0.0019315656 -0.18274637 -0.34340164 -0.92123783 0.0023739631
0.0027231504 0.027452037 0.0018733172 -0.024846449 -0.31319284 -0.94936448 0.0019355592
0.0052278917 0.027605847 0.0019228102 0.12320401 -0.29429838 -0.94773901 0.0015376501
0.0071855355 0.02814709 0.0020830012 0.16293453 -0.28147015 -0.94563568 0.0016450455
-0.0030245599 0.03060909 0.0016307733 -0.37368 -0.38433084 -0.84418786 0.0041833902
-0.00038359547 0.030016143 0.0012123759 -0.19160184 -0.39533469 -0.8983314 0.0025812197
0.0026680396 0.029968504 0.00095057249 0.0030680837 -0.35176614 -0.9360829 0.0014276046
0.0055137468 0.029984102 0.0011756425 0.16374412 -0.32437083 -0.9316498 0.0022904116
0.0081590312 0.03030055 0.0016725822 0.28838256 -0.30294782 -0.90832716 0.0015326259
-0.005765155 0.033435605 0.0015294279 -0.50548899 -0.44607052 -0.73858106 0.0021971925
-0.0035214694 0.032979827 0.00063597359 -0.33246806 -0.43820679 -0.83512866 0.0049120472
-0.00042029296 0.032936167 -0.00015221594 -0.15505561 -0.46184406 -0.87330282 0.0019147478
0.0026632212 0.032951016 -0.00033670571 0.038011279 -0.41198769 -0.91039622 0.0020020998
0.0055016601 0.032976169 -6.1035971e-06 0.19392525 -0.38118121 -0.90393251 0.0016679936
0.0086446702 0.032967944 0.00087951362 0.33266962 -0.31363884 -0.88936025 0.0019711396
0.010919223 0.033287328 0.0017438489 0.44600216 -0.28844073 -0.84728038 0.0015434244
-0.0084378822 0.036525387 0.0015669849 -0.62439197 -0.4635196 -0.62871635 0.0029256113
-0.0064046811 0.035867862 0.00034411013 -0.4462336 -0.50668955 -0.73765934 0.0018326255
-0.0037813773 0.03499895 -0.00047548141 -0.28017125 -0.50908041 -0.81384349 0.0027094444
-0.0018223251 0.034569222 -0.0007893467 -0.25334165 -0.49878588 -0.8288731 0.0018956155
0.0059930002 0.034840751 -0.00067252823 0.22715823 -0.39932173 -0.88822365 0.0017281417
0.0087147793 0.035778336 -0.00014266017 0.33889893 -0.35992432 -0.8692537 0.001447105
0.011571296 0.035980802 0.0012416104 0.52307719 -0.25439319 -0.81343371 0.0016524063
0.013362644 0.03717697 0.002123592 0.63644111 -0.17639126 -0.75088543 0.0030886477
-0.0093405945 0.038955584 0.00061375689 -0.64929938 -0.49118263 -0.5806461 0.003509324
-0.0073742806 0.037900716 -0.00047041714 -0.52675539 -0.54852867 -0.649342 0.005427483
0.0098248208 0.038130209 -0.00054666144 0.49589828 -0.29950717 -0.81509531 0.0017339014
0.011686508 0.038883414 0.00034688943 0.55755675 -0.24604921 -0.79283679 0.0019064384
0.013522997 0.039123993 0.0016835607 0.65231442 -0.18953061 -0.73386925 0.0017542372
-0.011725363 0.042228673 0.00094123319 -0.76918811 -0.42605668 -0.47626173 0.0019640343
-0.010475584 0.041422825 -0.0001858467 -0.72826254 -0.45913672 -0.50875056 0.0016201787
0.01215966 0.041791979 -0.00019166927 0.62443703 -0.21031025 -0.75222868 0.0023949705
0.013838924 0.04192324 0.0013347529 0.73671144 -0.12895197 -0.6637978 0.0034601819
-0.012763163 0.044886515 0.00040322001 -0.83355194 -0.38978013 -0.39148772 0.001314512
0.012621362 0.044790283 -0.00045654169 0.68815851 -0.11943355 -0.71566296 0.0021585203
0.013941451 0.044799931 0.001009872 0.78424209 -0.044445556 -0.61886096 0.004314363
-0.014303893 0.048423219 0.0007197932 -0.89884728 -0.31795311 -0.30162784 0.0011508275
-0.013550377 0.047103375 -0.00010242104 -0.88591707 -0.32816848 -0.32780537 0.0023472856
0.012813143 0.048037224 -0.00063898403 0.76266062 -0.018824287 -0.64652491 0.002641324
0.013775032 0.04788414 0.00076267036 0.83614504 0.051543217 -0.54608124 0.0035552732
-0.014899865 0.050859097 0.0002828291 -0.94171178 -0.24995723 -0.22516726 0.0021674351
0.012820474 0.050902251 -0.00036669016 0.84966868 0.099285893 -0.51788563 0.0034103869
0.013608391 0.050826572 0.0010145209 0.87487835 0.17424303 -0.45191506 0.0035355645
-0.015563246 0.053622071 0.00062898552 -0.95115584 -0.2265019 -0.20976074 0.0010785451
0.012396818 0.053921446 9.8982593e-05 0.88143837 0.2345545 -0.40993959 0.003834622
0.013349603 0.053037103 0.0016579009 0.894979 0.28039774 -0.34697199 0.0023723552
0.011546549 0.056882434 0.00066680595 0.87011015 0.36088082 -0.33566839 0.0017797615
0.0095303552 0.0605499 0.00050206744 0.83668172 0.45249018 -0.30857152 0.00089572516
0.010487346 0.059116278 0.00098213321 0.85669637 0.42418727 -0.29349026 0.0012630271
0.0076186294 0.062900811 -0.00070119143 0.80275691 0.51869333 -0.29417461 0.001724945
-0.016583428 -0.052898522 0.0024649925 -0.92508787 0.23910795 -0.29502499 0.00077802368
0.013848532 -0.052664313 0.0024939454 0.90866768 -0.15665442 -0.38701749 0.0016068367
-0.016444502 -0.050990935 0.0034545637 -0.92023206 0.26174033 -0.29097229 0.0011245408
0.014504764 -0.050684597 0.0032103835 0.93777943 -0.1229619 -0.32473093 0.0018470325
-0.01574751 -0.048006367 0.0033981628 -0.91731793 0.2564213 -0.30459127 0.0020314981
0.015029459 -0.047917977 0.0030703126 0.91652554 -0.072043717 -0.39343449 0.0057080709
-0.014866684 -0.045035422 0.0034705284 -0.87637788 0.30531025 -0.37248823 0.0011932388
-0.013724498 -0.043608982 0.0022849119 -0.80589002 0.37546116 -0.45778826 0.0010498395
0.015551265 -0.044935238 0.0036511994 0.9183234 -0.077943161 -0.38808113 0.005144082
-0.014406618 -0.042580575 0.004323693 -0.85928762 0.31961429 -0.39933893 0.0019362267
-0.013421355 -0.041780841 0.0030700634 -0.82568431 0.34054658 -0.44974822 0.00066550443
0.015353884 -0.041901007 0.003074707 0.8794446 0.0092734164 -0.47591093 0.0049554235
0.016307181 -0.041708957 0.0048459447 0.92103648 -0.045050666 -0.38686204 0.006916095
-0.012578311 -0.039082389 0.0036212732 -0.80695105 0.3577058 -0.46997499 0.00089185417
0.01523185 -0.039007213 0.0032397499 0.82435375 0.1032168 -0.55658531 0.0021858362
0.016310154 -0.039086748 0.0049322564 0.88036692 0.059866022 -0.47049993 0.0049720188
-0.011707155 -0.036426418 0.004143721 -0.74974614 0.37566063 -0.54475671 0.0017824722
-0.010318742 -0.035649605 0.0029089665 -0.72020924 0.39731094 -0.56872028 0.0014889821
0.014814386 -0.03593494 0.0033956952 0.73134023 0.15865278 -0.6633029 0.0034247055
-0.010936756 -0.034045924 0.0046622432 -0.72589201 0.36565095 -0.5825634 0.001614042
-0.0092997951 -0.032950006 0.003574762 -0.68253154 0.38730878 -0.6197924 0.0011544836
-0.0075482768 -0.031973775 0.0024178899 -0.63700217 0.39261302 -0.66338766 0.00069011853
0.012631912 -0.03242413 0.0024368805 0.61571151 0.23333526 -0.75263143 0.0013212967
0.01445295 -0.033083398 0.0037636491 0.66774791 0.20696627 -0.71503687 0.0028118559
-0.0085667707 -0.030316573 0.0043772012 -0.66281039 0.37077555 -0.65054429 0.001585193
-0.0067443945 -0.029843694 0.0028586166 -0.5485484 0.39545748 -0.73668724 0.002698367
0.012024725 -0.029929245 0.00278541 0.50226212 0.25383782 -0.82661909 0.0021805239
0.014167254 -0.030223221 0.0042415429 0.64283764 0.2071068 -0.73747295 0.0020510436
-0.0080783144 -0.028099347 0.0050861514 -0.68503857 0.33491653 -0.64695686 0.00043804542
-0.0062715309 -0.027180258 0.0038471827 -0.55773556 0.36403427 -0.74592894 0.0019014241
-0.0038343347 -0.026347985 0.0026684122 -0.37235594 0.38377535 -0.84502518 0.0030158891
0.0093749566 -0.026555184 0.0025172387 0.32291088 0.28993547 -0.90092504 0.0019186767
0.011733749 -0.027046012 0.0034930469 0.48418713 0.25160006 -0.83800966 0.0026365097
0.013742291 -0.027392538 0.0047053606 0.60666418 0.213762 -0.765679 0.001610835
-0.0055206763 -0.02432753 0.0046298481 -0.59120339 0.32350996 -0.73879623 0.0021493267
-0.0035200394 -0.023954457 0.0036119521 -0.43780437 0.35550749 -0.82579768 0.0045736157
-0.00061807525 -0.023829388 0.002671757 -0.21499585 0.35360104 -0.9103533 0.0022406087
0.0027754004 -0.02331364 0.0024115818 -0.03576583 0.34282407 -0.93871856 0.0021734112
0.0056458539 -0.023605905 0.0024819723 0.13316448 0.31138003 -0.94090897 0.0012922768
0.0085390611 -0.024028489 0.0030247262 0.29355568 0.27952349 -0.9141618 0.0017361487
0.011637419 -0.024012487 0.0043092347 0.46166632 0.22437042 -0.85820866 0.0018150322
0.013445339 -0.025228951 0.0050767637 0.61074317 0.19849196 -0.76654661 0.0016079956
-0.003306285 -0.02130802 0.0044768346 -0.42256269 0.28885195 -0.85907233 0.004029958
-0.00042080635 -0.021090444 0.0035286387 -0.22289258 0.30006236 -0.92751366 0.0020218485
0.0026760595 -0.021068849 0.0030670026 -0.051637102 0.29459953 -0.95422465 0.0019950338
0.0055346396 -0.021076268 0.0032260139 0.12877235 0.28133127 -0.95093137 0.0012845462
0.0084026251 -0.021104151 0.003821128 0.29230016 0.24751033 -0.923742 0.0017327011
0.010845923 -0.021303622 0.0046748482 0.41956076 0.23229247 -0.87750161 0.0020596937
-0.0026360797 -0.018943774 0.0049001216 -0.40879476 0.2889916 -0.86566204 0.0035695918
-0.00036263373 -0.018078323 0.0044142078 -0.25854182 0.27407566 -0.9263038 0.0021293694
0.0026791946 -0.018007625 0.003915634 -0.056233086 0.25359371 -0.965675 0.0013405177
0.0055430559 -0.01801298 0.0040483801 0.12566431 0.2524386 -0.95941818 0.0011674934
0.0083355503 -0.018132251 0.0045792982 0.26371258 0.22925916 -0.936961 0.0016712104
0.010213992 -0.019124787 0.0049392707 0.34419796 0.22088619 -0.91254431 0.00057388406
0.00040091801 -0.015701756 0.004942935 -0.25298738 0.25642288 -0.93286908 0.0036178834
0.0027164791 -0.014968774 0.0047563734 -0.095181309 0.24339132 -0.9652468 0.0031368698
0.0055165682 -0.014970437 0.0048057949 0.061773896 0.22013317 -0.97351187 0.0036205791
0.0075444765 -0.015817933 0.0049492745 0.18784572 0.20413046 -0.96075219 0.00079594442
0.0031619929 -0.013271958 0.0050932146 -0.057745066 0.22209685 -0.97331315 0.0033397635
0.0045971554 -0.013272729 0.0051196641 0.053435847 0.20700546 -0.97687942 0.0025152294
0.0029225629 0.016381677 0.0050396239 -0.10741416 -0.21286549 -0.97115934 0.0027412327
0.0053139371 0.016381755 0.0050417399 0.080846913 -0.20269682 -0.97589844 0.0019387072
0.00037200202 0.018607065 0.0048907753 -0.25945643 -0.26803872 -0.92781329 0.0023351638
0.0026818162 0.018037923 0.0046235467 -0.10111963 -0.24037427 -0.96539891 0.0021410238
0.005548913 0.018038154 0.0046288837 0.092717208 -0.23435996 -0.96771842 0.0014982707
0.0079420432 0.018616837 0.0048858761 0.24607636 -0.22411156 -0.94298494 0.001612095
-0.0026561278 0.021795589 0.0049128709 -0.41634199 -0.2895782 -0.86186063 0.0039617564
-0.00038874056 0.020923886 0.0044144797 -0.2644802 -0.27634794 -0.92394918 0.0017953842
0.0026789631 0.020868 0.0038558543 -0.077409342 -0.25040355 -0.96504188 0.0013103907
0.0055413605 0.020869475 0.0038864547 0.093139865 -0.24295214 -0.96555638 0.0010547505
0.0084126042 0.020894947 0.0044177854 0.25071782 -0.23302531 -0.93959552 0.0011816031
0.010392508 0.021575782 0.0049005351 0.37650478 -0.23395588 -0.8963865 0.0014603793
-0.0032292353 0.024162132 0.0043956735 -0.42897558 -0.2957246 -0.85353786 0.0039976789
-0.00042069051 0.023947889 0.0034872266 -0.23068359 -0.30598709 -0.92366499 0.00150434
0.0026757848 0.023921603 0.0030075538 -0.065594546 -0.2937758 -0.95362103 0.0018020347
0.0055332026 0.023925859 0.0030840989 0.10966022 -0.27624702 -0.95481002 0.0013742808
0.0084381783 0.023988884 0.0036251722 0.27777228 -0.24766798 -0.92817187 0.0015355456
0.01109793 0.024075467 0.0045247693 0.39639109 -0.22913396 -0.88902861 0.001291414
-0.0056205164 0.027296688 0.0046415771 -0.58797848 -0.31890565 -0.7433576 0.0016313161
-0.0035510683 0.027000822 0.0034908163 -0.45587647 -0.33603296 -0.82417142 0.0042156843
-0.0006624792 0.026765628 0.0025663849 -0.22167356 -0.3475275 -0.91109031 0.0023902257
0.0025818595 0.026078708 0.0023284187 -0.045598947 -0.33790135 -0.94007629 0.0019233389
0.0057887388 0.026390383 0.0023919053 0.11132161 -0.31335226 -0.94308954 0.0014131081
0.0086593917 0.026977524 0.0028506436 0.2844384 -0.2660211 -0.92104703 0.0016602232
0.011798078 0.026994314 0.0040755053 0.41925555 -0.23706768 -0.8763696 0.0016288147
0.013598572 0.027768504 0.0048568919 0.53793424 -0.21540506 -0.81500143 0.0012703689
-0.0080761388 0.030964278 0.0049798316 -0.67451602 -0.35225752 -0.64880109 0.001026665
-0.0062507913 0.030036196 0.003874864 -0.5710963 -0.36593506 -0.73480654 0.0041423715
-0.0039057564 0.029449753 0.0026178691 -0.39849088 -0.39288035 -0.82876408 0.0032550499
-0.0018416062 0.028629478 0.0021944023 -0.24670458 -0.41361064 -0.87639207 0.0066031837
0.0094089899 0.029277656 0.0024130261 0.32242343 -0.28071424 -0.90401477 0.001626896
0.01172745 0.029888235 0.0032351003 0.42785475 -0.25266215 -0.8678146 0.0019683831
0.014003282 0.03007175 0.0045192544 0.57436216 -0.21119477 -0.79088873 0.0016124565
-0.0085607758 0.033172354 0.0041519455 -0.68542659 -0.38804364 -0.61612713 0.0030863257
-0.0068045282 0.032522749 0.0029003336 -0.55567241 -0.42388791 -0.71522528 0.0022276246
0.012188574 0.032684401 0.002654047 0.48234355 -0.2535032 -0.83849919 0.002240076
0.014386435 0.033046905 0.0040655839 0.59346718 -0.21275099 -0.77623039 0.0027613542
-0.01109611 0.036915209 0.0046638129 -0.76655066 -0.40251756 -0.5003795 0.0021008973
-0.0095780445 0.035776611 0.0034750868 -0.74171364 -0.41756111 -0.5248844 0.00083729503
0.012891182 0.035287365 0.0022593813 0.58493632 -0.22962405 -0.77789605 0.0013129469
0.014684035 0.03594495 0.0035724263 0.67489219 -0.18539995 -0.71424598 0.0021929943
0.016312826 0.037183389 0.005009783 0.76604652 -0.13216349 -0.62905145 0.0037082729
-0.011766205 0.039228484 0.0038209045 -0.81139964 -0.39178234 -0.43374783 0.0031284722
-0.010589056 0.038244274 0.0027863919 -0.76840383 -0.41849607 -0.48416588 0.0019490216
0.014968484 0.038860586 0.0031826403 0.7525928 -0.1262762 -0.64626491 0.0019348387
0.016300827 0.039065145 0.0046616374 0.7859838 -0.072294898 -0.61400557 0.0030266966
-0.012783265 0.041866049 0.0034106667 -0.83823663 -0.38126627 -0.38986585 0.0015347983
0.015268188 0.0419407 0.0030031167 0.80923772 -0.061108008 -0.58429462 0.0026825033
0.016296893 0.041921668 0.0045474148 0.84585291 0.0078149894 -0.53335887 0.0038569435
-0.014253153 0.045429565 0.0038331901 -0.92347449 -0.30114374 -0.23771252 0.0018316271
-0.013672316 0.044321902 0.003095232 -0.89380831 -0.33516207 -0.29794806 0.0014602575
0.015416605 0.045153849 0.003173606 0.87119412 0.036508061 -0.48957935 0.0038190337
0.01630385 0.044569813 0.0047493316 0.88505471 0.10972854 -0.45236912 0.0029463179
-0.014779638 0.047664404 0.0035393289 -0.93621308 -0.25366792 -0.24322344 0.0026105961
0.015210598 0.047866832 0.0034268694 0.90215582 0.14648372 -0.40577996 0.0042356024
-0.015168853 0.049843099 0.002789495 -0.94891703 -0.2354455 -0.21005225 0.0011281533
0.014448496 0.050910499 0.0031025056 0.91520959 0.22054301 -0.33727166 0.0028789253
-0.015667796 0.052771453 0.0034025735 -0.95028847 -0.23735304 -0.20153254 0.0010580088
0.012909438 0.055096354 0.0029373891 0.89258242 0.31329018 -0.32426202 0.0023072108
0.013640776 0.053741995 0.0035414002 0.90946341 0.27469242 -0.31212237 0.0017225213
-0.016723799 -0.049962711 0.0059875078 -0.94164121 0.22940925 -0.24633951 0.00095980387
-0.01651038 -0.048116993 0.0066427318 -0.93837923 0.24221817 -0.2465252 0.001145546
0.015636342 -0.047833685 0.0062501854 0.93340236 -0.12965639 -0.33458808 0.0014121004
-0.015884861 -0.045039963 0.0066053127 -0.94593716 0.22259696 -0.23590994 0.00087749446
0.01635145 -0.044465765 0.0061304448 0.95583349 -0.10677628 -0.27382687 0.0019809017
-0.014938394 -0.041884989 0.0063109524 -0.89839596 0.2812199 -0.3373425 0.00082286965
0.01669821 -0.042078197 0.0062450231 0.93938762 -0.044466171 -0.33996138 0.0038035621
-0.014507202 -0.03949175 0.0072160508 -0.88829207 0.29136932 -0.35502282 0.0012702974
-0.013668872 -0.038520508 0.0059979758 -0.85963315 0.3236149 -0.39535332 0.0011728059
0.017095823 -0.039011616 0.0068166433 0.93695247 -0.054203365 -0.34522751 0.0034316545
-0.012931092 -0.036065601 0.0064820088 -0.83820778 0.33122554 -0.4332405 0.00078518334
0.016834844 -0.036082566 0.0062239724 0.88004702 0.075818591 -0.46879494 0.0051102894
-0.011809837 -0.033173308 0.006606291 -0.79226112 0.34642354 -0.50230771 0.0018418167
-0.010477615 -0.031947125 0.0053861714 -0.70072192 0.377956 -0.60509336 0.0010933736
0.015844494 -0.032659099 0.0053061447 0.77635646 0.13000008 -0.6167419 0.0059689255
0.01687564 -0.033071969 0.0066970563 0.82705218 0.074391097 -0.55718094 0.0056206146
-0.011170269 -0.030485461 0.0073779928 -0.77842432 0.32522425 -0.53692144 0.0018131984
-0.0098701352 -0.029784823 0.0060542994 -0.74672395 0.34556195 -0.56832242 0.0015690255
0.015537805 -0.029796429 0.0056774435 0.75490445 0.15818083 -0.63647324 0.0024916022
0.016813133 -0.030067867 0.0071186614 0.80234367 0.10583977 -0.58740336 0.0034834365
-0.0091400556 -0.027094379 0.0067593218 -0.72852814 0.34498674 -0.59180313 0.00087218179
-0.0074894535 -0.026093617 0.0055558062 -0.67627144 0.33743539 -0.65482384 0.00075626565
0.015109174 -0.026797825 0.0059909215 0.64585423 0.17888595 -0.74220765 0.0021067334
0.016639642 -0.027048172 0.0075112632 0.75049478 0.13263881 -0.64742911 0.0026130993
-0.0085768634 -0.024466746 0.0075010336 -0.72750735 0.30711687 -0.61352444 0.0012163947
-0.0068601505 -0.023924271 0.006037809 -0.62273157 0.3213276 -0.71341002 0.0021100529
0.012972915 -0.023087736 0.0052949316 0.57171446 0.21869472 -0.79076874 0.0021222841
0.014715306 -0.024066027 0.0063405354 0.61359668 0.19233888 -0.765836 0.0017674941
0.016410941 -0.024421815 0.0078566046 0.71276313 0.13532019 -0.68822753 0.0017017991
-0.0081372466 -0.022502292 0.0079660686 -0.69622725 0.29217017 -0.65567082 0.0005790274
-0.0063484972 -0.021155829 0.0067259138 -0.64260715 0.29343006 -0.70778161 0.0023860536
-0.0044609373 -0.020461049 0.00541161 -0.58392954 0.294696 -0.75642622 0.0017589092
0.012447385 -0.020971548 0.0055275885 0.46013311 0.21202333 -0.86216217 0.0022533382
0.014607915 -0.021085711 0.0069734673 0.60321832 0.18229167 -0.77646476 0.002118411
-0.0057683941 -0.018141843 0.0072806436 -0.61340094 0.26249406 -0.74487329 0.0015811367
-0.0037543364 -0.017874191 0.0058664447 -0.4871392 0.27461705 -0.82902408 0.0033605683
-0.0018610532 -0.016863395 0.0052037812 -0.39943162 0.32201031 -0.85834944 0.0024869367
0.009461578 -0.016782977 0.0051845387 0.27075893 0.21925858 -0.93734479 0.0018505248
0.011668948 -0.017990047 0.0058732736 0.44099998 0.19992445 -0.87495667 0.0018245468
0.014300452 -0.018032849 0.0074338117 0.57546729 0.18117729 -0.79750371 0.0022922107
-0.0053426418 -0.015660206 0.0077930964 -0.6581071 0.22153078 -0.71959651 0.0013271931
-0.003551872 -0.014998585 0.0067065675 -0.51557767 0.24850708 -0.8200146 0.004663243
-0.00072050875 -0.014689445 0.0055151251 -0.27312869 0.2831822 -0.91935229 0.0032474443
0.0014880111 -0.013753954 0.0052155233 -0.10002363 0.21577583 -0.97130644 0.002810044
0.006750626 -0.013753224 0.0051907874 0.11237882 0.16968702 -0.97906959 0.0014428198
0.0086049158 -0.014781558 0.0054338672 0.26314458 0.224988 -0.93815523 0.0015667599
0.01156665 -0.014991757 0.0064929961 0.43301535 0.18427171 -0.88235009 0.0022562649
0.01386317 -0.015169666 0.007719574 0.55500031 0.1565841 -0.81697989 0.0020063748
-0.0033791661 -0.012234287 0.0072706281 -0.50472456 0.18286709 -0.84368986 0.0044964803
-0.00042895263 -0.012100294 0.0060192035 -0.2700673 0.20864631 -0.93996298 0.0025062994
0.0026249373 -0.011934834 0.0054142321 -0.078336753 0.19413798 -0.97784138 0.0025118408
0.0056131119 -0.012013705 0.005403568 0.090245105 0.18820387 -0.97797507 0.0019226032
0.008437315 -0.012097178 0.0059002815 0.22545569 0.18184872 -0.95713151 0.0023177296
0.011579197 -0.012126788 0.0070223375 0.40409589 0.14019176 -0.90390974 0.0019003405
0.013524948 -0.012631986 0.0079196589 0.54161614 0.12923703 -0.83063209 0.001737395
-0.0029038959 -0.0091891978 0.007537941 -0.51150864 0.14719443 -0.84657705 0.0046279803
-0.00043071411 -0.0089954892 0.0065736733 -0.32341012 0.14759624 -0.93467712 0.0036690785
0.0026541515 -0.0091767963 0.0059021437 -0.10628957 0.16214605 -0.98102552 0.0020871253
0.0055616871 -0.0092217261 0.0058795265 0.083564878 0.15640627 -0.98415136 0.0013182282
0.0084456885 -0.0089922128 0.0064019756 0.27190232 0.13267522 -0.95313501 0.0018195738
0.01146048 -0.0090763746 0.0074300957 0.39061171 0.11752627 -0.91302252 0.0017665988
-0.0025199237 -0.0061327275 0.0078511806 -0.52076137 0.11915396 -0.84534603 0.0045711934
-0.00043230783 -0.0058819316 0.0070390902 -0.31953773 0.11696406 -0.94032711 0.003627111
0.0027172957 -0.0060775238 0.0063065253 -0.1643889 0.1129675 -0.97990543 0.0038700048
0.005565743 -0.0061122528 0.006276655 0.125029 0.10662123 -0.98640746 0.0033699078
0.0084520197 -0.0058787847 0.0067813043 0.25967842 0.091519564 -0.96134865 0.001836468
0.011042607 -0.0059577269 0.0075996579 0.38743919 0.084513925 -0.91801322 0.0022553091
-0.0023610732 -0.0034872224 0.0080667334 -0.54508096 0.080406271 -0.83451873 0.003954377
-0.00043328654 -0.0030012615 0.0073283459 -0.33797184 0.10195547 -0.93561751 0.0034359435
0.002689132 -0.0029969381 0.0065968866 -0.16810825 0.073432989 -0.98302954 0.0036188373
0.0055685029 -0.0029966547 0.0065475064 0.11393184 0.072119951 -0.99086744 0.0030272719
0.0084557459 -0.0029993751 0.0070050242 0.24597827 0.058126878 -0.96753085 0.0018368445
0.01087362 -0.0030036899 0.0077323248 0.38350028 0.052408319 -0.9220525 0.0022493582
-0.00043392088 -0.00011688552 0.0075195027 -0.3397505 0.042923197 -0.93953562 0.0036489272
0.0026897881 -0.00011729239 0.006773795 -0.073561594 0.032012399 -0.99677676 0.0056077428
0.0055701551 -0.00011733011 0.0067095119 0.102486 0.029114231 -0.99430829 0.0027679245
0.0084581645 -0.0001170974 0.0071502128 0.23469913 0.021988453 -0.97181934 0.001863176
0.010633379 -0.00011677924 0.007754534 0.38082102 0.019345013 -0.9244464 0.0024607098
-0.00034445501 0.0028189509 0.0075279637 -0.34441873 -0.032543447 -0.93825191 0.0034579583
0.0026899099 0.0030037467 0.0068070008 -0.16660556 -0.0074574105 -0.98599541 0.0029955988
0.0055703497 0.0030031512 0.0067295446 0.097682148 -0.017483013 -0.99506414 0.0025761419
0.0084287981 0.0029711085 0.0071476349 0.22878882 -0.016827695 -0.97333062 0.0016728034
0.010633217 0.002770226 0.0077471263 0.37456661 -0.01979433 -0.92698872 0.002220127
-0.00045458146 0.005987694 0.0074537131 -0.322054 -0.056279968 -0.94504696 0.0032401583
0.0026894705 0.0061229761 0.0066897133 -0.1656936 -0.066035591 -0.98396391 0.0029712939
0.0055691302 0.0061218096 0.0066097374 0.10153645 -0.057845443 -0.99314868 0.0030368946
0.0084887166 0.0060825199 0.0070357784 0.23193474 -0.052529506 -0.97131193 0.0017808792
0.010890764 0.0060006841 0.007730911 0.36686519 -0.05463282 -0.9286685 0.0021737281
-0.0024292828 0.0092024365 0.007989238 -0.52615297 -0.10113532 -0.84435457 0.0038740663
-0.00043286476 0.0090138428 0.007199097 -0.34148434 -0.13146441 -0.93064797 0.0035479977
0.0026886291 0.0089984015 0.0064630467 -0.17479098 -0.11206762 -0.97820699 0.003966378
0.0055668266 0.008996767 0.0063848002 0.11066634 -0.11011215 -0.98773897 0.0037394199
0.0084522003 0.009005392 0.0067949281 0.23997086 -0.099207699 -0.96569753 0.0018449872
0.01120181 0.009082702 0.0076094144 0.36240137 -0.091014408 -0.9275676 0.0019671351
-0.0027795588 0.012031706 0.0077119539 -0.51366901 -0.15986605 -0.84296316 0.0041415645
-0.00043133646 0.011884538 0.0067365672 -0.32850784 -0.16395283 -0.93016237 0.0035271193
0.0026870389 0.011865266 0.0060341656 -0.12599871 -0.18749517 -0.97415084 0.0021363667
0.0055626282 0.0118636 0.0059731845 0.063899472 -0.17687336 -0.98215717 0.0015030984
0.0084455963 0.011875294 0.0063991467 0.24754608 -0.15361606 -0.95662057 0.0017338729
0.011552303 0.011931547 0.0073782518 0.36745802 -0.13377377 -0.92036909 0.0019423086
0.013529716 0.013125833 0.0080899568 0.51319402 -0.11606185 -0.85038906 0.001702448
-0.0032213801 0.015009219 0.0073242108 -0.50737351 -0.21628624 -0.83414173 0.0040369667
-0.00042924774 0.014983078 0.0061044209 -0.29297003 -0.22701323 -0.92878067 0.0022449698
0.0026527047 0.01476803 0.0054919864 -0.10495383 -0.22851348 -0.96786684 0.0022979788
0.0055897119 0.014766946 0.005459433 0.078074344 -0.21165909 -0.9742201 0.0017992165
0.0084366016 0.01497479 0.0058610197 0.2306779 -0.19960563 -0.95233679 0.0016509609
0.011524264 0.014948063 0.0068646381 0.38329732 -0.17519408 -0.90685731 0.0016542703
0.013684372 0.015044736 0.0078818537 0.50993997 -0.15831633 -0.84551591 0.0017796358
-0.0053837746 0.018616028 0.0077844025 -0.66524458 -0.24052471 -0.7068221 0.0017313932
-0.0035994649 0.017954396 0.0066682142 -0.5409174 -0.25283012 -0.8021754 0.0031887772
-0.00087014842 0.01776321 0.0054761413 -0.29368988 -0.27949664 -0.91412687 0.0023971519
0.0088107344 0.017613573 0.0053475848 0.23518845 -0.24347906 -0.94095927 0.0011524055
0.011615139 0.018028608 0.0062406175 0.3784039 -0.20395893 -0.9028905 0.0014840391
0.014200064 0.018086351 0.0075727035 0.52004433 -0.17657046 -0.83568931 0.001751475
-0.0058408957 0.021201812 0.0073071341 -0.64026511 -0.26478204 -0.72107631 0.0034748083
-0.0037179431 0.020785715 0.0058007366 -0.46552199 -0.29913116 -0.83295244 0.002949205
-0.0018611596 0.019737657 0.0052202023 -0.41626987 -0.31170031 -0.85414416 0.0022121188
0.011814705 0.020800747 0.0056808908 0.4097892 -0.22285575 -0.88453829 0.0014536299
0.014596811 0.021092337 0.0071652462 0.54737854 -0.18789189 -0.81552035 0.0020647158
-0.0081376117 0.025158402 0.0079839202 -0.77941644 -0.24822479 -0.57523429 0.0021607757
-0.0063627302 0.023944056 0.0067555225 -0.64230669 -0.28271109 -0.71240193 0.0034366376
-0.0044682836 0.023308558 0.0053938073 -0.58022135 -0.30013755 -0.75713974 0.0013121208
0.012656674 0.02349491 0.0053975112 0.43194818 -0.21985045 -0.87469226 0.0015689014
0.014687971 0.023877535 0.0065695769 0.56230485 -0.18572573 -0.80580348 0.003027471
0.016492382 0.024350736 0.0078911204 0.63456219 -0.15963671 -0.75620568 0.0021096019
-0.0083642518 0.027202079 0.0073035811 -0.72334945 -0.29582551 -0.62390131 0.0016985699
-0.0069000968 0.026706509 0.0060439166 -0.62581784 -0.31005114 -0.71569568 0.0018171162
0.014842769 0.026814487 0.0059806467 0.58050436 -0.19256876 -0.79115862 0.0014016024
0.016743494 0.026953159 0.0075319088 0.68053544 -0.1525854 -0.71665138 0.0017171995
-0.0090741692 0.030061986 0.0067787445 -0.71792752 -0.35087183 -0.60122287 0.0018083566
-0.0074875136 0.029202614 0.0054548061 -0.67451727 -0.35225508 -0.64880097 0.001028258
0.015438198 0.029936045 0.0056821979 0.61104393 -0.17492785 -0.7720269 0.0022140075
0.016950173 0.030018382 0.0071204151 0.72456533 -0.13162629 -0.67652023 0.0026610284
