# .PCD v0.7 - Point Cloud Data file format
VERSION 0.7
FIELDS x y z normal_x normal_y normal_z curvature
SIZE 4 4 4 4 4 4 4
TYPE F F F F F F F
COUNT 1 1 1 1 1 1 1
WIDTH 562
HEIGHT 1
VIEWPOINT 0 0 0 1 0 0 0
POINTS 562
DATA ascii
-0.043582559 -0.031519931 0.010512489 -0.93369126 -0.00030602486 -0.35807896 4.9116384e-06
0.0084155025 -0.031300437 0.0098827565 0.17357364 -0.20414986 -0.9634288 0.021771207
0.010386406 -0.031332649 0.009774507 0.25518146 -0.20985028 -0.94384605 0.022153985
0.012987577 -0.031253774 0.010853763 0.41768032 -0.25851887 -0.87104028 0.015894491
-0.04358663 -0.028556501 0.010520269 -0.93367767 -0.00028801794 -0.35811451 2.3784205e-05
0.0081832549 -0.02837286 0.0093417997 0.16292185 -0.019158667 -0.986453 0.024026094
0.01028817 -0.028501196 0.0095566278 0.1558813 -0.11121326 -0.98149514 0.028617691
0.013134297 -0.028192937 0.010036414 0.41891158 -0.098286882 -0.90269202 0.019828584
0.015250864 -0.027836258 0.011867473 0.40319079 -0.10971349 -0.90851533 0.01564765
-0.043574002 -0.025668353 0.010485038 -0.9304139 -0.1055008 -0.3509981 0.0065984353
0.0080975406 -0.025265854 0.0091351904 0.38394061 -0.010250501 -0.92330092 0.034501251
0.0094041349 -0.025649445 0.0094637508 0.013544708 -0.010183813 -0.99985641 0.024122197
0.013315737 -0.025423592 0.0099008214 0.37479928 -0.038022183 -0.92632598 0.026103079
-0.045252979 -0.021604853 0.011505927 -0.97291517 -0.13332683 -0.18883836 0.010534339
-0.044526722 -0.022239665 0.010012628 -0.91747826 -0.19335422 -0.34763169 0.0072484836
0.0082776537 -0.022441722 0.0091989757 0.18524981 -0.049302932 -0.9814539 0.022168353
0.0097011831 -0.022482231 0.0095827263 0.038119938 0.029254436 -0.99884492 0.025594339
0.013453081 -0.022445651 0.010030367 0.41204819 0.070267439 -0.90844858 0.026964074
-0.045239974 -0.019452246 0.011470936 -0.99177355 -0.030539086 -0.12430913 0.0086860424
-0.044620305 -0.019561285 0.0098555572 -0.93757844 -0.031854089 -0.34631202 0.0099110128
0.0080382824 -0.019611876 0.009372903 0.28473648 0.00058827852 -0.95860571 0.03005396
0.010153919 -0.019162579 0.0095439274 0.1268021 0.11922155 -0.98473728 0.028651029
0.013277542 -0.019527279 0.010369314 0.53408223 0.24597025 -0.80886024 0.0094590541
-0.045225456 -0.016517101 0.011430643 -0.9848665 0.0072084931 -0.17316498 0.0060425545
-0.044647161 -0.016510865 0.0099228853 -0.96082741 0.0061094719 -0.27708018 0.0067173261
0.0081423903 -0.016561961 0.0098503362 0.3301681 0.24806686 -0.91074246 0.02656839
0.010456691 -0.016381027 0.010158787 0.2562952 0.28088966 -0.92488587 0.017671008
0.013085294 -0.016796486 0.011134867 0.55336034 0.32228735 -0.76806462 0.014198929
-0.045191843 -0.013595857 0.011340207 -0.99120104 -0.0043251901 -0.13229412 0.0063541182
-0.044672769 -0.013422814 0.0099869827 -0.96904051 0.017960148 -0.24624793 0.007443849
0.0082647605 -0.013604198 0.010298099 0.62155575 0.1066615 -0.77607465 0.027854728
0.010643394 -0.014055086 0.011134359 0.52722245 0.32946515 -0.78325558 0.037284959
0.012204722 -0.014609307 0.01150454 0.44378546 0.46974614 -0.76314682 0.02484259
-0.04520236 -0.010601603 0.011365508 -0.99243617 -0.015767366 -0.12174553 0.0065300572
-0.044665948 -0.010449886 0.0099663083 -0.97076792 -0.012024309 -0.23971902 0.0081337104
0.0081010405 -0.010454651 0.010135414 0.77346015 0.10251247 -0.62550038 0.0081657758
-0.045244113 -0.007486457 0.01147171 -0.99108869 -0.02102584 -0.13153352 0.0063923281
-0.044669017 -0.0075280368 0.0099720731 -0.95738 -0.00086773315 -0.28883028 0.0059560328
0.0079793623 -0.0074668047 0.009982531 0.80509096 0.0049919686 -0.59313035 0.00012203038
-0.045252848 -0.0045675668 0.0114921 -0.98691165 0.012605775 -0.1607687 0.0057415045
-0.044664398 -0.0044432301 0.0099575324 -0.95662999 0.00049517566 -0.29130545 0.0059981192
0.0079556927 -0.0046598492 0.0099537652 0.80121511 0.0039823037 -0.59836322 0.00016748586
-0.04522359 -0.0016322006 0.011413476 -0.99187034 0.012084813 -0.12667754 0.0067790295
-0.044662625 -0.0014667244 0.0099504832 -0.964975 -0.00014054295 -0.26234204 0.0071417168
0.0083713289 -0.0015505347 0.010481635 0.80697852 -0.0005974315 -0.59058052 0.00040928056
-0.045232181 0.0014258294 0.011433418 -0.98907799 -0.0069281431 -0.1472303 0.0080980835
-0.044659544 0.0015153127 0.0099399136 -0.96532494 -0.0038123168 -0.26102337 0.0078133401
0.0082499208 0.0013700374 0.010329183 0.78628081 -0.066755585 -0.61425257 0.007876209
-0.045242038 0.0045203441 0.011456563 -0.9884311 -0.01743228 -0.15066567 0.0088724559
-0.044626281 0.0044676908 0.0098510301 -0.95657307 -0.00013476692 -0.2914927 0.0057844413
0.0081292838 0.0042674365 0.010177515 0.68562192 -0.027302917 -0.7274456 0.0079534976
0.010506781 0.0048972261 0.01152607 0.80769706 -0.063129403 -0.58620822 0.022285953
-0.045218889 0.0075990758 0.011393659 -0.98662013 0.011728657 -0.162614 0.0071717016
-0.044621367 0.0073502497 0.0098359194 -0.95797879 -0.0010396261 -0.28683728 0.0058920248
0.0079950001 0.0074983174 0.010008896 0.67645735 0.016213855 -0.73630339 0.0077699814
0.010195045 0.0074299965 0.010905056 0.8101728 0.0010842399 -0.58619022 0.024105374
-0.045173641 0.010469824 0.011273342 -0.98528558 0.0059677479 -0.17081192 0.0092757596
-0.044626698 0.010447518 0.0098472675 -0.96271867 0.00021313917 -0.27050442 0.0067142844
0.0078616319 0.010701663 0.0098412037 0.72084141 0.062377863 -0.69028741 0.0070541664
0.0094523625 0.010351597 0.011241364 0.79506028 0.035562579 -0.60548693 0.013890223
-0.045218412 0.013392411 0.011387858 -0.99143952 -0.01379115 -0.12983629 0.0089191459
-0.04464281 0.013576977 0.0098865358 -0.95494044 0.0064641326 -0.29672709 0.0061496706
0.0079560224 0.013798609 0.0099312421 0.62971336 -0.16162197 -0.75982857 0.024563558
0.0090429345 0.013183065 0.011381567 0.7470265 -0.12633333 -0.6526801 0.015310073
-0.045241702 0.01649054 0.011446049 -0.9846006 -0.018945355 -0.17378956 0.0090124281
-0.044641927 0.016540987 0.0098819183 -0.95083278 0.010303028 -0.30953336 0.0071370346
0.0079787094 0.016526502 0.0097858021 0.49462488 -0.19207171 -0.84761709 0.032364663
0.010300053 0.016451901 0.010186162 0.26687664 -0.27979305 -0.92222166 0.01750103
0.012621173 0.01713565 0.010714257 0.36561421 -0.28669798 -0.88551146 0.02170529
-0.045211654 0.019532239 0.011365094 -0.98948812 0.065848671 -0.12875217 0.01251069
-0.044666648 0.019454682 0.0099440021 -0.94127113 0.058652431 -0.33251864 0.0092120683
0.0080851596 0.019467954 0.0094667561 0.34675702 -0.051205762 -0.93655628 0.03404627
0.010629497 0.019450188 0.0095702577 0.21149896 -0.13013692 -0.96867573 0.02773574
0.013200366 0.019598288 0.010403447 0.43078563 -0.13845529 -0.89177006 0.015613627
0.015042693 0.020992488 0.01168918 0.57925743 -0.091262035 -0.81001985 0.0060311356
-0.04516995 0.022019351 0.011253196 -0.9629885 0.1608226 -0.21630818 0.013548055
-0.044234466 0.022866406 0.010158055 -0.9213329 0.19480035 -0.3364498 0.0066930284
0.0081167752 0.022428714 0.0091851829 0.24229307 0.045598462 -0.96913099 0.026428724
0.0098229405 0.022359133 0.0095237112 0.063007779 -0.037855171 -0.9972949 0.022446603
0.013304594 0.022596627 0.0099498862 0.49897516 -0.086237088 -0.86231494 0.014079637
-0.043611631 0.02551952 0.010539706 -0.93436313 0.11830833 -0.33610827 0.0072928197
0.0081330761 0.025516262 0.0091366479 0.31416029 0.017357765 -0.9492113 0.028055731
0.0094999019 0.025513744 0.0094834771 0.030774165 0.014913097 -0.9994151 0.024490746
0.013293225 0.025549849 0.0098627796 0.5118565 0.022065913 -0.8587876 0.018531149
0.015602672 0.025679845 0.011912609 0.63907599 0.075669572 -0.76541233 0.0056503993
-0.043618914 0.028503018 0.010556553 -0.93171686 0.00032743343 -0.36318532 0.00020174395
0.0081709344 0.028510988 0.0093069701 0.27596173 0.024875073 -0.96084672 0.043016359
0.009941807 0.028762517 0.0095747812 0.13073917 0.1132 -0.98493296 0.026797539
0.013309139 0.028479895 0.010210565 0.5635463 0.16066347 -0.8103103 0.01340941
-0.04366665 0.031232854 0.010679069 -0.9233157 -0.010085967 -0.38390952 0.00093442365
0.0083420966 0.031572301 0.0098235877 0.35355362 -0.041764531 -0.93448144 0.034160454
0.010402252 0.031529274 0.0097967833 0.23657428 0.076418027 -0.96860361 0.026952593
0.012971617 0.030908125 0.01051833 0.49052152 0.22696045 -0.84135467 0.030216642
-0.043390837 0.034042671 0.009963314 -0.93832862 -0.084687598 -0.33521247 0.0056235683
0.010239254 0.03306843 0.0095520113 0.23657946 0.076435745 -0.96860093 0.026954167
-0.048545271 0.038636733 0.010690808 -0.56440765 -0.80893904 -0.16450448 0.011993819
-0.045355175 0.037439048 0.010746073 -0.615731 -0.71782196 -0.32497227 0.027393505
-0.044179354 0.036665764 0.010011851 -0.70152336 -0.65756804 -0.27471671 0.032082941
-0.051037103 0.041704476 0.0099222604 -0.85430467 -0.50501961 -0.12295856 0.024157632
-0.050354533 0.040607851 0.010387458 -0.8980521 -0.42396823 -0.11727469 0.015608648
-0.051425871 0.0436619 0.010401223 -0.96002984 -0.23330605 -0.15463161 0.0061096288
-0.051904678 0.046669278 0.010195035 -0.99215162 -0.073613323 -0.10107572 0.0047042747
-0.052066207 0.049465433 0.010329407 -0.98977065 -0.025605831 -0.14035085 0.004340624
-0.051932871 0.052491259 0.010302708 -0.9809562 0.13792251 -0.13675658 0.0059037772
-0.051473573 0.055495009 0.010309757 -0.95945555 0.25329366 -0.12364228 0.0077885017
-0.050987829 0.05689133 0.011919852 -0.9458468 0.28050214 -0.1633784 0.010196352
-0.05109698 0.057317067 0.010063007 -0.92168981 0.37497053 -0.099423379 0.019018328
-0.050153945 0.059094518 0.010250286 -0.82569736 0.52124763 -0.21569604 0.019972822
-0.048729703 0.060773496 0.010801156 -0.60791075 0.76883829 -0.19832329 0.011036575
-0.046545669 0.06210497 0.010463619 -0.39961767 0.8961404 -0.19297212 0.0035728971
-0.044143479 0.062730722 0.0099170087 -0.31106362 0.91950083 -0.24032812 0.00074430631
-0.043086085 0.063394248 0.010910916 -0.30753037 0.92007387 -0.24267071 0.00073698087
-0.040479682 0.064134739 0.010477241 -0.29579234 0.91421318 -0.27698588 0.0003543018
-0.03746818 0.065109305 0.010464453 -0.28250003 0.91605955 -0.28465551 0.00047378571
-0.034904826 0.065657884 0.0099339643 -0.26255375 0.91821373 -0.29656205 0.00047585406
-0.032796532 0.065974176 0.0092838146 -0.23453458 0.92773777 -0.2903381 0.00079647085
-0.034063932 0.066274084 0.011063377 -0.25327802 0.92767394 -0.27435613 0.00050997996
-0.031496499 0.066787876 0.010519714 -0.24218351 0.93017566 -0.27589932 0.00082380831
-0.028465828 0.0676293 0.010453862 -0.24935724 0.93342382 -0.25795549 0.0015675434
-0.025621675 0.068414502 0.010250889 -0.28041786 0.92924583 -0.24055748 0.0027651226
-0.023380486 0.068812549 0.0094530201 -0.29338846 0.92631453 -0.23635684 0.0043476918
-0.024366366 0.069094636 0.011368149 -0.24746338 0.95246851 -0.17766686 0.0054227398
-0.022437328 0.069433533 0.010539266 -0.23199166 0.96065086 -0.15274104 0.006415389
-0.019614475 0.070231855 0.010302969 -0.25816998 0.95491832 -0.14655811 0.0076671466
-0.016605077 0.071104862 0.010320146 -0.29288477 0.95355254 -0.070400164 0.0063364501
-0.01408257 0.071769655 0.010511029 -0.30648687 0.95039719 -0.053018656 0.0067285099
-0.012797378 0.072176866 0.010046545 -0.2459828 0.96861827 -0.035653301 0.0083731115
-0.01063745 0.072658025 0.010253304 -0.23363511 0.97232419 -0.00052345934 0.0093814721
-0.0075487811 0.073371038 0.010306116 -0.25783721 0.96360272 0.070638828 0.0066959416
-0.004411133 0.074062914 0.010374417 -0.23264548 0.95852751 0.16462392 0.0036041029
-0.0017080437 0.074661531 0.010310498 -0.22870551 0.9501099 0.21209659 0.0023008625
0.0012726231 0.074696966 0.011696554 -0.17351542 0.92875588 0.32757416 0.0019040341
0.0043678493 0.07487122 0.011833883 -0.0076073622 0.89813513 0.43965375 0.0036021289
0.0077436264 0.074711002 0.011508819 0.11690772 0.8633033 0.49095827 0.0024670099
0.010678471 0.074417718 0.011045222 0.14908081 0.83174688 0.53476369 0.00090739306
0.013550478 0.074331239 0.010209645 0.15520954 0.81826282 0.55349439 0.0012650621
0.016183317 0.074018404 0.0096158367 0.17085031 0.81549805 0.55296767 0.00069609098
-0.000728124 0.07520131 0.0092173871 -0.21904942 0.96180111 0.16418295 0.0025583953
0.0010096948 0.075284526 0.010195305 -0.18991585 0.95555109 0.22550851 0.0023123308
0.0039400193 0.075730994 0.010029221 -0.085843094 0.94923657 0.30262327 0.0025191174
0.0068980921 0.075700626 0.009965675 -0.021964554 0.94519055 0.32577965 0.0024832343
0.010057059 0.075372778 0.0098251682 0.11376762 0.85634971 0.50370848 0.0028853752
0.012602666 0.07522928 0.0093522742 0.15518074 0.81827605 0.55348289 0.001275474
-0.048512515 -0.061060064 0.012844987 -0.80675721 -0.56804305 -0.16269562 0.014285193
-0.05145384 -0.058278222 0.01310327 -0.95588577 -0.282278 -0.081250206 0.0083092516
-0.050821211 -0.059100084 0.012256335 -0.91451484 -0.38690472 -0.11818369 0.010256168
-0.052107658 -0.055412795 0.013047826 -0.97392523 -0.17451999 -0.14495677 0.0037416741
-0.052584965 -0.052523945 0.01305442 -0.9869923 -0.10219556 -0.12410541 0.0034735929
-0.052735519 -0.04950681 0.012980002 -0.99207938 -0.0085579501 -0.12532046 0.0027686183
-0.05258207 -0.04643859 0.012965617 -0.98743945 0.10300517 -0.11980477 0.0030531564
-0.052187473 -0.043376129 0.013149214 -0.97073954 0.20499559 -0.12506618 0.0036805347
-0.051603395 -0.040550802 0.013409178 -0.87439096 0.45176458 -0.17705706 0.029835248
-0.050617296 -0.039552163 0.012213255 -0.85119033 0.44400784 -0.27987859 0.023613134
-0.051157091 -0.03873061 0.013509095 -0.68706512 0.72163069 -0.084798135 0.032273654
-0.049245667 -0.038299724 0.013428961 -0.49973401 0.86134124 -0.091417842 0.024459071
-0.046510324 -0.037061632 0.013519389 -0.58790976 0.78152102 -0.20877504 0.038746815
-0.044617783 -0.036732856 0.012990929 -0.74424362 0.59256423 -0.30817035 0.038125172
0.011014353 -0.037657369 0.014220613 0.72551537 0.67428333 0.13772951 0.043023694
-0.045183599 -0.034403011 0.014688842 -0.92582089 0.16764845 -0.3387472 0.022075437
-0.04456079 -0.034659307 0.013065915 -0.90760767 0.24728607 -0.33926082 0.036828604
-0.045132086 -0.031662669 0.014552769 -0.94478846 -0.00030424906 -0.32768098 0.00033139033
-0.044586014 -0.031520482 0.013128616 -0.94043428 0.0015101593 -0.33997208 0.00023197183
-0.045179628 -0.028457362 0.014550742 -0.94569141 -0.0024615985 -0.3250564 0.00033736139
-0.044577479 -0.028512396 0.013103879 -0.93895406 0.00069785479 -0.34404171 0.00019834113
-0.045190211 -0.025482245 0.014698097 -0.93650049 -0.04026049 -0.34834746 0.0024497509
-0.044561058 -0.025618166 0.013058855 -0.94906867 -0.062391758 -0.30883002 0.0053114705
-0.04513694 -0.022432512 0.014556742 -0.9511525 -0.10676532 -0.2896724 0.010389615
-0.044725265 -0.023130437 0.013484973 -0.96551698 -0.10120609 -0.23986292 0.01195534
-0.045400172 -0.019121297 0.013331362 -0.97845411 -0.040447395 -0.20246404 0.0170954
-0.044827253 -0.019271903 0.013626602 -0.98277819 -0.026572755 -0.18286878 0.022677261
0.015229316 -0.019637242 0.012358513 0.53574657 0.30752245 -0.78638768 0.011339264
-0.0453614 -0.016501414 0.013274635 -0.97440785 0.0050104931 -0.22473156 0.015144977
-0.044800431 -0.016409036 0.013555065 -0.97851425 -0.0075779073 -0.20603968 0.021840625
0.014142723 -0.016278327 0.013026311 0.58168733 0.41714615 -0.69830436 0.013479528
-0.045276482 -0.013590924 0.013609923 -0.97459155 0.02227623 -0.22287872 0.015624228
-0.044773899 -0.013565832 0.013483971 -0.97833425 0.013634713 -0.20658246 0.021475868
0.010898974 -0.013300102 0.013014392 0.61027622 0.42583272 -0.66800416 0.02018209
0.012715376 -0.013746738 0.013455414 0.44278246 0.44686311 -0.77733982 0.021062437
-0.045236994 -0.010699893 0.013747014 -0.97431779 0.012251541 -0.22484367 0.014138394
-0.044807754 -0.010419862 0.013570295 -0.97830415 0.0080186268 -0.20701845 0.018964909
0.010961166 -0.010285275 0.014101871 0.70385563 0.19700997 -0.6824767 0.01954902
-0.045358974 -0.0071100178 0.013632923 -0.95979476 -0.0099213328 -0.28052732 0.014768009
-0.044826943 -0.0075207194 0.013618072 -0.98033845 -0.016540233 -0.19662912 0.020654075
0.01093702 -0.00747514 0.014191381 0.77303261 0.12244785 -0.6224364 0.0077554006
-0.04535811 -0.0044003967 0.013682019 -0.94418502 -0.01218647 -0.32919022 0.014686137
-0.044837214 -0.0044605806 0.013643039 -0.97871703 -0.0011123606 -0.20521127 0.020887747
0.010846693 -0.0043960502 0.014047335 0.81621271 0.013323584 -0.57759792 0.00011622305
-0.045276161 -0.0015124311 0.014009602 -0.94960177 -0.00066680746 -0.31345809 0.018513177
-0.044810139 -0.0015577012 0.013570298 -0.97477621 0.028874651 -0.22130889 0.023981553
0.010791711 -0.0013973478 0.01415659 0.82727373 -0.037650026 -0.56053603 0.0059060534
-0.045299273 0.0014024737 0.014180978 -0.94000894 -0.029353365 -0.33988479 0.020109696
-0.044780456 0.0015485461 0.013490614 -0.96360165 -0.03403239 -0.26516742 0.029573355
0.010776922 0.0015395624 0.014191383 0.83117139 -0.020477684 -0.55563921 0.0081031835
-0.045618474 0.0047047487 0.013452988 -0.95237941 -0.050958809 -0.30062696 0.018901629
-0.044850662 0.0044641546 0.013671787 -0.9666 -0.0053999312 -0.25623256 0.027895674
0.01073366 0.0044387071 0.014323425 0.84918165 -0.048837353 -0.52583796 0.014519081
-0.045708518 0.0075601437 0.014025454 -0.92584705 -0.0072860499 -0.37782815 0.015464465
-0.044830509 0.0074617453 0.013617382 -0.96282452 0.01748967 -0.2695609 0.02577344
0.010824447 0.0071976953 0.014368738 0.85738134 -0.045456428 -0.51267052 0.015994361
-0.045541588 0.010574955 0.013952911 -0.93920141 0.01210078 -0.34315366 0.017950751
-0.044839609 0.010545987 0.013638775 -0.95970947 0.00087103609 -0.2809929 0.027688172
0.01098382 0.01057511 0.013758622 0.80711377 0.083115049 -0.58451635 0.014763298
-0.04540338 0.013316527 0.014198472 -0.93318045 -0.04284903 -0.35684469 0.020265879
-0.044810176 0.013559896 0.013560237 -0.9560343 -0.013894641 -0.29292539 0.028631601
0.01134973 0.012379303 0.014003246 0.71119225 -0.2245049 -0.6661855 0.042497404
-0.045714598 0.016549934 0.013710714 -0.94927567 -0.0085058762 -0.31433007 0.019653065
-0.044781066 0.016552329 0.013482295 -0.95981044 -0.026983144 -0.27934891 0.027200218
-0.045577317 0.019470783 0.013676996 -0.96173006 0.051819179 -0.269054 0.022829095
-0.044832755 0.020010434 0.013728476 -0.95677352 0.04839823 -0.28677878 0.024399718
-0.045510147 0.022394292 0.014360723 -0.89685202 0.048594508 -0.4396534 0.018143984
-0.044627726 0.022693062 0.013190758 -0.95379508 0.10719912 -0.2806837 0.01804537
0.015816333 0.023771415 0.012285377 0.69224238 0.036207959 -0.72075623 0.0049093929
-0.045489009 0.02553021 0.014601692 -0.86080986 0.011817317 -0.50878948 0.0039798892
-0.044580281 0.025453987 0.013065117 -0.90807909 0.074028693 -0.41220382 0.012333088
0.015764246 0.025953179 0.012316984 0.70090085 0.077937618 -0.70898783 0.0029688571
-0.045637492 0.028491134 0.014630429 -0.8706314 0.0002688572 -0.49193588 0.0043159956
-0.044618893 0.028559692 0.013163786 -0.89038754 -0.00054335163 -0.45520312 0.0036178399
0.015039156 0.029817248 0.01229542 0.55028635 0.18155999 -0.81499755 0.013750344
-0.045533977 0.031430386 0.014588958 -0.88911682 0.0071978942 -0.45762375 0.0057590213
-0.04459146 0.031166913 0.01309035 -0.88972545 -0.016092753 -0.45621225 0.0028499141
0.015316221 0.030018259 0.012971188 0.54550302 0.13536324 -0.82710534 0.013756474
-0.045622949 0.034483742 0.014607035 -0.87219012 -0.050243143 -0.48658001 0.0066320761
-0.044609096 0.034612041 0.012920756 -0.9202261 -0.15058003 -0.36126122 0.015584117
-0.04852936 0.038362987 0.013309881 -0.51772827 -0.84068805 -0.15874857 0.004320302
-0.046054181 0.036851879 0.013829634 -0.73634034 -0.55995595 -0.37980548 0.029692657
-0.044893228 0.036423448 0.01365955 -0.74910074 -0.55036205 -0.36871368 0.032125484
-0.051529061 0.040764909 0.013141594 -0.94771039 -0.30802074 -0.08347588 0.011163131
-0.050713122 0.040004153 0.012258038 -0.89526254 -0.35169974 -0.27351832 0.02167464
-0.052119095 0.043488044 0.013055292 -0.97562307 -0.17853017 -0.12761916 0.0037335276
-0.052579682 0.046527222 0.013021308 -0.98888588 -0.098739125 -0.11115459 0.0030103864
-0.052805956 0.049587339 0.013117939 -0.99369651 -0.0043418203 -0.11201942 0.0028217917
-0.052660342 0.052582473 0.013078948 -0.98397952 0.11884022 -0.13289599 0.0051444485
-0.052239552 0.055548247 0.013129602 -0.96467215 0.21477598 -0.15257448 0.0058018714
-0.050968386 0.056780525 0.012012977 -0.90008384 0.33046252 -0.28397813 0.025905184
-0.051640663 0.058448106 0.013378523 -0.88690585 0.4152022 -0.20249747 0.024577633
-0.050706495 0.058864504 0.012152714 -0.84233034 0.45971492 -0.28132135 0.025413394
-0.051196996 0.060205948 0.01380695 -0.72753739 0.67367452 -0.12981541 0.042081803
-0.049092177 0.060906958 0.013423756 -0.60314608 0.79180813 -0.096201599 0.024623515
-0.046735566 0.062550373 0.013436422 -0.47221163 0.88104904 -0.027726326 0.0063387211
-0.04532193 0.06309659 0.013559022 -0.35251871 0.93525988 -0.031930313 0.0071047931
-0.043493271 0.063752353 0.013427998 -0.32878739 0.94111049 -0.078803308 0.0043068202
-0.040464219 0.064852566 0.013415094 -0.34114698 0.9351849 -0.095120296 0.0028795812
-0.038016144 0.065687478 0.013209206 -0.31663835 0.93971777 -0.12911494 0.0034551679
-0.036636513 0.066211224 0.013811525 -0.27035332 0.95308268 -0.13617085 0.0030750327
-0.034469843 0.06675034 0.013421513 -0.23827553 0.96142125 -0.13745524 0.0022931669
-0.031456396 0.067489929 0.013450548 -0.23671995 0.96184641 -0.13716812 0.002498884
-0.028533125 0.068161257 0.013469319 -0.23788927 0.96765262 -0.084007032 0.001912451
-0.025891259 0.068759345 0.013448351 -0.22056487 0.97512108 -0.022136239 0.0024174473
-0.024532551 0.069066711 0.012908625 -0.21872179 0.97575963 -0.0073495414 0.0027516868
-0.022570327 0.069428153 0.01350921 -0.15326081 0.98685664 0.051235646 0.0026243578
-0.019616082 0.070021927 0.013168725 -0.20115596 0.9735738 0.10812142 0.005593861
-0.016801963 0.070616446 0.012803792 -0.20495395 0.9644292 0.16694354 0.0055621415
-0.013271625 0.071230516 0.012856402 -0.18075885 0.94867462 0.25950477 0.0053531351
-0.0105951 0.071135625 0.013749003 -0.17700104 0.86003476 0.47855085 0.0057839742
-0.0075587332 0.071514539 0.014118544 -0.16363661 0.81936389 0.54942322 0.0038171515
-0.0046496424 0.071723811 0.014658595 -0.1520023 0.73004192 0.66628391 0.0016014308
-0.0097429659 0.072140567 0.012561078 -0.20456134 0.93787259 0.28026715 0.0034591786
-0.0076514259 0.072614565 0.012471011 -0.2034744 0.9280467 0.31197348 0.0038989922
-0.0042966139 0.07308659 0.0128696 -0.1917388 0.90867257 0.37087771 0.0022792853
-0.0013300284 0.073676184 0.012748458 -0.17786482 0.89788592 0.40269709 0.0022178246
0.0014294747 0.073515855 0.013515266 -0.061384007 0.80705339 0.5872792 0.0039025256
0.0042834789 0.073852338 0.013340881 0.019906377 0.80643189 0.59099185 0.0019822749
0.0072225374 0.073662937 0.01312165 0.11141575 0.80229741 0.58643448 0.0019455906
0.010115672 0.073243603 0.012639505 0.15295616 0.79533225 0.58655864 0.00060399954
-0.051456369 -0.058181629 0.016394783 -0.91292733 -0.40055856 0.078208171 0.013074656
-0.05219724 -0.055360816 0.016346291 -0.97081292 -0.19269894 0.14279146 0.0031080334
-0.052647304 -0.052746475 0.016064962 -0.99394923 -0.09155941 0.060677577 0.0035403513
-0.052861471 -0.049260721 0.016043963 -0.99911922 0.01051641 0.040622342 0.0052223518
-0.052727491 -0.046414226 0.015987569 -0.98907864 0.12345098 0.080518752 0.0038901542
-0.052240681 -0.04364166 0.016620867 -0.9719224 0.19299822 0.13460468 0.0073654396
-0.051537897 -0.040662337 0.016424758 -0.78255808 0.52789015 0.33005282 0.026722437
-0.049849082 -0.039375033 0.017236941 -0.56924427 0.76261747 0.30720609 0.018833997
-0.047863547 -0.039745338 0.017940681 -0.63889951 0.69026852 0.33961293 0.0305255
0.0111551 -0.039970089 0.015413266 0.68944007 0.70333773 0.17317179 0.04481883
-0.051096242 -0.038907565 0.01538109 -0.61865216 0.76572317 0.17589067 0.028068447
-0.048911508 -0.038361445 0.016214676 -0.53467172 0.81467056 0.22458413 0.022307953
-0.046662841 -0.036939438 0.016384536 -0.78140408 0.61660409 -0.095953226 0.036238767
-0.045688327 -0.034370288 0.01651307 -0.96280342 0.17990756 -0.20160104 0.023393035
-0.045697123 -0.031439852 0.01659558 -0.98579717 0.0064130644 -0.16781762 0.0031671731
-0.045651466 -0.028497657 0.016355708 -0.9722442 -0.043701604 -0.22985066 0.0044597513
-0.045684833 -0.025504984 0.0164112 -0.94769651 -0.097371496 -0.30395749 0.0065564383
-0.046331778 -0.022353627 0.016504737 -0.91670489 -0.13006274 -0.37780398 0.0040064417
-0.046540122 -0.019483292 0.016442614 -0.92099112 -0.05402334 -0.38581964 0.003166185
-0.046528805 -0.016499385 0.016443238 -0.92084247 0.0021953366 -0.38992861 0.0032001808
-0.046568856 -0.01349304 0.016481295 -0.92461121 0.027026087 -0.37995228 0.0028351611
-0.046586547 -0.010476683 0.016503081 -0.92211521 0.010902598 -0.38676178 0.0036742005
-0.046597879 -0.0074477382 0.016479878 -0.91918635 -0.014370939 -0.39356056 0.0034363877
-0.046569597 -0.0044648373 0.016461836 -0.91834134 0.0045903455 -0.39576277 0.0037511636
-0.046730448 -0.0015748218 0.016616197 -0.91636157 -0.0065151262 -0.40029866 0.0059918892
-0.046942387 0.001516595 0.016342031 -0.91776943 -0.037403144 -0.39534834 0.0071205371
-0.046819061 0.0044453577 0.016194692 -0.92432779 -0.032847375 -0.38018295 0.0074675828
-0.046814624 0.0074696057 0.016297983 -0.92057735 0.00094525825 -0.3905592 0.0068526417
-0.046950996 0.010533207 0.01644502 -0.92169386 0.022859229 -0.38724387 0.0080697937
-0.046966046 0.013480571 0.01639179 -0.92492437 -0.020834222 -0.37957984 0.0083683003
-0.046851892 0.016453492 0.01625601 -0.92076677 -0.034050085 -0.3886247 0.0085404525
-0.046864789 0.019476322 0.016368607 -0.91981363 0.039185483 -0.39039376 0.0078319227
-0.046994645 0.022531085 0.016517213 -0.913643 0.035316773 -0.40498048 0.0074026515
-0.046757892 0.025448544 0.016367355 -0.92148465 0.032734897 -0.3870329 0.0096428199
-0.046560589 0.02856639 0.016160203 -0.92359757 0.013655708 -0.38312012 0.01012965
-0.046734046 0.031340599 0.0163642 -0.92629999 -0.017891092 -0.37636188 0.010510244
-0.046920829 0.033884142 0.016996831 -0.96917051 0.050653242 -0.2411283 0.026488934
-0.048578776 0.038278572 0.016573079 -0.78936654 -0.61392081 0.0013095415 0.042694196
-0.046964433 0.036809649 0.016606046 -0.88719499 -0.44889879 -0.10665356 0.057176214
-0.051515676 0.040778503 0.016240042 -0.89332384 -0.4363026 0.10776195 0.014964466
-0.052179869 0.043493442 0.016486749 -0.96955007 -0.19206145 0.15193768 0.0032781945
-0.052723143 0.04662938 0.016226234 -0.99240834 -0.097502127 0.074960016 0.0035603058
-0.052808017 0.049780283 0.016557312 -0.99589676 0.01257165 0.089618705 0.0033710164
-0.052681521 0.052531678 0.016580546 -0.98790503 0.10717445 0.11205909 0.0031367578
-0.052258063 0.055800896 0.016173666 -0.97251725 0.20689641 0.10679003 0.0070859031
-0.051552016 0.058412779 0.016395317 -0.80431312 0.50709456 0.30973482 0.028528258
-0.049838744 0.059628122 0.017167583 -0.63408816 0.70169795 0.32488808 0.023462543
-0.051073384 0.060148638 0.015534428 -0.70537257 0.69142061 0.15616347 0.035958551
-0.048725072 0.060726564 0.016221052 -0.52169031 0.80382317 0.28584525 0.013409049
-0.046579599 0.062252399 0.016426284 -0.47689182 0.85696018 0.19543152 0.0036086701
-0.044651151 0.062718727 0.017584892 -0.40051502 0.88694662 0.2300292 0.0041458108
-0.045110494 0.063087091 0.015321752 -0.42918798 0.88317055 0.18922867 0.0044640708
-0.043382365 0.063617669 0.016265234 -0.34971264 0.91901243 0.18198125 0.0042905286
-0.040533651 0.064750589 0.016402112 -0.361682 0.92332852 0.12903707 0.002392242
-0.038021464 0.065694064 0.016603386 -0.35692096 0.92562294 0.12581609 0.0025478925
-0.036661465 0.06620834 0.016225901 -0.30128327 0.94905263 0.092344142 0.0022513994
-0.034457874 0.066847928 0.016361317 -0.25914526 0.96328646 0.070163101 0.0016777917
-0.031548247 0.067545585 0.01646089 -0.23128746 0.97207594 0.039679393 0.00057463697
-0.028434932 0.068183243 0.01644359 -0.20200126 0.97856945 0.039966844 0.00034691161
-0.025588552 0.068712264 0.016479814 -0.16932838 0.98371834 0.060217299 0.00013070881
-0.023733327 0.068949811 0.01736399 -0.09495689 0.99197149 0.083520696 0.00075984112
-0.018464748 0.068935603 0.017733373 0.065650903 0.98302603 0.17131789 0.0015549441
-0.016559046 0.068791226 0.017456975 0.10573342 0.96639526 0.234309 0.0022489487
-0.014160905 0.068699345 0.017025966 0.036071416 0.91053879 0.41184691 0.0075686811
-0.010456823 0.068387486 0.017233483 0.013043113 0.81839615 0.5745064 0.0065206862
-0.0074587991 0.068321325 0.017493187 -0.039390113 0.71541035 0.69759339 0.0041395421
-0.004740811 0.068343952 0.017740693 -0.068981774 0.66894186 0.74010694 0.0015614204
-0.0029664112 0.068564244 0.017784417 -0.097086743 0.64090604 0.76145506 0.00088323327
-0.024342401 0.069001667 0.015440312 -0.16014694 0.98520809 0.060975872 0.00032541019
-0.022705695 0.069162332 0.016232422 -0.090080321 0.9935503 0.068872742 0.0011301918
-0.020074412 0.069216743 0.01658983 -0.026106151 0.9895466 0.14183116 0.0024284769
-0.016911838 0.069388866 0.015528027 0.019557323 0.95244873 0.3040705 0.0057244478
-0.013729585 0.069336213 0.015687548 -0.045906123 0.8760336 0.48006022 0.0050313147
-0.010402741 0.069639415 0.015700342 -0.087680109 0.79340798 0.60234219 0.0025975381
-0.0075975112 0.069890231 0.015940737 -0.12156831 0.73928899 0.66232395 0.0021341937
-0.0045714448 0.070381694 0.016047277 -0.1174075 0.69297016 0.71134228 0.0021279298
-0.0015338111 0.070644848 0.016311951 -0.10352664 0.66956007 0.73550773 0.0017105419
0.0016079529 0.070794128 0.016449451 -0.074887134 0.6871413 0.72265399 0.002473433
0.0045962515 0.071767226 0.015592031 0.029615359 0.76204181 0.64685029 0.0014190247
0.0067312131 0.071891107 0.015227555 0.074567489 0.75320035 0.65355104 0.0023523138
-0.00016645224 0.072049044 0.015208443 -0.095456183 0.74372417 0.66163623 0.0012331244
0.0021149267 0.072222993 0.015213212 -0.038474545 0.76706475 0.64041501 0.0024871465
-0.051262446 -0.057416666 0.018251309 -0.96145153 -0.22237679 0.16173914 0.0048635378
-0.051416747 -0.055337287 0.019224636 -0.94330943 -0.14799435 0.29709437 0.0014094925
-0.050833017 -0.056002829 0.020395184 -0.94330299 -0.14800559 0.2971091 0.0014289471
-0.051815767 -0.052761085 0.019372042 -0.94074523 -0.096970797 0.32495397 0.0014303243
-0.051909037 -0.049517013 0.019616196 -0.93619341 0.014007859 0.35120603 0.0026722297
-0.051791124 -0.046507992 0.019611804 -0.90818179 0.13572536 0.39596015 0.0059816577
-0.051549334 -0.043434728 0.019090714 -0.86471105 0.27849001 0.41799307 0.014530439
-0.050631758 -0.042959958 0.020555582 -0.7995221 0.33076209 0.50135893 0.012927571
-0.051175274 -0.041399807 0.018765302 -0.74388182 0.51216823 0.42932922 0.024381679
-0.049073879 -0.04037194 0.019660704 -0.70023501 0.56853271 0.43178859 0.012949857
-0.047976494 -0.03947195 0.020944031 -0.73905087 0.47890642 0.47376418 0.010443221
-0.04830591 -0.038474094 0.018916139 -0.70985609 0.62067604 0.33296484 0.020279767
-0.046814892 -0.037330646 0.019511627 -0.81129885 0.50824201 0.28893653 0.023140833
-0.04581121 -0.034737423 0.019052006 -0.96946567 0.23941997 0.053051528 0.02184774
-0.045768667 -0.031307247 0.019663684 -0.99948519 -0.0037004626 0.031870279 0.0034959279
-0.045839604 -0.028565718 0.01918768 -0.99095488 -0.12257256 -0.054630339 0.013800946
-0.046571005 -0.02540925 0.019013435 -0.96388555 -0.21455126 -0.15777352 0.012507844
-0.047655702 -0.022404028 0.019325353 -0.97559392 -0.12039723 -0.18363264 0.015961895
-0.047662914 -0.019437658 0.019448785 -0.99114311 -0.03932175 -0.12684289 0.018603696
-0.047689352 -0.016545137 0.019217676 -0.99297893 -0.018020619 -0.11691128 0.014633034
-0.047697384 -0.01361325 0.019041317 -0.99251682 0.019759087 -0.12049823 0.014881317
-0.047631517 -0.010396245 0.019736717 -0.99021357 0.018396663 -0.13834268 0.013865195
-0.047682192 -0.0075405431 0.019369038 -0.98049009 -0.0094330311 -0.19634189 0.014284785
-0.047679912 -0.0045820787 0.019244244 -0.99060297 -0.015750388 -0.13585909 0.017612733
-0.047657516 -0.0015912837 0.019347766 -0.99696553 -0.015749928 -0.076234132 0.013485032
-0.047660712 0.0015856434 0.01953656 -0.99649298 -0.0078852344 -0.083304174 0.012098473
-0.047695909 0.0046318173 0.01919497 -0.99837643 -0.0081264023 -0.056377355 0.011639961
-0.04770771 0.0075124647 0.018985342 -0.98578483 -0.0048131985 -0.167944 0.015717627
-0.047680367 0.010535904 0.019341849 -0.99066269 -0.0042188596 -0.13627017 0.012874514
-0.047687005 0.013556185 0.019396501 -0.98972261 0.00087352592 -0.14299805 0.013016171
-0.047706902 0.016539592 0.019108389 -0.98889613 -0.024990559 -0.1464915 0.011591851
-0.047669124 0.0194993 0.019349456 -0.99823099 0.0032535747 -0.059365846 0.012548305
-0.047670942 0.022564357 0.01951462 -0.9982937 0.055693928 -0.01754744 0.015252263
-0.047326993 0.025436336 0.019382039 -0.99415284 0.066388376 -0.08516293 0.018810494
-0.04705286 0.028575899 0.019058796 -0.99878204 -0.0097013582 -0.048377275 0.018115049
-0.047056753 0.031150015 0.018932467 -0.99486238 -0.026745873 -0.09763933 0.021046527
-0.04702539 0.034126613 0.019564405 -0.99767745 -0.047575921 0.048747402 0.015786463
-0.047173724 0.037171543 0.019632503 -0.97862995 -0.12754902 0.16129066 0.018176587
-0.051129527 0.04132472 0.018578012 -0.90785265 -0.327896 0.26131934 0.0094923712
-0.050868873 0.041665774 0.019575596 -0.93993795 -0.16639568 0.29804236 0.0018072812
-0.047650494 0.039131176 0.020824773 -0.85256439 -0.47392508 0.22029312 0.032348562
-0.051522635 0.043780606 0.019180275 -0.94002074 -0.14720511 0.30772009 0.0012359321
-0.050924398 0.043451041 0.020542895 -0.90145528 -0.24359678 0.35782519 0.0089330394
-0.051826842 0.046645522 0.019547362 -0.93978673 -0.092494443 0.32900706 0.00089279318
-0.052084532 0.04959543 0.019282157 -0.94805545 -0.004500703 0.31807318 0.0013057797
-0.0520049 0.052912872 0.019000156 -0.94266713 0.16378342 0.29078132 0.010283998
-0.051560231 0.055426739 0.019187368 -0.85448539 0.27055255 0.4434593 0.01312724
-0.050661243 0.055799417 0.020798519 -0.80153787 0.35196635 0.48338044 0.015406423
-0.051281672 0.057529882 0.018620363 -0.73518258 0.53790921 0.41250506 0.016772661
-0.049001206 0.05886814 0.019463001 -0.59695494 0.64112085 0.48229542 0.0091599328
-0.047289971 0.059525624 0.020576891 -0.4995856 0.6161564 0.60890526 0.012023187
-0.048522517 0.060482726 0.018474124 -0.52282161 0.72840089 0.44282022 0.0072837225
-0.046388343 0.061205525 0.019056732 -0.45645869 0.779486 0.42900705 0.0062497496
-0.043531004 0.062276226 0.019561477 -0.38589853 0.84471655 0.37085888 0.0014564958
-0.041370604 0.062754989 0.020556327 -0.450205 0.77231455 0.44815817 0.00075144711
-0.042560685 0.063342415 0.018387927 -0.38933536 0.8652575 0.31582823 0.0024268071
-0.040409453 0.063914277 0.019338945 -0.38362959 0.86167693 0.33217633 0.0018868652
-0.03751193 0.065199576 0.019361189 -0.38073051 0.88626188 0.26378816 0.0015109098
-0.035507437 0.065818168 0.020138642 -0.34723186 0.9114992 0.2204524 0.0016655779
-0.0090636024 0.065486729 0.020972246 0.26011044 0.82492262 0.50184196 0.011001843
-0.0071535199 0.065558307 0.020245899 0.073615871 0.8008908 0.5942682 0.0088794585
-0.034254041 0.066473149 0.019273462 -0.30756727 0.93774915 0.16133477 0.0010089339
-0.031438652 0.067283459 0.019488662 -0.26423672 0.95769405 0.11402231 0.00087209343
-0.028497538 0.067976244 0.019486561 -0.20403706 0.97534859 0.08404725 0.00047124643
-0.025602356 0.068501674 0.01948767 -0.16166291 0.98403066 0.074489415 0.00015406798
-0.02308023 0.068845116 0.019688396 -0.067435555 0.9935354 0.091322556 0.001114818
-0.01957274 0.068839133 0.019479966 0.029792987 0.99171823 0.12492873 0.00087020657
-0.016532797 0.068358228 0.019602787 0.17594267 0.96044862 0.21583 0.0028688652
-0.013712043 0.067735419 0.019747008 0.19191484 0.93406904 0.30113733 0.0037529969
-0.010437436 0.067173764 0.01920929 0.13345002 0.82339007 0.5515613 0.00710767
-0.0077795484 0.066961505 0.018953582 -0.0016758313 0.75343543 0.65751982 0.0030841248
-0.0042950744 0.06730628 0.018545775 -0.068942778 0.66883063 0.74021119 0.0015960548
-0.00087754213 0.068013832 0.01827446 -0.097077489 0.64001954 0.76220143 0.00062819326
-0.021972632 0.069042653 0.018483106 -0.042612471 0.99526083 0.087406978 0.0019906345
-0.020678611 0.069057442 0.018343151 0.0043801707 0.99450457 0.10460219 0.001641452
-0.051173314 -0.05192497 0.021210745 -0.93059731 -0.053034715 0.36218232 0.001410984
-0.050826803 -0.052565914 0.021642245 -0.927751 -0.073646016 0.36586097 0.0037429407
-0.051217552 -0.050845504 0.02112201 -0.9286412 -0.0073657976 0.3709062 0.0053849458
-0.050792079 -0.049008887 0.022066578 -0.89507455 0.086563654 0.43743381 0.0057758591
-0.051116914 -0.045356322 0.021056633 -0.90616912 0.13736214 0.39998645 0.0045588468
-0.050324053 -0.046921443 0.022234671 -0.78891593 0.11181354 0.60424286 0.0061158594
-0.049186546 -0.043314725 0.022059442 -0.71313512 0.37819999 0.59025675 0.0086184992
-0.047354467 -0.043483332 0.023481879 -0.56580043 0.27153459 0.77854919 0.0022426948
-0.04858157 -0.041326474 0.021770494 -0.7360521 0.4832814 0.47398987 0.015193081
-0.047215819 -0.039843228 0.022255819 -0.75271648 0.49218863 0.43722796 0.015028449
-0.046003982 -0.037638929 0.022775104 -0.79392695 0.43159336 0.42826056 0.011589442
-0.044584796 -0.037148133 0.022923891 -0.83828944 0.223781 0.4971849 0.021587133
-0.045308754 -0.034316547 0.021466479 -0.93104279 0.12373707 0.34329063 0.019471413
-0.044621706 -0.034439683 0.022811968 -0.89555985 0.12162094 0.4279964 0.013775976
-0.04536799 -0.031217165 0.021301635 -0.97168118 -0.0044103381 0.2362546 0.0091714505
-0.044761419 -0.031248655 0.022581577 -0.89314181 0.011533923 0.44962719 0.0056608031
-0.045327097 -0.028666191 0.021380939 -0.92426968 -0.21304052 0.31676379 0.017893391
-0.044933446 -0.02824137 0.02237631 -0.90930659 -0.17477633 0.37764367 0.016849644
-0.04654298 -0.024920136 0.022286782 -0.89902669 -0.25035992 0.3592644 0.0077678915
-0.046887219 -0.022578161 0.022297285 -0.95890754 -0.10320593 0.26428184 0.014959609
-0.046883196 -0.01935022 0.022306681 -0.95743746 -0.026493829 0.28742233 0.011578071
0.014432387 -0.018809933 0.02217198 -0.9232567 -0.38051543 0.052963093 0.014067292
-0.046764247 -0.016299719 0.022537207 -0.90979028 0.011744617 0.41490191 0.0050383154
0.013827275 -0.017138693 0.021564795 0.88703406 0.46071073 -0.030269556 0.01600248
-0.046832845 -0.013349297 0.022387188 -0.9042266 -0.013021302 0.4268544 0.0044172509
-0.046855837 -0.010470282 0.022348447 -0.90952855 -0.0093196984 0.41553703 0.0037596272
-0.046839405 -0.0074033923 0.022393227 -0.91440105 -0.019327043 0.40434781 0.0030954466
-0.046808332 -0.0043625208 0.022489578 -0.91665363 -0.017238094 0.39931065 0.0036252378
-0.046876173 -0.0014015482 0.022345668 -0.92324215 -0.0070895487 0.38415322 0.0026428844
-0.046900384 0.0016489084 0.022307346 -0.92445004 0.0029055397 0.38129213 0.0034896068
-0.046816148 0.004734166 0.022462936 -0.95268482 -0.017393952 0.30346188 0.0091609433
-0.046783 0.0075519965 0.022521228 -0.91484338 0.0051726694 0.40377575 0.004001765
-0.046878122 0.010427567 0.022314359 -0.90730304 -0.0096771512 0.42036593 0.004502181
-0.046847396 0.013561748 0.02238787 -0.90436792 -0.0098979361 0.42663893 0.0051204395
-0.046860531 0.016476119 0.022376642 -0.91282755 -0.017309377 0.40797836 0.003400503
-0.046862483 0.019506942 0.022392243 -0.91887438 0.00014885417 0.39455023 0.0034862654
-0.046860918 0.022490572 0.022412319 -0.9392755 0.047415294 0.33987245 0.0086107282
-0.046556372 0.025547361 0.022429518 -0.9754231 0.078471564 0.20589356 0.010588031
-0.04617656 0.02850154 0.022402424 -0.90982521 0.060495418 0.41055864 0.0060031284
-0.046162248 0.031485215 0.022433445 -0.94111973 0.02634551 0.33704525 0.0079489052
-0.046195682 0.034096744 0.022364289 -0.90182978 -0.02954701 0.43108016 0.0083761206
-0.046330191 0.037349589 0.022404721 -0.93201643 -0.078118816 0.35389671 0.028663747
-0.04700448 0.039381884 0.022089308 -0.83713269 -0.37905234 0.39437065 0.018855259
-0.050879005 0.044707816 0.021156115 -0.93750364 -0.12591624 0.32439491 0.0010932081
-0.051147088 0.047506139 0.021303929 -0.93404979 -0.086986862 0.34638762 0.00080850389
-0.050771937 0.046894576 0.021927116 -0.92800814 -0.083862349 0.36299855 0.0010925634
-0.051245928 0.049340382 0.021294676 -0.92279333 0.010012701 0.38516515 0.0036796338
-0.050933521 0.04962473 0.02184161 -0.91846418 0.024185615 0.39476404 0.0055931434
-0.051101789 0.051973239 0.021470949 -0.93157482 0.050063673 0.36008611 0.0017404034
-0.050408471 0.053076625 0.021971898 -0.82140172 0.17181093 0.54385686 0.0088678561
-0.049818069 0.054899938 0.021926206 -0.73859733 0.30061451 0.60341108 0.0099559082
-0.046111129 0.056567334 0.023219213 -0.42888838 0.46729553 0.77310389 0.0029796311
-0.048651472 0.057442285 0.021597121 -0.5487377 0.51029742 0.66218084 0.0091046775
-0.046333015 0.058525588 0.021938656 -0.45446864 0.57249492 0.68242794 0.0045278794
-0.043757342 0.059131086 0.022881718 -0.41219777 0.50269103 0.75986493 0.0029376477
-0.041943643 0.059353434 0.023954257 -0.593934 0.45046264 0.66657782 0.0076048612
-0.045176364 0.06029404 0.021004569 -0.40691584 0.63238174 0.65917599 0.0043332297
-0.043021776 0.06082122 0.021860538 -0.41950345 0.68217784 0.59887415 0.0055332161
-0.040539324 0.061932795 0.022628337 -0.50275624 0.69500625 0.51400626 0.0038559842
-0.038719349 0.062769547 0.023344599 -0.54207778 0.69893932 0.46651426 0.0050819754
-0.039487656 0.063322045 0.021542229 -0.44858924 0.79651189 0.40538454 0.0030904326
-0.037296306 0.064177863 0.022389216 -0.46037427 0.81545275 0.35084519 0.0023158432
-0.034726705 0.065465569 0.02267883 -0.43535411 0.86543596 0.2479663 0.0020254082
-0.012395737 0.065997578 0.023205204 0.39482054 0.88624537 0.24225177 0.005065091
-0.010679807 0.065066725 0.023270771 0.39377171 0.88961029 0.23138124 0.0067878319
-0.03353481 0.066233166 0.021701092 -0.39289725 0.89789623 0.19852977 0.001939308
-0.031559069 0.0668028 0.022530193 -0.32828248 0.93257529 0.15011297 0.001435881
-0.028532604 0.067706473 0.022500711 -0.24288604 0.96559393 0.09292414 0.00096263783
-0.025565738 0.068289317 0.022561707 -0.1635803 0.98394537 0.071365051 0.00018373858
-0.023002811 0.068619929 0.022398079 -0.066311948 0.99407601 0.086113915 0.0013295518
-0.019524664 0.06849587 0.022449404 0.11231125 0.98791862 0.10678477 0.0012025826
-0.016645409 0.067852303 0.022574853 0.26024154 0.9535349 0.15180762 0.0026617167
-0.013957439 0.066867761 0.022777081 0.38216537 0.90827119 0.17027342 0.0029799077
-0.011910585 0.066193305 0.021751633 0.4136537 0.86046338 0.29747838 0.0085472055
-0.041615024 -0.048585039 0.026904568 -0.47782469 0.067170747 0.8758834 0.0020197234
-0.042080473 -0.046705887 0.026544087 -0.47782525 0.067201063 0.87588072 0.0020295433
-0.045877427 -0.044445749 0.024342891 -0.52392483 0.17589737 0.83340442 0.0036394163
-0.043434832 -0.04278101 0.02558253 -0.56028014 0.042292997 0.82722282 0.005830585
-0.045589518 -0.040045179 0.024063546 -0.76812011 0.48762152 0.41499019 0.01041057
-0.044223987 -0.039987769 0.024707465 -0.72326851 0.35228074 0.59395367 0.01021783
-0.041847292 -0.039046384 0.026902286 -0.62219435 0.046939813 0.78145438 0.012845774
-0.044378921 -0.037099533 0.024843685 -0.74357617 0.34620067 0.5720486 0.010622486
-0.043362487 -0.034140155 0.025289372 -0.86243272 0.071045659 0.50116104 0.0088625122
-0.041636329 -0.033273518 0.026908237 -0.79728603 -0.050718855 0.60146707 0.02717866
-0.042876683 -0.031842403 0.025189172 -0.84348524 0.051175639 0.53470904 0.010105513
-0.041875929 -0.031923406 0.026398029 -0.81638914 0.034415215 0.57647574 0.014830183
-0.043195315 -0.028795375 0.025418919 -0.84914464 -0.19187753 0.49207363 0.0070538158
-0.045462549 -0.024601508 0.024548799 -0.87488437 -0.19442917 0.44359285 0.010722272
-0.044360887 -0.02444469 0.025976989 -0.84040558 -0.15204933 0.52019185 0.0094142929
-0.0457482 -0.022504298 0.024411242 -0.91509312 -0.091611169 0.39269826 0.006486774
-0.044603035 -0.022551939 0.025730632 -0.83415699 -0.010327737 0.55143052 0.001134824
-0.045813642 -0.019600898 0.02429904 -0.89009148 -0.015323443 0.45552427 0.0017753687
-0.04445504 -0.0194609 0.025840357 -0.81980181 0.008301069 0.57258719 0.0013075735
-0.045479428 -0.016888557 0.024697745 -0.87024581 0.0020018725 0.49261373 0.0055916193
-0.043994639 -0.016059661 0.02631375 -0.82587266 -0.001630503 0.5638544 0.0010018474
-0.04549427 -0.013758131 0.024714358 -0.82832545 0.0017633502 0.5602445 0.0012344114
-0.044398062 -0.012889407 0.025984064 -0.86218148 -0.0089325542 0.50652081 0.0026849266
-0.045393027 -0.0099661425 0.024868552 -0.87507325 -0.0073728147 0.48393437 0.0046835742
-0.044760376 -0.010722781 0.02561561 -0.85178506 -0.0018613681 0.52388817 0.0022970703
-0.045384794 -0.0075146127 0.02487912 -0.88130659 -0.009979954 0.47243953 0.0048454045
-0.043681435 -0.0073565561 0.026584096 -0.81897813 0.004411214 0.57380784 0.0014215184
-0.045454904 -0.0045735193 0.024815168 -0.87148917 -0.010320326 0.49030611 0.0016815613
-0.044241216 -0.0046092398 0.026104786 -0.81525767 -0.0029192916 0.57909113 0.0014571798
-0.045697935 -0.0014936863 0.024500433 -0.89916617 -0.016049029 0.43731296 0.0034444854
-0.044661354 -0.0016362726 0.02568844 -0.81988317 -0.014831153 0.57233882 0.0012447367
-0.045728102 0.0016578768 0.024432674 -0.90642577 -0.0051702736 0.42233348 0.0037590235
-0.044248406 0.0012342918 0.0260475 -0.82109404 -0.0011081257 0.57079184 0.0010116849
-0.045768667 0.0042010122 0.024375921 -0.91064733 -0.0087850373 0.41309103 0.0039637899
-0.044096451 0.0044637178 0.026236812 -0.82071567 -0.0021698966 0.57133281 0.001052866
-0.045597803 0.0075303009 0.024602616 -0.87692589 -0.012161968 0.48047176 0.006168562
-0.044573084 0.0074320049 0.025785774 -0.82712346 0.0058504036 0.56198978 0.0012393193
-0.045653451 0.010661385 0.024498843 -0.87271518 0.014858577 0.48800352 0.005965143
-0.044494342 0.01075763 0.025877789 -0.86156422 -0.0038847772 0.50763369 0.0027286184
-0.045277461 0.013628884 0.025033012 -0.85607374 -0.012581207 0.51670057 0.0018627674
-0.044423096 0.012906396 0.025947552 -0.85591632 -0.0040995884 0.51709807 0.001853234
-0.045439806 0.016347066 0.024846062 -0.86161309 -0.013769753 0.50737882 0.0015582538
-0.044487637 0.016218156 0.025880158 -0.82356924 0.0067775822 0.56717527 0.0012371511
-0.045604885 0.019532219 0.024628699 -0.89237016 -0.0040644831 0.45128581 0.0038299724
-0.044420417 0.019460313 0.025908554 -0.81534153 0.029146595 0.57824624 0.0015193159
-0.045708016 0.022441957 0.024478337 -0.84955758 0.080239266 0.52135742 0.0060580391
-0.043956004 0.022411186 0.026372811 -0.71212924 0.11242141 0.69298875 0.0070982268
-0.045462362 0.025303347 0.024494505 -0.8396613 0.090030849 0.53559619 0.0054156296
-0.043889388 0.025651552 0.026011266 -0.75088578 0.10855383 0.65144956 0.0048664366
-0.045195185 0.028172214 0.024130344 -0.8456229 0.026512856 0.53312206 0.012288027
-0.044366945 0.028761903 0.025139585 -0.77101529 0.047940198 0.63500959 0.0030710839
-0.044158317 0.031640396 0.02530482 -0.76756054 0.022951726 0.6405654 0.002072471
-0.044304542 0.034887634 0.025245074 -0.81349188 0.0016805977 0.5815739 0.0064032078
-0.044198643 0.03710711 0.025369532 -0.83234131 -0.14028423 0.53621674 0.0042034443
-0.042956393 0.052745044 0.025505364 -0.60877877 0.12558663 0.78333676 0.0067265164
-0.041480202 0.052459113 0.026911508 -0.68826997 0.090062685 0.71984249 0.0013083653
-0.042850729 0.055875715 0.025005516 -0.55530453 0.28241375 0.78222728 0.010658263
-0.041253589 0.055900335 0.026335433 -0.68907017 0.24446623 0.68221599 0.0029404771
-0.04267646 0.058163561 0.024182703 -0.48218888 0.44747925 0.75316417 0.0053422335
-0.039984003 0.059077628 0.025998628 -0.64635223 0.38312185 0.65988368 0.036345053
-0.038655899 0.05986594 0.026859041 -0.6407001 0.54477918 0.54103518 0.0033628182
-0.039690427 0.060739197 0.024860423 -0.6069566 0.59880561 0.52252805 0.0037210023
-0.037527446 0.06213085 0.025866615 -0.59036148 0.68834996 0.42148274 0.0038330362
-0.036625512 0.063504927 0.024881497 -0.54640973 0.75773656 0.35675156 0.0033403523
-0.034515187 0.064716637 0.025446171 -0.5387035 0.79087561 0.29036912 0.0025278681
-0.032536361 0.06575188 0.026053585 -0.43119928 0.87626612 0.21499969 0.0026472323
-0.012496572 0.065645725 0.02592954 0.45218968 0.88220698 0.1312834 0.0022717279
