# .PCD v0.7 - Point Cloud Data file format
VERSION 0.7
FIELDS x y z normal_x normal_y normal_z curvature
SIZE 4 4 4 4 4 4 4
TYPE F F F F F F F
COUNT 1 1 1 1 1 1 1
WIDTH 560
HEIGHT 1
VIEWPOINT 0 0 0 1 0 0 0
POINTS 560
DATA ascii
0.055682387 0.019291885 -0.0075189322 0.56357116 -0.70347494 -0.43302482 0.00097790896
0.057646889 0.020369867 -0.0066957576 0.58040917 -0.66557723 -0.4691824 0.00092453108
0.05880408 0.022141837 -0.0076241656 0.59001052 -0.6436559 -0.48743692 0.0015519804
0.060755335 0.023317408 -0.0067719114 0.61534005 -0.61250269 -0.49618253 0.00099635997
0.061852623 0.025176832 -0.007619367 0.65370584 -0.58388197 -0.48140463 0.0014626337
0.063572749 0.026357085 -0.0066719903 0.67780459 -0.53345644 -0.50596958 0.0014484267
0.062852271 0.027314981 -0.0085393926 0.6360749 -0.49837026 -0.58909744 0.0023152332
0.064590156 0.02850065 -0.0073890686 0.71764612 -0.45062932 -0.53095889 0.0018820564
0.066213705 0.029627234 -0.0062066559 0.72583896 -0.44488448 -0.52462918 0.0018695628
0.065465838 0.031106059 -0.0083146375 0.67551386 -0.35392341 -0.64685327 0.0015156553
0.066832758 0.031665463 -0.0069322218 0.74347258 -0.39108694 -0.54249376 0.0021668659
0.067702234 0.034449164 -0.0074582347 0.75835449 -0.28800729 -0.5847652 0.001806181
0.069134139 0.035574064 -0.0060873968 0.7952345 -0.31261858 -0.51949179 0.0021031804
0.068217762 0.037329428 -0.0080097411 0.76213366 -0.17518194 -0.62326854 0.0024433825
0.069438145 0.037547253 -0.0065399623 0.79795617 -0.20787472 -0.56573308 0.0023889788
0.068412468 0.040383738 -0.008401324 0.67899275 -0.075974971 -0.73020321 0.0021153765
0.069780752 0.040511023 -0.0068592601 0.78690767 -0.10641831 -0.60782522 0.0024965277
0.068377845 0.043771639 -0.008531291 0.61580461 0.062128134 -0.78544563 0.0016714903
0.069876768 0.043495785 -0.0069992924 0.76081181 -0.013813003 -0.64882553 0.0029089651
0.068092637 0.046515033 -0.008425572 0.60977125 0.095172226 -0.78684258 0.0012894293
0.069913469 0.046572838 -0.006806205 0.75897127 0.059431825 -0.64840615 0.0029146911
0.068227582 0.049313817 -0.0077605369 0.62948316 0.11867156 -0.7678985 0.0012749361
0.069750123 0.049292408 -0.0066042789 0.72211224 0.093318589 -0.68545288 0.0027563472
0.068555534 0.052011207 -0.0069264886 0.67083853 0.12540781 -0.73092306 0.0017786154
0.069470122 0.051968537 -0.0063565676 0.70331717 0.092243999 -0.70486593 0.0038820864
0.068665504 0.054595567 -0.0062801284 0.67349744 0.097124271 -0.73278093 0.0019031804
-0.013195956 0.0027217672 -0.0040085376 -0.23460613 -0.92217052 -0.30750841 0.0019510225
-0.010502703 0.0023225637 -0.0044544777 -0.16553256 -0.92890257 -0.33126879 0.0017632288
-0.0075630038 0.0019211961 -0.0045116907 -0.12989081 -0.93233049 -0.33747339 0.0017084102
-0.0044488097 0.0014904912 -0.004519166 -0.095877372 -0.93198651 -0.3495836 0.0023547891
-0.0014725723 0.0012357646 -0.0044046668 -0.050178438 -0.9334414 -0.35520321 0.0024339026
0.0015641762 0.0011118788 -0.0044129179 -0.031658817 -0.93460327 -0.35428008 0.0024113569
0.0046217893 0.0010316273 -0.0043988009 0.0030501089 -0.93702704 -0.34924343 0.0022684142
0.0076068225 0.0012119893 -0.004557888 0.040887076 -0.93807834 -0.3440018 0.0022729249
0.010534731 0.0013622564 -0.0045997989 0.066418275 -0.93979245 -0.33522946 0.0019663551
0.013520164 0.0016296915 -0.0045352238 0.10147665 -0.94122809 -0.32216793 0.0017642414
0.016516751 0.0020025896 -0.0045128134 0.12485021 -0.94434428 -0.30434576 0.0015315684
0.019480437 0.0024277691 -0.0044676024 0.16486819 -0.94260752 -0.29036099 0.0015318076
0.022132915 0.0027511832 -0.0037398946 0.19695441 -0.94028741 -0.27761203 0.0019274334
0.024054021 0.0029772054 -0.0031386507 0.16503799 -0.97520435 -0.14744116 0.0025997274
-0.022359712 0.0055608544 -0.0042711259 -0.32780555 -0.8898772 -0.31727305 0.0013755211
-0.019445561 0.004703328 -0.0047031599 -0.2806423 -0.89578372 -0.34469017 0.0018520611
-0.016527019 0.0038132283 -0.0045121419 -0.25141218 -0.90685672 -0.33823484 0.0018066282
-0.014078167 0.0034089738 -0.0051995036 -0.23951957 -0.90426052 -0.35347345 0.0026714555
-0.011709161 0.0030230707 -0.0057334793 -0.15869552 -0.90849864 -0.38658252 0.0022287876
0.020683186 0.0031510945 -0.0058693704 0.1762241 -0.9170683 -0.3576743 0.00063905533
0.02284839 0.0033160381 -0.0050768298 0.22400866 -0.92641979 -0.30259955 0.0019131476
0.025556453 0.0037238481 -0.0044908905 0.25410819 -0.92326546 -0.28811422 0.0011866718
0.028496711 0.0045344224 -0.0044604903 0.26024568 -0.91575944 -0.30603427 0.0018644092
0.03143556 0.0053657028 -0.0043489006 0.28514242 -0.91620314 -0.28154147 0.0019430468
0.033513319 0.0058156024 -0.0035974684 0.32362288 -0.90712589 -0.26905543 0.0017804696
-0.030552147 0.0087392386 -0.0041418863 -0.36377794 -0.87785321 -0.31151143 0.0016387888
-0.028167456 0.0079451352 -0.0046711438 -0.32950866 -0.87648648 -0.3509922 0.0017709833
-0.025358032 0.0068626418 -0.0046696989 -0.34073231 -0.87979311 -0.33145982 0.0017023591
-0.023081731 0.0063986089 -0.0056281728 -0.32827309 -0.87505728 -0.35568473 0.002077468
0.032540485 0.006100276 -0.0056226794 0.29529634 -0.90826607 -0.29639971 0.0022953609
0.034694765 0.0065922872 -0.004628032 0.35449252 -0.89451796 -0.27234662 0.0014425867
0.037522614 0.0075877081 -0.0043891659 0.35420394 -0.89251077 -0.27922049 0.0018184283
0.040044021 0.0085449647 -0.0041217832 0.38799977 -0.88498169 -0.25741723 0.0019013201
-0.036762357 0.011414051 -0.0038639947 -0.41862118 -0.84607208 -0.33002773 0.0021216837
-0.034364238 0.010392074 -0.0042618033 -0.38075653 -0.8582375 -0.34416965 0.0015900254
-0.031953331 0.0096614994 -0.004989109 -0.38543153 -0.86694938 -0.31597704 0.0015602905
-0.029718142 0.0091524292 -0.0059614521 -0.34537315 -0.8227753 -0.45139578 0.0006472416
0.041318178 0.0093663838 -0.0047855088 0.42251566 -0.86753911 -0.2624051 0.0016407786
0.04357262 0.010293892 -0.0043781069 0.43021896 -0.87051189 -0.23899931 0.0010043512
0.046040155 0.011447164 -0.0041266717 0.44208717 -0.85318208 -0.27683821 0.0015404305
-0.04070418 0.013651341 -0.0043257615 -0.47129136 -0.81157041 -0.3453086 0.0011669514
-0.038253769 0.01249781 -0.0047229375 -0.42956701 -0.83580828 -0.34190163 0.001952501
0.047325082 0.012406894 -0.0047573899 0.48287791 -0.83059919 -0.27736962 0.0013890598
0.049518533 0.013525687 -0.0043359282 0.50203919 -0.81437004 -0.29113254 0.0014443579
0.051604953 0.014627301 -0.0039568008 0.50835413 -0.80926573 -0.29438919 0.0016273534
-0.044679035 0.015690114 -0.0030797017 -0.54350942 -0.78951639 -0.28506374 0.0026133428
0.052921303 0.015755894 -0.0045186547 0.54357702 -0.79448724 -0.27076581 0.0011330439
0.055164803 0.017195646 -0.0041648415 0.56058997 -0.77770913 -0.28444234 0.0017611019
0.056472365 0.018427866 -0.0049366606 0.5904637 -0.75489831 -0.28544903 0.0016073278
0.05837604 0.019679181 -0.004217294 0.61677128 -0.72602648 -0.30410305 0.002769036
0.060201686 0.020761864 -0.0031639182 0.63520288 -0.73888063 -0.2248836 0.0036193521
0.059626274 0.021312954 -0.0052518314 0.63309926 -0.6926707 -0.34553242 0.0014740125
0.061498612 0.022569919 -0.0042901295 0.67205244 -0.68045521 -0.29210654 0.0014922193
0.063259631 0.023788823 -0.0031612359 0.73448777 -0.63996011 -0.22578494 0.0046149027
0.062777914 0.024326432 -0.0052710366 0.68821681 -0.63189602 -0.35646173 0.0017161067
0.064341962 0.025610045 -0.0042347498 0.73894924 -0.60626912 -0.29392463 0.0011062834
0.065597512 0.027589336 -0.0048335856 0.76003188 -0.55815715 -0.33288467 0.0018614002
0.066788591 0.028858647 -0.0041298494 0.78626907 -0.5098533 -0.34904218 0.0022921339
0.068105094 0.031331919 -0.0044610095 0.82016867 -0.46100688 -0.33881563 0.0017074668
0.069185868 0.032512192 -0.0033976773 0.83971792 -0.41211733 -0.35360035 0.0020351689
0.068796478 0.033661451 -0.0053905696 0.8485043 -0.35035244 -0.39660257 0.003202437
0.069782138 0.034625348 -0.0041405666 0.85764617 -0.34065959 -0.38521948 0.0029638829
0.070649154 0.037492454 -0.0043387343 0.89111078 -0.24256809 -0.38351315 0.0026205701
0.071274653 0.040430412 -0.0044251671 0.89717406 -0.18241364 -0.40224874 0.0023507141
0.072062865 0.041697826 -0.0030552936 0.9648211 -0.1406562 -0.2221172 0.0048584146
0.07143677 0.043416139 -0.0047876616 0.86681515 -0.043291759 -0.49674681 0.0027609963
0.072219692 0.043669358 -0.0032589012 0.93358737 -0.072028704 -0.3510361 0.0016597967
0.071436301 0.046439596 -0.0048250915 0.85065526 0.017820816 -0.52542174 0.0033576698
0.072259426 0.046559963 -0.003322741 0.89029491 -0.01122226 -0.45524618 0.0034802537
0.071308307 0.049476966 -0.0048305015 0.81912625 0.050710801 -0.5713672 0.0045601944
0.072281159 0.049572736 -0.0032894849 0.86413121 0.0074087414 -0.50321198 0.0041309688
0.071084678 0.052418619 -0.0048169964 0.73543799 0.072264731 -0.67372751 0.0082831457
0.072240107 0.052462466 -0.0033295045 0.82466042 0.019259727 -0.56530017 0.0051394594
0.070970811 0.05540606 -0.0045575001 0.75667411 0.017895568 -0.65354735 0.0073241834
0.072221756 0.055200994 -0.0032100391 0.91326147 0.012296624 -0.40718827 0.014414181
0.071108766 0.058689665 -0.0040817005 0.7377007 -0.024895335 -0.67466873 0.0036555326
0.072220683 0.058631193 -0.0031377953 0.89466769 -0.025471941 -0.44600552 0.017921196
0.071266472 0.061415635 -0.0038909095 0.85736954 -0.045552872 -0.51268154 0.023539882
0.072387785 0.061547391 -0.0031512086 0.85736972 -0.04563608 -0.5126738 0.023533503
0.071076132 0.064527631 -0.0038544631 0.63422924 -0.076904304 -0.76931071 0.0052008801
0.072444879 0.064741977 -0.003242288 0.63431835 -0.076931715 -0.76923448 0.0051772455
0.071047194 0.067385301 -0.0040994151 0.5537917 -0.15360011 -0.81836522 0.0041644648
0.07290259 0.067464806 -0.0033841445 0.6255247 -0.17261876 -0.76086897 0.0086305365
0.071752496 0.069362819 -0.0041067493 0.51398802 -0.16574743 -0.84163177 0.0046887314
0.073462993 0.070620634 -0.0036210855 0.53962123 -0.23061594 -0.80970687 0.0084123909
0.0718171 0.072506301 -0.0045850766 0.56400698 -0.22352935 -0.79494071 0.0089656012
0.073895954 0.073234007 -0.004167072 0.72937715 -0.225712 -0.64580417 0.037273638
0.07549224 0.073672563 -0.0033645595 0.74414223 -0.38198885 -0.54803002 0.044451833
-0.015720345 0.0027835493 -0.0013709406 -0.23875421 -0.95417494 -0.180407 0.0013345929
-0.01351435 0.0022196712 -0.0015809783 -0.21572551 -0.96232247 -0.16552342 0.0016135487
-0.010550145 0.0016153581 -0.0017257757 -0.16363743 -0.9722032 -0.16746268 0.0019351494
-0.0075597968 0.001174225 -0.0016533092 -0.12941167 -0.97413337 -0.18524782 0.0036072107
-0.0045266701 0.00075110502 -0.0016905495 -0.10259748 -0.97705323 -0.18665689 0.0039868909
-0.0015772614 0.00053825951 -0.0015919979 -0.054600943 -0.98057032 -0.18841648 0.004509212
0.001441016 0.00041362346 -0.0015752756 -0.029855544 -0.98096693 -0.19186576 0.0049049733
0.0044924794 0.00034912917 -0.0016171201 0.011837088 -0.98305005 -0.18295465 0.0045557278
0.0074498383 0.00048434103 -0.0016796811 0.046394438 -0.9815172 -0.18566544 0.0046671485
0.01056172 0.00062276161 -0.0015347969 0.070547685 -0.98062557 -0.1827471 0.0042413906
0.01360622 0.00094227085 -0.0016575026 0.10887677 -0.97779226 -0.17907554 0.003959978
0.016494069 0.0013198851 -0.0015848764 0.13594313 -0.9768272 -0.16531226 0.0031863344
0.019555062 0.0017829174 -0.0015568207 0.17378566 -0.97449052 -0.14200966 0.002138831
0.022558635 0.0024128244 -0.0015341861 0.19730178 -0.97155368 -0.13097917 0.0020566161
0.024688389 0.002862789 -0.0014376201 0.22422601 -0.96952826 -0.098679565 0.0015583914
-0.024819741 0.0058583939 -0.001713377 -0.33949682 -0.91661274 -0.21109946 0.001042506
-0.022642834 0.0049992139 -0.0016389273 -0.3373034 -0.91512066 -0.22086324 0.00064918294
-0.019453784 0.0038749424 -0.0017497223 -0.29638529 -0.93589288 -0.19042169 0.00066488009
-0.01709798 0.0032418377 -0.0018659499 -0.27349648 -0.94403201 -0.18439959 0.00083875196
0.026175786 0.003240576 -0.0017411703 0.27131027 -0.95627928 -0.10918133 0.0015549448
0.028503142 0.0039001878 -0.0015570135 0.28041416 -0.95282841 -0.11612876 0.0013836664
0.031461854 0.0047809016 -0.0015507424 0.28913829 -0.95137954 -0.10618874 0.0010511845
0.033955138 0.0056027691 -0.001395339 0.32382771 -0.94014722 -0.10610767 0.0015976207
-0.031203207 0.008395493 -0.0015601811 -0.39065665 -0.89542204 -0.21355736 0.0005787877
-0.028293107 0.0071878107 -0.0017273749 -0.3597019 -0.90904063 -0.21037997 0.00048402179
-0.026049372 0.0063361907 -0.001866154 -0.35657123 -0.91041243 -0.20977639 0.00052268134
0.03546403 0.0062091746 -0.0016756833 0.36401802 -0.92515057 -0.10764473 0.0014191337
0.037476096 0.0069620931 -0.0015391448 0.37196818 -0.921628 -0.11064167 0.0013524676
0.040402923 0.0081801964 -0.0015337857 0.38993904 -0.91351539 -0.11591901 0.0013259567
0.042179123 0.0089403223 -0.00087299367 0.41736332 -0.90117866 -0.11698227 0.0013835885
-0.037839897 0.011367138 -0.0012599532 -0.4296141 -0.87602538 -0.21911496 0.0027921151
-0.03448014 0.0097805839 -0.0016885498 -0.40351692 -0.88389409 -0.23644322 0.0015351572
-0.032502037 0.0090352222 -0.0019927141 -0.38330722 -0.89393562 -0.23228173 0.0015255933
0.043502476 0.0096469354 -0.0015791338 0.44253716 -0.8891452 -0.11654046 0.001386137
0.046439722 0.011118857 -0.0015092591 0.46120012 -0.87704283 -0.13450029 0.0012836109
0.048008885 0.011880421 -0.00043192922 0.47623658 -0.87519914 -0.085000925 0.00360006
-0.042046826 0.013787247 -0.002548371 -0.45433849 -0.84424573 -0.28429848 0.0031923391
-0.04105597 0.013070926 -0.0012695161 -0.42140397 -0.86534989 -0.27127153 0.0031261335
-0.038806703 0.012067639 -0.0025291038 -0.44362199 -0.86802709 -0.22299892 0.0015773876
0.04784961 0.012029631 -0.0023936075 0.49544066 -0.86000878 -0.12216142 0.0021243123
0.049531594 0.012891239 -0.0015445951 0.50147873 -0.85451156 -0.13538484 0.001447964
0.051962364 0.01432432 -0.0014209683 0.53026551 -0.84138542 -0.10435069 0.0015481962
0.053423651 0.015364535 -0.0017311402 0.56501818 -0.81836009 -0.10507768 0.0013466622
0.05552103 0.016788598 -0.0014784916 0.5579738 -0.8196516 -0.12975541 0.0017447745
0.057319831 0.017955 -0.00086097344 0.59251463 -0.79436147 -0.1338519 0.0020078765
0.058637831 0.019125523 -0.0015836463 0.61786944 -0.7750054 -0.13267943 0.0019362702
0.060420223 0.020582218 -0.0013201574 0.66093248 -0.73704976 -0.14115907 0.0037815061
0.061890472 0.022011163 -0.0015578786 0.69509804 -0.71147692 -0.10314707 0.0016049468
0.063377514 0.023498077 -0.0014425003 0.72663528 -0.67290062 -0.13858569 0.0033766108
0.064919412 0.025265545 -0.0015058959 0.77367562 -0.619762 -0.13160977 0.0027504794
0.066130951 0.026794003 -0.0015061911 0.79360557 -0.59152329 -0.14244421 0.0025780587
0.067298442 0.02842834 -0.001484869 0.83140409 -0.53583014 -0.14715008 0.0029798185
0.068614356 0.030585254 -0.0016562626 0.85600775 -0.4996905 -0.13251436 0.0025010942
0.069472358 0.032067612 -0.0014055901 0.88746709 -0.44021535 -0.13642776 0.0031183902
0.070551232 0.034505013 -0.0014966917 0.92012823 -0.35191959 -0.17180406 0.0039612032
0.071536116 0.037422277 -0.0015936532 0.93853152 -0.27678376 -0.206275 0.0038417731
0.072059102 0.03877556 -0.00086624845 0.95639741 -0.23357016 -0.1753539 0.0058378861
0.071882911 0.039621372 -0.0026104196 0.95951897 -0.20041871 -0.19787805 0.0042849905
0.072302662 0.040584829 -0.0014099136 0.97124892 -0.1634163 -0.17312038 0.0033249392
0.072662801 0.043420803 -0.0015285441 0.98016322 -0.092233747 -0.17542213 0.0040538209
0.07280276 0.046451505 -0.00153565 0.98238486 -0.033163521 -0.18390261 0.0050534396
0.072911732 0.049497873 -0.0015200076 0.97613531 -0.025262712 -0.21568881 0.0068463651
0.073004015 0.052544158 -0.0015089484 0.96697885 -0.014216219 -0.25445968 0.00972006
0.073038951 0.055523425 -0.0015987136 0.95764965 -0.017966274 -0.28737509 0.012414229
0.073180176 0.058543049 -0.0015166585 0.92181575 0.01289609 -0.38741362 0.017553791
0.073475361 0.061510671 -0.001571156 0.93201125 -0.095016599 -0.3497526 0.016752331
0.073897682 0.064575382 -0.0015411689 0.85584813 -0.21731116 -0.46936116 0.028314494
0.074360535 0.067272246 -0.0018820491 0.8840425 -0.25772253 -0.38993332 0.028904228
0.075209707 0.068114959 -0.000732616 0.94920433 -0.26613012 -0.16788657 0.035986137
0.074605562 0.069960274 -0.0025303958 0.70549619 -0.29175571 -0.64587438 0.015606793
0.075686947 0.070689499 -0.0013895491 0.89187783 -0.26454639 -0.3668367 0.018918239
0.076570228 0.073134005 -0.0016234518 0.92854476 -0.24732988 -0.27682579 0.056006223
-0.01647822 0.0025775444 0.0018616812 -0.23021978 -0.97310799 -0.0077208574 0.0042396463
-0.013424968 0.0019229952 0.0014395179 -0.19655287 -0.98047763 -0.0055306563 0.0015940273
-0.010324067 0.0013827634 0.0014311271 -0.15320621 -0.98524976 0.07622797 0.0050507588
-0.007484654 0.0010185661 0.0014235892 -0.12733784 -0.98666692 0.10135787 0.0058321813
-0.0045748786 0.00063494878 0.0014797437 -0.089346066 -0.99443144 0.055887301 0.0014615316
-0.0016433618 0.00043422016 0.0013560002 -0.043424167 -0.99898994 0.011548674 0.0054712556
0.001502931 0.0003271653 0.0014002391 -0.017442742 -0.99957645 0.023292141 0.006239472
0.0045938068 0.00026984903 0.0013925852 0.025523741 -0.99886519 0.040209465 0.0067946357
0.0074819834 0.00039684452 0.0014333003 0.048828665 -0.98274362 0.17841147 0.0071917311
0.010515574 0.00053932081 0.001406981 0.07579048 -0.98147821 0.17594424 0.0068456032
0.013482382 0.00083303521 0.0013716453 0.11075667 -0.97854125 0.17375262 0.0068218745
0.016405147 0.0012201462 0.0013386779 0.13063438 -0.97854108 0.15934882 0.0059135729
0.019471413 0.0016889949 0.0013954871 0.17260286 -0.97633189 0.13032351 0.0041485704
0.02252155 0.0023201068 0.0012836173 0.19239454 -0.97649533 0.097165816 0.0037514144
0.024863679 0.0028210946 0.0012304375 0.21918927 -0.97301579 0.072085895 0.0027141825
-0.027509958 0.0057019247 0.0027144137 -0.26126531 -0.96481216 -0.029630264 0.018147526
-0.02520342 0.0052847555 0.0017432977 -0.27769673 -0.95247293 -0.1252194 0.0047516767
-0.022373961 0.0044048987 0.0014666514 -0.32591185 -0.94299984 -0.067325786 0.0018684294
-0.019446224 0.0034498142 0.0014578117 -0.29189447 -0.95538342 -0.045167617 0.0014970889
-0.01736336 0.0030646923 0.00048637472 -0.25561807 -0.96371943 -0.076839134 0.00071892131
0.026248818 0.0031790144 0.0015941522 0.27734259 -0.95702475 0.084762834 0.0027570224
0.02842686 0.0037936515 0.0013196761 0.28497094 -0.95389104 0.094251722 0.0024559819
0.031398159 0.0046761576 0.0013036283 0.28609344 -0.95465279 0.082392305 0.0017329933
0.034019623 0.005558739 0.0012926224 0.31955555 -0.94394338 0.082796186 0.0025649334
-0.034408972 0.0085730832 0.0020056586 -0.3797631 -0.91405559 -0.14241628 0.0040354365
-0.031674612 0.0078891627 0.0014583647 -0.35487384 -0.92274386 -0.1503609 0.003865069
-0.028707189 0.0066427081 0.0015421388 -0.37518227 -0.91262895 -0.16231658 0.0038642369
-0.02671171 0.0063351877 0.00049627898 -0.33505216 -0.93256176 -0.13441923 0.0060991077
0.035626199 0.0061841821 0.0014174562 0.36826646 -0.92592502 0.083920553 0.0023257826
0.037537832 0.0069072503 0.0013258809 0.37361991 -0.92350429 0.08687897 0.0022430725
0.04045951 0.0081292083 0.0013213103 0.38498932 -0.91751575 0.099739976 0.002084499
0.042196292 0.0089247124 0.0010995426 0.41263202 -0.90542805 0.099674113 0.0022420438
-0.040052701 0.011306778 0.0020315207 -0.4122009 -0.88966447 -0.19643737 0.010124507
-0.037096899 0.010312358 0.0012629536 -0.42976788 -0.88579786 -0.17510435 0.0051583298
-0.034580205 0.0096222656 0.00050503091 -0.41235673 -0.89442724 -0.17309497 0.0032992295
0.043639127 0.0096333819 0.0013472995 0.44558054 -0.88952321 0.10102697 0.0022067542
0.046473261 0.011066372 0.0013379353 0.48041221 -0.87367034 0.076838717 0.0036091541
0.0480326 0.011858199 0.00043929697 0.47697031 -0.87617064 0.069457442 0.0041606748
-0.042358391 0.012133361 0.0025511938 -0.41741061 -0.90813792 -0.032463852 0.032414176
-0.040268559 0.012501691 0.00051166693 -0.40254137 -0.88077337 -0.24939676 0.005271967
0.047870617 0.012009951 0.0026187259 0.44173861 -0.88556582 0.14366691 0.0029116559
0.049546134 0.012821898 0.0013089989 0.52802712 -0.84554994 0.078947037 0.0015104261
0.05201634 0.014291319 0.0012518323 0.52795357 -0.8452757 0.0823045 0.0021304351
-0.048366267 0.017082516 0.0012981775 0.62821925 0.77064925 0.10695969 0.014092724
-0.047809906 0.017317176 0.0010388601 0.63334519 0.75447983 0.17214549 0.0052812989
0.053500824 0.015343091 0.0015455495 0.5535 -0.82861692 0.083856031 0.0022174874
0.0555088 0.016707631 0.0013025323 0.55765438 -0.82280493 0.10960682 0.0024305356
0.057255961 0.017844846 0.00068304379 0.59192306 -0.79819161 0.11188029 0.0025731877
0.058678035 0.019080909 0.0013878817 0.6204294 -0.77668273 0.10877154 0.0026138851
0.060475372 0.020544013 0.001051945 0.66148746 -0.74513054 0.084940039 0.0026539352
0.061942562 0.021975888 0.0013542956 0.69814312 -0.71228725 0.072408855 0.0018793974
0.063454926 0.023489272 0.001203778 0.73282176 -0.67461687 0.088681832 0.0027551113
0.064995617 0.025266478 0.0013374164 0.76362997 -0.64211065 0.067550644 0.0021427958
0.066173591 0.026749153 0.0012977506 0.79412401 -0.59807539 0.10804107 0.0043773903
0.067376979 0.028430706 0.0012544413 0.82848495 -0.55155176 0.096971221 0.003868053
0.068658277 0.030537972 0.0015042566 0.85786045 -0.50422728 0.099147566 0.0028300956
0.069511257 0.032015815 0.0012625785 0.89170152 -0.44079623 0.10279617 0.0035663897
0.0706411 0.034522239 0.0012761301 0.93010849 -0.35249266 0.1031849 0.0026977251
0.071613379 0.037387192 0.0013984054 0.95559651 -0.27013829 0.1177312 0.005388537
0.072088845 0.038742281 0.00087357935 0.97059113 -0.21868734 0.10064159 0.0072944844
0.072372943 0.040525209 0.0012427558 0.98308367 -0.16244495 0.084605478 0.0055762767
0.072768733 0.043472271 0.0013166866 0.99073869 -0.080027081 0.1096925 0.0044333413
0.072900146 0.046463788 0.0014053312 0.99090105 -0.032899551 0.13050963 0.0053334241
0.07304053 0.049470473 0.0012900471 0.98725182 -0.028312938 0.1566278 0.0073976689
0.073152401 0.05256138 0.0012948141 0.98536456 -0.020134451 0.16926715 0.0089889206
0.073228903 0.055510607 0.0013858578 0.97888106 -0.018849958 0.20355959 0.013973923
0.07336992 0.058494262 0.0013211581 0.97145396 -0.055165447 0.23072471 0.018805278
0.07368733 0.061443985 0.0012985267 0.9569034 -0.093964294 0.2747848 0.025724897
0.074116372 0.064471632 0.0013107929 0.89133948 -0.22036771 0.39617166 0.040255588
0.074492715 0.067170553 0.0018917625 0.85939962 -0.31755555 0.40073764 0.056317151
0.07525596 0.067951106 0.00063783798 0.96534449 -0.23985553 0.10285608 0.042371564
0.074745797 0.069581397 0.0026167291 0.73855501 -0.39600962 0.54563069 0.016837334
0.075824268 0.070629328 0.0012876495 0.90211433 -0.29457086 0.31530574 0.02156418
0.076830395 0.073084779 0.0013127736 0.96400869 -0.15488021 0.21610039 0.056911785
-0.01807406 0.0029921455 0.0038697976 -0.27095658 -0.94183588 0.198816 0.010849048
-0.016245913 0.0026528176 0.0041445661 -0.23064861 -0.95940256 0.16232039 0.0095077474
-0.013551434 0.0022635255 0.004541181 -0.15942872 -0.95788026 0.23884715 0.0037609355
-0.010555892 0.001755571 0.0045286161 -0.13005553 -0.95838851 0.2541202 0.0042232401
-0.0075225951 0.0014141335 0.0045589157 -0.10104647 -0.95372522 0.28319225 0.0041766297
-0.0044324896 0.0010917569 0.0044204528 -0.072488189 -0.94894534 0.30699867 0.0042904713
-0.0014717635 0.00096670014 0.0044741444 -0.032310273 -0.94416255 0.32789198 0.0040709092
0.001486089 0.00092912855 0.0044297078 -0.0040532197 -0.94235462 0.33459151 0.0032263789
0.0045587416 0.00097542681 0.0043885191 0.031028867 -0.9378323 0.34569907 0.0025413518
0.0075815055 0.0012134399 0.0045125587 0.051683489 -0.93208247 0.35854015 0.0025300577
0.010499622 0.0013904355 0.0046078851 0.072722591 -0.93112147 0.35738522 0.0024216131
0.013448576 0.0016505688 0.0045566023 0.10334551 -0.92953801 0.3539474 0.0029321793
0.01652474 0.0020061552 0.0045477892 0.11497424 -0.93102062 0.34638357 0.0030965561
0.019492552 0.0023760363 0.0043990477 0.1469934 -0.93436152 0.32459423 0.0036139595
0.022204883 0.0026992375 0.0037808344 0.19440572 -0.92909628 0.3146213 0.0047337967
0.02410876 0.0029312957 0.0031454521 0.18333259 -0.96950501 0.16263184 0.0041999728
-0.027706845 0.0058455435 0.0034555751 -0.28878227 -0.95474601 0.071168154 0.01245725
-0.02539311 0.0054289182 0.0044709984 -0.2660639 -0.92673039 0.26529354 0.0051527601
-0.022559276 0.0045987424 0.0046402225 -0.2843115 -0.92579734 0.24913096 0.0069332854
-0.019594191 0.0036549168 0.0045923335 -0.29792294 -0.92179084 0.24807955 0.0068353219
-0.017083 0.0033356838 0.0054097315 -0.23311448 -0.93138206 0.27961594 0.0075489958
0.02028735 0.003185808 0.0058812555 0.14841941 -0.84446782 0.51463181 0.0014560984
0.022759898 0.0033503179 0.0052171885 0.18558866 -0.90339845 0.38655934 0.0045999023
0.025544986 0.0036959746 0.0045096446 0.2591202 -0.91517556 0.30872387 0.0023933982
0.028491346 0.0044828053 0.0044348971 0.25480926 -0.90618336 0.33749664 0.0042415396
0.031441476 0.0053184596 0.0043583363 0.28474236 -0.90741926 0.30905035 0.0036756108
0.033557035 0.0057774228 0.003604315 0.31844956 -0.90423888 0.28450304 0.0030017148
-0.034094371 0.0084770797 0.0042192363 -0.35705194 -0.93185031 0.064567894 0.015773917
-0.031502679 0.0076932572 0.0047301492 -0.32961971 -0.91428918 0.23542769 0.0084265405
-0.028702961 0.0066395155 0.0047289208 -0.33812264 -0.90131986 0.27073139 0.0077956282
-0.026238931 0.0061911903 0.0057457048 -0.29187489 -0.88373524 0.3658157 0.0010597369
0.032513455 0.0061238273 0.0056305635 0.2706303 -0.85616857 0.44015288 0.0014537466
0.034730971 0.006560442 0.0046349075 0.35577992 -0.8894428 0.28690091 0.0025306228
0.037537437 0.0075303321 0.0043858215 0.33384997 -0.90041167 0.27893203 0.0022055479
0.040098056 0.008512577 0.0041319868 0.38258588 -0.88275599 0.27270839 0.0027541625
-0.042033393 0.011899993 0.0030581313 -0.41736239 -0.90816021 -0.03246123 0.032413762
-0.039921369 0.011212138 0.0043126973 -0.39995828 -0.90832764 0.12236935 0.027053431
-0.037296232 0.0099400105 0.0042869509 -0.42893645 -0.88871336 0.16187043 0.0083625633
-0.035353936 0.0092570605 0.0050210538 -0.40496111 -0.90746725 0.11184677 0.016977359
0.041274592 0.0093431463 0.0049660895 0.42228305 -0.86294949 0.27748001 0.0024166114
0.043497756 0.010192781 0.0043853237 0.41320616 -0.86920738 0.2715497 0.0027101017
0.046072602 0.011403749 0.0041358718 0.43648782 -0.8532632 0.28534251 0.0024538308
-0.046214785 0.014902445 0.0046350169 0.65696752 0.73357934 -0.1739396 0.0094887828
-0.043575317 0.013216705 0.0044364836 -0.47909075 -0.8156575 0.32430699 0.0011618952
-0.041838668 0.012384617 0.0050962078 -0.37916693 -0.88305765 0.27648076 0.0050998647
0.047337539 0.012368458 0.0048059835 0.48441121 -0.82812881 0.28204328 0.0022456348
0.049507849 0.013456575 0.0043593799 0.50518125 -0.81040037 0.29672083 0.0023156253
0.051685255 0.014604835 0.0039608721 0.50359762 -0.81096661 0.29786339 0.0025191181
0.052953321 0.015717028 0.0045468914 0.54362577 -0.79556024 0.26749757 0.0017133357
0.055206813 0.01714793 0.0041882484 0.55513936 -0.78255481 0.28183013 0.0025695628
0.056474373 0.018385416 0.005023119 0.58169645 -0.76530862 0.27555752 0.0021408997
0.058404215 0.019603372 0.0042724749 0.61292303 -0.7513119 0.24465421 0.0012615466
0.060249615 0.0207543 0.0033725488 0.6414448 -0.71540165 0.27703607 0.0022214062
0.059771355 0.021297995 0.0054120789 0.63595313 -0.69764847 0.32992449 0.0024727553
0.061548837 0.022471908 0.0043247584 0.68078023 -0.68283564 0.2650919 0.0020265128
0.063301928 0.023786392 0.0033697772 0.70176309 -0.65179163 0.28756955 0.002260624
0.062767446 0.024244495 0.005299456 0.7000742 -0.60755843 0.37519178 0.0040734378
0.064368747 0.025528602 0.0042929784 0.74189693 -0.61231822 0.27323136 0.0018837308
0.066027001 0.026903342 0.0030242461 0.76788539 -0.56991351 0.29249057 0.0021463905
0.065632828 0.027526153 0.0049031582 0.76114935 -0.56436723 0.31959552 0.0036222483
0.06687282 0.028771706 0.004114646 0.78828925 -0.52704155 0.31753308 0.0030996362
0.068194278 0.031287417 0.0045392159 0.82660663 -0.42734525 0.36619335 0.003693389
0.069240183 0.032413092 0.0035141334 0.84661442 -0.41980547 0.32711971 0.0030218977
0.068889439 0.033499621 0.0054987725 0.84436238 -0.36422333 0.3929294 0.0038939088
0.069870234 0.034550678 0.0042334595 0.86831379 -0.34438238 0.35697609 0.0038181501
0.070821494 0.037481319 0.0043546888 0.90174329 -0.2517823 0.35137561 0.0025576511
0.071432367 0.040356703 0.0045242198 0.90251726 -0.17461689 0.39366415 0.0037836637
0.072113588 0.041444801 0.003235938 0.92373621 -0.18426226 0.33579585 0.0030152996
0.071628764 0.04345395 0.0049955919 0.89163965 -0.064988524 0.4480572 0.0035054232
0.072301067 0.043628983 0.0034777536 0.92900777 -0.080683306 0.3611576 0.0039646379
0.071653411 0.046521936 0.0050852532 0.88532287 -0.0033863271 0.46496451 0.0039747301
0.072371066 0.046488322 0.0035585652 0.92157197 -0.021608887 0.38760579 0.0039721159
0.07148724 0.049412299 0.0053185876 0.86906648 0.022515913 0.49418274 0.0052448823
0.072333395 0.04941424 0.0037510188 0.90921408 -0.0074446071 0.41626242 0.0043493444
0.071485952 0.052456245 0.0051495866 0.83551913 0.056285046 0.5465709 0.0064867013
0.07241872 0.052479122 0.0036172837 0.88537496 0.009024729 0.46479002 0.005441153
0.071231291 0.055490118 0.0050210976 0.84188521 0.014488596 0.53946215 0.0070496574
0.072407141 0.055477854 0.0035344402 0.84701937 0.02173608 0.5311175 0.0069642202
0.071222931 0.05820971 0.0045467592 0.81352776 0.0098471623 0.58144265 0.0049156155
0.072406322 0.058409404 0.0033672748 0.92264354 0.0023926036 0.38564634 0.023012007
0.071259119 0.061561543 0.0039394605 0.74921215 0.0075065154 0.66228753 0.0066140932
0.072508469 0.061402831 0.0032321622 0.8898477 -0.024120865 0.45561966 0.03071388
0.071308382 0.064950056 0.0036354731 0.67399371 -0.074426912 0.7349782 0.0095448634
0.072769657 0.0645805 0.0031713317 0.84694701 -0.096761912 0.52279812 0.044895951
0.071594976 0.067069896 0.0036455349 0.6807192 -0.1844269 0.70894861 0.012355668
0.073104896 0.067699566 0.003366821 0.64627129 -0.26310807 0.71631527 0.011930023
0.073840737 0.070588589 0.0036765486 0.64799458 -0.32286313 0.68982786 0.0087344404
0.075131834 0.071604431 0.0031924429 0.72986293 -0.27775297 0.6246227 0.0064910045
0.073794931 0.073370486 0.004554485 0.82812274 -0.36913437 0.42184418 0.031470884
0.075626217 0.073382743 0.0035790449 0.90797424 -0.21375909 0.36040229 0.035844531
-0.012536033 0.0028489244 0.0063856947 -0.1694963 -0.87781972 0.44799945 0.0010691477
-0.010151048 0.0026412697 0.0067284894 -0.1256233 -0.88014179 0.45778733 0.001594179
-0.0074254368 0.002478017 0.0070540486 -0.083342992 -0.88123792 0.46526733 0.0017383989
-0.0044194888 0.0023575851 0.0072678379 -0.048910253 -0.87808579 0.47599688 0.0017791392
-0.0014763486 0.0022071591 0.0072124731 -0.021601735 -0.87582815 0.48213956 0.0019033559
0.0014110014 0.0022330533 0.0072708265 0.0059368224 -0.87440747 0.48515597 0.0019198243
0.0044279248 0.0022574866 0.0071845884 0.042567443 -0.87554365 0.48126012 0.0015258713
0.0074550007 0.0023979687 0.0070222938 0.057542995 -0.86633074 0.49614504 0.0017212456
0.01063011 0.0025402654 0.0068969098 0.077344127 -0.86590266 0.49419677 0.00080756808
0.013171851 0.0027192333 0.0066062808 0.10473928 -0.85386109 0.50985384 0.00071347051
0.016004594 0.0028927745 0.0063793729 0.1136767 -0.84807897 0.51753229 0.00059092091
-0.024499362 0.0059266072 0.0063811052 -0.29616654 -0.85648477 0.4227519 0.0010684767
-0.022142861 0.0055518034 0.0071459818 -0.26213041 -0.85644966 0.44472647 0.0013107121
-0.019320339 0.0048192297 0.007368403 -0.21832851 -0.85906506 0.46296862 0.0012690639
-0.016535874 0.0042093662 0.0075050085 -0.19030172 -0.8611362 0.47141236 0.001671295
-0.01364738 0.0036843156 0.0076540648 -0.16297764 -0.8556959 0.49114439 0.0011538126
-0.01063118 0.0034027509 0.008067729 -0.11851416 -0.85186172 0.51018232 0.0016220303
-0.007705004 0.0032669974 0.0084348395 -0.078484394 -0.85119939 0.51894099 0.0019786286
-0.004688181 0.0032781891 0.0087930579 -0.040824782 -0.84946817 0.52605802 0.0021343098
-0.0015415131 0.0032825265 0.0089334808 -0.015993895 -0.84508473 0.53439319 0.002161582
0.001641801 0.003172498 0.0088826939 0.0040442189 -0.84549654 0.53396565 0.0022424483
0.0048610722 0.0031843961 0.0087402184 0.044269983 -0.8436088 0.5351302 0.0022427982
0.0076050586 0.0033566626 0.0085872132 0.060770687 -0.84481382 0.53159803 0.0016957669
0.010666127 0.0033963756 0.0082858931 0.081047423 -0.83799464 0.53962606 0.0010137524
0.013651456 0.0035644181 0.0078957994 0.11335364 -0.83522743 0.53809488 0.00059568248
0.016572513 0.0038521776 0.007713425 0.12196571 -0.82560217 0.55091333 0.00059372309
0.019495854 0.0041366937 0.007486105 0.14579512 -0.8191306 0.55476922 0.00078810827
0.022459261 0.0046751434 0.0074742776 0.17839098 -0.81197768 0.55575979 0.0028662644
0.025347488 0.0050748596 0.0072257104 0.19066219 -0.81026959 0.55417603 0.0025787752
0.028278271 0.005496663 0.0067622727 0.22232121 -0.82066429 0.5263871 0.0034246072
0.030518867 0.0058916486 0.0063918885 0.27024388 -0.83176953 0.48489973 0.0033023045
-0.031223264 0.0086733149 0.0073308419 -0.30983666 -0.84218889 0.44126973 0.0012447658
-0.028579745 0.0078874724 0.0076316493 -0.29384792 -0.84384251 0.44898036 0.0010216392
-0.025630163 0.0069108247 0.0077150241 -0.28699419 -0.85186958 0.43812391 0.00080324517
-0.02301125 0.0065285838 0.0084278723 -0.25838202 -0.8268097 0.49962422 0.00064791116
-0.020522526 0.0060163555 0.0087767206 -0.22415955 -0.80042541 0.55594218 0.00050728855
0.026326541 0.0064338828 0.0086081354 0.17621052 -0.73175138 0.6583994 0.00033477787
0.028726632 0.006679425 0.0082053011 0.19805796 -0.78672844 0.58466345 0.0032005024
0.031628162 0.0070921346 0.0076858308 0.2333644 -0.79518634 0.55966038 0.0026578309
0.034421667 0.0078654336 0.0074396571 0.28292888 -0.79583377 0.53535026 0.0038902012
0.037248645 0.0084880553 0.0068265861 0.32152608 -0.81457752 0.48278806 0.0029358717
0.039024651 0.0088300649 0.0061750668 0.33669674 -0.80207479 0.49326608 0.0030734395
-0.039357614 0.01184315 0.0065927315 -0.38553354 -0.82151341 0.4200947 0.0011977577
-0.037258275 0.011211167 0.0073572979 -0.3752026 -0.81931758 0.43352237 0.0014022741
-0.034296647 0.0097245499 0.0070835333 -0.34420356 -0.83766896 0.42406911 0.0012246858
-0.032000136 0.0095927343 0.0084908074 -0.31799066 -0.82335997 0.47006413 0.0014076543
0.035263028 0.0092262225 0.00888687 0.24001335 -0.70325208 0.66920108 0.0015216864
0.03771922 0.0095972735 0.0082492912 0.28519469 -0.7265054 0.62518305 0.0019987242
0.040524088 0.010332358 0.0075230468 0.33800763 -0.79704601 0.50046825 0.0024118526
0.043284718 0.011295698 0.0070562381 0.3794131 -0.79097074 0.4800114 0.002762093
0.045305766 0.011715891 0.0061318013 0.45023897 -0.79381347 0.40883386 0.0031898397
-0.042587418 0.013550217 0.0066425758 -0.46924588 -0.82043958 0.32663 0.0012669393
-0.040733598 0.012963099 0.0075338865 -0.41685465 -0.80460495 0.42289853 0.0015266892
-0.038612876 0.012550722 0.0086182617 -0.38394898 -0.77435982 0.50294137 0.00071751844
0.044083241 0.012475267 0.0083224373 0.35128832 -0.76468998 0.54022759 0.003333722
0.046584062 0.013320439 0.0074987644 0.41256675 -0.7699877 0.48673159 0.0024627442
0.049100861 0.014353772 0.0068749478 0.46331915 -0.75323415 0.46687651 0.0018393238
-0.046400666 0.015983477 0.0067042517 0.66797054 0.70414221 -0.24082997 0.013684027
-0.044326168 0.015435028 0.008218538 -0.46117362 -0.76721901 0.44575086 0.0011916396
0.049948961 0.015610478 0.0080216946 0.44180596 -0.74583715 0.49853238 0.0035629082
0.052358862 0.016725898 0.0072683338 0.48321983 -0.74082279 0.46656209 0.0016119744
0.054543637 0.017652418 0.0063951844 0.51257807 -0.72557342 0.45913717 0.0013132048
0.053501051 0.01841129 0.0084698526 0.46602476 -0.64153671 0.60930413 0.0017193645
0.055635024 0.019254299 0.007523247 0.5039736 -0.70547003 0.49831986 0.0028069769
0.057730459 0.020286357 0.0066818879 0.56455672 -0.66540527 0.48837635 0.0015849456
0.056680147 0.021028433 0.0087036602 0.54237509 -0.64293844 0.54079509 0.0026386275
0.058827799 0.022089316 0.0077033807 0.59662056 -0.64443642 0.47827351 0.0015497654
0.060787644 0.02318033 0.0067789513 0.6115334 -0.60230863 0.51308 0.0011883199
0.06187699 0.025171965 0.0076663545 0.63989204 -0.55611813 0.53034967 0.0043520285
0.063621394 0.026202848 0.0066431602 0.67204314 -0.55340427 0.49203834 0.002819225
0.062842108 0.02711742 0.0084717982 0.65821987 -0.50409281 0.55913955 0.0024490976
0.064602956 0.028388815 0.0074375118 0.70819163 -0.45498464 0.53986442 0.0027272278
0.066308998 0.029630734 0.0063574496 0.72883487 -0.49103001 0.4771679 0.0023527599
0.065499909 0.030821422 0.0082943384 0.66516089 -0.36383364 0.65206289 0.0010561426
0.06693311 0.031742651 0.007077171 0.73272169 -0.40016347 0.55044365 0.0028512089
0.067859031 0.034377057 0.0075056287 0.75855112 -0.31726909 0.56915772 0.003020742
0.069232352 0.035466611 0.0062013897 0.79344821 -0.31955385 0.51800126 0.002527148
0.06830243 0.037264775 0.0082370769 0.76341629 -0.20315088 0.61312741 0.0028722298
0.0695519 0.037574861 0.0067548901 0.80265415 -0.22751808 0.55134547 0.0024505018
0.068633065 0.040216278 0.0086326366 0.67532814 -0.11049304 0.72919357 0.0024811723
0.069926567 0.040510807 0.007142412 0.79899752 -0.13871379 0.58511657 0.0025400631
0.068751127 0.043462172 0.0088224821 0.6467939 -0.020243756 0.76239604 0.0030589667
0.070192553 0.043459706 0.0072227484 0.78405303 -0.048767388 0.61877507 0.0028500685
0.068668857 0.046527423 0.00877822 0.65264678 0.079031058 0.75352925 0.0081356652
0.070194267 0.046451744 0.0072031692 0.7474097 0.036526002 0.66335857 0.0032384393
0.068180144 0.049482562 0.0085601974 0.61451203 0.11670946 0.78022689 0.0042976877
0.070176542 0.049393158 0.0069767307 0.739851 0.078164272 0.66821462 0.0049267365
0.068166725 0.051783588 0.0080545852 0.67535889 0.10562219 0.72988647 0.0011867856
0.069993719 0.052172117 0.006783952 0.73335296 0.054399293 0.67766815 0.0044967532
0.069779538 0.05465943 0.0064247106 0.71427512 0.086430602 0.6945076 0.0022252735
-0.01827338 0.005851137 0.0094696991 -0.21421424 -0.79134607 0.57261121 0.0013056489
-0.016267097 0.0055541522 0.0096754245 -0.17980114 -0.79832888 0.5747543 0.00088964601
-0.013399086 0.0052419677 0.010036811 -0.14278391 -0.79067546 0.59535289 0.0010350315
-0.010398884 0.004918403 0.010218619 -0.10019381 -0.78866887 0.60659927 0.0014435555
-0.0074173929 0.0047322181 0.010385606 -0.07314454 -0.77582341 0.62669605 0.0017378438
-0.0045113829 0.0046935985 0.010599579 -0.022831922 -0.75403732 0.65643471 0.0014900301
-0.0014938464 0.0046360269 0.010599828 -0.015654827 -0.75466347 0.65592521 0.0021051902
0.0014736471 0.0046297754 0.010587815 0.011366998 -0.7381162 0.67457789 0.001493287
0.0044833194 0.0045622224 0.010453206 0.018674949 -0.75393426 0.65668428 0.0020325682
0.0074620834 0.0048581418 0.010510429 0.06538523 -0.75229865 0.65556961 0.0021003224
0.010539399 0.004707383 0.010110888 0.088012807 -0.76953566 0.63250977 0.0014663634
0.013465371 0.0050774524 0.010081752 0.11558396 -0.75226426 0.64864373 0.0014760131
0.016452823 0.0052981684 0.0097553553 0.12941188 -0.78160137 0.61020637 0.00055184396
0.019415403 0.0056262505 0.0093841767 0.15189604 -0.74789566 0.64620394 0.00072472577
0.021694969 0.0058420468 0.0090605207 0.15873717 -0.75295538 0.63863975 0.00076747074
-0.027032351 0.0084029958 0.0093968771 -0.2609868 -0.82270348 0.50501972 0.00079978252
-0.024977989 0.0082604848 0.010163756 -0.25589919 -0.78703624 0.56132841 0.0010721913
-0.0223398 0.0077750836 0.010541589 -0.21358076 -0.78338587 0.58368641 0.001426847
-0.019556675 0.0070137568 0.010602791 -0.20671117 -0.78399706 0.5853368 0.00087749341
-0.016648056 0.0065968479 0.011029344 -0.15865709 -0.77568156 0.61085683 0.00121817
-0.014004274 0.0064118188 0.011459604 -0.12410209 -0.72096503 0.6817683 0.0012356136
-0.010713984 0.0062674861 0.01183278 -0.086509392 -0.69995195 0.70893121 0.0015317574
-0.0082836635 0.0061084456 0.011940558 -0.044729069 -0.70861638 0.70417476 0.0024252341
0.010654445 0.0060749641 0.01155391 0.067003071 -0.67875612 0.73130071 0.0036479814
0.01367943 0.006602874 0.01166901 0.10128289 -0.64495111 0.75748265 0.0025354896
0.016658202 0.0067904675 0.011387258 0.13191265 -0.66004556 0.73955315 0.0023438355
0.019553481 0.006989005 0.010952029 0.15702684 -0.68215758 0.71414542 0.0016243333
0.022518896 0.0073038018 0.010516543 0.17225902 -0.70500743 0.68796176 0.0010834155
0.02533537 0.0077335509 0.010193099 0.17444362 -0.69847542 0.69404733 0.00059608748
0.028448207 0.0082434164 0.0099075548 0.196171 -0.68392098 0.70268697 0.00041350292
0.031442191 0.0086374246 0.0095368791 0.20906878 -0.68510073 0.69780165 0.000859158
-0.033833236 0.011304828 0.010042696 -0.34222314 -0.77499408 0.5312885 0.00056247471
-0.031411476 0.010704488 0.010494711 -0.29135486 -0.77798468 0.55664366 0.0014367714
-0.028509671 0.0098001659 0.010680221 -0.26347789 -0.77858067 0.56955373 0.00085573446
-0.026076131 0.009535118 0.011498474 -0.22520094 -0.7309258 0.64422977 0.0012708944
-0.023922969 0.0091595929 0.01182067 -0.22734499 -0.74309242 0.62938696 0.0016816756
0.025794756 0.0092675621 0.011624361 0.18306774 -0.66630256 0.72286034 0.00043014475
0.028467301 0.0097742202 0.011312379 0.1918276 -0.66378921 0.72290111 0.00038271237
0.03143635 0.010208797 0.010893532 0.20306093 -0.63070506 0.74898422 0.00031415274
0.034374189 0.010505012 0.010379414 0.21141568 -0.65567189 0.7248432 0.0015390558
0.037385587 0.011042738 0.0099788345 0.26688015 -0.65540922 0.7065506 0.0020425143
0.039951261 0.011561939 0.0094511118 0.30574208 -0.70216334 0.64303076 0.0027053875
-0.03982133 0.014054758 0.010009727 -0.38532811 -0.75622874 0.5288102 0.0017401542
-0.037469517 0.013145363 0.010273256 -0.35802677 -0.76457375 0.53595138 0.00058941048
-0.035125073 0.012499921 0.01092066 -0.33127195 -0.75742882 0.56263715 0.0013357874
0.035192583 0.012275446 0.011609108 0.20686972 -0.61252886 0.76289803 0.00037867518
0.037708361 0.012659939 0.011213921 0.22842395 -0.62802041 0.74391729 0.00097706052
0.040642746 0.013292321 0.01075469 0.24738243 -0.59057325 0.7681309 0.00059420103
0.043435983 0.013786928 0.01010064 0.33829352 -0.67634678 0.65430307 0.0015972025
0.045945965 0.014522994 0.0095061511 0.37986705 -0.64936274 0.65880895 0.0023917076
-0.045849066 0.017170193 0.0092897229 -0.4621273 -0.73487115 0.49638975 0.003305401
-0.043758374 0.016604405 0.010280635 -0.44942379 -0.71540678 0.53498733 0.0014173931
-0.040587049 0.015555175 0.011488479 -0.40525967 -0.70958155 0.57641876 0.0009739605
0.041572683 0.015179375 0.011970151 0.24308704 -0.55060899 0.79858524 0.00060291152
0.043731421 0.015773524 0.01160288 0.28824839 -0.5476948 0.78545737 0.0016035165
0.046580318 0.016277378 0.010782295 0.31776142 -0.57006824 0.75766075 0.00060199114
0.049292937 0.016930148 0.0099755386 0.41192138 -0.65529001 0.63317919 0.0016657944
0.051450748 0.01762788 0.0092872791 0.44824809 -0.66886318 0.59303939 0.0016370044
0.047411941 0.018169651 0.011898395 0.30281222 -0.52316803 0.79661787 0.0011470465
0.049821746 0.018974692 0.011349081 0.35743737 -0.52489406 0.77247959 0.0012886452
0.05244023 0.019530708 0.010321184 0.41797656 -0.58300269 0.69670904 0.0032664139
0.054914635 0.020332295 0.0094785718 0.48469591 -0.62443 0.61250073 0.0019640271
0.053127863 0.021625413 0.01156883 0.38265389 -0.47007832 0.79536301 0.0011796395
0.055571355 0.022441443 0.010632511 0.44145942 -0.49690798 0.74712515 0.00085158803
0.057940163 0.023145229 0.0095843384 0.534275 -0.55397922 0.63848042 0.0016460797
0.056278929 0.024718065 0.011681757 0.4100531 -0.41821951 0.81052387 0.0013215091
0.058648936 0.025397021 0.010643983 0.46715775 -0.43713567 0.76855457 0.00058447575
0.060840786 0.026073664 0.0095231384 0.57380152 -0.50215381 0.64698786 0.0015096376
0.059326578 0.027820596 0.011600921 0.45507506 -0.3522529 0.81781691 0.0015546405
0.061514132 0.028453242 0.010422562 0.52409869 -0.36959267 0.76728219 0.0010548849
0.06338428 0.029211868 0.009362679 0.62622428 -0.42043263 0.65656656 0.0021703315
0.061911996 0.031292133 0.011432724 0.50105423 -0.29695132 0.81287432 0.001073406
0.064220443 0.031579982 0.0098751532 0.61958617 -0.34368369 0.70568722 0.0016520036
0.062647253 0.033947509 0.011862691 0.49798864 -0.20057869 0.84366786 0.0022521401
0.064588405 0.034425445 0.010658122 0.59464842 -0.26166952 0.76021206 0.0021276895
0.066382147 0.0348721 0.0093713589 0.67404848 -0.2712262 0.68709165 0.0019430055
0.064702041 0.037374172 0.011275711 0.51732934 -0.12182552 0.84707081 0.0019632962
0.066907622 0.037614051 0.0097100707 0.65189898 -0.17881972 0.73692012 0.0026202884
0.064832188 0.040286329 0.011493511 0.52389395 -0.061766453 0.84954107 0.0018550409
0.067240849 0.040564958 0.009907227 0.62071824 -0.0815164 0.77978456 0.0026201818
0.064915538 0.042996068 0.011350925 0.51461691 0.018046124 0.85723037 0.0025004586
0.067334227 0.043404628 0.0099506481 0.57796878 0.025977137 0.81564534 0.0039533363
0.065036997 0.046633042 0.010712471 0.5493902 0.071579196 0.83249438 0.0022729475
0.067461751 0.046121929 0.0096702855 0.58921582 0.072810441 0.80468839 0.003845128
-0.019448876 0.0084031653 0.012330599 -0.1921698 -0.73439068 0.65095401 0.0012690682
-0.016519062 0.0082022659 0.012792998 -0.14393875 -0.70968169 0.68966198 0.0012182769
-0.013431634 0.0078040115 0.012892772 -0.11168654 -0.66680366 0.73681676 0.001870326
-0.010453219 0.0076170941 0.013120117 -0.070609771 -0.66567683 0.74289203 0.0013665132
-0.0075854422 0.0076366491 0.013319532 -0.031589903 -0.63054132 0.77551246 0.0023253909
-0.0046074153 0.0074710129 0.013316786 -0.023354078 -0.63514674 0.77203834 0.0023221793
-0.0013663779 0.0073331459 0.013240105 0.0015345403 -0.63234311 0.77468687 0.0021683166
0.0017017333 0.007304877 0.013169542 0.018561684 -0.62508595 0.78033519 0.0023699943
0.004643844 0.0073520518 0.013103319 0.045155354 -0.61538011 0.78693604 0.0025343518
0.0074925371 0.0075788023 0.013087029 0.03911287 -0.59327412 0.80404985 0.0030295781
0.010502227 0.0073929518 0.012738386 0.056595873 -0.61053669 0.78996319 0.0020843875
0.013659691 0.0080846446 0.012911232 0.092367351 -0.60076696 0.79407018 0.0018760025
0.016622091 0.0082842251 0.012680689 0.10980836 -0.61575049 0.78025216 0.0022547727
0.019392271 0.0085887648 0.01246398 0.1364381 -0.64279169 0.75379276 0.0024247775
0.021638613 0.0088625774 0.012289051 0.16149805 -0.66450775 0.72962171 0.0012673446
-0.031874988 0.011975342 0.012023848 -0.2735692 -0.73213792 0.62380606 0.0015332614
-0.02845842 0.01155108 0.012845558 -0.24024262 -0.68952078 0.68326026 0.0013040999
-0.02513814 0.010886358 0.013247518 -0.21968648 -0.69013178 0.68953311 0.0019785943
-0.022362066 0.010444737 0.013534552 -0.17836067 -0.66683668 0.7235443 0.0017760424
-0.019689327 0.010063071 0.013820533 -0.16767959 -0.64225358 0.74792635 0.0021715153
-0.016687425 0.0098211328 0.01418593 -0.11557528 -0.59278983 0.79702109 0.0014590129
-0.013602871 0.0095350891 0.014336702 -0.077903286 -0.57087499 0.8173328 0.0012069839
-0.010536692 0.0096660843 0.014699283 -0.052663505 -0.52892292 0.84703434 0.0025473514
-0.0077582686 0.009631522 0.014773026 -0.024976678 -0.51550621 0.85652167 0.0019969877
-0.0045797848 0.0095658498 0.014787213 -0.0031217677 -0.50908411 0.8607111 0.0013216612
-0.001787619 0.0094766812 0.014714669 0.016297543 -0.49616575 0.86807489 0.0014221065
0.0012665649 0.0094593167 0.01463709 0.029853117 -0.48292509 0.87515265 0.0015852066
0.0045267874 0.0095508536 0.014556685 0.045151122 -0.47169578 0.88060462 0.0016441491
0.0077634752 0.010236301 0.014723588 0.070551574 -0.45476657 0.88781184 0.0018415625
0.010561991 0.01004606 0.014415329 0.084946088 -0.48479897 0.87049073 0.0025452042
0.013457933 0.010454397 0.014351023 0.070898615 -0.44745809 0.89149016 0.0011662387
0.016558178 0.010465539 0.014043202 0.097341545 -0.46561876 0.87961572 0.0010956834
0.019655785 0.010315822 0.013581426 0.11683153 -0.48824543 0.8648507 0.00059094926
0.022525065 0.010391088 0.01318947 0.14610569 -0.55722374 0.81740743 0.0021768948
0.025413562 0.010680329 0.012845321 0.16822416 -0.57733089 0.79899293 0.0018859599
0.028372644 0.011203688 0.012580354 0.18200482 -0.59296018 0.78439307 0.0011960593
