# .PCD v0.7 - Point Cloud Data file format
VERSION 0.7
FIELDS x y z normal_x normal_y normal_z curvature
SIZE 4 4 4 4 4 4 4
TYPE F F F F F F F
COUNT 1 1 1 1 1 1 1
WIDTH 558
HEIGHT 1
VIEWPOINT 0 0 0 1 0 0 0
POINTS 558
DATA ascii
0.043284435 0.019903112 -0.015508403 0.25165898 -0.41359162 -0.8749913 0.0027047084
0.045727432 0.020755565 -0.015151267 0.31204 -0.45898646 -0.83184278 0.0025003462
-0.037158262 0.023302404 -0.015586796 -0.13639252 -0.24479096 -0.95993465 0.0026968194
-0.034179214 0.021986362 -0.015711352 -0.1233659 -0.3029452 -0.94498944 0.0027889132
-0.031358894 0.02280586 -0.016327977 -0.12067741 -0.24916212 -0.96091372 0.0047566178
-0.028341645 0.022571217 -0.016497696 -0.045628183 -0.12799825 -0.99072427 0.0034825958
-0.025568608 0.022303002 -0.0165368 -0.0045078355 -0.093762584 -0.99558443 0.007016574
-0.022798264 0.022466118 -0.016526202 0.0314283 0.086427264 -0.99576229 0.005755059
-0.019490153 0.022483822 -0.016354071 0.065254189 0.14593291 -0.98714006 0.005022598
-0.016378248 0.022643371 -0.016082525 0.1158027 0.23838517 -0.9642418 0.0023546198
-0.01320523 0.022557724 -0.015823092 0.11610864 0.27460328 -0.95452178 0.0024727681
-0.010451449 0.022571014 -0.015576936 0.11561592 0.32085815 -0.94004416 0.0022204027
-0.0076634651 0.022138311 -0.015468336 0.050281394 0.32255894 -0.9452129 0.0021964859
-0.0046353475 0.02178213 -0.015421581 0.048805803 0.35236213 -0.93459022 0.0028852904
-0.0018754166 0.021811174 -0.015259378 0.026209243 0.37094292 -0.92828584 0.002674921
0.0010725915 0.021718251 -0.01524134 0.010192625 0.38730693 -0.92189449 0.0025042468
0.0044438862 0.021672249 -0.015270486 -0.013885959 0.3856335 -0.92254752 0.002117445
0.0074781808 0.021668684 -0.015381251 -0.02905561 0.37333411 -0.92724192 0.0016039027
0.010799057 0.021971511 -0.015463177 -0.053322345 0.3819873 -0.92262799 0.0019190386
0.013785085 0.021954849 -0.015702004 -0.090931758 0.35999042 -0.92851406 0.0018526276
0.017056199 0.022598319 -0.015792657 -0.12526537 0.25934821 -0.95762569 0.0045539518
0.019565178 0.022202341 -0.016230784 -0.10431315 0.27713785 -0.95515102 0.0014672593
0.022099825 0.022553047 -0.016404234 -0.10953994 0.23631524 -0.96548229 0.0024800876
0.025188312 0.022249997 -0.016821051 -0.079170175 0.16726434 -0.98272824 0.0016868082
0.028068742 0.022117231 -0.017084012 -0.079264536 0.130449 -0.98828143 0.0029566647
0.031475686 0.02232 -0.017242862 -0.045283377 0.06574174 -0.99680859 0.0029268467
0.034862619 0.022544803 -0.017291082 0.0060498915 0.037957773 -0.99926102 0.0069706934
0.037702836 0.022318009 -0.017179077 0.089884356 -0.15566292 -0.98371232 0.0074007101
0.040588848 0.022381937 -0.016892817 0.11929361 -0.20614041 -0.97122353 0.0042044101
0.043539427 0.02247189 -0.016385 0.17996579 -0.26276034 -0.94792902 0.003793319
0.046444137 0.022469962 -0.015656311 0.28601906 -0.35953218 -0.88821721 0.0015830508
0.048663147 0.023465784 -0.015307451 0.3270106 -0.37628415 -0.86687618 0.0028671098
-0.040365458 0.025276443 -0.01550813 -0.14016877 -0.13175239 -0.98132259 0.0011840431
-0.037227187 0.026080089 -0.016310403 -0.093312487 -0.090604782 -0.99150574 0.0041531124
-0.034408092 0.02537786 -0.016484564 -0.055631224 -0.090059079 -0.99438155 0.0036698945
-0.031645313 0.025656536 -0.016585026 -0.015982863 0.040845435 -0.99903762 0.0085507603
-0.028674345 0.025325352 -0.016574113 0.049759164 0.1391751 -0.98901689 0.0051050219
-0.025481448 0.025564177 -0.016316077 0.076703675 0.19303213 -0.97818971 0.0041219625
-0.022294946 0.025476234 -0.016022317 0.12143579 0.27699551 -0.95316672 0.0017894749
-0.019499063 0.0254247 -0.015675792 0.13517065 0.33165121 -0.9336682 0.0019691596
-0.016794568 0.025157413 -0.015379384 0.12374019 0.35176399 -0.92787415 0.0034520454
-0.014268182 0.024451507 -0.015289329 0.12291001 0.41267914 -0.90254587 0.0024518555
-0.011874087 0.024252389 -0.015078051 0.10680882 0.43520296 -0.89397436 0.0009478826
0.023116503 0.02474387 -0.015753275 -0.12707236 0.22129266 -0.96689308 0.0018595969
0.026198396 0.024180364 -0.016411489 -0.09295401 0.16005421 -0.98272181 0.0014903179
0.028762782 0.024806561 -0.016533857 -0.086909235 0.11826723 -0.98917115 0.0024406649
0.031582057 0.025436025 -0.016675677 -0.063730843 0.12928775 -0.98955697 0.0018805237
0.034438908 0.025197998 -0.017025471 -0.03585593 0.10172587 -0.99416608 0.0037506633
0.037531272 0.025269823 -0.01716093 -0.018589079 0.04439643 -0.99884105 0.0073425476
0.040398996 0.025392441 -0.017135447 0.026465945 0.076671414 -0.99670511 0.0072148917
0.043544471 0.025476331 -0.016921405 0.1392151 -0.12460946 -0.98239076 0.0069830972
0.046618901 0.025360769 -0.016401011 0.19942476 -0.15649177 -0.9673366 0.0026619225
0.04950884 0.025521737 -0.015669001 0.25668389 -0.23698418 -0.93699086 0.0034265341
0.051620081 0.026245737 -0.015228568 0.34646752 -0.28845352 -0.89261127 0.0033717444
-0.045826141 0.029056219 -0.015255422 -0.080244422 -0.025443716 -0.99645048 0.0042747366
-0.042813312 0.028556632 -0.015825087 -0.12859197 -0.068534419 -0.9893266 0.0019030831
-0.039523602 0.028018946 -0.016287228 -0.070480064 -0.082740381 -0.99407578 0.0032721325
-0.036882941 0.028498674 -0.016499367 -0.042585477 -0.02685906 -0.99873179 0.0087538324
-0.03423721 0.028756704 -0.016429536 0.031346761 0.14510305 -0.98891985 0.0039304039
-0.031405434 0.028415952 -0.016273048 0.076060429 0.21235117 -0.97422886 0.0044992552
-0.028373042 0.028625892 -0.015858065 0.11325027 0.28047809 -0.95315599 0.0030138167
-0.025720179 0.028358337 -0.015522252 0.13039771 0.34353724 -0.93004221 0.0030806158
-0.022806019 0.0277202 -0.015292034 0.15250218 0.42137203 -0.89397353 0.0030921861
-0.019695252 0.027011815 -0.015066409 0.15825233 0.4240959 -0.89168322 0.00097921619
0.034413807 0.027778566 -0.0162597 -0.05103885 0.15439941 -0.98668933 0.0012276937
0.03715175 0.028402423 -0.016381398 -0.044320777 0.16979289 -0.98448265 0.0016883671
0.040652882 0.028303249 -0.016766183 -0.012163322 0.12417699 -0.99218547 0.0031993748
0.04370955 0.028204735 -0.016835522 0.026872119 0.14129891 -0.98960221 0.0044091353
0.046789519 0.028359398 -0.016601108 0.13103141 -0.034097448 -0.99079168 0.0080049299
0.049651545 0.028568981 -0.016183307 0.19422364 -0.0625377 -0.97896183 0.0032023392
0.052450966 0.028564282 -0.015445739 0.26620531 -0.15874648 -0.95075452 0.0032175872
0.054000013 0.029924223 -0.015177399 0.25665843 -0.1050579 -0.96077538 0.0020882464
-0.04615742 0.032304179 -0.015752533 -0.058294356 0.037829354 -0.99758238 0.0038949787
-0.042274754 0.031384256 -0.016170954 -0.052373417 0.051056385 -0.99732149 0.0057973834
-0.039805729 0.031510346 -0.016253106 0.018227696 0.14267659 -0.98960149 0.0077336044
-0.03740979 0.031548049 -0.01610714 0.051121578 0.20301497 -0.97784019 0.0043866592
-0.034280777 0.031631753 -0.015727863 0.1209403 0.29159272 -0.94886619 0.0027848352
-0.031616703 0.030934103 -0.015541952 0.16072385 0.37767255 -0.91188341 0.0029716375
-0.02892109 0.030742712 -0.015119706 0.17347458 0.44010639 -0.88102949 0.0027849015
0.040278263 0.030772561 -0.015940672 -0.030289073 0.19339351 -0.98065358 0.0013428417
0.043783456 0.031278718 -0.016163563 -0.0090644509 0.20130968 -0.97948575 0.00186007
0.046704814 0.031453732 -0.016276799 0.028053867 0.19174343 -0.98104405 0.0026611208
0.049845126 0.031287089 -0.016131775 0.12279732 0.088045463 -0.98851854 0.0047364333
0.052645326 0.031477708 -0.015650555 0.17164944 -0.022145567 -0.98490918 0.0043073753
0.054693818 0.031634156 -0.015189077 0.29837325 -0.062097643 -0.95242703 0.003727871
-0.04631567 0.034756385 -0.015649112 0.024843572 0.19804116 -0.97987884 0.0023665614
-0.043423742 0.034624275 -0.015737044 0.042143937 0.24213246 -0.96932751 0.004688974
-0.040559012 0.034433208 -0.015608582 0.085816287 0.28993294 -0.95319176 0.0022114273
-0.037722174 0.033856049 -0.015460377 0.1369849 0.38157475 -0.91413122 0.0025749125
-0.035535045 0.033500209 -0.015210871 0.18912058 0.44973052 -0.87291229 0.0025422047
0.044883508 0.033486448 -0.015510554 -0.028490018 0.2264504 -0.97360599 0.0010930063
0.046776641 0.034147307 -0.015485396 -0.020428244 0.27149248 -0.96222377 0.00086242432
0.049662605 0.034199398 -0.015622934 0.021045435 0.22995028 -0.97297484 0.0032108636
0.052580532 0.034443747 -0.015432861 0.12096073 0.15410763 -0.98062193 0.0019502982
0.054710265 0.034276608 -0.015155297 0.2012351 0.1075488 -0.97362095 0.0038004292
-0.048765071 0.037359543 -0.015157063 0.053293895 0.31509519 -0.94756258 0.0011646625
-0.046669316 0.036720838 -0.015309093 0.033629023 0.24053629 -0.97005743 0.005336097
-0.043769743 0.036768861 -0.015174732 0.096368298 0.36472577 -0.92611468 0.0029094131
0.050620839 0.036342949 -0.015015041 0.0088251475 0.29253456 -0.95621425 0.0021116098
0.05281372 0.036320549 -0.015026206 0.061977975 0.27772975 -0.95865786 0.0037305842
-0.015122646 0.0088599827 -0.01203655 -0.14517607 -0.61958724 -0.77138549 0.0027838084
-0.012221999 0.008489362 -0.012320409 -0.15446231 -0.65159893 -0.74267095 0.0016635393
-0.010240477 0.0081188949 -0.012356583 -0.11846443 -0.62181073 -0.77415603 0.001520308
-0.007465221 0.0081782071 -0.01272089 -0.090007521 -0.60982001 -0.78741235 0.001469263
-0.0044943136 0.0078771859 -0.012816246 -0.075088762 -0.60389102 -0.79352206 0.0014148827
-0.0014518907 0.0076180389 -0.012841647 -0.051167369 -0.59190392 -0.8043828 0.0013106402
0.0015506073 0.0077149966 -0.013058058 -0.035561152 -0.58740699 -0.80851001 0.0013660443
0.0046355831 0.0075116223 -0.01302558 -0.014757043 -0.59306997 -0.80501574 0.0016190178
0.0074336343 0.0075836219 -0.01308734 0.0045710811 -0.60434484 -0.79670978 0.0013652133
0.010495689 0.0075900173 -0.013081392 0.019464379 -0.61730105 -0.78648615 0.0013092097
0.013445908 0.0077562644 -0.013081186 0.037188686 -0.63269746 -0.77350557 0.0014417148
0.016496122 0.007854105 -0.012974842 0.064741611 -0.65335327 -0.75427973 0.0013239364
0.019414857 0.0080209132 -0.012799581 0.099528804 -0.66954005 -0.73607755 0.0011867125
0.022318162 0.0082549965 -0.012581718 0.12921852 -0.68919337 -0.71296215 0.0013784851
0.025027832 0.0086386697 -0.01243002 0.17088732 -0.71018106 -0.68296438 0.001324664
-0.022608414 0.011549638 -0.012346161 -0.16540509 -0.5234226 -0.83586478 0.00076562347
-0.019365767 0.011194029 -0.012957665 -0.17018373 -0.57246 -0.8020767 0.001051656
-0.016135121 0.010687278 -0.013227236 -0.15701002 -0.56029445 -0.81327605 0.0017320081
-0.013489749 0.010341866 -0.013431847 -0.13230197 -0.56868005 -0.81184924 0.0010883471
-0.010553708 0.010521628 -0.013979281 -0.10133887 -0.53052032 -0.84159297 0.0017601667
-0.007704827 0.010457022 -0.014184339 -0.076900728 -0.48389703 -0.87173951 0.0014683554
-0.0048778197 0.010245374 -0.014293395 -0.069397926 -0.4676992 -0.88115907 0.0014813379
-0.0017941179 0.010024619 -0.014357257 -0.042398233 -0.4688952 -0.88223565 0.0016964294
0.0015466365 0.010064278 -0.014516633 -0.034278072 -0.46951926 -0.88225657 0.0017431319
0.0046831178 0.0098914579 -0.014530181 -0.021568775 -0.46577409 -0.88464075 0.0019998928
0.0077710114 0.0098568974 -0.014559777 -0.0096301064 -0.47029647 -0.88245595 0.0023639947
0.010527398 0.0099601727 -0.014645779 0.0043640286 -0.48014763 -0.87717682 0.0022385162
0.013436032 0.0098176822 -0.014526738 0.024930941 -0.49478754 -0.86865628 0.0020096989
0.016550098 0.009869176 -0.014459157 0.047138385 -0.51294649 -0.8571254 0.0018135812
0.019605983 0.0099544236 -0.014264884 0.071705475 -0.53910428 -0.83918118 0.0016592052
0.022617456 0.010238588 -0.014140691 0.1098365 -0.55595315 -0.82392478 0.0010528181
0.025627913 0.010462821 -0.013832374 0.14754793 -0.61720252 -0.77284592 0.0019702774
0.02852568 0.01045764 -0.013228594 0.17712627 -0.63410294 -0.75268829 0.0018208899
0.03142393 0.010886297 -0.012892731 0.21478191 -0.66730267 -0.71314514 0.0013435795
0.034098469 0.011469215 -0.012551063 0.24584098 -0.65045035 -0.71866304 0.0014272779
0.036329158 0.011858404 -0.012159972 0.28689563 -0.66856563 -0.68608373 0.0015452595
-0.03058557 0.014877577 -0.012604811 -0.19585843 -0.50002664 -0.84357148 0.00085498288
-0.028414058 0.01407479 -0.012645631 -0.19637103 -0.50466663 -0.84068429 0.00073947024
-0.025093997 0.013613604 -0.0132618 -0.18305933 -0.51787466 -0.83564061 0.00076777569
-0.022778323 0.014119682 -0.014142181 -0.15337172 -0.49496362 -0.85527074 0.0015680729
-0.020004833 0.013409013 -0.014251654 -0.16224837 -0.48789915 -0.85768872 0.0014846531
-0.016478846 0.01273285 -0.01446822 -0.11676423 -0.44666666 -0.88704848 0.0020514217
-0.013442158 0.012520605 -0.014737225 -0.10498594 -0.41102663 -0.90555787 0.0026056855
-0.010304141 0.012098528 -0.014903847 -0.07004714 -0.41767937 -0.90589035 0.0048138094
0.028604163 0.012412282 -0.014722805 0.14625044 -0.5445767 -0.82586139 0.0035681161
0.031734422 0.012879021 -0.014391311 0.17983682 -0.54734111 -0.81735945 0.0018616486
0.034687772 0.013299214 -0.013938925 0.2145886 -0.57440645 -0.78994238 0.00078991859
0.037466526 0.013588096 -0.013298084 0.28060201 -0.61869127 -0.73381442 0.0020428719
0.040148739 0.014132383 -0.012702045 0.30869237 -0.65570092 -0.68903214 0.0013466591
0.042496424 0.014718108 -0.012237765 0.35028523 -0.65428716 -0.67023021 0.00089928869
-0.03173266 0.017044453 -0.013909592 -0.17460766 -0.44495034 -0.87836856 0.0027638287
-0.028536508 0.016338471 -0.014211675 -0.19585963 -0.50002688 -0.84357113 0.00085356622
-0.025446681 0.0156506 -0.01449217 -0.18704657 -0.45613176 -0.87003297 0.0016769477
-0.021918481 0.015155454 -0.014897507 -0.15337174 -0.49496543 -0.85526979 0.0015691175
0.037931629 0.015533924 -0.014601506 0.23210962 -0.50652248 -0.83039761 0.0019469457
0.04073799 0.016095398 -0.014081893 0.2738598 -0.53958619 -0.79614544 0.00085459783
0.043475166 0.016600631 -0.01337263 0.34310913 -0.58350444 -0.7360698 0.0021013061
0.046018269 0.017280964 -0.012686552 0.37412679 -0.61669135 -0.69261897 0.001396948
0.048396952 0.017975548 -0.012051087 0.40961814 -0.58743769 -0.69794697 0.0019511231
-0.035184525 0.019582201 -0.014365164 -0.18454838 -0.39538953 -0.89978278 0.0036802387
-0.031417683 0.018009663 -0.014529493 -0.17460312 -0.44494972 -0.87836981 0.0027648783
0.044091601 0.01872438 -0.014585488 0.28325567 -0.47125703 -0.83527422 0.0017970662
0.046718545 0.019309787 -0.013885789 0.33913577 -0.50448173 -0.79403096 0.00091359077
0.049321335 0.019823279 -0.012971732 0.41167429 -0.55481118 -0.72298604 0.0013537225
0.051455438 0.020598713 -0.012303563 0.44238061 -0.56469101 -0.69672346 0.0015490169
-0.0078534773 0.023628179 -0.014892327 0.09688767 0.3734059 -0.92259455 0.002399245
-0.0043525295 0.023480698 -0.014688449 0.06796658 0.39865828 -0.9145776 0.0026562568
-0.0012119289 0.023080766 -0.014699423 0.040276803 0.42635146 -0.90366042 0.0023629311
0.0013840186 0.023285506 -0.014548775 0.012370478 0.43488124 -0.90040284 0.0020663096
0.0039317147 0.023240531 -0.014557776 -0.0054628155 0.4425596 -0.8967225 0.0025171372
0.0069745444 0.022981875 -0.01475448 -0.044012353 0.44582912 -0.8940354 0.0022830896
0.01033686 0.023475945 -0.014728234 -0.08173091 0.41531497 -0.90599859 0.0023959405
0.047561578 0.021271082 -0.014736656 0.36290109 -0.47731629 -0.80029494 0.0008829034
0.049823057 0.022270722 -0.014240829 0.37277383 -0.42935878 -0.82261217 0.0014592466
0.052486461 0.022610318 -0.013117467 0.43075451 -0.4949812 -0.75461525 0.0015666579
0.054589003 0.02343718 -0.012429422 0.4833464 -0.49697241 -0.72069037 0.0016571716
-0.01823087 0.026783075 -0.01493565 0.15322627 0.48470026 -0.86115468 0.0020684735
-0.016083851 0.02644838 -0.014732194 0.17093576 0.41205394 -0.89498186 0.0026821487
-0.013643709 0.025811184 -0.014612329 0.15830591 0.4587155 -0.87436801 0.0018053947
-0.010486699 0.025574788 -0.014229893 0.12693459 0.4862884 -0.86452943 0.0010443856
-0.0074792816 0.025470281 -0.013876891 0.085294031 0.48417762 -0.87080246 0.0010358292
-0.0042786007 0.025654759 -0.013410419 0.07995303 0.55965239 -0.82486165 0.0016468593
-0.0013970376 0.025420368 -0.013336063 0.059829071 0.55826777 -0.82750082 0.0036841643
0.0015200268 0.025402656 -0.013226196 0.0033544661 0.57708555 -0.8166768 0.0029930521
0.0046613291 0.025118977 -0.013417249 -0.001716026 0.56106704 -0.82776856 0.0021592388
0.0070655877 0.025705941 -0.013065227 -0.031068986 0.53248745 -0.84586751 0.0022270505
0.0099511873 0.025192661 -0.013644451 -0.062168099 0.52607936 -0.84816015 0.0016585122
0.013086185 0.024635684 -0.014297527 -0.11549204 0.38651237 -0.91502446 0.0011472375
0.01711222 0.024882827 -0.014732062 -0.12049443 0.32301134 -0.93869311 0.0012054234
0.050323971 0.024067348 -0.01492192 0.33005446 -0.34974685 -0.87677884 0.0019535278
0.052816495 0.025206035 -0.014326599 0.39230585 -0.35291114 -0.84944087 0.0015491431
0.055432372 0.025612257 -0.013119373 0.4644706 -0.40979835 -0.78506851 0.0016543145
0.057458322 0.026383514 -0.012325081 0.50174671 -0.43408734 -0.74821019 0.0022743701
-0.024723697 0.029635746 -0.014803383 0.19415037 0.41249967 -0.89002794 0.0030199271
-0.0224889 0.029197538 -0.014517684 0.19599672 0.46659693 -0.8624804 0.0020142621
-0.01953782 0.028722189 -0.014083759 0.18803194 0.5055666 -0.84204894 0.0015531727
-0.016557759 0.028440394 -0.013586916 0.19371119 0.52392256 -0.82944632 0.0010926799
-0.013540047 0.028136421 -0.013115215 0.17928717 0.59784478 -0.78130519 0.001640716
-0.010780835 0.028126201 -0.0125894 0.14693277 0.61788052 -0.77242112 0.0018331059
-0.0079776794 0.027494565 -0.012596043 0.11621737 0.63431782 -0.76428694 0.0016491942
-0.0050042863 0.027260162 -0.012407548 0.092156708 0.60208899 -0.79309273 0.0019699442
-0.00058936526 0.027032455 -0.012136714 0.075808547 0.60434586 -0.79310727 0.0019216806
0.053514808 0.027504627 -0.014845585 0.34592348 -0.21761553 -0.91267765 0.0035362118
0.055582915 0.028403606 -0.014188047 0.41127923 -0.26389036 -0.87247419 0.0013507793
0.058374915 0.028647134 -0.012839383 0.47605598 -0.32917508 -0.81548417 0.0026491468
0.060081121 0.029772962 -0.012220223 0.54462355 -0.34742942 -0.7633335 0.0018901625
-0.031107854 0.03251683 -0.014744252 0.21265298 0.42694262 -0.87891906 0.0026930429
-0.028359359 0.031920265 -0.014342959 0.21830851 0.4933733 -0.84197628 0.0017465488
-0.025583727 0.031559501 -0.013784445 0.23487432 0.53483391 -0.81165683 0.0013563257
-0.02261262 0.031400416 -0.013019626 0.23790447 0.6101476 -0.7557258 0.001287572
-0.019712212 0.030706108 -0.012750261 0.21997944 0.64044785 -0.73582315 0.0015087945
-0.016663846 0.030218594 -0.012276381 0.205531 0.66035312 -0.72228169 0.0012853845
0.056117121 0.0312353 -0.014645807 0.36239952 -0.13346279 -0.92241764 0.0028488322
0.058537308 0.031474691 -0.013583307 0.43310684 -0.15944517 -0.88712776 0.0018959362
0.060743172 0.031743936 -0.012433087 0.50871986 -0.24611354 -0.82500434 0.0029744722
-0.03735178 0.035260666 -0.014762832 0.19453216 0.45538187 -0.86878335 0.0029141819
-0.034262646 0.034694571 -0.014301598 0.2294699 0.49718836 -0.83674812 0.0014172083
-0.031483009 0.034669694 -0.01344925 0.26899669 0.56197494 -0.78219247 0.0028262958
-0.028783523 0.03416644 -0.012906658 0.28080028 0.5894177 -0.75745493 0.0022108227
-0.025685579 0.03349226 -0.012370162 0.25892836 0.6484009 -0.71591359 0.0012374067
0.04758922 0.035646737 -0.014977691 -0.024671167 0.2700448 -0.96253169 0.0010052519
0.056105014 0.034515958 -0.014785426 0.25132123 0.025600195 -0.96756512 0.0045378134
0.058597714 0.034468673 -0.013982223 0.34316793 -0.038361832 -0.93849033 0.0036860793
0.061458029 0.034537472 -0.0127096 0.45570403 -0.11434376 -0.88275665 0.0028225025
-0.049034648 0.038508259 -0.014828091 0.10400705 0.37273028 -0.92209256 0.0024498189
-0.046449285 0.038328577 -0.014834662 0.096907392 0.35400793 -0.93020827 0.0034742416
-0.043365773 0.038076703 -0.014519692 0.17058723 0.43902847 -0.88213032 0.0034172817
-0.040412143 0.037453737 -0.01424579 0.17745326 0.4496775 -0.87538594 0.0023920927
-0.037459042 0.037512586 -0.013392367 0.27211055 0.5447045 -0.79325461 0.0025317955
-0.034492105 0.036989231 -0.012780329 0.27205923 0.61172217 -0.74281877 0.0018148734
-0.031826578 0.036447778 -0.012192289 0.28803056 0.64834332 -0.70476186 0.0013955688
0.049326178 0.037545953 -0.014381909 -0.04253573 0.32676136 -0.9441492 0.00067266985
0.052791055 0.037734263 -0.014566794 0.048413601 0.26170781 -0.9639321 0.0037852265
0.055532333 0.037395377 -0.014508263 0.15109813 0.23116261 -0.96111041 0.0058493735
0.058420796 0.037500869 -0.013983998 0.27191839 0.1029987 -0.95679235 0.0036851563
0.061608963 0.037443895 -0.012870836 0.42026678 -0.012030291 -0.9073208 0.0046770433
-0.054012112 0.041346703 -0.013891065 0.017170293 0.3760556 -0.92643809 0.00060691842
-0.052055806 0.040618252 -0.014186963 0.056258079 0.37623826 -0.92481333 0.00030448037
-0.049506813 0.040462002 -0.014180423 0.077623188 0.40117967 -0.91270447 0.0011956117
-0.046457987 0.040613797 -0.013760984 0.1072093 0.40766203 -0.90681744 0.0015403967
-0.043638896 0.040532578 -0.013157085 0.22668006 0.52100235 -0.82290506 0.002433036
-0.040640652 0.039744928 -0.012818176 0.25396076 0.59434587 -0.76305765 0.0023256755
-0.038110312 0.039135024 -0.012445478 0.28472078 0.61695397 -0.73369056 0.0016480453
0.052846491 0.040396318 -0.013450119 0.0054921815 0.33251274 -0.94308287 0.00073574268
0.055811808 0.040161621 -0.013697945 0.051994506 0.32922947 -0.94281727 0.0015343305
0.058639269 0.040405195 -0.013363171 0.17118937 0.25244814 -0.95234668 0.0043779993
0.061661463 0.040439717 -0.012609289 0.33938724 0.12056676 -0.93288797 0.0043218988
-0.057345495 0.043661147 -0.012804164 0.031895474 0.42479184 -0.90472901 0.0016623365
-0.055017784 0.043967873 -0.012925394 0.039865721 0.4242757 -0.90465504 0.0018067057
-0.05232219 0.043603264 -0.012990946 0.12149171 0.47415677 -0.87201786 0.003557907
-0.049650759 0.043361153 -0.012794613 0.14925711 0.50341541 -0.85105538 0.0028115329
-0.046662629 0.042738169 -0.012540902 0.23010325 0.57713962 -0.78355753 0.004352882
0.056203283 0.042883981 -0.012537825 0.02276155 0.36067075 -0.93241543 0.00064176531
0.058917813 0.043109201 -0.012476638 0.077422 0.32862338 -0.94128233 0.0028441628
0.06116581 0.042867336 -0.012259214 0.23400921 0.28109229 -0.93071306 0.0068894238
-0.057161134 0.045887388 -0.012034175 0.038165409 0.47600183 -0.8786158 0.0020043096
-0.053754814 0.045239754 -0.012328294 0.067447595 0.4930045 -0.86740845 0.0052534533
-0.01436713 0.005889365 -0.009148417 -0.18237525 -0.75282401 -0.63245177 0.00058837858
-0.010697898 0.0054380377 -0.0096684778 -0.14306621 -0.7563948 -0.63827813 0.00095899048
-0.0075335735 0.0051964605 -0.0099104466 -0.11292823 -0.74364954 -0.65896326 0.0013998525
-0.0043635136 0.0047799475 -0.0099465586 -0.091947861 -0.74816036 -0.65711612 0.0016250646
-0.0014300458 0.0048761712 -0.010321747 -0.052245758 -0.75335014 -0.65554088 0.0018857139
0.0020316311 0.0048682438 -0.010534078 -0.038151599 -0.75069922 -0.65954149 0.0021682496
0.0046844813 0.0046846364 -0.010423266 -0.0024746389 -0.75508863 -0.65561801 0.001889015
0.0075370725 0.0047748298 -0.010466382 0.019994821 -0.7557314 -0.65457642 0.0019883306
0.010761047 0.0047716429 -0.010372547 0.040970348 -0.75103503 -0.65898997 0.0010699113
0.013554804 0.004968639 -0.010330143 0.07695353 -0.76207846 -0.6428954 0.0013811176
0.016555211 0.005043088 -0.010049553 0.1019284 -0.77657008 -0.62173122 0.0013674214
0.019486684 0.0053300345 -0.0098873219 0.13323787 -0.78785342 -0.60127741 0.001359513
0.021965357 0.0055453 -0.0095234793 0.15813909 -0.79516512 -0.5854097 0.0011749107
0.024329636 0.0059067374 -0.0093948543 0.16524756 -0.7833901 -0.59916043 0.0012388489
-0.017752839 0.0079903426 -0.010534601 -0.17116825 -0.68806612 -0.70517123 0.0017923214
-0.014004678 0.0072769984 -0.010797109 -0.18346629 -0.69012499 -0.70004833 0.0016322783
-0.010678217 0.0068592243 -0.011210059 -0.14022118 -0.66262144 -0.7357111 0.0017375812
-0.0079369294 0.0066199536 -0.011366703 -0.097786136 -0.64762944 -0.75565463 0.0017033039
-0.0042630248 0.0063914158 -0.011659089 -0.082103536 -0.70015872 -0.70925093 0.0008726159
-0.00087001262 0.00613881 -0.011700591 -0.056782011 -0.70410645 -0.70782048 0.0012405138
0.0026327609 0.0061821025 -0.011952897 -0.039943382 -0.70285052 -0.71021527 0.0015095285
0.0040234323 0.0060149049 -0.0118556 -0.0090308916 -0.70308459 -0.71104896 0.0016551216
0.0074563604 0.0060677952 -0.011860003 0.012226476 -0.71283358 -0.70122665 0.001215519
0.011317002 0.006064333 -0.01175992 0.02809887 -0.71519339 -0.69836152 0.0010569068
0.013895374 0.0063266777 -0.011787565 0.057434238 -0.67091304 -0.73930842 0.0015842794
0.016465234 0.0063598887 -0.011578415 0.081456579 -0.68796152 -0.72116143 0.001281376
0.019508125 0.0065834313 -0.011377791 0.11493407 -0.70431364 -0.70052296 0.0013224463
0.022628436 0.0067807017 -0.010964133 0.14435826 -0.76859331 -0.62323749 0.001432034
0.025628591 0.0071400665 -0.010606788 0.18373591 -0.77280986 -0.60745865 0.0010067535
0.02840668 0.0077998289 -0.010483644 0.20360459 -0.77245575 -0.60154581 0.0019721289
0.031409144 0.0082819918 -0.010004768 0.25764474 -0.77562004 -0.57622278 0.001258543
0.033716191 0.0086623952 -0.0094330804 0.28908682 -0.79316121 -0.53602624 0.001599374
-0.018576588 0.0095461234 -0.011868671 -0.18593445 -0.62858403 -0.75518906 0.0018728548
0.029711585 0.0092031807 -0.011757694 0.20279978 -0.71318525 -0.67099857 0.0026972676
0.031678598 0.0095204851 -0.011465425 0.23226362 -0.69758809 -0.67780852 0.0014438882
0.034588724 0.0099585159 -0.0107045 0.27849221 -0.75830001 -0.58942616 0.0012414696
0.03747895 0.0107811 -0.010373917 0.29242751 -0.75631827 -0.58520848 0.0018128752
0.040113617 0.011471326 -0.0097589968 0.34813863 -0.74927783 -0.56336683 0.0011654986
0.038221832 0.012196801 -0.011744005 0.28445813 -0.68974137 -0.66583812 0.00093465031
0.040784284 0.012732124 -0.010949536 0.32977062 -0.72912574 -0.59968907 0.001461619
0.043413628 0.013567581 -0.010427766 0.36518171 -0.73351306 -0.57323718 0.0010083636
0.045952134 0.014402315 -0.009726448 0.42024973 -0.70898342 -0.56633264 0.001226509
0.044449415 0.015214403 -0.011708604 0.3530404 -0.67954111 -0.64310682 0.0019285083
0.046739083 0.015897727 -0.010931943 0.40443158 -0.69283056 -0.59701008 0.0016479286
0.049269259 0.016897626 -0.010320015 0.43047041 -0.68301779 -0.59006947 0.0019091422
0.051577535 0.017661665 -0.0093803173 0.49188614 -0.65819365 -0.56993788 0.0014523348
0.050251942 0.018641816 -0.01146003 0.43921876 -0.61552483 -0.65438217 0.0015451649
0.052512098 0.019451678 -0.010540091 0.46528244 -0.62763357 -0.62417018 0.0024799746
0.054916557 0.020462159 -0.0097036744 0.52781641 -0.60817385 -0.59290338 0.0015566257
0.053557128 0.021347316 -0.011599044 0.48812082 -0.57913148 -0.65295088 0.0010821482
0.055735458 0.022333469 -0.010762708 0.50711513 -0.5245946 -0.68383831 0.0010306968
0.057754904 0.023160556 -0.0097482875 0.56765318 -0.57823867 -0.58601183 0.0012278495
0.056529034 0.02442514 -0.011738238 0.52302498 -0.49595407 -0.69316262 0.00044884352
0.05870514 0.025324481 -0.010733105 0.52416849 -0.47461426 -0.70709878 0.00098119804
0.060654931 0.026105812 -0.0097065251 0.59988421 -0.51725906 -0.61039495 0.0012979311
-0.013604345 0.029728316 -0.011820115 0.18793193 0.69977289 -0.68920207 0.0019003587
-0.010833476 0.02954118 -0.011301427 0.1643759 0.72325671 -0.67073113 0.0019949388
-0.0078387018 0.029046405 -0.011113158 0.13988341 0.73497349 -0.6635108 0.0014383813
-0.0042086067 0.028695513 -0.010865041 0.10327406 0.72537756 -0.68055993 0.0022901129
-0.0011853762 0.028698871 -0.010462364 0.0778758 0.71993023 -0.68966359 0.0021328966
0.0018839851 0.028155733 -0.010840207 0.014776054 0.65884829 -0.75213069 0.0034405056
0.0067606973 0.027531829 -0.011499692 -0.034223899 0.56525153 -0.82420832 0.0019651121
0.05947024 0.02765812 -0.01169087 0.55658484 -0.35793105 -0.74973238 0.0024180743
0.061516874 0.028490566 -0.010508441 0.57438821 -0.372049 -0.72914869 0.00084250188
0.063352421 0.029299183 -0.0093778651 0.65105534 -0.42415264 -0.62946123 0.0017479929
-0.021877013 0.032670736 -0.0116549 0.25511366 0.69378591 -0.67348212 0.0018000006
-0.019407634 0.032351129 -0.011093057 0.24562642 0.72961718 -0.6382212 0.0018996035
-0.016532691 0.031687967 -0.010724255 0.23553538 0.73774093 -0.63266212 0.0011515786
-0.013610499 0.031155758 -0.010363455 0.20472521 0.74195457 -0.63842863 0.0024891659
-0.010747939 0.030859997 -0.0098763788 0.17944574 0.74918067 -0.63759512 0.0014470269
-0.0081678899 0.030424874 -0.0097491592 0.13993751 0.75364316 -0.64221454 0.001467408
-0.0044667558 0.030327195 -0.0090203239 0.10507003 0.75145864 -0.65136033 0.0010660239
0.062118966 0.031313788 -0.011363938 0.55011076 -0.29359728 -0.78177929 0.0013460263
0.064113237 0.031645514 -0.0099340966 0.64491153 -0.34474701 -0.68208402 0.0016550281
-0.027969468 0.03539411 -0.011454269 0.29612976 0.63864213 -0.71024185 0.0014032971
-0.025367161 0.034962408 -0.010723299 0.29790774 0.72932047 -0.61590809 0.0013399451
-0.02265574 0.03416238 -0.01040178 0.27638963 0.74237394 -0.61031932 0.0021526902
-0.019599566 0.0336705 -0.0096660415 0.26589257 0.74449098 -0.61240053 0.0015813075
-0.017450741 0.033051357 -0.0094754519 0.24400361 0.76234591 -0.59940881 0.0010958076
0.062803574 0.033773299 -0.011775442 0.57001823 -0.190217 -0.79931015 0.0022417558
0.064513065 0.034455407 -0.010636861 0.61112249 -0.24390344 -0.75302088 0.0015552894
0.066381022 0.035239656 -0.0093000103 0.67543834 -0.25591415 -0.69158584 0.0019622904
-0.036113486 0.038809516 -0.011885736 0.3265394 0.66851366 -0.66817766 0.0011515085
-0.033967663 0.038371723 -0.011283261 0.3132036 0.66434979 -0.67863315 0.00084969791
-0.031378787 0.037732959 -0.010640823 0.34545606 0.69435203 -0.63129658 0.0026793249
-0.028731383 0.036969416 -0.010139049 0.32693732 0.7239598 -0.60744894 0.0015821644
-0.026429743 0.036335338 -0.0096483277 0.31959751 0.74479347 -0.58578157 0.0010901813
0.064656183 0.037387546 -0.01113969 0.53128636 -0.068473473 -0.84442055 0.002150083
0.066625789 0.037639432 -0.0096579893 0.66628772 -0.14208446 -0.73203319 0.0026826218
-0.042028449 0.041473806 -0.011990014 0.27785653 0.60402173 -0.74696285 0.0028849375
-0.039901353 0.04119255 -0.011317756 0.31441796 0.65682954 -0.68535858 0.0015501034
-0.03726038 0.040517528 -0.010682864 0.3223303 0.666982 -0.67174262 0.0011305412
-0.034767698 0.039911069 -0.010035063 0.34002793 0.7223435 -0.60216355 0.0017272308
-0.032504946 0.039363105 -0.0093537467 0.36411607 0.74997723 -0.55222607 0.0018574172
0.064666376 0.040444575 -0.011266524 0.45818767 0.061263952 -0.8867417 0.0039211153
0.066983722 0.040610697 -0.0096961185 0.62516779 -0.033626087 -0.77976573 0.0027947726
-0.048562787 0.044587757 -0.011703717 0.21127605 0.60688055 -0.76619744 0.0019934045
-0.046148002 0.044167809 -0.011220399 0.27895755 0.62120277 -0.73231816 0.0028634607
-0.043379076 0.0435194 -0.010631693 0.32725459 0.66364318 -0.67266792 0.0022141743
-0.040568896 0.042753741 -0.010021014 0.34436557 0.6951583 -0.63100499 0.0018415275
-0.038522243 0.042323418 -0.0093808137 0.364335 0.70891333 -0.60390562 0.0014175067
0.056857683 0.04491929 -0.011572658 0.047554091 0.37211445 -0.92696786 0.00054381386
0.058503393 0.044966053 -0.011661885 0.048154552 0.37879515 -0.92422694 0.0006279535
0.062065028 0.044035524 -0.011720847 0.21394223 0.26007289 -0.94158953 0.0069734138
0.064614967 0.043384347 -0.010990027 0.39566746 0.16065411 -0.9042331 0.0041398369
0.066992089 0.043388911 -0.0096322279 0.57429487 0.08039692 -0.81469119 0.0036451784
-0.059136055 0.04741193 -0.01127121 0.0046226922 0.47460401 -0.88018733 0.001277081
-0.055512808 0.046944387 -0.011453735 0.085042767 0.50133014 -0.86106664 0.0044211596
-0.052418947 0.046778016 -0.011074624 0.16354445 0.55378354 -0.8164416 0.0018906948
-0.049385849 0.046458893 -0.010402574 0.28239363 0.637196 -0.71710181 0.0018861759
-0.046473604 0.045758981 -0.0098642083 0.31916401 0.69514674 -0.64413142 0.0011873497
-0.044267572 0.045289103 -0.0092463354 0.35967985 0.71829844 -0.59554827 0.00079050031
0.059272289 0.046296518 -0.011012069 0.074184477 0.38729668 -0.9189657 0.001302128
0.061649736 0.046153598 -0.011008545 0.15949012 0.3386468 -0.92729783 0.0023124907
0.06460534 0.0464155 -0.010248912 0.32517383 0.26440763 -0.90793753 0.0065062894
0.066686392 0.046420369 -0.0093721114 0.50986731 0.17697568 -0.84185213 0.0038392621
-0.061556332 0.050788645 -0.0092776315 0.1517566 0.63030696 -0.76136923 0.0021423933
-0.058139585 0.049527712 -0.010024575 0.11746434 0.59819901 -0.79269177 0.0026978524
-0.055301692 0.049150519 -0.0098967468 0.12590528 0.61631614 -0.77736872 0.0041003171
-0.052212283 0.048705176 -0.0094118994 0.27166447 0.68747169 -0.67348427 0.0011372627
-0.050386753 0.048084937 -0.0093238447 0.30527157 0.69069374 -0.65555429 0.0015135563
0.061844654 0.048689522 -0.0097956182 0.12352466 0.37947321 -0.91691971 0.00099044561
0.064678453 0.048967004 -0.0093805855 0.26040819 0.30670977 -0.91548711 0.0089973425
0.06607832 0.048121031 -0.0092669167 0.26039058 0.30671909 -0.91548902 0.0089898137
-0.06043518 0.0511503 -0.0090007186 0.12542355 0.63770473 -0.76000106 0.0026125682
-0.007397003 0.0027205087 -0.0062795375 -0.13252158 -0.87725621 -0.46136698 0.002507376
-0.0043548075 0.0025993627 -0.0069152522 -0.096331611 -0.86732095 -0.48833865 0.0014333441
-0.0015958332 0.002392936 -0.0068622762 -0.047968466 -0.86466467 -0.500054 0.0019521532
0.0015999101 0.0023983365 -0.0071634669 -0.025861798 -0.86592406 -0.49950653 0.0018649682
0.0045153191 0.0023624103 -0.0072208834 -0.00053028663 -0.87243026 -0.48873824 0.0017084185
0.0075073005 0.0024358039 -0.007188628 0.031813171 -0.87395954 -0.48495638 0.0020361554
0.010754985 0.0024847118 -0.0070478492 0.061927482 -0.87985408 -0.47119185 0.0016697817
0.013600611 0.0026259224 -0.0067665069 0.090997465 -0.88058037 -0.46507806 0.0017511474
0.016432632 0.0028286965 -0.0064807399 0.11589144 -0.88507187 -0.4507958 0.0014032092
0.019088194 0.0029918856 -0.0060924892 0.16617517 -0.88820189 -0.42834938 0.001413663
-0.016342282 0.0056615444 -0.0080755195 -0.18429066 -0.74656254 -0.63928187 0.00063218514
-0.013548231 0.0043692486 -0.0073181805 -0.1712092 -0.84525841 -0.50618744 0.0036225896
-0.010643581 0.003929574 -0.0075337244 -0.14165613 -0.83241993 -0.53573364 0.0018847244
-0.0074321916 0.0035547477 -0.0077449367 -0.1293477 -0.82045352 -0.55688888 0.0023458197
-0.0042982991 0.0035932392 -0.008449086 -0.094034389 -0.79642254 -0.59738475 0.001128633
-0.0018310556 0.0033128925 -0.0083257938 -0.046396714 -0.81874067 -0.57228571 0.0027486817
0.0013615265 0.0033362529 -0.0085916147 -0.033086233 -0.83756608 -0.54533327 0.001910808
0.0049294126 0.0032777907 -0.0086471271 -0.0042130626 -0.79670578 -0.60435277 0.00056331832
0.0079336688 0.0032862267 -0.0085501745 0.02409333 -0.84383708 -0.53605837 0.00193526
0.010129259 0.0033804874 -0.0085908491 0.05487467 -0.81020421 -0.58357334 0.00081454136
0.013528248 0.0034801238 -0.0083176605 0.084968522 -0.85594171 -0.5100432 0.0016317992
0.016695878 0.0035990942 -0.0078955153 0.10700989 -0.85953701 -0.49974492 0.001437751
0.019640513 0.0038465143 -0.0075340467 0.15813471 -0.86585921 -0.47463793 0.0012835701
0.022619456 0.0044230917 -0.0074889846 0.18209291 -0.87918717 -0.44030899 0.0013017174
0.025523873 0.0050842455 -0.0075754919 0.19293538 -0.8660683 -0.46119598 0.00117548
0.028291641 0.0055254507 -0.0069465982 0.24684393 -0.86600876 -0.4348529 0.0018988982
0.030225443 0.0057313093 -0.0062584006 0.27710757 -0.86627179 -0.41567364 0.0016213856
-0.018609727 0.0068965764 -0.0089971246 -0.18076821 -0.70946634 -0.68116111 0.0018082645
0.026557565 0.0060983738 -0.008893732 0.21169344 -0.82439709 -0.52493364 0.0010339393
0.028828634 0.0064314548 -0.0083914176 0.2344646 -0.84640998 -0.47813857 0.0019476599
0.031574152 0.006808185 -0.0075764437 0.29244751 -0.85233235 -0.43359432 0.0010067477
0.034557033 0.0078189829 -0.007489237 0.30991375 -0.83651298 -0.4518843 0.0015572214
0.037132144 0.0085080676 -0.0069720317 0.3397499 -0.84176439 -0.41952685 0.0011852478
0.038040381 0.0094379904 -0.0080702882 0.34165752 -0.82760566 -0.44535258 0.0017742248
0.040489502 0.010237955 -0.0075098546 0.38463673 -0.80727118 -0.44762462 0.001662188
0.04320503 0.011335264 -0.0071807355 0.39706257 -0.81231481 -0.42718378 0.0016160702
0.04525388 0.011719908 -0.0060135564 0.45963395 -0.8162623 -0.34993204 0.0033502916
0.044332772 0.012441489 -0.0082110427 0.41399896 -0.78005034 -0.46917623 0.0023955328
0.046527039 0.013304863 -0.0075496724 0.43212217 -0.7882297 -0.43813735 0.0013751038
0.049060084 0.014427845 -0.0069445842 0.475685 -0.76819569 -0.42848474 0.0011331008
0.049954638 0.015619409 -0.0080586914 0.47267511 -0.75815648 -0.44919601 0.0017748744
0.052352928 0.016839499 -0.0073895291 0.50746435 -0.73531568 -0.44921121 0.0018779837
0.054257508 0.017589422 -0.0064298273 0.53306621 -0.72480494 -0.436461 0.0010831079
0.053515341 0.018430883 -0.0085443333 0.49839804 -0.66788393 -0.55274814 0.00087114697
0.055586077 0.019284353 -0.0075253956 0.55749553 -0.70694435 -0.43523374 0.0009383721
0.057656247 0.02049122 -0.0067614778 0.58402091 -0.66268444 -0.46879521 0.0011148434
0.056808133 0.021221414 -0.0087766349 0.54166692 -0.62252855 -0.56484967 0.00064073701
0.058754701 0.022255883 -0.0077481698 0.58432758 -0.62772822 -0.5143137 0.0029797852
0.060675774 0.023388594 -0.0068806894 0.61543441 -0.61584342 -0.49191213 0.0011695568
0.059545007 0.024031751 -0.0089392979 0.575562 -0.59397787 -0.5620665 0.0026188367
0.061813314 0.02532394 -0.0077537834 0.65808511 -0.53345823 -0.53136271 0.0021778997
0.063459016 0.026336161 -0.0067258268 0.67695755 -0.5348919 -0.50558782 0.001214847
0.062665381 0.027466649 -0.0087930895 0.6340518 -0.45172361 -0.62763375 0.0010777245
0.064504758 0.028570728 -0.0074941618 0.71297055 -0.4540292 -0.53435051 0.0018084816
0.066200182 0.029779479 -0.0063014929 0.73116279 -0.44727811 -0.51511484 0.00138294
-0.013335468 0.032655615 -0.008291861 0.21811022 0.82522023 -0.52099866 0.0016808239
-0.010614563 0.03236739 -0.0076713292 0.18881725 0.83788723 -0.51214552 0.001376876
-0.0077192723 0.031711359 -0.0077036656 0.12616937 0.81022251 -0.57238173 0.0017077042
-0.0045976057 0.031070599 -0.0079666413 0.11477502 0.75804973 -0.64201814 0.00073277508
-0.0016680552 0.030639706 -0.0080548096 0.092920437 0.75689226 -0.6469003 0.00096086389
0.065425336 0.031109994 -0.008314576 0.68957102 -0.35266772 -0.63254827 0.0014067441
0.066793591 0.031781603 -0.0070155091 0.74158895 -0.4058435 -0.53416944 0.0018368907
-0.022187987 0.035482876 -0.0083795181 0.31402782 0.79095715 -0.52514118 0.0025913282
-0.019568492 0.035120502 -0.0074173366 0.28917915 0.83392864 -0.47004086 0.0012706576
-0.016653346 0.034036275 -0.0076173269 0.25139219 0.81974828 -0.51460141 0.0020743101
-0.013798679 0.033565115 -0.0070738816 0.22367835 0.84129554 -0.49212778 0.0015269005
-0.011095641 0.033116348 -0.0066046724 0.18882622 0.83787185 -0.51216745 0.0014070193
0.06593743 0.033093128 -0.0088489586 0.69219619 -0.32509258 -0.64434397 0.0031639866
0.06758368 0.034443296 -0.0075626401 0.76237136 -0.27561811 -0.58551228 0.0019413335
0.069291301 0.035986606 -0.0060210256 0.80351597 -0.27660668 -0.52711552 0.0028284444
-0.030020734 0.038982134 -0.0081493882 0.3531377 0.80703026 -0.47328213 0.0019867597
-0.02823169 0.038321972 -0.0079245633 0.36793694 0.80427974 -0.46664387 0.002313131
-0.02569435 0.037456423 -0.0074670059 0.342554 0.8115446 -0.47334144 0.0022590864
-0.023011478 0.036607478 -0.0070853913 0.31834999 0.81832099 -0.4785437 0.0017645149
0.068185836 0.037355404 -0.0080149733 0.76011175 -0.17334212 -0.6262449 0.0024002101
0.069413953 0.037718333 -0.0065864716 0.79284555 -0.20917827 -0.57239884 0.0024318353
-0.036561277 0.041727129 -0.0088163856 0.37052402 0.72756135 -0.57737899 0.00090093177
-0.034217961 0.041194119 -0.0078234151 0.37903267 0.78666806 -0.48732698 0.0019200463
-0.031567629 0.040187053 -0.0073743453 0.38170269 0.7979576 -0.46644047 0.0021510529
-0.029176565 0.039433181 -0.0067778765 0.37598717 0.81556189 -0.43987763 0.0014031706
0.068392821 0.040349808 -0.008398423 0.74451834 -0.07699085 -0.66314769 0.0024995443
0.069674402 0.040574241 -0.006983249 0.78625083 -0.10918941 -0.6081835 0.0023289337
-0.040381908 0.04424078 -0.0079807108 0.39469296 0.77058905 -0.50040984 0.0021347639
-0.037649784 0.04321469 -0.0074005965 0.4028708 0.78681982 -0.46755716 0.0014498768
-0.035380982 0.04236605 -0.0069178566 0.41597083 0.79115826 -0.44837132 0.0011482554
0.068461426 0.043585792 -0.0084514609 0.63074505 0.031241342 -0.77536106 0.0026556316
0.069935575 0.043534033 -0.0069163218 0.76018238 -0.012833738 -0.64958304 0.0027927954
-0.048469719 0.047754548 -0.0087118438 0.32395279 0.68831664 -0.64905685 0.0009494574
-0.046085887 0.047180146 -0.0079531316 0.37220767 0.75602895 -0.53840661 0.0026250598
-0.043486301 0.046132479 -0.0075744009 0.40370345 0.75117224 -0.52226788 0.0019091566
-0.040904876 0.045464806 -0.0065236576 0.41754448 0.78061664 -0.46507457 0.0015098494
0.068158939 0.046528492 -0.0083829323 0.57184857 0.11885338 -0.81170386 0.0036196294
0.069830887 0.046392053 -0.0069003678 0.70740741 0.071951739 -0.7031343 0.0038840421
-0.054582268 0.050409827 -0.0086247949 0.19777876 0.66408277 -0.72102535 0.0018285543
-0.052266032 0.050267242 -0.0077349525 0.31206119 0.7545796 -0.57725871 0.0036236562
-0.04951831 0.049351837 -0.0072935619 0.35031897 0.76423591 -0.54149795 0.0012308757
-0.047152571 0.048367087 -0.0070686913 0.392607 0.76883882 -0.50472432 0.0018464752
0.06226391 0.050413493 -0.0088515887 0.16674262 0.36311501 -0.91670305 0.0028270711
0.06491629 0.050364774 -0.0087701445 0.20608611 0.33517253 -0.91934103 0.0036853461
0.067651697 0.049511589 -0.0080468589 0.40528429 0.26717046 -0.8742795 0.0035411841
0.069679193 0.049428556 -0.0066395365 0.69640172 0.12310865 -0.70701408 0.0053747897
-0.06420514 0.053087734 -0.0077668843 0.17112829 0.65497965 -0.73601419 0.0020449578
-0.06204154 0.053244811 -0.0074705784 0.20354259 0.68128985 -0.70314616 0.0039730687
-0.058707789 0.052458648 -0.0075700786 0.19224785 0.70611304 -0.68150204 0.003768106
-0.055266835 0.052017599 -0.0070407889 0.26167572 0.77237689 -0.57875705 0.0032392566
-0.052759886 0.05147792 -0.0064939423 0.34648749 0.76705188 -0.5399794 0.0013511977
0.065064766 0.05205626 -0.0080072237 0.21822794 0.36395177 -0.90549195 0.0050183362
0.067668423 0.052465852 -0.0071975505 0.38725606 0.26193327 -0.8839817 0.012066193
0.069446869 0.05227052 -0.0063202488 0.62125546 0.16998056 -0.76494986 0.004662727
-0.06755659 0.055540666 -0.0063539064 0.18787821 0.62931508 -0.75409842 0.002304906
-0.064652562 0.054952025 -0.0065248776 0.18413918 0.65726054 -0.73082244 0.0031044662
-0.061014436 0.054240257 -0.006322606 0.19846521 0.70032585 -0.68567866 0.0033136031
0.064899541 0.05474392 -0.0065893931 0.21988259 0.29169354 -0.93089551 0.0041343225
0.067897603 0.054876003 -0.0063962894 0.3636021 0.20007549 -0.90981501 0.010322751
-0.010929875 0.002439525 -0.0044760318 -0.15576181 -0.88913858 -0.43031484 0.0017106863
-0.0078072674 0.0020092239 -0.0045449925 -0.13646118 -0.90223765 -0.40907881 0.0011311977
-0.0042773457 0.0015736736 -0.0046611684 -0.087939382 -0.93416077 -0.34584725 0.0030333495
-0.0015668506 0.001392522 -0.0047130664 -0.057707664 -0.93937647 -0.33799651 0.0032595277
0.0013352663 0.0012469742 -0.0045811799 -0.015948974 -0.93116921 -0.36423817 0.0020998977
0.0045544109 0.0011732965 -0.0046044532 0.006783762 -0.93696618 -0.34935424 0.0021589808
0.0076581389 0.0013188077 -0.0047126994 0.039735638 -0.93781102 -0.34486464 0.0020903323
0.010686618 0.0013789362 -0.0044606333 0.063403025 -0.94103765 -0.33230722 0.0023077244
0.013505904 0.0016598472 -0.0044669211 0.10151544 -0.94264621 -0.31798217 0.0019991454
0.01637754 0.0020364092 -0.0045031807 0.12306037 -0.94687867 -0.29711449 0.001653293
0.019570341 0.0025274479 -0.0045526437 0.16111161 -0.94604862 -0.28113198 0.0015052515
0.021781543 0.0027551544 -0.0038053151 0.19106771 -0.93635076 -0.29451713 0.0019168322
0.022777539 0.0032714694 -0.0048068203 0.21036671 -0.92576909 -0.31416136 0.0017260034
0.02558217 0.0038268033 -0.0046096896 0.23821782 -0.92318451 -0.3016333 0.0013525997
0.028464608 0.004579653 -0.004444588 0.26171052 -0.9170596 -0.30084771 0.0019393155
0.03152347 0.0054790615 -0.0044366629 0.28309318 -0.91831243 -0.27669597 0.0017345266
0.033524793 0.0058664368 -0.0035502762 0.32256597 -0.90844125 -0.26586774 0.0017122696
0.032892808 0.0063127424 -0.0056990017 0.33213109 -0.88587505 -0.32390472 0.004175853
0.034667268 0.0066336961 -0.0045987265 0.35606652 -0.89483315 -0.26924035 0.0014237565
0.037510272 0.0076934565 -0.0045444011 0.35157117 -0.89207482 -0.28390196 0.0014835001
0.039947178 0.0086089242 -0.0042600781 0.38217083 -0.88462043 -0.26719305 0.0022423281
0.041297831 0.0094759827 -0.0049559725 0.39255378 -0.87204331 -0.29230443 0.0015094629
0.043517787 0.010356865 -0.0044593839 0.42019564 -0.86545014 -0.27282196 0.0013798365
0.046029393 0.011485738 -0.0040713116 0.45698148 -0.85225725 -0.25460872 0.0021816792
0.047147974 0.012437947 -0.0049525276 0.4723314 -0.8306241 -0.29490104 0.0019758758
0.049541418 0.013666105 -0.0045152875 0.49520037 -0.81487983 -0.30124336 0.0016218384
0.051490564 0.014641042 -0.0040325401 0.5104515 -0.80836958 -0.29321986 0.0017917134
0.052792162 0.015795665 -0.0046815844 0.53407729 -0.79256582 -0.29428038 0.0018485511
0.055119094 0.0172578 -0.0042362395 0.55892152 -0.77911305 -0.28388298 0.0017215546
0.0564018 0.018489501 -0.0050508855 0.59064537 -0.75458497 -0.28590101 0.001500024
0.058388095 0.019849749 -0.0044168425 0.61257023 -0.72836477 -0.30698919 0.0029955399
0.060080968 0.020803222 -0.0033172863 0.63917458 -0.70648581 -0.30386466 0.0016313415
0.059697662 0.0214359 -0.0052243415 0.64152402 -0.69084865 -0.33342943 0.0021210928
0.0613975 0.022586789 -0.0043812487 0.67383742 -0.68033886 -0.2882399 0.0017101818
0.063085571 0.02370907 -0.0032402212 0.70031035 -0.6444298 -0.30704325 0.0020336127
0.062648125 0.024263114 -0.0052598417 0.68337619 -0.64757252 -0.33711556 0.002673455
0.064169541 0.025559746 -0.004380499 0.7195099 -0.61044043 -0.33116147 0.0022896735
0.065493941 0.027549975 -0.0048470846 0.76270801 -0.560148 -0.32328099 0.0022415644
0.06668283 0.028908171 -0.004316627 0.78679776 -0.51783621 -0.33584946 0.0029968652
0.067997403 0.031352405 -0.0045921025 0.82306588 -0.41609201 -0.38656181 0.0029244882
0.069153719 0.032628771 -0.0034903602 0.84129798 -0.41075799 -0.35141945 0.0020877549
-0.016267212 0.035415046 -0.0045945756 0.2496113 0.87824202 -0.40790328 0.0019512819
-0.01330224 0.034409992 -0.0049301288 0.21426983 0.87805873 -0.42790344 0.0010086494
-0.010679652 0.033627827 -0.0051749018 0.20455053 0.86482286 -0.45851988 0.0017417314
0.068757817 0.033756692 -0.0054424522 0.83889055 -0.35426471 -0.41323003 0.0030030508
0.069683269 0.034702618 -0.0043241046 0.85684127 -0.34112787 -0.38659382 0.0031891242
-0.024954587 0.038570054 -0.004524359 0.36705327 0.87171447 -0.32463187 0.0021542585
-0.022352096 0.037428368 -0.0046929833 0.34569886 0.87149632 -0.34783098 0.00183427
-0.019615427 0.036503009 -0.004380024 0.28601831 0.89079064 -0.35310835 0.0015002374
0.070552893 0.037523221 -0.0044714808 0.8713181 -0.25216895 -0.42096978 0.0037501466
-0.033112228 0.041803405 -0.005698361 0.43547639 0.82445276 -0.36143878 0.0029322521
-0.031275615 0.041351575 -0.0045883381 0.44324693 0.85125256 -0.28089347 0.0018015662
-0.028550124 0.040009905 -0.0046759816 0.36522311 0.87147772 -0.32732037 0.0028223766
-0.026586801 0.039473947 -0.0039352528 0.3611823 0.87722933 -0.31625313 0.0022516998
0.071143538 0.040428039 -0.0046153255 0.88914627 -0.15693675 -0.42987183 0.0032416391
-0.03727486 0.044287317 -0.0048296051 0.45209149 0.84083837 -0.29766461 0.0015213519
-0.034693472 0.043140508 -0.0044273129 0.4058024 0.85309017 -0.32796606 0.0017184037
-0.032510325 0.042339057 -0.0037045982 0.42909282 0.8463155 -0.31564155 0.0023449948
0.071408704 0.04341653 -0.0047845673 0.87602323 -0.058881015 -0.47866094 0.0032261936
0.072183609 0.043647729 -0.0032418338 0.91100204 -0.074427851 -0.40563005 0.0029994126
-0.043078765 0.047350623 -0.0050360486 0.44007528 0.82568032 -0.35296699 0.0026468346
-0.040482752 0.046144668 -0.0045225965 0.45870337 0.82250851 -0.33626002 0.0028231912
