# .PCD v0.7 - Point Cloud Data file format
VERSION 0.7
FIELDS x y z normal_x normal_y normal_z curvature
SIZE 4 4 4 4 4 4 4
TYPE F F F F F F F
COUNT 1 1 1 1 1 1 1
WIDTH 570
HEIGHT 1
VIEWPOINT 0 0 0 1 0 0 0
POINTS 570
DATA ascii
0.04721649 0.012509752 0.0048992322 0.48481187 -0.82581842 0.28806487 0.0018992323
0.049499121 0.013693625 0.0045430837 0.50274312 -0.81078029 0.29980764 0.0021536136
0.051591195 0.014703996 0.0038935533 0.50635338 -0.80639952 0.30549327 0.0024073564
0.052802432 0.015885198 0.0047304016 0.53102815 -0.79056001 0.30499828 0.0025577904
0.055056471 0.017312292 0.0043660039 0.54044354 -0.78223324 0.30989021 0.0021573037
0.056424603 0.018548239 0.0049972683 0.5782792 -0.75824285 0.30109969 0.00218568
0.058278624 0.019774212 0.004381482 0.6210621 -0.71659827 0.31744093 0.0029890216
0.060024861 0.020749431 0.0033525361 0.63874108 -0.72350734 0.26181465 0.0013317087
0.059542883 0.021274861 0.0052729119 0.63185531 -0.70432299 0.32355535 0.0031695575
0.06138685 0.022631392 0.0044358233 0.68593222 -0.67392915 0.27443862 0.0018710616
0.063071586 0.02382658 0.0033781766 0.70991987 -0.64047158 0.29293349 0.0019867439
0.062653683 0.024492912 0.0054328418 0.70128256 -0.6050002 0.37706432 0.0042984206
0.064202026 0.025698286 0.0044002123 0.7366119 -0.61212891 0.28757781 0.0012736516
0.065525077 0.027799251 0.0050069615 0.7600348 -0.56653911 0.31840315 0.0033506618
0.066695191 0.028990848 0.0042790733 0.78892469 -0.51765913 0.33109939 0.0039114929
-0.0063719247 0.032826368 0.0053873006 0.16112517 0.87547183 0.45561814 0.0006867933
-0.0032132494 0.03270337 0.0046720523 0.11654546 0.88634968 0.44810861 0.00051093352
-0.00051915372 0.032635823 0.0042438665 0.072288178 0.87078363 0.48632315 0.0020399734
0.068001524 0.031388335 0.004530957 0.82430172 -0.46656778 0.32068849 0.0021060931
0.069163755 0.032541927 0.0032478254 0.84470546 -0.41239199 0.34118241 0.0027286967
-0.018938499 0.035782464 0.0058528851 0.3022612 0.89205402 0.33597276 0.0018650435
-0.016552748 0.035289586 0.0053936793 0.25036678 0.88865662 0.38419518 0.0022743715
-0.013507508 0.034660265 0.004808587 0.23550294 0.87662101 0.41961163 0.0002335871
-0.010800983 0.034040794 0.0046149623 0.21075678 0.88254195 0.42035866 0.00033628181
-0.0081989113 0.033345085 0.0049722884 0.17432922 0.89118743 0.41880104 0.00031395585
0.068702094 0.033603869 0.0054375739 0.85249776 -0.35500127 0.38369486 0.0037934254
0.069653027 0.034740768 0.004350692 0.86198854 -0.34518582 0.37124452 0.0035424647
-0.025377 0.038488172 0.0053821346 0.37438837 0.87119937 0.31756091 0.0012563408
-0.022739774 0.037696049 0.0046057682 0.35601264 0.88093191 0.31179136 0.0013346253
-0.020252172 0.037021503 0.0037114522 0.29570445 0.89544272 0.33277804 0.0017356543
0.070518024 0.037547495 0.0045411689 0.87969053 -0.26241758 0.39658752 0.003375652
-0.033153955 0.041947167 0.0056653414 0.43818584 0.84187531 0.31502247 0.0013100964
-0.031458095 0.041450541 0.0048121745 0.42954293 0.85142893 0.30093476 0.0017936497
-0.028754728 0.040175717 0.0046921642 0.39277777 0.86715037 0.30622846 0.0018036509
-0.026695184 0.039624866 0.0038630681 0.36284027 0.88146555 0.30226707 0.0014500809
0.071184918 0.040549722 0.0046132426 0.9016757 -0.17024127 0.39749065 0.0030505748
-0.036838878 0.044053189 0.0050748596 0.42580089 0.84886718 0.31323814 0.0018940943
-0.034785148 0.043228861 0.004508717 0.42673907 0.84344202 0.32634214 0.0011314284
-0.031555824 0.042049192 0.003022867 0.45170742 0.86690056 0.21081674 0.0019196406
0.071477167 0.043314461 0.0047948314 0.89522088 -0.077347942 0.43885851 0.0032029811
0.072129615 0.04367571 0.0032989301 0.92782593 -0.085981421 0.36296859 0.003073185
-0.042764574 0.047143999 0.0052349097 0.44815087 0.8251195 0.34400401 0.0022608526
-0.040542651 0.046214085 0.0045537725 0.45562041 0.83095366 0.31925869 0.0022187694
-0.038245462 0.045124549 0.0041439477 0.44771326 0.8538546 0.2654905 0.0021144201
0.071476027 0.046489149 0.0049642362 0.88389432 -0.0033953711 0.46767429 0.003757098
0.072215512 0.046495877 0.003372364 0.91629052 -0.025557565 0.39969802 0.003905589
-0.048719689 0.050264698 0.0054652435 0.42523095 0.81295043 0.39785707 0.0032951541
-0.046458993 0.049448643 0.0045655607 0.44287491 0.82033759 0.36181208 0.0022889541
-0.043991938 0.048156738 0.0044387351 0.44572493 0.82843071 0.33916354 0.0021918658
0.071402945 0.049418092 0.0050612283 0.86513519 0.019090785 0.50117522 0.0042555947
0.072231315 0.049549937 0.0034753063 0.9046312 -0.0089185694 0.42610186 0.0042415932
-0.054856312 0.05345251 0.0048173252 0.31058648 0.82958132 0.46403763 0.0031036413
-0.05231576 0.05255739 0.0044328957 0.38430676 0.82629293 0.41176248 0.0018215091
-0.049857799 0.051313717 0.0044253664 0.42221156 0.82243919 0.38122335 0.0023743191
0.071283504 0.052575905 0.0050739981 0.83195925 0.059246439 0.55166447 0.0060212831
0.072254777 0.052513272 0.0034787252 0.87936687 0.012783825 0.47597322 0.005041332
-0.07276129 0.05634971 0.0056119286 -0.038411174 0.47481358 0.87924773 0.013773568
-0.06609308 0.056883104 0.0059398017 0.11695334 0.625624 0.7713083 0.0081794513
-0.063915275 0.056545407 0.005380603 0.30584151 0.74080145 0.5980587 0.010761954
-0.06148361 0.055990852 0.0046947901 0.32497543 0.7693181 0.55003697 0.0076816785
-0.058675099 0.054964766 0.0045174239 0.26499504 0.8172918 0.51167536 0.0048754411
-0.056486972 0.054033946 0.0049464302 0.30195925 0.84527403 0.44083142 0.0022200677
0.070937917 0.055675104 0.0050237752 0.6564278 0.11577583 0.74545187 0.02124968
0.072212525 0.055428088 0.0034677766 0.82985467 0.031393111 0.55709571 0.007503517
-0.070367388 0.058305848 0.0054894872 0.008805465 0.53819531 0.84277421 0.024276009
-0.067399211 0.058507875 0.0048638075 0.2331893 0.68847442 0.68675011 0.0097927423
-0.064495973 0.057977978 0.0041155247 0.39508986 0.7145189 0.57737923 0.005703277
0.065934248 0.057841059 0.0057267658 0.26537177 0.29386464 0.91827089 0.0066137346
0.067803539 0.058895484 0.0055039856 0.2419284 0.2670818 0.93281192 0.0076756096
0.070662633 0.058472518 0.0046769218 0.57538831 0.14074974 0.80567843 0.020414928
0.072185121 0.058552548 0.0033524164 0.90592325 0.014853518 0.42318127 0.028686386
-0.067677379 0.060098842 0.0034192726 0.22365081 0.84664482 0.48287979 0.026543112
0.067925304 0.061586361 0.0046422216 0.32415187 0.1689796 0.93079084 0.0082605192
0.070693441 0.061498132 0.0040744822 0.40178066 0.12975952 0.90649581 0.017554415
0.072322868 0.061529484 0.003170267 0.83328003 -0.0038028215 0.55283809 0.033890791
0.068179235 0.064437941 0.0039101201 0.13313472 0.10661307 0.98534709 0.0070559555
0.07053753 0.064520568 0.00372343 0.26607642 0.076880224 0.96088123 0.020837383
0.072266586 0.064582959 0.0032980659 0.40799013 -0.028063824 0.91255492 0.022346908
0.068261236 0.067534529 0.0033307769 -0.014452207 0.080449536 0.99665385 0.007151328
0.070654251 0.067400247 0.0035879964 0.14956792 0.095152527 0.98416233 0.02262409
0.072819166 0.067583345 0.0033698019 0.51310182 -0.12287423 0.84948719 0.026283668
0.068675101 0.069719084 0.0030822605 -0.12341444 0.0088866036 0.99231541 0.019102117
0.070705116 0.070466928 0.0038050311 -0.03144782 -0.076132677 0.99660164 0.031512167
0.073425107 0.070599817 0.003721436 0.36675024 -0.24820195 0.89659923 0.024855295
0.075161524 0.071921617 0.003027407 0.77971435 -0.2665258 0.56657708 0.036101889
0.071041942 0.073658571 0.0045794314 -0.036676954 -0.22867087 0.97281259 0.030050868
0.073623419 0.073422231 0.0045236791 0.35238475 -0.24742749 0.90255445 0.028290065
0.075521529 0.073606104 0.0035253647 0.47798505 -0.26510081 0.83740783 0.029167803
0.071187891 0.075554453 0.0049655358 0.034743518 -0.246014 0.96864343 0.038609006
0.073480204 0.075311653 0.0048153596 0.35245979 -0.24746914 0.9025138 0.028266052
0.075148106 0.075050637 0.0037808449 0.41972506 -0.25477815 0.87115955 0.033722866
-0.012867777 0.0027964902 0.0061296835 -0.14385723 -0.92276871 0.35749546 0.0025528017
-0.010452427 0.0026915525 0.0067093377 -0.12647645 -0.87647778 0.46453246 0.0015948979
-0.0072689783 0.0025550963 0.0071770842 -0.08540649 -0.87664264 0.47350121 0.0014852249
-0.00447314 0.0023247185 0.0071307258 -0.04789149 -0.87488532 0.48195648 0.0017346711
-0.0016002152 0.0022924021 0.0072720852 -0.017885784 -0.87364036 0.48624343 0.0016575978
0.0014908754 0.0022953514 0.0072852513 0.010378622 -0.87342811 0.48684239 0.001826267
0.0043901298 0.0022970394 0.0071472251 0.047015719 -0.87058485 0.48976696 0.001614193
0.0073959818 0.0024706735 0.0070508188 0.060911611 -0.86596787 0.49637631 0.0014686388
0.010562867 0.0025569017 0.0068016998 0.080340743 -0.86283797 0.49905512 0.0008837363
0.013480065 0.0027450393 0.0064378697 0.10313473 -0.85152364 0.51407272 0.00073765864
0.016618125 0.0028525975 0.0061299279 0.11501706 -0.84569031 0.52113235 0.00077746407
-0.022286769 0.0054448787 0.0068896236 -0.25227228 -0.8475939 0.46684399 0.0013736059
-0.01967172 0.0051099923 0.0077360477 -0.23007281 -0.8528859 0.46867055 0.00097094907
-0.016558338 0.004345872 0.007744953 -0.18196943 -0.85936689 0.47788653 0.0013473023
-0.013601336 0.0037379167 0.0077028265 -0.15602875 -0.85760498 0.4900701 0.001271303
-0.010796922 0.0036294153 0.0083461665 -0.11921623 -0.84827268 0.51596594 0.0013182664
-0.0079279123 0.0033540456 0.0084850304 -0.078102022 -0.8488667 0.52280533 0.0018750696
-0.0048772469 0.0032613929 0.0087008486 -0.040449642 -0.84369409 0.53529817 0.0016503517
-0.0010717403 0.0031620802 0.0087332316 -0.015349263 -0.8017453 0.59746873 0.00076433539
0.0013971498 0.0031695073 0.0087815616 0.011981838 -0.79999089 0.59989256 0.00079493603
0.0046838769 0.0031992209 0.0086713536 0.046965647 -0.84083223 0.53925437 0.0018747426
0.0076344977 0.0033703744 0.0084890118 0.064586371 -0.80123168 0.59485829 0.00085239188
0.010608915 0.0034023039 0.0081926184 0.087022327 -0.83694154 0.54032964 0.00085021509
0.013602425 0.0037174576 0.0080125583 0.1105992 -0.83238435 0.54305071 0.00060912891
0.016701501 0.0038887965 0.0076191956 0.12188524 -0.82382119 0.55359077 0.00066775957
0.019549435 0.0043078745 0.0075674746 0.15343024 -0.81464374 0.55929852 0.00088471605
0.022486292 0.0048230607 0.0075252675 0.15575704 -0.78808844 0.59553033 0.0009214661
0.025437932 0.0051632193 0.0071777492 0.19383316 -0.80976689 0.55381078 0.0026161354
0.028320653 0.005575187 0.0066959686 0.2240444 -0.82057804 0.52579057 0.0031192936
0.030300321 0.0058778361 0.0062538241 0.27675459 -0.81305325 0.5122025 0.0054102107
-0.030802358 0.0085073402 0.0073899087 -0.30518866 -0.83797282 0.45239526 0.001092874
-0.028326372 0.0078336047 0.0077902493 -0.289323 -0.84261161 0.45420018 0.0010511666
-0.025448656 0.0067703631 0.0075767678 -0.26734269 -0.84682155 0.45980549 0.0011134708
-0.022841675 0.0063615073 0.0082892217 -0.2576085 -0.84331697 0.47165063 0.0013686247
0.02277665 0.006066808 0.0089651057 0.16328545 -0.74789774 0.64341813 0.00019512945
0.025667543 0.0063806237 0.008604764 0.18020006 -0.73047304 0.65873897 0.00042999149
0.028685926 0.0067116912 0.0081324307 0.19904912 -0.78748608 0.5833053 0.0029668743
0.031574067 0.0071748644 0.0076600253 0.23656869 -0.79964137 0.55191398 0.0028044262
0.03429326 0.0079586906 0.007458719 0.26306939 -0.7922644 0.55055583 0.002960037
0.037054859 0.0085379286 0.0067984746 0.3171373 -0.81514072 0.48473653 0.002306764
-0.037107859 0.01122069 0.0076993951 -0.37129855 -0.80352247 0.46528387 0.0010107764
-0.034519494 0.010247568 0.0079947049 -0.3421402 -0.81880093 0.46098277 0.00097283925
-0.031651892 0.009350324 0.0083740354 -0.31042233 -0.83312821 0.45775026 0.0010720559
0.0354058 0.0091741858 0.0086097103 0.25309649 -0.70176947 0.66592932 0.0019588219
0.037807383 0.0097028706 0.0081459489 0.29608816 -0.75363082 0.58683252 0.0052227112
0.040457089 0.010442949 0.0075068721 0.34899533 -0.80575728 0.47849491 0.0021247251
0.043279096 0.011346261 0.0068912762 0.38003567 -0.79062468 0.48008913 0.002523252
0.045157414 0.011900048 0.0062736138 0.404764 -0.77909708 0.47872105 0.0027550459
-0.040176079 0.012905227 0.0080931811 -0.40906361 -0.78611624 0.46334463 0.00073241181
-0.037419576 0.012141482 0.0089303432 -0.37522268 -0.79877198 0.47028846 0.00093535963
0.04383415 0.012504412 0.0082990779 0.35359597 -0.76183552 0.54274899 0.0031854513
0.046597786 0.013548846 0.0075619468 0.41390473 -0.76759571 0.48936662 0.0021697246
0.049064819 0.014545063 0.0069384491 0.45924896 -0.75436825 0.4690617 0.0017443168
-0.045010883 0.016262613 0.0089085186 -0.43546128 -0.71220839 0.5505749 0.00061382278
-0.044843007 0.015777605 0.00839293 -0.43874234 -0.74618381 0.50071436 0.00077705743
0.049959596 0.015804954 0.0080131656 0.4472512 -0.73545909 0.50898552 0.0029734911
0.052303676 0.016927002 0.0073213442 0.50755376 -0.70122486 0.5006724 0.0025713905
0.054363005 0.017800942 0.0065277414 0.51296395 -0.7213968 0.46524692 0.0012368064
0.053330678 0.018510325 0.0084844697 0.46765459 -0.6382336 0.61152035 0.0015281165
0.055518251 0.019401062 0.0075505842 0.50701922 -0.70100516 0.50152099 0.0025580989
0.057649963 0.020423155 0.0066536306 0.58198249 -0.66147798 0.47301507 0.0019844309
0.056718558 0.021213371 0.0085936245 0.54394138 -0.62481457 0.56012011 0.0015886098
0.058742501 0.022282632 0.0077210232 0.60249603 -0.63830864 0.47912481 0.0015165969
0.060714494 0.023396533 0.0068187676 0.61352706 -0.60326546 0.50956386 0.0014915074
0.059803221 0.024285113 0.0087965941 0.59142381 -0.56009007 0.58010095 0.0015733842
0.061717812 0.025362238 0.0077370699 0.65422058 -0.52150881 0.54774451 0.0030714786
0.063517623 0.026415577 0.0066835089 0.67294061 -0.52767158 0.51837593 0.0016249123
0.062731802 0.027370522 0.0085389372 0.65556371 -0.50423574 0.5621233 0.0023194463
0.06445466 0.028604936 0.007482898 0.70820445 -0.44755477 0.54602319 0.0025211975
0.066165544 0.029676 0.0062533338 0.72905523 -0.44563645 0.51950616 0.0017442462
-0.012701226 0.03277215 0.0084004942 0.22380917 0.85024208 0.47644302 0.0016134257
-0.010247557 0.032379076 0.0080293193 0.19525239 0.85933936 0.47266525 0.001489453
-0.0075902548 0.031906281 0.0078205848 0.15745468 0.8503074 0.50218058 0.0023022918
-0.0042190207 0.031500481 0.0075485171 0.12298489 0.85662609 0.50106531 0.0024338574
-0.00098070421 0.03071215 0.0084070964 0.074494258 0.85409397 0.51475632 0.0027693938
0.00068782078 0.030974321 0.0075358003 0.076389775 0.86480713 0.49625933 0.0028433711
0.003726352 0.030293459 0.0085837198 0.021502452 0.76682055 0.64150137 0.00096835569
0.0076267407 0.030352967 0.008513446 -0.020042922 0.75262636 0.65814281 0.00035931836
0.010678775 0.030611653 0.008432297 -0.078063555 0.76051676 0.64460868 0.00082175765
0.012041053 0.030799186 0.0082771415 -0.07807079 0.76049834 0.64462948 0.00083455007
0.065390296 0.031070175 0.0082724029 0.67567402 -0.35744658 0.64474535 0.0013464736
0.06673371 0.031710226 0.0069919792 0.73396695 -0.41112 0.54062265 0.0024427297
-0.021680066 0.03537618 0.0088165347 0.31877649 0.81314778 0.48700333 0.00077145011
-0.019702245 0.035181995 0.0077521168 0.29015225 0.83885026 0.46058872 0.00072544336
-0.016522311 0.034069464 0.0079045184 0.25360441 0.84783828 0.46567693 0.0011284546
-0.013722579 0.033567175 0.0072805434 0.23140308 0.85600078 0.46229354 0.0014083931
-0.011113159 0.033251405 0.0065111034 0.19771326 0.86979914 0.45206079 0.0010792294
0.065924838 0.033060577 0.0087970626 0.69983363 -0.3434881 0.62629765 0.0017953315
0.067574464 0.034446038 0.0075764093 0.75996929 -0.29165754 0.58084637 0.0018327596
0.069053285 0.035880871 0.006349504 0.77873844 -0.31379586 0.54322988 0.0042238291
-0.028309535 0.038584631 0.0078583844 0.37769905 0.82554048 0.41931656 0.00089762191
-0.025523514 0.037466485 0.007662578 0.33330092 0.83552885 0.43680885 0.0014201475
-0.022937104 0.036633853 0.0072014206 0.32129446 0.83735633 0.44227165 0.00098085415
-0.020707577 0.036100395 0.0064514615 0.30722201 0.87814528 0.36670899 0.0035118775
0.068207458 0.03739081 0.008108086 0.76050073 -0.20114303 0.6173979 0.0025867915
0.069411725 0.037751649 0.0066819992 0.80123597 -0.22505124 0.55441219 0.0024509747
-0.03393453 0.041288946 0.0078101642 0.38953725 0.80567104 0.44626799 0.001380639
-0.031673402 0.040287402 0.0075696516 0.39383906 0.81412065 0.42672995 0.00098677736
-0.029765386 0.039905138 0.0063926084 0.39528412 0.83796817 0.37624425 0.00073047221
0.068543635 0.040462445 0.0085132988 0.68227655 -0.10900764 0.72292191 0.0023920436
0.069773875 0.04058243 0.0070575313 0.79979062 -0.13641959 0.5845722 0.0024690877
-0.040018369 0.044107866 0.0082456488 0.40131804 0.77164799 0.49346045 0.0022109076
-0.037474517 0.043194279 0.0075889952 0.41354746 0.79936266 0.43588755 0.0016359333
-0.035074081 0.042224977 0.0071201683 0.40402946 0.80665016 0.43136498 0.00084351702
0.068626747 0.04332922 0.0087114461 0.63710546 -0.015580178 0.77061927 0.0034561469
0.070016682 0.043686938 0.0071720718 0.78755552 -0.043769777 0.61468732 0.0028164813
-0.048294593 0.047846358 0.0088300826 0.33657327 0.74840629 0.57149482 0.00099466462
-0.04621914 0.047221798 0.0082892263 0.35587409 0.7220543 0.59328854 0.0006257096
-0.043527339 0.046339422 0.0075775129 0.39408898 0.77322221 0.49681115 0.0016508938
-0.040958222 0.045340922 0.0069803828 0.40990582 0.7930432 0.45062143 0.0016065807
0.068553075 0.046679132 0.0086614778 0.58355659 0.083908707 0.80772585 0.0046595568
0.069885708 0.04650519 0.0073060351 0.75278777 0.036279831 0.65726286 0.0039159567
-0.067482851 0.050415955 0.0087043643 -0.15703334 0.39820325 0.9037559 0.0030669861
-0.054681778 0.050562516 0.0088692307 0.22542879 0.68205565 0.69568807 0.0021024358
-0.052131601 0.050267652 0.0080141304 0.31881937 0.75780201 0.56928927 0.002816794
-0.049567662 0.049443953 0.00751183 0.35282606 0.77103341 0.53011447 0.0014440862
-0.046777736 0.048566263 0.0067906701 0.40162864 0.77388412 0.4896915 0.0015251108
0.068031795 0.049680304 0.0084613869 0.46422079 0.19161612 0.86474407 0.008278423
0.069936447 0.04945796 0.0069774622 0.68569845 0.092856094 0.72193867 0.00618716
-0.070179671 0.053104792 0.0071131582 -0.11785077 0.35773242 0.92635781 0.0040232399
-0.067568548 0.052854683 0.0079859188 -0.10935164 0.40517038 0.90767795 0.0046800771
-0.064648278 0.052907731 0.0083266236 -0.071808234 0.48936367 0.86911839 0.0090778973
-0.061559066 0.053029947 0.0080481283 0.085229605 0.60827625 0.78913617 0.0034022052
-0.058311857 0.05275017 0.0075596035 0.19570552 0.74839002 0.63372844 0.0037087381
-0.055398479 0.052095383 0.0073629194 0.24252589 0.76049697 0.60235006 0.0016632553
-0.052798279 0.051498871 0.0067592673 0.35077858 0.77331674 0.52814358 0.0015241392
0.06196063 0.052085776 0.008328571 0.032256074 0.41900754 0.90740961 0.0035783334
0.064700007 0.05259734 0.0083842417 0.12394705 0.36603907 0.92230833 0.0055991812
0.067681246 0.052466296 0.0079125343 0.33631858 0.29007939 0.89595968 0.010396186
0.069844559 0.052221525 0.0066977232 0.66402984 0.14456193 0.73359811 0.0086451964
-0.070371062 0.055647355 0.0065261866 -0.054963134 0.40377551 0.91320556 0.0079148095
-0.067441553 0.055715382 0.0068401182 0.042302962 0.4159255 0.90841424 0.010282723
-0.064718232 0.055086475 0.0068808435 0.1292575 0.60705125 0.78407985 0.011413921
-0.061995625 0.054710772 0.0065460107 0.20116389 0.69076389 0.69453466 0.0057180016
-0.059880581 0.054016855 0.0065950635 0.21137643 0.74037296 0.63809705 0.0034981736
0.065345891 0.055530466 0.0068602338 0.086469702 0.38116011 0.92045641 0.0039331964
0.067697227 0.055400576 0.0068867956 0.27807236 0.32487988 0.90395176 0.0089577297
0.069523089 0.054910634 0.0063531306 0.45730853 0.24933004 0.85364127 0.020706754
-0.069943786 0.057266504 0.0061084949 -0.038411174 0.47481358 0.87924773 0.013773568
0.067672968 0.057317674 0.0061333352 0.25882334 0.31669229 0.91253299 0.0086291302
-0.018813966 0.0059394827 0.0094305724 -0.22118296 -0.80230612 0.55442131 0.0005825836
-0.016099961 0.0054689744 0.0096181016 -0.17296787 -0.79519022 0.58116668 0.00075759325
-0.013413055 0.0053956541 0.010230216 -0.14130232 -0.78650314 0.60120416 0.0010948712
-0.010497075 0.0050984002 0.010412401 -0.11055453 -0.77976209 0.61623758 0.0012183308
-0.0074194288 0.0047771069 0.010408198 -0.065319411 -0.7746864 0.62896293 0.0016771042
-0.0044231024 0.0047488757 0.010622696 -0.035272084 -0.76809871 0.63935918 0.0012465696
-0.00155403 0.004579633 0.010465517 -0.016445333 -0.75856978 0.65138435 0.0015575367
0.0015585066 0.0046134889 0.010508117 0.012996963 -0.75634384 0.65404516 0.0018301881
0.0045675919 0.0047143549 0.010538372 0.046805926 -0.75923955 0.64912593 0.0015703746
0.0075287116 0.0048182821 0.010391209 0.062314477 -0.76049423 0.64634782 0.0020350397
0.010554773 0.0048806001 0.010217374 0.084938139 -0.75175953 0.65394431 0.0013087468
0.013467121 0.005183971 0.010104675 0.11410856 -0.75514048 0.64555568 0.0013483122
0.016436165 0.0053962707 0.0097619332 0.13514732 -0.7554329 0.64113683 0.001009797
0.0191292 0.0056936261 0.0094160456 0.15333988 -0.76356465 0.62726068 0.00023277491
0.021392463 0.0058671371 0.0090447403 0.15817562 -0.74309075 0.65022814 0.00024911383
-0.028130725 0.0087386686 0.009360482 -0.27502784 -0.79547501 0.53998077 0.00044397137
-0.025058882 0.008226065 0.010106228 -0.23143743 -0.77883196 0.582973 0.0014996242
-0.022397565 0.007906449 0.010712355 -0.22996436 -0.78373486 0.57695419 0.0016407291
-0.019865662 0.007105242 0.010625144 -0.21230021 -0.75797683 0.61676556 0.0014187521
-0.01666316 0.006607214 0.011027591 -0.15704064 -0.77047831 0.61781991 0.0010269965
-0.013510474 0.0064044246 0.011526816 -0.12414562 -0.71193123 0.69118869 0.0013772745
-0.010453153 0.0061607347 0.011733492 -0.084830269 -0.74447846 0.66223538 0.0014085743
-0.0085717728 0.006103118 0.0118848 -0.041636422 -0.70730549 0.70568073 0.0023958406
0.0075037717 0.00615136 0.011841257 0.048793841 -0.67865682 0.73283303 0.003599578
0.010629417 0.0063199433 0.011716198 0.078147255 -0.7176128 0.69204396 0.001306391
0.013633513 0.0065471432 0.01154162 0.10567661 -0.72309583 0.68261629 0.0015625982
0.016609594 0.0067661121 0.011283222 0.13372982 -0.65885586 0.7402873 0.0022942782
0.019586368 0.0070499335 0.010884064 0.15634893 -0.71400166 0.68246365 0.00034390253
0.02254108 0.0074729524 0.010575603 0.17119871 -0.71134198 0.68167704 0.00019081698
0.025403617 0.0078190044 0.010143784 0.18637864 -0.71126324 0.67776668 0.00030626453
0.028360143 0.0081853699 0.0097629763 0.19581209 -0.70943886 0.67701852 0.00070117565
0.031208463 0.0085635558 0.0094191916 0.20815668 -0.72091925 0.66101909 0.0014490837
0.03328358 0.0089570051 0.0091966037 0.24937725 -0.69826365 0.67099839 0.0021198436
-0.034246631 0.011371972 0.0099670226 -0.32013363 -0.76564574 0.55794358 0.00065279088
-0.031552017 0.010761968 0.010550355 -0.28512111 -0.77491945 0.56409734 0.00088124175
-0.028576195 0.0099453311 0.010911196 -0.26587257 -0.77760202 0.56977803 0.00067055703
-0.025437307 0.0093077431 0.011499193 -0.22450712 -0.75556308 0.61540306 0.0021669301
0.023731316 0.0091438554 0.011997007 0.15728115 -0.66544694 0.72968704 0.0016703353
0.02582065 0.0093619693 0.011584911 0.18146415 -0.66648799 0.72309369 0.00067254511
0.028586099 0.0098483656 0.011236995 0.19135666 -0.66366881 0.72313648 0.00036635037
0.031614657 0.010348325 0.010854809 0.19772261 -0.62780613 0.75283802 0.00029719088
0.034465507 0.010582929 0.01031649 0.23685986 -0.67491275 0.6988492 0.0010833446
0.037340514 0.011060364 0.0098785674 0.26333013 -0.69447923 0.66959381 0.0020531882
0.039942857 0.011667929 0.0094070081 0.30728516 -0.67800963 0.66774154 0.0022945674
-0.039993834 0.014180654 0.010140137 -0.37493101 -0.7385031 0.56039268 0.00066018099
-0.03737168 0.013414438 0.010809976 -0.35707515 -0.73631781 0.57474637 0.0010226258
-0.035018403 0.012627508 0.01124234 -0.31624088 -0.75746638 0.5711711 0.0010329342
0.034774851 0.012421438 0.011711922 0.20643605 -0.60680962 0.76757163 0.00020383568
0.03770826 0.012921017 0.011298507 0.22894615 -0.58256763 0.77987087 0.00071956863
0.040568445 0.01342434 0.01077539 0.24906997 -0.59321219 0.76554787 0.00056695874
0.043368544 0.013874064 0.010058622 0.32985717 -0.66434413 0.67070198 0.0030267569
0.045642711 0.014522393 0.0094968285 0.38195193 -0.6725139 0.63390684 0.0028148121
-0.045332033 0.017228059 0.0099487677 -0.44205511 -0.68510377 0.57898194 0.00077028968
-0.042311896 0.016850134 0.011902416 -0.42977545 -0.67513919 0.59956652 0.0013748285
-0.041069295 0.015639737 0.011315603 -0.37105578 -0.70451665 0.6049577 0.0013736644
0.041366514 0.015219562 0.011947736 0.2416506 -0.55549848 0.79562962 0.00066763844
0.043773107 0.015754055 0.01144926 0.28993747 -0.54795992 0.78465033 0.0015545952
0.046559505 0.016377639 0.010723116 0.32077947 -0.57271194 0.75438821 0.00061999785
0.049239501 0.017024891 0.0099177472 0.40569147 -0.63698667 0.6554864 0.0030742758
0.051247045 0.017703682 0.0092951423 0.43385264 -0.64999992 0.62391663 0.0021224385
-0.048176706 0.02069691 0.011876739 -0.42347863 -0.62824702 0.6526649 0.0010184533
-0.046220705 0.019016184 0.011560913 -0.42378223 -0.65059865 0.63018256 0.0018044065
0.047569335 0.018283976 0.011794022 0.3413862 -0.55962873 0.75516307 0.00089927658
0.049740523 0.018996559 0.011258186 0.35973635 -0.52635473 0.77041584 0.001264429
0.052377384 0.019630887 0.010260596 0.41908026 -0.58218938 0.69672608 0.0031607505
0.054709241 0.020447634 0.0095325503 0.49073273 -0.59179932 0.63949585 0.0032824187
-0.051115863 0.02290765 0.011900041 -0.45574671 -0.53942156 0.70803905 0.00082810275
-0.049642965 0.021799538 0.011887968 -0.45985317 -0.57292789 0.67844576 0.00059449626
0.053034168 0.021720408 0.011525332 0.38245189 -0.47260594 0.79396105 0.0014357478
0.055506308 0.022512557 0.010540318 0.45037308 -0.49349898 0.74405831 0.0010699971
0.057803094 0.0232042 0.0095391665 0.53107303 -0.55416805 0.64098293 0.0022337837
-0.054146107 0.024282945 0.010628214 -0.46866524 -0.51031607 0.72106194 0.001224814
0.056243215 0.0248408 0.011602066 0.41400275 -0.42065054 0.80725139 0.0016656892
0.058473863 0.02546107 0.010616128 0.47199446 -0.44566804 0.76065844 0.0008628933
0.060684085 0.026242519 0.0095430743 0.57759166 -0.49411044 0.64980209 0.0019137632
-0.010121201 0.029613812 0.011688805 0.16419189 0.71696162 0.67750049 0.0030044881
-0.0072979718 0.029261636 0.011383696 0.14085877 0.75428945 0.64125359 0.0017996226
-0.0045838403 0.029202996 0.010940315 0.11619125 0.76461118 0.63393158 0.0016639014
-0.0017970521 0.028862216 0.010877628 0.088392936 0.71889961 0.68947089 0.0024851237
0.0016089099 0.028710404 0.01068119 0.048171092 0.77259123 0.63307369 0.0012089714
0.0046579964 0.028608264 0.010703644 0.032362599 0.71364653 0.69975799 0.0019805213
0.0070486306 0.028290076 0.011032983 -0.038344409 0.7106387 0.70251149 0.0020842922
0.010307638 0.028713396 0.010765923 -0.05337856 0.73074949 0.68055552 0.0025675986
0.012679329 0.02833138 0.01140787 -0.12306007 0.70262229 0.70084107 0.003137144
0.016275125 0.028900225 0.011486706 -0.11246348 0.58801889 0.80099052 0.00033828316
0.02036326 0.029551053 0.011679366 -0.13811351 0.5724023 0.80825752 0.00056620565
0.059300683 0.027955133 0.011509473 0.45846283 -0.35228127 0.8159104 0.0013840843
0.06143903 0.028565522 0.010342204 0.55510747 -0.41961941 0.71817487 0.0024434365
0.06338767 0.029451257 0.0092692496 0.63097417 -0.4195995 0.65253949 0.0019349924
-0.059800539 0.03187602 0.011637338 -0.48586455 -0.25370476 0.83640271 0.0012267432
-0.019073078 0.032547608 0.011381161 0.25018883 0.76074702 0.59889024 0.0020579803
-0.016378168 0.032067094 0.010873084 0.23756407 0.76405424 0.59982032 0.0011417741
-0.013567041 0.031305395 0.010739041 0.21901631 0.76455605 0.60620612 0.0028392666
-0.010613495 0.030952655 0.010269097 0.17454109 0.7871114 0.59160042 0.0033758197
-0.0075208023 0.030530194 0.0099593345 0.15174051 0.77772832 0.6100111 0.0017575243
-0.0044279168 0.030435504 0.0093878591 0.10641045 0.78440422 0.61105394 0.0014191918
-0.0015289963 0.030194566 0.0091984207 0.099860623 0.78200382 0.61522186 0.0014208759
0.021151774 0.030431679 0.011115921 -0.14559188 0.58564281 0.79738665 0.0006328387
0.025652995 0.031411555 0.011389337 -0.18247102 0.54412854 0.81891906 0.001211723
0.061893787 0.031265613 0.011263511 0.50573409 -0.29740852 0.80980313 0.0011091555
0.064011179 0.031694163 0.0098931715 0.6205579 -0.34562448 0.70388329 0.0019666813
-0.027897112 0.035842396 0.011570732 0.30477586 0.69484395 0.6513859 0.0007068672
-0.02527906 0.035145216 0.011084248 0.30464125 0.74952602 0.58771122 0.0015403107
-0.022652572 0.034427926 0.010635735 0.28739741 0.75508666 0.58927655 0.0027511041
-0.019625839 0.033835884 0.0099725919 0.26354575 0.79070109 0.55257177 0.0032477935
-0.017396061 0.033100367 0.0099379346 0.23148713 0.7744869 0.58871353 0.0013864154
0.062519789 0.033842713 0.011740986 0.47361574 -0.20068863 0.85756177 0.0019931679
0.064536974 0.034488931 0.010521818 0.56875294 -0.24725264 0.78446567 0.0018686367
0.066310175 0.035208918 0.0093285823 0.67759693 -0.26775387 0.68496007 0.0021855081
-0.033619072 0.038571518 0.011450293 0.3200379 0.68227065 0.65732986 0.0010532602
-0.031417429 0.0379407 0.010979845 0.3287077 0.74488193 0.58060503 0.0015091076
-0.028756533 0.037169337 0.010406733 0.32735264 0.73808444 0.58997589 0.001570767
-0.026113292 0.036431447 0.0098497961 0.33183932 0.77318507 0.54043281 0.0010034021
0.04140164 0.037370227 0.011987952 -0.21686302 0.44333708 0.86972558 0.0007904169
0.064680241 0.037388094 0.011124547 0.5347842 -0.13705035 0.83380038 0.0010498487
0.066775106 0.037736584 0.0096514281 0.65833753 -0.17729448 0.73154515 0.0025025017
-0.039908644 0.04140763 0.011656922 0.30676413 0.68275833 0.66312647 0.0022080804
-0.03738822 0.041004736 0.010691005 0.360953 0.73520672 0.57374567 0.0017040502
-0.034647621 0.039987445 0.010314023 0.34652889 0.75059795 0.56260145 0.0017696517
-0.031709556 0.039291631 0.009373989 0.37189624 0.76572901 0.52474028 0.001738095
0.043886535 0.039107785 0.011685544 -0.22272019 0.45682505 0.86122394 0.00092149625
0.046832293 0.040911816 0.011488892 -0.22187468 0.47777134 0.85000366 0.00058362173
0.064889982 0.040486135 0.0113263 0.49957588 -0.035503037 0.86554235 0.0019902668
0.067071877 0.040548991 0.0098485071 0.62013751 -0.072248206 0.78115916 0.0034257723
-0.063289449 0.044033404 0.011735154 -0.3023535 0.17932191 0.9361763 0.0058311806
-0.046332136 0.044454526 0.011570794 0.28190652 0.65343767 0.70252979 0.0024485318
-0.043337926 0.043902237 0.010632985 0.3335574 0.710311 0.61983687 0.0013297771
-0.040736981 0.042915616 0.010267632 0.34175867 0.73465925 0.58606905 0.0014216334
-0.03837008 0.042550795 0.0093038362 0.37151125 0.74606729 0.55259657 0.0008389448
0.049550842 0.042799663 0.011121661 -0.2098584 0.46320346 0.86104709 0.00049071253
0.052957226 0.043815654 0.011558492 -0.15960173 0.44830412 0.87951732 0.0016883957
0.055614129 0.044355161 0.011878378 -0.076585874 0.39306307 0.91631651 0.0025888241
0.062440898 0.044390142 0.011859143 0.14118382 0.23582955 0.96148401 0.0056644697
0.064606883 0.043496341 0.011312992 0.42353141 0.08665657 0.90172714 0.0031996751
0.067146383 0.043513734 0.0099212294 0.57251507 0.035307907 0.81913358 0.0044513484
-0.064084858 0.047501486 0.010724899 -0.26963872 0.28131148 0.92095542 0.0013743817
-0.061636169 0.047109876 0.011609304 -0.1807652 0.32925782 0.92677569 0.0054300129
-0.058315128 0.047557712 0.011820063 -0.017317204 0.46739173 0.88388073 0.0036451591
-0.055184264 0.047517911 0.011601658 0.11542256 0.59231526 0.79739588 0.0025545275
-0.052402768 0.04714787 0.011259511 0.19458637 0.59558946 0.77936476 0.0018275778
-0.049553443 0.046539005 0.010832634 0.26187035 0.64605117 0.71696705 0.00091866916
-0.046643019 0.046005763 0.010095585 0.34451991 0.69260699 0.6337204 0.0012295692
-0.044615358 0.045403499 0.0096034994 0.37363237 0.6949631 0.61434931 0.0016320206
0.055469476 0.046091739 0.010772665 -0.1039824 0.44568154 0.88913196 0.00087415043
0.058430195 0.046378687 0.011229438 -0.033884596 0.41195583 0.91057354 0.0022835545
0.061569884 0.046365704 0.011331249 0.069784224 0.36391968 0.9288125 0.0061832559
0.0645997 0.04647164 0.010745808 0.30445388 0.24941079 0.91929436 0.008382204
0.067113958 0.046369899 0.0096979979 0.50135309 0.14151058 0.85359228 0.0054774755
-0.066307411 0.049425565 0.0094039049 -0.17081095 0.39701906 0.90177572 0.0019887707
-0.06456387 0.049615793 0.0098627601 -0.17082947 0.397017 0.9017731 0.0019854398
-0.061652515 0.049586892 0.010417894 -0.085454687 0.47148868 0.87772202 0.0031993657
-0.058259062 0.049319599 0.010715537 0.020325551 0.54306018 0.8394478 0.0025688012
-0.05545098 0.04933859 0.010231453 0.15990695 0.63911259 0.75230628 0.0019540316
-0.052634917 0.048818633 0.0098169018 0.25951415 0.69344318 0.67215246 0.0019088106
-0.05013017 0.048173975 0.0095298244 0.30183199 0.6906184 0.65722418 0.0011107634
0.05888924 0.049199972 0.0095765749 -0.047463965 0.42757395 0.90273345 0.001327818
0.06160222 0.049299341 0.0099836159 0.030906236 0.40391439 0.91427451 0.0039474568
0.064576082 0.049427003 0.0098321242 0.18082684 0.36006606 0.91523439 0.0078699365
0.066742435 0.049033359 0.0093326131 0.40083233 0.27381045 0.87427759 0.0066314358
-0.064820595 0.051377345 0.0091248462 -0.1181198 0.43145949 0.89436591 0.0051750457
-0.0615522 0.051471204 0.0092749419 0.02143297 0.61281198 0.78993803 0.0061741928
-0.058589295 0.051199634 0.0092395162 0.11757869 0.65127349 0.74967867 0.003074303
-0.056952499 0.051110141 0.0090125371 0.18449755 0.6603719 0.72792149 0.004523972
0.064711601 0.051143978 0.0091119763 0.13349663 0.38129929 0.91476196 0.0051656752
-0.0014348414 0.0059156334 0.012005968 -0.011767042 -0.68707389 0.72649223 0.0025464802
0.0021973504 0.0059276465 0.012012787 0.020262618 -0.67854559 0.7342788 0.0028715178
-0.019301342 0.0084625455 0.012444246 -0.17825814 -0.70304853 0.68843794 0.0015384647
-0.016459538 0.0081931297 0.012785926 -0.14099716 -0.66956478 0.72924811 0.0014057799
-0.013465771 0.0079350853 0.012993827 -0.10605007 -0.68022972 0.72528684 0.0010067984
-0.010468348 0.0076481476 0.013113684 -0.068079077 -0.65978682 0.74836266 0.0011514963
-0.0074610738 0.0075960713 0.013253734 -0.031176575 -0.63262182 0.7738331 0.0020524994
-0.0044907387 0.0074381973 0.01325589 -0.017545508 -0.61605775 0.78750557 0.0016084289
-0.0014832765 0.0075094709 0.013329979 0.0040150075 -0.60531414 0.79597658 0.0025597019
0.0014719357 0.0075334082 0.01330091 0.025117034 -0.59443957 0.80374783 0.0026580286
0.0044356771 0.0074405237 0.013129418 0.045238409 -0.58589911 0.80912036 0.0023035894
0.0074518663 0.0076493965 0.013104212 0.059775885 -0.58314759 0.81016397 0.0029367928
0.010471282 0.0078076231 0.012992014 0.080170736 -0.59927255 0.79652059 0.0017143942
0.013465977 0.0079937046 0.012789925 0.096933305 -0.60081595 0.79348862 0.0018272222
0.016441904 0.0082447566 0.012597062 0.11463065 -0.61615074 0.77924192 0.0021373741
0.019230595 0.0085699456 0.012391409 0.1361146 -0.64069879 0.75563073 0.0023257299
0.021667182 0.0087756598 0.012129433 0.15291293 -0.66248596 0.73330069 0.0017626527
-0.030322118 0.011781677 0.012445785 -0.25923878 -0.69852412 0.6669777 0.0018119151
-0.028260611 0.01133436 0.012719939 -0.24225491 -0.68885881 0.68321747 0.0013446368
-0.02547743 0.010823986 0.013103577 -0.20629014 -0.69263452 0.69115973 0.0018694235
-0.022486217 0.010545025 0.013609773 -0.17391995 -0.6665616 0.72487754 0.001717031
-0.019639963 0.010230439 0.013976268 -0.14267585 -0.64044148 0.75463784 0.0027281889
-0.016554322 0.0099689048 0.014297877 -0.10951205 -0.58681357 0.80228233 0.0013749467
-0.013447419 0.0097767366 0.014503196 -0.079528496 -0.55808848 0.82596159 0.0018585181
-0.010585074 0.0095914872 0.014623318 -0.047993571 -0.53063899 0.84623814 0.002380122
-0.0075735282 0.0095848143 0.014716402 -0.020822916 -0.51109082 0.85927451 0.0023023449
-0.00440859 0.0094418526 0.014679212 -0.0035999252 -0.48994634 0.87174511 0.0023552664
-0.0014291501 0.0095885508 0.014730979 0.012895549 -0.47585675 0.87942821 0.0023357479
0.0015112718 0.0097155971 0.01472187 0.029680902 -0.46662664 0.88395619 0.0022509196
0.0045836 0.0096339341 0.014551188 0.043009829 -0.46066421 0.88653183 0.0020813497
0.0076126764 0.0099629108 0.014546777 0.05428537 -0.46028417 0.88611037 0.0017717734
0.01059989 0.010143942 0.014413255 0.072183155 -0.46402201 0.88287777 0.0014864863
0.013534572 0.010433814 0.014276585 0.087877192 -0.47189447 0.87726462 0.00099385623
0.016475352 0.010498583 0.014011628 0.10066571 -0.47654191 0.87336946 0.00094078109
0.019461699 0.01042104 0.013600701 0.11778018 -0.48406163 0.86707103 0.00085898279
0.022404745 0.010504202 0.013206217 0.14365396 -0.55052912 0.8223632 0.0025337546
0.025400883 0.010798589 0.012846414 0.16167963 -0.57179976 0.80430394 0.0023960599
0.028509593 0.011344969 0.012555306 0.17868525 -0.59184116 0.78599972 0.0014561225
0.030653371 0.011697102 0.012235423 0.19411761 -0.60222775 0.77436423 0.00052622485
-0.036769513 0.014437358 0.012440619 -0.33960944 -0.6952793 0.63344461 0.0016174256
-0.03418757 0.014084695 0.013263278 -0.28640643 -0.68382478 0.671085 0.0014993274
-0.031575348 0.013368979 0.013583802 -0.26345721 -0.65885663 0.70462632 0.0020590895
-0.028640633 0.012907106 0.014090925 -0.20509692 -0.66950804 0.71392876 0.0014448124
-0.025833618 0.012605476 0.014615575 -0.17978451 -0.57721871 0.79655266 0.0021218024
-0.023299184 0.012071867 0.014782605 -0.15784746 -0.62507308 0.76443946 0.002162179
0.017138591 0.012352709 0.014888024 0.088877603 -0.3405717 0.93600839 0.0022725703
0.019719977 0.012628182 0.014698266 0.10445964 -0.37651283 0.9205032 0.0021443972
0.022562267 0.013065726 0.014553944 0.12127385 -0.40422159 0.90658563 0.0018891549
0.025486378 0.013362735 0.014317539 0.13456324 -0.42937657 0.89304447 0.0017975469
0.028484391 0.013559725 0.013952818 0.14684276 -0.45524266 0.87817502 0.0016001033
0.031511605 0.013418694 0.0132594 0.18051815 -0.52550572 0.83141869 0.0013096959
0.034432594 0.0138768 0.01284806 0.19710836 -0.54217565 0.81681937 0.00071919581
0.037189234 0.01432481 0.012413869 0.21343495 -0.55370569 0.8048948 0.00059916062
0.039413139 0.014789019 0.012169115 0.23527119 -0.57181579 0.78592247 0.00095475995
-0.042893711 0.017456301 0.012147911 -0.41747072 -0.67170066 0.61199385 0.0013292166
-0.040144198 0.017018646 0.013316274 -0.34701714 -0.64354587 0.68222272 0.0015975352
-0.037608106 0.016255533 0.013843765 -0.31087404 -0.62989199 0.71175373 0.0019712772
-0.034996368 0.015764374 0.014439066 -0.25648117 -0.60738802 0.75186247 0.0031568417
0.02657002 0.015227892 0.014934828 0.10331988 -0.26024064 0.95999986 0.0025210858
0.028682509 0.015591818 0.014839563 0.12019321 -0.32906747 0.93662596 0.0030259707
0.031600796 0.015931109 0.014594649 0.14566569 -0.38487372 0.91140211 0.0027688355
0.034629181 0.016384264 0.014282973 0.16949731 -0.43835908 0.88267314 0.0019560875
0.037545003 0.016463557 0.013669037 0.19870833 -0.4511421 0.8700493 0.00095354446
0.040495556 0.016590802 0.012989777 0.22290325 -0.49933031 0.83724749 0.00076241395
0.043270975 0.017102724 0.012506592 0.2611841 -0.51496291 0.81645334 0.0014231863
0.045530956 0.017785525 0.012197972 0.30465356 -0.54649639 0.78008193 0.0017333709
-0.045714214 0.020256829 0.013140017 -0.40644467 -0.57604784 0.70920497 0.00075965404
-0.043596387 0.019573685 0.013693263 -0.37185362 -0.58533102 0.72049457 0.001224938
-0.041013986 0.018639455 0.014245069 -0.33538985 -0.60558105 0.72165453 0.0013286619
0.035534117 0.018137407 0.014906428 0.12692629 -0.26433119 0.95604324 0.0040313317
0.037778351 0.018695736 0.014749874 0.17266506 -0.34239221 0.92355525 0.0033154555
0.040613364 0.019361494 0.014428379 0.20253579 -0.3998037 0.89394426 0.0015474602
0.043525185 0.019465968 0.013704147 0.23626244 -0.41810653 0.87713569 0.00055727409
0.046419498 0.019551039 0.012930614 0.27848795 -0.46108764 0.84252161 0.0012959209
0.048983991 0.02029033 0.012419265 0.33755663 -0.48365763 0.8075462 0.0017800103
-0.049142532 0.023072563 0.013315357 -0.42152855 -0.53324383 0.73346078 0.00049573352
-0.046826124 0.022484373 0.014186917 -0.40538818 -0.52032131 0.75161576 0.0013454752
-0.044616915 0.021620395 0.014792741 -0.39231727 -0.49718282 0.773884 0.0044758096
-0.00098194345 0.023796931 0.014853546 0.078257583 0.52373904 0.84827667 0.0013315068
0.001352051 0.023559263 0.014827028 0.046144433 0.42862976 0.90230107 0.0026340832
0.0044962773 0.023464432 0.014744342 0.022200657 0.43167442 0.90175629 0.0025739351
0.0076179244 0.023379432 0.014742088 -0.0039903522 0.42214862 0.90651792 0.0025036233
0.010473503 0.023387151 0.014790932 -0.027162464 0.40397868 0.91436505 0.0027433871
0.013506244 0.02345017 0.014865018 -0.050716538 0.378887 0.92405224 0.0028861044
0.016107935 0.023949465 0.01483996 -0.074887499 0.45428184 0.88770479 0.0018918382
0.041955151 0.021216499 0.014907422 0.13799092 -0.24575263 0.95946032 0.0042599463
0.043822594 0.021766948 0.01468533 0.21210881 -0.3212792 0.9229244 0.0027083054
0.046575844 0.022428326 0.014202995 0.25729832 -0.36033207 0.89663726 0.00082066638
0.049529709 0.022477958 0.013309455 0.30001146 -0.40569726 0.86336714 0.0007451034
0.052246757 0.022940457 0.012559189 0.35066673 -0.43484288 0.82942426 0.0021022998
0.054278597 0.023713544 0.012023895 0.42042312 -0.45860842 0.78289384 0.0016527344
-0.052236032 0.02561833 0.013234429 -0.47263205 -0.49895006 0.72640741 0.0010849129
-0.049739342 0.025277622 0.014528841 -0.42426196 -0.47171375 0.77297342 0.002042904
-0.013281894 0.026749063 0.014790979 0.16470368 0.48870325 0.85676235 0.0020808962
-0.010282689 0.02632232 0.014499873 0.14671473 0.51620281 0.84380651 0.001839609
-0.0075996672 0.025766399 0.014387711 0.13189833 0.53609157 0.83379173 0.001551862
-0.0045384327 0.025678245 0.014019378 0.10248897 0.55143195 0.82790017 0.0011720435
-0.0016036257 0.025389533 0.013876248 0.079255126 0.55755943 0.82634509 0.0010139985
0.0014045208 0.025549751 0.013532507 0.04668384 0.55088866 0.8332721 0.0011788055
0.0044701025 0.025335694 0.013570708 0.023158256 0.54836196 0.83592033 0.0010712828
0.0073748445 0.025456663 0.013459556 -0.010075172 0.5878548 0.80890375 0.0012331017
0.010577977 0.025386127 0.01363147 -0.027744776 0.54628116 0.83714223 0.0018457494
0.013417683 0.025529856 0.013704231 -0.071301818 0.53400773 0.84246773 0.0027131934
0.0165633 0.02562144 0.013986136 -0.099371776 0.49606311 0.86258137 0.0013369939
0.019485911 0.025508804 0.014398581 -0.11112169 0.46137294 0.88021988 0.001983735
0.022587173 0.025938746 0.014600506 -0.12550418 0.4148255 0.90120393 0.0024436109
0.025776118 0.026453376 0.014797777 -0.12218392 0.35568839 0.92658341 0.0032453644
0.027970191 0.026786018 0.01493778 -0.10763028 0.38566974 0.91633761 0.0015227033
0.047193814 0.024524966 0.014812699 0.21461911 -0.24049279 0.94662654 0.0035509181
0.049570281 0.025407542 0.014452781 0.271092 -0.29934698 0.91482276 0.0011538459
0.052481942 0.025467187 0.013551621 0.32648423 -0.33484331 0.88390499 0.0006033784
0.055126499 0.025746193 0.012591054 0.38177925 -0.36881113 0.84748042 0.0024253272
0.057079911 0.026613131 0.012076639 0.44954306 -0.41277987 0.79216397 0.0016059343
-0.055241559 0.028821439 0.01331453 -0.49691188 -0.40356469 0.76825398 0.0030450604
-0.053093601 0.028421585 0.014375399 -0.39399403 -0.32368144 0.86023194 0.002464677
-0.021468706 0.029552203 0.014888199 0.21238117 0.57193691 0.79232723 0.00093143957
-0.019166447 0.029132979 0.014555054 0.21006551 0.54789424 0.8097434 0.0018173434
-0.01650746 0.02879676 0.014084907 0.20250425 0.58108276 0.78824794 0.0013901343
-0.013593456 0.02855877 0.013513784 0.19235966 0.61747628 0.76270628 0.0022581874
-0.010605083 0.028077284 0.013241135 0.16196103 0.63764346 0.75311309 0.0021839256
-0.0076960018 0.027830847 0.012849196 0.14118646 0.66353714 0.7347005 0.0013417699
-0.0047032316 0.027734082 0.012451555 0.11152426 0.67495054 0.72938609 0.0016616168
-0.0016517669 0.027389672 0.012352429 0.083041199 0.68312532 0.72556454 0.0016777697
0.001019508 0.027281912 0.012213126 0.046668872 0.63210493 0.77347618 0.0013725421
0.0045407484 0.027204968 0.012126587 0.01558296 0.62866414 0.77752084 0.0014771003
0.0076895859 0.027199849 0.01208999 -0.016052866 0.6200459 0.7844013 0.0015392699
0.010123186 0.027343955 0.012134688 -0.055647317 0.60432589 0.79479158 0.0015274778
0.013943118 0.027619012 0.012258814 -0.094941027 0.58291316 0.80696869 0.0016421619
0.016913461 0.027813016 0.012551247 -0.11444186 0.56717515 0.81560743 0.00077395904
0.019478885 0.027778789 0.012984681 -0.12653707 0.5584929 0.81980127 0.0015064905
0.022688426 0.028183917 0.013269312 -0.15641955 0.54437673 0.82412797 0.0020283994
0.02560468 0.02804032 0.013970826 -0.17157651 0.51595587 0.83925623 0.0029012174
0.028551664 0.028441647 0.01423441 -0.10268822 0.39599201 0.91249412 0.0015385894
0.0315919 0.028845746 0.014535259 -0.12478112 0.39779547 0.90894908 0.0017701179
0.034414761 0.029203761 0.014802938 -0.13542247 0.33412468 0.93274939 0.0035615391
0.036708858 0.029769687 0.014897633 -0.14055815 0.36755094 0.91932023 0.0027864219
0.050491218 0.02766343 0.014847213 0.21168463 -0.16314852 0.96362448 0.0036507794
0.052566033 0.028427098 0.014418568 0.28316027 -0.22852035 0.93144977 0.0018764738
0.055519443 0.028419271 0.013452088 0.34583113 -0.27682814 0.89653051 0.0016422367
0.058028303 0.02881816 0.012529555 0.41929507 -0.31020564 0.85320818 0.0019335916
-0.055509955 0.031566937 0.014311803 -0.44198024 -0.25495306 0.86003047 0.002584259
-0.028077826 0.032517035 0.014706177 0.25027585 0.60199577 0.75826317 0.0014927305
-0.025357794 0.031993814 0.014196008 0.25793594 0.59416747 0.76186228 0.0028185202
-0.022529563 0.031524807 0.013623777 0.24263023 0.63246959 0.73560369 0.0021412845
-0.019811155 0.031099556 0.013113077 0.22667299 0.66326767 0.71322876 0.0021898306
-0.016619531 0.030637404 0.012545078 0.22035263 0.68976486 0.68968779 0.00095665641
-0.014767341 0.030548956 0.012031547 0.20242564 0.72406447 0.65935922 0.0016588065
0.023931231 0.030024605 0.012094584 -0.17506039 0.56331366 0.80748475 0.0012626243
0.02912548 0.03039927 0.013231918 -0.18734904 0.50882542 0.84023631 0.0015949006
0.031632207 0.031102808 0.013296965 -0.14095925 0.4316656 0.89095187 0.00067530089
0.034181513 0.031486616 0.013585504 -0.14077184 0.40959764 0.90133959 0.0015310675
0.037581865 0.031419616 0.014378023 -0.16617741 0.39959013 0.90150577 0.0013945826
0.040346771 0.031875946 0.014641666 -0.15180653 0.34020072 0.92801851 0.0024177895
0.043381367 0.032528255 0.014881097 -0.12234236 0.26585886 0.95621723 0.0022926128
0.053009182 0.03131476 0.014828226 0.22055872 -0.098476052 0.97038978 0.0029533317
0.055532862 0.03145067 0.014179907 0.27753079 -0.13963783 0.95051455 0.002620717
0.058556002 0.031474371 0.013030694 0.36843014 -0.20978588 0.90567607 0.0018836258
0.060561594 0.0321659 0.012318903 0.46063828 -0.26303992 0.84771603 0.0020849733
-0.060265332 0.035650391 0.012714243 -0.45970041 -0.14659041 0.87589204 0.0041753221
-0.057916719 0.034376577 0.01382595 -0.44200587 -0.18188991 0.87837738 0.0034473951
-0.05615158 0.033571765 0.014591897 -0.44184747 -0.18248774 0.87833309 0.0038390686
-0.034204874 0.035447214 0.014557735 0.25844347 0.60105836 0.75626433 0.0012545071
-0.031380307 0.034770437 0.014069546 0.26523003 0.58269262 0.7681942 0.001120322
-0.028501436 0.034336749 0.013335101 0.28879476 0.61488694 0.73383355 0.0010451635
-0.025475176 0.033775281 0.012694861 0.27758005 0.68718761 0.67135876 0.00099108799
-0.023538981 0.033032741 0.012650706 0.24708004 0.65771037 0.71159577 0.0011392714
0.035349384 0.033123378 0.012929431 -0.1703576 0.40278667 0.8993004 0.0011596121
0.037285998 0.033772044 0.013030405 -0.16731761 0.43594098 0.88428521 0.00055437116
0.040518012 0.034363508 0.01355639 -0.16648678 0.40224689 0.90026635 0.0021515689
0.043495793 0.034479663 0.014184394 -0.17727691 0.38481981 0.9058072 0.0025882965
0.0464633 0.034620244 0.01459969 -0.1268499 0.31237519 0.94145149 0.0017878236
0.049576707 0.034944389 0.014789992 -0.034142844 0.21970095 0.97496957 0.0041772798
0.052741867 0.034571983 0.014818212 0.045091338 0.13714458 0.98952419 0.0030239257
0.055585716 0.034407042 0.014413653 0.20396039 -0.0013892044 0.9789781 0.0053826463
0.058510553 0.03447539 0.013614896 0.31304511 -0.084929056 0.94593328 0.0028659569
