# .PCD v0.7 - Point Cloud Data file format
VERSION 0.7
FIELDS x y z normal_x normal_y normal_z curvature
SIZE 4 4 4 4 4 4 4
TYPE F F F F F F F
COUNT 1 1 1 1 1 1 1
WIDTH 560
HEIGHT 1
VIEWPOINT 0 0 0 1 0 0 0
POINTS 560
DATA ascii
0.041553743 0.042475965 -0.0063206125 -0.4768523 0.76847154 -0.42668885 0.00081173412
0.043616243 0.043080192 -0.0074193524 -0.46133849 0.75620645 -0.46402422 0.0023757922
0.046092074 0.044417769 -0.0076743709 -0.44174021 0.74739587 -0.49625099 0.00237484
-0.070001401 0.046511091 -0.0068817502 -0.72486609 -0.14693764 -0.67303681 0.0044864737
-0.06839744 0.046470478 -0.0082937423 -0.5887661 -0.058920287 -0.80615312 0.0042259758
0.04716577 0.045630012 -0.0068221646 -0.47042331 0.74856806 -0.46727687 0.0017119714
0.049339779 0.046469133 -0.00749993 -0.42490369 0.7389403 -0.52289969 0.0019070546
0.052047223 0.047407631 -0.0083033685 -0.37759218 0.68194896 -0.62639427 0.0010189428
-0.070410848 0.049551666 -0.0068443082 -0.7108286 -0.12084982 -0.69290543 0.0030298121
-0.068330437 0.049378444 -0.0083334977 -0.60890722 -0.067800455 -0.79033858 0.0046396805
0.050366972 0.048118819 -0.006029225 -0.46431202 0.74085492 -0.48533323 0.0010844626
0.052490532 0.048853051 -0.006843586 -0.44182518 0.73276073 -0.51754445 0.0019944694
0.054962751 0.049678728 -0.00754329 -0.39029205 0.7088713 -0.58751476 0.0022804495
0.057714406 0.050145313 -0.0084848795 -0.39947113 0.69564599 -0.5970757 0.0010093728
-0.070725992 0.052127667 -0.0066392645 -0.63740689 -0.09006843 -0.76524502 0.0035162913
0.056433555 0.051439952 -0.0064310469 -0.40915108 0.71971047 -0.56090307 0.0025948391
0.058608588 0.051991332 -0.0070689423 -0.40251583 0.71579462 -0.57063031 0.00062646635
0.06083395 0.053386122 -0.0068791281 -0.42083099 0.68414003 -0.59569597 0.00081619719
-0.07071735 0.054567348 -0.0064326762 -0.48989356 0.15620998 -0.85767287 0.019915728
0.062289998 0.05460719 -0.0064601945 -0.50245714 0.68623984 -0.52593887 0.0056818984
-0.030141462 0.0084818173 -0.0045259553 -0.38565356 -0.89606225 -0.21987212 0.00038258458
-0.028285014 0.0076041343 -0.0042098654 -0.37574032 -0.90923464 -0.17919676 0.00016053462
-0.037029389 0.011471507 -0.0043550017 -0.44014373 -0.85988283 -0.25860173 0.0015656352
-0.034504712 0.010212577 -0.0041851439 -0.40994489 -0.88135439 -0.23486114 0.0011070319
-0.032098398 0.0093818102 -0.0047982242 -0.3946459 -0.89925486 -0.188667 0.00013322131
-0.042944141 0.014640948 -0.0043180799 -0.4903214 -0.82077777 -0.29310212 0.001741887
-0.040492427 0.013258957 -0.0042515364 -0.4629074 -0.85423982 -0.23662408 0.0024628502
-0.038490731 0.012259623 -0.00442304 -0.46856153 -0.85052437 -0.23886921 0.0023164654
-0.046441559 0.017070839 -0.0043389653 -0.55777097 -0.78083199 -0.2814126 0.0014344197
-0.04429318 0.015672082 -0.004664965 -0.52431399 -0.79882717 -0.29490677 0.0019445193
-0.051485542 0.020666517 -0.0041957963 -0.56438434 -0.77243179 -0.29123777 0.0019038795
-0.049495064 0.019278688 -0.0044714822 -0.55915964 -0.77681154 -0.28966248 0.0017861568
-0.054858033 0.023283206 -0.0042963247 -0.59983557 -0.74995571 -0.27886161 0.0016259459
-0.052723017 0.021754349 -0.0046364781 -0.57792866 -0.76405472 -0.28673846 0.001955125
-0.058169145 0.026054105 -0.0043650363 -0.63174224 -0.72009087 -0.28700322 0.0020317347
-0.056261495 0.024557784 -0.0046142819 -0.61695981 -0.73934078 -0.26969579 0.0013157449
-0.061097063 0.02888212 -0.0043409765 -0.68451959 -0.66158074 -0.30617613 0.0022266079
-0.059633952 0.027567055 -0.0048426753 -0.66408926 -0.69174325 -0.28368422 0.0017336338
-0.063884683 0.0319038 -0.0042385799 -0.72965819 -0.5967949 -0.3338185 0.0021051492
-0.06242279 0.030588798 -0.00492932 -0.7142539 -0.632608 -0.29941347 0.0015501688
0.010458777 0.032770328 -0.0036589787 -0.093811654 0.9791832 -0.1799987 0.001902045
0.013759832 0.032726921 -0.005016278 -0.1280627 0.96073246 -0.24615675 0.0013797143
-0.066561095 0.035281979 -0.0041244416 -0.76473743 -0.54595995 -0.34220514 0.0019454621
-0.065260641 0.0339173 -0.0046962006 -0.75278813 -0.57999748 -0.31130847 0.0018048809
0.014020575 0.03326254 -0.0035361538 -0.12805229 0.9607349 -0.24615255 0.0013812447
0.016791005 0.033553585 -0.0041436283 -0.19064881 0.94874209 -0.25207433 0.001470221
0.01930779 0.034063511 -0.0045728539 -0.24467315 0.92844325 -0.27951413 0.0020460882
0.022363652 0.034947176 -0.0044846502 -0.27340209 0.92310888 -0.27040941 0.0015146659
0.025084149 0.035632946 -0.0047465474 -0.29902527 0.9166069 -0.26535949 0.0019254209
0.02722059 0.035985794 -0.0055387914 -0.2845583 0.9194802 -0.27126113 0.0022259024
-0.069157407 0.03871163 -0.0033043067 -0.80985916 -0.46589726 -0.35646597 0.0026778241
-0.067834727 0.037459474 -0.0045133964 -0.7797792 -0.50171715 -0.37446535 0.0048613786
0.026291421 0.03618608 -0.004187983 -0.2845687 0.91947442 -0.2712698 0.0022375232
0.028438944 0.036812559 -0.0043955222 -0.30494261 0.91404092 -0.26746833 0.0022825901
0.031610701 0.037953153 -0.0043884516 -0.36011711 0.89955556 -0.24721542 0.002309408
0.033481061 0.038640212 -0.0047784578 -0.42559472 0.8690173 -0.25234532 0.0019003904
-0.069877736 0.040697277 -0.0041589374 -0.84166443 -0.38846737 -0.37509215 0.003085295
-0.068675749 0.03962769 -0.005388502 -0.78457493 -0.41795823 -0.45798811 0.0055739735
0.034924481 0.03946276 -0.0043340349 -0.42038658 0.87325209 -0.24638566 0.0019124574
0.037612565 0.040826492 -0.0044614039 -0.48213738 0.82847202 -0.284917 0.0030921618
0.039669044 0.041709613 -0.0053884517 -0.47606307 0.81431478 -0.33204725 0.0026364191
-0.07083226 0.043492097 -0.0045264922 -0.8478055 -0.31849635 -0.42401171 0.0041028839
0.040650897 0.042733844 -0.0042673014 -0.500166 0.82287335 -0.26965439 0.002458578
0.043160975 0.044172592 -0.0046764128 -0.51095206 0.80744922 -0.29487917 0.0027630269
-0.072412185 0.046709791 -0.003692616 -0.84770519 -0.29092461 -0.44357508 0.0033552616
-0.071443453 0.046334565 -0.0050869822 -0.79518664 -0.21018155 -0.56877238 0.0069258586
0.044513281 0.04536742 -0.0038374208 -0.53302246 0.78919315 -0.30505934 0.0023953151
0.046454772 0.046376396 -0.0044934102 -0.49772415 0.80772865 -0.31598276 0.0029550979
0.048519701 0.047583617 -0.0047938759 -0.53584164 0.78347301 -0.31471214 0.0024295081
-0.072976388 0.04957642 -0.0040436834 -0.78281248 -0.21534756 -0.58380663 0.01147596
-0.071735665 0.049169328 -0.0055716969 -0.74629831 -0.13841951 -0.65105969 0.0095450766
0.050024644 0.04880375 -0.0042268932 -0.50465304 0.79836708 -0.32853529 0.0028123921
0.052234296 0.050058614 -0.0045896014 -0.48445433 0.79307973 -0.36922693 0.0042463858
0.054421786 0.050885499 -0.0055627311 -0.45274562 0.76486695 -0.45825738 0.0077858372
-0.073612921 0.052395042 -0.0042944849 -0.72148466 -0.16347273 -0.67285693 0.0051075565
-0.071993329 0.053943917 -0.0059363651 -0.5908466 0.012832205 -0.80668187 0.0054721022
0.05352639 0.051320478 -0.0036381944 -0.49195468 0.80045241 -0.34242722 0.002342775
0.055616479 0.052226413 -0.0044304063 -0.46126464 0.78964269 -0.40459773 0.0049196882
0.057881311 0.053471174 -0.0046551344 -0.49964222 0.76117331 -0.41348863 0.0067922347
-0.075255446 0.055728633 -0.0033809785 -0.78573495 0.10401922 -0.60975456 0.039014522
-0.074233696 0.055431422 -0.0043494231 -0.63178617 0.28320414 -0.72155505 0.028226947
-0.071902156 0.054340214 -0.0059668641 -0.59089857 0.012751617 -0.80664515 0.0054724123
0.059107959 0.054744363 -0.0039745448 -0.54817241 0.70408618 -0.45140842 0.0067754872
0.061195198 0.055822726 -0.0044634645 -0.53601754 0.68281168 -0.49644077 0.0078524984
0.063642487 0.05640154 -0.0056342813 -0.50622773 0.6472612 -0.56990027 0.0037359789
-0.073405623 0.058081757 -0.0038914201 -0.48725602 0.63030505 -0.60439807 0.032927133
-0.070964567 0.05949245 -0.0038005013 -0.36038893 0.79373741 -0.49000061 0.061172683
0.062325418 0.057266168 -0.0038091035 -0.53838426 0.64857656 -0.53804362 0.0072372532
0.063954219 0.05859369 -0.0040717754 -0.60963064 0.53367639 -0.58612281 0.010336458
0.066350341 0.058872737 -0.0053822659 -0.64435607 0.41528028 -0.64214295 0.010572175
0.065248758 0.061264329 -0.0036081378 -0.6852439 0.3160139 -0.656183 0.0078178942
0.066729248 0.061866883 -0.0043732999 -0.68529105 0.3160193 -0.65613109 0.0077985721
0.065870538 0.063602887 -0.003294487 -0.76134831 0.22434871 -0.60828966 0.0042242799
0.067084126 0.064532988 -0.0038822778 -0.76128864 0.22441129 -0.60834122 0.0042382861
0.06746719 0.067771018 -0.0036046747 -0.80071253 0.23406324 -0.55142903 0.0060693566
0.067914099 0.070221007 -0.0035289158 -0.82585835 0.16033593 -0.54060197 0.0077924575
0.069231488 0.071196817 -0.0042796764 -0.77948326 0.12596658 -0.61362708 0.0044803754
0.068251535 0.073359996 -0.0035474401 -0.91851431 0.11058861 -0.37960732 0.032685116
0.069065541 0.073517591 -0.0042464645 -0.91849709 0.11058714 -0.3796494 0.03273201
0.068567999 0.075866632 -0.0035564017 -0.95804369 0.069074601 -0.27817422 0.026341142
0.069230877 0.07554014 -0.0043043722 -0.89709377 0.1704466 -0.40764055 0.026120141
-0.02419075 0.0054439558 -0.0012429862 -0.35313535 -0.93114817 -0.090876371 0.0034179257
-0.023194339 0.0051480494 -0.0020692109 -0.35313138 -0.93114948 -0.090878516 0.0034185133
-0.020699149 0.0041271946 -0.0014415249 -0.31679785 -0.94750649 -0.043249704 0.004776347
-0.033142656 0.0089964895 -0.0005977723 -0.40600303 -0.88941699 -0.20999734 0.0014034506
-0.03144357 0.0083980812 -0.0017835952 -0.38423452 -0.89277089 -0.2352107 0.00063539512
-0.02868841 0.0072456561 -0.0018109301 -0.3685897 -0.90416813 -0.21592084 0.00057948829
-0.026195403 0.0063142208 -0.0022644117 -0.34839144 -0.91047454 -0.22284408 0.00021223804
-0.037521601 0.011101814 -0.0014522572 -0.45845231 -0.85914731 -0.22734846 0.0020525474
-0.03469269 0.0097546894 -0.0014941181 -0.39225137 -0.88538927 -0.24944901 0.00096821057
-0.043326866 0.014244027 -0.0015103833 -0.48097506 -0.84252447 -0.24251913 0.0030927102
-0.040693901 0.012769641 -0.0014325581 -0.46434584 -0.85137284 -0.24402274 0.0026414427
-0.038960744 0.012020991 -0.0028351564 -0.45838109 -0.85694551 -0.23565038 0.0026543818
-0.048281711 0.017676713 -0.0014247397 -0.5756287 -0.78130794 -0.2412668 0.0025577862
-0.046374436 0.016347334 -0.0014666164 -0.55803049 -0.7830106 -0.27476588 0.0015858487
-0.044617791 0.015179332 -0.0019794821 -0.56226885 -0.78752053 -0.25231969 0.0014240517
-0.051821332 0.020291982 -0.0015093903 -0.58886963 -0.78459263 -0.19402824 0.002063575
-0.049835876 0.018809794 -0.0015490359 -0.57320893 -0.78167558 -0.24579434 0.0027912606
-0.055303849 0.02293741 -0.0014220002 -0.60396653 -0.77412319 -0.18962541 0.00056951889
-0.053379506 0.021476114 -0.0016202381 -0.60764879 -0.76670986 -0.207169 0.001163175
-0.060149405 0.026939936 -0.0010518149 -0.67415762 -0.7139535 -0.18916097 0.00098940602
-0.058538068 0.025611544 -0.0015147071 -0.6502074 -0.72951496 -0.21222207 0.00075406895
-0.056814156 0.024172649 -0.0014031384 -0.63586307 -0.74226421 -0.21147585 0.00071093219
-0.061619345 0.028558658 -0.0015197087 -0.71735919 -0.67171782 -0.18490779 0.00075600535
-0.064308099 0.03146093 -0.0014132769 -0.7514196 -0.63993531 -0.16078375 0.0011012836
0.0027878312 0.032953084 -0.001028745 0.039208725 0.99818701 0.045665659 0.00085852522
0.0059441747 0.032934982 -0.0010035152 -0.0052108029 0.99980873 0.018849282 0.0015082146
0.00746579 0.032837648 -0.0019927123 -0.018204859 0.9990651 -0.039210938 0.0019339783
0.010137043 0.032926396 -0.0025758408 -0.078442089 0.99128443 -0.1058396 0.0016700414
-0.066943318 0.03474969 -0.001404434 -0.80835015 -0.57101858 -0.14320566 0.0022769102
-0.065722264 0.033262063 -0.0017339784 -0.77805746 -0.61172861 -0.14287978 0.0015659144
0.0024290152 0.033043198 -0.00040805797 0.030191239 0.99839807 0.047851294 0.00080964266
0.0055792555 0.033025704 -0.00037877462 -0.0052071749 0.99980873 0.018848207 0.0015082837
0.0083180554 0.033074956 -0.00046508489 -0.032322049 0.99917316 -0.024665089 0.001682022
0.010705208 0.033153161 -0.0012072789 -0.084032878 0.99568737 -0.039307568 0.0021785358
0.013505677 0.03344195 -0.0015587769 -0.13265373 0.98585379 -0.1024475 0.0023450514
0.016513387 0.033981793 -0.001447289 -0.20216295 0.97466004 -0.095748946 0.0018207687
0.019541932 0.034717903 -0.0013955444 -0.26216951 0.9615187 -0.082151763 0.0014241377
0.022553189 0.03552746 -0.0015808666 -0.27100259 0.95895708 -0.083419666 0.001506557
0.024594363 0.035998508 -0.0026078224 -0.28263018 0.94963294 -0.13534167 0.0025310407
-0.069434971 0.038404647 -0.0013735709 -0.85029787 -0.50358844 -0.15294486 0.0055945404
-0.068389714 0.036823925 -0.0015319776 -0.81799072 -0.56232333 -0.12117577 0.002280009
0.025704881 0.036466088 -0.001423502 -0.27039951 0.9551819 -0.12046472 0.0025686878
0.028731043 0.037466984 -0.0014180524 -0.33558887 0.93828291 -0.083697729 0.0017246663
0.031494055 0.038417816 -0.0017653011 -0.37318787 0.92238742 -0.09966068 0.0022843059
-0.070669554 0.040497188 -0.0013899958 -0.88646913 -0.45612818 -0.078227639 0.0027419108
0.032654982 0.039037358 -0.00077395659 -0.36697993 0.92556167 -0.093066268 0.0025551172
0.03447403 0.039787352 -0.0015818855 -0.43220198 0.89511079 -0.10944445 0.0019214936
0.037206974 0.041220158 -0.0014618895 -0.49750119 0.85954118 -0.11696769 0.0027719748
-0.07230334 0.044212013 -0.0012567091 -0.93503535 -0.31279397 -0.16693945 0.0087231016
-0.071608037 0.042704359 -0.0016595456 -0.91004205 -0.38924658 -0.14251502 0.005466992
0.038905345 0.042354111 -0.00073531538 -0.54074693 0.83315265 -0.1159716 0.0030313658
0.040553518 0.043256063 -0.0016197679 -0.51513261 0.85254729 -0.088325895 0.0027419238
0.042781673 0.044705506 -0.0016009699 -0.56218153 0.82341862 -0.077030323 0.0024444219
-0.073076874 0.046497192 -0.0014510995 -0.93900543 -0.29438868 -0.1777754 0.0085710185
0.04401052 0.045544896 -0.0013171063 -0.53235483 0.84252745 -0.082133122 0.0028368589
0.046121921 0.046936277 -0.0014855341 -0.56218499 0.82348931 -0.076245859 0.0026023916
-0.075061381 0.050958365 -0.00045262629 -0.94819391 -0.29401731 -0.12034171 0.030604698
-0.074148364 0.049425885 -0.001479752 -0.90425467 -0.37218174 -0.20929445 0.01638901
0.047774505 0.048063971 -0.0014184846 -0.57093698 0.81308663 -0.1136712 0.0034203567
0.049461853 0.049175866 -0.0015673732 -0.52200907 0.84431595 -0.12098403 0.0033298167
0.051478267 0.050560348 -0.0013898633 -0.53759438 0.8370465 -0.1017125 0.0036805801
-0.075665198 0.052790966 -0.001283685 -0.95086151 -0.26084924 -0.16679385 0.020612527
-0.074742533 0.051497359 -0.0024344248 -0.89116514 -0.25705969 -0.37382463 0.011058724
0.053103782 0.05164348 -0.0013421095 -0.55876058 0.8215819 -0.11309167 0.0051101833
0.055397876 0.053089738 -0.0016130361 -0.552311 0.820885 -0.14525959 0.0066169174
-0.076173253 0.055568341 -0.001494071 -0.97081214 0.097164571 -0.21927786 0.043299012
0.05660212 0.054037791 -0.00064306048 -0.53139716 0.83378309 -0.14974256 0.0064840578
0.0585269 0.055334434 -0.0013592612 -0.52997327 0.83298618 -0.15894133 0.0072931577
0.060419254 0.056692638 -0.0015685844 -0.6916489 0.70835823 -0.14089166 0.013698724
-0.075557269 0.057287034 -0.0013728386 -0.88143057 0.4321045 -0.19069809 0.043478269
-0.073628522 0.05845717 -0.0014559419 -0.5895468 0.79782909 -0.12610812 0.014097992
-0.071389653 0.059566502 -0.0015421639 -0.43760964 0.89826024 -0.040327344 0.0017344105
0.06198233 0.058447897 -0.0013145033 -0.79229677 0.59556013 -0.13256676 0.021201042
0.063255601 0.059614211 -0.0023519716 -0.69220668 0.62839264 -0.35492611 0.034481619
-0.069957718 0.060251687 -0.0013745209 -0.44032264 0.89776355 -0.011684114 0.0027265691
-0.068687022 0.060798205 -0.0010412256 -0.41061673 0.91115898 0.034397222 0.0031401203
0.064006202 0.061555501 -0.0015133537 -0.81203097 0.48040092 -0.33139199 0.029257733
0.064955533 0.064438708 -0.0012683528 -0.90738773 0.26161173 -0.32894808 0.021441352
0.066053323 0.065500043 -0.0027933153 -0.91982478 0.14061055 -0.36626637 0.019894596
0.065557458 0.067292705 -0.0010695911 -0.9713608 0.20285715 -0.12372186 0.056850638
0.066307954 0.067534268 -0.0025014172 -0.88402671 0.16934989 -0.43568042 0.011894859
0.065912105 0.069354497 -0.00053091167 -0.94945496 0.28464997 -0.13232391 0.069899224
0.066530243 0.070639983 -0.0014009123 -0.93299073 0.22522879 -0.28071386 0.035552785
0.066993281 0.073459454 -0.0013549554 -0.9725951 0.12729631 -0.19456226 0.025757248
0.067514628 0.076146983 -0.0015051982 -0.91389436 0.39597398 -0.089452147 0.044717446
-0.016764507 0.0025367397 0.0026767119 -0.25155047 -0.95266491 0.17073917 0.012797992
-0.026028642 0.0052114055 0.0025253631 -0.24440025 -0.96857142 0.046236794 0.014263082
-0.019385867 0.0031713392 0.0027867048 -0.30832851 -0.92853159 0.20679165 0.014446841
-0.03352651 0.0079303514 0.0026277779 -0.32865819 -0.94340497 -0.044395037 0.020338306
-0.030101325 0.0066411216 0.0024339282 -0.39176098 -0.91993004 -0.0158759 0.015771955
-0.040676873 0.011198212 0.0024663396 -0.48981255 -0.8703115 -0.051396202 0.016662212
-0.037252273 0.0095351432 0.0025160951 -0.4412252 -0.89478916 -0.068356492 0.01517849
-0.045840438 0.014310243 0.0022117696 -0.51651442 -0.83971721 -0.16759463 0.0071541634
-0.04347815 0.013306079 0.0015136341 -0.50261152 -0.8390612 -0.20822576 0.0065318691
-0.040647201 0.012616909 0.00011789997 -0.45647287 -0.86384732 -0.21307327 0.003651957
-0.051178727 0.017874561 0.0028976689 -0.57004708 -0.81428313 -0.10949522 0.017827334
-0.049351901 0.016870445 0.0020988891 -0.5422399 -0.82552528 -0.15647312 0.015488957
-0.046776582 0.015741458 0.0012648732 -0.56809038 -0.800901 -0.18929026 0.0065440442
-0.054770067 0.020698264 0.0026645537 -0.60665649 -0.77188325 -0.19016868 0.0064455001
-0.052380085 0.01957641 0.0016305113 -0.58956081 -0.76394367 -0.2623128 0.0093089957
-0.050166406 0.018893162 0.00034922647 -0.59025764 -0.75932074 -0.27391231 0.007609209
-0.057661511 0.023530882 0.0023296392 -0.67497861 -0.72188067 -0.15261787 0.0037833662
-0.055679262 0.022428902 0.0013967364 -0.61642337 -0.75857282 -0.21116248 0.0057252385
-0.053294308 0.021241151 0.00024898376 -0.57172841 -0.77902019 -0.25739902 0.0039611366
-0.060619012 0.026329139 0.0024723338 -0.73482013 -0.67762971 -0.02928129 0.0079586655
-0.05879385 0.025284398 0.0011967802 -0.66103578 -0.73214698 -0.16429397 0.0020277312
-0.06326282 0.029693484 0.0021221908 -0.77375263 -0.62878418 -0.077053525 0.0011854807
-0.061845232 0.028309815 0.0013866009 -0.73994416 -0.66139501 -0.1226351 0.001735871
-0.064715728 0.031623129 0.0015178942 -0.7978369 -0.60249871 -0.021252584 0.0017828486
-0.0019382434 0.032956578 0.0029722347 0.12108269 0.93363047 0.33715454 0.0018108384
0.0016464485 0.032823209 0.002365845 0.079645291 0.98010689 0.1817885 0.0028653285
0.0041173333 0.032819442 0.0019649826 0.020386729 0.98949021 0.14315552 0.0036746571
0.0070783282 0.032833911 0.0018364079 -0.051794019 0.98558277 0.1610716 0.0036102475
0.01002299 0.032942574 0.0023445066 -0.10370632 0.98051256 0.16685334 0.0037380205
-0.067050405 0.034739878 0.0015949706 -0.81151521 -0.58401382 0.019257886 0.00072412728
-0.06596747 0.033327159 0.00093669526 -0.80382943 -0.59484315 0.0044639078 0.0010678996
-0.0048853867 0.033425592 0.00264231 0.1452367 0.91411078 0.37856004 0.00123402
-0.0015916221 0.033193946 0.0016101699 0.11517701 0.96317112 0.24297276 0.0010384737
0.0018429761 0.033037156 0.00078754296 0.060215414 0.98372602 0.16928425 0.0029329841
0.0057582422 0.033019796 7.5479613e-05 -0.0052071824 0.99980873 0.018848548 0.0015082837
0.0087088039 0.033070665 0.00069572334 -0.034985129 0.99925351 0.016383726 0.0016564346
0.010732404 0.033181641 0.0011016208 -0.077026293 0.99354434 0.083286487 0.0063408474
0.013466179 0.033452474 0.0014100865 -0.12333346 0.98498034 0.12084137 0.003838989
0.016544988 0.033978052 0.0015154841 -0.19307427 0.97039515 0.14510554 0.004247955
0.019492622 0.034677971 0.0015599873 -0.25921416 0.95868838 0.11715197 0.0026207005
0.022454014 0.035498597 0.0016251657 -0.28761098 0.94709414 0.14245184 0.0030027577
0.024114443 0.035813212 0.0028077532 -0.26765433 0.95321393 0.14051458 0.0037944051
-0.069347769 0.038221583 0.0014646457 -0.86454028 -0.4916878 0.10398663 0.0033434816
-0.068471819 0.036846939 0.0016016759 -0.83979535 -0.53951424 0.06056425 0.0016835118
0.025559969 0.036427747 0.001427194 -0.28895074 0.95295382 0.091577485 0.0043970291
0.02858543 0.037397847 0.0014927514 -0.31377614 0.93954462 0.13711455 0.0034649582
0.031414889 0.038379252 0.0016951567 -0.38601017 0.91527975 0.11514839 0.0030138902
-0.070583075 0.04047779 0.0015350179 -0.89108145 -0.4425528 0.10060242 0.0020880771
0.0327737 0.039089885 0.00079498341 -0.35943225 0.92400801 0.13045183 0.0043021264
0.034459166 0.039776437 0.0015250386 -0.417813 0.89773428 0.13966176 0.0034807154
0.03747984 0.041335363 0.0015679236 -0.49367389 0.8585946 0.13820823 0.0028755667
-0.072262943 0.044336289 0.0011644984 -0.92559958 -0.31064177 0.21625693 0.00708343
-0.071666785 0.043064583 0.0018259583 -0.91188186 -0.36834756 0.18108447 0.0046218694
0.038924806 0.042384919 6.9187707e-05 -0.50674129 0.86177754 0.023509068 0.0063427137
0.040529434 0.043197315 0.0014114965 -0.52934945 0.83804113 0.1321978 0.0031129422
0.042513207 0.044434048 0.0017354295 -0.52814716 0.84004486 0.12403723 0.0027109967
-0.072952159 0.046683986 0.0015518472 -0.92558563 -0.29475448 0.23751023 0.0067439736
0.044048518 0.04546142 0.0015665578 -0.52778429 0.83959734 0.12853046 0.002740874
0.046391349 0.047020089 0.0015771788 -0.54624248 0.8238312 0.1513979 0.0036225899
-0.074058518 0.049701244 0.0015419532 -0.9153502 -0.32721522 0.23465779 0.015856711
0.047851194 0.048135627 0.00074976991 -0.56855083 0.80730933 0.15811926 0.0034785019
0.049490929 0.049113624 0.0015039974 -0.52950835 0.83133727 0.16881706 0.003718806
0.05172886 0.050577726 0.001630222 -0.56632632 0.80997181 0.15238175 0.003065303
-0.075538144 0.052774873 0.0012796705 -0.92580104 -0.25401545 0.27994373 0.012508513
-0.074767828 0.052092083 0.0024192531 -0.88230175 -0.31331202 0.35125369 0.0082718125
0.053237904 0.05165723 0.0012777232 -0.5546816 0.8147496 0.16885321 0.0047417181
0.05534881 0.052922089 0.0016863864 -0.54251218 0.81378812 0.20839746 0.0069689276
-0.076046094 0.055483192 0.0014330982 -0.96491271 0.11580196 0.23565528 0.039329361
0.056786805 0.054071564 0.00096884067 -0.52543402 0.82217234 0.21897894 0.0063396939
0.05854556 0.055173375 0.001526564 -0.52314985 0.81812096 0.23873067 0.0064772405
0.060669258 0.056636322 0.001904833 -0.66834265 0.71122652 0.21788757 0.010796703
-0.075412773 0.057351008 0.0013698768 -0.81058639 0.50799745 0.29135594 0.033981469
-0.073605202 0.058428962 0.0015758299 -0.58980227 0.76430935 0.26070014 0.029434597
-0.071205311 0.059649903 0.0015081686 -0.42319247 0.89255965 0.15570967 0.0064592953
0.062073614 0.058313679 0.0013203667 -0.7580654 0.6084708 0.23473415 0.020360319
0.06350524 0.059526153 0.0022089693 -0.74391663 0.61888641 0.25212649 0.022465887
-0.069838241 0.060289696 0.0014502942 -0.4103395 0.90046734 0.14415325 0.0073480136
-0.068395197 0.060772099 0.0011896414 -0.319002 0.90211791 0.29055277 0.045698542
0.064361922 0.061615691 0.0015787786 -0.77915126 0.43578368 0.45057294 0.026833683
0.065118842 0.064349815 0.0012506044 -0.87430906 0.26104695 0.40919214 0.021162273
0.066343769 0.064763784 0.0025874407 -0.80507571 0.27527583 0.52542973 0.023464886
0.065620534 0.067309193 0.0006836924 -0.95038235 0.21824391 0.22168207 0.025737107
0.066975489 0.067587614 0.0021982305 -0.67200804 0.27532262 0.68746108 0.031320758
0.069714285 0.067795187 0.0029468364 -0.26400161 0.096532606 0.95967937 0.008764687
0.06592416 0.069366597 2.6215846e-05 -0.94942874 0.28473163 -0.13233638 0.06996379
0.067242749 0.070456199 0.0016137747 -0.71092623 0.14468749 0.68822193 0.036988333
0.069571473 0.070786998 0.0028197751 -0.39197984 0.0087588616 0.91993207 0.010462223
0.067561612 0.073452525 0.0014376321 -0.84465623 0.0752955 0.52998716 0.032317121
0.069477402 0.072963454 0.0029670205 -0.44883281 -0.1312349 0.88392675 0.0073827682
0.067808867 0.076111525 0.0013406916 -0.92602992 0.13965662 0.35066298 0.06327232
0.069461852 0.07674665 0.0029399097 -0.78690833 -0.08561606 0.61110163 0.050071083
-0.015669681 0.0029164616 0.0047909212 -0.20527185 -0.89495951 0.39611983 0.0010040781
-0.013009812 0.0022580477 0.0044457093 -0.16061296 -0.88999039 0.42675576 0.0014381181
-0.01160406 0.002488635 0.0054923841 -0.16628407 -0.84751332 0.50405431 0.00067440502
-0.024949262 0.0053089391 0.0041066958 -0.26418868 -0.94732654 0.18104357 0.016262118
-0.022401042 0.0047512213 0.0047369362 -0.26626498 -0.87926847 0.39495561 0.0011299724
-0.019799072 0.0041143508 0.0051208823 -0.23332791 -0.88445485 0.4041011 0.00099175901
-0.01707763 0.0032479335 0.0047450825 -0.21185869 -0.89085537 0.40186161 0.0010060468
-0.014369298 0.0031706723 0.005860209 -0.1839464 -0.87090343 0.45573121 0.0021986687
-0.034369707 0.0086169736 0.0040202937 -0.36080146 -0.92092395 0.14738186 0.020912889
-0.031592786 0.0078311432 0.0046570506 -0.32217836 -0.87421501 0.36324808 0.00081003894
-0.028712295 0.006666427 0.0044002202 -0.31449926 -0.88473886 0.34398752 0.00067364605
-0.026749756 0.0062861005 0.0051738014 -0.31322408 -0.86812168 0.38503954 0.0013224214
-0.040088952 0.01133182 0.004182321 -0.47837532 -0.86463499 0.15350412 0.024001973
-0.037478253 0.01028434 0.0047033494 -0.39894155 -0.85491753 0.3316046 0.00079699943
-0.035070725 0.0092994422 0.0049963254 -0.35668403 -0.86098057 0.36261404 0.0010504043
-0.045580797 0.01442265 0.0040548425 -0.50503224 -0.83432585 0.22100423 0.012369241
-0.043485567 0.013305394 0.0046078735 -0.48849559 -0.83887005 0.2401439 0.0047847428
-0.041013665 0.012153355 0.0051543042 -0.41899121 -0.83320367 0.36085734 0.0010588784
-0.051046107 0.017873691 0.0033080105 -0.5479207 -0.83641601 -0.013829741 0.024705511
-0.049419511 0.017050441 0.0043775323 -0.48987284 -0.8448441 0.21508835 0.010614092
-0.046870608 0.015557184 0.0048669875 -0.54333156 -0.8151021 0.20099571 0.0092613613
-0.054553844 0.020722656 0.0041422541 -0.58784181 -0.80695301 0.057173867 0.024366213
-0.05252891 0.019405849 0.0045685205 -0.61224806 -0.74941653 0.25204611 0.010475498
-0.050598547 0.018364364 0.0054363627 -0.60865146 -0.75785816 0.23493484 0.012118097
-0.057669267 0.02345377 0.0043362426 -0.67008817 -0.73302585 0.11685472 0.015353417
-0.055923238 0.022130534 0.0048310137 -0.61774117 -0.74796134 0.24279548 0.014500896
-0.060523026 0.026210414 0.004264609 -0.74599445 -0.65076119 0.14142899 0.015760198
-0.059126664 0.024991615 0.0048121437 -0.6998204 -0.7016111 0.13413915 0.011116737
-0.063286252 0.029442374 0.0041652778 -0.7912491 -0.57311195 0.21323128 0.012174602
-0.061914824 0.028044837 0.0047542411 -0.75930089 -0.63060403 0.16062638 0.0090134209
-0.064512022 0.031363178 0.0045757107 -0.7868762 -0.55255336 0.27479205 0.0092595145
-0.0071178079 0.032667372 0.0055675688 0.16830042 0.90096086 0.39993072 0.00037313235
-0.0045259148 0.032525398 0.0050180117 0.13353471 0.90858942 0.39576989 0.0005298474
-0.001254693 0.0323743 0.0044517331 0.10348307 0.92336619 0.36971092 0.001562062
0.0015237961 0.032049503 0.0047341688 0.061204933 0.93515885 0.34890103 0.0021738242
0.0045573753 0.032014456 0.0046016574 0.022500005 0.94350576 0.33059132 0.0026189848
0.0077528688 0.032059599 0.0045629307 -0.029628467 0.93896985 0.34272105 0.0019663428
0.010681019 0.032254927 0.0046069282 -0.088526145 0.93125516 0.35344994 0.0023196831
0.013598814 0.032495592 0.0048704427 -0.14006515 0.91664857 0.37434915 0.0020983052
0.016197881 0.032695584 0.0054817479 -0.19307983 0.90579087 0.37717783 0.0025271571
-0.066855483 0.034919225 0.0044116457 -0.83205074 -0.48971426 0.26052162 0.0086725708
-0.065720253 0.033433679 0.0050239987 -0.80530322 -0.55069578 0.21959259 0.0077319988
-0.010566184 0.033541292 0.0051569217 0.19496387 0.86700398 0.45857739 0.00073333422
-0.007946766 0.033380467 0.0043415613 0.16829599 0.90096331 0.3999269 0.00037536988
-0.005333581 0.03308956 0.0040251501 0.1452477 0.91410309 0.3785744 0.0012441179
0.013696972 0.03315172 0.0032949334 -0.14240359 0.93053484 0.33738127 0.0027861597
0.016619304 0.033386771 0.0040235077 -0.19056857 0.92430693 0.33066627 0.0023003318
0.019561065 0.03390082 0.0045379167 -0.23066291 0.91277897 0.33708927 0.0019847758
0.022554504 0.034738593 0.0045349244 -0.26763031 0.89994383 0.34420234 0.0015018479
0.025441434 0.03543764 0.0048406664 -0.27347702 0.89168721 0.36069959 0.0020984311
0.027713932 0.035910178 0.0054502334 -0.3081952 0.88403928 0.35141194 0.0020479865
-0.069148391 0.038573466 0.003579142 -0.84793907 -0.40995121 0.33606458 0.0043400568
-0.068149231 0.03744179 0.0046308036 -0.83234686 -0.4751496 0.28536195 0.0045648809
0.026252009 0.036171168 0.0036301359 -0.27336466 0.92244023 0.27271938 0.00058694609
0.028650448 0.036741674 0.0042166151 -0.29152483 0.8973459 0.33133605 0.0018742969
0.031565353 0.037657268 0.0045469319 -0.34850103 0.88706291 0.30276486 0.0024252648
0.034136813 0.038570698 0.0051112296 -0.39994028 0.84931105 0.3445555 0.0022160718
-0.069749914 0.040668745 0.0043604383 -0.84919441 -0.3457593 0.39914811 0.0058844043
-0.068706125 0.039538249 0.0055149384 -0.84976733 -0.3389639 0.40373129 0.0054649073
0.034855079 0.039368618 0.0039341715 -0.41589522 0.85651195 0.30564442 0.0019758653
0.037396785 0.040467557 0.0044655059 -0.46071014 0.81293076 0.3562161 0.0029832707
0.03957824 0.041625157 0.0048252386 -0.48815447 0.79844272 0.35241231 0.0033114767
-0.070711136 0.043554254 0.0045204256 -0.85311425 -0.27969378 0.44041729 0.0045151203
0.041086935 0.042768855 0.0042781662 -0.49195036 0.80002242 0.34343705 0.0024219132
0.043435 0.044104852 0.0046624639 -0.49503753 0.79121983 0.35903907 0.0033067048
0.045339957 0.044928912 0.0055504711 -0.49101868 0.76423228 0.4181504 0.0047680065
-0.072269782 0.046996586 0.0035604811 -0.83715433 -0.26852462 0.47651565 0.0033588067
-0.071245074 0.046369426 0.0049264641 -0.8297466 -0.21638648 0.51448756 0.0074027278
0.04454584 0.045299586 0.0035086367 -0.50419658 0.79690993 0.33274677 0.0020431413
0.046580855 0.046229493 0.0044303895 -0.51808953 0.77618849 0.35932526 0.0028544427
0.048862133 0.047423217 0.0049782456 -0.51401758 0.78818965 0.33844188 0.0029093833
-0.072779484 0.049652465 0.0039891349 -0.77401876 -0.23549975 0.58773708 0.0073509333
-0.071519844 0.049389988 0.0054360465 -0.75301725 -0.13765454 0.64344096 0.0078543397
0.049925447 0.0485145 0.0041678213 -0.48576087 0.78054303 0.39343226 0.0046259267
0.052376512 0.049853686 0.0045956192 -0.50144929 0.7865299 0.36044317 0.0019338534
0.054594133 0.050717581 0.0054535544 -0.43710262 0.76221013 0.47746938 0.0028492389
-0.075049497 0.053953499 0.003002201 -0.88993001 -0.03042952 0.45508102 0.033259049
-0.073416136 0.052561097 0.0043058186 -0.69555527 -0.16936618 0.69822484 0.0058661099
-0.07158903 0.052472822 0.0057905186 -0.52943635 -0.033599224 0.84768409 0.0072822808
-0.059383988 0.053963788 0.0059956983 0.16474585 0.70557958 0.68921429 0.003207912
-0.05673641 0.053178366 0.0059492486 0.19413234 0.73569036 0.64890093 0.0012159212
0.053700466 0.051282514 0.003492289 -0.47944957 0.78650123 0.38928658 0.0022404862
0.055725068 0.051998135 0.0044452841 -0.45469296 0.77267468 0.44297639 0.0046761176
0.058236878 0.053242691 0.0048549087 -0.4474386 0.74896604 0.48872146 0.0078223711
0.060454085 0.053844921 0.0057970667 -0.34735534 0.63107955 0.69360143 0.0054168776
-0.075156152 0.055592667 0.0031869435 -0.80479598 0.12925313 0.57930738 0.037269171
-0.073629849 0.055499371 0.0045250105 -0.62417841 0.1207533 0.77189374 0.012505226
-0.071127012 0.055780627 0.0057441359 -0.25021577 0.30389425 0.91926074 0.0085180588
-0.067473643 0.056833874 0.0056889951 -0.031439971 0.51144457 0.85874093 0.0032421933
-0.065567821 0.056242783 0.0057955012 0.067016646 0.47391209 0.87801826 0.0058125821
-0.061739031 0.055098251 0.0055158916 0.18603717 0.64189523 0.74388218 0.0042104553
-0.057820112 0.054129042 0.0050076218 0.19412437 0.73566812 0.64892846 0.0012329958
0.059025653 0.054525029 0.0037407333 -0.47099593 0.74442959 0.47327316 0.0048816078
0.06146536 0.055604119 0.0044463049 -0.44216093 0.70592678 0.55331838 0.0076681138
0.064014569 0.056169711 0.0055043711 -0.2979514 0.53105992 0.79322153 0.0076913228
0.067304812 0.056941658 0.0059200493 -0.35177577 0.4387348 0.82690114 0.0069623357
-0.073273465 0.057928808 0.003964182 -0.53992707 0.57092345 0.61848617 0.027526071
-0.070668228 0.058604524 0.0045489469 -0.19988793 0.64595097 0.73674423 0.026879644
-0.067908727 0.057888851 0.0050629335 -0.078847915 0.59970832 0.79632473 0.019291421
0.062701784 0.057495754 0.0034078779 -0.58976066 0.54226995 0.598436 0.0072745616
0.064578936 0.058406796 0.0042161467 -0.51693618 0.45114753 0.72749078 0.014857326
0.067124367 0.058459152 0.0051697311 -0.40457484 0.45957634 0.79063827 0.012117349
-0.069477789 0.0601223 0.0031394039 -0.22789085 0.91021699 0.34579024 0.034762356
-0.068955041 0.060066763 0.0033777487 -0.063796461 0.84653425 0.5284977 0.038241267
0.065400667 0.060770009 0.0034310382 -0.5371753 0.36045885 0.76256937 0.0076721022
0.067179479 0.061595328 0.0039682221 -0.41834739 0.38624331 0.82207149 0.018622061
0.067725025 0.064480826 0.0033155913 -0.34352618 0.30445656 0.88842332 0.01786295
0.071003683 0.064704463 0.0031944488 -0.32902431 0.159492 0.9307552 0.015532722
0.070750564 0.067266889 0.0031459965 -0.26397964 0.096502475 0.95968854 0.0087674977
0.070870392 0.070653334 0.0034046299 -0.45197907 -0.03951009 0.8911531 0.0065551968
0.072339311 0.070608616 0.0036378424 -0.38937876 -0.098848216 0.91575825 0.0043367487
0.070502214 0.073602907 0.0037516719 -0.48072806 -0.11751952 0.86895895 0.0089199943
0.072503626 0.073877633 0.0044108601 -0.48072752 -0.11750693 0.86896098 0.0089186383
0.068974942 0.07596954 0.0030755366 -0.75228631 0.0057412526 0.65881133 0.049787026
0.070277117 0.075545825 0.0039500236 -0.56790787 -0.062618867 0.82070678 0.010173812
-0.022473926 0.0056265141 0.0067010508 -0.26599252 -0.84574133 0.46256849 0.0010443116
-0.01950928 0.0054118088 0.0078714453 -0.22075762 -0.84726942 0.48311552 0.00098454056
-0.016629577 0.0045514735 0.007545562 -0.19280782 -0.8415364 0.50462031 0.00090378639
-0.013228167 0.0040123127 0.0078044571 -0.14908543 -0.84996879 0.50529844 0.0007074842
-0.010549795 0.0039077471 0.0083036879 -0.13400427 -0.81886333 0.55812693 0.0011215726
-0.0082912855 0.0033545047 0.0079496102 -0.097310513 -0.80811107 0.58093649 0.0012913632
-0.0052870829 0.0031517122 0.0080400603 -0.059348401 -0.74516135 0.66423815 0.0012328253
-0.031187052 0.0086203702 0.0068519576 -0.31236342 -0.84043759 0.44282484 0.00088017614
-0.028491648 0.0079958541 0.0075004529 -0.29029468 -0.83897179 0.46027756 0.00094451359
-0.025603151 0.0071100518 0.0076101506 -0.2690613 -0.84539646 0.46142262 0.0012114535
-0.022596454 0.0065194992 0.0081410017 -0.23877978 -0.83573341 0.49450365 0.0010173721
-0.020331472 0.0062204553 0.008692516 -0.21786679 -0.81298071 0.53999674 0.0012722401
-0.039420452 0.011865967 0.0062546949 -0.42115495 -0.82001156 0.38756883 0.002005744
-0.037312064 0.011377762 0.0072751506 -0.37509212 -0.81378698 0.44391075 0.0010866936
-0.034631222 0.010340909 0.0075840168 -0.35156944 -0.81964421 0.45230764 0.00091953442
-0.031523753 0.0095781349 0.0083054909 -0.30473477 -0.81340826 0.49548331 0.0011538456
-0.043252088 0.014271649 0.0069769341 -0.46332744 -0.77008432 0.43851769 0.0012295576
-0.040789217 0.013240082 0.0076417169 -0.42190716 -0.79595578 0.43410689 0.00065632013
-0.038229369 0.012474587 0.0083860401 -0.37027314 -0.80057371 0.47114703 0.0010640743
-0.048451036 0.01737936 0.0066014957 -0.52044308 -0.74275327 0.42125592 0.0016238788
-0.046507038 0.016663715 0.0075718099 -0.47983411 -0.75068694 0.45412377 0.0013283476
-0.0439745 0.015582176 0.0083733965 -0.44359773 -0.72668958 0.52454108 0.00021036361
-0.051987723 0.020276867 0.0071312049 -0.54284281 -0.7121644 0.44513321 0.0010268259
-0.049716152 0.018972266 0.0077127242 -0.51617467 -0.72846127 0.45045298 0.0011536486
-0.055209827 0.022904066 0.007304362 -0.58313626 -0.67498934 0.45204148 0.0016603923
-0.05310598 0.021668348 0.0080337329 -0.55715412 -0.70647198 0.43643624 0.00088919536
-0.060046248 0.026971973 0.006503161 -0.68669456 -0.61113214 0.39365971 0.0073299254
-0.058318462 0.025776001 0.0073227845 -0.63607031 -0.61916196 0.46049216 0.0022553995
-0.056321893 0.024558738 0.0082875388 -0.58260357 -0.65576559 0.48015052 0.0020524461
-0.061076779 0.028840121 0.007304938 -0.68714625 -0.54372042 0.48186934 0.0025549596
-0.059454199 0.027787335 0.0082993833 -0.66399157 -0.57279074 0.48065171 0.0017081765
0.00082479027 0.029886264 0.0088983811 0.034021743 0.81496561 0.57850993 0.0042411024
0.0043786885 0.029766548 0.0088597257 0.01809934 0.77449626 0.63231951 0.0012772587
0.0066392571 0.029866822 0.0087047089 -0.016938513 0.76229054 0.64701337 0.0012998277
0.009585523 0.029873138 0.0088647176 -0.059882116 0.7703864 0.63475901 0.00071404641
0.012080551 0.029954782 0.0089102443 -0.098848842 0.77695537 0.6217469 0.00059894571
-0.063705496 0.032103416 0.0070005972 -0.71709937 -0.48480198 0.50073504 0.0022587415
-0.062322713 0.031080466 0.0079198945 -0.70612383 -0.47937387 0.52114284 0.0037363139
-0.012663139 0.032411687 0.0084927799 0.25023809 0.8062923 0.53597909 0.0023294236
-0.010323073 0.032216165 0.0078610815 0.20486696 0.86115682 0.46522939 0.00085485878
-0.0073087886 0.031693574 0.0076832329 0.15771371 0.86826909 0.47035637 0.00095654081
-0.0041716052 0.031287733 0.0075010364 0.1261173 0.86012274 0.49425027 0.0021512201
-0.0013137666 0.030996826 0.0073826215 0.086378291 0.87756628 0.47161016 0.0028802424
0.0018207513 0.030724904 0.0074599255 0.045298923 0.85486579 0.51686811 0.002581133
0.0046270462 0.030758478 0.0072940113 0.014256602 0.86593997 0.49994469 0.0022522425
0.0077379141 0.030735882 0.0073901671 -0.024971776 0.86390513 0.50303513 0.0025253778
0.010592521 0.03089262 0.0074518323 -0.062152151 0.85572147 0.51369035 0.0027122558
0.013612917 0.031104581 0.0076109599 -0.13619193 0.83498442 0.53315359 0.0024815034
0.01660751 0.03169873 0.0075171855 -0.18876353 0.84459752 0.5010224 0.0019676965
0.019260613 0.032176893 0.0077544479 -0.21362565 0.82300949 0.52632648 0.0016198028
0.022118054 0.032542661 0.0083336039 -0.22091594 0.81072664 0.54214251 0.0021439902
0.024805583 0.032939758 0.008909164 -0.24087457 0.73770839 0.63068676 0.0016341944
-0.066225074 0.035520289 0.0063865068 -0.74992031 -0.38582772 0.53736073 0.0019222373
-0.064690039 0.03443139 0.0076111276 -0.73554498 -0.39103827 0.55322933 0.0027459527
-0.062948257 0.033226009 0.0088701975 -0.66347027 -0.4040491 0.62972337 0.00060864683
-0.018464806 0.034106947 0.008578063 0.26449478 0.74443275 0.61307621 0.0011776757
-0.015374384 0.033114862 0.0085928896 0.24110378 0.76718575 0.59438634 0.00087581866
-0.013182977 0.033363193 0.0069469125 0.24060509 0.82394117 0.51305956 0.0013385772
-0.01043268 0.033092484 0.0060972082 0.19496417 0.8670038 0.45857751 0.00073329016
0.020158522 0.033173125 0.0065770089 -0.22589514 0.84510702 0.48452607 0.0016126781
0.022846581 0.033661507 0.0069966721 -0.23563294 0.83397985 0.49895352 0.0019800623
0.025537049 0.034137778 0.0075205462 -0.24563994 0.81436837 0.52579951 0.002235475
0.028418764 0.035026092 0.0075883009 -0.29877633 0.82645178 0.47718993 0.0013797719
0.031348515 0.035459824 0.0084969774 -0.30125347 0.74215358 0.59871054 0.0016747231
-0.066798061 0.037735995 0.0070860782 -0.74417901 -0.35894078 0.56334633 0.0025434745
-0.065427393 0.037121192 0.0084025124 -0.6951474 -0.29046923 0.65756947 0.0014850749
0.029464718 0.036201905 0.0062710824 -0.31033692 0.83012331 0.46323463 0.0013387578
0.031678773 0.036595467 0.0069702263 -0.32643494 0.80892402 0.48896033 0.0022725684
0.034511738 0.037490752 0.0074748313 -0.3604897 0.80443537 0.47215566 0.0022653604
0.037146967 0.03834977 0.0080685196 -0.39173019 0.75955725 0.51924968 0.0027248384
-0.069007926 0.041706532 0.0062662642 -0.73919201 -0.28202945 0.61159998 0.0058328928
-0.067508169 0.040509347 0.0075236661 -0.73456109 -0.22558355 0.639947 0.0028410335
-0.06570106 0.039200004 0.0089847539 -0.65956491 -0.24724872 0.70981836 0.0044754809
0.038049463 0.039624643 0.0069343746 -0.41779876 0.76909435 0.48367152 0.0020661382
0.040493738 0.040614456 0.0075647021 -0.42330936 0.75154024 0.50596106 0.0023075792
0.042760685 0.041432109 0.0083021326 -0.42394826 0.69358963 0.58240992 0.0050686644
-0.069432087 0.043623488 0.0064091156 -0.74340475 -0.19571482 0.63956636 0.0034750076
-0.067876212 0.043476798 0.0079654194 -0.65213597 -0.1097822 0.75011104 0.0022034636
0.041782957 0.042264201 0.0062735835 -0.46355787 0.74779028 0.47531456 0.0011878705
0.043798141 0.042816721 0.00726745 -0.44210115 0.72818792 0.52372605 0.0025248113
0.046342779 0.044017423 0.0077232253 -0.43232036 0.71199846 0.55331475 0.0030657805
0.048425362 0.044484541 0.0086084148 -0.40232307 0.65053105 0.64416271 0.0022424923
-0.069726512 0.046509951 0.0067279176 -0.70089346 -0.10314838 0.70576829 0.006049552
-0.067864299 0.046544101 0.008247247 -0.58618528 -0.02924175 0.80964917 0.0029307539
0.047302682 0.045429379 0.0066400971 -0.46273062 0.72896415 0.50447172 0.0024891365
0.04944836 0.04615866 0.007351066 -0.40499571 0.72160894 0.56147939 0.0025023513
0.052120756 0.04717914 0.0079510454 -0.39468622 0.68320298 0.61437488 0.0028545118
0.054496262 0.047646206 0.0087976074 -0.29028043 0.59213597 0.7517395 0.0029102275
-0.070056118 0.049483538 0.0067138523 -0.60375339 -0.023519315 0.79682416 0.0086673433
-0.067615248 0.049505174 0.0082239183 -0.46846429 0.082951814 0.87957954 0.0045838966
-0.065455616 0.050649185 0.0088222018 -0.19063312 0.30425328 0.93332142 0.0096272761
-0.057695787 0.050914604 0.0089144483 0.10391912 0.67295277 0.73234928 0.0038621672
-0.055719122 0.050619777 0.0086819958 0.18751766 0.67181772 0.71658784 0.0018494356
-0.051987693 0.049434885 0.0085260542 0.20428851 0.63849628 0.74201661 0.00040350982
0.053046141 0.04876582 0.0067981607 -0.44094869 0.6796996 0.58615083 0.0015500254
0.055499312 0.049443405 0.0075585418 -0.33368909 0.67834455 0.65459937 0.0024702959
0.058299419 0.050216958 0.0081466297 -0.26719591 0.64214844 0.71850657 0.0030575809
0.061387293 0.050609559 0.008741443 -0.13701911 0.49516213 0.85792786 0.0060605141
0.064771555 0.050779339 0.0088681495 -0.095344126 0.48231477 0.87079382 0.0030373251
-0.070159771 0.052430291 0.0066190977 -0.46865034 0.092537656 0.87852347 0.0092902975
-0.067571051 0.05238913 0.0076264814 -0.26698267 0.2654987 0.92640746 0.015688514
-0.064575523 0.052413952 0.008099257 -0.074810594 0.43951741 0.89511323 0.011624652
-0.061686099 0.052388858 0.0080757225 0.064642057 0.60101658 0.79661816 0.0058870753
-0.058747236 0.052271679 0.0077066068 0.1308282 0.71901065 0.68257427 0.0024808301
-0.055749841 0.051633704 0.0075912178 0.18910633 0.71404797 0.67407286 0.001963092
0.05640984 0.051080048 0.0063406019 -0.405449 0.70326966 0.58397162 0.0023388537
0.058717497 0.051838312 0.0068268911 -0.34090823 0.65572405 0.67365247 0.003578675
0.061441254 0.052571949 0.0073437472 -0.25251839 0.58181077 0.77313042 0.0076279039
0.064229272 0.05270366 0.0078754248 -0.13039671 0.51563829 0.84682572 0.0010538147
0.066188425 0.053836655 0.007357866 -0.16616216 0.48818371 0.85677695 0.0013466834
-0.069999292 0.054993324 0.0063218852 -0.26317617 0.31767848 0.91094381 0.0088333413
-0.067698732 0.055146657 0.0066045937 -0.10778476 0.39024791 0.91437906 0.0065380079
-0.064526945 0.054743756 0.0066088014 0.068171196 0.50176555 0.86231315 0.0065355138
-0.061868399 0.054321561 0.0064309309 0.18605986 0.64192605 0.74384987 0.004195095
0.062458161 0.054370403 0.0062816762 -0.30972645 0.61046433 0.72897375 0.0084842565
0.06434375 0.05488418 0.0065720635 -0.24526788 0.58185983 0.7754243 0.0044452595
0.066960923 0.055451762 0.0064903256 -0.27196774 0.54281628 0.79459673 0.0068000774
-0.016051957 0.0057650465 0.0095665455 -0.17139404 -0.78479195 0.59558856 0.00055006187
-0.013522426 0.0054331254 0.0097766668 -0.1408006 -0.77547133 0.61548305 0.0012554274
-0.010766236 0.0053092465 0.010177793 -0.0998578 -0.76448691 0.63685799 0.0012818718
-0.0077425563 0.0051980871 0.010428064 -0.062553018 -0.7594288 0.64757627 0.0007339344
-0.0039421944 0.004714373 0.01013351 -0.034859043 -0.7091713 0.70417392 0.0035667412
-0.027397394 0.0088612298 0.009453062 -0.27662989 -0.77470827 0.56859744 0.00098562217
-0.025129413 0.008361211 0.009796381 -0.24631624 -0.7819438 0.57261872 0.00077873917
-0.022474967 0.0080552306 0.010426229 -0.22379364 -0.76967853 0.59792256 0.0012603966
-0.019636903 0.0072978628 0.010468937 -0.19708459 -0.77386391 0.60190725 0.00056186592
-0.016422508 0.0069116172 0.010977286 -0.15965177 -0.76586813 0.62286216 0.0011586928
-0.013100822 0.0066561638 0.011363062 -0.12235522 -0.70225185 0.70133561 0.001334318
-0.010948732 0.006412081 0.011459376 -0.084154524 -0.73446524 0.67340845 0.0011994269
-0.0078804921 0.0064647621 0.011785867 -0.050040513 -0.67214555 0.73872608 0.0011401944
-0.0039592045 0.0060548093 0.0116321 0.0095737725 -0.68345398 0.7299307 0.0035927782
-0.034118216 0.011511301 0.0097631058 -0.33277637 -0.76633269 0.54953998 0.00062448252
-0.03151134 0.011044923 0.010507558 -0.277821 -0.77472007 0.56800014 0.0012829476
-0.028681366 0.010058017 0.010513181 -0.27117708 -0.77666128 0.56855989 0.0011073186
-0.025615025 0.0096573904 0.011352978 -0.22716478 -0.72163188 0.65394461 0.0011241412
-0.023109334 0.0094631892 0.011952065 -0.19263844 -0.69762439 0.69008011 0.0014141806
-0.042182885 0.014956674 0.0090286266 -0.43405458 -0.71977508 0.54177529 0.00050900789
-0.040143095 0.014346188 0.0097958101 -0.40244451 -0.73142844 0.55050057 0.00085365429
-0.037404362 0.013555189 0.010498852 -0.34508273 -0.75101876 0.56292862 0.00059242599
-0.034740515 0.012738924 0.011054869 -0.32016948 -0.74665064 0.58309895 0.0012001561
-0.032434672 0.012512376 0.011972815 -0.26563272 -0.694094 0.66908354 0.00097864494
-0.045676637 0.017569713 0.0096417051 -0.46365243 -0.69784427 0.54593021 0.0006990605
-0.043450862 0.016802726 0.010446087 -0.42146203 -0.6843335 0.59502727 0.0008494691
-0.040928006 0.015783181 0.011117622 -0.40421984 -0.70859993 0.57835329 0.00046630495
-0.038459402 0.015235257 0.011996273 -0.33366942 -0.67242861 0.66068494 0.0011022843
-0.049141753 0.020225033 0.0099536888 -0.49174386 -0.67396677 0.55132276 0.00090520986
-0.046783924 0.019154189 0.010726052 -0.45867786 -0.67901635 0.57319403 0.001047332
-0.044112511 0.018262265 0.011727969 -0.40695572 -0.64857346 0.64322585 0.00095002679
-0.054549076 0.023856195 0.0092877597 -0.54014826 -0.61540049 0.57404 0.00065636117
-0.052320406 0.022830518 0.010203635 -0.50965202 -0.63755965 0.57773042 0.0017998293
-0.049914856 0.021877559 0.011212158 -0.46993011 -0.61058587 0.63745642 0.0017384168
-0.057321649 0.026448635 0.0092674261 -0.58962649 -0.56749016 0.57471335 0.00081521866
-0.055364408 0.025695693 0.010415847 -0.54423791 -0.5471651 0.63593668 0.0010491713
-0.053254083 0.024751551 0.011404143 -0.52489597 -0.58322316 0.61994761 0.00062528427
0.0015616779 0.026997074 0.011943066 0.044103045 0.68371886 0.72841161 0.0011978933
0.0050562252 0.026868362 0.011946606 0.012983619 0.68410718 0.72926599 0.0011497582
0.0072351261 0.026971251 0.011830633 -0.012815739 0.6903168 0.72339374 0.0013057645
-0.060198106 0.029740779 0.0092274752 -0.63104063 -0.48742205 0.60349613 0.0017203122
-0.058276404 0.028645985 0.010257522 -0.59891772 -0.49203935 0.63181877 0.0023115915
-0.056262031 0.027847627 0.011510539 -0.5394066 -0.45389435 0.7092393 0.0017162581
-0.012001347 0.029853849 0.011461474 0.16001575 0.70898139 0.68683356 0.0038064045
-0.010409656 0.029455194 0.011477014 0.17079623 0.73370159 0.65765542 0.0016147072
-0.0068345079 0.029055938 0.011051438 0.14469163 0.74184316 0.65477711 0.0015893835
-0.0045018299 0.028970312 0.010716732 0.12573348 0.72293448 0.6793797 0.0034245693
-0.001554199 0.028754864 0.010494998 0.089844443 0.73066574 0.67679793 0.0027395552
0.0017453764 0.02835607 0.010593049 0.04561815 0.73461658 0.67694724 0.002364269
0.0046268641 0.028398745 0.010459905 0.0092051905 0.73305953 0.68010223 0.0029073812
0.0078110914 0.028424285 0.010440416 -0.015479091 0.72940969 0.68390197 0.0026902775
