# .PCD v0.7 - Point Cloud Data file format
VERSION 0.7
FIELDS x y z normal_x normal_y normal_z curvature
SIZE 4 4 4 4 4 4 4
TYPE F F F F F F F
COUNT 1 1 1 1 1 1 1
WIDTH 563
HEIGHT 1
VIEWPOINT 0 0 0 1 0 0 0
POINTS 563
DATA ascii
-0.049239475 0.040388275 -0.014115979 0.10605047 0.43444234 -0.89443457 0.0012430086
-0.046393406 0.040598486 -0.01363566 0.14046532 0.46762097 -0.87269706 0.0031881419
-0.043599751 0.040512905 -0.013028283 0.23629865 0.53809398 -0.80908459 0.0021116545
-0.040783647 0.039812308 -0.012653763 0.26069164 0.59853625 -0.75749207 0.0027503548
-0.038283814 0.039244547 -0.012259167 0.29228368 0.64555198 -0.70557272 0.0018345048
0.046604022 0.039526794 -0.01250628 -0.26513675 0.57345128 -0.77514917 0.0021235447
0.049613092 0.040402293 -0.012799921 -0.24281314 0.56339294 -0.78970253 0.0017328144
0.052624919 0.04051514 -0.013312393 -0.10630062 0.43051699 -0.89630085 0.0040811859
0.055502329 0.040540352 -0.013509513 0.013378516 0.35733634 -0.93387991 0.004106347
0.058413584 0.040482461 -0.01330769 0.15517379 0.25068462 -0.95555133 0.0053839376
0.061311807 0.040358767 -0.012634275 0.29053065 0.15561555 -0.94412696 0.0042031226
-0.055487532 0.043913029 -0.012890054 0.10453069 0.50677884 -0.85571527 0.001389859
-0.052434448 0.043547511 -0.012943455 0.12850817 0.49923968 -0.85688114 0.0016133789
-0.049535073 0.043068781 -0.01283854 0.15605485 0.54394537 -0.8244819 0.0040020728
-0.046700377 0.042596966 -0.01249628 0.21916293 0.56733513 -0.79378736 0.0027681035
0.052557595 0.04251229 -0.012164477 -0.18772779 0.53471792 -0.82391453 0.0027550999
0.055549443 0.043036029 -0.01237385 -0.075085714 0.45661613 -0.88648963 0.0030206747
0.058369245 0.043054532 -0.012450747 0.058930192 0.36125714 -0.93060225 0.0042972956
0.060784433 0.042432617 -0.012406149 0.24625027 0.25631684 -0.93469912 0.0049645421
-0.05783667 0.045802981 -0.01200879 0.065490007 0.50530797 -0.86045033 0.00049125502
0.060634393 0.026855912 -0.010093469 0.62870514 -0.40260816 -0.66530931 0.0039003035
-0.015344827 0.029953616 -0.011967111 0.21932966 0.65313381 -0.72478324 0.0032029343
-0.01343322 0.029589517 -0.011749448 0.189034 0.66671491 -0.72094208 0.00051399757
-0.010504237 0.029262755 -0.011356154 0.15875216 0.65554416 -0.73828143 0.0014581479
-0.0074856691 0.028949039 -0.011009202 0.13054457 0.67658538 -0.72470015 0.0014240583
-0.0044033714 0.028783618 -0.010674546 0.11400356 0.70759362 -0.69736254 0.0029798662
-0.0014421784 0.02858109 -0.010516963 0.0855188 0.72359139 -0.68491024 0.0019230354
0.0014982888 0.028444787 -0.010448557 0.0079769585 0.7357676 -0.67718703 0.0020486731
0.0044687851 0.028450513 -0.010396332 -0.020852558 0.73659074 -0.67601717 0.0021773812
0.0074930452 0.028631039 -0.0102883 -0.057681803 0.74520999 -0.66433036 0.0024506622
0.010545658 0.028677648 -0.010546576 -0.086548083 0.76621825 -0.63672519 0.00095160858
0.013360787 0.028853897 -0.010763125 -0.14393865 0.73200333 -0.66592252 0.0033785659
0.01641391 0.02910929 -0.011162795 -0.16304371 0.68858308 -0.70659053 0.0014945595
0.019245628 0.029396709 -0.011582003 -0.19337928 0.66973394 -0.7169804 0.0012541682
0.059325721 0.027702454 -0.011642609 0.53257126 -0.39499468 -0.74856335 0.0043333247
0.06160266 0.02905976 -0.010525871 0.60910255 -0.3888593 -0.69121808 0.0022741405
-0.021842409 0.032683618 -0.011445714 0.25625357 0.67307568 -0.69376028 0.00060481048
-0.019221505 0.032276548 -0.01090989 0.23221232 0.73442447 -0.63772893 0.0012196341
-0.016510854 0.031575453 -0.010670806 0.22585323 0.74313194 -0.62987709 0.0010811189
-0.013583738 0.031072555 -0.01027991 0.20334019 0.72472286 -0.65835357 0.001786277
-0.010541344 0.030687841 -0.0098835267 0.17495707 0.74335903 -0.64560628 0.0014935671
-0.0078193303 0.030382553 -0.0095356144 0.14242843 0.75728935 -0.63735944 0.0014417254
-0.0050877868 0.030105615 -0.0093122562 0.10710431 0.76514578 -0.63488638 0.0011465227
0.011870551 0.030042844 -0.0090503581 -0.10450985 0.80703044 -0.58118802 0.00086178561
0.013734953 0.030265369 -0.0091371685 -0.13186033 0.78041822 -0.6111958 0.0014933331
0.016537152 0.030385038 -0.0097411983 -0.17057411 0.7710951 -0.61344671 0.0014709884
0.019663401 0.030819846 -0.010132815 -0.20936371 0.75420982 -0.62236196 0.0014059336
0.022542214 0.031263117 -0.01057246 -0.23493953 0.73034751 -0.64140159 0.0010331
0.025388539 0.032081239 -0.010669954 -0.23674993 0.75054377 -0.61695504 0.0011507919
0.028564317 0.032487646 -0.011410689 -0.24760129 0.70603186 -0.66348517 0.00052523491
0.031117616 0.032971047 -0.01192442 -0.25543115 0.6828382 -0.684461 0.00075398461
0.062078644 0.03150069 -0.011295188 0.56012708 -0.31764495 -0.76508784 0.0018075964
0.064182587 0.031818762 -0.0097304024 0.63800448 -0.34815225 -0.68683356 0.0016735068
-0.028205059 0.03540305 -0.011345911 0.3015511 0.6464569 -0.70082849 0.001515175
-0.025310148 0.034905698 -0.010550481 0.29922 0.73436564 -0.60924095 0.0013258043
-0.022677245 0.034230519 -0.010087962 0.2717118 0.74643987 -0.60745382 0.002027174
-0.020032773 0.033547837 -0.0097897658 0.26416785 0.74875802 -0.60792828 0.00119375
-0.017880727 0.033031594 -0.0094713457 0.25319871 0.74298251 -0.61957031 0.0014768852
0.026016809 0.033282623 -0.0094818585 -0.24771856 0.77422285 -0.58242136 0.0009686721
0.028581252 0.033817559 -0.00984562 -0.25970313 0.78874743 -0.55716407 0.00077333645
0.031510528 0.03442803 -0.010374853 -0.26612616 0.77050847 -0.57921803 0.00092938694
0.034152716 0.03505737 -0.010871186 -0.30186287 0.71298766 -0.63287228 0.00084049319
0.036874421 0.035542674 -0.011755321 -0.30967531 0.63898098 -0.70413393 0.0016801161
0.062633604 0.033625953 -0.011676881 0.56155097 -0.17990234 -0.80764818 0.0017292066
0.064471349 0.034481648 -0.010464124 0.60891581 -0.22026025 -0.76204127 0.0016542099
0.066193819 0.035149328 -0.0092118718 0.70901388 -0.25823832 -0.65621054 0.0023463767
-0.036281727 0.038833011 -0.011717316 0.31635037 0.68515158 -0.6561172 0.0012367547
-0.034043916 0.03829214 -0.011176414 0.3284674 0.67586035 -0.65978932 0.0012734247
-0.031385083 0.037683815 -0.01045258 0.32954291 0.72442514 -0.605483 0.0013721419
-0.028683187 0.036904685 -0.0099387141 0.32955059 0.74073339 -0.58541477 0.0021808161
-0.026317677 0.036302272 -0.009342894 0.31796491 0.74901104 -0.58127522 0.0010925287
0.034928195 0.036634486 -0.0094206277 -0.3316021 0.77824384 -0.5332697 0.0011724931
0.037306968 0.037042793 -0.010243639 -0.34103906 0.72813344 -0.59457046 0.001900188
0.04020628 0.038176693 -0.010696677 -0.35821083 0.69377589 -0.62478793 0.0019972026
0.043047052 0.038588658 -0.011790868 -0.32289585 0.64268583 -0.69476122 0.0020689375
0.06476067 0.037422109 -0.010878411 0.5909574 -0.11596327 -0.79832441 0.0019221136
0.066509411 0.037681486 -0.00955211 0.64083737 -0.13738655 -0.75528306 0.0022625402
-0.042597853 0.041771773 -0.011788223 0.27430406 0.64015323 -0.71760798 0.0023754039
-0.040331922 0.041216925 -0.011275818 0.30575234 0.62996978 -0.71390027 0.0018239691
-0.037503332 0.04061101 -0.01046368 0.33234832 0.70839822 -0.62266898 0.0017962719
-0.034749568 0.039844751 -0.0098355925 0.35611776 0.7202298 -0.59535623 0.0014291096
-0.032540835 0.039214697 -0.0092784101 0.36485967 0.73030269 -0.5775252 0.0011774439
0.041543737 0.039921373 -0.0095719136 -0.42131692 0.6872384 -0.59177315 0.00081085606
0.043522164 0.040257923 -0.010419577 -0.35025218 0.67249441 -0.65197742 0.001799867
0.045985747 0.04096568 -0.011022485 -0.31021428 0.63598692 -0.70660299 0.0021055634
0.048822206 0.041645501 -0.011682395 -0.25889578 0.6030463 -0.75452513 0.0019845699
0.062871337 0.041805509 -0.011942919 0.36203575 0.1509829 -0.91985565 0.0084014237
0.064376116 0.040424109 -0.011275625 0.47487515 0.032571085 -0.87945026 0.0042479197
0.066634722 0.04048197 -0.0097607085 0.62945998 -0.030324312 -0.77644098 0.0030264636
-0.04917882 0.044550408 -0.011763616 0.21511883 0.60904306 -0.76340705 0.0019191641
-0.046246246 0.04397431 -0.011250348 0.26152217 0.60741657 -0.75010091 0.0013296986
-0.043480746 0.043556508 -0.010417033 0.3022278 0.65170085 -0.69566107 0.00099496916
-0.040682729 0.042786732 -0.009802198 0.35676029 0.69702494 -0.62199539 0.0017590889
-0.038490988 0.042253517 -0.0091583915 0.37556568 0.73683292 -0.56216329 0.0020406146
0.044730268 0.042002928 -0.009263996 -0.3670944 0.70029414 -0.61223346 0.0024822697
0.047251634 0.042871434 -0.0098655857 -0.34008411 0.66678762 -0.66312677 0.0032339192
0.04963303 0.043624602 -0.010297181 -0.33109435 0.63464826 -0.69828224 0.0021164222
0.052503474 0.043888468 -0.011217637 -0.25603279 0.57424641 -0.7776171 0.0023282517
0.055144392 0.044409677 -0.011529025 -0.15052038 0.50612581 -0.84922332 0.0026546095
0.0585403 0.044421017 -0.011882994 -0.018460924 0.42125848 -0.90675271 0.0036427511
0.061752733 0.043808997 -0.011765386 0.16782361 0.32416227 -0.93099624 0.0032701888
0.064509369 0.043575935 -0.010861746 0.39057755 0.1776306 -0.90326989 0.0062376559
0.066695467 0.043465596 -0.0096510099 0.57440913 0.080791771 -0.81457156 0.0034594857
-0.060398534 0.047824785 -0.010978226 0.034191754 0.54914391 -0.83502811 0.00080345664
-0.05812202 0.047286306 -0.011295208 0.094646171 0.53859049 -0.83723497 0.0018410386
-0.055573657 0.046843361 -0.011430171 0.11719188 0.54205662 -0.83213019 0.0016503126
-0.052482855 0.046688903 -0.011015408 0.16045527 0.57920259 -0.79923618 0.0036079667
-0.049568966 0.046439633 -0.010299265 0.30091232 0.64508891 -0.70236182 0.0021108456
-0.046776503 0.04569057 -0.009846583 0.32300052 0.67341238 -0.66497099 0.001845406
-0.044685312 0.045300744 -0.0092106946 0.34216732 0.6969772 -0.63019383 0.0026975868
0.052444275 0.045787606 -0.0096318042 -0.31559521 0.64204615 -0.69869626 0.0017748633
0.055530645 0.046443369 -0.010209842 -0.22251268 0.569736 -0.79113144 0.0033384417
0.058655784 0.046478707 -0.010809558 -0.067357808 0.49138612 -0.86833328 0.0049431873
0.061421946 0.046582568 -0.010765732 0.11405819 0.38223526 -0.91699886 0.0046905093
0.064440854 0.046430361 -0.0101885 0.32208851 0.27769142 -0.90506709 0.0055487859
0.066504449 0.046271235 -0.0093422551 0.50226128 0.20263243 -0.84063888 0.0037091651
-0.063352689 0.050218895 -0.0094224252 0.051097922 0.59371185 -0.80305368 0.0014928014
-0.060975149 0.049941856 -0.0097392835 0.053222403 0.58610517 -0.80848509 0.0010708475
-0.058468092 0.049348701 -0.010099442 0.076688007 0.57933152 -0.81147641 0.002301154
-0.055581711 0.049194936 -0.0098026143 0.1685243 0.6279918 -0.75975382 0.002896141
-0.052712381 0.048581704 -0.0095165186 0.24345124 0.66847777 -0.70275813 0.0030929614
-0.050864577 0.048130866 -0.0092655756 0.31598246 0.68537855 -0.65605742 0.00202496
0.056877643 0.04815942 -0.0093921013 -0.25945154 0.60056764 -0.75630903 0.0014929799
0.058957379 0.048625845 -0.0095175961 -0.16995394 0.56686181 -0.80609143 0.0040965509
0.061705396 0.049088962 -0.0095259435 0.0082551548 0.47467831 -0.88012069 0.0045979838
0.064506017 0.048787575 -0.0093858801 0.25863624 0.3273823 -0.90880591 0.0077377539
0.062202413 0.025969811 -0.0076662861 0.66564822 -0.47829348 -0.57284182 0.0032022556
0.0630887 0.02563983 -0.0061263633 0.69710112 -0.53359973 -0.47887513 0.0064264149
-0.00069375458 0.029983195 -0.0087589957 0.077335335 0.83346498 -0.54713362 0.0025856197
0.001410548 0.029864889 -0.0087296199 0.031658746 0.83758092 -0.54539526 0.0025760713
0.0047092354 0.029832253 -0.008681614 -0.0025096135 0.8427062 -0.53836775 0.0024525155
0.0073667741 0.029908927 -0.0086416341 -0.050672423 0.84521908 -0.53201234 0.0023426539
0.062800705 0.027866444 -0.0087268986 0.66209501 -0.43588349 -0.60961932 0.0024729918
0.064667128 0.028923307 -0.0072825253 0.72069049 -0.46864375 -0.51086032 0.0016051827
-0.01582657 0.032769274 -0.0089458311 0.24103829 0.76571029 -0.59631217 0.00085458584
-0.013424736 0.032460958 -0.0083863335 0.21127971 0.82741868 -0.52032602 0.0017689642
-0.010495885 0.03214683 -0.0077799503 0.20311968 0.84579057 -0.49333629 0.0012282038
-0.0075296699 0.031615783 -0.0076365061 0.16220468 0.85751808 -0.48821339 0.0014794001
-0.0044460413 0.031215621 -0.007524129 0.11710567 0.84920609 -0.51491296 0.0020187211
-0.0015821588 0.030895423 -0.0074910638 0.08229769 0.85818201 -0.5067057 0.002148824
0.0014209877 0.030830467 -0.0072641326 0.037935086 0.86315793 -0.50350696 0.0023251914
0.0044783461 0.030779768 -0.0072272704 0.0033100464 0.86693889 -0.4984034 0.00216243
0.0075727617 0.030816201 -0.0072573898 -0.04592346 0.87117201 -0.48882538 0.0019539134
0.010573397 0.030988248 -0.0073550018 -0.087038502 0.86675787 -0.49107555 0.0020908692
0.013471648 0.031363539 -0.007324738 -0.1437785 0.8544535 -0.49923638 0.0021855454
0.016483216 0.031794209 -0.0075213164 -0.19172043 0.86246765 -0.46839395 0.0017568986
0.019307096 0.032235119 -0.0079680709 -0.22626926 0.8393026 -0.49434134 0.001725314
0.022214873 0.032714959 -0.008574442 -0.24247757 0.82712454 -0.50702041 0.0018855579
0.065549307 0.031753778 -0.00828184 0.70200878 -0.36353528 -0.61239344 0.0027305696
0.06673073 0.031792365 -0.006789763 0.74630982 -0.39991033 -0.53206521 0.0017783422
-0.022229386 0.035542917 -0.0080399159 0.31075397 0.8131752 -0.49211583 0.0012594765
-0.019476151 0.034747727 -0.0077123437 0.29521263 0.81739515 -0.49468642 0.0024042432
-0.016618429 0.033903863 -0.0075630308 0.24425162 0.82777601 -0.50510198 0.0017115165
-0.013679 0.033471711 -0.0069259484 0.22559707 0.84389067 -0.48677969 0.0017079083
-0.011128582 0.033079822 -0.0064072204 0.19791201 0.87789762 -0.43603519 0.0004677074
0.020108446 0.033268023 -0.0066194651 -0.23886499 0.85724854 -0.45614514 0.0017348251
0.022580232 0.033788338 -0.0069737248 -0.25306156 0.84331268 -0.47411343 0.0019289237
0.025415447 0.03433007 -0.0074656545 -0.26146466 0.83578497 -0.48280397 0.0014866296
0.028372135 0.035122044 -0.0077095712 -0.29171014 0.83117175 -0.4733485 0.00050130172
0.031068379 0.03557514 -0.0085646175 -0.30359313 0.80958754 -0.50239342 0.0010274389
0.067402534 0.034638382 -0.0075941449 0.74974209 -0.27878496 -0.60013807 0.0020101531
-0.030542452 0.038723841 -0.0085813962 0.36730981 0.77108341 -0.52010947 0.0011048322
-0.028189445 0.038279075 -0.0076085515 0.37355989 0.81103337 -0.45019752 0.0012828589
-0.025511883 0.037298288 -0.0072902497 0.33510172 0.81183428 -0.47815472 0.0014701465
-0.022959815 0.036521863 -0.0069017606 0.31986499 0.82809073 -0.46038258 0.001194612
0.029480238 0.036134183 -0.0066354689 -0.29143485 0.83063126 -0.4744654 0.00049562851
0.03165713 0.036581211 -0.0072130063 -0.32191053 0.80881304 -0.49213311 0.00078887492
0.034518246 0.03767341 -0.0074662231 -0.36383101 0.79359949 -0.48767495 0.00080927456
0.037068643 0.038587201 -0.0079663713 -0.3949239 0.7701059 -0.50097096 0.001404659
0.068055041 0.0374429 -0.0078880629 0.7608 -0.18946214 -0.62071526 0.0025515039
0.069336101 0.037955761 -0.0064638448 0.79395336 -0.21488719 -0.56873691 0.001817774
-0.036512312 0.041718621 -0.0084591992 0.40336531 0.73922443 -0.53929925 0.0013980237
-0.034302685 0.041195974 -0.0075571625 0.41105551 0.79623795 -0.44389024 0.0011067319
-0.031580657 0.040071454 -0.0072234385 0.36790884 0.80030525 -0.47344971 0.0015835277
-0.029197682 0.039316081 -0.0065877945 0.37503496 0.82141751 -0.42967671 0.0014644822
0.038016565 0.039685067 -0.0070213885 -0.41280735 0.76820272 -0.48934114 0.00083400891
0.040510099 0.040783189 -0.0075722747 -0.44174203 0.74219555 -0.50399369 0.00098973559
0.042411894 0.041342992 -0.0084263645 -0.44013903 0.71881688 -0.53812635 0.0023537774
0.068234369 0.040508058 -0.0083195912 0.74125642 -0.072971456 -0.66724372 0.0025277326
0.069526725 0.04062926 -0.0068620029 0.78337669 -0.10347751 -0.61287308 0.0023702292
-0.042449057 0.044713032 -0.0085472763 0.40092844 0.71915591 -0.56751317 0.0015471469
-0.040235225 0.044158999 -0.0076333736 0.38511401 0.77620596 -0.49919084 0.0022811866
-0.037636478 0.043063056 -0.0072592362 0.38638607 0.7824766 -0.48829916 0.0016899239
-0.03533449 0.042381354 -0.0064341896 0.41813952 0.79695886 -0.43590808 0.0011630859
0.043510195 0.042740829 -0.0073105372 -0.44345424 0.73503369 -0.51290721 0.00093346223
0.046207055 0.043994818 -0.0078443345 -0.4402183 0.72824025 -0.52523714 0.00066999812
0.049139418 0.044956196 -0.0087092109 -0.38443834 0.69482344 -0.60780543 0.0029386417
0.068243593 0.043523524 -0.0084181484 0.63410389 0.031962927 -0.772587 0.0025702508
0.069672607 0.043520298 -0.0069362773 0.76184797 -0.0062403148 -0.64772576 0.0027961249
-0.048722602 0.047756553 -0.0085971244 0.33048317 0.69074595 -0.64315695 0.0014264411
-0.046251278 0.047151938 -0.0078186002 0.3802771 0.759148 -0.52828372 0.0029272577
-0.043604862 0.046185125 -0.0072415257 0.38494709 0.75677681 -0.52830356 0.0017501462
-0.041277226 0.045370791 -0.0066147549 0.42731282 0.78049552 -0.45632276 0.0016638289
0.047040015 0.045575138 -0.0062588993 -0.44106114 0.7258206 -0.52787262 0.0006179607
0.049533885 0.046274628 -0.0073817731 -0.40666389 0.71234369 -0.57200611 0.0011544341
0.052579124 0.047445558 -0.0080636628 -0.36272484 0.6923151 -0.62380332 0.0019861171
0.055447027 0.047972638 -0.0089922883 -0.28064016 0.62145293 -0.73146254 0.0031848229
0.068005376 0.046704799 -0.0082553551 0.5417133 0.1467865 -0.82764751 0.0057263649
0.069683373 0.046381544 -0.0067928974 0.71614736 0.069465511 -0.69448358 0.0039839437
-0.057373211 0.050821666 -0.0088086464 0.12231033 0.65942264 -0.74175602 0.0036715448
-0.055036895 0.050503094 -0.0084851803 0.20963278 0.66075718 -0.72073156 0.0025207915
-0.052318588 0.049989209 -0.0078226645 0.29606506 0.74299747 -0.60025012 0.0019144482
-0.049567733 0.04922216 -0.0072150799 0.33275643 0.76733077 -0.54815757 0.0019979519
-0.046978094 0.048421703 -0.0064936876 0.41208336 0.76956475 -0.4878087 0.001588478
0.052724063 0.048699215 -0.0067051784 -0.4064917 0.69542754 -0.59257507 0.00099005562
0.055713736 0.049543243 -0.007585288 -0.35473669 0.6899125 -0.63101715 0.00089323893
0.058552023 0.050033465 -0.008329994 -0.22167586 0.62837255 -0.74565935 0.0022979132
0.061613154 0.050369482 -0.0087668281 -0.089041702 0.52275521 -0.84781986 0.0054119248
0.064999878 0.050152928 -0.0087442286 0.14709066 0.38596168 -0.91071284 0.0081886239
0.067566581 0.049579095 -0.0079118544 0.44355181 0.23115703 -0.86592621 0.0075890524
0.069550917 0.049339164 -0.0065324181 0.7032364 0.1155351 -0.70150566 0.0054250984
-0.066812441 0.05291409 -0.0076032467 0.069947436 0.56582409 -0.82155365 0.0017132796
-0.064146489 0.052808981 -0.0078342333 0.11147904 0.62297499 -0.77425748 0.0047363504
-0.061321516 0.05259566 -0.0077750259 0.11949667 0.65935171 -0.74227756 0.0047690552
-0.058509465 0.052434936 -0.0073810755 0.14534771 0.71104264 -0.68796247 0.0041839946
-0.055581246 0.051935785 -0.0070506446 0.27201927 0.75595719 -0.59542781 0.0022370429
-0.053090941 0.051413722 -0.0064916727 0.35082942 0.76813251 -0.53562236 0.0016740757
0.058577888 0.051632028 -0.006889028 -0.30574054 0.64679277 -0.69870013 0.0021660896
0.061702505 0.05249713 -0.0073486189 -0.27426293 0.57960987 -0.76735401 0.0032058519
0.064596988 0.052448709 -0.0077723414 0.071402922 0.41662192 -0.9062714 0.0081978589
0.067519642 0.052421078 -0.0071390443 0.3907519 0.26855233 -0.88045019 0.012603459
0.069270454 0.052187026 -0.006267739 0.61747599 0.17631672 -0.76657408 0.0052830642
-0.067143217 0.055182599 -0.0064848559 0.10544817 0.57420069 -0.81189549 0.0036389525
-0.064322263 0.054761507 -0.006483261 0.13901603 0.62554544 -0.76770276 0.005776892
-0.061438642 0.054296102 -0.006227233 0.20643872 0.71508014 -0.6678648 0.0040020859
0.062851831 0.054468445 -0.0062628877 -0.2484657 0.58277351 -0.77371818 0.0068741124
0.064715229 0.054872472 -0.0064854966 -0.077465385 0.4125281 -0.90764523 0.009234746
0.067418702 0.055013541 -0.0063606082 0.23024307 0.31799385 -0.91971081 0.013070242
0.064193651 0.025862033 -0.0043653031 0.74959016 -0.57637048 -0.32544082 0.0067873541
0.065481953 0.027968762 -0.0050630164 0.75878429 -0.5234701 -0.38758948 0.002702663
0.066731624 0.029145492 -0.0040112478 0.79437119 -0.50539118 -0.33697808 0.0019293899
-0.0093722185 0.032928254 -0.0058981669 0.20696229 0.91283387 -0.35199586 0.0027964655
-0.0072133373 0.032703474 -0.0054267691 0.1723464 0.91713887 -0.35937878 0.0025846371
-0.0043810704 0.032521397 -0.004853955 0.13601094 0.91800433 -0.3725172 0.0018869471
-0.0015444166 0.032285266 -0.0046217409 0.095707886 0.93523282 -0.34085119 0.0028442645
0.0014485797 0.032062579 -0.0046199593 0.044085298 0.94602758 -0.32107353 0.0024462556
0.0044627897 0.032024514 -0.004519789 0.0080599925 0.93287843 -0.36010125 0.0027921486
0.0074528507 0.032028209 -0.0045966893 -0.045943607 0.93036056 -0.36375615 0.0027651668
0.010503607 0.032288425 -0.0044881664 -0.10480535 0.94118941 -0.32121372 0.00295091
0.01334106 0.032528162 -0.0047321199 -0.15929136 0.92830163 -0.33597958 0.001964571
0.016011031 0.032804199 -0.0052467585 -0.19656155 0.91560739 -0.35075179 0.0025311986
0.068030283 0.03164833 -0.0043917662 0.81891608 -0.43283734 -0.37686649 0.0026967609
-0.018921874 0.035675053 -0.0054710167 0.29915318 0.89057982 -0.34260029 0.002933966
-0.016439104 0.035233621 -0.0047969865 0.29070148 0.90285999 -0.31675935 0.0021415355
-0.013523132 0.034432579 -0.0046602506 0.24139392 0.90791088 -0.34267589 0.0027556331
-0.010526164 0.033686731 -0.0046203039 0.20361634 0.92338884 -0.32541278 0.0026047928
-0.0076769134 0.033331983 -0.004101749 0.15276849 0.93350852 -0.32438183 0.0028085073
-0.0049555055 0.033149634 -0.0035104614 0.13772804 0.93802238 -0.31803298 0.0026988629
0.014154712 0.033165384 -0.0034216275 -0.1434774 0.96201968 -0.23223369 0.00083470816
0.016661867 0.033388827 -0.004032698 -0.19601867 0.93240499 -0.3036406 0.0024465774
0.019474277 0.033955414 -0.0044387407 -0.25198773 0.91092831 -0.32666755 0.0023226216
0.022395246 0.034714784 -0.004611894 -0.28310055 0.89056289 -0.35602227 0.0016827983
0.02542671 0.035244595 -0.0055378331 -0.27497801 0.85186857 -0.4457657 0.00053536188
0.02718517 0.035594288 -0.0059780669 -0.29172 0.83117205 -0.47334182 0.00049412128
0.068664081 0.034187309 -0.0054977094 0.84233105 -0.32757223 -0.42798924 0.0032274704
0.069583796 0.03484619 -0.004185827 0.85626292 -0.31096718 -0.4124479 0.0034062767
-0.027367409 0.038933571 -0.0055212718 0.34196824 0.88252151 -0.3228212 0.0027688558
-0.025247678 0.038428564 -0.0047194962 0.38244566 0.87558299 -0.29510963 0.0017455076
-0.022498401 0.03729723 -0.0047035725 0.33628699 0.88569719 -0.32008052 0.002099043
-0.019836059 0.036445621 -0.0043355636 0.29823264 0.90311593 -0.30893192 0.0025096131
-0.017602101 0.036117285 -0.0034703207 0.27951321 0.90997636 -0.30629289 0.0026107486
0.028877679 0.03620436 -0.005954538 -0.29143041 0.8306163 -0.47449425 0.00050149648
0.031724062 0.037261017 -0.0059146923 -0.3269414 0.82159954 -0.46699426 0.00032258488
0.034334075 0.038426057 -0.0058763814 -0.37012398 0.80992967 -0.45499673 0.0004735844
0.070234306 0.037520364 -0.0046572806 0.87471265 -0.24125937 -0.42032331 0.0028078675
-0.033286989 0.041808773 -0.0053837788 0.39303893 0.85919833 -0.32756469 0.0028790915
-0.031362113 0.04126003 -0.0043806643 0.43816233 0.85440427 -0.27929744 0.0017299249
-0.028590592 0.040004671 -0.0042238166 0.38308185 0.87628585 -0.29218379 0.0024686167
-0.026285589 0.039258502 -0.0036550607 0.3636944 0.88609982 -0.287321 0.0019025846
0.035706457 0.03907736 -0.0058558625 -0.38286403 0.79550993 -0.46965832 0.00057970843
0.037022732 0.03988535 -0.0055350806 -0.42798856 0.7849378 -0.44799376 0.00032758014
0.039388433 0.041261461 -0.0055739698 -0.44076663 0.76125699 -0.47561821 0.00044358816
0.070903994 0.040523633 -0.0046421746 0.89293402 -0.14800802 -0.42516172 0.0032197747
-0.039280843 0.044814877 -0.0055826199 0.44379789 0.8129921 -0.37694475 0.0036852425
-0.037285704 0.044222109 -0.0044421456 0.45686483 0.84181601 -0.28743756 0.0017429275
-0.034591116 0.042952232 -0.0041973544 0.42620194 0.85554481 -0.29393014 0.0022258302
-0.03261847 0.042266075 -0.0034250389 0.43554482 0.8482371 -0.3013213 0.0023238151
0.041305531 0.042433485 -0.0055441302 -0.4533436 0.74994701 -0.48172513 0.00032955181
0.043355659 0.043886855 -0.0051795174 -0.45918128 0.74142784 -0.48932329 0.00025242564
0.045110807 0.04477014 -0.0057040942 -0.4571853 0.73770642 -0.49676031 0.00017877281
0.071277484 0.043545172 -0.004575328 0.88714737 -0.045530073 -0.45923483 0.0027618529
-0.043225106 0.047401529 -0.0045409673 0.46007797 0.82824492 -0.319904 0.0015538161
-0.040578097 0.046063095 -0.0042726826 0.45321918 0.83573866 -0.31005353 0.0023198591
-0.038552932 0.045281582 -0.0034434716 0.45482144 0.83385855 -0.31275761 0.0023531679
0.046827711 0.046073779 -0.0052371514 -0.44633493 0.7351712 -0.51020426 0.0003383221
0.04912946 0.047530886 -0.0052024121 -0.4378446 0.72231948 -0.53530055 0.0001238322
0.071265861 0.046508163 -0.0046237796 0.87269473 -0.0039176913 -0.48825046 0.0033853515
-0.04907221 0.050504118 -0.0046521891 0.41539872 0.82058603 -0.39253339 0.003110409
-0.046534162 0.049293306 -0.0043369834 0.44725358 0.81467241 -0.36915189 0.0023764877
-0.044410579 0.048367728 -0.0037672054 0.43577012 0.8297109 -0.34883264 0.0021469095
0.050757397 0.048562109 -0.0051779193 -0.43951693 0.72125906 -0.5353598 0.00013479919
0.052815806 0.0497288 -0.0053192684 -0.40632743 0.7031129 -0.58354962 0.00085207738
0.054876812 0.050671391 -0.0057598618 -0.36433366 0.69079065 -0.62455523 0.00071273046
0.071088403 0.049529713 -0.0047382913 0.83891171 0.025170857 -0.5436852 0.0059679649
0.072001956 0.049203783 -0.0033084233 0.92467368 -0.012408691 -0.38055834 0.016978083
-0.057849862 0.053786416 -0.0054732184 0.24537407 0.81463164 -0.52551585 0.0053868936
-0.05528098 0.053376678 -0.0046094074 0.34697559 0.85534787 -0.38469213 0.00264472
-0.05247049 0.052349493 -0.0043676747 0.38466403 0.82459724 -0.41481689 0.0028838718
-0.050212204 0.051468998 -0.0038007037 0.4158375 0.821298 -0.39057493 0.0030155422
0.055903915 0.051641617 -0.0051718694 -0.37083361 0.68069863 -0.63176888 0.00056709588
0.058561612 0.05298977 -0.005415712 -0.35120961 0.66307443 -0.6610477 0.00068733742
0.070934519 0.052493911 -0.0046442142 0.76431298 0.058885362 -0.64215112 0.012788942
0.072004035 0.052123532 -0.0032919762 0.89665967 0.048654649 -0.44003886 0.019783938
-0.070367642 0.056185737 -0.0057734442 -0.25265831 0.53399259 -0.8068555 0.017234839
-0.067522161 0.056481965 -0.0057456461 0.11248438 0.56412798 -0.81798953 0.0034680332
-0.064242847 0.056239285 -0.0051983935 0.22792706 0.65123808 -0.72383577 0.0041555138
-0.0614735 0.055712692 -0.0044369092 0.35651124 0.76872003 -0.53100783 0.0074744318
-0.058681473 0.054844659 -0.0041082138 0.30527657 0.83494574 -0.45789942 0.0039906148
-0.056324322 0.054317374 -0.003454685 0.33990166 0.86082083 -0.37875369 0.0027230671
0.059743803 0.054398973 -0.0046202135 -0.34948361 0.64585477 -0.67877311 0.00096715119
0.061681069 0.054918397 -0.005316068 -0.29834542 0.52756506 -0.79540247 0.0043213689
0.064785577 0.056319848 -0.0056664837 -0.10744824 0.38449645 -0.91685188 0.0083426554
0.067991957 0.056541037 -0.0057660127 0.2089126 0.30119193 -0.93039721 0.012444727
0.070753135 0.055452626 -0.0044726571 0.67670155 0.13694495 -0.7234093 0.015418049
-0.069976501 0.058902416 -0.0042968597 -0.15437967 0.71335292 -0.68358946 0.029058835
-0.067350574 0.058531929 -0.0041658054 0.26749516 0.71871972 -0.6417852 0.010790265
-0.064621791 0.057839703 -0.003723813 0.33291689 0.71270746 -0.61742556 0.0074354918
-0.062641554 0.057199251 -0.0031053913 0.44350854 0.77261543 -0.45427471 0.019823231
0.065865822 0.058493968 -0.0049461019 -0.013286771 0.28707647 -0.95781547 0.013676062
0.068057448 0.058505073 -0.0051986501 0.21133348 0.17496106 -0.96162719 0.011787218
0.070719615 0.058422487 -0.004151308 0.60438466 0.015316565 -0.79654539 0.013937229
-0.069015332 0.060129512 -0.0031242264 -0.09991169 0.9509365 -0.29280975 0.033189815
-0.068250746 0.060005736 -0.0031210077 0.28046057 0.79235995 -0.54176331 0.0097492868
0.06871815 0.061775289 -0.0044826311 0.40294588 0.034350712 -0.91457891 0.01985853
0.070709594 0.061287794 -0.0040118224 0.58274883 -0.062670231 -0.81023228 0.011018776
0.072046615 0.0618692 -0.0032368419 0.77235895 -0.08880008 -0.62894845 0.04861423
0.070970781 0.064372435 -0.0038546256 0.58728093 -0.11994245 -0.80044663 0.008381837
0.072220013 0.064548627 -0.003220622 0.58721918 -0.11992678 -0.80049431 0.0083982721
0.071434565 0.067678355 -0.004011089 0.67700487 -0.17798302 -0.71413326 0.0058405199
0.072647922 0.06764143 -0.003429404 0.67704916 -0.17811355 -0.71405882 0.005811912
0.071957543 0.069266394 -0.0039956463 0.69633698 -0.22665304 -0.68098682 0.0069276406
0.073343411 0.070615657 -0.0035771977 0.67113942 -0.29585618 -0.67973596 0.004117297
0.074270479 0.073656231 -0.0039951974 0.45517591 0.076290146 -0.88712722 0.081871651
0.075463884 0.074427597 -0.0033406408 0.74808961 -0.044883937 -0.66207814 0.076095685
0.07103762 0.076336667 -0.0037554502 0.32576936 0.93584055 -0.13444978 0.020800497
0.073430441 0.075585164 -0.00385044 0.25576925 0.38983437 -0.88465315 0.1115103
0.075260274 0.075042807 -0.0031417352 0.47694147 0.86424172 -0.16004093 0.026033871
0.065020867 0.025792008 -0.0017427128 0.76989406 -0.61504012 -0.17026114 0.0030164889
0.067195795 0.028652826 -0.0013552647 0.82776546 -0.53618646 -0.16525277 0.002161772
-0.0011972355 0.032900885 -0.0023820365 0.1109424 0.98078656 -0.16046652 0.0020386886
0.0015346247 0.03279205 -0.0017397812 0.064943403 0.98586923 -0.15441594 0.0027875414
0.0043778727 0.03272463 -0.0016792685 0.018678257 0.98888659 -0.1474942 0.0023219667
0.0073460094 0.032747444 -0.0016707475 -0.05703244 0.98784429 -0.14460626 0.0020901754
0.010130638 0.032861438 -0.0021719472 -0.093645662 0.98167127 -0.16598807 0.0018007668
0.012291607 0.03294576 -0.0028411639 -0.14380215 0.97232342 -0.18414141 0.0021603107
0.06846159 0.030805197 -0.0016545994 0.8731578 -0.46313033 -0.15200548 0.0029340161
0.069296844 0.032403022 -0.0017084711 0.89448088 -0.41350159 -0.17006029 0.0041641155
-0.015776446 0.035808366 -0.0018706999 0.31067026 0.94253415 -0.12293626 0.0020652639
-0.013562427 0.035172287 -0.0017641201 0.27761403 0.95173573 -0.13087992 0.0023790034
-0.010600662 0.034421254 -0.0016753122 0.21707448 0.96271819 -0.16140749 0.0026090583
-0.0075201564 0.033818565 -0.0017104952 0.15570624 0.97623724 -0.15071972 0.0024778729
-0.004484341 0.0333566 -0.0017778224 0.13791732 0.97877043 -0.1516158 0.002136146
-0.0017208118 0.033134706 -0.0010585461 0.08707355 0.99133736 -0.098328285 0.0043682386
0.00064896717 0.033032149 -0.00047989606 0.057174794 0.99419159 -0.0911818 0.0046435161
0.011015957 0.033092212 -0.00094625016 -0.093559891 0.99142545 -0.091224976 0.0035062416
0.013567438 0.033330932 -0.0016512545 -0.13908981 0.98197532 -0.12797832 0.0023449298
0.016395947 0.033823457 -0.001688833 -0.1977485 0.97108603 -0.13374385 0.0025179351
0.019382806 0.034555301 -0.0016175065 -0.21741816 0.96481979 -0.14782459 0.0029959839
0.070280336 0.034626123 -0.0016566562 0.9225958 -0.34599644 -0.1705973 0.0041676806
-0.024496123 0.038827971 -0.0019966287 0.40562528 0.90506268 -0.12778765 0.0014250786
-0.022477433 0.038020022 -0.0017783711 0.37052092 0.9191975 -0.13337995 0.0018168814
-0.019470109 0.036916219 -0.0016967654 0.30216435 0.94114596 -0.15146302 0.0034725743
-0.017142469 0.036245462 -0.0016080738 0.27347383 0.95506185 -0.11431982 0.0021549626
0.071241923 0.037493855 -0.0017265012 0.94631273 -0.27463511 -0.17049278 0.0036934216
-0.030684343 0.041580863 -0.0016399791 0.45524681 0.8826915 -0.11664481 0.0012131825
-0.028524686 0.040573362 -0.0015025447 0.40862536 0.90484089 -0.11953349 0.0013526629
-0.025892166 0.039492104 -0.001384718 0.37353018 0.91907626 -0.12559469 0.0013287085
0.071794309 0.040040988 -0.002074243 0.96258318 -0.1890195 -0.19417877 0.0070539578
0.072139658 0.040972229 -0.0011502668 0.97707599 -0.14135337 -0.15919057 0.0068417662
-0.036621332 0.044611771 -0.0015861379 0.47704688 0.87042052 -0.12163254 0.0014386683
-0.03441653 0.043500837 -0.0015107824 0.42926028 0.89519221 -0.11986022 0.0010271561
-0.032149144 0.042365782 -0.0013733744 0.43403506 0.89305037 -0.11863629 0.0013827562
0.071919106 0.042297963 -0.0029289019 0.97138464 -0.074090354 -0.22566028 0.0057157343
0.072379515 0.043558203 -0.0015888704 0.98195177 -0.038651582 -0.18514007 0.0049505457
-0.042336125 0.047737662 -0.0017390781 0.47158453 0.87115759 -0.13672069 0.0016977804
-0.040506162 0.046738449 -0.0015188191 0.48042765 0.86708629 -0.13172211 0.0017893378
-0.03818278 0.045448143 -0.001426535 0.4568561 0.88064301 -0.12550074 0.0015898651
0.072493568 0.046547089 -0.0016586593 0.98185378 -0.040062238 -0.18535958 0.0044340845
-0.046556104 0.050138127 -0.0015594277 0.47005045 0.86947471 -0.15187566 0.0016106422
-0.043868691 0.048638016 -0.0014807056 0.47032416 0.87095535 -0.14223866 0.0018572852
0.072589129 0.049554758 -0.0016863358 0.97581118 -0.04829824 -0.21321315 0.0068586338
-0.054181747 0.053914268 -0.0023075459 0.38190258 0.90576553 -0.18368252 0.0048081339
-0.052336991 0.053248517 -0.0015735659 0.40879056 0.88890755 -0.20672117 0.0030554349
-0.04954312 0.051789548 -0.0014950872 0.46560681 0.86945468 -0.16510275 0.0019403654
0.072680734 0.052508272 -0.0016412718 0.96170717 0.032775417 -0.27211234 0.013117459
-0.060627971 0.056680337 -0.0017196997 0.49177518 0.84735703 -0.20035756 0.0080267088
-0.058492366 0.055755857 -0.0015637266 0.38675869 0.90214646 -0.19117923 0.0071257474
-0.055610236 0.054618474 -0.0014749519 0.34535286 0.91728365 -0.19829814 0.0040375809
-0.053947955 0.054072507 -0.00076625915 0.34232605 0.93149298 -0.12301926 0.0069920537
0.07273329 0.055492036 -0.0016555307 0.94201118 0.021557437 -0.3348884 0.014511791
-0.072797105 0.058951564 -0.001572011 0.51589501 -0.81094784 0.27607229 0.034456316
-0.066461466 0.059725214 -0.002420807 0.3412205 0.83295715 -0.43560416 0.0085805859
-0.064369693 0.05901612 -0.0015515888 0.52604538 0.81872559 -0.23014089 0.0060704453
-0.062056322 0.057582557 -0.0014339121 0.46253923 0.85831505 -0.22215499 0.0091026127
0.072835453 0.058449369 -0.0016482064 0.92257482 -0.056651156 -0.38163653 0.018466076
-0.069388524 0.060503457 -0.0018214551 -0.09991172 0.95093656 -0.2928097 0.033189833
-0.067334861 0.060523696 -0.001469092 0.29653767 0.89331371 -0.33772191 0.014342054
-0.065918587 0.060277428 -0.00051500316 0.30945158 0.94454122 -0.10991671 0.014607274
0.073173702 0.061519664 -0.0016265016 0.91402775 -0.078259751 -0.39803088 0.02683212
0.073558062 0.064456545 -0.0016319751 0.8715716 -0.23261939 -0.43156829 0.026819054
0.074253313 0.067426063 -0.0016828952 0.79134208 -0.26389644 -0.5514856 0.039699454
0.075053439 0.068349235 -0.00059343543 0.91783446 -0.27198976 -0.28913912 0.048501842
0.074524119 0.070034638 -0.0023800416 0.8113479 -0.24634016 -0.53012383 0.020586519
0.07553485 0.070601515 -0.0011376383 0.93090892 -0.22148931 -0.29043254 0.037085921
0.076323196 0.074084096 -0.0014681501 0.91618931 0.27633989 -0.29022992 0.077007391
0.068510942 0.077128157 -0.001227751 0.28450277 0.95864391 -0.0077528502 0.00011042651
0.070525892 0.076594822 -0.0015801151 0.28599906 0.95805192 -0.018470837 0.00021238394
0.073599264 0.07565403 -0.0015727206 0.39621884 0.90698272 -0.14280383 0.0264963
0.075336851 0.075113617 -0.0015685962 0.48848554 0.86411023 -0.12122457 0.030717732
0.065264761 0.02605241 0.0019655447 0.7708112 -0.61270893 0.17446434 0.0067133117
0.066148765 0.026996231 0.00087250356 0.812608 -0.57428825 0.099303536 0.0038857644
0.067338087 0.028754489 0.0010600098 0.83973318 -0.52693105 0.13111751 0.0027854925
-0.00075579097 0.032955363 0.0027912664 0.10485287 0.98605293 0.12924966 0.0032621655
0.0019411937 0.032895211 0.0017824643 0.091715612 0.99204826 0.086189084 0.0040389067
0.0045546787 0.032876022 0.001445479 0.027505537 0.99485964 0.097455956 0.003847891
0.0072503467 0.032865688 0.0016776101 -0.067473382 0.99200529 0.10664372 0.0038331489
0.0099494187 0.032919623 0.0026696431 -0.090260126 0.98482412 0.14823824 0.0030083705
0.068597339 0.030860592 0.0012937443 0.86369383 -0.49563524 0.091535315 0.0029000549
0.069384761 0.032396562 0.0015019211 0.89980149 -0.42615393 0.093541987 0.003973667
-0.015403857 0.035843946 0.0017849436 0.31248608 0.94722807 0.07149379 0.0037106918
-0.013470796 0.035307415 0.0014843784 0.27254698 0.95855397 0.083020568 0.0037205021
-0.010487284 0.034557495 0.0014786627 0.23497167 0.96893334 0.077178054 0.0038229539
-0.0075182794 0.03403125 0.0015538902 0.16058713 0.98199135 0.099523202 0.005057394
-0.0045862203 0.033580471 0.0014373692 0.11179689 0.99044782 0.080712944 0.0042515728
-0.0016415293 0.033214249 0.0013159707 0.08031752 0.9950797 0.05801234 0.0054026921
0.00082380261 0.033075105 0.0006885847 0.043642096 0.99781185 0.049665622 0.0054540089
0.0085317688 0.0330352 0.00056023971 -0.025137493 0.99663305 0.078042723 0.0051740948
0.010837408 0.033156056 0.0011605297 -0.079169236 0.99542958 0.053405896 0.0043866523
0.013619911 0.033481784 0.0014220849 -0.12135248 0.98939168 0.079860806 0.0036460299
0.016357595 0.033951927 0.0014783003 -0.19866849 0.97483701 0.10111111 0.0045718541
0.019267194 0.034647357 0.0014520159 -0.25977558 0.95492959 0.14361838 0.0057234336
0.02103007 0.035030968 0.0023314166 -0.22493778 0.95653546 0.18558782 0.0058382731
0.070381768 0.034636844 0.0014290292 0.92621744 -0.35934803 0.11397444 0.0048791645
-0.024132729 0.038898427 0.0012529352 0.41202396 0.90886545 0.064806715 0.0029707537
-0.022451662 0.038170189 0.0015278407 0.37382695 0.92491049 0.069237992 0.0032226359
-0.019486295 0.03707964 0.0014330792 0.28987318 0.95519042 0.059873138 0.0027413617
-0.016750133 0.03627624 0.0013715688 0.25822142 0.96384054 0.065826289 0.0035345985
0.071340181 0.037507128 0.0015431264 0.95377058 -0.27823892 0.11359935 0.0050369082
-0.030644186 0.041726865 0.001357917 0.46457452 0.88307601 0.065933071 0.002503155
-0.028618138 0.040772129 0.0012228766 0.41563839 0.90704322 0.067210592 0.0028334737
-0.02573118 0.039558526 0.001255038 0.37008917 0.92682779 0.063436612 0.0029246507
0.071841672 0.039898854 0.0022361218 0.97048855 -0.18001252 0.16046047 0.0057507553
0.07216049 0.040772464 0.0010318842 0.98792905 -0.14353044 0.058268555 0.0063586961
-0.036657277 0.044781089 0.0013653378 0.48690167 0.87062335 0.070297942 0.0027875972
-0.034612413 0.043752484 0.0012656726 0.45677304 0.88667661 0.071853094 0.0026505773
-0.032154769 0.042508941 0.0012081466 0.43259725 0.89913595 0.066438988 0.0028657368
0.072475411 0.043533176 0.0013997238 0.99241251 -0.066260733 0.10357079 0.0037222409
-0.042333871 0.047916859 0.001274209 0.51078445 0.85550243 0.084940478 0.0031898986
-0.040586792 0.046932876 0.0013066077 0.48727095 0.86966026 0.079108201 0.0034118379
-0.038162854 0.045587204 0.0012146954 0.45536795 0.88716733 0.074660599 0.0031996169
0.072607696 0.046579026 0.0014580099 0.99306089 -0.032104768 0.11313408 0.0055177971
-0.046495244 0.050250567 0.0012785956 0.47217494 0.87530726 0.10434562 0.0027444235
-0.04379914 0.048739072 0.0012757446 0.47134295 0.87752348 0.08825095 0.0035042311
0.072715282 0.049535617 0.0015340216 0.99161381 -0.027717441 0.12622894 0.006960053
-0.054103788 0.053967029 0.0025711465 0.38238406 0.9150883 0.12804596 0.006470907
-0.052271239 0.053364392 0.0012849183 0.44276386 0.89361483 0.073570959 0.0046083885
-0.049478721 0.051887296 0.0012818117 0.47082224 0.87484628 0.11388755 0.0030613616
0.072833911 0.052443929 0.0014426119 0.98951948 -0.017630341 0.14331944 0.0090695303
-0.060419865 0.056756072 0.0015023698 0.50533104 0.85253173 0.13353015 0.0094617987
-0.058493212 0.055884913 0.0013347672 0.39465863 0.90932691 0.13179201 0.0080045192
-0.055568676 0.054723389 0.0012720213 0.37499687 0.92209345 0.095504381 0.0075437212
-0.053879093 0.054119118 0.00077352999 0.39548522 0.91542095 0.074805923 0.0063998289
0.07291203 0.055452924 0.0014699412 0.98327518 -0.013844125 0.18159904 0.014650368
-0.072797693 0.05895118 0.0013167519 -0.32886586 0.94193453 0.067872152 0.0097651556
-0.066398576 0.059969313 0.002600159 0.32194075 0.8637659 0.38763726 0.010059859
-0.064314917 0.059173845 0.0014289626 0.5444473 0.82531381 0.14978051 0.0072308145
-0.061924405 0.057669073 0.0011493701 0.46853709 0.8710385 0.14752939 0.010881294
0.073037155 0.058421765 0.0014327329 0.97036606 -0.045283914 0.23735844 0.023287468
-0.069245636 0.060594335 0.0020885824 -0.12036183 0.96650022 0.22669424 0.033048514
-0.067289211 0.060673859 0.0012461116 0.16285664 0.98208588 0.094788857 0.011553789
-0.065668024 0.060194321 0.00041855458 0.30675721 0.95143533 0.025900418 0.015634974
0.073347777 0.061476272 0.0014143207 0.95404696 -0.091797464 0.28525007 0.031368256
0.073740959 0.064478196 0.001485587 0.79919583 -0.15805145 0.57991874 0.053416729
0.07442791 0.067306772 0.0015123481 0.90197396 -0.28606057 0.32343832 0.023318572
0.075110748 0.068403356 0.00048100232 0.93175977 -0.30993977 0.18910611 0.045874238
0.074655227 0.06988553 0.002519822 0.8827461 -0.25902846 0.39199933 0.012532178
0.075620867 0.070569977 0.0010538095 0.95632565 -0.25210989 0.14792559 0.026886243
0.076450124 0.074116305 0.0012959222 0.90477669 0.42133418 0.062101491 0.08629673
0.068453819 0.077150941 0.00098150782 0.29097673 0.95672882 -0.0016054617 2.9257108e-05
0.070525959 0.076594874 0.0013895143 0.28441831 0.95869213 0.0039525446 0.00017507326
0.073599152 0.07565397 0.0013830407 0.38125211 0.91760492 0.11246385 0.013095434
0.075341344 0.075117774 0.0013793891 0.48433703 0.87047219 0.087724835 0.015167154
0.062638335 0.023568235 0.0037414688 0.74291486 -0.6099351 0.27578366 0.011237578
0.064636335 0.026333218 0.004583295 0.73351169 -0.57774752 0.35800615 0.0036276563
0.065517999 0.027586788 0.0046384041 0.76944965 -0.55559331 0.31506094 0.0031690451
0.066748284 0.028999245 0.0041126469 0.81369632 -0.51005805 0.27881733 0.0021698496
-0.0071326438 0.032797318 0.0056126574 0.15937695 0.92540461 0.34383896 0.001783323
-0.0043454156 0.03260465 0.0051131938 0.12924391 0.92878854 0.34734392 0.001844912
-0.001532046 0.032435887 0.0046749543 0.10739508 0.93599534 0.33522975 0.0020393254
0.0014581837 0.032256402 0.0045597013 0.056652777 0.94808346 0.31293488 0.0026053065
0.0045188298 0.03214873 0.004602781 -0.0016780433 0.94974512 0.3130199 0.0017740336
0.0075022299 0.032208633 0.0045191753 -0.044279154 0.95075899 0.306752 0.0027541828
0.010539117 0.032401856 0.0045565804 -0.1059645 0.93925256 0.32646 0.0023523024
0.013361392 0.032625083 0.0048397896 -0.1361175 0.92931122 0.34329656 0.0023067654
0.01628864 0.032848023 0.0055372785 -0.1903003 0.9195646 0.3437829 0.0028644351
0.06802544 0.031355891 0.0043682922 0.83393472 -0.46230817 0.30137035 0.0020139944
0.069089733 0.032626819 0.0034280973 0.84430814 -0.40312481 0.35303563 0.0039365096
-0.018801043 0.035754349 0.0056898296 0.29694691 0.89748693 0.32609785 0.0025598723
-0.016330328 0.035382722 0.0048333844 0.28173262 0.90659374 0.31418848 0.0023129201
-0.013458651 0.034583952 0.0046815854 0.24780032 0.91541106 0.31720281 0.0022687083
-0.010461757 0.033830125 0.0046963808 0.20615467 0.92548221 0.31777805 0.0020573258
-0.0076577114 0.033451132 0.004267564 0.15340862 0.94221979 0.29780474 0.001935533
-0.0046903263 0.0331803 0.0037113358 0.12815255 0.94507295 0.30068937 0.0022763503
0.013975914 0.033165328 0.0037056739 -0.13785957 0.94682401 0.29072151 0.0028851654
0.016487334 0.033454187 0.004111602 -0.19100705 0.93559992 0.2969327 0.0028891084
0.019489469 0.034073368 0.004445293 -0.23977447 0.91945386 0.31162924 0.002454384
0.022370564 0.034817372 0.004618844 -0.27588624 0.89347631 0.35438228 0.0026494095
0.025030773 0.035260104 0.0053638266 -0.30001026 0.85605329 0.42091161 0.0016608727
0.027319608 0.035716485 0.0059828716 -0.29746419 0.82011271 0.48880497 0.00065684714
0.068738125 0.033802383 0.0054185619 0.85500199 -0.35130936 0.38151455 0.003099551
0.069671921 0.034917269 0.0043850201 0.8746962 -0.32730845 0.35745734 0.0031454028
-0.025046639 0.038591474 0.0045625479 0.37800261 0.88122076 0.28383812 0.002169949
-0.022547489 0.037564605 0.004544409 0.34257922 0.89037097 0.29979846 0.0026089381
-0.019740188 0.036540583 0.0045037465 0.29602414 0.91238487 0.28270769 0.0023864168
-0.017559463 0.036151171 0.0037254426 0.26311994 0.91785383 0.29717365 0.0027289419
0.028457059 0.036130678 0.0059670466 -0.29749528 0.82010281 0.48880261 0.00065242982
0.034547504 0.03862258 0.0058796662 -0.34594488 0.78764457 0.50984132 0.00090861926
0.070430279 0.037597988 0.0046799411 0.88128787 -0.25719738 0.39646077 0.0032708109
-0.033321805 0.041992281 0.0055583823 0.41763052 0.85265267 0.31395578 0.0023627577
-0.03122047 0.04136651 0.0044296025 0.44679326 0.85705066 0.25659302 0.001970578
-0.02853238 0.040141605 0.0042889374 0.37699214 0.88449126 0.27486742 0.0022460236
-0.026251065 0.039339088 0.0038336422 0.35651505 0.89298403 0.27473 0.0021929848
0.03591587 0.039270606 0.0058592516 -0.40824702 0.76420122 0.49933037 0.0013068856
0.037857514 0.040453069 0.0056040767 -0.43998688 0.77962691 0.44563815 0.00054288207
0.039764855 0.041610323 0.0055744308 -0.44724354 0.75433958 0.48056746 0.00038959875
0.071135834 0.040582996 0.0046328893 0.90658641 -0.16912372 0.38665 0.0027964876
-0.037255794 0.044380851 0.0045065139 0.44401896 0.85015982 0.28297612 0.0023292135
-0.034562346 0.043115325 0.0042621652 0.42718714 0.86403364 0.26637739 0.0022058943
-0.032532331 0.042267609 0.0037848724 0.43641427 0.85699892 0.27403548 0.0023610475
0.041436758 0.042555366 0.0057706791 -0.45624399 0.764355 0.45563465 0.00021273065
0.043165863 0.043861017 0.0052989158 -0.46951753 0.7532593 0.46060148 0.00021558994
0.071453616 0.043551933 0.004765607 0.89830792 -0.083379462 0.43138239 0.0031747196
0.072086237 0.043965712 0.0033447291 0.93134594 -0.091177404 0.35253558 0.0030344245
-0.043017104 0.047458276 0.0045855786 0.46767017 0.83483899 0.29039395 0.0017381661
-0.040490706 0.046176702 0.0043279165 0.44260901 0.84765476 0.29253846 0.002090313
-0.038399957 0.045299243 0.0036147309 0.43008757 0.85596812 0.28695509 0.002096341
0.044867534 0.045143101 0.0048326361 -0.46030363 0.74444371 0.48365706 0.00049213128
0.046745785 0.046146449 0.0053541805 -0.4649756 0.74151421 0.48368838 0.00044979289
0.04914467 0.047644287 0.0054252478 -0.44849336 0.73018438 0.51544583 0.00031575741
0.071405515 0.046537921 0.0050005405 0.88511878 -0.0028636276 0.46535632 0.0035748607
0.072110496 0.046663489 0.0035373005 0.91952598 -0.027823796 0.39204314 0.0038690348
-0.048950203 0.050551862 0.0048652682 0.42459631 0.83184648 0.35742036 0.0034655824
-0.046507467 0.049479783 0.0043085571 0.45389584 0.82456166 0.33775228 0.0027307179
-0.044230375 0.048388977 0.0039336598 0.44059291 0.84048593 0.31537482 0.0025621885
0.049902204 0.048451781 0.0047616665 -0.45177966 0.73171562 0.51037955 0.00027924127
0.052395105 0.049902588 0.0050146068 -0.43958548 0.72796768 0.52614421 0.00046720356
0.054471496 0.050582044 0.005986433 -0.40267986 0.69502693 0.59563959 0.0010649132
0.071387343 0.049531128 0.0049914122 0.86260152 0.024996353 0.50526613 0.0043414696
0.072165675 0.049661323 0.0035190065 0.90495521 -0.010707785 0.42537221 0.0043305298
-0.057492297 0.05384095 0.0056834701 0.27569756 0.81838125 0.50422508 0.0042566434
-0.055152543 0.053504698 0.00476505 0.35340431 0.86519706 0.35572389 0.0033442075
-0.052452672 0.05256765 0.0043734792 0.37119684 0.85758156 0.35604328 0.0027742316
-0.050027706 0.051524367 0.0039107739 0.42357311 0.83394605 0.35372269 0.0033827447
0.055454601 0.051802028 0.0049521527 -0.40181258 0.69693613 0.59399217 0.00089119421
0.058170408 0.05302611 0.0055818786 -0.38259551 0.66968638 0.63650662 0.00092306588
0.071312912 0.052594598 0.0049504628 0.82675493 0.064269327 0.55887902 0.0066265175
0.072192058 0.052600108 0.0035012413 0.87833107 0.014733431 0.47782573 0.0055338158
-0.064147331 0.056521814 0.0054338779 0.27659801 0.70535564 0.65266144 0.0079847453
-0.061429325 0.055993207 0.0044882149 0.34616384 0.80685598 0.47870028 0.0090653617
-0.058612619 0.054963928 0.0043020546 0.29044282 0.85394073 0.43177322 0.0037891255
-0.056119621 0.054343164 0.0036548986 0.31740037 0.89250052 0.32046831 0.0021919967
0.05930014 0.054268673 0.0048427018 -0.3813234 0.6562261 0.65112203 0.0013048305
0.061692469 0.05520916 0.0055239308 -0.33367902 0.59056944 0.7347694 0.0047055772
