# .PCD v0.7 - Point Cloud Data file format
VERSION 0.7
FIELDS x y z normal_x normal_y normal_z curvature
SIZE 4 4 4 4 4 4 4
TYPE F F F F F F F
COUNT 1 1 1 1 1 1 1
WIDTH 570
HEIGHT 1
VIEWPOINT 0 0 0 1 0 0 0
POINTS 570
DATA ascii
0.055429593 0.016973387 0.0016176134 0.57048678 -0.81171399 0.1251611 0.0025644104
0.057090923 0.017924437 0.0001530399 0.59234113 -0.80533051 0.023974137 0.0030787024
0.058611408 0.019361559 0.001516534 0.63346249 -0.75858498 0.15255845 0.002357
0.060217377 0.02065935 0.0011460241 0.67072958 -0.73082221 0.12657286 0.0029454995
0.061702646 0.022146137 0.0015640906 0.68509811 -0.71763569 0.1250581 0.0029491428
0.063255325 0.02366204 0.0011756236 0.73259026 -0.66947824 0.12292454 0.0041364511
0.06479127 0.025506301 0.0015797879 0.75970733 -0.64266795 0.099109657 0.0021578702
0.066018358 0.02688376 0.00067845255 0.79380387 -0.5966531 0.11781562 0.0038767073
0.06599313 0.027330725 0.0029646663 0.76929623 -0.57896429 0.27015477 0.0027869758
0.067130305 0.028642673 0.0015418252 0.82419842 -0.54566973 0.15146476 0.0025536614
-0.00029847192 0.032957755 0.0027950676 0.074504979 0.97106928 0.22687809 0.0011071492
0.0016869731 0.032950953 0.0021244544 0.035484709 0.94581795 0.32275289 0.0018848132
0.0045283665 0.032937616 0.0017168797 0.021106595 0.93889606 0.34355301 0.0017385514
0.007295859 0.032920267 0.0019888217 -0.017894642 0.9342308 0.35621998 0.0019911837
0.009583028 0.032901932 0.0028262816 -0.089198917 0.92309976 0.37407279 0.001707274
0.068528064 0.030938635 0.0016704393 0.85502625 -0.50555766 0.11550547 0.0029488949
0.069260001 0.032246839 0.0015284168 0.89141917 -0.43760777 0.11777644 0.0038034781
-0.013263938 0.035261594 0.0018967381 0.27372101 0.949893 0.15093058 0.0042247181
-0.010283224 0.034561131 0.0015984914 0.15922406 0.96557748 0.20568883 0.0035755793
-0.0068921647 0.033979896 0.0019700744 0.17711671 0.93594074 0.30437565 0.0023683505
-0.0039143553 0.033470962 0.0020049431 0.11423342 0.96494997 0.23626734 0.0016246386
-0.0028225651 0.033476613 0.00029296623 0.11770872 0.96795458 0.22182998 0.0014080567
0.07017827 0.034299377 0.0015265548 0.92291218 -0.35703444 0.14408152 0.004155112
-0.022560326 0.038223211 0.0019338663 0.36186445 0.92896426 0.077971235 0.0031250713
-0.019813413 0.037238609 0.0013927766 0.29570317 0.95399481 0.04953317 0.0042382027
-0.016608853 0.036264714 0.0016520501 0.2700187 0.95436984 0.12754619 0.0040331283
0.071223922 0.037322205 0.001654819 0.94980425 -0.28320128 0.13292469 0.0039800531
-0.030665031 0.041752178 0.0016380023 0.46543011 0.88141918 0.080467559 0.0031497811
-0.028455373 0.040701266 0.0017497297 0.4104259 0.90813643 0.082697697 0.0033709805
-0.025418907 0.039469719 0.0013498175 0.38521892 0.9198851 0.073605537 0.0032165712
0.071824215 0.039850198 0.0019939553 0.96494478 -0.20554617 0.16319403 0.005278524
0.072152331 0.040997937 0.0011005964 0.98043305 -0.1426127 0.13569297 0.005175442
-0.036800642 0.044835508 0.0018932521 0.49209219 0.86654466 0.083340958 0.0026974792
-0.034598909 0.04376132 0.0015208481 0.45819798 0.88474292 0.085348926 0.0028490282
-0.032108333 0.04251726 0.001360754 0.42650169 0.90141243 0.074511714 0.0034934464
0.072394885 0.043414097 0.0016231154 0.99042732 -0.071200036 0.11825491 0.0031935445
-0.04063357 0.046963274 0.0016545586 0.46286598 0.88195837 0.088907249 0.0033069593
-0.038265005 0.045669351 0.0014079202 0.45289129 0.88697314 0.090377808 0.0031964295
0.072508782 0.046445623 0.0017954191 0.9910689 -0.043006796 0.12622565 0.0043430626
-0.046546672 0.050283365 0.0016242495 0.47383177 0.87192911 0.12338196 0.0024457949
-0.043633353 0.048652027 0.0016102756 0.48934549 0.86599696 0.10290861 0.0028560699
0.072699472 0.049572904 0.0014494556 0.98825794 -0.032384686 0.14932324 0.0055309548
-0.052196264 0.053307127 0.0017188896 0.41895837 0.89586949 0.14795855 0.0042116512
-0.049540527 0.051931445 0.0015821228 0.4586634 0.88464403 0.083862267 0.0056549553
0.072803505 0.052526619 0.0014603987 0.98236251 -0.028686415 0.18477313 0.0075494535
-0.060221292 0.056482799 0.0024610155 0.46378207 0.84959942 0.2511715 0.0090562515
-0.058550593 0.055886008 0.0017410008 0.38198212 0.90295303 0.19688952 0.0067609223
-0.055508554 0.054684956 0.0016566864 0.3388359 0.91220295 0.2303822 0.0044526607
-0.053980127 0.054242108 0.00047165013 0.39684203 0.90416878 0.15809901 0.0034528885
0.072869338 0.055558022 0.001560327 0.96656257 -0.030897692 0.25456259 0.012811548
-0.066232055 0.059883717 0.0025886202 0.36768037 0.82146823 0.43589112 0.02692032
-0.064395249 0.059163388 0.0017348782 0.45357367 0.84190553 0.29234543 0.01191662
-0.06177121 0.05752001 0.0016130821 0.46611065 0.8547498 0.22835003 0.0085156998
0.072990939 0.058659084 0.0015595676 0.93331206 -0.06919428 0.35233629 0.018601267
-0.066803858 0.060481586 0.0016936093 0.31161541 0.82985997 0.46284813 0.03098527
0.073228411 0.061640278 0.0016505577 0.90300453 -0.092448443 0.41956645 0.020059336
0.065901451 0.064552091 0.0028304246 -0.2604382 0.25345629 0.93162864 0.012884232
0.066438921 0.065832943 0.0028465057 -0.25527501 0.18971594 0.94807303 0.014291481
0.073578402 0.064662755 0.0017320071 0.85055387 -0.13888921 0.50721586 0.029510532
0.065592825 0.066846229 0.0016050357 -0.27235684 0.11136322 0.95573008 0.015130482
0.066944584 0.067926876 0.0026889325 -0.36959448 0.16049232 0.91522789 0.0096660014
0.07418859 0.067499161 0.0018796893 0.84782118 -0.24683124 0.46933329 0.015509167
0.075104453 0.068595469 0.00057956297 0.87841016 -0.28941864 0.38030583 0.031535987
0.067963041 0.070525736 0.0027248908 -0.39294046 0.0022787808 0.91956103 0.0061780945
0.074614182 0.070003532 0.0024826422 0.82235289 -0.34655482 0.45125994 0.013988226
0.07555218 0.0708277 0.0013444643 0.89706886 -0.31070817 0.31420982 0.027142093
0.06801945 0.073189601 0.0024695464 -0.58081764 0.16489798 0.79715711 0.028128358
0.076406427 0.073366039 0.0016812489 0.94692659 0.045099802 0.3182705 0.063534312
0.068613797 0.076977186 0.0019268658 -0.062887274 0.94503725 0.32085776 0.10816684
0.070142917 0.076764621 0.0013563457 -0.062719367 0.94503289 0.32090372 0.10818533
0.073939525 0.075605333 0.0013637714 0.48708287 0.85840017 0.16093296 0.034205671
-0.015378947 0.0029538162 0.0054249028 -0.17066662 -0.87219208 0.45842546 0.00041253172
-0.013571978 0.0025197349 0.0052033374 -0.1661752 -0.86804938 0.46784183 0.0006673765
-0.010499807 0.0019378051 0.0049183154 -0.11940693 -0.88922828 0.44160515 0.00028423898
-0.0069601173 0.0016819489 0.0053614229 -0.074625194 -0.89196414 0.44590485 0.00035829932
-0.0040423302 0.0012938449 0.0049682595 -0.02551108 -0.91228312 0.4087649 0.0021797835
-0.00148799 0.0012820227 0.0051034982 -0.0036106412 -0.91200107 0.41017199 0.0019366571
0.0016194076 0.0009660385 0.0042469366 0.0041170013 -0.91534877 0.4026407 0.0014963587
0.0044140192 0.00099633739 0.0041573597 0.022368349 -0.91026348 0.41342479 0.0018022609
0.0075520752 0.0013855732 0.0046143192 0.059608832 -0.88864625 0.45470276 0.00024325112
0.010658744 0.0015108181 0.0045810021 0.092486776 -0.89859933 0.42891195 0.0018162865
0.013463683 0.0017838008 0.0045913416 0.11723328 -0.8947143 0.43097866 0.0018077428
0.016475946 0.0022275471 0.0047534388 0.11022422 -0.90911573 0.40169534 0.0025143386
0.01949768 0.0025934021 0.0045745168 0.14621168 -0.90609092 0.39701548 0.003858038
0.02236834 0.0028873368 0.0037867834 0.21273798 -0.91876328 0.33259082 0.0037936773
-0.025174346 0.0053001773 0.0044479528 -0.27289373 -0.85909915 0.432987 0.00042729068
-0.023333937 0.0046027582 0.0042056045 -0.25858229 -0.86698741 0.42599061 0.00040303398
-0.018450676 0.0038432349 0.005753912 -0.22058386 -0.8682155 0.44445997 0.00085675175
-0.017811557 0.003339339 0.0049896701 -0.194159 -0.86136812 0.46941161 0.00030668339
0.020449124 0.0033742245 0.0058693541 0.17299651 -0.86386138 0.47309163 0.0051150075
0.02275835 0.0035410689 0.0052917162 0.20212023 -0.90260679 0.3800635 0.0052208565
0.025616245 0.0039255116 0.0046486449 0.21637818 -0.91195631 0.3485918 0.0036256737
0.028534109 0.0047276998 0.0045823012 0.245654 -0.90270394 0.3532415 0.0032746003
0.031287428 0.0054240469 0.0042684381 0.29739696 -0.90150768 0.31438676 0.0024036628
-0.026756966 0.006019216 0.0049662832 -0.27733463 -0.85665649 0.43500009 0.00042398716
0.03231575 0.0061883903 0.0054579559 0.29154566 -0.8891958 0.35260749 0.0037642994
0.034584034 0.00673196 0.0046730274 0.32569259 -0.88902432 0.3218075 0.002842817
0.037472446 0.0077692913 0.0045545199 0.34701124 -0.88206267 0.31866691 0.0027531944
0.039591774 0.008472817 0.0040293611 0.37029654 -0.87106544 0.32268491 0.0028409061
0.040871236 0.0093360944 0.0047982396 0.40646163 -0.858289 0.3132554 0.0018682425
0.043480437 0.010485698 0.0045733629 0.40648761 -0.84732211 0.34177935 0.0024321077
0.04601397 0.011662739 0.0042311535 0.45804608 -0.84159404 0.28620464 0.0022674424
0.04731876 0.012662003 0.0049106958 0.47251385 -0.83182442 0.29120231 0.0019084037
0.049563322 0.013813663 0.0045328583 0.49206069 -0.80870789 0.32228538 0.0022515489
0.051387347 0.014681679 0.0039561391 0.51192957 -0.80341256 0.30406639 0.0024066153
0.052756928 0.015942845 0.0046964972 0.53121185 -0.79056776 0.3046582 0.0025533417
0.055139098 0.017423159 0.0042577824 0.5488826 -0.7762484 0.31010684 0.0022378373
0.056343749 0.018638907 0.005089005 0.58371395 -0.73806405 0.3384369 0.004078269
0.05825663 0.019884583 0.0044232211 0.6152398 -0.71895158 0.32340172 0.0025816902
0.059575848 0.021398565 0.0052076653 0.64559764 -0.69555563 0.31528747 0.0018556643
0.061334684 0.022691159 0.0044029765 0.6747914 -0.68608034 0.27193797 0.0013611937
0.063016191 0.023806551 0.0032530595 0.71575218 -0.65617394 0.23902842 0.0061224899
0.062542357 0.024406375 0.0052478332 0.69131964 -0.64172107 0.33207113 0.0032161195
0.064134642 0.02576369 0.0043897522 0.71162933 -0.61868644 0.33288246 0.0029979413
0.065525971 0.027892891 0.0048858258 0.75932974 -0.56603968 0.32096338 0.0037808272
0.066718698 0.029194066 0.0042534401 0.79039723 -0.49363077 0.36276847 0.002811491
-0.0076912367 0.032981969 0.0054616728 0.17186928 0.91508591 0.36479959 0.00088908116
-0.004547006 0.03272498 0.0049514691 0.13758159 0.9239167 0.35700029 0.0011905587
-0.0016016134 0.032470122 0.0046105641 0.086113244 0.94387704 0.318874 0.0036106897
0.0014370554 0.032212835 0.0047702012 0.056401767 0.92268074 0.38141719 0.0019240518
0.0044843485 0.032199793 0.0046048067 0.021973625 0.93336159 0.35826415 0.0013850988
0.0073992759 0.032186069 0.0046819085 -0.032383386 0.92440277 0.38004056 0.0021166292
0.010596672 0.032322064 0.0048197862 -0.11013867 0.90558648 0.40961277 0.0016897857
0.01338457 0.032678477 0.0048155086 -0.14111423 0.88583755 0.44201648 0.0014593763
0.016243208 0.032846492 0.005577879 -0.19731626 0.86695987 0.45765367 0.0017223854
0.067992061 0.031640328 0.0045890911 0.82495654 -0.41396475 0.38481155 0.0031079131
0.069179028 0.032997787 0.0034125063 0.85233098 -0.4521223 0.26290181 0.0065021957
-0.018310903 0.035512127 0.0059024715 0.31077293 0.87548786 0.37005562 0.0022674561
-0.016201848 0.035338998 0.0049033705 0.27852523 0.90302634 0.32705832 0.001716719
-0.013514954 0.034612961 0.0047096382 0.26948208 0.90016335 0.34217733 0.0018491186
-0.010410435 0.033878736 0.0046010101 0.19169603 0.92806029 0.31930655 0.001512305
-0.0077380696 0.033603355 0.0039559687 0.1594664 0.93251073 0.32402807 0.0015333834
-0.0057172533 0.033473011 0.0032813305 0.17691055 0.93852645 0.29642996 0.002443024
0.014681526 0.033340689 0.0037107023 -0.17515191 0.88849944 0.42413512 0.00068988017
0.016736932 0.033441193 0.0043313466 -0.20557889 0.88178915 0.42448232 0.00052724278
0.019541446 0.034005556 0.0047697499 -0.22467782 0.87077963 0.43733597 0.00033408636
0.022256179 0.034684349 0.004942812 -0.2412958 0.86747909 0.435036 0.00025267451
0.02463671 0.035442162 0.0047305101 -0.26187506 0.85331839 0.45085385 0.00064936676
0.068717115 0.034026075 0.005500407 0.83823425 -0.32865834 0.43514022 0.0031959016
0.069567546 0.034696385 0.0042445087 0.868545 -0.33188376 0.36807969 0.0034421743
-0.024996629 0.038416997 0.0049939486 0.36927617 0.8752622 0.31233171 0.0016087057
-0.022416331 0.037474234 0.0046886709 0.36615482 0.87345719 0.32094109 0.0018729845
-0.019472092 0.036469482 0.0044872612 0.28734511 0.90978783 0.29953119 0.0025024263
-0.017147891 0.036018323 0.0038876266 0.26693469 0.91828793 0.29239213 0.0017172812
0.026018688 0.036054138 0.0042222878 -0.27578467 0.8532998 0.44251806 0.0006049606
0.02893435 0.036467355 0.0056396201 -0.29773268 0.83757138 0.45807144 0.0010607442
0.031127861 0.037607361 0.0046952339 -0.34432122 0.80063701 0.49032971 0.0015776021
0.070319183 0.037334401 0.0045971349 0.88224232 -0.26117676 0.39170799 0.002784807
-0.03129838 0.041308086 0.0047315676 0.42330775 0.85655552 0.2951664 0.001919469
-0.028557336 0.040011991 0.0047352705 0.38469058 0.86792243 0.31420332 0.0021873529
-0.026120985 0.039284043 0.0039413101 0.35876286 0.88370085 0.30060288 0.0016552798
0.071048632 0.040354881 0.0045859488 0.9047718 -0.16937494 0.3907685 0.002635818
-0.039301854 0.044874378 0.0058751041 0.4265922 0.8030073 0.4161711 0.00079495687
-0.037394479 0.044414867 0.0046560168 0.45501876 0.84446442 0.28255573 0.0015629288
-0.034550317 0.043030035 0.0045410562 0.42339629 0.85649055 0.29522792 0.0017534803
-0.032442026 0.042245641 0.0038011682 0.41201317 0.86318672 0.29181132 0.0019442525
0.071389161 0.043235414 0.0047103819 0.90220523 -0.095306247 0.42064536 0.0040871636
0.072025687 0.044024654 0.0034026497 0.92306012 -0.10166135 0.37097847 0.0029984538
-0.042912271 0.047307335 0.0048311623 0.45652321 0.81966877 0.34601966 0.0026322796
-0.040557597 0.046154421 0.0045206286 0.46715966 0.82913041 0.30709037 0.0020246119
-0.03860819 0.045425218 0.0036901452 0.44957528 0.8392145 0.30594295 0.0019015068
0.046241175 0.045708954 0.0057155401 -0.40238506 0.70439869 0.58472961 0.0010487527
0.04907066 0.047422934 0.0057737008 -0.41288653 0.70137459 0.58103222 0.00087914104
0.071432397 0.04637694 0.0048330389 0.87622237 -0.0040188748 0.48189026 0.002588972
0.072076418 0.04640292 0.0034788016 0.91420096 -0.02322142 0.40459538 0.0032372738
-0.048854694 0.050560631 0.0047540208 0.42165488 0.82422608 0.37796637 0.0026917756
-0.046372656 0.049328033 0.0045354739 0.4479056 0.81646574 0.36436835 0.002321892
-0.044158515 0.048280466 0.0041719121 0.44248894 0.8294425 0.34092331 0.0022049746
0.051884778 0.04935737 0.0054688174 -0.40359035 0.69944394 0.58982456 0.00065307127
0.054549914 0.050813947 0.0057455362 -0.39120367 0.68492198 0.61468822 0.00085469463
0.07138101 0.049461845 0.0048814137 0.86349702 0.026123308 0.50367689 0.0039148945
0.072204106 0.049437467 0.0032827652 0.89957303 -0.0034156844 0.43675691 0.0036139865
-0.072642267 0.053336125 0.0056697116 -0.31407976 0.18423486 0.93134922 0.0067365337
-0.057060696 0.053615052 0.0058140447 0.27202109 0.81390595 0.51338243 0.0088963564
-0.055069264 0.053392138 0.0049725175 0.3211081 0.85024619 0.41709846 0.0044572176
-0.052457701 0.052470077 0.0046174345 0.39093983 0.82982504 0.39819139 0.0025909485
-0.050167304 0.051553447 0.0040507163 0.42152533 0.82515597 0.37607697 0.0026753086
0.056056838 0.052117255 0.0050696377 -0.39581227 0.68649596 0.60996395 0.00074779097
0.05845198 0.053180482 0.0056477394 -0.37262446 0.66338676 0.64889824 0.00083496986
0.071250543 0.052432269 0.0049472856 0.8269521 0.060699679 0.55898643 0.0054060686
0.072221935 0.052467369 0.0033095784 0.872944 0.013044946 0.48764604 0.0047259056
-0.072571099 0.055463832 0.0057342574 -0.22469905 0.2306551 0.94673574 0.0092202444
-0.071556889 0.056749951 0.0059412364 -0.22471783 0.2307083 0.94671834 0.0092115896
-0.06410028 0.05634338 0.0055471403 0.24611154 0.63695562 0.73055917 0.0042906641
-0.061378978 0.055825431 0.0047161006 0.32023299 0.78929991 0.52388602 0.0067209695
-0.058571313 0.054819226 0.0045833299 0.28256124 0.83583164 0.47068527 0.0031699738
-0.056086261 0.054267492 0.0038709908 0.33326155 0.87228614 0.35784578 0.0033064752
0.059707094 0.054171599 0.005393845 -0.3776271 0.6446262 0.66472167 0.00087721139
0.061339203 0.055488452 0.0048795771 -0.35727698 0.61199468 0.70556056 0.0021610379
0.063992932 0.056430053 0.0057333116 -0.27748585 0.5273481 0.80306023 0.0067607542
0.070841663 0.055549175 0.0049712635 0.6110853 0.14483438 0.77820164 0.014079325
0.072202511 0.055501193 0.0032804157 0.81925654 0.035173766 0.5723474 0.0068506878
-0.072744638 0.057623953 0.0052197799 -0.15065487 0.45225081 0.87907469 0.039540272
-0.070249937 0.05849478 0.0052124667 -0.086219788 0.55761212 0.82561177 0.014459096
-0.067473814 0.058619466 0.0046733757 0.21173988 0.67754155 0.70434636 0.004780327
-0.064713523 0.05788419 0.0042064483 0.34310779 0.72764117 0.59398258 0.0077795121
-0.062525615 0.057181414 0.0035323803 0.41083544 0.78844786 0.45778182 0.016982848
0.062586911 0.057187162 0.0041671642 -0.30516338 0.4831138 0.82065606 0.0050983625
0.064796574 0.058230955 0.0049268566 -0.30014503 0.40600312 0.86317694 0.0059176255
0.067631245 0.058745112 0.0054921075 -0.015857635 0.36644495 0.93030459 0.011658424
0.070498936 0.05851534 0.0046613924 0.51169986 0.1510646 0.84577942 0.02075306
0.072153807 0.05853929 0.003207227 0.87645406 0.010577903 0.48136923 0.021605965
-0.06843511 0.060483221 0.0030670904 0.2125036 0.81448221 0.53987122 0.025447117
0.065476343 0.061266154 0.0037494779 -0.18981741 0.30313006 0.93385303 0.010444662
0.067686997 0.061439157 0.0045595826 -0.044452101 0.30707699 0.95064598 0.012867786
0.070663944 0.061563399 0.0039753346 0.37845492 0.13464512 0.91577423 0.020630641
0.07230065 0.061574109 0.0030399652 0.79615784 -0.011209765 0.60498506 0.023463534
0.067714609 0.064296961 0.0037652822 -0.16569398 0.22419062 0.9603563 0.018009854
0.07060387 0.064560108 0.0036172585 0.24145411 0.063748226 0.96831602 0.019955132
0.072290808 0.064837351 0.003197721 0.72383392 -0.06154447 0.68722391 0.040463183
0.06819398 0.067275785 0.0032984708 -0.27242589 0.11136699 0.95570999 0.015120405
0.070515305 0.067499459 0.0035136717 0.059582572 0.070350222 0.99574131 0.028470714
0.072643831 0.067702346 0.0033627555 0.49884301 -0.11805594 0.85861427 0.027686171
0.068680421 0.069389835 0.003060333 -0.22863545 0.033489395 0.97293591 0.013336552
0.070566796 0.070422612 0.0036857927 -0.047120027 -0.019669795 0.99869555 0.031972382
0.073331542 0.070701651 0.0036917003 0.41661865 -0.280312 0.86478555 0.035134885
0.068742238 0.074606538 0.0031518848 -0.42215192 0.16701202 0.89100766 0.040722352
0.070783347 0.073446684 0.0043537403 -0.33380121 0.065368496 0.9403742 0.053103779
0.073631108 0.073465645 0.0044247764 0.43493956 0.02316124 0.90016174 0.078404687
0.075484812 0.073845379 0.003456803 0.83825243 -0.021592606 0.54485458 0.061750807
0.070513569 0.075805143 0.0043410631 -0.11203312 0.63609445 0.76343465 0.082435101
0.073344417 0.075411752 0.0045560901 0.29910117 0.48437619 0.82214242 0.11752269
0.075065657 0.075203523 0.0033372557 0.65999258 0.41511649 0.62616944 0.1224686
-0.010130587 0.0027193979 0.0067683286 -0.12912346 -0.86034197 0.49309114 0.0010199525
-0.007481867 0.0025929417 0.0071374462 -0.082982078 -0.86523855 0.49444541 0.0014375157
-0.0046433723 0.0023609274 0.0070904382 -0.04449629 -0.86401588 0.50149447 0.0011074803
-0.001313996 0.002384468 0.0073536774 -0.0068250913 -0.87017679 0.49269238 0.0018498364
0.001521398 0.002214188 0.0070457333 0.021078551 -0.87257057 0.48803318 0.0020892622
0.0044296524 0.0023308098 0.0070894114 0.044296712 -0.87307817 0.48556387 0.0019872417
0.0072153867 0.0025869445 0.0071659149 0.056086149 -0.86759448 0.49409929 0.0017318288
0.010406244 0.0025500923 0.0067226836 0.079739004 -0.8618452 0.50086379 0.00089842273
0.013376984 0.0026432222 0.0061988919 0.12060535 -0.87761718 0.46394229 0.0032825179
-0.021963002 0.0057850759 0.0078022676 -0.25471783 -0.84579879 0.46876776 0.0015777202
-0.019398015 0.0051695378 0.0079356143 -0.19777028 -0.83802897 0.50852162 0.00097760186
-0.016172418 0.0043827305 0.0079063708 -0.18186647 -0.845608 0.50186813 0.00097827276
-0.013418403 0.0037806283 0.007770333 -0.13968849 -0.85586262 0.49798214 0.00091167196
-0.010530141 0.0034951754 0.0081329746 -0.12314899 -0.84838545 0.51485574 0.0014659432
-0.00782141 0.0034684595 0.0085652275 -0.07504265 -0.83611768 0.5433929 0.0010066812
-0.0044654082 0.0032592728 0.0086559039 -0.042258624 -0.83688605 0.54574353 0.0013979281
-0.0015937951 0.0031245314 0.008603151 -0.011959245 -0.83440089 0.55102813 0.0016300351
0.0015077072 0.0032526336 0.0088362955 0.014668974 -0.84482998 0.53483373 0.0027334425
0.0047149449 0.0033755582 0.00886063 0.044783868 -0.84420925 0.53413951 0.0025241571
0.0077918232 0.0033935483 0.0084090978 0.06135859 -0.84025013 0.53871596 0.0017664579
0.010647784 0.0033935478 0.0080602728 0.086195037 -0.83614355 0.54169577 0.00089222856
0.013524994 0.0036643941 0.0078291856 0.12148861 -0.83468008 0.53716815 0.00038810735
0.016563898 0.0039690589 0.0076510347 0.12971176 -0.82633531 0.54803729 0.00048827197
0.019372368 0.0043768906 0.0075922189 0.13566649 -0.81080031 0.5693835 0.0012461833
0.022409938 0.0049554519 0.0076106433 0.16486123 -0.80787909 0.56581986 0.0026219874
0.025269512 0.005275791 0.0072624427 0.19893749 -0.80275345 0.56214839 0.0026792008
0.027976064 0.0054234308 0.0064723729 0.23150769 -0.81567866 0.53016269 0.0024735341
-0.031000333 0.0087492662 0.007787833 -0.28673381 -0.82081151 0.49401632 0.00079979369
-0.02804563 0.0081050247 0.008421001 -0.26600993 -0.81378233 0.51671761 0.0016022503
-0.025107451 0.0071986299 0.0084680747 -0.25702828 -0.83111161 0.49314296 0.0023073331
-0.022777952 0.0064414404 0.0083833141 -0.24909109 -0.82734263 0.50344598 0.0022994352
0.023925876 0.0064233728 0.0089937048 0.17292817 -0.72076434 0.67126352 0.00027093818
0.02597007 0.0065282579 0.0085761379 0.18392049 -0.72802848 0.66041481 0.0005747535
0.028616358 0.0066473871 0.0079520978 0.21417496 -0.78486907 0.58147204 0.0026380767
0.031530932 0.0072573861 0.0076657268 0.247972 -0.8067503 0.53634304 0.0027475639
0.034302205 0.0079855705 0.0073686228 0.27996525 -0.79279518 0.54138273 0.0034857849
0.036885735 0.0084436359 0.0066015008 0.33667466 -0.80915475 0.48157942 0.002153489
-0.037310544 0.011619831 0.0082153948 -0.34460479 -0.76415169 0.5452702 0.0001581832
-0.034342241 0.010439423 0.0084538022 -0.33260468 -0.78612369 0.52094507 0.00023068357
-0.030832157 0.0092844479 0.0086716013 -0.27663183 -0.78357178 0.55631822 0.00028214362
0.034925681 0.0091391997 0.0086456118 0.2460009 -0.69976735 0.67067802 0.0016622063
0.037701551 0.0096512213 0.0079851616 0.31622639 -0.78203404 0.5370509 0.0034766151
0.040498592 0.010630432 0.0076062013 0.33693618 -0.78824145 0.51492655 0.0038561421
0.043195907 0.011562372 0.0071570999 0.37884322 -0.78977913 0.48241761 0.0024969045
0.045209497 0.011992665 0.0062086303 0.40552104 -0.77832192 0.47934097 0.0027707459
-0.043438807 0.014789296 0.0082197776 -0.40112334 -0.71839821 0.56833446 0.00047416764
-0.03961489 0.012838885 0.0084213717 -0.37756991 -0.7559548 0.53476459 0.00027690103
0.043898989 0.012697912 0.008378529 0.35273269 -0.7022258 0.61843234 0.0017248733
0.046418682 0.013558466 0.0075691841 0.41168755 -0.77052724 0.48662212 0.0026355658
0.048788715 0.014461427 0.00689069 0.45965376 -0.75647426 0.46525812 0.0019305507
-0.043421727 0.01531607 0.0089468248 -0.40347177 -0.70074373 0.58836114 0.00053756149
0.047987938 0.015266598 0.0087942677 0.38647431 -0.71009099 0.58856469 0.0055743116
0.049968358 0.015815828 0.0078491531 0.48018363 -0.74108768 0.46926823 0.0013496046
0.052190695 0.016926365 0.007272026 0.47818062 -0.72715515 0.49253303 0.0027637507
0.054224804 0.017550744 0.0060500586 0.5139659 -0.72137672 0.46417093 0.0010749344
0.053128004 0.0183038 0.008239748 0.46323499 -0.69303167 0.55237716 0.0039870366
0.055447623 0.019461233 0.0075286967 0.5074262 -0.70061713 0.50165153 0.0023221998
0.057513416 0.020433003 0.0066598798 0.56533253 -0.6619764 0.49212441 0.0013077752
0.056617133 0.02127637 0.0086050266 0.54721266 -0.63967741 0.53978795 0.0025492127
0.058685299 0.02232901 0.0076664872 0.60282159 -0.6359446 0.48185113 0.0014484699
0.060594615 0.023381699 0.0067657051 0.61512756 -0.60066575 0.51070416 0.0014725951
0.059676886 0.02426957 0.0087458566 0.59494543 -0.55891019 0.57763255 0.00160159
0.061681118 0.025412133 0.0076528881 0.65388471 -0.54108202 0.52883369 0.0041342662
0.063469879 0.026462175 0.0066113579 0.67245728 -0.54198182 0.50404072 0.0010326628
0.062647365 0.027630089 0.0086778179 0.59743458 -0.44999141 0.66376179 0.0016508112
0.064388998 0.028693959 0.0074590524 0.70907354 -0.44306126 0.548554 0.0023970776
0.06610506 0.029734131 0.0061939182 0.73187119 -0.47911429 0.48457614 0.0025043164
-0.013275009 0.0328862 0.0083236378 0.22864419 0.84430194 0.48464018 0.0015417271
-0.010468149 0.032523047 0.0076805716 0.19579975 0.85673612 0.47714314 0.0013524584
-0.007457552 0.031898826 0.0076676644 0.15409392 0.85821187 0.48961976 0.0027247053
-0.0045089489 0.031473253 0.007607393 0.12405369 0.86187893 0.49170652 0.0018199839
-0.0016188651 0.031034635 0.0077742878 0.088085771 0.86752051 0.48953962 0.0021661979
0.0016168451 0.030839788 0.0076354379 0.063145444 0.86465639 0.49837941 0.0019900959
0.0045238324 0.030765424 0.0076154242 0.02322525 0.85851634 0.51226002 0.001786571
0.0074044624 0.030731356 0.0077279718 -0.039290618 0.85554904 0.51622874 0.0019293511
0.01043851 0.031010451 0.0076542678 -0.088559546 0.85478562 0.51136947 0.00192051
0.013378857 0.031268414 0.0077085798 -0.12586422 0.84601623 0.51808763 0.0028072665
0.016407887 0.031713232 0.0079082772 -0.18007508 0.83234948 0.5241825 0.0034662129
0.01935154 0.032294665 0.0080805533 -0.20938314 0.82642424 0.52266794 0.001869697
0.022082705 0.032677941 0.0085793026 -0.23224041 0.808685 0.54045624 0.0020074311
0.065340109 0.031300362 0.0082990834 0.67674404 -0.3562839 0.64426643 0.0012780646
0.066728473 0.031957246 0.0069891647 0.73376149 -0.40272048 0.54718387 0.0022156925
-0.021716345 0.035516612 0.0084174536 0.3190628 0.83284241 0.45229688 0.0010389939
-0.019390566 0.035009209 0.0077489065 0.2953915 0.85115105 0.43391898 0.00088142289
-0.016545346 0.034214418 0.0075052939 0.24852936 0.8687281 0.4284212 0.0005561377
-0.013809846 0.033675741 0.0069800746 0.23660384 0.85691893 0.45793954 0.001352441
-0.011699394 0.033489868 0.0061453534 0.18957724 0.91293091 0.36141062 0.0010261523
0.019812606 0.033287242 0.0065665822 -0.22783661 0.84652406 0.48113135 0.0018279431
0.022685258 0.033729274 0.0072111953 -0.23776935 0.83492815 0.4963474 0.0023350501
0.025500495 0.03411888 0.0079995152 -0.25116074 0.83519214 0.48925689 0.0025640673
0.0283696 0.03511028 0.0078794621 -0.29503736 0.80231988 0.51887935 0.0033985111
0.031058261 0.035798442 0.0082967421 -0.31405911 0.80166882 0.50861973 0.0028591929
0.065899208 0.033627439 0.0089285951 0.64936537 -0.28529519 0.70493352 0.001804018
0.067468159 0.034594607 0.0076124417 0.76014972 -0.29709631 0.57784623 0.0015090837
-0.028129414 0.038328253 0.0080629773 0.36341476 0.81694794 0.44780105 0.0010152861
-0.025443705 0.037402131 0.0075764204 0.3464506 0.8299222 0.43726557 0.001667095
-0.022705916 0.036414098 0.0073210709 0.32549536 0.83867121 0.43667302 0.0011325781
-0.020574154 0.036023516 0.0063887401 0.29953942 0.85604 0.42127392 0.00091180252
0.031874504 0.036522657 0.0076694987 -0.3140651 0.80166489 0.50862223 0.0028621324
0.034392506 0.03741749 0.0079872105 -0.36120939 0.74956608 0.55468762 0.0033090371
0.036601696 0.038471173 0.007961425 -0.36409602 0.70904297 0.60389745 0.00083862897
0.068172246 0.037218478 0.0079182861 0.76222599 -0.21937723 0.60900348 0.0024137308
0.069350556 0.0376762 0.0065463195 0.79894501 -0.23676111 0.55283898 0.0018447671
-0.036241718 0.04170173 0.0089245755 0.3537268 0.75766098 0.54847723 0.001292789
-0.034205653 0.041332893 0.0078213802 0.39596078 0.80047089 0.44995707 0.0015897
-0.03154742 0.040139582 0.0075883605 0.39193541 0.80298418 0.4490023 0.0012784504
-0.029032016 0.039259322 0.006933786 0.37309554 0.82637942 0.42177793 0.00086049584
0.037506867 0.03941578 0.0072777569 -0.38674268 0.69980407 0.60058665 0.0010240969
0.040310711 0.040835552 0.0075722919 -0.409363 0.69529778 0.59074777 0.00041513116
0.042563111 0.041444983 0.0086600641 -0.3955586 0.66599405 0.6324439 0.0010295624
0.068448149 0.040253997 0.0084169647 0.75671703 -0.11661888 0.64325678 0.0028230511
0.069706172 0.040348716 0.0069230362 0.79817647 -0.13810812 0.58637911 0.0024552078
-0.067446753 0.044356514 0.00897096 -0.47721708 0.085709989 0.8745957 0.001876587
-0.042505339 0.044870883 0.0087773958 0.39734259 0.74984854 0.52900469 0.00080616976
-0.04026375 0.044364121 0.007855189 0.42054474 0.78706169 0.45130479 0.0014265452
-0.037541464 0.043194465 0.0074863788 0.38152635 0.79474926 0.47202891 0.0014394984
-0.035172872 0.042358935 0.0067853471 0.40644595 0.8106429 0.42149699 0.00108955
0.043415118 0.042760186 0.0074822134 -0.41194895 0.71080971 0.57012951 0.00045779621
0.046252627 0.044013139 0.0081541305 -0.3877703 0.69434547 0.60623312 0.0014787662
0.068563469 0.043314759 0.0086269919 0.73977798 -0.023593392 0.67243725 0.0032822136
0.069850549 0.043369457 0.0071875681 0.78979027 -0.048397765 0.61146468 0.0026179806
-0.046302017 0.047200777 0.0082264496 0.36972958 0.75155604 0.54631823 0.002263038
-0.043622512 0.046323773 0.0075196773 0.39334801 0.78878891 0.47232348 0.0014207179
-0.041233633 0.045487721 0.0068218508 0.43045187 0.78232443 0.45019957 0.0016749358
0.046127133 0.045244977 0.0063110092 -0.41667974 0.71734899 0.55838007 0.00029496435
0.049372628 0.046131011 0.0078133009 -0.41444039 0.681445 0.60321784 0.0011414111
0.052163165 0.04724703 0.008365104 -0.37508473 0.67923868 0.63082981 0.0026276237
0.068518952 0.0465963 0.0085622231 0.58811772 0.079982884 0.80481076 0.0045354357
0.069946684 0.046289206 0.0070824395 0.75715292 0.034242403 0.65233958 0.0036276579
-0.070333995 0.050028905 0.0070529166 -0.34171811 0.19228461 0.9199214 0.0040953816
-0.067633934 0.049813975 0.0086826226 -0.32463419 0.25339404 0.91126513 0.0066520274
-0.055057131 0.050743364 0.0087051215 0.21001971 0.69731635 0.68530399 0.0019233432
-0.052237272 0.050222754 0.0079865698 0.29701269 0.7321676 0.61295527 0.002798338
-0.049486745 0.049302414 0.00750549 0.3570379 0.76329577 0.53842694 0.0022176222
-0.046961956 0.048427973 0.006975513 0.40013492 0.77857566 0.48343781 0.0012574743
0.052912738 0.048589107 0.0073594707 -0.39730209 0.69207233 0.60264993 0.00087692955
0.055553008 0.049591631 0.0078839846 -0.35071847 0.65822423 0.66613621 0.0021269941
0.058448356 0.050348729 0.0085296007 -0.27030715 0.6347841 0.72386682 0.0028939208
0.060581926 0.050771344 0.0088912994 -0.1433512 0.54503828 0.82606524 0.0042108046
0.067999244 0.04951705 0.0084047345 0.45770752 0.19121011 0.86829865 0.010840552
0.069899097 0.049322162 0.0068759024 0.68883967 0.091985077 0.71905404 0.0062692007
-0.070052192 0.052783221 0.007106211 -0.31449875 0.19047746 0.92995101 0.0062725493
-0.06751366 0.052636053 0.0079938481 -0.21689035 0.30938125 0.92587358 0.013387403
-0.064553052 0.052805737 0.0082768071 -0.021090716 0.47080314 0.8819862 0.010160444
-0.061440848 0.052938171 0.0079935966 0.10925239 0.62210119 0.77527678 0.003052955
-0.058457565 0.052591518 0.0076765381 0.16254683 0.72983855 0.66401368 0.0025389709
-0.055608619 0.052144393 0.0072637857 0.27761877 0.77312475 0.57026821 0.0028227514
-0.052937757 0.051546391 0.0066397684 0.36064631 0.76959926 0.52692622 0.0016750002
0.056378931 0.051387411 0.0063976683 -0.37925708 0.68042457 0.62704587 0.00062732695
0.05864118 0.051897842 0.0071706246 -0.33827642 0.6566835 0.67404437 0.001914597
0.061587624 0.052460246 0.0078883599 -0.22751191 0.61772513 0.75276423 0.0041211643
0.064603582 0.052640442 0.0082913646 -0.018675063 0.44190609 0.89686698 0.0076902318
0.067553066 0.052436128 0.0078647174 0.31795591 0.28918335 0.90292698 0.011696427
0.069725499 0.052343275 0.0066524441 0.66849875 0.14837912 0.72876132 0.0093502793
-0.070245355 0.055534046 0.0065316209 -0.22471783 0.2307083 0.94671834 0.0092115896
-0.067447603 0.055505101 0.0068416684 -0.0063727801 0.44527382 0.89537179 0.012444027
-0.064624436 0.055177204 0.0067102667 0.14064942 0.5924716 0.79321814 0.010004487
-0.061741617 0.054560322 0.0064954748 0.20048095 0.71174908 0.67321664 0.0058578309
-0.059691671 0.054211084 0.0061923615 0.2561807 0.77657849 0.57558429 0.0042541251
0.061954498 0.054381806 0.0064611128 -0.30001372 0.60040289 0.74128813 0.0033672354
0.064864956 0.055201396 0.006891598 -0.21487971 0.47963971 0.85074824 0.014103938
0.067579582 0.055517022 0.0067638056 0.13632357 0.36831719 0.91965121 0.025025452
0.069403343 0.054966331 0.0063057966 0.54716653 0.24201988 0.8012709 0.0096994974
-0.069496423 0.057201147 0.0060350979 -0.086320363 0.55757725 0.82562488 0.014477659
-0.068336323 0.057158269 0.0060262196 0.10357393 0.55835152 0.82311356 0.0078907069
0.067593895 0.057368625 0.0060738395 0.11027317 0.3034029 0.94646001 0.022971446
-0.018749638 0.0059519112 0.0093828216 -0.20704211 -0.80984879 0.54888839 0.0011095102
-0.015840629 0.0054441663 0.0096004223 -0.16731946 -0.79045337 0.58922631 0.00060559192
-0.013093296 0.0052490905 0.010026336 -0.13633169 -0.78379697 0.60586792 0.00097209134
-0.010428484 0.005106004 0.010359847 -0.10410234 -0.78822058 0.60652369 0.0017236287
-0.007515098 0.004968354 0.010553181 -0.068638951 -0.77060652 0.63360429 0.0014775053
-0.0044950531 0.0046912394 0.01046887 -0.022827728 -0.75551587 0.65473258 0.0019306274
-0.001543341 0.0046442463 0.010450675 0.00746019 -0.74474442 0.66730809 0.0013634645
0.0014708209 0.004757972 0.010586944 0.010942837 -0.73744947 0.67531359 0.001735799
0.004496458 0.0048682485 0.010623642 0.0341026 -0.74309444 0.66831702 0.0017229707
0.0074560661 0.0049269716 0.010424297 0.063811012 -0.75740147 0.64982396 0.0020387454
0.01049296 0.0048992783 0.01015178 0.088488817 -0.78368968 0.61481714 0.00075981091
0.013598416 0.0051393099 0.0099377949 0.11367359 -0.7567423 0.64375418 0.0012729128
0.016581537 0.0054427586 0.0096763531 0.1339474 -0.75551403 0.64129293 0.00098550203
0.019677132 0.0058247559 0.0093190009 0.15905011 -0.75706655 0.63368237 0.00077541021
-0.025251869 0.0083900085 0.01020097 -0.23815072 -0.78065813 0.57780373 0.00048701686
-0.022330666 0.0078549813 0.010625605 -0.21964265 -0.77013743 0.59887022 0.0012802769
-0.019519573 0.0072532431 0.010887538 -0.19919333 -0.78281307 0.58951318 0.00070158148
-0.016245674 0.0066893972 0.011163059 -0.15393296 -0.76682329 0.62312651 0.00081370241
-0.013350314 0.0064559826 0.011530069 -0.1204291 -0.71270174 0.6910522 0.0014380952
-0.010800012 0.0063061435 0.011766405 -0.07350944 -0.72155821 0.68844038 0.0024032362
-0.0050490247 0.006022701 0.011943243 -0.04104916 -0.70475376 0.70826352 0.0024570602
0.0087985657 0.0062460704 0.011718722 0.054272901 -0.71207583 0.70000178 0.00102237
0.01057986 0.0063027977 0.011615871 0.075766645 -0.71752459 0.6924001 0.0015399784
0.013611103 0.0065615498 0.011456219 0.10434555 -0.72435135 0.68148899 0.0017192072
0.016591566 0.0068425299 0.011254742 0.13679445 -0.6600737 0.73864055 0.0023151918
0.019628072 0.0071755028 0.010906948 0.15638646 -0.7006374 0.6961686 0.0025844665
0.022578161 0.0075581125 0.010550609 0.17176251 -0.70388585 0.68923324 0.0011451227
0.025417732 0.0079686567 0.010187211 0.19002572 -0.69567025 0.69277203 0.00072680227
0.028383056 0.0083112996 0.0097741773 0.19671281 -0.68306637 0.70336646 0.00041476308
0.03085498 0.0086634038 0.0095057758 0.21007153 -0.6842705 0.69831502 0.00083429844
-0.034589712 0.011481015 0.009862897 -0.324314 -0.76379031 0.55807245 0.00069689646
-0.031811081 0.010927265 0.010622821 -0.27446479 -0.76947284 0.57669795 0.00095208408
-0.028922001 0.010157415 0.01096057 -0.25956351 -0.77706444 0.57340878 0.00061059045
-0.025629908 0.0094720535 0.011553309 -0.23086371 -0.76141787 0.60575974 0.0011332183
0.023982726 0.00930354 0.011958673 0.16088644 -0.61752808 0.76991856 0.0041734031
0.025979077 0.0095817409 0.011635983 0.1830245 -0.66675538 0.72245365 0.00054907572
0.02865844 0.010007722 0.011254063 0.19142932 -0.62114269 0.75995821 0.0009936227
0.031643268 0.010404427 0.010790826 0.19843172 -0.62536001 0.75468528 0.0002797546
0.034401476 0.010663806 0.010300275 0.21646114 -0.65307808 0.72569525 0.0015376423
0.03735768 0.011254423 0.0099441875 0.26256448 -0.65582579 0.70777994 0.0018380336
0.039964277 0.011823743 0.0094429255 0.29886329 -0.67632681 0.67324793 0.0018619929
-0.039198861 0.013645612 0.0098958742 -0.38264781 -0.73682398 0.55737877 0.00028696453
-0.037451487 0.0137145 0.011147526 -0.34997264 -0.71851361 0.60104686 0.0014495262
-0.034433279 0.012532371 0.011432327 -0.30402523 -0.72776371 0.61475909 0.0014735878
-0.032601923 0.012086479 0.011848005 -0.28916496 -0.72623652 0.62366986 0.0015861171
0.032844078 0.012294708 0.011983498 0.19587173 -0.5575608 0.80669701 0.001267612
0.0348242 0.012563902 0.01170612 0.20772421 -0.59577662 0.77582282 9.2485119e-05
0.037591528 0.01305564 0.011330432 0.22775526 -0.58037519 0.78185171 0.00071033993
0.040492818 0.013516278 0.010771499 0.2500264 -0.58930933 0.76824564 0.00055070384
0.043358814 0.013960776 0.010023754 0.34478483 -0.64498878 0.68199182 0.0025975159
0.045787159 0.01459462 0.0093612978 0.37724036 -0.69637346 0.61053562 0.0021656491
-0.043530785 0.016882453 0.010961665 -0.3971791 -0.68779778 0.60760432 0.00081566407
0.041496918 0.015314434 0.011863503 0.23834573 -0.5742451 0.78322029 0.00090169924
0.043762922 0.015828259 0.011395403 0.2906808 -0.54841173 0.78405946 0.0015756104
0.046556238 0.016516218 0.010725084 0.33125439 -0.58025581 0.74402535 0.00097652152
0.049113039 0.017044598 0.0098856213 0.42047787 -0.62297153 0.65962476 0.0035195423
0.051031597 0.017558465 0.0091694249 0.46659559 -0.66157627 0.58703095 0.0018724615
-0.048495751 0.02090466 0.011821692 -0.4259541 -0.57498097 0.69854128 0.00087788515
-0.04761507 0.020406038 0.011959243 -0.4319329 -0.57152128 0.69770867 0.00083642168
-0.044651374 0.018409057 0.011991385 -0.39473945 -0.65986246 0.63934523 0.0013322436
0.047488049 0.01843684 0.011816814 0.33597147 -0.56771344 0.75154817 0.00099731376
0.049821127 0.019101566 0.011159295 0.36114126 -0.52917755 0.76782042 0.0014871825
0.052328635 0.019649373 0.010180844 0.44431314 -0.58486885 0.67861205 0.0031412072
0.054649718 0.020437997 0.0094415043 0.48325908 -0.63047427 0.60742313 0.0021387138
-0.050372824 0.021382667 0.010738894 -0.44680098 -0.56918156 0.69021821 0.00063378352
0.050939579 0.021144439 0.011999702 0.38256302 -0.52339506 0.76138252 0.0013850218
0.053001478 0.021782013 0.011460165 0.38756439 -0.46826804 0.79405224 0.0013895944
0.055425104 0.022561487 0.010492119 0.45751271 -0.52101964 0.72056967 0.0029379714
0.057730485 0.023247408 0.0094933733 0.53041738 -0.5507344 0.6444757 0.0022836861
-0.055098511 0.026503477 0.011910136 -0.46801642 -0.41927347 0.77792698 0.00081509619
0.056134813 0.024912003 0.011581416 0.41868883 -0.41386136 0.80834305 0.0013295653
0.058492944 0.025586169 0.010551768 0.47787964 -0.43586165 0.7626636 0.00076897873
0.060671218 0.026355289 0.0094846124 0.57583761 -0.48941875 0.65488958 0.0022113528
-0.056708332 0.02804796 0.011812332 -0.48517582 -0.39447394 0.78038114 0.00070587901
-0.010069501 0.029485201 0.011721622 0.17382491 0.67573559 0.71635616 0.0013302811
-0.0073051229 0.029150914 0.011421393 0.14261037 0.68511403 0.71433961 0.0014440623
-0.0043589226 0.029002048 0.011037759 0.11123065 0.7597996 0.64057183 0.0016492089
-0.0013948407 0.028707823 0.010926039 0.084928043 0.75984251 0.64453596 0.0012567202
0.0015487664 0.028605819 0.010745889 0.051492415 0.73986197 0.67078519 0.0032399443
0.0045711701 0.028627587 0.01061269 0.028946066 0.74888867 0.66206336 0.0025448541
0.0074739009 0.028588308 0.010662103 -0.039150544 0.74730986 0.66332138 0.0028461379
0.010460286 0.028632576 0.01080747 -0.06330698 0.73146439 0.67893445 0.0028097047
0.013385158 0.02868793 0.011068078 -0.10353618 0.69507712 0.71144086 0.0019875637
0.016501794 0.028982032 0.011380429 -0.14291316 0.66883671 0.72954321 0.0022439784
0.019384047 0.029346436 0.011600615 -0.15978047 0.7135762 0.68211383 0.0016719588
0.021528546 0.029543392 0.011892533 -0.17770928 0.60706252 0.77452856 0.0015416668
0.059236608 0.028314574 0.011577252 0.46154535 -0.34396088 0.81772041 0.0014402594
0.061436236 0.028717132 0.0102954 0.55194247 -0.41735068 0.72192657 0.0025230879
0.063409448 0.029776644 0.0092837689 0.63134569 -0.4163484 0.65426046 0.002088852
-0.059662953 0.032194883 0.011880879 -0.49873629 -0.28901786 0.81714791 0.0021810355
-0.019270573 0.032353226 0.011560684 0.25256243 0.69262195 0.67563826 0.0011040608
-0.016462808 0.031877514 0.011025659 0.23920557 0.7663914 0.59617519 0.0015168454
-0.013545668 0.031325355 0.010611575 0.21328029 0.76578528 0.60669965 0.0032839726
-0.010593291 0.030842958 0.010299616 0.1852612 0.77166641 0.60844821 0.0016288344
-0.0076571433 0.030501418 0.0099365655 0.1444293 0.78217012 0.60609412 0.0018406461
-0.0045756805 0.030238569 0.0096099824 0.11022338 0.78567183 0.60874522 0.0015312588
-0.0012823888 0.030041441 0.0093089612 0.08379259 0.78499955 0.61380327 0.0014466697
0.00076009601 0.030038949 0.0090745389 0.061204869 0.82361144 0.56384224 0.004255069
0.010608877 0.030024996 0.0091336733 -0.076904438 0.81584096 0.57313991 0.0041131941
0.013859643 0.030113721 0.0094538722 -0.11091121 0.76555741 0.63373542 0.0012007958
0.016489495 0.030431181 0.009672245 -0.15897848 0.75285208 0.63870144 0.0010755222
0.019552831 0.030692143 0.010256035 -0.18256162 0.73326886 0.65497172 0.0014014476
0.022475628 0.031062819 0.010693424 -0.21104889 0.70546067 0.67659706 0.00155084
0.025408655 0.031772241 0.010906081 -0.23606193 0.6849696 0.68926877 0.0022364226
0.028254243 0.03220043 0.011378475 -0.22598754 0.63187969 0.7413891 0.0018423767
0.030539056 0.032726362 0.01165792 -0.23445587 0.62900543 0.74120343 0.0010701974
0.061809815 0.03144785 0.011260603 0.50490516 -0.2941657 0.81150317 0.001016318
0.064008728 0.031904433 0.0098507246 0.61970091 -0.34203872 0.70638537 0.0019756975
-0.06116581 0.03402359 0.011549061 -0.51699573 -0.22675332 0.82540798 0.00073560909
-0.02780612 0.035537105 0.011738489 0.3066797 0.67232525 0.67374051 0.0012012601
-0.025302658 0.035052255 0.011091294 0.30294585 0.75094235 0.58677882 0.0016300612
-0.022514485 0.034293 0.010619177 0.28843528 0.75291497 0.59154379 0.0026852989
-0.019702626 0.03364595 0.010164081 0.27069637 0.76991969 0.57788157 0.001575944
-0.016764386 0.033129431 0.0095140571 0.25111726 0.78934443 0.56024593 0.0014580889
0.025719482 0.033229321 0.0093618035 -0.24173431 0.74285716 0.62428182 0.0011778584
0.028667273 0.033664066 0.010039896 -0.24648772 0.72660083 0.64132285 0.0013828566
0.031627074 0.034336369 0.010429129 -0.25495392 0.71595526 0.64992821 0.0021230164
0.034433153 0.034918845 0.011023799 -0.29633209 0.65270519 0.697254 0.0035427529
0.036909558 0.035488196 0.01157472 -0.28300342 0.6148439 0.73612231 0.0013504396
0.062599078 0.034211073 0.01166843 0.53796095 -0.21546258 0.81496871 0.0018473946
0.064565159 0.034682352 0.010442408 0.58823937 -0.24115302 0.77189362 0.0021160573
0.0662724 0.035320502 0.009249975 0.65778363 -0.26936746 0.7033931 0.0020702004
-0.06383086 0.037966449 0.010861265 -0.50227517 -0.099389851 0.85897684 0.0025356165
-0.062707931 0.037941672 0.011654655 -0.50220013 -0.09939906 0.8590197 0.0025515265
-0.033890277 0.038432848 0.0116206 0.31877902 0.668275 0.6721521 0.0010552316
-0.031369437 0.037912294 0.010848316 0.34088343 0.74175078 0.5775848 0.0015799454
-0.028598964 0.036964469 0.010454251 0.31614482 0.76157027 0.56574118 0.0025306884
-0.025778254 0.036285263 0.0097362371 0.32279202 0.76814675 0.55295193 0.0012763004
0.035323456 0.036683831 0.0096383989 -0.32164946 0.71425074 0.62160075 0.0012684441
0.037671905 0.037107214 0.010344573 -0.33091167 0.69406331 0.63935405 0.0024938204
0.040332783 0.037856434 0.011034529 -0.33342987 0.6287607 0.70248455 0.0039049576
0.042974725 0.038614288 0.011645411 -0.30986473 0.5983091 0.73892498 0.0025150359
0.062762581 0.036004443 0.011955346 0.50497717 -0.11843409 0.85496867 0.0030530784
0.064479664 0.037419029 0.011138728 0.54104102 -0.1327534 0.83045238 0.00098317931
0.066647626 0.03759272 0.0095971422 0.66000772 -0.17462403 0.73068202 0.0025673199
-0.064640522 0.041115846 0.010824732 -0.51736629 -0.017218715 0.85559082 0.0013868406
-0.039979085 0.041434042 0.011523794 0.31274512 0.65922463 0.68382263 0.0013733599
-0.037375752 0.040807232 0.010790667 0.33359838 0.73035938 0.5960598 0.0011409244
-0.034680851 0.039926909 0.010289541 0.3555142 0.73171186 0.58155602 0.0016438279
-0.032139812 0.039252631 0.0095841736 0.3652592 0.75896156 0.53903902 0.0012160317
0.040857889 0.039580774 0.0096364422 -0.40048194 0.66071528 0.6348775 0.0015488283
0.043626573 0.040296018 0.010466562 -0.35846245 0.62786222 0.6908645 0.0024890481
0.046320949 0.040935338 0.011228712 -0.30502853 0.56383067 0.7674976 0.0018392787
0.048764125 0.041626301 0.011672321 -0.25184277 0.4987371 0.82935905 0.002451851
0.064735241 0.040255338 0.011282924 0.46146345 -0.0071534985 0.88713038 0.0041867327
0.066946045 0.040399823 0.0097976467 0.62327516 -0.078490995 0.7780534 0.0035864273
-0.064225696 0.043453958 0.011203452 -0.45246813 0.10045778 0.88610429 0.0027728979
-0.062708661 0.044451423 0.011887927 -0.34573573 0.12591046 0.92984587 0.0065774326
-0.04848111 0.044923909 0.01183567 0.21724352 0.62312263 0.75134772 0.0017922351
-0.046289738 0.044495542 0.011390195 0.28919095 0.6787836 0.67499739 0.0017927025
-0.043495655 0.043776441 0.010737997 0.32706007 0.70878279 0.62502688 0.0011444888
-0.040795885 0.042971224 0.010096857 0.33560383 0.72956187 0.59591067 0.0012912476
-0.038317773 0.042335294 0.0094196303 0.37113443 0.7455954 0.55348593 0.0012656362
0.044328298 0.042072218 0.0091270953 -0.39554375 0.66601437 0.63243181 0.0010184762
0.046681255 0.042731747 0.0098323207 -0.36123374 0.66462696 0.65404981 0.0027173159
0.049496032 0.043410897 0.010561931 -0.30592635 0.609285 0.73156053 0.0024095052
0.052400328 0.043898981 0.011286214 -0.24030864 0.5233897 0.81750536 0.0015484489
0.055256933 0.044454008 0.011692609 -0.16964735 0.45818511 0.87251711 0.00280623
0.057675716 0.044787683 0.011924403 -0.028002763 0.37041742 0.92844325 0.0037004328
0.062175076 0.044242296 0.011874073 0.13560919 0.23786059 0.96178615 0.0053187525
0.064479686 0.043380592 0.011285589 0.38506776 0.11922796 0.9151544 0.0058527184
0.067109674 0.043270513 0.0098217595 0.57245415 0.027401458 0.81947875 0.0041892868
-0.067169465 0.046450149 0.0092235776 -0.41972893 0.17633854 0.89035517 0.0051895701
-0.064263575 0.046821341 0.010759306 -0.39903787 0.20024909 0.89480114 0.0082575865
-0.061652903 0.046824608 0.011644527 -0.25659344 0.27255371 0.92729414 0.0046302509
-0.058648139 0.047479622 0.01176732 -0.019061893 0.46537504 0.88490832 0.003309187
-0.055588186 0.047436401 0.011609481 0.11120768 0.58629882 0.80242538 0.0025504988
-0.052410033 0.047021322 0.011253486 0.19448933 0.60054135 0.77557981 0.0014880665
-0.049465649 0.04657336 0.010653705 0.24699238 0.63712651 0.73011273 0.00055046502
-0.04676782 0.046037167 0.0099908672 0.33095801 0.70985115 0.62175411 0.0013356155
-0.044462059 0.045409262 0.0093524465 0.370729 0.71845621 0.58854121 0.0010005741
0.050566215 0.045488659 0.0092841992 -0.36801428 0.66460329 0.65028298 0.0020738386
0.052819606 0.045978926 0.0098940944 -0.32471094 0.58914143 0.73991573 0.0019484264
0.055677205 0.04650588 0.010512095 -0.26122853 0.54511029 0.79662687 0.0021335639
0.058540434 0.046522915 0.011113967 -0.08318074 0.45308989 0.88757569 0.0045524812
0.061527167 0.046395313 0.011250198 0.094013087 0.37535873 0.92209941 0.0056684371
0.064543121 0.046352848 0.010699331 0.31367666 0.24229556 0.91809577 0.0084206732
0.067067072 0.046277344 0.0096249534 0.51188934 0.13680699 0.84808791 0.0056739082
-0.066563621 0.049195997 0.0092460541 -0.37378594 0.19949752 0.90580618 0.010155112
-0.064460643 0.049554449 0.0098517528 -0.27622816 0.33467865 0.90093738 0.0077729002
-0.061452463 0.049559571 0.010386854 -0.11075801 0.4752841 0.87283313 0.005264909
