# .PCD v0.7 - Point Cloud Data file format
VERSION 0.7
FIELDS x y z normal_x normal_y normal_z curvature
SIZE 4 4 4 4 4 4 4
TYPE F F F F F F F
COUNT 1 1 1 1 1 1 1
WIDTH 569
HEIGHT 1
VIEWPOINT 0 0 0 1 0 0 0
POINTS 569
DATA ascii
0.062429108 0.057426795 0.0037313383 -0.50165302 0.54851317 0.66893756 0.0095068896
0.064568907 0.05860595 0.0044991737 -0.39262596 0.50234139 0.77038819 0.017035622
0.067403749 0.058735732 0.0053992774 0.015090161 0.35259989 0.93565249 0.01750955
0.070277184 0.058378279 0.0046817353 0.34612924 0.24433644 0.90581137 0.0052039451
0.06524393 0.061210405 0.0035870257 -0.55364674 0.30754066 0.77388239 0.0076155071
0.067408942 0.061453767 0.0044148285 -0.17466448 0.26365411 0.94867212 0.029088393
0.07041543 0.061511066 0.0039361836 0.10273723 0.26004839 0.96011454 0.014456443
0.065778323 0.063315339 0.0031382854 -0.71716225 0.35509652 0.59965396 0.026676102
0.067444921 0.064353861 0.0036298498 -0.19922425 0.18802603 0.96174634 0.021398244
0.070543319 0.064545132 0.0035183493 0.1734066 0.062702388 0.98285222 0.01176807
0.072446071 0.065826759 0.003061461 0.19436857 0.049982134 0.97965437 0.010766926
0.068111636 0.067187995 0.0032308961 -0.37820104 0.15744616 0.91223609 0.021655621
0.070503063 0.067601226 0.0034169687 0.026354015 -0.105753 0.99404311 0.023752311
0.072607912 0.067818888 0.0032808606 0.35745624 -0.088081032 0.92976707 0.0097884517
0.070604607 0.07060615 0.0036768317 -0.07980302 -0.10353419 0.9914192 0.029748064
0.073221967 0.070760727 0.0036230837 0.33406499 -0.19160074 0.92287034 0.021855326
0.068851225 0.074001834 0.0031731999 -0.63101006 -0.029514709 0.77521288 0.026200389
0.070492268 0.07358519 0.0042199655 -0.42551285 -0.19392121 0.88393074 0.025216721
0.073387742 0.073456772 0.0043822355 0.26813737 -0.26292634 0.92680746 0.025997724
0.075311713 0.073695108 0.0034485394 0.26796475 -0.26310608 0.92680639 0.026002886
0.068716809 0.075652391 0.0033607616 -0.60474551 -0.36548418 0.70760447 0.052912232
0.070307806 0.075520396 0.0044587604 -0.29046667 -0.097225033 0.95193303 0.056131911
0.072587788 0.075183004 0.0049871327 0.048804123 -0.14554767 0.98814672 0.054359302
-0.012770235 0.0028815351 0.0063206642 -0.16216299 -0.87310517 0.45977235 0.00099001604
-0.010308453 0.0027108155 0.0067330268 -0.11936295 -0.87369108 0.47161034 0.0014608643
-0.0074284668 0.0024962842 0.0069613862 -0.081389375 -0.87391382 0.4792186 0.0015728795
-0.0045269504 0.0023761338 0.0071402374 -0.045597006 -0.87116176 0.48887435 0.0016807653
-0.0014835761 0.0023082222 0.0071964553 -0.016427487 -0.86959249 0.49349663 0.0018462994
0.0015208303 0.0023027107 0.0071809646 0.011364495 -0.86861449 0.49535817 0.001845099
0.0044595706 0.0023740286 0.0071271434 0.046544768 -0.86804491 0.49429911 0.001658082
0.0073885568 0.0024880443 0.0069421232 0.062312663 -0.86227524 0.50259173 0.0014380454
0.010349354 0.0025777428 0.0067326566 0.083516754 -0.8581785 0.50651222 0.00079363404
0.013430851 0.0028090901 0.0064021773 0.10793988 -0.84776288 0.51927549 0.00058519025
0.015623273 0.0029224562 0.0062095691 0.12027492 -0.83997792 0.52912295 0.00044246108
-0.0242412 0.0058514089 0.0064968206 -0.27805239 -0.85507494 0.43764564 0.00086534244
-0.022245288 0.0055007436 0.0070572812 -0.25773892 -0.85239643 0.45496264 0.0013012093
-0.01941468 0.0049495827 0.0075444928 -0.21456859 -0.84665298 0.48696932 0.00077678863
-0.016448516 0.0042532301 0.0075810077 -0.18743432 -0.86053461 0.47365445 0.00093324919
-0.013577866 0.0037713472 0.0077363253 -0.15584427 -0.8519516 0.49989095 0.0011182175
-0.010643342 0.0035943594 0.0082400925 -0.11225235 -0.84703994 0.51954085 0.0014327047
-0.0077867229 0.0033612871 0.0083999624 -0.073953897 -0.84476757 0.52999848 0.0017275842
-0.0046829632 0.0033074096 0.0086656148 -0.041672204 -0.80199522 0.59587497 0.000707019
-0.0015978877 0.0032457933 0.0086952234 -0.010986195 -0.79610801 0.60505474 0.00074494176
0.0015395341 0.0031803339 0.008677871 0.010658849 -0.79477566 0.60680968 0.00081894966
0.0046304772 0.0032605887 0.0086293845 0.048282694 -0.79610878 0.60322434 0.00090735476
0.007425908 0.0033642817 0.0083629992 0.064479388 -0.83834088 0.54131967 0.0015608802
0.010501152 0.0035087729 0.0082097258 0.088477068 -0.83403051 0.54457784 0.00080790062
0.013601757 0.0037152851 0.0078384662 0.11517915 -0.82915926 0.54701793 0.00047066697
0.016569018 0.0039754473 0.0075987293 0.12759255 -0.82126194 0.55610156 0.00042246687
0.019513834 0.0044280882 0.0075446367 0.15516903 -0.80312586 0.57524908 0.001038892
0.022396598 0.0048574903 0.0074105999 0.15918683 -0.80752379 0.56794786 0.0023590224
0.025349094 0.0052021057 0.0070629464 0.19551004 -0.80342847 0.56238645 0.0025720694
0.028095879 0.0055673006 0.0065690135 0.22619304 -0.81246084 0.53734905 0.0022974133
-0.033219635 0.0088769644 0.0063131703 -0.36156783 -0.84981847 0.38350675 0.00248735
-0.031168716 0.0084871659 0.0071029267 -0.30813247 -0.84474039 0.43757066 0.0011230861
-0.028506674 0.007762766 0.0075471718 -0.29235798 -0.84028137 0.45656767 0.0010874029
-0.025627047 0.0068386449 0.0076003238 -0.28478834 -0.8488391 0.44538492 0.00066861522
-0.022855466 0.0064718435 0.0083967177 -0.24282363 -0.81720388 0.52269924 0.00025715429
-0.020772021 0.006127717 0.0088078212 -0.2397068 -0.80300516 0.54564029 0.00064479664
0.023038493 0.0062289727 0.0088996142 0.16635807 -0.7366395 0.65550536 0.00025589304
0.025733707 0.0065080621 0.0085251136 0.18090881 -0.7275784 0.66174144 0.00042302793
0.028629061 0.0068536457 0.0081043411 0.20307449 -0.75958431 0.61789364 0.0039992291
0.03151127 0.0073150434 0.0076540122 0.26783431 -0.76720643 0.58280271 0.0039892299
0.034374587 0.0080859065 0.0073648482 0.28255591 -0.79331225 0.53927535 0.0031431394
0.037056729 0.0086366637 0.0067226444 0.33449844 -0.80978453 0.48203722 0.0018498717
-0.039486855 0.011735613 0.0064751478 -0.39842582 -0.81598318 0.41884175 0.00095544633
-0.037373643 0.011144614 0.0073180809 -0.36610669 -0.81338972 0.45206532 0.00093194959
-0.034537464 0.010036564 0.0076337592 -0.33354843 -0.82595962 0.45446247 0.00095271546
-0.031815842 0.009405016 0.0083375173 -0.29916671 -0.82961857 0.47141519 0.0010621212
0.035356402 0.0093858363 0.0086611956 0.24233209 -0.695499 0.67642903 0.001640741
0.037715409 0.009742775 0.0079917656 0.31456107 -0.78336334 0.53609067 0.0033314489
0.040406827 0.010645762 0.0075736814 0.33877423 -0.79794395 0.49851528 0.0017517026
0.043102715 0.011471807 0.0069497526 0.39317909 -0.78473407 0.47916877 0.0022956766
-0.045021124 0.014919181 0.0066711563 -0.5033958 -0.77785009 0.37622064 0.003528059
-0.043219704 0.014126222 0.0073064398 -0.46771315 -0.7720046 0.43041077 0.0012051291
-0.040609326 0.012878759 0.0076893405 -0.42098767 -0.80151087 0.42467609 0.00076763419
-0.038147733 0.012283974 0.0086354492 -0.36535966 -0.78494239 0.50037754 0.00024290956
0.041902963 0.012157968 0.0087634772 0.31817168 -0.68225789 0.65824836 0.0016573444
0.043876547 0.012707554 0.0082520423 0.36000958 -0.75760311 0.54445451 0.0036556264
0.046445675 0.01359735 0.0074510383 0.40971464 -0.7736451 0.48332933 0.0019075163
0.048854891 0.014520535 0.0067738653 0.46747091 -0.75487709 0.46003446 0.0023634266
-0.048707955 0.017443333 0.0069836639 -0.51716638 -0.74580544 0.41989678 0.0014437492
-0.046543568 0.016368344 0.0075842524 -0.48158401 -0.75965083 0.43704399 0.001179873
-0.044311415 0.01541549 0.0083488757 -0.44991907 -0.77101856 0.45066968 0.0016475522
0.047838025 0.015437339 0.0089400532 0.42016771 -0.67522609 0.60624152 0.0030331642
0.049749993 0.015848566 0.0079285791 0.43133199 -0.73170352 0.52779037 0.0033407186
0.052225076 0.017038377 0.0072247083 0.50270927 -0.70229411 0.5040499 0.002301642
-0.052131891 0.020132398 0.0072954125 -0.54165202 -0.71853065 0.43626457 0.0013551472
-0.049864739 0.018791089 0.0078426469 -0.51861924 -0.73009378 0.44496867 0.0013054203
0.053242289 0.018554648 0.0082907071 0.51442105 -0.70257968 0.49168369 0.0017086106
0.055477098 0.019552426 0.0074408948 0.52060616 -0.69958258 0.48944193 0.0021637536
0.057675682 0.020657841 0.0065802112 0.56034648 -0.6646502 0.49421847 0.0015022255
-0.057341971 0.023809822 0.0064257109 -0.60751909 -0.66734296 0.43078282 0.0012607352
-0.055367172 0.022711197 0.0073993024 -0.5866136 -0.7018711 0.40405619 0.00065243401
-0.053295497 0.021570135 0.0082612755 -0.539168 -0.70227587 0.46487254 0.0023805778
0.056515664 0.02125147 0.0084913708 0.54343998 -0.62216121 0.56354976 0.0015851482
0.058556307 0.022348829 0.0076335995 0.55092609 -0.64017636 0.5354014 0.0031337326
0.060490333 0.023415193 0.0067291199 0.61863905 -0.59380883 0.51446742 0.0016812684
-0.060267467 0.026783155 0.006537437 -0.65873611 -0.60237539 0.45078892 0.0012831257
-0.05843747 0.025567062 0.0074805398 -0.63419193 -0.64589626 0.42499241 0.0010241107
-0.056593787 0.024531728 0.0085172169 -0.57828641 -0.61314917 0.53817564 0.00073371583
0.059593424 0.02443666 0.0088198483 0.53894007 -0.52457428 0.65906411 0.001716027
0.06154684 0.025490673 0.0076675713 0.65318912 -0.5209794 0.5494765 0.0030126278
0.063356899 0.026476957 0.006546617 0.66909379 -0.52803504 0.52296513 0.0016709118
-0.061291445 0.028640501 0.0073813186 -0.6964379 -0.54632539 0.46529856 0.0020865879
-0.059565302 0.027514683 0.0084583471 -0.63576275 -0.58118844 0.50796223 0.0023042741
0.06259004 0.027706094 0.0085636871 0.62579715 -0.45367146 0.63447624 0.00068586593
0.064209543 0.028644206 0.0074135568 0.68849307 -0.45360857 0.56587684 0.0033635015
0.066109195 0.029864592 0.0060443133 0.74718726 -0.45482677 0.48460686 0.0019291643
-0.063842036 0.031821158 0.0071346769 -0.72243124 -0.48837781 0.48946932 0.0025464797
-0.06240711 0.030916339 0.0082545653 -0.71001107 -0.47094324 0.52354234 0.0031646229
0.065219857 0.031229818 0.0081367651 0.70813155 -0.35656226 0.60943669 0.002816851
0.06668961 0.032007933 0.0068376781 0.73049921 -0.39052594 0.56023234 0.0026254195
-0.066340744 0.035298083 0.0066399886 -0.75556356 -0.43369094 0.49095407 0.0023269707
-0.064921334 0.034255017 0.0077563734 -0.74873328 -0.44862726 0.48798785 0.0026941129
0.028197743 0.034877583 0.0080732182 -0.26641271 0.71162677 0.65008581 0.0011827149
0.065494403 0.033296317 0.0089541143 0.6473518 -0.33599076 0.68413883 0.0030091824
0.06717816 0.034527723 0.0077014463 0.73513567 -0.29271033 0.61147046 0.0023123689
-0.066984735 0.037666362 0.0073574684 -0.74526793 -0.34630686 0.56977826 0.0036795218
-0.065632105 0.03673619 0.0085319476 -0.70703459 -0.31836244 0.63146442 0.0034236179
0.033208676 0.036942974 0.0078087058 -0.29952079 0.72932744 0.61511689 0.00049216137
0.036153372 0.038191732 0.0079766018 -0.36354566 0.7054255 0.60844833 0.00072945433
0.067870073 0.037044264 0.0079709394 0.74568748 -0.2112865 0.63190836 0.0020936541
0.069414034 0.038600951 0.0065558348 0.7573061 -0.22470373 0.61318493 0.0030951847
-0.069268227 0.041259017 0.0063024471 -0.77146429 -0.29010642 0.5662871 0.0034919358
-0.06781856 0.04044475 0.007677143 -0.7376169 -0.26673257 0.62030232 0.004609087
0.037609588 0.03945338 0.0072740023 -0.36359048 0.70579576 0.60799199 0.00060496619
0.040891927 0.040948428 0.007879667 -0.40029475 0.6903764 0.60261476 0.0010185308
0.044039864 0.041977603 0.0089996671 -0.40346092 0.6759941 0.61664522 0.0013858438
0.067861222 0.04042488 0.0088226991 0.66691107 -0.11170243 0.73671716 0.0024541907
0.069123097 0.040418535 0.0074466555 0.73605055 -0.11781908 0.66659456 0.0027622797
-0.069615304 0.043600064 0.0067082699 -0.73643744 -0.19395182 0.64810693 0.0035698775
-0.068214051 0.043428522 0.0081529124 -0.70350194 -0.12134356 0.70025766 0.0039925338
0.041986596 0.042624645 0.0063897343 -0.41919541 0.70168561 0.57611841 0.00023623114
0.043697998 0.042937126 0.0074787401 -0.40251404 0.68713057 0.60484219 0.0010241461
0.046195 0.044074412 0.0079677552 -0.40623122 0.66661489 0.62498051 0.00099696417
0.06815397 0.043625351 0.0088038919 0.62413794 -0.0025319813 0.78131002 0.0028468675
0.069238529 0.043369852 0.0077373497 0.70498753 -0.040625125 0.70805514 0.0027276396
-0.069983035 0.046618916 0.0069651096 -0.70433211 -0.10325935 0.70232034 0.0067382408
-0.068173327 0.046388935 0.0084557189 -0.57275212 -0.021399131 0.81944925 0.0032310679
0.047160793 0.045502797 0.0068656267 -0.39133054 0.67760795 0.62266189 0.00048817261
0.049499761 0.04627049 0.0076890797 -0.38666508 0.67024481 0.63345248 0.00055941805
0.052306809 0.047332905 0.0083263256 -0.34903148 0.66658038 0.65867114 0.0033102981
0.068399198 0.046773106 0.0084222518 0.57010722 0.095672548 0.81598067 0.0035228953
0.069892086 0.046261285 0.0069595389 0.66334498 0.099599034 0.74165589 0.0023171017
-0.070342854 0.049470562 0.0069297655 -0.5913468 -0.0063985186 0.80639195 0.010313528
-0.067910217 0.049735483 0.0084091816 -0.45298347 0.13832322 0.88072288 0.0073478986
-0.065851249 0.050978143 0.0089198807 -0.15870631 0.40765202 0.89923978 0.0084290989
0.050658733 0.048087027 0.0062617259 -0.39689547 0.69733793 0.5968197 0.00064105535
0.052778378 0.048641805 0.0071655805 -0.36776373 0.67847502 0.63594139 0.0022088459
0.055351421 0.04952991 0.0077630198 -0.3655647 0.66366774 0.6526159 0.0030608324
0.058370825 0.050724301 0.0080932705 -0.31130913 0.62452495 0.71627867 0.005807485
0.060841441 0.050858933 0.0088272812 -0.20087606 0.5924502 0.7801612 0.0084072752
0.065960504 0.050949283 0.008796514 0.25005654 0.3713102 0.89420384 0.021967852
0.067865439 0.049932241 0.0082286615 0.40337107 0.25561842 0.87860739 0.0071165357
0.069545917 0.049277153 0.0070466702 0.60665768 0.1379662 0.78289956 0.0058112335
-0.070379972 0.052556586 0.0068559521 -0.44602683 0.10582277 0.88874155 0.010155273
-0.067555584 0.052561603 0.0078765601 -0.18511353 0.34198174 0.92129332 0.0061650076
-0.064671233 0.052476265 0.0083115343 -0.15878256 0.40767586 0.89921552 0.0084296213
-0.06181062 0.052388072 0.0083257668 -0.023838446 0.52246493 0.85232753 0.0026039388
-0.058996134 0.051960461 0.0083062164 0.077746339 0.61966652 0.78100502 0.001785163
-0.054938272 0.051312093 0.0079067675 0.13540088 0.61830914 0.77418369 0.00099825871
0.056579769 0.051271223 0.0066402536 -0.37668473 0.66736239 0.64244527 0.002572804
0.05929599 0.052352965 0.0070241578 -0.35778308 0.64376146 0.67643356 0.0017558687
0.061763223 0.052737277 0.0076629394 -0.27881855 0.61341858 0.73890316 0.0041240002
0.064469166 0.052491084 0.0082777552 0.089401044 0.4143348 0.90572298 0.0074755154
0.067431591 0.052544568 0.007747293 0.31700826 0.31118369 0.89591879 0.013183261
0.069706783 0.052451856 0.0064354446 0.5740642 0.1392526 0.80688232 0.008268103
-0.0703611 0.055290915 0.0064300708 -0.18345068 0.23835048 0.95369542 0.014587347
-0.067521825 0.055253647 0.0068062227 -0.012140127 0.41456968 0.90993655 0.011253498
-0.064981543 0.054670125 0.0069349399 0.0089004086 0.5176214 0.85556346 0.0035169055
0.064655699 0.055270389 0.0067084436 -0.18422417 0.52777004 0.82916844 0.012889287
0.067406803 0.055622779 0.0066296249 0.1022995 0.32866824 0.93888873 0.020187806
0.069308236 0.054899871 0.0062282179 0.30426192 0.25294864 0.91839081 0.013806401
0.067884862 0.05724911 0.0060286289 0.02812786 0.33299613 0.94250852 0.020025717
-0.018732285 0.0058145374 0.0091988444 -0.21661606 -0.79432893 0.56755531 0.00061741186
-0.016295666 0.0055722026 0.0096263541 -0.16976643 -0.79176778 0.58675641 0.00076517853
-0.013463497 0.0053132037 0.010016339 -0.13744774 -0.78178078 0.60821617 0.0010511446
-0.01043379 0.0050510783 0.010257185 -0.10311703 -0.77219939 0.62695694 0.0010240971
-0.007449246 0.0048384154 0.010372214 -0.06812641 -0.75765973 0.64908433 0.0010378209
-0.0044627618 0.0047793868 0.010527783 -0.028155671 -0.76232004 0.64658749 0.00143167
-0.0014690087 0.0047079162 0.010477138 -0.013399175 -0.75638664 0.65398747 0.0015323074
0.0015153625 0.0047286344 0.010502367 0.012167803 -0.73814929 0.67452765 0.00084021292
0.0044731582 0.0047564558 0.0104364 0.047955468 -0.73885304 0.67215812 0.00092239608
0.0075004403 0.0048616882 0.010284634 0.066702604 -0.74080437 0.66840082 0.001094821
0.010448138 0.0049277125 0.010129884 0.086874142 -0.74934655 0.65645468 0.0013314823
0.013347298 0.0051871235 0.0099613685 0.11671589 -0.75033754 0.65066963 0.0014109678
0.016277002 0.005472064 0.0097183017 0.13604343 -0.75205976 0.64490181 0.0010529738
0.018960435 0.0057961009 0.0094042569 0.15456392 -0.7454114 0.64843798 0.00059729518
-0.02784333 0.0086807106 0.0093992464 -0.27696052 -0.79174799 0.54445213 0.00057629379
-0.02532676 0.0082296673 0.0099470764 -0.2503069 -0.7866655 0.56436151 0.00081604486
-0.022391748 0.0077779419 0.010490458 -0.20859337 -0.76481587 0.60954535 0.0010190352
-0.019530047 0.0070561785 0.010614797 -0.19087148 -0.7769326 0.59995317 0.00073676417
-0.016622068 0.0067367889 0.011109781 -0.15184416 -0.76840937 0.62168342 0.001109591
-0.013657868 0.0065241717 0.0115021 -0.11914752 -0.70764774 0.69644701 0.0014564411
-0.010817551 0.0063511604 0.011756456 -0.081646875 -0.69230366 0.71697235 0.0013309297
-0.0077224635 0.0061274166 0.011820957 -0.051457781 -0.73034889 0.68113345 0.0011547535
-0.0056480914 0.0060969959 0.011920385 -0.022424353 -0.68894035 0.72447115 0.0026240884
-0.0012559308 0.0060132523 0.01194888 -0.0023943048 -0.714719 0.69940764 0.00093959231
0.001196171 0.0060302801 0.011961766 0.016559422 -0.70868003 0.70533556 0.0010388844
0.0045066099 0.0061038979 0.011908277 0.043081518 -0.7061609 0.70673949 0.0010053236
0.0074503054 0.0062303417 0.011775503 0.059342746 -0.71373129 0.69790131 0.0013730254
0.010658507 0.0063687288 0.01159875 0.080243871 -0.71173841 0.69784629 0.0012718901
0.013567062 0.0066130217 0.011436062 0.10803152 -0.72031188 0.68518609 0.0016376664
0.016636195 0.0068322602 0.011152294 0.13115329 -0.65631008 0.74300456 0.0020657796
0.019590026 0.0071639912 0.010812354 0.15989761 -0.67484266 0.72043049 0.0014337053
0.022454113 0.0076204902 0.010560755 0.17922729 -0.68151712 0.70951527 0.00073190912
0.025431285 0.0079953447 0.010118607 0.18802363 -0.6847263 0.7041285 0.00045450535
0.028371986 0.0083555412 0.0097363535 0.19546542 -0.67983395 0.70683736 0.00039174702
0.031231619 0.0086901849 0.0093291178 0.21018359 -0.68086308 0.70160407 0.00081300066
-0.03630976 0.011842921 0.009243031 -0.36613584 -0.76586986 0.52857149 0.00077651977
-0.034183156 0.011374622 0.0099840369 -0.33212447 -0.76868296 0.54664421 0.0009088018
-0.031498563 0.0107623 0.010550835 -0.27123767 -0.77503181 0.57075018 0.0014083104
-0.028652014 0.0099400235 0.010805432 -0.26335543 -0.77541745 0.57390916 0.0007847044
-0.025764357 0.0094261402 0.01143667 -0.2263395 -0.72724938 0.64798057 0.0012500557
-0.023520568 0.0090724034 0.011779127 -0.20581831 -0.73070639 0.6509279 0.0028945573
0.023588849 0.0091353506 0.011826638 0.18057626 -0.67124742 0.71890134 0.00081533118
0.025756409 0.0094879251 0.011515669 0.18371081 -0.66377431 0.72501993 0.00065305288
0.028535854 0.0099754361 0.011159769 0.19264635 -0.62141645 0.75942677 0.00085644989
0.031558614 0.010431818 0.010739935 0.19858027 -0.62351424 0.75617194 0.00028889964
0.03441612 0.010603448 0.010152129 0.22603384 -0.66639322 0.71051311 0.0011720831
0.0373694 0.011161046 0.0097512184 0.26233518 -0.68881184 0.6758095 0.0020055363
0.039925683 0.011793215 0.0093117235 0.30515173 -0.69685274 0.64905983 0.0015431363
-0.04226372 0.014903838 0.0093893511 -0.44324338 -0.73085797 0.51902014 0.00065728847
-0.040251978 0.014226415 0.010032834 -0.38990191 -0.73539245 0.55423319 0.00088872924
-0.037556715 0.013384456 0.010630452 -0.34419537 -0.75313646 0.56063795 0.00075073953
-0.0348958 0.012578548 0.011221863 -0.32081521 -0.73618639 0.59590876 0.0011148632
-0.03273502 0.012236133 0.011944606 -0.30088159 -0.70761222 0.63933969 0.0015444357
0.032374479 0.01223433 0.011970077 0.19716179 -0.58904183 0.78368163 0.00033797833
0.034669954 0.012535595 0.01161974 0.20966318 -0.59301239 0.7774173 0.00010540016
0.037646409 0.013041453 0.011192953 0.22954707 -0.58036631 0.78133422 0.00062787399
0.040477686 0.013485009 0.010635775 0.26046646 -0.59842885 0.75765443 0.00095717644
0.043263189 0.014005317 0.0099979378 0.33020177 -0.64297032 0.69105422 0.0029191037
0.045470998 0.014525482 0.0093373787 0.38239613 -0.67637312 0.62951779 0.0014583233
-0.045864008 0.017433062 0.009795256 -0.46421972 -0.70916146 0.53065062 0.00097677845
-0.043535061 0.016522652 0.010504425 -0.43956324 -0.71915329 0.53814751 0.00028667744
-0.040970452 0.015579419 0.011320204 -0.38584834 -0.70606691 0.59379333 0.0010079448
0.041305497 0.015340634 0.011824576 0.24184905 -0.55295998 0.7973358 0.00055719685
0.043775376 0.015948631 0.011356488 0.28633627 -0.54795367 0.78597605 0.0012433726
0.046472512 0.016454747 0.01058366 0.33870655 -0.6086024 0.71755201 0.0030774181
0.049055461 0.01713095 0.009861324 0.42421442 -0.61964661 0.66036361 0.0035342448
0.051077764 0.017778633 0.0091908425 0.4309825 -0.65716094 0.61837983 0.0030802786
-0.05125111 0.020680811 0.0091042956 -0.50756478 -0.6898675 0.5161984 0.0015588874
-0.04921804 0.020035904 0.010155906 -0.48662126 -0.67801058 0.55090964 0.0011137829
-0.046823703 0.018918695 0.010915033 -0.45849738 -0.6851384 0.56600839 0.0011222244
-0.044582352 0.01824237 0.011856339 -0.42878458 -0.6598565 0.61703581 0.002010412
0.04745074 0.018377295 0.011665523 0.32490844 -0.55105901 0.76861465 0.0020464002
0.049780533 0.019200169 0.011116618 0.36235675 -0.52520329 0.76997346 0.0010654016
0.052336358 0.019726122 0.01009488 0.45245919 -0.57954717 0.67779481 0.0028247451
0.054572813 0.020629516 0.0094993953 0.48795271 -0.59912801 0.6347816 0.0011945674
-0.054592106 0.023653764 0.009525056 -0.56048959 -0.61615574 0.55335671 0.0013515231
-0.052362915 0.02260007 0.010401007 -0.49925286 -0.64154416 0.58238095 0.0018989814
-0.050134335 0.021676006 0.011305805 -0.47164997 -0.63584203 0.61094278 0.0010087584
0.052884292 0.021895036 0.011435274 0.38728794 -0.47124815 0.79242241 0.0008556876
0.05543837 0.022629084 0.010378529 0.46920174 -0.49710795 0.72988588 0.0020147848
0.057697807 0.023314523 0.0094090309 0.52866316 -0.55020905 0.64636308 0.0024129003
-0.057547111 0.02651963 0.0096177412 -0.60393649 -0.57474625 0.55220228 0.00057442224
-0.055508021 0.025502196 0.010587171 -0.5426482 -0.54898703 0.63572502 0.0010131426
-0.053489152 0.024421342 0.01139741 -0.52725548 -0.59835511 0.60330153 0.00098830252
0.056026544 0.024928873 0.011490717 0.41939411 -0.41695836 0.80638355 0.00078109751
0.058386538 0.02552801 0.010432045 0.49934337 -0.44124717 0.74562538 0.0020341396
0.060445864 0.026401773 0.0095144799 0.57777655 -0.48728257 0.65477473 0.0021526983
-0.060369369 0.029578203 0.0094327107 -0.62396872 -0.51415247 0.58848131 0.001300449
-0.058447544 0.028503494 0.010478126 -0.58768284 -0.46882534 0.65941769 0.0010800296
-0.056494258 0.027494693 0.011529993 -0.56691736 -0.52941245 0.63113159 0.00088388956
-0.01072313 0.029454639 0.011736205 0.16083781 0.61380821 0.7728976 0.0014901489
-0.0077403863 0.029985068 0.010403831 0.12728189 0.64074951 0.75712574 0.00079748803
-0.0047955625 0.028635781 0.011331268 0.1128483 0.64803141 0.75320691 0.00097605248
-0.0016592768 0.028472224 0.011040775 0.093704976 0.61030895 0.78660184 0.00087433384
0.0015635482 0.027996572 0.011229455 0.052440457 0.60213524 0.79667002 0.00087481743
0.004633103 0.027935814 0.01118013 0.01776679 0.59825218 0.80111086 0.00070383109
0.0075764707 0.027962886 0.011164635 -0.028318906 0.58959222 0.80720448 0.00072717003
0.0099707851 0.028059147 0.011270988 -0.062204573 0.57773221 0.81385261 0.00089129148
0.013495173 0.028231949 0.011469186 -0.075034603 0.62046283 0.78063804 0.00067437621
0.016049871 0.029228436 0.010957614 -0.10719848 0.63389319 0.76595563 0.0013252847
0.020056173 0.028997602 0.011925997 -0.15889582 0.60904789 0.77705395 0.0017363306
0.022412704 0.029585671 0.011940425 -0.17622423 0.58403629 0.79236782 0.0013642195
0.058962055 0.028076565 0.011473761 0.45345566 -0.35550943 0.81730711 0.0012003961
0.061276458 0.028681569 0.010222893 0.56706828 -0.41329771 0.71247357 0.0019876529
0.063505739 0.029749887 0.009002815 0.635885 -0.41051945 0.65354729 0.0022405786
-0.061173189 0.031670339 0.010149499 -0.63538527 -0.42519197 0.64459085 0.002103427
-0.059313811 0.030935541 0.011429369 -0.60395008 -0.38105553 0.70002925 0.0018177015
0.017400222 0.03005534 0.010244538 -0.14797431 0.66676384 0.7304312 0.00060321391
0.019405037 0.030419653 0.01045902 -0.150544 0.66084468 0.73526913 0.00055413094
0.022663822 0.030994603 0.010833073 -0.18326497 0.62498677 0.75881851 0.00033492333
0.025708036 0.031568877 0.011127668 -0.20185363 0.62874496 0.750956 0.00061142951
0.028701156 0.032035921 0.011561227 -0.22771028 0.65621459 0.71939582 0.004658815
0.030368203 0.032167494 0.011992274 -0.20864445 0.58466071 0.78398943 0.0022578149
0.059966221 0.030385908 0.011792874 0.48731026 -0.28834653 0.82424808 0.00084059464
0.061669081 0.031400025 0.011167832 0.5076946 -0.29738539 0.80858403 0.0014471986
0.063758709 0.031504437 0.0096962899 0.62118804 -0.34004506 0.70604157 0.0020504561
-0.063587941 0.034834094 0.0096362857 -0.66123992 -0.36718106 0.65417111 0.0016497762
-0.061835058 0.034274463 0.011015405 -0.60747856 -0.3341687 0.7206254 0.0022333497
0.028993074 0.033882808 0.0098350709 -0.23710346 0.68696415 0.68692225 0.0015049706
0.031481765 0.033843048 0.010826721 -0.26115212 0.66164249 0.70287174 0.0025994242
0.034341909 0.034927584 0.010897075 -0.29981938 0.66824174 0.68085337 0.0038530612
0.036538243 0.035211969 0.011598251 -0.30376628 0.59974587 0.74029112 0.0014734004
0.062387373 0.034042768 0.011588876 0.53526932 -0.20817757 0.81862622 0.0020731599
0.064266667 0.034569152 0.01045226 0.5823195 -0.23553111 0.77809322 0.0017981267
0.066077128 0.03537593 0.0092595303 0.61824149 -0.27354938 0.7368502 0.0029075306
-0.064299084 0.037622306 0.010194036 -0.63873589 -0.26055062 0.72396809 0.0025248316
-0.062371664 0.037134524 0.011623771 -0.55809116 -0.19743378 0.80594921 0.0021112103
0.033349574 0.036015101 0.0092236493 -0.29280224 0.7182427 0.63118476 0.00095595367
0.037652247 0.037194259 0.010178596 -0.33886293 0.67793387 0.65236312 0.0025884439
0.040374141 0.037639037 0.011180951 -0.30653822 0.58265108 0.75269651 0.00089167501
0.043225121 0.038789611 0.011542316 -0.29888067 0.58677334 0.75257385 0.0016354873
0.062591776 0.036398582 0.0119435 0.47066411 -0.095591515 0.87711883 0.0038713869
0.064671673 0.037525963 0.010838253 0.56391811 -0.14556204 0.81290096 0.0019079592
0.066804521 0.03794064 0.0093687428 0.66138965 -0.16168366 0.73240852 0.0027647614
-0.066338949 0.040935621 0.0093650138 -0.65179664 -0.18241571 0.73612887 0.0025508588
-0.064579546 0.040441446 0.0106523 -0.5833292 -0.12439355 0.80265397 0.004140235
-0.06286747 0.040515631 0.011819135 -0.53123909 -0.055771179 0.8453843 0.0026811941
-0.041824829 0.041605677 0.01198638 0.26089028 0.59502745 0.76018327 0.00017072863
0.041023359 0.039344281 0.0099080065 -0.37853688 0.64114833 0.66756171 0.0026912366
0.043631397 0.040628992 0.010109208 -0.3663314 0.62720603 0.68732375 0.0024783683
0.046125535 0.040776502 0.011200693 -0.31115073 0.5612691 0.76691729 0.0019483297
0.04842253 0.041172002 0.011812311 -0.23803248 0.49968538 0.83285958 0.0024250841
0.064647488 0.040497292 0.011167841 0.47164261 -0.015892843 0.88164651 0.0034440714
0.066731907 0.040718716 0.0098088868 0.60034525 -0.04802791 0.79829752 0.0023970488
-0.066717103 0.043638069 0.0094331186 -0.61038822 -0.054712091 0.79021055 0.0040906109
-0.064448617 0.043422863 0.010959354 -0.48369974 0.039983477 0.87432027 0.003901595
-0.062588342 0.044031136 0.011869526 -0.40151978 0.086792096 0.91172862 0.0037571511
-0.045722011 0.043835729 0.011558115 0.24258468 0.59726918 0.76447517 0.00032988295
-0.043169133 0.042914663 0.011344386 0.24216656 0.59369326 0.76738757 0.00038180494
0.047093689 0.042922553 0.0098224357 -0.37819454 0.63370037 0.67482787 0.0018922826
0.049477041 0.043161213 0.010704583 -0.30974412 0.59744823 0.73967165 0.0016192715
0.052439895 0.043618452 0.011419456 -0.23962277 0.51953739 0.82015967 0.0010762851
0.055547513 0.044287998 0.011765626 -0.16296133 0.45802611 0.87387395 0.0028928053
0.058309473 0.044775061 0.011871907 -0.027382281 0.37571976 0.92632866 0.003746063
0.06202681 0.044368073 0.011730621 0.1781479 0.21656105 0.95987743 0.0090974094
0.064440601 0.043586697 0.011138571 0.39358708 0.11485605 0.91208404 0.0060164612
0.066717528 0.043428667 0.00993618 0.54573816 0.043760955 0.83681226 0.0031479914
-0.066603281 0.046501637 0.009468901 -0.52314883 0.07191854 0.84920144 0.005009999
-0.064548686 0.046593323 0.010528546 -0.39579818 0.19005899 0.89845496 0.0073990454
-0.061715182 0.046624906 0.011577819 -0.25539166 0.3339195 0.90734392 0.0091272984
-0.058729742 0.047413822 0.011634219 -0.027821021 0.4544532 0.8903361 0.002379952
-0.055402368 0.047183082 0.011578325 0.10680471 0.54040742 0.83459717 0.0030589786
-0.0527579 0.046866521 0.01128325 0.1405296 0.55596155 0.81924248 0.002340497
-0.049526371 0.045831013 0.011163956 0.20610735 0.59989315 0.77307695 0.00061664247
-0.047020141 0.045345716 0.010680846 0.23538274 0.59675574 0.76712286 0.00023948932
0.050367221 0.045190379 0.009420583 -0.36083028 0.65595305 0.6629684 0.001946126
0.052502163 0.045726821 0.0098989559 -0.28490567 0.60719031 0.74172008 0.0025538481
0.05553256 0.046476487 0.010407614 -0.23650034 0.55773026 0.79561591 0.0021609059
0.058483806 0.046603974 0.010969604 -0.038939808 0.40410197 0.9138847 0.0031726095
0.061509095 0.046486769 0.011108339 0.075722136 0.35113752 0.93325698 0.0056883302
0.064445011 0.046557803 0.010550421 0.31035432 0.24549571 0.91837472 0.0071246666
0.06688568 0.046393484 0.0095571717 0.50744367 0.14941166 0.8486324 0.005750848
-0.066636041 0.048979662 0.0091628283 -0.36319205 0.22210862 0.90485322 0.0081002051
-0.064488932 0.049528081 0.0097156074 -0.24834289 0.28739998 0.92505509 0.0053616259
-0.061510097 0.049279209 0.010373713 -0.09550029 0.47207361 0.87637103 0.008468763
-0.058579613 0.049271751 0.010493479 -0.01330875 0.5127154 0.85845554 0.0028806578
-0.055931546 0.048951693 0.01039166 0.1170727 0.59535831 0.79488516 0.0028393746
-0.052766453 0.048849668 0.0095137758 0.15429173 0.6138472 0.77420002 0.0013699627
0.058797598 0.048920568 0.0096267154 -0.21181309 0.56098187 0.80027151 0.0053704241
0.061681136 0.049250271 0.0098787062 -0.048820361 0.45712638 0.88806081 0.0057369885
0.06439396 0.049447503 0.009651023 0.16409142 0.34810224 0.92298365 0.0078833904
0.066515006 0.048892792 0.0092246905 0.40584153 0.25730586 0.87697566 0.0071970108
-0.064691991 0.051252283 0.0090091098 -0.17050725 0.3903257 0.90475029 0.0080143027
-0.062329374 0.051157229 0.0092397751 -0.077999406 0.4767327 0.87558097 0.0085622864
-0.02146833 0.0088062854 0.012107313 -0.19053821 -0.74121481 0.64365816 0.0013648375
-0.019299118 0.0085968953 0.012485821 -0.16813974 -0.67900312 0.71462137 0.0015848043
-0.016440531 0.0081904139 0.012666793 -0.1340183 -0.69652724 0.70490348 0.0014146442
-0.013458551 0.0080012456 0.012935326 -0.10084479 -0.67446935 0.73138332 0.0011968537
-0.010493485 0.0077653038 0.013084733 -0.065025292 -0.65550172 0.75238895 0.001178454
-0.0075023114 0.0076541887 0.013159207 -0.033598259 -0.64060503 0.76713508 0.0012498366
-0.0045047947 0.007509178 0.013166102 -0.013366998 -0.62479305 0.78067589 0.0011109333
-0.0015135059 0.007473229 0.013149584 0.0065494496 -0.59453386 0.80404395 0.0026098439
0.0015170213 0.0075115832 0.013126468 0.024287581 -0.60324079 0.79718924 0.0016149897
0.0045046457 0.0075565446 0.01305044 0.045352258 -0.59503263 0.80242097 0.0016463109
0.0074916221 0.0077091195 0.012979141 0.062927477 -0.59393406 0.80204892 0.0019736579
0.010383879 0.0078326939 0.01285264 0.079342641 -0.58979374 0.8036468 0.0018303521
0.013496532 0.0081093805 0.012703017 0.09555231 -0.59661126 0.79682159 0.0019415036
0.016452366 0.0083336355 0.012489234 0.11233912 -0.61111742 0.78352755 0.0020574017
0.019254383 0.008613185 0.01223954 0.13688566 -0.63714427 0.75849169 0.0021498804
0.021157572 0.0089273192 0.012150552 0.16192003 -0.65661258 0.7366423 0.0015344988
-0.030651581 0.011843508 0.012312753 -0.25830352 -0.700674 0.66508299 0.0015024459
-0.028291952 0.011433419 0.012726417 -0.23733528 -0.6823923 0.69138461 0.0013546679
-0.025450006 0.010850726 0.013053224 -0.20775254 -0.69989723 0.68336129 0.0012773216
-0.022478383 0.010511041 0.013473403 -0.17975757 -0.64245605 0.74494129 0.0010749634
-0.019592747 0.010344788 0.013955262 -0.13688195 -0.60502607 0.78435123 0.00097664178
-0.016574457 0.010063212 0.014225085 -0.10470999 -0.58023459 0.80769032 0.0012709522
-0.013535903 0.0098689031 0.014411737 -0.077057786 -0.55276471 0.82976699 0.0017417996
-0.010520619 0.009705428 0.014545947 -0.045469578 -0.52809536 0.84796679 0.0019393975
-0.007510128 0.0096586999 0.014604939 -0.01834299 -0.50441283 0.86326784 0.0021380372
-0.0044644177 0.0096392483 0.014630733 -0.00066513091 -0.48713118 0.87332857 0.002212259
-0.0014126552 0.0096743787 0.014610779 0.016387813 -0.47302172 0.8808983 0.0022041101
0.0015300247 0.0097945025 0.014593402 0.029508393 -0.46280983 0.8859663 0.0021670465
0.0044661742 0.009871209 0.014505468 0.044077929 -0.45804784 0.88783407 0.0018755293
0.0074849101 0.010183339 0.014486072 0.056658786 -0.45645249 0.8879419 0.0016133094
0.010515526 0.010277985 0.014306718 0.073198617 -0.4596324 0.88508761 0.0011389911
0.013431143 0.01055835 0.014169837 0.087364838 -0.46261433 0.88224447 0.00097028306
0.01647329 0.010473672 0.013818052 0.10301088 -0.46611038 0.8787092 0.0010371124
0.019502582 0.010456361 0.013432553 0.12274217 -0.50253356 0.85580045 0.0032225328
0.022458151 0.010531752 0.013029968 0.14297611 -0.53777713 0.83087516 0.0025139477
0.025384836 0.010874542 0.012716205 0.1576805 -0.56532973 0.80965376 0.0025289191
0.02837521 0.011463813 0.012493926 0.1801627 -0.56694919 0.8038097 0.00083766604
0.030758912 0.011789571 0.012075089 0.1974977 -0.60262448 0.77320015 0.00053937727
-0.036849376 0.014616963 0.012531952 -0.32898968 -0.68892425 0.6458708 0.0015516457
-0.034360137 0.014038546 0.013062252 -0.30841315 -0.66475666 0.6804263 0.0019839029
-0.031553816 0.01351819 0.013643241 -0.231298 -0.62975174 0.74156183 0.00079097919
-0.028666288 0.013131862 0.014171747 -0.20493461 -0.60260063 0.77128088 0.0013861024
-0.02563983 0.012556002 0.014508213 -0.17780824 -0.63342571 0.75309771 0.0011097622
-0.0228587 0.012284518 0.014859058 -0.14592507 -0.61215228 0.77715844 0.0013833684
0.014034788 0.012235162 0.014926783 0.073147923 -0.31331679 0.94682735 0.0022954866
0.016497707 0.012495936 0.014814875 0.090473816 -0.34408379 0.93456984 0.0022946214
0.019577572 0.01288057 0.014638014 0.10671488 -0.37495476 0.9208805 0.0020128109
0.02258718 0.013321128 0.014476915 0.11929572 -0.40444499 0.90674853 0.0013782245
0.025513491 0.013439 0.014158862 0.12820254 -0.42117956 0.89787078 0.00133297
0.028509321 0.013465767 0.013710367 0.1488525 -0.44542661 0.88285786 0.0015684518
0.031409632 0.013472444 0.013124538 0.18168907 -0.51726031 0.83631992 0.0018588187
0.034353014 0.013987964 0.012741734 0.19493294 -0.5388155 0.81956029 0.00089135382
0.037170965 0.014514353 0.012334935 0.2130869 -0.55105025 0.80680704 0.00061645027
0.039494142 0.014989665 0.012070146 0.24314663 -0.5716005 0.78367883 0.00093178061
-0.042617351 0.017512619 0.012324122 -0.4110963 -0.64146304 0.64770758 0.002127562
-0.040328443 0.016914334 0.013073051 -0.34647521 -0.6395039 0.68628693 0.0016816683
-0.03764572 0.016337566 0.013803856 -0.28751296 -0.59633601 0.74947965 0.00079240941
-0.034773983 0.015796527 0.014457125 -0.25699991 -0.56934565 0.7808947 0.001928898
-0.032592475 0.01532769 0.014867127 -0.21825796 -0.60152835 0.76845759 0.0017889357
0.025938919 0.015441995 0.014888693 0.10115135 -0.27330479 0.95659441 0.0022274749
0.02865186 0.015789203 0.01472239 0.12056656 -0.33178622 0.93561834 0.0026566577
0.03163309 0.016129551 0.014477948 0.14135645 -0.38314456 0.91280812 0.0021235934
0.034553286 0.016506268 0.014149184 0.147021 -0.40556121 0.90216678 0.0031210624
0.037565283 0.016501609 0.013480928 0.2000206 -0.48009825 0.85410619 0.0006811709
0.040432822 0.016653778 0.012836049 0.22127521 -0.49296677 0.84143984 0.00092051318
0.043184791 0.017240202 0.012399849 0.26684678 -0.50914872 0.81826669 0.0010883403
-0.046146989 0.020206939 0.012746912 -0.43781433 -0.60313129 0.66674674 0.0020161876
-0.043488696 0.019398363 0.013538752 -0.36625403 -0.56878453 0.73643881 0.00086711888
-0.04079828 0.018847594 0.014435347 -0.33336923 -0.57253867 0.74904233 0.00083761517
-0.038659919 0.018200465 0.014951087 -0.29474425 -0.58453399 0.75594032 0.00091824681
0.035075579 0.01841842 0.01486807 0.12641519 -0.27422747 0.95331973 0.0031981925
0.037652023 0.018991176 0.014673317 0.16815706 -0.35008132 0.92150217 0.0023511637
0.040498298 0.019429041 0.014270266 0.20002295 -0.39272201 0.89764154 0.0011606324
0.043534603 0.019501315 0.013509884 0.23388727 -0.42240602 0.87571108 0.0011835507
0.046322394 0.01956963 0.012757431 0.27766001 -0.45968312 0.84356171 0.0011537911
0.048833113 0.020387525 0.012307983 0.33059478 -0.48529759 0.80944014 0.0018003198
-0.051506288 0.023786951 0.012353281 -0.4817591 -0.5444175 0.68667156 0.0022438532
-0.049223226 0.02278153 0.012958189 -0.45358825 -0.56040686 0.69296592 0.0022158495
-0.046710655 0.022279808 0.014033683 -0.37956774 -0.50859058 0.77282852 0.00090955466
-0.044505171 0.021458063 0.014658798 -0.37247637 -0.55279523 0.74543864 0.00080000929
-0.0038365808 0.02383122 0.014862277 0.098046668 0.51077324 0.85410631 0.0013849285
-0.0015276093 0.023518013 0.014831143 0.069024421 0.42210224 0.90391666 0.0025188637
0.0015021664 0.023304267 0.014726436 0.046366785 0.42986488 0.90170187 0.0024848131
0.0045041684 0.023195749 0.014669986 0.020844191 0.43048525 0.90235692 0.0023940359
0.0075136088 0.023257095 0.014592515 -0.0048733712 0.42370373 0.90578777 0.0025298549
0.010354117 0.023141941 0.014709102 -0.029349929 0.40697414 0.91296804 0.0025738666
0.013469184 0.0233046 0.014749091 -0.053836677 0.37623766 0.92495781 0.0029081753
0.016156655 0.023754381 0.014760911 -0.080597788 0.44082397 0.89396769 0.0017554258
0.01914528 0.023779836 0.014973843 -0.078284636 0.27552646 0.95810056 0.0027544484
0.041303527 0.021393079 0.014869119 0.15509622 -0.24422848 0.95723432 0.0033198553
0.043668658 0.022036843 0.014617471 0.21254386 -0.32033524 0.92315239 0.0017654825
0.046415683 0.022465697 0.014045903 0.24756004 -0.35242921 0.90250075 0.00072349457
0.049503494 0.022482008 0.013096292 0.29663652 -0.40080696 0.86681056 0.00094684993
0.052096285 0.023095001 0.012476681 0.3589958 -0.43375015 0.8264277 0.0017504675
-0.054357868 0.026605304 0.012465904 -0.48781776 -0.51747543 0.7030313 0.0023527918
-0.052412331 0.025618719 0.013054329 -0.4795596 -0.51571596 0.70997161 0.0017399275
-0.049873661 0.025119806 0.014272126 -0.40846506 -0.44963929 0.79434299 0.0018139851
-0.047913581 0.024345437 0.014836325 -0.40573522 -0.48161289 0.77680629 0.00066738937
-0.013334282 0.026596256 0.014641915 0.16713148 0.48372412 0.85911471 0.0020140861
-0.010369714 0.025938071 0.014508051 0.15088682 0.51329756 0.84484249 0.0016800312
-0.0074769072 0.025587961 0.014245775 0.12601677 0.53444237 0.83575785 0.0013078513
-0.0043712868 0.025387587 0.013943725 0.10204088 0.54660684 0.83114904 0.00096252904
-0.0016276913 0.025334755 0.01369068 0.080001943 0.56967056 0.81797016 0.0023867059
0.0013975706 0.025321493 0.013468196 0.059296545 0.56987596 0.81958842 0.0018048288
0.0044301976 0.02537081 0.013333986 0.018203966 0.57344741 0.81904012 0.0019286786
0.007597961 0.025328815 0.013341744 -0.013918808 0.56679398 0.82374203 0.0020751441
0.010430365 0.025450289 0.013388337 -0.05156707 0.54816312 0.83478022 0.0023418402
0.013388758 0.025361221 0.013631815 -0.072845258 0.52128696 0.85026664 0.0024152568
0.016501954 0.025416093 0.013927347 -0.08881361 0.48154128 0.87191182 0.0013111545
0.019647967 0.025399055 0.014297202 -0.091191918 0.43329862 0.89662498 0.002855819
0.022383394 0.025621423 0.014542334 -0.12171751 0.41255876 0.90276253 0.0019555786
0.025149075 0.026124431 0.014678105 -0.12251383 0.35185543 0.92800218 0.0029532765
0.02811346 0.026716966 0.01482551 -0.091781594 0.33854374 0.93646371 0.0056085419
0.047081511 0.024948981 0.014753027 0.22020693 -0.24106954 0.94519538 0.0018004088
0.049564861 0.02548245 0.014261485 0.26401949 -0.28838855 0.9203943 0.00091739051
0.052488357 0.025308255 0.013258319 0.32162923 -0.33692622 0.88489288 0.0011521102
0.055052463 0.025976006 0.012482767 0.38429144 -0.37670222 0.84286153 0.0016591528
-0.057444796 0.029805992 0.01226328 -0.55670118 -0.43943533 0.70496833 0.002156019
-0.055341758 0.028603952 0.013058634 -0.50965357 -0.43781 0.74065888 0.0017906855
-0.052811921 0.028219819 0.01433665 -0.42703336 -0.37977123 0.82061952 0.0015964885
-0.050923496 0.027237356 0.014864417 -0.42864719 -0.40630245 0.80695713 0.00081088871
-0.022191316 0.029524887 0.014811265 0.20497902 0.50179774 0.84034675 0.0017532742
-0.019098351 0.028867492 0.014430194 0.21026354 0.5347169 0.81845403 0.0014002828
-0.016317088 0.02830492 0.014119929 0.1894739 0.55253154 0.81167024 0.00068257836
-0.013505063 0.028240558 0.01347776 0.17442544 0.56880099 0.80376691 0.00096225162
-0.010437737 0.027905732 0.013083597 0.17862134 0.60704607 0.77433169 0.0016865911
-0.0072930399 0.027642624 0.012677783 0.13058338 0.62332541 0.77098203 0.0016617762
-0.0046244692 0.027404064 0.012471509 0.092691295 0.6269238 0.77354693 0.001257909
-0.0010795023 0.027245495 0.012188778 0.076052271 0.60552984 0.79218024 0.00090277166
0.01143659 0.027304806 0.012064526 -0.066993892 0.58514774 0.80815458 0.00089277816
0.014580709 0.027190045 0.012544507 -0.068257272 0.56002253 0.82566077 0.0015829117
0.016708037 0.027717635 0.012417327 -0.10916289 0.61043334 0.78450912 0.0017113731
0.019274373 0.027778208 0.01278119 -0.15895119 0.60880923 0.77722961 0.0016872109
0.022846902 0.028052537 0.013257846 -0.15601799 0.5542711 0.81758291 0.0013317859
0.025666149 0.028232563 0.013684661 -0.17476691 0.50364953 0.84604597 0.0029779559
0.02865728 0.028368678 0.014134622 -0.11923066 0.43238848 0.89376974 0.0030037314
0.031382196 0.028510561 0.014492349 -0.12518987 0.39972937 0.90804404 0.0020953
0.034481626 0.028949026 0.014717589 -0.14267205 0.33887962 0.9299491 0.0030065973
0.037490677 0.029533636 0.014900868 -0.1246898 0.2617735 0.95704085 0.0033756855
0.050224461 0.028285367 0.014808516 0.21779531 -0.16688128 0.96162146 0.0023912464
0.052617896 0.028495127 0.014200746 0.27001286 -0.21234435 0.93915009 0.002037331
0.055477757 0.028424591 0.013237135 0.33705801 -0.27199921 0.90133691 0.0017796567
0.05776006 0.028889967 0.012441522 0.41401073 -0.3173615 0.85315686 0.0020776161
-0.05812937 0.03181335 0.012728796 -0.53796911 -0.34175524 0.7705794 0.0021807242
-0.055653661 0.031422786 0.014088697 -0.46343035 -0.27730629 0.84162557 0.0015900693
-0.05378921 0.030425429 0.014826455 -0.40262052 -0.24581477 0.88174361 0.0034965833
-0.028117055 0.032077406 0.014743719 0.22417773 0.50704932 0.83225316 0.0007258089
-0.025413476 0.031893343 0.013978457 0.20242819 0.51333773 0.83397073 0.00075911882
-0.022648381 0.03095557 0.01386626 0.21835023 0.53937089 0.81326646 0.00046617221
-0.019814676 0.03075267 0.013154376 0.21609554 0.56679475 0.79501343 0.00025228236
-0.017041471 0.030366644 0.012667752 0.20479612 0.57933098 0.78894496 0.00026367078
0.025908653 0.030176425 0.012378118 -0.18633409 0.56199074 0.80588216 0.0013063971
0.028624976 0.030571394 0.012812857 -0.1865139 0.53597099 0.82337576 0.0015933801
0.031767111 0.031250171 0.013047962 -0.19091272 0.53188372 0.82501632 0.002318603
0.034555648 0.031647541 0.013447352 -0.19492282 0.49543783 0.84649068 0.0026322005
0.037387341 0.031441618 0.014181893 -0.17972879 0.40032062 0.89857721 0.0019093284
0.040541191 0.031777985 0.01456006 -0.15498362 0.33725709 0.92856759 0.0026436257
0.043248598 0.032183822 0.014803547 -0.1152482 0.26121601 0.95837575 0.0026251308
0.04537461 0.032847624 0.014839212 -0.049085863 0.17466213 0.9834041 0.0020223802
0.050819706 0.031928454 0.014969961 0.13501854 -0.011515983 0.99077618 0.0029978305
0.052630715 0.031460959 0.01469922 0.18158372 -0.065011874 0.98122418 0.0054970533
0.055383638 0.031556733 0.014026251 0.26594186 -0.1372394 0.95416993 0.002298062
0.058340501 0.031579856 0.012901996 0.39290577 -0.23440529 0.8892014 0.0006546657
0.06046959 0.032623097 0.012251381 0.46533224 -0.25690845 0.84703243 0.0024738628
-0.060457777 0.034826357 0.012294619 -0.55726153 -0.27094349 0.78488797 0.0027969531
-0.05849006 0.034469973 0.013459665 -0.47930264 -0.21820177 0.85009235 0.0034086078
-0.056205835 0.034414675 0.014638001 -0.41292402 -0.14908537 0.89848059 0.0029527198
-0.036578584 0.035524838 0.014910873 0.21544066 0.51730198 0.82824159 0.00087076117
-0.034269441 0.035027444 0.014582585 0.24244948 0.52715653 0.81444716 0.0012986172
-0.031259004 0.034319606 0.014068991 0.24481629 0.55712259 0.79352337 0.00040213927
-0.028563818 0.033595677 0.013699844 0.23912111 0.55559248 0.79632789 0.00032353328
0.035106651 0.03379802 0.012252157 -0.25281343 0.59873664 0.75999987 0.003076188
0.037762698 0.034164123 0.01277884 -0.23988794 0.53298044 0.81140959 0.0036798751
0.040472589 0.034350745 0.013452117 -0.20206346 0.43825904 0.87584209 0.0026823916
0.043573968 0.034495644 0.014063527 -0.17686768 0.37005964 0.91201627 0.0016303445
0.046507899 0.034396533 0.014515209 -0.10333174 0.29195577 0.95083356 0.0038574324
0.049437337 0.034551803 0.014696169 -0.051233497 0.23037535 0.97175223 0.0022812728
0.052478567 0.034457047 0.014671373 0.082468502 0.10531226 0.99101377 0.0044153952
0.055384122 0.03464495 0.014254216 0.20603259 -0.0033580018 0.97853935 0.0041498225
0.058439657 0.034471281 0.013411055 0.31143102 -0.078780033 0.94699764 0.0026364143
0.061018076 0.034635264 0.012430348 0.41527495 -0.15534106 0.89633465 0.0025746147
-0.061017375 0.037558738 0.01259092 -0.51043445 -0.13696721 0.84893858 0.0030419372
-0.058544695 0.037545178 0.013879382 -0.39350301 -0.042637035 0.91833407 0.0043541635
-0.056368224 0.037838146 0.014770767 -0.32316676 0.0067236358 0.94631815 0.0038322241
-0.04322616 0.038481101 0.014812352 0.18768036 0.50475246 0.84261554 0.0035697494
-0.040444162 0.037783545 0.014522384 0.22945681 0.53034091 0.81614214 0.0015213739
-0.037513517 0.037321094 0.01393668 0.24446471 0.56314588 0.78936923 0.00048880582
-0.034692764 0.036742885 0.01336891 0.24077186 0.5708288 0.78497344 0.00046061262
-0.032585897 0.036303915 0.012941315 0.255896 0.55413783 0.7921164 0.00030587427
0.040834576 0.036417365 0.012330725 -0.27645409 0.55354875 0.78559339 0.0026637453
0.043580465 0.037187647 0.012742424 -0.22608352 0.52446145 0.82086927 0.0044189882
0.046460826 0.037517816 0.01329798 -0.21977985 0.44089657 0.87023389 0.0013923444
0.049637657 0.037446707 0.013901775 -0.11039513 0.34344837 0.93266076 0.0030843392
0.052594416 0.037483085 0.014106522 -0.023924137 0.26626909 0.96360177 0.0035819008
0.055588949 0.037638124 0.013997219 0.09653262 0.17940739 0.97902727 0.0056151664
0.058566358 0.037371852 0.013537198 0.24626358 0.046349995 0.96809399 0.0044737039
0.06136756 0.037621759 0.012616437 0.36570543 -0.026522465 0.93035269 0.0028055757
-0.061409645 0.040280618 0.012671847 -0.4353233 0.011291672 0.90020335 0.0039258935
-0.058643911 0.040482588 0.013833276 -0.30738753 0.11584189 0.94450706 0.0054648193
-0.055606574 0.040532086 0.014520351 -0.20595159 0.18735142 0.96046001 0.0038222955
-0.05265883 0.041049283 0.014627195 0.005221359 0.36971244 0.92913157 0.0027188351
-0.04955611 0.040826205 0.014586532 0.10808276 0.44843984 0.88725406 0.0023494759
-0.046581771 0.040574849 0.01422109 0.17206413 0.50950795 0.84308696 0.0014185165
-0.04367777 0.040211875 0.013754364 0.23512775 0.5691672 0.78788555 0.00091790955
-0.040523183 0.03962924 0.013188529 0.23119234 0.57736862 0.78306806 0.00088392856
-0.037899327 0.039496239 0.012273028 0.25206801 0.58178008 0.77330047 0.00018812386
0.047371976 0.039732292 0.012393833 -0.26371548 0.51096541 0.81814939 0.0030647579
0.049583074 0.040176999 0.012688277 -0.18652168 0.44261375 0.87709904 0.0028234653
0.052535731 0.040466592 0.013083212 -0.11684883 0.3653616 0.92350268 0.002814898
0.055550225 0.040531058 0.013326303 0.013443446 0.2791127 0.96016431 0.0033164874
