# .PCD v0.7 - Point Cloud Data file format
VERSION 0.7
FIELDS x y z normal_x normal_y normal_z curvature
SIZE 4 4 4 4 4 4 4
TYPE F F F F F F F
COUNT 1 1 1 1 1 1 1
WIDTH 557
HEIGHT 1
VIEWPOINT 0 0 0 1 0 0 0
POINTS 557
DATA ascii
0.028508324 0.010753286 -0.013595605 0.17974393 -0.63359696 -0.75249386 0.001756926
0.031320024 0.01096258 -0.01310713 0.20730788 -0.65320158 -0.72825205 0.0021078594
0.034205243 0.011372046 -0.012543263 0.24412744 -0.68700057 -0.68442094 0.001127825
-0.030912766 0.014648961 -0.012415545 -0.26397559 -0.6379841 -0.72339004 0.00096979708
-0.028248424 0.014015608 -0.012752588 -0.25095028 -0.61095643 -0.75083709 0.0015899182
-0.025355734 0.013579587 -0.013273926 -0.21493202 -0.58693337 -0.78058529 0.0011558208
-0.022542667 0.013566067 -0.013928657 -0.17973933 -0.52641314 -0.8310132 0.00080454024
-0.019657422 0.013277257 -0.014340246 -0.15598293 -0.49599162 -0.85420233 0.0014803964
-0.016768331 0.012765268 -0.014548014 -0.12601118 -0.45922422 -0.87933737 0.0020693336
-0.013828875 0.012472126 -0.014762984 -0.10256134 -0.41188347 -0.90544647 0.0029261697
-0.011711093 0.01229024 -0.014929928 -0.070495211 -0.35774997 -0.9311527 0.0023553199
0.028948847 0.012433213 -0.014788414 0.14438473 -0.49740845 -0.85541677 0.0021871065
0.031644542 0.012876488 -0.014525398 0.18125547 -0.53814697 -0.82313073 0.0022229401
0.034654364 0.013297366 -0.014068658 0.22206812 -0.57130462 -0.79012454 0.0011998506
0.037423328 0.013639181 -0.013471711 0.25087279 -0.6143117 -0.74812031 0.0016358815
0.040133443 0.014109345 -0.012817011 0.30578443 -0.65674043 -0.68933874 0.0014144112
0.043058217 0.014771027 -0.012164929 0.34783655 -0.66878712 -0.65706432 0.00097085134
-0.037087027 0.017481502 -0.012335129 -0.32475436 -0.62035352 -0.71393007 0.0014091699
-0.034304984 0.016803408 -0.012899813 -0.28502992 -0.5902642 -0.75521266 0.0009170812
-0.031611763 0.016595447 -0.013668946 -0.2416818 -0.53607577 -0.80883414 0.00087255129
-0.028634168 0.016311603 -0.01426701 -0.20130052 -0.50502437 -0.83930236 0.001170692
-0.025772389 0.015639763 -0.014518102 -0.17917764 -0.46650791 -0.86617881 0.0021701222
-0.022889795 0.015261352 -0.014884718 -0.15060048 -0.40686741 -0.90098745 0.0025885554
0.038230803 0.015683345 -0.01472864 0.23210409 -0.56321979 -0.7930392 0.0012918006
0.040712729 0.016056996 -0.0141938 0.27197891 -0.53602225 -0.79919177 0.0011950696
0.043365169 0.016636509 -0.013573748 0.3340112 -0.58016515 -0.7428627 0.0018225277
0.046244264 0.017160937 -0.012605046 0.3764663 -0.61781204 -0.6903488 0.0012529384
0.048278134 0.017713187 -0.012028225 0.41046679 -0.58722442 -0.69762766 0.0018903664
-0.042136408 0.020683166 -0.012432798 -0.38417298 -0.55404991 -0.73853904 0.0022827394
-0.040262066 0.019939745 -0.012810783 -0.35527238 -0.56614178 -0.74381787 0.0010931524
-0.037466098 0.019573374 -0.013731781 -0.2988824 -0.51440817 -0.80377454 0.00092947821
-0.034547616 0.019039383 -0.014336699 -0.26272953 -0.49856299 -0.82608002 0.0020505027
-0.031736076 0.018467693 -0.014795675 -0.20801745 -0.4327853 -0.87716913 0.0023598881
0.044100787 0.018618366 -0.01464429 0.29607517 -0.50408483 -0.8113187 0.00081787736
0.046613332 0.019315219 -0.014077991 0.34096301 -0.5024364 -0.79454505 0.0012729424
0.049321197 0.01977716 -0.013072846 0.41067106 -0.55516332 -0.72328627 0.0012881976
0.051574565 0.020481873 -0.012285896 0.44218734 -0.56944621 -0.69296563 0.0017587171
-0.045995068 0.023312269 -0.012375782 -0.40663329 -0.55002964 -0.7294634 0.0013934135
-0.043390255 0.022651976 -0.013224681 -0.37145609 -0.50669092 -0.77800041 0.0019446922
-0.040628411 0.022303438 -0.014169387 -0.31381166 -0.4560445 -0.83279395 0.0010814833
-0.038020972 0.021612544 -0.014739885 -0.26220286 -0.41034457 -0.87342256 0.0023212219
-0.006738591 0.023651183 -0.014903812 0.087483242 0.36695373 -0.92611647 0.0025322696
-0.0042048418 0.023420842 -0.014812388 0.065402046 0.3970772 -0.91545194 0.0027143459
-0.0014097184 0.023358146 -0.014691025 0.044232391 0.42510545 -0.90406239 0.002389279
0.0013548903 0.023285275 -0.014648202 0.016589895 0.43835214 -0.89865011 0.0025489295
0.0044575646 0.023284862 -0.014647973 -0.012811217 0.44655594 -0.89466399 0.0025695679
0.0075594462 0.023431351 -0.014667384 -0.046236698 0.4458766 -0.8938995 0.0025634021
0.01043678 0.023465009 -0.014836729 -0.072361536 0.43725646 -0.89642102 0.0025035397
0.013408114 0.023883069 -0.014867065 -0.098244816 0.51418704 -0.8520326 0.0013145452
0.047623649 0.021206323 -0.014803508 0.36365965 -0.47879249 -0.79906791 0.001077529
0.049799912 0.022298509 -0.014401412 0.37062711 -0.43140405 -0.82251215 0.0017317968
0.052340355 0.022528337 -0.013280237 0.41001859 -0.49918979 -0.76334417 0.0015696059
0.054653842 0.023423018 -0.012528019 0.47709325 -0.48335683 -0.73399466 0.0011670997
-0.049078461 0.02608636 -0.012640387 -0.41552511 -0.51397616 -0.75044483 0.0011357487
-0.046397503 0.025515391 -0.013592886 -0.37692019 -0.4669376 -0.79993778 0.00180709
-0.043823197 0.025132814 -0.014483327 -0.32102522 -0.40909296 -0.85415787 0.0018732948
-0.041547023 0.024301022 -0.01490799 -0.27232713 -0.42921993 -0.86116678 0.0035887957
-0.018093342 0.026969489 -0.014959839 0.1424198 0.50143677 -0.85339189 0.0022651395
-0.016196322 0.026676783 -0.014767488 0.17065094 0.47578305 -0.86284918 0.00089973933
-0.013458053 0.026236966 -0.014469971 0.15241493 0.460825 -0.87430549 0.0022421468
-0.01045283 0.025751019 -0.01424984 0.12788501 0.49363506 -0.86021501 0.0012520535
-0.0075067193 0.025475338 -0.013979111 0.10379001 0.50622314 -0.85613418 0.0010112872
-0.0044888724 0.025444148 -0.013686451 0.075196028 0.51321721 -0.85495824 0.00098030444
-0.0014831333 0.025479229 -0.013407171 0.055886313 0.58138758 -0.81170517 0.0019272736
0.0015600567 0.025512451 -0.013248142 0.028922034 0.57081205 -0.82057112 0.0030557208
0.0044668014 0.025497047 -0.013227733 -0.019659417 0.57720965 -0.81635934 0.0029055204
0.0074683218 0.025541902 -0.013289984 -0.042496707 0.54989225 -0.83415383 0.0010508434
0.010463115 0.025490021 -0.013557056 -0.073249951 0.54727769 -0.83373952 0.0010192338
0.013495635 0.025522869 -0.013844169 -0.10389306 0.54614347 -0.83122414 0.00098353531
0.016410476 0.025645809 -0.014201288 -0.12876827 0.53406769 -0.83557785 0.0012025592
0.019372512 0.026108468 -0.014406322 -0.15468508 0.51764226 -0.84149808 0.00163541
0.022236379 0.026498314 -0.014754507 -0.17588222 0.53082931 -0.829027 0.0006746857
0.024024935 0.026977526 -0.014817377 -0.16519547 0.56318861 -0.8096475 0.0011613835
0.050673798 0.024275001 -0.014999319 0.32310757 -0.34057319 -0.88295603 0.0018588761
0.052832372 0.025156889 -0.014429824 0.3909103 -0.34507191 -0.85329628 0.0019804309
0.05548849 0.025559634 -0.013200947 0.44850022 -0.41012737 -0.79413038 0.0016854552
0.057618778 0.026451657 -0.012410611 0.5031774 -0.43497437 -0.74673277 0.0023790221
-0.054489285 0.029965401 -0.012010535 -0.48021379 -0.48236677 -0.73260969 0.0021396533
-0.052037396 0.028968142 -0.012803852 -0.42297801 -0.45045543 -0.78624392 0.0017130725
-0.049515791 0.028581757 -0.013825785 -0.3718887 -0.38235462 -0.84587455 0.0013779742
-0.047017489 0.027923742 -0.014586155 -0.317137 -0.34195486 -0.8845852 0.0018361727
-0.024446789 0.029878113 -0.014708793 0.19479237 0.46834198 -0.86180723 0.0014811235
-0.022219667 0.02929672 -0.014517194 0.19853486 0.46953493 -0.86030281 0.0023914978
-0.019383484 0.028778041 -0.014139583 0.19048476 0.5175733 -0.83416641 0.0017154942
-0.016485889 0.028638231 -0.013555272 0.19208333 0.5386669 -0.82033038 0.001278014
-0.013576859 0.028389005 -0.01305631 0.18254869 0.57864833 -0.79488498 0.0027703145
-0.010652446 0.028087225 -0.01271305 0.15014207 0.62292856 -0.76773518 0.001550294
-0.0076339981 0.027717879 -0.012468499 0.12176489 0.63751799 -0.76075232 0.0017424711
-0.0045822705 0.027294995 -0.012397164 0.089715444 0.6578871 -0.7477538 0.0017393699
-0.0014723535 0.027096277 -0.012234415 0.061715584 0.67913389 -0.73141521 0.0017948213
0.00042357142 0.027151573 -0.01205288 0.056151394 0.6537472 -0.75462681 0.0031802701
0.0059745698 0.027005618 -0.012117906 -0.052306321 0.66672641 -0.74346483 0.0042981682
0.0076487977 0.027094888 -0.012084648 -0.04641946 0.63924265 -0.76760274 0.0019744034
0.010719563 0.027251616 -0.012224577 -0.077479772 0.63648796 -0.76738513 0.0018832342
0.013546904 0.027373405 -0.012453839 -0.10904475 0.68016094 -0.72490704 0.0016939319
0.016583014 0.027744677 -0.012656729 -0.14370652 0.66707134 -0.73100215 0.0014106046
0.01961158 0.028110938 -0.0129504 -0.17460328 0.62688911 -0.75929159 0.0028026211
0.022545563 0.028432274 -0.013398621 -0.2056352 0.58441383 -0.7849679 0.0010591941
0.025456717 0.028629988 -0.013971789 -0.18976846 0.56643969 -0.8019563 0.0012497527
0.028328123 0.029121339 -0.014368177 -0.19987294 0.53430486 -0.82132155 0.0016981924
0.031131567 0.029585352 -0.014757113 -0.20255065 0.57180357 -0.79499298 0.0014830953
0.053634878 0.027512318 -0.01492655 0.35492516 -0.21900523 -0.90888113 0.0033491254
0.055644333 0.028421786 -0.01429923 0.40419015 -0.26685226 -0.87488294 0.001589617
0.058532435 0.028710989 -0.0129169 0.475757 -0.325674 -0.81706285 0.0023031509
0.060391851 0.029774956 -0.012148906 0.54131973 -0.34694532 -0.76589942 0.0020362081
-0.055073045 0.031910546 -0.012664165 -0.45404071 -0.36643362 -0.81214118 0.0026695742
-0.052378345 0.031528637 -0.01383654 -0.3780728 -0.28972775 -0.87927175 0.001717004
-0.049874846 0.031096365 -0.014684116 -0.32006958 -0.27054572 -0.90794301 0.0022006284
-0.030803366 0.032492157 -0.01483048 0.21309185 0.42778954 -0.8784008 0.0028251766
-0.028301178 0.032105319 -0.014333787 0.23027919 0.48765755 -0.84211731 0.0021477621
-0.025514737 0.031540945 -0.013906416 0.21365094 0.52508336 -0.82379657 0.00095616298
-0.02259784 0.031502135 -0.013071387 0.24230012 0.58880347 -0.77110386 0.0024261759
-0.01962427 0.03087496 -0.012712344 0.22251891 0.6400007 -0.73544848 0.0013218294
-0.016730858 0.030365884 -0.012278569 0.20438214 0.67172712 -0.7120468 0.0015246378
0.023374237 0.030054227 -0.012258483 -0.19236895 0.65455776 -0.73112816 0.0011253569
0.025757499 0.030597314 -0.01246997 -0.2168372 0.6844337 -0.69608337 0.0011274832
0.028649069 0.030996304 -0.01295331 -0.22521091 0.66490358 -0.71216804 0.0010817586
0.031508435 0.03147088 -0.013416174 -0.22629721 0.60241252 -0.76543367 0.001258068
0.034320854 0.031749293 -0.014030203 -0.22134107 0.55544949 -0.80155098 0.0011917431
0.037237361 0.032259427 -0.014551708 -0.22526005 0.50579911 -0.83272159 0.0020103629
0.039801911 0.032801945 -0.014867955 -0.20911576 0.48863867 -0.84705538 0.0018082828
0.05634113 0.031335499 -0.014702865 0.35340074 -0.12992986 -0.92640495 0.003109761
0.058533717 0.031463254 -0.013722003 0.43526807 -0.16076143 -0.88583153 0.0018792761
0.060953833 0.031874847 -0.012491168 0.50244898 -0.24320149 -0.82969755 0.0029035951
-0.057763148 0.035047777 -0.012437398 -0.47692308 -0.30153367 -0.82560396 0.0030405936
-0.055433422 0.034559179 -0.01341219 -0.39035502 -0.23558691 -0.89001226 0.0042102048
-0.052649774 0.034442499 -0.014501154 -0.33817232 -0.1749406 -0.92468119 0.0026693954
-0.050939932 0.033289611 -0.014895497 -0.25913939 -0.10641927 -0.95995915 0.0044471016
-0.037185062 0.035438929 -0.014772074 0.19786142 0.4283334 -0.88169229 0.0024865537
-0.034328841 0.034784053 -0.014408913 0.22757436 0.4966462 -0.83758724 0.0017049905
-0.031499829 0.034534805 -0.013679906 0.2580235 0.53911209 -0.80173677 0.0014920664
-0.02874024 0.034243241 -0.012954536 0.27823025 0.61604714 -0.73693538 0.0012350092
-0.025871381 0.033645913 -0.012428018 0.26204088 0.65199137 -0.71150672 0.0012544432
0.032624148 0.033178389 -0.012317253 -0.25864521 0.66328341 -0.70225197 0.0012174284
0.034901083 0.033676337 -0.012657948 -0.26666835 0.66841501 -0.69434094 0.0013466782
0.037642136 0.034330186 -0.013113102 -0.29082578 0.60066772 -0.74472725 0.0019071091
0.040426638 0.034610227 -0.013869176 -0.23623903 0.52736992 -0.81613237 0.00070027419
0.043299079 0.035030428 -0.014477586 -0.22820245 0.48335862 -0.84515566 0.0020035522
0.045923926 0.035650395 -0.014790838 -0.17142557 0.45017099 -0.87633282 0.0042892327
0.056346741 0.034596685 -0.014838149 0.26817349 0.016267823 -0.96323329 0.0035232585
0.058526669 0.034383018 -0.014124463 0.3405658 -0.011085544 -0.94015533 0.0047337399
0.061524171 0.03470001 -0.012839371 0.44593263 -0.11996242 -0.88699102 0.0031294324
-0.060129989 0.038733363 -0.012094235 -0.49019209 -0.14826801 -0.85891116 0.0027543115
-0.058310967 0.037693653 -0.01279584 -0.39189079 -0.16141118 -0.90574169 0.0046471991
-0.055524345 0.037448529 -0.013924299 -0.3068378 -0.048946548 -0.95050246 0.0035605466
-0.052549057 0.03765643 -0.01471362 -0.15589562 0.10469368 -0.98220962 0.0044274358
-0.049665861 0.038526166 -0.014930234 -0.034925088 0.21501219 -0.97598672 0.0047662174
-0.046338908 0.038558114 -0.014863918 0.081245929 0.33639023 -0.93821144 0.0040622395
-0.043376431 0.038178857 -0.014597668 0.16120175 0.42375326 -0.89131767 0.002860212
-0.040390562 0.037602227 -0.014299424 0.19860181 0.48347828 -0.85252917 0.001244004
-0.037473813 0.037450753 -0.013569144 0.2605336 0.54062492 -0.79990435 0.0016012549
-0.034621947 0.036981128 -0.012962893 0.27841291 0.61544156 -0.73737234 0.001578056
-0.032066677 0.036587577 -0.0123032 0.29037935 0.64420515 -0.70758724 0.0011733781
0.04095941 0.036628157 -0.012527477 -0.30335486 0.62963837 -0.71521425 0.0014416871
0.043610785 0.037327241 -0.013037801 -0.2989772 0.57585227 -0.76092494 0.0016125059
0.04655242 0.037501968 -0.01384562 -0.19955529 0.49340689 -0.84659743 0.0012903059
0.049436379 0.037617952 -0.014401451 -0.13784024 0.4397738 -0.8874678 0.0019007497
0.052488517 0.03781642 -0.014604169 0.0080476571 0.30475423 -0.95239705 0.0025195139
0.055531014 0.037535138 -0.014576172 0.13992272 0.25296623 -0.95730335 0.0080912951
0.058412645 0.037480656 -0.014092286 0.25346926 0.12163655 -0.95966548 0.0048817392
0.061495714 0.0375419 -0.013049842 0.37748271 0.012039829 -0.92593831 0.0047117826
0.063401952 0.037655592 -0.012142316 0.50694764 -0.053279709 -0.86032867 0.0030031786
-0.0605818 0.040729549 -0.012169181 -0.40620527 -0.075703233 -0.9106406 0.0045290119
-0.058448195 0.040560879 -0.013011218 -0.30468118 0.04553517 -0.95136529 0.0039220997
-0.055423725 0.040560406 -0.013851552 -0.20205817 0.15983653 -0.96624255 0.0067799492
-0.052596677 0.040489834 -0.014279236 -0.076088816 0.24278304 -0.96709192 0.0068832538
-0.049533222 0.040465757 -0.014301279 0.031869832 0.35349604 -0.93489301 0.0050123869
-0.046498273 0.040472895 -0.013956025 0.12978691 0.44240201 -0.88737583 0.0020710605
-0.0434798 0.040449828 -0.013304546 0.23591998 0.5214895 -0.81999427 0.0023654869
-0.040606666 0.040006943 -0.012744454 0.26217926 0.59702295 -0.75817251 0.0019018407
-0.038136322 0.039283875 -0.01246247 0.28837943 0.61937094 -0.73021704 0.0014785214
0.044912465 0.039043996 -0.012206504 -0.33068946 0.57440269 -0.74880302 0.0020230277
0.046795234 0.039629944 -0.012500153 -0.27317989 0.58393788 -0.76445359 0.0024707157
0.049604598 0.040339284 -0.012887419 -0.2223683 0.51424074 -0.82831675 0.0030667009
0.052507047 0.040468801 -0.013398432 -0.1625873 0.48680115 -0.85824823 0.0013172749
0.055540003 0.040528622 -0.013637365 0.0035424116 0.36257809 -0.93194664 0.0037905581
0.058515426 0.040660165 -0.013414368 0.14210142 0.26338047 -0.95416868 0.0046101711
0.06142354 0.040573448 -0.012787074 0.28925905 0.16693497 -0.94258261 0.0034208219
0.063322589 0.040229537 -0.01213185 0.43240479 0.10660968 -0.89535487 0.0035173111
-0.06054493 0.043214541 -0.01213706 -0.33553752 0.13072148 -0.93291289 0.00466691
-0.058413375 0.043552481 -0.012707542 -0.22344972 0.19663858 -0.95467454 0.0034282692
-0.055353906 0.043546308 -0.013167955 -0.096176594 0.30019635 -0.94901645 0.0051396834
-0.052436423 0.043399598 -0.013204852 0.066035882 0.38682207 -0.91978687 0.0047992207
-0.049543973 0.043339651 -0.012900656 0.17514646 0.52021086 -0.83588541 0.0016336723
-0.046744063 0.042849284 -0.012602635 0.20550293 0.55841851 -0.80370229 0.0033581869
-0.044381652 0.042266417 -0.012289897 0.26536542 0.61499846 -0.74253494 0.0018456298
0.050784394 0.042186931 -0.01201263 -0.27557582 0.58485299 -0.76289248 0.0019749808
0.052945793 0.042533461 -0.012302116 -0.18985441 0.53955019 -0.82026881 0.0030525415
0.055564176 0.042924985 -0.012540801 -0.091643959 0.46666074 -0.87967563 0.0032256064
0.058574252 0.043264203 -0.012505778 0.04475214 0.37206402 -0.9271276 0.0037078322
0.061286993 0.04309997 -0.012283354 0.23498708 0.25248429 -0.93863344 0.0053784736
-0.058351438 0.045523208 -0.012183391 -0.16324596 0.3385058 -0.92669547 0.0056036729
-0.055499908 0.045514174 -0.01235744 0.0044688168 0.45533022 -0.89031142 0.0034652909
-0.052753955 0.045325648 -0.012247508 0.1235109 0.51107907 -0.85061353 0.0028147451
-0.05088193 0.045169931 -0.012053223 0.15241848 0.57629997 -0.80289912 0.0017989675
-0.013258796 0.0058268476 -0.0095229344 -0.19051085 -0.75069565 -0.63258326 0.0010096607
-0.010052274 0.0053752926 -0.009811596 -0.1392331 -0.74646449 -0.65069574 0.00097683573
-0.0074441209 0.0052069747 -0.010040035 -0.11235736 -0.74385059 -0.65883398 0.0012109482
-0.0043966193 0.0050524035 -0.010346779 -0.091235563 -0.73638701 -0.67038065 0.0011955142
-0.0012966519 0.0048987768 -0.010456336 -0.048043255 -0.74769264 -0.66230476 0.0017130983
0.0015285637 0.0048825345 -0.010611462 -0.016159574 -0.74563682 -0.66615659 0.002297889
0.0045407973 0.0046977364 -0.010527921 0.014663022 -0.7404027 -0.67200363 0.0011434782
0.0074506351 0.0049628462 -0.010783312 0.0052859085 -0.73120791 -0.68213409 0.0014403253
0.010476037 0.0048271436 -0.010592784 0.030207144 -0.7544381 -0.65567577 0.0011901958
0.01349999 0.0050367527 -0.010539439 0.074750297 -0.75783324 -0.64815211 0.0013034221
0.016495155 0.0051965215 -0.010356464 0.10249414 -0.77310729 -0.62593931 0.001494144
0.019284077 0.0052919099 -0.010005461 0.13490717 -0.78652 -0.60264939 0.0014007598
0.022307603 0.0055305418 -0.0095290681 0.14849792 -0.78142589 -0.60607094 0.001600233
-0.021929797 0.0084514366 -0.009591056 -0.26918262 -0.7282638 -0.6302163 0.00076087791
-0.019283658 0.0080829477 -0.010235555 -0.23898779 -0.73930955 -0.62952858 0.0018265612
-0.01645341 0.007693687 -0.010652193 -0.19792077 -0.72331446 -0.66154629 0.0017684865
-0.013661825 0.0072435061 -0.010944864 -0.18984726 -0.68774754 -0.7006864 0.0018400889
-0.010637462 0.0067854584 -0.011209887 -0.13225731 -0.71773356 -0.68364209 0.001183885
-0.0074978187 0.0065565715 -0.011464604 -0.09986344 -0.71230942 -0.69472486 0.0013596328
-0.0047611007 0.0064133443 -0.01172071 -0.078884594 -0.70468837 -0.70511812 0.0013237013
-0.0021425455 0.0062112617 -0.01179911 -0.04096685 -0.66289252 -0.74759299 0.0026808474
0.0025379425 0.006072259 -0.011939895 -0.02699958 -0.667705 -0.74393618 0.0034805627
0.010332335 0.006094838 -0.011929818 0.023238046 -0.68482548 -0.72833645 0.0026952932
0.013482437 0.0063065179 -0.011914536 0.058612045 -0.72439295 -0.68689126 0.001210898
0.016366981 0.0064650145 -0.011804153 0.080974497 -0.68781638 -0.72135401 0.00098550669
0.019453393 0.0065571293 -0.011474731 0.11717238 -0.7577197 -0.64197457 0.0016567769
0.022557696 0.0069664218 -0.011315568 0.14918613 -0.74271679 -0.65277499 0.0031478284
0.025665546 0.0070547941 -0.010606466 0.18600664 -0.77956265 -0.59806651 0.0012496189
0.028600834 0.007910748 -0.010683584 0.21442731 -0.76683116 -0.60497183 0.0021500387
0.031290762 0.0081582265 -0.010021065 0.25464845 -0.78482246 -0.5649848 0.0019032704
0.034149472 0.0087248348 -0.0094396137 0.28710055 -0.78110623 -0.55447841 0.0010520427
-0.030655062 0.011716873 -0.0095043434 -0.30476713 -0.71221936 -0.63234532 0.0011490384
-0.028467149 0.011292908 -0.01001931 -0.28536212 -0.71724898 -0.63570625 0.00096566282
-0.02537236 0.010774794 -0.010778539 -0.25209495 -0.71062541 -0.65685594 0.0014063882
-0.022698693 0.0099415807 -0.010918427 -0.25716448 -0.71639425 -0.64857209 0.0014611222
-0.019697944 0.0094555477 -0.011523549 -0.20878237 -0.66287303 -0.71903354 0.0025732194
0.031898193 0.0096016591 -0.011588749 0.22803999 -0.6973778 -0.67945719 0.0011554442
0.034553193 0.0099890167 -0.010901756 0.26928386 -0.75455993 -0.598436 0.0009999692
0.037491888 0.010863946 -0.010610271 0.31062838 -0.73910701 -0.5976879 0.0015368696
0.040065039 0.011290717 -0.0096992282 0.35617703 -0.74493742 -0.5640977 0.0013424633
0.042033676 0.011823645 -0.009210608 0.34913754 -0.74806303 -0.56436229 0.0015527179
-0.037197229 0.01455792 -0.0092427619 -0.36333072 -0.70077318 -0.61392814 0.00049031258
-0.034446131 0.014229176 -0.010490479 -0.32831672 -0.70422232 -0.62950706 0.0011319905
-0.031616148 0.013251469 -0.010782454 -0.30350199 -0.70988411 -0.63557154 0.001202542
-0.028844416 0.012709266 -0.011402624 -0.26624277 -0.66956836 -0.69339234 0.00058181456
-0.026500715 0.012320125 -0.011954174 -0.25048628 -0.65533799 -0.71259296 0.0034047486
0.038296133 0.012289761 -0.011927197 0.28244862 -0.6902023 -0.66621572 0.0022326191
0.04080056 0.012802958 -0.01117297 0.33164051 -0.70980942 -0.62143797 0.00098282017
0.043554004 0.013677808 -0.010622125 0.37824419 -0.69657815 -0.60968041 0.001568597
0.046118241 0.01436286 -0.0097169913 0.42235714 -0.71011335 -0.56334138 0.00095191988
-0.04040195 0.017020321 -0.010136517 -0.3995932 -0.66389513 -0.63211435 0.00086298597
-0.037599053 0.01623524 -0.01090571 -0.35382131 -0.68706155 -0.6346314 0.0011385168
-0.035238452 0.015751673 -0.01165435 -0.30313867 -0.64788359 -0.69882309 0.0022563792
0.046655592 0.015824866 -0.01107304 0.39908421 -0.69115794 -0.60252178 0.0014479693
0.049387034 0.016846552 -0.0103269 0.43500766 -0.68257469 -0.58724797 0.0021880742
0.051560953 0.017516047 -0.0093985898 0.49173266 -0.66317016 -0.56427324 0.0011741591
-0.04591611 0.020477291 -0.0098828748 -0.44858465 -0.64259183 -0.62116635 0.00087202917
-0.043454919 0.01960228 -0.010689314 -0.43024054 -0.63588291 -0.64073861 0.001562624
-0.040891174 0.018659925 -0.011469346 -0.37488705 -0.63403481 -0.67635757 0.0010402111
0.050258178 0.018425455 -0.011424687 0.43851957 -0.64517826 -0.62565607 0.0010601339
0.052503787 0.019471856 -0.010725356 0.47023678 -0.60720122 -0.64045614 0.0015937343
0.054795966 0.020183813 -0.0096678827 0.50018018 -0.65323848 -0.5684182 0.0013005435
-0.051053353 0.023721436 -0.0092513599 -0.47132859 -0.62494951 -0.62232429 0.00097450189
-0.048946016 0.02293982 -0.010081732 -0.46660823 -0.61808252 -0.63265371 0.0010006168
-0.046624016 0.022107607 -0.010980883 -0.44462579 -0.62857032 -0.63812792 0.0014345841
-0.04427629 0.02139907 -0.011901861 -0.39412114 -0.56966907 -0.72121125 0.0010795763
0.053727027 0.021404047 -0.011696943 0.48460206 -0.5641169 -0.66853046 0.0005738652
0.05565254 0.022306338 -0.01097276 0.49634418 -0.53629309 -0.68266553 0.0013142723
0.057830289 0.023075294 -0.0097732162 0.5615024 -0.57049745 -0.59937286 0.001355415
-0.05424796 0.026345324 -0.0092540085 -0.52300584 -0.60072803 -0.60464102 0.00043406399
-0.052094795 0.025866073 -0.010522156 -0.48397982 -0.57991618 -0.65533257 0.0013876219
-0.049747873 0.024824085 -0.011298975 -0.45020226 -0.58747643 -0.67245024 0.0014906575
0.05664444 0.024296202 -0.011728572 0.52433628 -0.50890988 -0.68270212 0.00078193925
0.058812723 0.025384979 -0.010859302 0.53785217 -0.49947277 -0.67914802 0.0023433173
0.060951952 0.026173418 -0.0096556032 0.59269536 -0.51486188 -0.61937821 0.0011920732
-0.057274923 0.029613174 -0.0096820593 -0.5383321 -0.53824955 -0.648449 0.0023665926
-0.05523888 0.028707542 -0.010563924 -0.5177623 -0.52278954 -0.67720997 0.0016102247
-0.05285332 0.027930135 -0.01166711 -0.45978832 -0.51915014 -0.72047061 0.0030662927
-0.012873806 0.02968655 -0.011774267 0.18920223 0.70138776 -0.6872102 0.0014887388
-0.010262822 0.029335538 -0.011490903 0.15955354 0.65107971 -0.74204975 0.0016206438
-0.0074165575 0.029016159 -0.011175158 0.13591291 0.66648948 -0.73302072 0.0018482072
-0.0044624517 0.028857311 -0.010854329 0.11139135 0.74678379 -0.65567225 0.0011448418
-0.0014980789 0.028599476 -0.010715309 0.083629847 0.72808778 -0.68036324 0.0031049396
0.0014907958 0.028493477 -0.01059148 0.047548529 0.73362917 -0.67788446 0.0022260684
0.0044854674 0.028426832 -0.010595347 -0.011688797 0.74613881 -0.66568768 0.0027883444
0.0074954019 0.028600486 -0.010477077 -0.045603618 0.74636692 -0.66397047 0.0027418421
0.010493484 0.028773988 -0.010577246 -0.082539134 0.73657548 -0.67130017 0.0022471754
0.013447108 0.028851496 -0.010896541 -0.12454904 0.73191172 -0.66991997 0.0036606358
0.016434697 0.02922162 -0.011138644 -0.15589631 0.75501651 -0.63690382 0.001566057
0.019194189 0.029557435 -0.01145303 -0.18998072 0.70532769 -0.6829496 0.00050359307
0.021427428 0.029822253 -0.011881715 -0.21466076 0.68756157 -0.69367129 0.0031840433
0.059616465 0.027538443 -0.011682005 0.51779675 -0.37155983 -0.77060354 0.0021283517
0.061534218 0.028540842 -0.010693126 0.5899545 -0.37681574 -0.71411741 0.0016802724
0.063316718 0.029304057 -0.0096082129 0.63243079 -0.42773616 -0.64581198 0.0020699622
-0.05837182 0.031680956 -0.010229528 -0.56597227 -0.45933154 -0.68460935 0.0016622214
-0.05622711 0.030915054 -0.011412574 -0.52324718 -0.43610874 -0.73213494 0.0031625549
-0.021801786 0.032648563 -0.011780927 0.25260475 0.63908798 -0.7264691 0.0012907055
-0.019225676 0.032274164 -0.011231084 0.24801163 0.73100471 -0.63570625 0.001583952
-0.016451687 0.03180442 -0.010709395 0.23432645 0.74426949 -0.62542313 0.0012367066
-0.013575153 0.031166624 -0.010453664 0.20133242 0.74256027 -0.63880318 0.0023383501
-0.010559948 0.030780289 -0.010033151 0.17810072 0.74896508 -0.63822532 0.0014416518
-0.0075996816 0.030373344 -0.0097692721 0.14253952 0.76160425 -0.63217199 0.001401634
-0.0047051441 0.030177381 -0.009399889 0.11517519 0.76695496 -0.6312803 0.0012316678
-0.0023387063 0.030053094 -0.0090920022 0.082068294 0.76548761 -0.63819551 0.0011273678
0.013800052 0.030169079 -0.0093970187 -0.1201196 0.77507812 -0.62034273 0.001316
0.01663916 0.030512881 -0.0096778814 -0.16466214 0.77514803 -0.60994422 0.0013838491
0.019660847 0.030883357 -0.010102293 -0.20440781 0.75819206 -0.6191625 0.0016650625
0.022575606 0.031315275 -0.01056728 -0.21803217 0.74982798 -0.62467599 0.0019763538
0.025355816 0.031961538 -0.010835864 -0.23631306 0.7531901 -0.61388981 0.0010419153
0.028192559 0.032445323 -0.011343163 -0.23881955 0.68782723 -0.68546247 0.0010831406
0.030342257 0.032777734 -0.011836505 -0.25560725 0.69543666 -0.67158967 0.0032367154
0.062182821 0.031302787 -0.011476411 0.54423666 -0.28827819 -0.78784651 0.0014230058
0.064120553 0.031647496 -0.010100436 0.62715524 -0.34035775 -0.70059466 0.0016723272
-0.060992699 0.034772381 -0.010031896 -0.58837384 -0.4119142 -0.6958037 0.0012080226
-0.058878783 0.034138877 -0.011331121 -0.52641481 -0.35311314 -0.77343297 0.0020020416
-0.028008504 0.03548016 -0.0115297 0.29750872 0.64077759 -0.70773768 0.0013110283
-0.025282089 0.034974691 -0.010818744 0.30055964 0.72991419 -0.613913 0.0012332676
-0.022625403 0.03421542 -0.010444861 0.27770859 0.74423563 -0.60744649 0.0019332714
-0.019803688 0.033582401 -0.0099865533 0.26684585 0.74753791 -0.6082601 0.0012808962
-0.017532285 0.033346962 -0.0092239846 0.24851659 0.75939059 -0.6013031 0.0010723915
0.026052812 0.03332828 -0.0094484054 -0.24270031 0.7759797 -0.58219582 0.00086433039
0.028716488 0.033712365 -0.010057399 -0.25983536 0.76098013 -0.59447026 0.0014893896
0.031575955 0.034341894 -0.010520959 -0.26468012 0.75573432 -0.59900761 0.0022071414
0.03426186 0.035063859 -0.010915893 -0.30647677 0.7352798 -0.60451275 0.0016326383
0.036627833 0.035603169 -0.011538954 -0.32622141 0.67525494 -0.66152126 0.0028778822
0.062860869 0.033571292 -0.011846142 0.55061239 -0.17856 -0.81544 0.0019536722
0.064588949 0.034576759 -0.010786735 0.61071801 -0.20967744 -0.763583 0.0017861457
0.066319816 0.034715656 -0.0093666436 0.68461972 -0.25696087 -0.68210477 0.0015099336
-0.063657142 0.038021442 -0.0095083164 -0.61390579 -0.3419573 -0.71146673 0.0024714069
-0.061547596 0.037575584 -0.010881712 -0.54691434 -0.26380545 -0.79453844 0.0017323854
-0.059705723 0.036532994 -0.01176947 -0.48959208 -0.22550647 -0.84228647 0.0031420775
-0.036263902 0.038960945 -0.011943074 0.3130976 0.67699504 -0.66606867 0.0012763826
-0.034146789 0.038458157 -0.011424635 0.31236795 0.6586194 -0.68457776 0.00083464896
-0.031321231 0.037780009 -0.010700006 0.32648006 0.71889347 -0.61367983 0.0014635286
-0.028649762 0.036946759 -0.010262442 0.3284688 0.72190398 -0.60906726 0.0014701206
-0.026309211 0.036362767 -0.0096782204 0.31076154 0.73623663 -0.60115135 0.0017330176
0.035073206 0.036453858 -0.009698729 -0.3303175 0.74811083 -0.57551765 0.0013159163
0.037716478 0.037047226 -0.010439234 -0.34813228 0.71740669 -0.60343313 0.0022942657
0.040218741 0.038003601 -0.010842045 -0.35897756 0.69977975 -0.61761111 0.0018648969
0.042755108 0.038640928 -0.011604454 -0.35015458 0.66413701 -0.66054052 0.00091616315
0.064900324 0.037484258 -0.011146791 0.55730522 -0.099166408 -0.82436454 0.0014311897
0.066851199 0.03760422 -0.0096268784 0.66398668 -0.13888839 -0.73473245 0.0025095907
-0.064239286 0.040547054 -0.0099008819 -0.57356817 -0.18315834 -0.79841876 0.0029410999
-0.061957423 0.0404437 -0.01139333 -0.49099413 -0.13326827 -0.86090904 0.0026176963
-0.040127445 0.041491378 -0.011263244 0.302394 0.67940927 -0.66855133 0.0017946872
-0.037398867 0.040657297 -0.010746245 0.32571363 0.6871928 -0.64936638 0.00074199744
-0.034711991 0.039960548 -0.010084535 0.35142523 0.7435748 -0.56885564 0.00081271445
-0.032449987 0.039255206 -0.0096283024 0.36353609 0.72927034 -0.57966048 0.0010814734
0.041179042 0.039584544 -0.0096726073 -0.40058735 0.71183366 -0.57690781 0.001501618
0.043654416 0.040291827 -0.010405277 -0.36977267 0.67055047 -0.64314085 0.0017489308
0.046251088 0.041039929 -0.01108012 -0.32523525 0.65498745 -0.68206561 0.0014410855
0.04870484 0.041616924 -0.011669526 -0.26789492 0.58475047 -0.76570177 0.0019652159
0.064763799 0.040615778 -0.011362643 0.47098309 0.047606092 -0.88085675 0.0052970229
0.067043588 0.040573981 -0.0098181944 0.62178844 -0.02503334 -0.78278512 0.0033503838
-0.066448152 0.044342555 -0.0090756044 -0.59988368 -0.098593086 -0.79398936 0.0037866628
-0.064532146 0.043535423 -0.010244279 -0.52219462 -0.10019868 -0.84691966 0.0024263752
-0.061915085 0.043603804 -0.011573224 -0.38284764 0.039858479 -0.92295122 0.0062635187
-0.048744593 0.044712946 -0.011791954 0.20516609 0.57569337 -0.79150742 0.0022468176
-0.046158995 0.044156864 -0.01138356 0.26506606 0.59801841 -0.75638205 0.0018918534
-0.043403089 0.043597445 -0.010709818 0.29983607 0.64013547 -0.70733649 0.00070596969
-0.04073799 0.042984441 -0.0099993106 0.35595131 0.70896935 -0.60881937 0.0020591265
-0.038281113 0.042290095 -0.0094206547 0.36691597 0.72217315 -0.5863775 0.0014246772
0.046844944 0.042671625 -0.009789452 -0.38184148 0.67906755 -0.62694842 0.0015128384
0.049558751 0.043459419 -0.010412231 -0.30232388 0.64463592 -0.7021715 0.0017822948
0.052360747 0.043896645 -0.011180477 -0.24658622 0.56906998 -0.78444535 0.0015940857
0.055286337 0.044380639 -0.011640836 -0.16298716 0.51028812 -0.84441763 0.0024104081
0.058382068 0.04471368 -0.011859291 -0.030090399 0.43637356 -0.89926231 0.0035153592
0.061949648 0.044248499 -0.011793616 0.15325098 0.29840076 -0.94205683 0.005580741
0.064473033 0.043537978 -0.011161411 0.37955651 0.17897926 -0.90769118 0.0058411374
0.066973425 0.043510601 -0.0097893747 0.56465977 0.083559483 -0.82108289 0.0039190263
-0.066291481 0.046394784 -0.0092448154 -0.53152192 0.03180163 -0.84644741 0.0051442548
-0.064443596 0.046487547 -0.010204239 -0.38375545 0.15689725 -0.91000825 0.0064592585
-0.061435003 0.046574175 -0.011269599 -0.25128323 0.26121679 -0.93199927 0.0086684031
-0.058744978 0.046863176 -0.011618714 -0.071286373 0.38915935 -0.91840804 0.0069337673
-0.055577949 0.047055524 -0.011505879 0.072111621 0.50977826 -0.85727823 0.0026074976
-0.052440308 0.04673022 -0.011247098 0.16855018 0.56665671 -0.80653024 0.0018026235
-0.049476974 0.046485506 -0.010539974 0.24673073 0.61461401 -0.74924874 0.0011091653
-0.046682112 0.045878261 -0.0099698212 0.32000518 0.67257386 -0.66726381 0.001722796
-0.044365481 0.045448117 -0.0092692124 0.35112211 0.69798851 -0.62411958 0.0019126398
0.050686345 0.045241926 -0.0092886286 -0.38419953 0.65078515 -0.65488112 0.0014489123
0.052756056 0.045794565 -0.0097666206 -0.31292126 0.64616269 -0.69609922 0.0022417901
0.055540636 0.046437547 -0.010262334 -0.25077745 0.58341396 -0.77248871 0.0031953764
0.05847485 0.046510469 -0.010873834 -0.07399568 0.48459288 -0.8716045 0.0030974627
0.06146973 0.04644746 -0.01096826 0.080790885 0.39848706 -0.91360873 0.0054663648
0.064550206 0.046551984 -0.010357082 0.29510754 0.29113311 -0.91002917 0.0072302083
0.066764191 0.04632321 -0.0094902003 0.48631588 0.18540904 -0.85388547 0.0047335909
-0.066232204 0.048607271 -0.0091103306 -0.36249539 0.19335085 -0.91170853 0.011165926
-0.064383127 0.049403366 -0.0095551964 -0.24770208 0.2777935 -0.9281565 0.0056942161
-0.061524492 0.049565349 -0.010028646 -0.14444098 0.41019309 -0.9004879 0.0055294652
-0.058463223 0.049526293 -0.010160715 0.023718474 0.54440671 -0.83848608 0.0047065024
-0.055544309 0.049218118 -0.010014256 0.13596128 0.6123727 -0.77879018 0.0042404407
-0.052641924 0.048637658 -0.0097301202 0.23417269 0.63619512 -0.73513192 0.0025627124
-0.05059465 0.048203126 -0.0094200792 0.30707785 0.64396662 -0.70072114 0.0035948476
0.056622934 0.048241276 -0.0092432555 -0.28347248 0.63544375 -0.71823025 0.0025039762
0.058725312 0.048700754 -0.0094805611 -0.17936108 0.5769909 -0.79681307 0.0043043317
0.0615988 0.049086608 -0.0096387612 -0.028195614 0.48971042 -0.87142909 0.005017689
0.064356752 0.0490219 -0.0095179351 0.17781511 0.37581903 -0.90947342 0.0056336876
0.066467367 0.048547279 -0.0091029033 0.44934243 0.23429708 -0.86208838 0.0064362092
-0.063118815 0.051216315 -0.0090165101 -0.13141085 0.4907051 -0.86135924 0.010826916
-0.061848648 0.051284023 -0.0090479497 -0.020695621 0.56795734 -0.82279778 0.0054199765
-0.0080502983 0.0027038059 -0.0061390135 -0.13602678 -0.84711444 -0.51370591 0.00065179804
-0.0051539084 0.0026508672 -0.0068667773 -0.11150984 -0.83692491 -0.53583789 0.00090414938
-0.0013437783 0.0025472548 -0.0072779753 -0.041880842 -0.83536255 -0.54810166 0.0010477279
0.0015935757 0.0023333223 -0.0070830421 -0.032816913 -0.82318693 -0.56682122 0.00088040624
0.0044576465 0.002647389 -0.0078584617 -0.032897767 -0.8076666 -0.58872092 0.0013276375
0.0067384965 0.0029341585 -0.0082039097 0.020157885 -0.83193415 -0.55450815 0.00092396612
-0.019175507 0.005522198 -0.0066710031 -0.22807281 -0.79879963 -0.55668837 0.00060737634
-0.016362222 0.0051730573 -0.0073411376 -0.20647274 -0.79448855 -0.57110149 0.00078609283
-0.013568843 0.004945958 -0.0081965756 -0.19122708 -0.78803015 -0.58518422 0.0010192822
-0.010595979 0.0040688734 -0.0078648999 -0.13922916 -0.80458772 -0.57728148 0.00156261
-0.0073713027 0.0037335067 -0.0081134969 -0.11195529 -0.81654352 -0.56632382 0.0018628992
-0.0042947195 0.0034625977 -0.008349305 -0.095146187 -0.83007908 -0.54946876 0.0013082895
-0.0020280208 0.0035703012 -0.0087783029 -0.065262243 -0.80862999 -0.58468658 0.0013821519
0.0016297719 0.0032219477 -0.0085468143 -0.027791623 -0.81015056 -0.58556277 0.0016036521
0.0082447827 0.0031048122 -0.0083814533 0.059770253 -0.82020634 -0.56893682 0.0015160132
0.010495633 0.0033552733 -0.0086344741 0.056305956 -0.82479811 -0.56261694 0.0018277508
0.013409798 0.003511779 -0.0085089309 0.071129069 -0.82851571 -0.55542982 0.0013876648
0.016503002 0.0035433921 -0.0080123637 0.11123051 -0.83188111 -0.54369253 0.0013379222
0.019640928 0.0038349943 -0.0076166657 0.1341088 -0.81901795 -0.55787486 0.0012260803
0.022674842 0.0043627075 -0.007480924 0.17102066 -0.83086735 -0.52953881 0.00095741206
0.025456399 0.0051289117 -0.0078447629 0.19581409 -0.80916107 -0.55399925 0.0012685804
0.028281871 0.005650708 -0.0073414301 0.22323598 -0.8323552 -0.50729734 0.00049232959
0.031282358 0.0059945546 -0.0063193357 0.24912055 -0.83119273 -0.49704888 0.00038718327
-0.025095552 0.0084386542 -0.0079527833 -0.2757588 -0.74066693 -0.61267406 0.0003211186
-0.022755697 0.0075132223 -0.0078291632 -0.26441243 -0.76040572 -0.59318566 0.00045212414
-0.019833887 0.0067164167 -0.0082450677 -0.24216552 -0.76675576 -0.59450948 0.00063173671
-0.016978558 0.0060707931 -0.0085086189 -0.20647468 -0.7944864 -0.57110387 0.00078607234
0.028460186 0.0064366367 -0.0087573389 0.22400588 -0.81511974 -0.53422952 0.0013485358
0.031450685 0.0067783031 -0.0077358591 0.24600634 -0.82144052 -0.5145058 0.000720096
0.034390949 0.0078340126 -0.0077873669 0.28269091 -0.80649632 -0.51927787 0.00054866716
0.037091225 0.008409176 -0.006962047 0.30647805 -0.81167591 -0.49724591 0.00042234559
-0.033706542 0.011613609 -0.0075261379 -0.33415952 -0.74875993 -0.57244742 0.00022790677
-0.031472623 0.011268093 -0.0083582094 -0.30892816 -0.7264837 -0.61382806 0.00066963711
-0.028430073 0.0098180203 -0.0080813803 -0.28547341 -0.73906755 -0.61015087 0.00026211073
-0.026440304 0.0093268007 -0.0085231923 -0.27831793 -0.73673141 -0.61625153 0.00040768471
0.037574809 0.0094439238 -0.0085679283 0.31860939 -0.78601855 -0.52977628 0.00044453738
0.040525001 0.010179656 -0.0075393305 0.34301999 -0.78052872 -0.52260125 0.00072092481
0.043257792 0.011254475 -0.0071452688 0.4062472 -0.79129922 -0.45695591 0.0020690432
-0.037574958 0.013843325 -0.0079613961 -0.36182088 -0.72236699 -0.58929753 0.00023635506
-0.034567855 0.012649093 -0.0084449388 -0.34667343 -0.72889346 -0.59036589 0.00023406479
0.04400894 0.012403115 -0.0085833892 0.38006589 -0.75511181 -0.53418738 0.00081937009
0.046590984 0.013391745 -0.0078160623 0.44004127 -0.77946413 -0.44586927 0.0016733148
0.049410209 0.014515082 -0.0069069145 0.47205997 -0.76109332 -0.44485542 0.00084177277
-0.043208372 0.017115587 -0.0079967836 -0.43354663 -0.6647287 -0.60841852 0.00060866168
-0.040461883 0.015586188 -0.0083123222 -0.41887599 -0.69457912 -0.58489549 0.00044622569
-0.038827356 0.015071234 -0.0087779239 -0.38733342 -0.68865013 -0.61297131 0.00079327251
0.049880683 0.015622941 -0.0083234534 0.45423642 -0.73346645 -0.50566417 0.0010904445
0.052469313 0.016882736 -0.0075193332 0.49732247 -0.72046125 -0.48332807 0.0013677531
0.054392152 0.017810339 -0.0068188291 0.53873098 -0.72243911 -0.43341741 0.00095840567
-0.048044372 0.020383505 -0.0078688404 -0.48230448 -0.66205233 -0.57364547 0.00016596608
-0.046220008 0.019297997 -0.0081487857 -0.46747622 -0.66040903 -0.58764428 0.00024997705
-0.044604577 0.018500205 -0.0085555092 -0.45683098 -0.66163236 -0.59459919 0.00022369486
0.053778164 0.018217534 -0.0081264731 0.52484214 -0.71704012 -0.45868751 0.002008558
0.055733398 0.01933484 -0.007635185 0.56493616 -0.67941856 -0.46822807 0.0026748374
0.057669383 0.020448741 -0.006891279 0.57951647 -0.6642397 -0.47217175 0.0010232783
-0.052545659 0.023667006 -0.007726517 -0.51361185 -0.63087332 -0.58155113 0.00035252303
-0.049925834 0.022037353 -0.0081710443 -0.4895196 -0.64933848 -0.58200526 0.00021926971
0.05678023 0.021164248 -0.0089431042 0.56756496 -0.59567797 -0.56836414 0.0017128255
0.058990497 0.02243189 -0.0078873066 0.60800105 -0.62093037 -0.49475262 0.0029436166
0.060829461 0.023357505 -0.0068538166 0.62204343 -0.61352062 -0.4864713 0.0010264106
-0.055851933 0.026202448 -0.0074282642 -0.5265224 -0.60014862 -0.60215932 0.00046708036
-0.05326511 0.024898944 -0.008525162 -0.5115633 -0.6135146 -0.60158354 0.00065092708
0.061962865 0.02520369 -0.0076460578 0.63205409 -0.5857538 -0.50734603 0.0021467682
0.063650109 0.026357694 -0.0067088325 0.67132866 -0.53838104 -0.50937581 0.0011102898
-0.058302619 0.029095197 -0.0081510367 -0.56893361 -0.55450475 -0.60732114 0.00070996233
-0.056629539 0.027366813 -0.0080342088 -0.55416256 -0.5660159 -0.61035228 0.00084498234
0.002720461 0.029797476 -0.0089311544 0.017579675 0.78378421 -0.6207844 0.00069375598
0.004632859 0.029871821 -0.0088131065 0.005902804 0.78605247 -0.61813164 0.00073904567
0.0067870244 0.029963972 -0.0087074675 -0.022884995 0.78611189 -0.61766034 0.00095367851
0.064345665 0.028515644 -0.0078660753 0.66925228 -0.46147037 -0.58236289 0.0011291405
0.066057652 0.029544178 -0.0065093036 0.71899188 -0.44435063 -0.5344187 0.0019151217
-0.060969818 0.031683229 -0.0077570416 -0.59801781 -0.47912449 -0.64250636 0.00046299811
-0.059984971 0.03034248 -0.0075189075 -0.58239329 -0.49932778 -0.64147466 0.00071290211
-0.015030183 0.032781761 -0.0089511452 0.22342502 0.75900429 -0.61155033 0.00090479915
-0.013119814 0.032499235 -0.008557451 0.22289252 0.78149682 -0.58273643 0.0012891759
-0.010451283 0.032347236 -0.0077859708 0.19287018 0.83962786 -0.50776571 0.0015127739
-0.0075058057 0.031810682 -0.0076254872 0.16281143 0.85744274 -0.4881438 0.0013264368
-0.00441171 0.031316549 -0.0076307827 0.13022673 0.8465817 -0.51608175 0.0020594492
-0.0014529312 0.030980065 -0.0075806715 0.082307905 0.85904217 -0.50524443 0.0021717905
0.0014823406 0.030794935 -0.0075315586 0.046212673 0.86556911 -0.49865267 0.0021361986
0.004409295 0.030843357 -0.0073100724 0.0030858819 0.86622536 -0.49964404 0.0024060635
0.0075342273 0.030762037 -0.0075133736 -0.022418324 0.86282873 -0.50499904 0.0019928997
0.010463552 0.030864032 -0.0077040889 -0.084991477 0.86093175 -0.50157052 0.0018870067
0.013484288 0.031215167 -0.0076632858 -0.13265936 0.86764723 -0.4791553 0.0032454373
0.016516495 0.031833146 -0.0075566368 -0.19109476 0.8628428 -0.46795848 0.0015399262
0.019303983 0.032340117 -0.0078299297 -0.22107185 0.84233749 -0.49152279 0.0017897172
0.022095956 0.032641482 -0.0086482856 -0.24366707 0.7855711 -0.56877446 0.00063884014
0.065380223 0.030832546 -0.0084082419 0.69584179 -0.37157854 -0.6146003 0.0024876641
0.06670022 0.031834848 -0.0073864684 0.73549938 -0.39641121 -0.5494532 0.0021383641
-0.063896827 0.034866888 -0.0071739703 -0.64242721 -0.41157636 -0.64644587 0.0010709004
-0.062244654 0.034165822 -0.0084912675 -0.59172285 -0.43691918 -0.67747009 0.001241334
-0.021912903 0.035543229 -0.0082739042 0.30739263 0.81429893 -0.49236876 0.0015921278
-0.019441752 0.03500054 -0.0076855561 0.30370504 0.83641553 -0.45625904 0.0013524672
-0.016455535 0.034077328 -0.0075863041 0.24381509 0.83258671 -0.49734658 0.0016815563
-0.013632488 0.033536587 -0.0071602371 0.22770965 0.84473068 -0.48433295 0.0019123995
-0.010951698 0.033239722 -0.0063591907 0.2017186 0.85834354 -0.47175843 0.0014672395
0.020220086 0.033297122 -0.0066522434 -0.23195793 0.86058217 -0.45342448 0.001725655
0.022652777 0.033637345 -0.0073164706 -0.24412166 0.85266376 -0.46191898 0.0020249125
0.025483964 0.034304105 -0.0075636604 -0.25300145 0.84640616 -0.46860096 0.001872341
0.028391726 0.035129588 -0.0076848208 -0.29827937 0.84780586 -0.43846855 0.0013621761
0.030975489 0.035640109 -0.0083853239 -0.30685118 0.82048267 -0.48233858 0.0021115339
0.067593887 0.03443595 -0.00777394 0.75914663 -0.30120972 -0.57703465 0.0023834147
0.069026157 0.035536282 -0.0064322101 0.80431193 -0.3198204 -0.50079656 0.0029244323
-0.066328987 0.037882265 -0.0066191461 -0.68372673 -0.35375184 -0.63826114 0.0013096087
-0.064676434 0.037457876 -0.0082309404 -0.64423275 -0.36914614 -0.66984719 0.0011582165
-0.030464735 0.038870454 -0.0087733623 0.3495183 0.74221641 -0.57179701 0.0011475215
-0.028224044 0.038374759 -0.007976504 0.36243653 0.80214226 -0.47456032 0.0017062336
-0.025566949 0.037404712 -0.0076236082 0.33808136 0.81087911 -0.47767782 0.0020439504
-0.022846054 0.036593121 -0.0071477504 0.32458523 0.82535845 -0.46198255 0.0015812321
-0.020773903 0.036186051 -0.0062934952 0.31649488 0.83753407 -0.44538483 0.0011857848
0.029666873 0.036214646 -0.006554401 -0.30208108 0.85637087 -0.41877908 0.0017741973
0.031744331 0.036598206 -0.0071873358 -0.32254025 0.83494687 -0.44590518 0.0018471471
0.034511007 0.03758353 -0.0075225686 -0.37206435 0.81213719 -0.44944564 0.0027764512
0.037049681 0.038395375 -0.0081568053 -0.40274402 0.77319199 -0.4898687 0.0026216861
0.068281993 0.037395876 -0.0081327986 0.75509071 -0.17391658 -0.63213205 0.0020572275
0.069495171 0.03767217 -0.0066929273 0.79391015 -0.20304862 -0.57313007 0.0018414531
-0.067111187 0.040718939 -0.0074159889 -0.68690503 -0.28180391 -0.66988665 0.0013230263
-0.065657862 0.039966051 -0.0085369209 -0.67202973 -0.26418841 -0.69179517 0.0027567542
-0.036292482 0.041837763 -0.0086054252 0.38233027 0.76117593 -0.52386522 0.0028942972
-0.034212027 0.041237336 -0.0079317279 0.37729809 0.78827041 -0.48608223 0.001930316
-0.031588852 0.040203765 -0.0075383135 0.36930752 0.79371488 -0.48335153 0.0015188499
-0.029150138 0.039435949 -0.0068496009 0.37468061 0.81515586 -0.44174132 0.0013025783
0.03798575 0.039502155 -0.0071531483 -0.413656 0.78220052 -0.46588737 0.0025072445
0.04042194 0.040640227 -0.0075818263 -0.44647741 0.75826257 -0.4750745 0.002251823
0.042725258 0.041527119 -0.0083113229 -0.43762249 0.72492689 -0.53194702 0.0035330565
0.068544887 0.040297687 -0.0084345741 0.74269849 -0.072258465 -0.66571593 0.0026940932
0.069872372 0.040670041 -0.0069623836 0.78158367 -0.10785728 -0.61440521 0.0020090963
-0.069417462 0.044483315 -0.0063681025 -0.70402253 -0.22244251 -0.67444181 0.0015274105
-0.067550912 0.043463401 -0.0079700733 -0.66401988 -0.19374335 -0.7221781 0.0028044975
-0.042399235 0.044762556 -0.0089334669 0.35448065 0.72002256 -0.59658277 0.0010468463
-0.040213507 0.04432309 -0.0078778723 0.39707959 0.77293295 -0.4948763 0.0025555652
-0.037629653 0.043228526 -0.0075040986 0.3919155 0.76913667 -0.50480795 0.0016018812
-0.035247382 0.042433746 -0.0068340208 0.41484106 0.79267746 -0.44673184 0.001108532
0.041758638 0.042189211 -0.00637369 -0.46957171 0.76524031 -0.44035184 0.001119745
0.043841146 0.042851076 -0.007316058 -0.45132014 0.74686933 -0.48836088 0.0023762831
0.046296597 0.044012029 -0.0077886484 -0.41366392 0.73643851 -0.53529471 0.0018183461
0.048466753 0.044718876 -0.0085139433 -0.42176583 0.68191904 -0.59757841 0.0016337439
0.068567067 0.0434778 -0.0085544651 0.697878 0.032089118 -0.71549743 0.002531806
0.069855355 0.043516099 -0.0072138174 0.74980628 -0.0096403109 -0.66158718 0.0030286782
-0.069647014 0.046629265 -0.0066835112 -0.6577791 -0.11576105 -0.74426204 0.0038322147
-0.06783513 0.046596989 -0.0081998119 -0.58773053 -0.046034008 -0.80774605 0.0025261226
-0.048567183 0.047882978 -0.0087593645 0.32405427 0.68976361 -0.64746821 0.0011409473
-0.046245359 0.047348429 -0.0080062533 0.37514204 0.75700593 -0.5349865 0.0030433834
-0.043544658 0.046322115 -0.007486721 0.38472304 0.78318578 -0.48847538 0.0015897339
-0.041081827 0.045468885 -0.0068243486 0.41812605 0.78520823 -0.45674795 0.0015992073
0.047439657 0.045480754 -0.0066329585 -0.4571363 0.73956019 -0.49404159 0.0020599663
0.04965717 0.046174273 -0.0074981507 -0.39324385 0.73465031 -0.55285448 0.0015429882
0.052214749 0.047210034 -0.0080318563 -0.38925663 0.71232784 -0.5840106 0.0039169965
0.054474663 0.04770292 -0.0088348417 -0.31072852 0.62605035 -0.71519834 0.0015258227
0.068098836 0.046676952 -0.0085720364 0.55997324 0.12400205 -0.81917846 0.0035536883
0.069756866 0.046492852 -0.0071682958 0.69270468 0.079379395 -0.71683973 0.0032246795
-0.069904558 0.049716763 -0.0067305574 -0.61232769 -0.011902102 -0.79051441 0.0067389566
-0.067546114 0.049580492 -0.0082556894 -0.46515396 0.16420439 -0.86986709 0.011896661
-0.065454789 0.050580118 -0.008898437 -0.236587 0.25515696 -0.93750811 0.0051345541
-0.057388548 0.050968565 -0.0089253224 0.10282528 0.67309576 -0.73237222 0.0034092758
-0.055194367 0.05072948 -0.0086349826 0.20152451 0.70059949 -0.68450582 0.0018639669
-0.052395094 0.050165471 -0.0080497935 0.28489035 0.73835224 -0.61128843 0.0019154017
-0.049602874 0.049335007 -0.0075280918 0.33782092 0.73210728 -0.59151995 0.0014788732
-0.046951525 0.048536539 -0.0068028616 0.38966635 0.76775026 -0.50864482 0.001941751
0.05296788 0.048621535 -0.0068992972 -0.4259454 0.72318691 -0.54366457 0.0018189964
0.055528462 0.049505655 -0.0075004948 -0.34357071 0.69375366 -0.63298106 0.0025279524
0.058299858 0.050071128 -0.008243395 -0.24756332 0.60837388 -0.75405151 0.002231597
