# .PCD v0.7 - Point Cloud Data file format
VERSION 0.7
FIELDS x y z normal_x normal_y normal_z curvature
SIZE 4 4 4 4 4 4 4
TYPE F F F F F F F
COUNT 1 1 1 1 1 1 1
WIDTH 555
HEIGHT 1
VIEWPOINT 0 0 0 1 0 0 0
POINTS 555
DATA ascii
-0.034489315 0.02823166 -0.016910028 0.030438432 0.14927629 -0.98832685 0.0069584767
-0.031588826 0.028501831 -0.016684476 0.097067349 0.20106122 -0.97475755 0.0036419136
-0.028378477 0.028434733 -0.01630898 0.1087441 0.2926015 -0.9500311 0.0037874375
-0.025635669 0.028301796 -0.015917659 0.17248262 0.34966776 -0.92085958 0.004117006
-0.022791043 0.027855214 -0.015621505 0.1534507 0.42467633 -0.89224595 0.0024735809
-0.019831544 0.027432784 -0.015305933 0.16358449 0.44695175 -0.87947392 0.0014333546
0.026112759 0.027204469 -0.015340578 -0.16138549 0.4154878 -0.89516735 0.0034648755
0.028492166 0.027753118 -0.01550119 -0.1668974 0.40758622 -0.89778548 0.0024326423
0.031725921 0.028179752 -0.015898678 -0.15061346 0.41796938 -0.89588904 0.00086600473
0.034683544 0.028455595 -0.0163309 -0.13256291 0.3805109 -0.91522598 0.0019771408
0.037494369 0.028401088 -0.016762014 -0.11412569 0.33478251 -0.93535876 0.0031877325
0.040571447 0.028531734 -0.017061079 -0.077475712 0.27478358 -0.95837963 0.006018694
0.043562394 0.028710147 -0.017129324 0.013175977 0.17185611 -0.98503399 0.0053293118
0.046408381 0.028477756 -0.017044747 0.080918215 0.037504543 -0.99601489 0.0049801269
0.049453057 0.028388387 -0.016610051 0.21833038 -0.088278905 -0.97187382 0.0070210262
0.052594431 0.028508879 -0.015799709 0.26601893 -0.14718558 -0.95266485 0.003066215
0.054650966 0.02889956 -0.015173993 0.35977399 -0.22673862 -0.90507025 0.003249658
-0.051183235 0.032830842 -0.015036823 -0.2967687 -0.18656588 -0.93654764 0.0042505409
-0.049166143 0.031653937 -0.01535308 -0.25114599 -0.20082249 -0.94688755 0.0043715485
-0.046425603 0.031398717 -0.016001133 -0.19515386 -0.10919861 -0.97467464 0.0052590114
-0.043581028 0.031454418 -0.016457817 -0.12416947 -0.060585797 -0.99040967 0.0082672378
-0.040669352 0.031468429 -0.016619064 -0.019892521 0.12730968 -0.99166352 0.006924225
-0.037622862 0.031620231 -0.016521106 0.060186338 0.22335155 -0.97287804 0.0049045044
-0.034618761 0.031221874 -0.016304791 0.13970776 0.32439312 -0.93554842 0.0050289766
-0.031529117 0.031281136 -0.015775014 0.16423216 0.37765533 -0.91126525 0.0036936125
-0.028862352 0.030756127 -0.015494748 0.16238753 0.42561507 -0.89021462 0.0014780393
-0.026702879 0.03019258 -0.01534139 0.18951099 0.45907423 -0.86794955 0.00080103579
0.034309808 0.030251995 -0.015292959 -0.15272443 0.43840495 -0.88570672 0.0020148391
0.037432101 0.031069482 -0.015546233 -0.19104049 0.47483709 -0.85908866 0.00103223
0.040609747 0.031238733 -0.016104626 -0.13135956 0.3917574 -0.9106431 0.0019678688
0.043477576 0.031481031 -0.016412329 -0.082584754 0.31712416 -0.94478148 0.0037768967
0.046592023 0.031677991 -0.016582226 -0.038981576 0.25108561 -0.96717966 0.0076828087
0.049627412 0.031555783 -0.016506841 0.087756328 0.13906348 -0.98638749 0.0060397722
0.052407838 0.031455368 -0.016098488 0.19433847 0.014127429 -0.98083276 0.003852261
0.055171225 0.031554066 -0.015434291 0.29245877 -0.070047379 -0.95370913 0.0024339024
-0.051732652 0.034737926 -0.01515534 -0.27309883 -0.090277463 -0.95774055 0.0044596451
-0.049541626 0.034422021 -0.015642863 -0.15394604 -0.040888105 -0.9872328 0.0054033101
-0.046600159 0.034402344 -0.016055055 -0.11700713 0.069691621 -0.99068278 0.0047379765
-0.043446857 0.034426183 -0.016170733 -0.010349319 0.19427751 -0.980892 0.0049503888
-0.04058395 0.034313232 -0.016057853 0.076150328 0.27610257 -0.95810676 0.0037875744
-0.03766292 0.034430925 -0.015586218 0.19083287 0.4188689 -0.88776779 0.0019875895
-0.034606118 0.033746555 -0.015319362 0.18405892 0.43004814 -0.88384444 0.0018066764
0.041416023 0.033462394 -0.01513963 -0.20764819 0.45954254 -0.86354089 0.0010170843
0.04418147 0.033799171 -0.015604121 -0.15309671 0.41865081 -0.89514965 0.0012948837
0.046551857 0.034613091 -0.015607003 -0.11122167 0.37200409 -0.92154366 0.003806293
0.049440127 0.034347575 -0.015935883 -0.028839586 0.28562823 -0.95790648 0.006084186
0.052667182 0.034240652 -0.015847487 0.10472228 0.1514558 -0.98290104 0.0030373349
0.055567157 0.034464072 -0.015333806 0.19431911 0.056327339 -0.97931981 0.0032776357
-0.051766757 0.037526559 -0.015152297 -0.15524167 0.075082771 -0.98501915 0.0055451654
-0.049594 0.037511226 -0.015398965 -0.055146772 0.18882349 -0.98046136 0.0045858761
-0.046671785 0.037458666 -0.015493224 0.029162411 0.27981699 -0.95961034 0.0054101306
-0.043864489 0.037139483 -0.015409539 0.073466927 0.34104106 -0.93717313 0.0027512216
-0.040918346 0.036239997 -0.01536085 0.14558761 0.40419683 -0.9030112 0.001595255
0.049760513 0.036383294 -0.015246083 -0.086781219 0.37906852 -0.92129046 0.0027597186
0.052530147 0.036670301 -0.015296026 0.023709709 0.29803503 -0.95426041 0.0030610836
0.054909047 0.036632936 -0.015148767 0.15977661 0.20610318 -0.96539778 0.0036606665
-1.1411996e-05 0.005988 -0.012069682 -0.04483103 -0.72539139 -0.68687516 0.0015724452
0.0015893676 0.0059385798 -0.012113545 -0.027743898 -0.68376786 -0.72917211 0.00066315354
0.0045612431 0.0058765421 -0.012168606 -0.011128099 -0.65526956 -0.75531322 0.0018036335
0.0075331456 0.0058947876 -0.012152411 0.01115852 -0.71175313 -0.70234108 0.0012258325
0.010505754 0.0059277331 -0.01212317 0.029096827 -0.69854933 -0.71496999 0.00062696094
0.012336629 0.0059920121 -0.012066119 0.05803746 -0.70794982 -0.70387405 0.00056366285
-0.015908474 0.0087531107 -0.012248077 -0.17416297 -0.67468095 -0.71726763 0.0012259459
-0.013435574 0.0084157158 -0.012472099 -0.15250599 -0.65112215 -0.74349296 0.0013694745
-0.010565932 0.0080415206 -0.012699609 -0.11929711 -0.63142854 -0.76620251 0.0012309573
-0.0075019267 0.0078512579 -0.012914185 -0.092816196 -0.62193435 -0.77754915 0.0012993109
-0.0045950972 0.0076281521 -0.013063597 -0.075216867 -0.60974532 -0.7890203 0.0013984157
-0.0013621217 0.0073784022 -0.013106143 -0.04148294 -0.6112808 -0.790326 0.0014607885
0.0015882868 0.0075840917 -0.013407399 -0.033172365 -0.5613851 -0.82688951 0.00060151209
0.0045629148 0.0075150696 -0.013468062 -0.016513567 -0.56675667 -0.82371974 0.00067027903
0.0075371391 0.0075059403 -0.013476055 -0.00055085827 -0.57178694 -0.82040191 0.00089314493
0.0105116 0.0075128251 -0.013469969 0.013258114 -0.58352405 -0.81198758 0.0009630553
0.013474992 0.0075075608 -0.013313318 0.042339496 -0.62627047 -0.77845532 0.00040141647
0.016416397 0.0076382477 -0.013238773 0.066250168 -0.66363877 -0.74511373 0.0010598832
0.019407827 0.0077696489 -0.013030412 0.10475659 -0.65857625 -0.74518687 0.0018529416
0.022338664 0.008092449 -0.012879643 0.12939671 -0.69540244 -0.70687485 0.0012189795
0.025307586 0.0084241573 -0.012624674 0.16502513 -0.67515868 -0.71897668 0.0011760321
0.027829196 0.0087608621 -0.012295868 0.18969974 -0.72522819 -0.66185945 0.00084417459
-0.024744514 0.011654788 -0.012287995 -0.23926353 -0.66709137 -0.70550847 0.0011324817
-0.022265008 0.011221588 -0.012628899 -0.21753012 -0.64033502 -0.73664898 0.0014750008
-0.019523684 0.010727016 -0.012989983 -0.19444616 -0.61501104 -0.76416755 0.0011116845
-0.016631044 0.010448803 -0.013418539 -0.16082519 -0.55743903 -0.81449187 0.00090762047
-0.013585775 0.010464957 -0.013935269 -0.1252152 -0.53345269 -0.83651018 0.00083976128
-0.010638684 0.010232441 -0.014234101 -0.10228758 -0.52112728 -0.84732729 0.00089966424
-0.0076721725 0.010116592 -0.0144405 -0.075026795 -0.49617037 -0.86497736 0.0018893252
-0.0046072165 0.0098057622 -0.014507787 -0.057517651 -0.48257613 -0.87396342 0.0020733271
-0.0015002637 0.0096810181 -0.014616226 -0.045113195 -0.47045717 -0.88126886 0.0021919052
0.0015864666 0.0095892465 -0.014695783 -0.036346111 -0.46348301 -0.88536006 0.0023792111
0.004565794 0.0095164487 -0.014759073 -0.019660011 -0.46067601 -0.88735062 0.0022847108
0.0075443448 0.0094826687 -0.014788446 -0.0084638996 -0.46326271 -0.88618064 0.0024721774
0.010522452 0.0094558913 -0.014811727 0.0078228479 -0.47719246 -0.87876391 0.0026429724
0.013501934 0.0094845695 -0.01478679 0.026652787 -0.49447653 -0.86878222 0.0025689336
0.016644837 0.009460737 -0.014646744 0.048068766 -0.58661985 -0.80843467 0.0011936771
0.019570021 0.0096540768 -0.014509316 0.074625589 -0.54633588 -0.83423501 0.0019553986
0.022595121 0.009889503 -0.014339919 0.10301841 -0.5716874 -0.81397837 0.0015528776
0.025516918 0.010157876 -0.014089666 0.14970104 -0.61769718 -0.77203614 0.0025221459
0.028506972 0.010472062 -0.013706694 0.17398673 -0.62098455 -0.76426876 0.00093352492
0.031433985 0.010717125 -0.01320247 0.21493012 -0.66401994 -0.71615821 0.0018260659
0.034298263 0.011213575 -0.012721839 0.24903372 -0.69503385 -0.67447025 0.0012972953
0.036907881 0.011675877 -0.012269606 0.28416169 -0.67188686 -0.68397379 0.0014273804
-0.033268396 0.014932134 -0.012204887 -0.30270785 -0.62357771 -0.7207765 0.0022573129
-0.031157723 0.014384462 -0.012473318 -0.26649654 -0.65063018 -0.71109778 0.0015252254
-0.028398911 0.013880712 -0.012947209 -0.23293993 -0.61583358 -0.7526539 0.0019879115
-0.025475459 0.01345098 -0.013483508 -0.22509268 -0.58835185 -0.77664363 0.0016991611
-0.022524402 0.013340422 -0.014129534 -0.18389462 -0.53078014 -0.82731807 0.00079281442
-0.019584047 0.012906737 -0.014478059 -0.16342875 -0.49823517 -0.85150033 0.0016530106
-0.01647589 0.012436004 -0.014733193 -0.12958682 -0.45976999 -0.87853217 0.0023181166
-0.014612325 0.012289784 -0.014890286 -0.11481163 -0.45653674 -0.88226551 0.0043180226
0.029901566 0.012244711 -0.014827812 0.14652945 -0.58295333 -0.79918367 0.00095647003
0.031740848 0.012589498 -0.014644829 0.1824318 -0.54544032 -0.81805468 0.0024415327
0.034717262 0.012962353 -0.014151856 0.21966252 -0.57883275 -0.78530312 0.0013734021
0.037580203 0.01345469 -0.013611762 0.26739511 -0.60892451 -0.7468003 0.0013749362
0.040334679 0.013960348 -0.012953602 0.30382979 -0.65195936 -0.69472045 0.0019989742
0.042897619 0.01456802 -0.012407613 0.34943584 -0.65589601 -0.66910017 0.0019329613
-0.039297607 0.017891472 -0.012118726 -0.36650187 -0.59244764 -0.71741354 0.0024819383
-0.037264492 0.017333144 -0.012494159 -0.32176006 -0.6267038 -0.70972735 0.0015806688
-0.034376353 0.016677866 -0.013119019 -0.29819596 -0.59924841 -0.7429539 0.0014314994
-0.031450734 0.016374696 -0.013916898 -0.23664401 -0.53798133 -0.80905855 0.00072229467
-0.028727945 0.016037751 -0.014424141 -0.20154962 -0.51639956 -0.83229154 0.0016137332
-0.025920365 0.015494083 -0.014735424 -0.17878491 -0.46564561 -0.86672372 0.0020686095
0.038478766 0.01527247 -0.014724468 0.23421456 -0.5486806 -0.80255413 0.0010800485
0.040722962 0.015826028 -0.014378503 0.27363393 -0.54236835 -0.7943306 0.0016572882
0.043430734 0.016380608 -0.013703913 0.31144863 -0.56147623 -0.76664484 0.00064902351
0.046251398 0.017036235 -0.012850518 0.36953112 -0.61149627 -0.69965637 0.0020572823
0.04871675 0.017779954 -0.012214113 0.41737953 -0.63692617 -0.64816618 0.0015505612
-0.042758744 0.020512925 -0.012345087 -0.39947146 -0.59598625 -0.6965794 0.001533422
-0.040445868 0.019758504 -0.012935463 -0.37006837 -0.5656423 -0.73695201 0.0016310636
-0.03765725 0.019408535 -0.013894301 -0.29178545 -0.51135051 -0.8083204 0.00069819635
-0.034760267 0.018808274 -0.014475022 -0.25369126 -0.48371843 -0.83764982 0.0017961093
-0.032168087 0.018239515 -0.014882725 -0.21472211 -0.482687 -0.84906286 0.0011866431
0.044353686 0.018394284 -0.014751872 0.29778641 -0.50726908 -0.80870342 0.0012636997
0.046546616 0.019063883 -0.014287536 0.34485111 -0.50242776 -0.79287082 0.00095113309
0.049330946 0.019571325 -0.01326122 0.39556211 -0.54066277 -0.7424382 0.0021493416
0.051860899 0.020508768 -0.012485122 0.44891807 -0.55256134 -0.70224541 0.00093246467
-0.046129853 0.023202663 -0.012567218 -0.42222857 -0.55721164 -0.71500921 0.0013516957
-0.043543857 0.022493728 -0.013387958 -0.37234285 -0.49328884 -0.78614688 0.0011872101
-0.040862806 0.022182522 -0.014352383 -0.31737417 -0.46428782 -0.82686788 0.0010693765
-0.038370188 0.021421008 -0.014847222 -0.26709735 -0.45504421 -0.84946674 0.0015071167
-0.0057269013 0.023977315 -0.014952865 0.09334486 0.42846632 -0.89872313 0.0033982142
-0.00031796616 0.023202654 -0.014986683 0.057904799 0.43116754 -0.90041184 0.0036468382
0.0015589939 0.023319645 -0.014889206 -0.016243648 0.44617239 -0.89479959 0.0027473599
0.0043756389 0.023321815 -0.014887396 0.018300153 0.41010627 -0.91185415 0.0029015841
0.0062524551 0.023204818 -0.01498488 -0.013743232 0.42000628 -0.90741718 0.003547041
0.012130471 0.0239232 -0.014997856 -0.072220057 0.42383304 -0.90285647 0.0018266857
0.049761694 0.021890497 -0.014539866 0.36903244 -0.4336018 -0.82207334 0.0010835421
0.052401394 0.022440771 -0.013522247 0.40944451 -0.45539159 -0.79055274 0.00053945708
0.054825149 0.02323282 -0.012632374 0.48850584 -0.50186878 -0.71378541 0.0012427147
-0.05132262 0.026665339 -0.012101553 -0.46091574 -0.54577655 -0.69977468 0.0017083763
-0.049293224 0.025902629 -0.012737531 -0.42436227 -0.52327818 -0.73898351 0.0014785471
-0.046636902 0.025403902 -0.013752172 -0.38377464 -0.45348814 -0.80440384 0.0012174491
-0.044021741 0.024857104 -0.014596085 -0.31442386 -0.41907358 -0.85177165 0.001818624
-0.01403567 0.026602592 -0.014612766 0.11894059 0.42241669 -0.89856398 0.0024535328
-0.01075914 0.025785336 -0.014554037 0.11873501 0.44094506 -0.8896457 0.0015357416
-0.0074221292 0.026006781 -0.013879812 0.093709506 0.47330454 -0.87590033 0.0013778125
-0.0043249344 0.024383435 -0.014615223 0.048310645 0.42858544 -0.90220875 0.0037336804
-0.0015196651 0.025837766 -0.013406118 0.054521408 0.50016373 -0.86421275 0.00087462622
0.00060168136 0.026529647 -0.012830899 0.036873747 0.50328463 -0.8633337 0.00074732775
0.0081758443 0.026400765 -0.012938049 -0.059378874 0.51048511 -0.85783392 0.00064159709
0.010500941 0.024632374 -0.014408261 -0.051718105 0.43472865 -0.89907515 0.0031597237
0.014544807 0.026107291 -0.013796431 -0.10615137 0.50307357 -0.85769975 0.0014900469
0.016646178 0.025581773 -0.014539279 -0.11824543 0.49971059 -0.85808355 0.0016054548
0.019488962 0.026171681 -0.014663117 -0.13750432 0.51109535 -0.84845394 0.001621204
0.052973222 0.024939639 -0.014602419 0.38759497 -0.3525157 -0.85176456 0.0013045063
0.055391889 0.025438519 -0.013528679 0.46241152 -0.40221882 -0.79018706 0.0020952034
0.057647143 0.026068786 -0.012504144 0.50756818 -0.4380047 -0.74197459 0.0017823258
-0.054451715 0.029599408 -0.012137588 -0.48116767 -0.4843533 -0.73067069 0.0022997134
-0.052396934 0.028742492 -0.01278635 -0.43646708 -0.46998698 -0.7672084 0.0018570323
-0.049729824 0.028449092 -0.01399384 -0.37675193 -0.40070507 -0.83516073 0.00139899
-0.047224581 0.027664641 -0.01470727 -0.3153339 -0.36181438 -0.87729973 0.0033253748
-0.022422252 0.029467441 -0.01470831 0.19133712 0.43756652 -0.87859297 0.0016401192
-0.019313945 0.028635453 -0.014470909 0.16358273 0.44693038 -0.87948507 0.0014420879
-0.016439764 0.028602963 -0.013822575 0.16862448 0.4708994 -0.86592126 0.0006269376
-0.013145691 0.02777236 -0.013646614 0.13165826 0.44534862 -0.88562441 0.001485598
-0.0098282378 0.027473353 -0.013278946 0.12352485 0.47701716 -0.87017024 0.0011939437
-0.0058002449 0.02719683 -0.012892588 0.098871507 0.48258871 -0.8702485 0.00096227071
0.017438473 0.027748672 -0.013051051 -0.14899744 0.52010417 -0.84100616 0.0011422724
0.020295518 0.028266504 -0.013238481 -0.15475352 0.55128556 -0.8198387 0.00031597225
0.02289621 0.028420821 -0.013726247 -0.17729478 0.52815014 -0.83043599 0.00045246043
0.025269659 0.028747829 -0.014071441 -0.1724897 0.50490481 -0.84576499 0.00086780597
0.028587067 0.029158458 -0.014654674 -0.18208686 0.46144351 -0.86828226 0.00083712267
0.03170291 0.029996417 -0.014888814 -0.1603381 0.40991369 -0.8979212 0.00081602612
0.05587586 0.028280826 -0.014480856 0.40958723 -0.28248379 -0.86743367 0.0014519487
0.058462113 0.028480237 -0.013189463 0.49017552 -0.3375501 -0.80360925 0.0016604468
0.060486238 0.029443769 -0.012266315 0.54630572 -0.35317668 -0.75948417 0.0021918667
-0.057154845 0.032687046 -0.012072361 -0.52129215 -0.40815398 -0.74944305 0.0018971275
-0.055188071 0.03165948 -0.012790882 -0.46189281 -0.37854755 -0.80209523 0.002917096
-0.0524472 0.031422749 -0.014086307 -0.39365408 -0.31455734 -0.86376512 0.0016393653
-0.050326023 0.030584281 -0.01467192 -0.33382773 -0.27903694 -0.90038735 0.0038515292
-0.028274529 0.032248493 -0.014485675 0.16238725 0.42561799 -0.89021337 0.0014733711
-0.025480045 0.031119086 -0.014432952 0.18950182 0.45904621 -0.86796635 0.00080162089
-0.022760874 0.030979054 -0.013778746 0.19807653 0.48495063 -0.85181487 0.00042567152
-0.019636525 0.030104341 -0.013571972 0.18756634 0.47158375 -0.86164236 0.00052364729
0.034627121 0.031257402 -0.014780588 -0.17421557 0.4758153 -0.86211872 0.00082970527
0.037539873 0.032289371 -0.014862051 -0.19784327 0.47046638 -0.85995317 0.0011093841
0.039481748 0.032925479 -0.014960191 -0.20243661 0.46670321 -0.86093402 0.0012270577
0.056661107 0.030702943 -0.01480302 0.35556906 -0.13045898 -0.92550051 0.0028722389
0.058593694 0.031418677 -0.013991316 0.42224091 -0.16787055 -0.89080417 0.0022768194
0.06115244 0.031731717 -0.012649439 0.50853074 -0.24583346 -0.82520443 0.002425618
-0.057937842 0.034720182 -0.012512154 -0.4694722 -0.30814958 -0.82742959 0.0038808004
-0.055543467 0.034470126 -0.013650527 -0.4036766 -0.23332421 -0.88464963 0.002099782
-0.053115018 0.034286767 -0.014628136 -0.3431783 -0.17275365 -0.92324686 0.0038683389
-0.037064668 0.035621926 -0.014935199 0.19081633 0.4188748 -0.88776857 0.0019807031
-0.034195583 0.035230137 -0.014327561 0.21606189 0.45807365 -0.86225617 0.00072916271
-0.031465512 0.034283735 -0.014106832 0.20879722 0.45932478 -0.86337966 0.0007985541
-0.029082967 0.033458661 -0.013913112 0.20776957 0.45365354 -0.86662006 0.0006206957
0.037206594 0.033727434 -0.013694987 -0.19781996 0.47042978 -0.85997856 0.0011141569
0.040206764 0.033947259 -0.014543157 -0.22205356 0.49375868 -0.8407703 0.00040908344
0.043193258 0.035214089 -0.014586846 -0.1851549 0.44728246 -0.8750177 0.00029291667
0.056871671 0.035196397 -0.014969842 0.26464462 0.014615588 -0.96423525 0.0038137734
0.058525838 0.034392826 -0.014437994 0.34155673 -0.053053848 -0.93836254 0.0041152379
0.061508533 0.034443676 -0.013114522 0.45459709 -0.13517578 -0.88038003 0.0032642528
0.063320167 0.034890618 -0.012132413 0.55562383 -0.18907402 -0.80965 0.001962163
-0.060306408 0.03807098 -0.012161728 -0.49332392 -0.23525706 -0.83742797 0.0034829094
-0.058457434 0.037514564 -0.012986855 -0.44624761 -0.20199656 -0.87181443 0.0014873099
-0.055451289 0.037463453 -0.014239679 -0.31282726 -0.059604518 -0.94793797 0.0048870193
-0.053286713 0.037246674 -0.014863519 -0.25574464 -0.0047771349 -0.96673256 0.0035192606
-0.043166529 0.03838126 -0.014725853 0.16306043 0.4495776 -0.87823182 0.003871395
-0.04035544 0.037660982 -0.014531351 0.19002868 0.47484884 -0.85930651 0.0013294823
-0.037900165 0.037565585 -0.013888569 0.190439 0.48837984 -0.85159731 0.0011498132
-0.034970541 0.036690336 -0.013562401 0.21247783 0.45206231 -0.86630982 0.00070956926
0.043601666 0.036431201 -0.013976512 -0.16031434 0.41196707 -0.89698523 0.0011741556
0.046549086 0.037423991 -0.014148614 -0.14269631 0.43239522 -0.89032137 0.00088468083
0.049677599 0.037810825 -0.01461672 -0.086758152 0.37905431 -0.9212985 0.0027652893
0.052864395 0.038491968 -0.014637571 -0.054232843 0.35800806 -0.9321422 0.0028656865
0.05578097 0.038010404 -0.014702726 0.066234313 0.25848269 -0.96374249 0.0037360683
0.058536191 0.037350286 -0.014375108 0.27213475 0.14877632 -0.9506883 0.0061831381
0.061497308 0.037418429 -0.013359693 0.3755016 0.026392054 -0.9264459 0.0039093038
0.063597202 0.037768535 -0.012343942 0.51079959 -0.055131119 -0.85793024 0.0029149305
-0.060797092 0.040510952 -0.012336504 -0.41072989 -0.084266581 -0.90785468 0.0044143219
-0.058560796 0.040475752 -0.013264163 -0.32324952 0.029258285 -0.94586134 0.0044658668
-0.055596456 0.040520556 -0.014102522 -0.21795771 0.13145247 -0.96706504 0.006050522
-0.052669566 0.040502183 -0.014534814 -0.079185486 0.24189554 -0.96706575 0.0058173649
-0.04961345 0.040656883 -0.014527142 0.0013957685 0.31377566 -0.94949609 0.0051544076
-0.04635904 0.040228501 -0.014334327 0.1123694 0.42358661 -0.89885896 0.0033022109
-0.043471508 0.040025212 -0.013877931 0.17486112 0.48011175 -0.85960245 0.0018654902
-0.040431317 0.04040378 -0.012647007 0.19910172 0.50994211 -0.83684981 0.00052544475
0.04951153 0.040058263 -0.013295084 -0.12828007 0.46129787 -0.87792283 0.00065482844
0.052266091 0.040207766 -0.013767481 -0.067557715 0.39891875 -0.91449428 0.002262196
0.05562925 0.04078529 -0.013807505 -0.04259887 0.39462733 -0.9178533 0.0018442769
0.058421675 0.040465258 -0.013760267 0.14106475 0.25092405 -0.95767307 0.004417365
0.061626825 0.040423553 -0.0130454 0.29248142 0.15772872 -0.94317353 0.0041760728
0.063638188 0.040475588 -0.012280001 0.44954324 0.075172447 -0.89008993 0.0036629937
-0.060755361 0.043435615 -0.01232351 -0.33889374 0.11586156 -0.93366331 0.0048274673
-0.058416001 0.043470785 -0.013001552 -0.22952695 0.20121996 -0.95227516 0.0047563994
-0.055610888 0.043595407 -0.013390543 -0.084270827 0.32101449 -0.94331765 0.0062340437
-0.052785791 0.043561023 -0.013446916 0.038926549 0.40671474 -0.91272551 0.0048613097
-0.049655084 0.043228492 -0.013254982 0.1148726 0.46954954 -0.87540132 0.0026881255
-0.046870131 0.042466499 -0.013175942 0.15449394 0.48730996 -0.85945374 0.001484719
-0.043969136 0.042119801 -0.012520247 0.20434186 0.52016425 -0.82926083 0.00059383665
0.052924037 0.042926315 -0.012293491 -0.11893307 0.47590083 -0.87142026 0.00059004838
0.055638235 0.04311781 -0.012722013 -0.079251051 0.44840592 -0.89030975 0.0021066465
0.058744784 0.043106724 -0.012823745 0.070122689 0.35508585 -0.93219995 0.004786998
0.061459567 0.043186363 -0.012501891 0.17163651 0.2868689 -0.94246864 0.0059856572
0.063113958 0.042462058 -0.012247939 0.25733706 0.2071238 -0.94386297 0.0049789851
-0.058490716 0.045948725 -0.012243903 -0.14215529 0.32802382 -0.93391228 0.0080215549
-0.05611147 0.046551269 -0.012125183 0.0089256912 0.41591272 -0.90936071 0.0022116958
-0.052313704 0.045452692 -0.012367643 0.1179396 0.44584095 -0.88730836 0.0023594683
0.059971262 0.045073558 -0.0120442 0.013625859 0.41287303 -0.91068673 0.0063775769
-0.015639631 0.0058583603 -0.0091144508 -0.21912439 -0.76570338 -0.6047172 0.0010711531
-0.013349811 0.0055826479 -0.0095671834 -0.18850903 -0.78140938 -0.59486455 0.00046019876
-0.010415921 0.0052150022 -0.0099139037 -0.14938059 -0.76087749 -0.63146716 0.001238841
-0.0075697312 0.005019045 -0.01017502 -0.11479746 -0.75075585 -0.65052837 0.0012867481
-0.0045882873 0.0047891745 -0.010381074 -0.089839906 -0.74685377 -0.65889174 0.0011308501
-0.0013833136 0.0046305684 -0.010523238 -0.047634825 -0.73810226 -0.67300528 0.00095571834
0.0016299058 0.004461105 -0.010512621 -0.034735173 -0.75349087 -0.65654027 0.0023836305
0.0045609609 0.0043335096 -0.010482562 -0.0075669675 -0.75637317 -0.65409654 0.0016098483
0.0074973456 0.004405763 -0.010512172 0.013844966 -0.76094931 -0.64866358 0.0022194083
0.010504879 0.0045475131 -0.010597579 0.046696626 -0.75177294 -0.65776664 0.0012208404
0.013481363 0.0046854224 -0.010473904 0.061089616 -0.75563711 -0.65213543 0.00096489146
0.016410066 0.0049162423 -0.010388719 0.10280833 -0.7798419 -0.61747646 0.001361144
0.01941843 0.0051270369 -0.010136197 0.13305502 -0.79378074 -0.59347153 0.0013667302
0.022349451 0.0054520178 -0.0098088225 0.15922463 -0.80201262 -0.57569385 0.0013251177
0.025181992 0.0057289065 -0.009398724 0.19542433 -0.82626116 -0.528301 0.0006911633
0.02708322 0.0059571057 -0.0090258531 0.24521199 -0.79238319 -0.55856961 0.0019339201
-0.024268961 0.008777828 -0.0092850123 -0.29194596 -0.74041307 -0.60543871 0.0018561974
-0.022176512 0.0084029678 -0.0097922469 -0.27638632 -0.74020672 -0.6129474 0.0012893479
-0.019471303 0.0078563597 -0.010268348 -0.24748462 -0.74313557 -0.621692 0.0018320926
-0.016604997 0.0073678531 -0.01063331 -0.20114982 -0.74585152 -0.63501513 0.0011187326
-0.013642194 0.0069687823 -0.011041529 -0.18112981 -0.71755582 -0.67253667 0.00049646606
-0.010668451 0.006568166 -0.01135869 -0.13360512 -0.72833478 -0.67207003 0.0013746049
-0.007702433 0.0063368413 -0.011585176 -0.1016319 -0.72032863 -0.68614697 0.0012597864
-0.0045895195 0.0061879582 -0.011892208 -0.080228046 -0.65223426 -0.75375986 0.001763652
-0.0027568615 0.0060740453 -0.011993312 -0.052574098 -0.67559057 -0.73540014 0.0040766774
0.014398435 0.0060953787 -0.011974378 0.058034278 -0.70794356 -0.70388067 0.00056177157
0.016461648 0.0061974959 -0.011883743 0.081985511 -0.721255 -0.68780059 0.00042398766
0.01967741 0.0063593239 -0.011598859 0.11467773 -0.71003884 -0.69476175 0.0012187376
0.022585824 0.0065888586 -0.011261644 0.14479633 -0.77644289 -0.61332732 0.0015765311
0.025525834 0.0069143474 -0.010885527 0.17737938 -0.77762747 -0.60318482 0.0012444411
0.028487036 0.0074840472 -0.010569208 0.21305133 -0.78901887 -0.57624507 0.0011782332
0.031377878 0.00808274 -0.010273381 0.24909934 -0.77978772 -0.57435238 0.0014347647
0.03403822 0.0085393451 -0.0096338801 0.29251775 -0.7872718 -0.54280418 0.0010112253
-0.030922221 0.011575624 -0.0095382342 -0.31995192 -0.74470788 -0.585697 0.00080072734
-0.02839203 0.011005106 -0.010091723 -0.29960817 -0.74178541 -0.59999126 0.0020275183
-0.025509993 0.010348924 -0.010625278 -0.26719132 -0.73315573 -0.62537313 0.0010672297
-0.022543114 0.0097645214 -0.011161377 -0.24650732 -0.72250134 -0.64593023 0.0015703711
-0.020101957 0.0093317563 -0.011625418 -0.21522835 -0.69943744 -0.68151599 0.0011210748
0.032011248 0.0093205478 -0.011635257 0.22870192 -0.70488459 -0.67144114 0.0010940478
0.034800969 0.0097849909 -0.010922631 0.27588841 -0.76734728 -0.57884687 0.0014365355
0.037624341 0.010533802 -0.010506368 0.31199017 -0.77451009 -0.55026931 0.001074716
0.040280782 0.011300347 -0.0099639874 0.34999841 -0.75415188 -0.55565822 0.0013490809
0.042327035 0.011729782 -0.0092481226 0.38442484 -0.76252836 -0.52035379 0.0010882849
-0.037191562 0.014570493 -0.0096443444 -0.38187894 -0.71835101 -0.58149838 0.00090694305
-0.03430054 0.013723751 -0.010358324 -0.33497041 -0.71367741 -0.61519051 0.0015910348
-0.031494837 0.012929768 -0.010853241 -0.30167806 -0.72720641 -0.61657202 0.001385938
-0.028838722 0.012460252 -0.011509429 -0.26821375 -0.70746839 -0.65387285 0.001467674
0.040762566 0.012568542 -0.011301517 0.32562035 -0.69007218 -0.64635271 0.00098200934
0.043400113 0.013257938 -0.010583146 0.37689102 -0.73848623 -0.55909872 0.0015356033
0.045993455 0.014224411 -0.010007725 0.41875216 -0.72611666 -0.54534513 0.0016777046
0.048476536 0.014987077 -0.0090749366 0.45245406 -0.72590333 -0.51802486 0.00097009016
-0.042512987 0.017561676 -0.0095823854 -0.46794483 -0.66651332 -0.58033407 0.0010762447
-0.040338274 0.016793313 -0.010290402 -0.39860758 -0.68834704 -0.60604477 0.0019518748
-0.03779671 0.015999947 -0.010914072 -0.35057247 -0.70626277 -0.61505443 0.0013636799
-0.035427447 0.015384244 -0.011541613 -0.32940203 -0.65854234 -0.67662126 0.0030276307
0.046998709 0.015737126 -0.011114547 0.39820704 -0.70129883 -0.59127915 0.00148009
0.049599741 0.016719008 -0.010404798 0.44582549 -0.68462735 -0.57664984 0.0021126536
0.051933296 0.017562974 -0.009501663 0.49606898 -0.67115295 -0.55088037 0.0015118736
-0.046056882 0.020199731 -0.0098213423 -0.4814207 -0.66406816 -0.57205546 0.0013385959
-0.043597572 0.019297672 -0.010643272 -0.43264765 -0.66117942 -0.6129092 0.0014028705
-0.041123372 0.018445957 -0.011476522 -0.39777255 -0.63619673 -0.66108304 0.0004738702
0.050586361 0.018484866 -0.011611194 0.46071598 -0.6384728 -0.61651701 0.00080918265
0.052822188 0.019307384 -0.010687205 0.49541336 -0.63985211 -0.58749878 0.00057842548
0.055089582 0.020242615 -0.0098669445 0.53135157 -0.61838907 -0.57901675 0.0011057659
-0.051263694 0.023666359 -0.0093606897 -0.52085638 -0.63962001 -0.56532723 0.0015076618
-0.04919748 0.022883249 -0.010184674 -0.47671741 -0.63748705 -0.60526913 0.0015579377
-0.046772528 0.021929119 -0.011064631 -0.44376925 -0.61287618 -0.65379786 0.00249327
-0.044482332 0.021093037 -0.011853127 -0.42745486 -0.62512654 -0.65306902 0.0011264022
0.053708989 0.021113358 -0.011835895 0.4797267 -0.60008103 -0.64012891 0.0015981599
0.055837236 0.022031853 -0.010954249 0.5090307 -0.56091279 -0.65288937 0.0026596459
0.057967015 0.023066875 -0.010012647 0.56048095 -0.57122338 -0.59963745 0.0014819213
-0.054529589 0.026474692 -0.0094735632 -0.52148819 -0.61668831 -0.58969963 0.0022761915
-0.052403688 0.025599424 -0.010384201 -0.49413475 -0.59974957 -0.62938958 0.0022931397
-0.050110888 0.024709683 -0.011306557 -0.44690275 -0.57316601 -0.68684685 0.00061667251
0.058714215 0.025133358 -0.01111841 0.52379227 -0.47038448 -0.71019721 0.0006892797
0.060875814 0.025894262 -0.009858761 0.59615487 -0.51932174 -0.6122942 0.001097459
-0.057588007 0.029446235 -0.0096066939 -0.55907577 -0.52082956 -0.64511305 0.0013335458
-0.055580407 0.028462673 -0.010448974 -0.51223284 -0.55642492 -0.6542238 0.0030109242
-0.05341037 0.027656907 -0.011430186 -0.50838065 -0.5673908 -0.64777833 0.001046248
0.059720736 0.027343292 -0.011845777 0.52893984 -0.36237881 -0.76740092 0.0022273117
0.06173655 0.028366385 -0.010773137 0.5890857 -0.41394958 -0.69399124 0.0025428003
0.063612133 0.029054189 -0.0094894413 0.63894022 -0.43627509 -0.63357669 0.0018839323
-0.060441382 0.032383785 -0.0093392972 -0.61414272 -0.50037527 -0.61028957 0.0013637998
-0.058332033 0.031540267 -0.010502996 -0.54708314 -0.45337841 -0.70366758 0.0011104001
-0.056235712 0.030603189 -0.011574282 -0.52835703 -0.48567039 -0.69639295 0.0010436424
0.062386557 0.030949106 -0.011505437 0.59378803 -0.29617897 -0.7481268 0.0013597843
0.064247333 0.031644061 -0.010308673 0.63074756 -0.31534165 -0.7090255 0.0012829102
-0.063039854 0.035620425 -0.0090459259 -0.61547559 -0.39281192 -0.68329251 0.00098364346
-0.061231337 0.034635182 -0.010077565 -0.60940027 -0.42492872 -0.66937804 0.0018967276
-0.059253495 0.03410333 -0.011379234 -0.5387603 -0.35130581 -0.76571631 0.0019093291
0.064773075 0.034463082 -0.010941291 0.61626303 -0.22058156 -0.75601828 0.0020100651
0.066623136 0.034724414 -0.0093919812 0.68348801 -0.25927305 -0.68236476 0.0021214809
-0.063667208 0.037678897 -0.0096307565 -0.62992293 -0.34046048 -0.69805717 0.0024998805
-0.061715949 0.037361722 -0.011005503 -0.5505259 -0.27837816 -0.78703672 0.0017534032
-0.059960265 0.036370896 -0.011860181 -0.55710703 -0.27762267 -0.7826606 0.0015844986
0.065026872 0.037460178 -0.011384582 0.56644863 -0.10259708 -0.81768566 0.0020761099
0.066871598 0.037474092 -0.0099142119 0.64693558 -0.1503695 -0.74757165 0.0022588961
-0.066149667 0.041695971 -0.0091147171 -0.64509863 -0.27520347 -0.71281886 0.0029263229
-0.064443119 0.040540785 -0.010046601 -0.57535297 -0.22992182 -0.78492355 0.0047844863
-0.062213905 0.040221218 -0.011509968 -0.49722168 -0.14224491 -0.85588378 0.0030663956
0.065147132 0.040452186 -0.011461703 0.51143306 0.014874814 -0.85919434 0.0025529831
0.06718453 0.040450756 -0.010002158 0.63336384 -0.031324305 -0.77321988 0.0033418329
-0.066320837 0.043374255 -0.0093343761 -0.59317166 -0.13793111 -0.79317236 0.0045053358
-0.064493835 0.043413948 -0.010554763 -0.51877028 -0.067015156 -0.85228306 0.0018090009
-0.062252223 0.043551162 -0.011728636 -0.3774873 0.038873587 -0.92519844 0.0077290996
-0.047667664 0.044829234 -0.01161418 0.17282678 0.51030689 -0.84244752 0.00068702432
0.053090561 0.044210881 -0.011480822 -0.12221386 0.47799796 -0.86981702 0.00057132373
0.055536691 0.044540863 -0.0118426 -0.095130444 0.43722087 -0.89430875 0.0021629485
0.062890798 0.044660393 -0.011747921 0.16933021 0.28232729 -0.94425553 0.0057875081
0.064680286 0.043417752 -0.011398998 0.44129395 0.13454233 -0.88721919 0.0032211719
0.067315787 0.043262236 -0.009881705 0.56851161 0.080661163 -0.81871134 0.004326812
-0.066470727 0.046584569 -0.0094179781 -0.53785741 0.0200445 -0.84279758 0.0045901169
-0.064440534 0.046447456 -0.010489547 -0.40722314 0.12560174 -0.90465105 0.0061986567
-0.061544187 0.04642377 -0.011554628 -0.28844315 0.25954965 -0.92164773 0.0067550163
-0.059095189 0.046791181 -0.011936403 -0.12365471 0.30835286 -0.94320095 0.0071614902
-0.05476981 0.047361076 -0.011487962 0.066684075 0.47352949 -0.87825 0.0014438897
-0.051690292 0.046178788 -0.011795033 0.11989332 0.48771459 -0.86473125 0.0016802561
-0.049677085 0.045503821 -0.011704136 0.11852766 0.48865148 -0.86439055 0.0017236803
0.055993896 0.046119235 -0.010905856 -0.10637989 0.49207148 -0.86403066 0.00075915939
0.058653921 0.046113182 -0.011379308 -0.014622186 0.45277518 -0.89150482 0.0029119519
0.061529111 0.046610452 -0.011171293 0.096653901 0.39213386 -0.91481644 0.0063833287
0.064479642 0.04640815 -0.010701342 0.30201373 0.30100355 -0.90453553 0.0075878464
0.066991664 0.046045125 -0.009711585 0.4909336 0.18400949 -0.85154253 0.0049890685
-0.066435479 0.049376298 -0.0091480557 -0.4253417 0.19899955 -0.88288373 0.0058031958
-0.064497106 0.049399033 -0.0097804414 -0.31056672 0.25445667 -0.91586035 0.0023037444
-0.061828401 0.049370676 -0.010355492 -0.25084451 0.27154225 -0.92916185 0.0040769055
-0.058694612 0.049084019 -0.010759401 -0.10806385 0.35493785 -0.92862338 0.0036726659
0.059028853 0.04875543 -0.009763035 -0.076780207 0.50920731 -0.85721207 0.00057045306
0.062137786 0.049967472 -0.0094370404 0.032241538 0.44175518 -0.89655614 0.0058028125
0.064353004 0.049267646 -0.0097089838 0.17114487 0.37104708 -0.91270667 0.0078627411
0.066719688 0.048640005 -0.0092256684 0.47726896 0.20190665 -0.85524732 0.0049721492
-0.064766407 0.051220309 -0.0090821087 -0.26092017 0.31866997 -0.91124648 0.0077460539
-0.010180474 0.002876142 -0.0063312366 -0.16670753 -0.87406838 -0.45630369 0.001344918
-0.0074213361 0.0026479196 -0.0066684424 -0.12445179 -0.87192011 -0.47356844 0.0017434176
-0.0044467845 0.002427066 -0.0070544365 -0.092652112 -0.87562394 -0.47402358 0.0018481064
-0.0013872545 0.0022418047 -0.0071324259 -0.052280966 -0.87727994 -0.47712338 0.0019457426
0.001634283 0.0022321581 -0.0073580206 -0.01384717 -0.87179029 -0.48968354 0.0019507502
0.0045625414 0.0022125216 -0.0074688219 0.0097279949 -0.87399513 -0.48583737 0.0015809942
0.0075371792 0.00227335 -0.0074132597 0.011714469 -0.8771956 -0.47999015 0.0021422566
0.010514274 0.0022373989 -0.0071364059 0.054281328 -0.88867348 -0.45531642 0.0019101241
0.013429469 0.0024953852 -0.0071222819 0.092205599 -0.89040047 -0.44574109 0.0019067317
0.016312297 0.0026368843 -0.0066940407 0.11724948 -0.8908751 -0.43885556 0.0018341348
0.019051457 0.0028697813 -0.0064258068 0.16454899 -0.89400733 -0.4167428 0.0015505365
-0.02141016 0.0058493465 -0.0062306523 -0.33296624 -0.83663493 -0.43494314 0.0017152242
-0.01939345 0.0054794941 -0.0069021997 -0.2681534 -0.84563524 -0.46151367 0.0018531524
-0.016529629 0.0050234422 -0.0074715791 -0.21729758 -0.83587158 -0.50408381 0.0015103075
-0.013582249 0.0042670066 -0.0075129238 -0.2085118 -0.854617 -0.47555515 0.0012072837
-0.010679927 0.0037216016 -0.007727575 -0.16106425 -0.84670907 -0.50709176 0.0012414703
-0.007650489 0.0035741571 -0.0082239537 -0.11952398 -0.8463403 -0.51905888 0.0017753494
-0.004752256 0.0033185538 -0.0084638391 -0.090539552 -0.84326297 -0.52982092 0.0017697144
-0.0013843084 0.0032129635 -0.0087229908 -0.058456212 -0.79997039 -0.59718525 0.0006888099
0.00081181759 0.0031715322 -0.0088222157 -0.031989336 -0.7927953 -0.60864782 0.00088647398
0.0084483866 0.0032541547 -0.0089941099 0.023483336 -0.8006227 -0.59870839 0.00093389984
0.010507603 0.0031645827 -0.0087668234 0.049954314 -0.81294572 -0.58019304 0.0010113055
0.013617247 0.0032763607 -0.0085332179 0.083920732 -0.86126995 -0.5011701 0.0019249831
0.016675582 0.0034439671 -0.0082046166 0.10889811 -0.86637783 -0.48737115 0.0018894351
0.019551391 0.0036324572 -0.0077504506 0.15531896 -0.86912632 -0.46956936 0.0014768461
0.022441676 0.0041136681 -0.0075471653 0.18438888 -0.88300335 -0.43163148 0.0014200214
0.025478551 0.004749469 -0.0075369072 0.19524468 -0.8700453 -0.45265958 0.0012686461
0.028320521 0.0053586834 -0.007189618 0.23256233 -0.87286693 -0.42897332 0.0015808794
0.030915637 0.005761174 -0.0064919172 0.28245482 -0.88969308 -0.35869971 0.00070967135
-0.028038528 0.0086271735 -0.006763265 -0.34430689 -0.82989842 -0.43900031 0.0013138606
-0.025394816 0.00800501 -0.0074522076 -0.30010593 -0.81643295 -0.49332911 0.0014023827
-0.022452027 0.007029505 -0.0076501761 -0.29421419 -0.82172239 -0.48806792 0.0016466783
-0.019849518 0.0064377687 -0.0082543073 -0.25240356 -0.81867272 -0.51581722 0.001883017
-0.017263735 0.0061201281 -0.0088795861 -0.21458443 -0.78748435 -0.57777333 0.00049577863
0.029070474 0.0062449598 -0.0085099665 0.23856966 -0.8283546 -0.5068661 0.00053407223
0.031686999 0.0066367853 -0.0077782292 0.29506347 -0.85715395 -0.42216659 0.0012566515
0.034435764 0.0074954685 -0.0075464426 0.31185246 -0.84567344 -0.43311036 0.0020594671
0.037251148 0.0083576618 -0.007173453 0.33085456 -0.8507182 -0.40842846 0.0014866225
0.039597232 0.0089012906 -0.0063842712 0.38317814 -0.8397885 -0.38461643 0.0012803966
-0.036444243 0.011976044 -0.0061314618 -0.42758447 -0.81104046 -0.39923045 0.00167047
-0.034089871 0.011381377 -0.0071656415 -0.36882409 -0.81272125 -0.45105767 0.0015252827
-0.031373277 0.010477736 -0.0075625759 -0.3541134 -0.80802739 -0.47084543 0.0020655654
-0.02878149 0.0096049868 -0.0079194345 -0.32955194 -0.81214827 -0.48146731 0.0018540372
-0.026508467 0.009218392 -0.008739017 -0.2956368 -0.7533074 -0.587475 0.0011434301
0.038204219 0.0093436893 -0.0083695091 0.32374907 -0.82948261 -0.4551321 0.0014774222
0.040569685 0.010013071 -0.0076224389 0.36626586 -0.82760721 -0.42534167 0.0015317813
0.043276154 0.011141116 -0.0073443577 0.38627487 -0.81950551 -0.42332315 0.001444108
0.045446951 0.011737115 -0.0064478242 0.43060789 -0.81051546 -0.39704078 0.0013265634
-0.040207878 0.014400525 -0.0070040734 -0.43920079 -0.77889448 -0.44768965 0.0011011136
-0.037627701 0.0134142 -0.0076104682 -0.40691751 -0.78323942 -0.47005755 0.0020914068
-0.035158247 0.012478105 -0.0081755156 -0.38825735 -0.78193676 -0.4876793 0.0028773155
0.044395506 0.012278031 -0.0084761539 0.41318682 -0.78946513 -0.45389596 0.0011212111
0.04652717 0.013053278 -0.007717472 0.43174681 -0.7940197 -0.42793408 0.0015653869
0.04907519 0.014236075 -0.007188234 0.46689203 -0.77817535 -0.42006543 0.0016998425
0.051011328 0.014820954 -0.0061099646 0.49800602 -0.77080995 -0.39729342 0.001033423
-0.045563988 0.017708739 -0.0067786593 -0.50533861 -0.74206036 -0.44043079 0.00096377882
-0.043403368 0.016687978 -0.0075304052 -0.48767382 -0.74074668 -0.46202675 0.0015855535
-0.040962391 0.015534898 -0.0082244519 -0.42792448 -0.74665058 -0.50930685 0.0022378282
0.05028861 0.01550555 -0.0081476429 0.49308914 -0.76382738 -0.41645032 0.0017735262
0.052601658 0.01667456 -0.007455477 0.52790135 -0.75104696 -0.39654595 0.00078309182
0.054581195 0.017535483 -0.0065397681 0.53263295 -0.73180741 -0.42515895 0.0010949631
-0.048890103 0.020298155 -0.0071403598 -0.54203248 -0.71623385 -0.43955654 0.0015125297
-0.046705171 0.019057527 -0.0076772082 -0.51536 -0.7236048 -0.45912972 0.0020753746
-0.044554334 0.01818453 -0.0085713556 -0.46893644 -0.68206346 -0.56114882 0.000754682
0.053782865 0.018219979 -0.0085406639 0.52522993 -0.67514563 -0.51798838 0.0017866069
0.055723172 0.019169433 -0.0078022531 0.54202849 -0.70380658 -0.45919648 0.0016450306
0.05759811 0.020145966 -0.0069651771 0.59513903 -0.66561896 -0.45028991 0.0012428034
-0.054398652 0.023995636 -0.0062711099 -0.56230485 -0.70392251 -0.43394285 0.0010410212
-0.05232789 0.023038259 -0.0073771733 -0.54326761 -0.70053238 -0.46272537 0.0019275673
-0.050147936 0.021760577 -0.007931767 -0.53111142 -0.69782484 -0.48058435 0.0023059149
0.058856517 0.021913918 -0.0077880775 0.59679538 -0.65184635 -0.46790132 0.0020376693
0.060790449 0.023222921 -0.0071235443 0.6116935 -0.63722259 -0.46880537 0.001620088
-0.057389624 0.026587144 -0.0064111222 -0.59566921 -0.67145479 -0.44082496 0.00078613311
-0.055509761 0.025683707 -0.0074371686 -0.58585888 -0.66741496 -0.45970285 0.0025794355
-0.053477574 0.024600994 -0.0083179725 -0.53092581 -0.64380884 -0.55102456 0.0010175272
0.06204946 0.02516434 -0.007902028 0.6561622 -0.55488062 -0.51142806 0.0032002793
0.063676514 0.026180344 -0.0068688476 0.68164462 -0.55526686 -0.47648656 0.0021859496
-0.060329586 0.029593643 -0.0065351152 -0.66682726 -0.59235501 -0.45216918 0.0020963529
-0.058550108 0.02846124 -0.007489068 -0.62710351 -0.63390017 -0.45267174 0.0011592688
-0.05661504 0.027410105 -0.0084784813 -0.55706805 -0.60914195 -0.5644654 0.00082005718
0.064684816 0.02830168 -0.0076234224 0.71772969 -0.50283951 -0.48168084 0.0013189999
0.066234134 0.029376632 -0.0064668925 0.74004519 -0.49112853 -0.45948443 0.0018744336
-0.061426427 0.031588279 -0.0074448213 -0.67491239 -0.54854643 -0.49354854 0.0023882091
-0.059436597 0.030360665 -0.0085231038 -0.59775674 -0.57899755 -0.55448067 0.0025925343
0.065432154 0.030556992 -0.0085470024 0.7064268 -0.4045929 -0.58074582 0.0034647838
0.066885836 0.031681284 -0.0074047893 0.74841249 -0.39518842 -0.53263944 0.0020226156
-0.064098321 0.034864392 -0.0072367042 -0.69182414 -0.48064694 -0.53884864 0.0018307153
-0.062568344 0.03380774 -0.0082065994 -0.68304259 -0.49489567 -0.53715092 0.0019877453
0.067908354 0.034451947 -0.0077310205 0.74368435 -0.32043388 -0.58673322 0.0030523674
0.069204293 0.035166148 -0.0062817037 0.79954928 -0.32716233 -0.50367224 0.001401717
-0.06658721 0.03790785 -0.0066294256 -0.71184897 -0.45657596 -0.53367543 0.0016774663
-0.065182433 0.037219927 -0.0078532146 -0.70034909 -0.41585889 -0.5801487 0.004110686
0.068441719 0.037311181 -0.0082869306 0.76604259 -0.1813886 -0.61666596 0.002526863
0.069627732 0.037446946 -0.0067786705 0.80008852 -0.21686932 -0.55930847 0.0022462055
-0.067300372 0.040506449 -0.0074071018 -0.7214635 -0.29848388 -0.62481821 0.0019010961
-0.065691233 0.039320514 -0.0085289804 -0.69337988 -0.30533737 -0.65268171 0.0013045917
0.068638489 0.039977323 -0.0086239073 0.68982625 -0.082208671 -0.71929228 0.0020096325
0.069952004 0.040411439 -0.0071466961 0.79179949 -0.11461525 -0.59993076 0.0023416884
-0.069382787 0.044070046 -0.0065690614 -0.73646206 -0.25902343 -0.62492442 0.0022199245
-0.067747205 0.043347158 -0.0080358451 -0.68434852 -0.17523623 -0.70778483 0.0043767346
0.068724103 0.043216627 -0.008728575 0.71136677 0.01939166 -0.70255339 0.0024480172
0.069953807 0.043542102 -0.0074330592 0.71836966 0.026602512 -0.69515264 0.0023540892
-0.06982822 0.046610836 -0.0067919246 -0.71998674 -0.13391961 -0.68094385 0.0057606804
-0.06805785 0.046454538 -0.0083168177 -0.5883835 -0.048522674 -0.80712485 0.0027674932
0.068507768 0.046784822 -0.0085575581 0.65079552 0.12205473 -0.74937832 0.0025457623
0.069925159 0.046377055 -0.0073210392 0.7382853 0.046823975 -0.67286134 0.003346069
-0.070000701 0.049549241 -0.0069267703 -0.63004351 -0.021828897 -0.77625299 0.0087601822
-0.067921817 0.04977186 -0.0083316648 -0.46710545 0.087478966 -0.87986362 0.0065705241
0.06128465 0.050814446 -0.008770573 -0.014274323 0.47475487 -0.88000226 0.0033179333
0.065702409 0.05053794 -0.0089881532 0.19170173 0.32290304 -0.9268139 0.013724883
0.067770757 0.049845636 -0.0083363848 0.38376468 0.27731577 -0.88080686 0.0072820149
0.070023924 0.049379513 -0.0068151061 0.68398023 0.13059279 -0.71771628 0.0059042452
-0.070285767 0.052615549 -0.0066741877 -0.50883853 0.096471526 -0.85543948 0.0090463869
-0.067574836 0.052594289 -0.0078314878 -0.27554786 0.27323025 -0.92163903 0.013854031
-0.06536188 0.053013593 -0.0080547407 -0.2340616 0.37072632 -0.89876419 0.0050000185
0.060953755 0.05184653 -0.0079584429 -0.058329429 0.49595332 -0.8663879 0.0013065554
0.064459234 0.052304048 -0.0082312217 0.049445894 0.46087697 -0.88608545 0.0086507965
0.067632042 0.052507307 -0.0076501402 0.35790718 0.27571923 -0.89212185 0.014348801
0.069573842 0.052234337 -0.006702798 0.60075313 0.15791194 -0.78368324 0.0081509529
-0.070377924 0.054919045 -0.0063602361 -0.26920092 0.23575877 -0.93378192 0.013861219
-0.067980357 0.055510897 -0.0066694869 -0.20801844 0.25707376 -0.94373798 0.012932678
-0.064308152 0.054462597 -0.0071718572 -0.16827069 0.37632194 -0.91108 0.0045389598
0.062821254 0.054454032 -0.0065431809 -0.031933378 0.46657738 -0.88390374 0.0028083134
0.065083504 0.054837249 -0.0068783518 -0.013690392 0.43067572 -0.90240282 0.0064233146
0.067541711 0.055465076 -0.0066319131 0.18415672 0.38373223 -0.90489548 0.012544119
0.069461539 0.055340059 -0.0061674421 0.39504027 0.26232699 -0.88041341 0.021437243
-0.015482856 0.0029163985 -0.0030818898 -0.26426345 -0.94412452 -0.19696136 0.00093526236
-0.013337958 0.0026224284 -0.004031851 -0.2148412 -0.93187088 -0.2923353 0.0022708608
-0.010541665 0.0022110092 -0.0045721219 -0.15924197 -0.94086045 -0.29903775 0.0016933394
-0.0076307757 0.0017693762 -0.00451345 -0.12694915 -0.93943405 -0.31835139 0.0022933641
-0.004609216 0.0013506128 -0.0045289737 -0.096194044 -0.94057971 -0.32566327 0.0022191929
-0.0013956932 0.0010865364 -0.0044610808 -0.053036507 -0.94025093 -0.33632612 0.002441982
0.0015861399 0.00099176262 -0.0045488239 -0.032258805 -0.9400236 -0.3395806 0.0026359106
0.0045664725 0.00093725271 -0.0045992872 0.0095126452 -0.94979495 -0.31272864 0.0013625174
0.0075479057 0.0010257747 -0.0045173154 0.04256127 -0.94226277 -0.33215874 0.0027131205
0.010531509 0.0011332975 -0.0044177477 0.066515341 -0.94628412 -0.3164207 0.0023813308
0.013464289 0.0014629676 -0.0045691379 0.10405849 -0.94813442 -0.3003546 0.0021091695
0.016543625 0.0018241842 -0.0044545168 0.12372294 -0.95062584 -0.28461063 0.0018676146
0.019477349 0.0022848325 -0.0045442954 0.1596994 -0.95086873 -0.26522586 0.0015398035
0.022176651 0.0026814414 -0.0040003858 0.19437645 -0.94707292 -0.25548115 0.0019320227
0.024638856 0.0029404699 -0.0030596284 0.23248209 -0.96216983 -0.142061 0.0021032246
-0.024298294 0.0058549456 -0.0033079979 -0.34346119 -0.91421181 -0.21506056 0.001584827
-0.02233409 0.0054290798 -0.0043367501 -0.32946143 -0.89497876 -0.30077928 0.0023917339
-0.019470602 0.0044675819 -0.0045030215 -0.28365746 -0.90484506 -0.31748042 0.0022411726
-0.016497375 0.0037091607 -0.0046954714 -0.25162736 -0.91193527 -0.32412589 0.00230139
-0.013986464 0.003229181 -0.0052962196 -0.2212237 -0.90787047 -0.3561337 0.0018441991
0.022941984 0.0032159395 -0.0052389679 0.1955916 -0.92966568 -0.31219503 0.0016162954
0.025567072 0.0035952483 -0.0046031144 0.25749314 -0.92999411 -0.26231307 0.0015104029
0.02853382 0.0044084117 -0.004550261 0.26280892 -0.92253113 -0.28260908 0.0018744787
0.031536553 0.0052689244 -0.0044699889 0.28479248 -0.92259997 -0.26019698 0.0020394854
0.033576675 0.0057317559 -0.0037864558 0.3257961 -0.91347182 -0.24377494 0.0018130108
-0.030821912 0.0086769424 -0.0040440238 -0.34971324 -0.88487732 -0.30772179 0.0020641657
-0.028588286 0.0079164766 -0.0045596994 -0.35000685 -0.88622487 -0.30348119 0.0019980979
-0.025578856 0.006769971 -0.0046538287 -0.36323062 -0.88699472 -0.28513876 0.001606038
-0.023299225 0.0062325071 -0.0055716443 -0.331009 -0.88314056 -0.33240905 0.0019104029
0.032748301 0.0060622329 -0.0058300928 0.2869592 -0.90878206 -0.30293477 0.0027932611
0.034689091 0.0064363605 -0.0046866895 0.35869271 -0.89878386 -0.25204602 0.001497245
0.03752137 0.0074585713 -0.0045181955 0.34504095 -0.90511501 -0.248422 0.0011534061
0.04022317 0.0085195862 -0.0043369196 0.38953635 -0.8912819 -0.23211658 0.0020313892
-0.036972653 0.011471441 -0.0041632019 -0.43288684 -0.85754466 -0.27789563 0.0025786178
-0.034445703 0.010397213 -0.0046031191 -0.41312557 -0.86027026 -0.29876801 0.0017004423
-0.031894941 0.009403496 -0.0048459349 -0.38287053 -0.87402171 -0.2991592 0.0016318711
0.041322112 0.0092802998 -0.0050828541 0.40438831 -0.87103617 -0.27886564 0.0021674621
0.043512311 0.010114367 -0.0044605248 0.42429036 -0.86822736 -0.25721356 0.001379395
0.046149321 0.011369326 -0.0042621754 0.45648631 -0.85702264 -0.23902409 0.0021037874
