# .PCD v0.7 - Point Cloud Data file format
VERSION 0.7
FIELDS x y z normal_x normal_y normal_z curvature
SIZE 4 4 4 4 4 4 4
TYPE F F F F F F F
COUNT 1 1 1 1 1 1 1
WIDTH 566
HEIGHT 1
VIEWPOINT 0 0 0 1 0 0 0
POINTS 566
DATA ascii
-0.059088383 0.024444146 0.0047361958 -0.72349292 -0.68859291 0.048967797 0.014073428
0.062718727 0.024311319 0.0048955884 0.70756155 -0.63528121 0.30947459 0.0025004565
0.064110108 0.025641019 0.0043976619 0.71823055 -0.61910748 0.31756994 0.0024580965
-0.063642576 0.029526614 0.0046623559 -0.7533741 -0.63836104 0.15786946 0.012664387
-0.062237788 0.027880076 0.0047227829 -0.76184046 -0.63211232 0.14153825 0.014417632
0.065495595 0.027788416 0.0049154432 0.76468152 -0.54566312 0.34280321 0.0023445727
0.066716835 0.029070662 0.0041846153 0.78939885 -0.47971886 0.3830395 0.0028569365
-0.065024085 0.031525262 0.0045775985 -0.81592023 -0.54856819 0.18261212 0.010435922
0.06796737 0.031547327 0.0045953486 0.83837944 -0.42972681 0.33534268 0.0034114413
-0.067069978 0.034654822 0.0045195455 -0.83134192 -0.48355278 0.27394748 0.0064564683
-0.065880671 0.033128411 0.005490263 -0.81845862 -0.53504366 0.20941283 0.0084060114
0.068665601 0.03359732 0.0052324957 0.84472477 -0.35507438 0.40045264 0.0038290387
0.069510914 0.034699496 0.0043963403 0.86846888 -0.32617256 0.37332729 0.0043166038
-0.06922064 0.038113508 0.0038433804 -0.84542286 -0.41106105 0.34101173 0.0057304902
-0.068288304 0.037102025 0.0049791737 -0.84738475 -0.40843141 0.33929753 0.0057804212
0.070414886 0.037646793 0.0045721792 0.8837207 -0.25076753 0.39516249 0.0024694265
-0.070064202 0.040375415 0.0044383975 -0.85267484 -0.36061132 0.37802777 0.0050007249
0.070926487 0.040350046 0.0047802585 0.90070444 -0.15560043 0.40561062 0.0059369644
-0.072107665 0.04458259 0.0034296627 -0.89323211 -0.33364281 0.30136165 0.0095445961
-0.070980608 0.043220989 0.0047657927 -0.8477667 -0.28912002 0.44463605 0.0069225058
0.071225032 0.042506233 0.0047934144 0.89424115 -0.090643011 0.43831101 0.0060242335
-0.072533622 0.046735022 0.0038515963 -0.84697181 -0.2646285 0.46109721 0.0066719544
-0.071531899 0.046489555 0.005400097 -0.81975412 -0.19332249 0.53910071 0.0047983038
0.071267918 0.046541687 0.0051157596 0.80421895 -0.014661152 0.59415227 0.003394071
-0.073143117 0.049508002 0.0041961218 -0.7956214 -0.24192004 0.55539286 0.0078050164
-0.071582347 0.04871567 0.0059419386 -0.67754561 -0.14731672 0.72057599 0.004934628
0.070946395 0.049854457 0.0055428762 0.73688835 0.035003446 0.6751076 0.0085911583
0.07211183 0.048362236 0.0034026639 0.86307693 -0.065799311 0.50076801 0.011670611
-0.075573459 0.053919744 0.0030355493 -0.8483122 -0.32347763 0.41919994 0.027520005
-0.073791489 0.052331984 0.0045560859 -0.69918233 -0.21248364 0.68263823 0.0047185263
-0.075436428 0.054859549 0.0035127704 -0.68310016 -0.29346564 0.66876906 0.020179933
-0.073492736 0.05501942 0.0052542384 -0.67132908 -0.1801147 0.71894085 0.0090679433
0.071579054 0.059475947 0.0037936475 0.49389708 0.047531202 0.86822027 0.016124276
0.072144344 0.059627235 0.0031969056 0.42351097 0.015507562 0.9057582 0.018271774
0.071113847 0.061771262 0.003814549 0.49372986 0.047450572 0.86831981 0.016135046
0.070776798 0.064483486 0.0036996515 0.35520607 -0.01158628 0.93471622 0.017596211
0.072353862 0.065012708 0.0032428964 0.46239564 0.015081069 0.88654548 0.025511499
0.068891525 0.066498943 0.0035562066 0.089085922 0.07886517 0.99289674 0.013965932
0.070597284 0.067622304 0.003631206 0.0070153493 0.005186053 0.99996191 0.021748915
0.072658829 0.067911774 0.0034663065 0.5210101 -0.11122826 0.84627229 0.027134603
0.068639733 0.069843501 0.0031483148 -0.19218498 -0.010943251 0.98129773 0.015067276
0.070621371 0.070583098 0.0038937619 -0.068364888 -0.13561912 0.98839962 0.031988561
0.073280819 0.070809133 0.0038170526 0.35547233 -0.20928553 0.91095501 0.027055902
0.068782203 0.073809274 0.0032825649 -0.38025385 -0.047029793 0.92368561 0.020092903
0.070509627 0.073495381 0.0043906383 -0.33339676 -0.12867542 0.93396425 0.025606662
0.073595889 0.073324747 0.0044939015 0.24131593 -0.22462372 0.94409269 0.055496696
0.075394772 0.07329493 0.0034560917 0.72569138 -0.17171238 0.66624826 0.08491075
0.068719558 0.075518101 0.0035426787 -0.38026148 -0.047090847 0.92367941 0.020093357
0.0704633 0.075129494 0.0047890856 -0.33340803 -0.12863384 0.93396598 0.025605099
-0.015054418 0.0029916468 0.0060634636 -0.22839142 -0.90142226 0.36779782 0.0084184017
-0.013178143 0.0028147397 0.00639976 -0.1577602 -0.89710999 0.41268066 0.00027159275
-0.010338626 0.0026272894 0.0069308248 -0.11872985 -0.87838095 0.46297961 0.0015560202
-0.0074739116 0.0023684853 0.0070758201 -0.079039343 -0.87870759 0.47077146 0.0017527966
-0.0044970922 0.0022546113 0.0072672102 -0.045651518 -0.87777483 0.47689342 0.0017733466
-0.0015878725 0.0021978235 0.0073517235 -0.018072192 -0.87492114 0.48392814 0.0019971654
0.001368238 0.0021974014 0.0073519051 0.010532038 -0.87441081 0.48507199 0.0017756007
0.0044928216 0.0022354587 0.0072415508 0.046059582 -0.87276626 0.48596042 0.0016270117
0.0074782916 0.0023449331 0.0070153079 0.060072787 -0.86731929 0.49411377 0.0016046788
0.010421358 0.0025089232 0.0069589531 0.079206444 -0.86306155 0.49884981 0.00097267417
0.013302043 0.0026869655 0.0065743187 0.10440159 -0.85256243 0.51209134 0.00071369356
0.016132984 0.0027940811 0.0062877508 0.11711364 -0.84376782 0.52377498 0.0010135761
0.018465297 0.0029423647 0.0060827751 0.16031818 -0.83744997 0.52247065 0.0019839834
-0.02463893 0.0057565705 0.0063759107 -0.27904189 -0.86110091 0.42501858 0.0010675857
-0.022322586 0.0054034102 0.0071546268 -0.2531369 -0.85662931 0.44956419 0.0011598571
-0.019486582 0.0047577485 0.0075071654 -0.23148532 -0.85224348 0.46914348 0.0010836581
-0.016416125 0.0040274295 0.0075423508 -0.18039946 -0.857279 0.48221239 0.0010675106
-0.013593909 0.0036487409 0.0078773368 -0.14813864 -0.85277736 0.50082511 0.0013781989
-0.010646687 0.0034005663 0.008283346 -0.11315797 -0.84973806 0.51491791 0.0015502783
-0.0075135645 0.0032818737 0.0086396998 -0.074904144 -0.84981054 0.52173877 0.0019700616
-0.0048040454 0.0031974195 0.0088076983 -0.03774396 -0.84809035 0.5285055 0.0022452441
-0.0015916354 0.0031891158 0.0089192549 -0.012509539 -0.84501863 0.5345906 0.0022514481
0.0013671946 0.0031365065 0.0089394795 0.01108229 -0.84328073 0.53735912 0.0022712492
0.0048266198 0.0031584192 0.0087847514 0.048027258 -0.84273571 0.53618091 0.0020686423
0.0076021571 0.0032979446 0.0085771922 0.068075679 -0.79917246 0.59723455 0.00089764118
0.010539848 0.0033656538 0.0083190016 0.085686222 -0.83770812 0.53935421 0.00098781427
0.013580899 0.0035868883 0.0079917423 0.11335786 -0.83060372 0.54520392 0.00060766516
0.016480889 0.0038565793 0.0077810553 0.12312107 -0.82169706 0.55646664 0.00084199884
0.019493822 0.0041304068 0.0074858987 0.15510207 -0.81358218 0.56038153 0.0012355329
0.022421274 0.0047644642 0.0076026418 0.15460964 -0.78508109 0.59978628 0.00082032994
0.025329215 0.0050336663 0.0071653435 0.20327483 -0.80929971 0.55110192 0.0029000484
0.028291184 0.0055352882 0.0067798523 0.22331293 -0.81958342 0.52764982 0.0031147767
0.030416651 0.0058262483 0.0062668398 0.27160767 -0.83316654 0.48172891 0.0030301849
-0.033443738 0.0088393241 0.0064172409 -0.35684651 -0.84264582 0.40324751 0.001151813
-0.031421013 0.0084243584 0.0071457108 -0.30672532 -0.84888738 0.43047634 0.001117439
-0.028530465 0.0075857234 0.0075422972 -0.28080425 -0.84764135 0.45017013 0.0011374528
-0.025591195 0.0066943238 0.0077143107 -0.26195648 -0.8442542 0.46756127 0.0011220193
-0.022976236 0.0063580829 0.0084870495 -0.25289169 -0.82633954 0.50319844 0.0005153885
0.023804011 0.0060254852 0.0088103646 0.1582527 -0.76021367 0.63010412 0.0016134159
0.025746146 0.0063036219 0.008606052 0.18161407 -0.72707713 0.662099 0.00051895285
0.028571244 0.006662481 0.0082233949 0.20031367 -0.78784215 0.5823909 0.003177471
0.0315466 0.0070585581 0.0076384419 0.23537681 -0.79591 0.55778593 0.0026054312
0.034393553 0.0078778621 0.007399153 0.26584688 -0.78882891 0.55414301 0.0027159497
0.03721904 0.0085067339 0.0067761661 0.33697617 -0.8107987 0.47859424 0.0022136294
-0.039545134 0.011675281 0.0066522323 -0.40580258 -0.81712186 0.40943384 0.0012329291
-0.037312038 0.010989716 0.0074106902 -0.36717445 -0.81483996 0.44857427 0.00093440869
-0.034586012 0.0098596802 0.0076238071 -0.36084372 -0.83086425 0.42362309 0.00081145106
-0.032136448 0.0094034718 0.0084703853 -0.3089298 -0.81903166 0.48347649 0.00054804009
0.035581879 0.0092749652 0.0087545384 0.25153673 -0.69550002 0.67305946 0.0022596314
0.037842151 0.0096261557 0.0081199454 0.31475469 -0.79303282 0.52156347 0.0043791193
0.040416323 0.010365106 0.0075168065 0.34961891 -0.8026998 0.48315585 0.0023864962
0.043074954 0.011318131 0.0071035204 0.383609 -0.78896606 0.4799757 0.0025969699
0.045196157 0.011860653 0.00624973 0.44862956 -0.79080659 0.41636109 0.0024353508
-0.045465019 0.014914981 0.0064167031 -0.51227033 -0.7869364 0.34396267 0.0045860177
-0.043425683 0.014101248 0.0073495782 -0.47231779 -0.77203959 0.42528903 0.0012393416
-0.040708948 0.012758728 0.0077326861 -0.40092438 -0.79974604 0.44683972 0.0011135557
-0.038244143 0.012233394 0.008800094 -0.36609158 -0.78626955 0.4977521 0.0002188548
0.043834645 0.012492551 0.0083613386 0.35680446 -0.76188892 0.5405699 0.0030738118
0.0464768 0.013418586 0.0075376541 0.41505828 -0.76935524 0.48561206 0.0022900342
0.048970778 0.014488791 0.0070031835 0.4561139 -0.75819111 0.46594673 0.0022994117
-0.048855361 0.017501703 0.0072100647 -0.52062422 -0.74681586 0.4137831 0.001250761
-0.046639841 0.016233083 0.0075642574 -0.50327337 -0.76568043 0.40056121 0.00069294905
-0.044432264 0.015249935 0.0082898382 -0.47733051 -0.76616305 0.43029043 0.0012621152
0.049841642 0.015647328 0.0079411613 0.44914716 -0.73313594 0.51066482 0.0036162136
0.052195698 0.01687832 0.0073938132 0.49240535 -0.70001924 0.51721376 0.0023694693
0.054146096 0.017564828 0.0064178379 0.52284813 -0.71496075 0.46417773 0.001283929
-0.054146748 0.020848971 0.0061926669 -0.5721066 -0.73903412 0.35570014 0.005446488
-0.052123707 0.019960234 0.007324887 -0.54747289 -0.71407276 0.4363181 0.0015021097
-0.04990036 0.018667083 0.0079202773 -0.53547943 -0.74127913 0.40468132 0.0011635056
0.053297609 0.018402115 0.0084017413 0.51920295 -0.69246346 0.50092185 0.0022074336
0.055400956 0.019332936 0.0075927377 0.51015896 -0.69825655 0.5021708 0.0023862263
0.057604548 0.020420043 0.0066904449 0.56521648 -0.66471028 0.48855975 0.0012299544
-0.057505805 0.023703223 0.006311541 -0.63764113 -0.72560817 0.25866318 0.0096412124
-0.055383552 0.022544613 0.0074275136 -0.59675628 -0.68081248 0.4247075 0.0021502904
-0.053350098 0.021456923 0.0083680674 -0.54529005 -0.69002515 0.47594538 0.0023471366
0.056713846 0.021365698 0.0087801758 0.50345439 -0.57842362 0.64184093 0.0020298711
0.058722377 0.022264799 0.0077058785 0.55931807 -0.6397503 0.52714604 0.0028947792
0.060695816 0.023327222 0.0067394809 0.62181765 -0.60071826 0.50247425 0.0016082233
-0.060292959 0.026584271 0.0065028267 -0.66660756 -0.60378313 0.43712735 0.0015120935
-0.0584937 0.025418155 0.007496844 -0.61618853 -0.65452284 0.43807715 0.0019754339
-0.056655634 0.024365511 0.0085400203 -0.58825302 -0.65471125 0.47466987 0.002236309
0.059917483 0.024338417 0.0087021384 0.58400095 -0.54588675 0.60079163 0.00081630709
0.061667137 0.025282489 0.0076672425 0.65388077 -0.53256607 0.53741348 0.0030560468
0.063391462 0.026302429 0.0066524241 0.67732912 -0.53141099 0.50875103 0.0015415439
-0.061335079 0.028506322 0.0074353339 -0.69859582 -0.57254958 0.42912802 0.00074451097
-0.05945332 0.027361885 0.0087034898 -0.62733245 -0.55801535 0.54320621 0.00054416683
0.06251847 0.027347088 0.0087088542 0.59674704 -0.43855882 0.67198157 0.0022968824
0.06441462 0.028652888 0.007491888 0.69717395 -0.45286837 0.55575061 0.002917164
-0.063878275 0.031822298 0.0073279082 -0.71680188 -0.48906621 0.49700037 0.0021384247
-0.062357347 0.030504068 0.0081914878 -0.70260662 -0.51175815 0.4944163 0.0033277748
0.065316007 0.031067302 0.0082740393 0.68958282 -0.36449292 0.62579584 0.0044680075
0.066620745 0.031661551 0.0069989557 0.73953086 -0.39176914 0.54736745 0.0024603584
-0.066350959 0.035223659 0.0068037645 -0.7531721 -0.44489431 0.48456264 0.0024103692
-0.065084927 0.034317423 0.0078208894 -0.73360026 -0.42911589 0.52696317 0.0048013204
0.065826669 0.033138029 0.0088450797 0.68128639 -0.3086496 0.66376519 0.0040383385
0.067489199 0.034379177 0.0075395224 0.76298898 -0.29348949 0.57594413 0.0013738318
-0.067099765 0.037443835 0.007306111 -0.77418125 -0.34040922 0.53363359 0.0038511583
-0.065766916 0.037022598 0.0087553095 -0.68518102 -0.29406261 0.66637379 0.0016012796
0.068181939 0.037174847 0.0079223281 0.76988763 -0.22626989 0.59672028 0.0025058684
0.069365866 0.037742361 0.006548685 0.79915512 -0.24022473 0.55103827 0.0017713361
-0.069465823 0.041245863 0.0062093483 -0.77735895 -0.31148002 0.54652828 0.0026110264
-0.067872286 0.040200118 0.0077269836 -0.75380564 -0.26341668 0.60198736 0.0038035223
0.068504229 0.040252678 0.0083942357 0.75646406 -0.11272024 0.6442486 0.0026792965
0.069640279 0.040486231 0.0070570903 0.80131245 -0.12922722 0.58412212 0.0023361277
-0.069727764 0.043672211 0.0067935921 -0.73743325 -0.19886255 0.64548117 0.0040999688
-0.06822972 0.043271873 0.0083056893 -0.71070343 -0.13011682 0.69135392 0.0032994396
0.068589725 0.044061735 0.0086302301 0.62054127 0.0041275797 0.78416288 0.004550864
0.069604993 0.043493018 0.0075144889 0.77528238 -0.039575405 0.63037366 0.0043968474
-0.0699597 0.046680879 0.0071866224 -0.68976015 -0.092270613 0.71813446 0.0046969783
-0.068110839 0.046554588 0.0086844712 -0.62864166 -0.06233336 0.77519298 0.0024381825
0.070031926 0.045548476 0.0070549748 0.78035152 0.0036683159 0.62533027 0.0035750913
-0.070746362 0.049703095 0.0068126782 -0.63219023 -0.045574181 0.77347171 0.00650582
-0.068319462 0.049100202 0.0084641511 -0.60405463 -0.027803602 0.79645771 0.0035139332
0.069659479 0.050202128 0.0070190765 0.71059108 0.08270856 0.69872713 0.0066772336
-0.072108127 0.052280024 0.0060292054 -0.61923605 -0.095104441 0.77942407 0.0096157193
-0.070719369 0.052331407 0.0069024009 -0.58974326 -0.073622897 0.80422795 0.0059760152
-0.068449199 0.052169044 0.0079377815 -0.55930573 0.0026266137 0.82895732 0.0017895697
-0.071201615 0.054887149 0.0064651445 -0.59567785 -0.093397461 0.79777491 0.0053941202
-0.018772857 0.0057194731 0.0093471352 -0.21555674 -0.80074859 0.55887115 0.00053624698
-0.016331946 0.0054526478 0.0097542573 -0.17311864 -0.79384047 0.58296418 0.00084432896
-0.013369681 0.0051770424 0.010154531 -0.14120953 -0.78535205 0.6027289 0.0011077623
-0.01044886 0.0048884349 0.010335092 -0.10419668 -0.78697282 0.60812569 0.0014448669
-0.0075300862 0.0047327103 0.010525665 -0.050774492 -0.76222765 0.64531469 0.0016917249
-0.0045626452 0.0045866752 0.010581031 -0.029961277 -0.74624878 0.66499257 0.0013725854
-0.0013955458 0.0045769778 0.010615719 0.011876478 -0.75191456 0.65915358 0.0017727244
0.0015603072 0.0045330096 0.010566645 0.014438279 -0.73430008 0.67867136 0.0014598466
0.0045566633 0.0046205814 0.010568324 0.033831507 -0.74138832 0.67022294 0.0015973335
0.0074826013 0.0047466182 0.010446326 0.063761272 -0.7595486 0.64731789 0.0021559161
0.010489646 0.0048014289 0.01025559 0.080634162 -0.76076168 0.64400303 0.0017172117
0.01337765 0.0050150622 0.01004867 0.11398777 -0.75199997 0.64923251 0.0013454971
0.016354775 0.0053896001 0.0099056726 0.13564631 -0.75357735 0.64321166 0.00101682
0.019199703 0.0055932887 0.0093952166 0.15589118 -0.74669814 0.6466372 0.00067639747
0.021044778 0.0059552579 0.0093272543 0.14164123 -0.75118279 0.64471871 0.0010943937
-0.027973307 0.0086293109 0.0095597589 -0.27907252 -0.79504287 0.53854007 0.00055345939
-0.025456883 0.0082092835 0.010170079 -0.24575984 -0.78580165 0.5675543 0.00094027858
-0.022470232 0.0075839637 0.010490505 -0.21953034 -0.78476518 0.5796119 0.0014426344
-0.019619178 0.0069438107 0.010741211 -0.20040278 -0.78101122 0.59148991 0.00083443208
-0.016617982 0.0065929047 0.011229542 -0.15259311 -0.77225018 0.61672121 0.0011938825
-0.013803433 0.0064114453 0.011638357 -0.12052937 -0.71227682 0.69147253 0.001413317
-0.011206636 0.0060906988 0.011720812 -0.073025249 -0.7215507 0.68849975 0.0020971138
0.0084446613 0.0060422067 0.011738976 0.058591537 -0.72492766 0.68632859 0.0013202234
0.01067591 0.0062266374 0.011730955 0.078247771 -0.71544605 0.69427234 0.001283363
0.013550542 0.0064911922 0.01159969 0.10748705 -0.72293741 0.68250126 0.0015592909
0.016576372 0.0067079156 0.01133345 0.13376217 -0.72448838 0.67618376 0.0012823112
0.019563343 0.0069877901 0.010935869 0.1550733 -0.67558956 0.72078502 0.0018713726
0.02248328 0.0073403395 0.010550195 0.16192582 -0.72370899 0.67083925 0.0002762308
0.025369732 0.0077756601 0.010203147 0.18574578 -0.696908 0.69268888 0.00070672343
0.028394926 0.008171645 0.0098329382 0.19572443 -0.70713806 0.67944664 0.00069490616
0.031200038 0.0084527647 0.0093994513 0.21078819 -0.72024727 0.66091764 0.0014935546
0.033376876 0.0088968817 0.009193453 0.26372743 -0.67760617 0.68651128 0.0023379754
-0.0365889 0.011794696 0.0092871282 -0.36798912 -0.7733233 0.51628983 0.00067520776
-0.034280453 0.011250186 0.010044047 -0.33475369 -0.77068865 0.54219824 0.00091764895
-0.03142219 0.010480412 0.010492973 -0.27953577 -0.78933501 0.54663515 0.00055900967
-0.028604418 0.0097572003 0.010883501 -0.26310039 -0.77774954 0.57086241 0.00096391345
-0.025925046 0.0093636159 0.01160097 -0.22747271 -0.72963202 0.64489782 0.0010298777
0.025935244 0.009394547 0.011663156 0.18485913 -0.66541499 0.72322196 0.00049876567
0.028739227 0.0098707452 0.011289857 0.19164802 -0.62265867 0.75866151 0.00089896802
0.03162669 0.010223089 0.010822363 0.20049024 -0.63514441 0.74591905 0.00012774138
0.034424905 0.010487488 0.010316243 0.21164644 -0.66343969 0.71767229 0.0016989098
0.037335232 0.01107666 0.0099617168 0.27271587 -0.66827118 0.69212693 0.0031514289
0.040018421 0.011646193 0.0094198808 0.30235818 -0.67681473 0.67119402 0.0021397625
-0.042243905 0.014684886 0.0093984324 -0.44795325 -0.74345571 0.4966 0.0014128363
-0.040134203 0.014090479 0.010216311 -0.37830621 -0.73769981 0.55918103 0.00058542192
-0.037526038 0.013183123 0.010673868 -0.34480563 -0.75623029 0.55607992 0.00075579539
-0.03495428 0.012466294 0.011341957 -0.3214508 -0.74030536 0.59043825 0.0010808961
-0.032913711 0.012061879 0.01195583 -0.31612653 -0.73009962 0.60582054 0.0019715491
0.032823045 0.012054636 0.011958499 0.20947826 -0.60956371 0.76455927 0.0002290862
0.03470061 0.01233681 0.011731127 0.20776869 -0.5942865 0.77695286 0.00011180226
0.037758894 0.012911885 0.011331735 0.23090805 -0.58113587 0.78036052 0.00070913311
0.04069465 0.013343488 0.010718442 0.27088937 -0.61345011 0.74182075 0.0017146828
0.043335218 0.013824664 0.010081644 0.34434903 -0.67751652 0.64991933 0.0014471521
0.045778118 0.014513035 0.0094624534 0.38121951 -0.67356336 0.63323313 0.0028756717
-0.04594117 0.017329501 0.0098787099 -0.46169549 -0.71520782 0.52470469 0.00096699194
-0.043465197 0.016343951 0.010616136 -0.42825639 -0.71647829 0.55068624 0.00068309926
-0.041008312 0.015485699 0.011481655 -0.37650371 -0.68381596 0.62501252 0.0010429012
0.041648436 0.015111899 0.011825349 0.26600188 -0.58258933 0.76800567 0.00061307929
0.043815192 0.015760513 0.011477776 0.29143924 -0.5472939 0.78455883 0.001678802
0.046540614 0.016328279 0.010742704 0.32249081 -0.57191759 0.7542612 0.00069393113
0.049108699 0.016916705 0.0099265855 0.42204374 -0.6262995 0.65546006 0.0025898339
0.051256377 0.017628672 0.0092376182 0.4544614 -0.67403382 0.58236009 0.0020226627
-0.051308017 0.020754971 0.0094244322 -0.50226825 -0.67393553 0.54179114 0.0005168966
-0.04917746 0.01985901 0.01025122 -0.48774135 -0.6757558 0.55268657 0.0010199943
-0.046732664 0.018773036 0.01110619 -0.44869453 -0.68699008 0.57159245 0.00085830188
0.047532786 0.018109743 0.01172711 0.34425437 -0.55875212 0.75450981 0.0010019707
0.049812797 0.019054821 0.0112841 0.3632853 -0.5265131 0.76864028 0.0012725658
0.052344162 0.019577635 0.010259561 0.4303219 -0.58607566 0.68654084 0.0032368957
0.054624122 0.020351032 0.0095169153 0.48685119 -0.62493372 0.61027354 0.0018759486
-0.054572318 0.023393 0.0095174899 -0.53475976 -0.66164911 0.52559733 0.0011295613
-0.052441753 0.022490257 0.010475511 -0.50174117 -0.6426512 0.57901227 0.0021648025
-0.050212555 0.0215813 0.011420606 -0.48227036 -0.61182833 0.62696207 0.0019065539
0.053091526 0.021745456 0.011519557 0.38771784 -0.46825641 0.79398412 0.0011092736
0.055584047 0.022485165 0.010463495 0.47178692 -0.49862796 0.7271775 0.0021373541
0.05784329 0.023208167 0.0095199738 0.52724659 -0.5598591 0.63919377 0.0022361609
-0.057633083 0.026405314 0.0096722879 -0.60472566 -0.54778165 0.5781368 0.0015779334
-0.055649452 0.025300143 0.010515981 -0.56902665 -0.57529795 0.58757204 0.0025396179
-0.053669937 0.024457958 0.011544222 -0.52762258 -0.60058993 0.60075474 0.00098329852
0.056114398 0.024668662 0.01156994 0.42078853 -0.41553625 0.80639106 0.0013150373
0.058471136 0.025416421 0.010577727 0.47617519 -0.44708192 0.75721532 0.00083094725
0.060635798 0.026198007 0.0095213838 0.58076453 -0.49365485 0.64731562 0.0021553491
-0.060538184 0.029584933 0.0095019164 -0.63067466 -0.50087231 0.5927701 0.0021162743
-0.058527991 0.028460473 0.010610344 -0.60927689 -0.46906886 0.63934028 0.0020151932
-0.056432638 0.027375581 0.011751692 -0.56825936 -0.53310043 0.6268056 0.00089519884
0.059273768 0.028024238 0.011538511 0.48334241 -0.35020313 0.80233282 0.0015897331
0.061432559 0.028499613 0.010277255 0.55721307 -0.38743159 0.73444557 0.0020017207
0.063392147 0.029371465 0.0091692815 0.59278494 -0.41392183 0.69085073 0.0029854374
-0.061278977 0.031704485 0.010294938 -0.64004821 -0.40301651 0.65415281 0.0017462911
-0.059367932 0.030771276 0.011518709 -0.59143841 -0.41962269 0.6885618 0.0029315478
0.059991512 0.030176425 0.011947289 0.49965039 -0.32236171 0.80401015 0.0012625596
0.06189923 0.031213615 0.011198635 0.50920558 -0.29711616 0.80773246 0.0015284868
0.063900158 0.031634826 0.0098963538 0.62338626 -0.34400716 0.70217431 0.0019435512
-0.06376002 0.034960028 0.0097452132 -0.66330707 -0.37037528 0.65026593 0.0014991646
-0.062059168 0.034172148 0.010988987 -0.59543628 -0.30017346 0.74521905 0.0010331791
0.06247133 0.03378405 0.011703302 0.47757214 -0.20437981 0.85449034 0.001739094
0.064614274 0.034495883 0.010398926 0.59585667 -0.25985184 0.7598893 0.0022181417
0.066360123 0.035521019 0.0092873061 0.68521327 -0.25935096 0.68060255 0.0020846417
-0.064386614 0.037582509 0.010308184 -0.64791483 -0.2772536 0.7094624 0.0022034338
-0.062546641 0.036917638 0.01163995 -0.60244244 -0.2058551 0.77115935 0.0021823288
0.064562865 0.037271887 0.011118684 0.53576183 -0.13846536 0.83293849 0.00064318563
0.066628374 0.037714377 0.0096791582 0.66113055 -0.17213017 0.73025858 0.0030579569
-0.066322133 0.04033839 0.0094081359 -0.65719247 -0.19233108 0.72877067 0.002069552
-0.064662501 0.040432569 0.01077806 -0.61971742 -0.15538098 0.76929003 0.0018826246
-0.062982246 0.039321676 0.011841348 -0.58162552 -0.095320165 0.80785269 0.0054402524
0.06454391 0.040378138 0.011429816 0.45844215 0.0082421489 0.888686 0.0045976778
0.067096345 0.040492453 0.0097264862 0.62071061 -0.068827696 0.78101283 0.0036037033
-0.066728212 0.043459781 0.0095748259 -0.63043123 -0.080837205 0.77202445 0.0023402385
-0.064581305 0.04309094 0.01106257 -0.54568595 -0.022087432 0.83769864 0.0013755794
0.064523399 0.043779578 0.011244465 0.44874913 0.065937102 0.89122194 0.0029176066
0.06699311 0.043098852 0.009926335 0.61043704 -0.0066950051 0.79203641 0.0042401203
-0.067090303 0.046635836 0.0093156546 -0.60826951 -0.054607861 0.79184985 0.0013233362
-0.065061584 0.045959011 0.010600848 -0.54027033 -0.023485715 0.84116375 0.0013323168
0.065506831 0.046525504 0.010406825 0.51514047 0.064604521 0.85466754 0.0079776663
0.067298718 0.045932084 0.0095581068 0.60916781 0.047974464 0.79158896 0.0022882908
-0.021930514 0.0088150399 0.012254305 -0.19478209 -0.70594305 0.68095839 0.0013374105
-0.019301357 0.0084148236 0.012566056 -0.17308676 -0.68517172 0.70751733 0.001494313
-0.016443294 0.0080981897 0.01283634 -0.13727719 -0.70101893 0.69980538 0.0012952972
-0.013427906 0.0078199748 0.013031207 -0.10201081 -0.67867565 0.72731918 0.0011024576
-0.010547754 0.0075412886 0.0131346 -0.061012492 -0.64732492 0.75976831 0.0018035396
-0.0075671184 0.0073883589 0.013191182 -0.042608798 -0.6464619 0.76175565 0.0024228063
-0.0045896317 0.0072772722 0.013232295 -0.014882684 -0.63827777 0.76966226 0.002237248
-0.0013859591 0.0072637992 0.01323732 0.0059615159 -0.63107884 0.7756958 0.0021854937
0.0015884371 0.0073082205 0.013220944 0.02497115 -0.62203431 0.78259164 0.0022913546
0.0045638527 0.0074117957 0.013182681 0.05412456 -0.59928852 0.79870129 0.0024822524
0.0074950368 0.0075103603 0.013072923 0.057100169 -0.57760239 0.81431878 0.0029899671
0.010486632 0.0075912089 0.012901565 0.077502124 -0.59701574 0.79847711 0.0017979824
0.013435757 0.0079398984 0.012836223 0.097492903 -0.60093963 0.79332638 0.0019284229
0.016445199 0.0081830891 0.012624825 0.11692301 -0.6110723 0.78289193 0.0019183249
0.019263394 0.0084984219 0.012403233 0.13676414 -0.63916546 0.75681114 0.002346989
0.022035662 0.0088186283 0.012171288 0.15905289 -0.65811849 0.73592269 0.0013334537
-0.030933518 0.011712218 0.012331069 -0.26164374 -0.70598847 0.65812063 0.001444771
-0.028263645 0.011202636 0.012764837 -0.23964566 -0.72315538 0.64777786 0.0011572068
-0.025443826 0.010823513 0.013278907 -0.20595519 -0.68943375 0.69445187 0.0019587006
-0.02256408 0.010363868 0.013574242 -0.15431051 -0.62746936 0.76319754 0.00056274858
-0.019649316 0.010111021 0.014012803 -0.14419135 -0.60439718 0.78352594 0.0012846969
-0.016670296 0.0099072559 0.014346805 -0.10394792 -0.58179021 0.806669 0.0013880472
-0.013785464 0.009646507 0.01447845 -0.078879558 -0.61042154 0.7881394 0.00085890124
-0.010587192 0.0094641121 0.014626156 -0.04941228 -0.59226573 0.80422616 0.0010301132
-0.0075992267 0.0093690073 0.014660791 -0.019290326 -0.50110012 0.86517423 0.0026814945
-0.004613563 0.0093200272 0.014678637 -0.003427923 -0.48942527 0.87203848 0.0024020677
-0.0013999726 0.0093588624 0.014664494 0.014383122 -0.47881573 0.87779754 0.0022309895
0.0015844599 0.0094409985 0.014634588 0.029746866 -0.46506229 0.88477802 0.0024039845
0.004733386 0.0097432407 0.014654124 0.044897635 -0.45696852 0.88834906 0.0023082059
0.0076524564 0.0099557517 0.014594247 0.057238374 -0.46057767 0.88577199 0.0017882359
0.010552096 0.010039313 0.014417165 0.06971202 -0.46717855 0.88141048 0.0013292835
0.013672236 0.010298105 0.01424172 0.099534653 -0.44935775 0.88778967 0.0013943687
0.016548131 0.010444362 0.014025101 0.10245016 -0.4760237 0.87344456 0.00085690466
0.01952677 0.010443946 0.013661209 0.11796511 -0.48114932 0.86866534 0.00084337179
0.022569571 0.010429083 0.01318673 0.14798979 -0.54753304 0.82359362 0.0021786334
0.025488716 0.010742346 0.012852414 0.16507164 -0.56872892 0.80579072 0.0022183741
0.028288338 0.011209725 0.012574792 0.17907175 -0.58848089 0.78843105 0.0015185778
0.031063175 0.011773914 0.012246772 0.19645071 -0.58892292 0.78394955 0.00032162183
-0.037105348 0.014495756 0.012546247 -0.32783467 -0.67501706 0.66096622 0.00095993705
-0.034399465 0.01386874 0.013136134 -0.30763128 -0.67093289 0.67469406 0.0018760473
-0.031588543 0.01330842 0.013698936 -0.23691259 -0.63111258 0.73862666 0.00059615815
-0.028589368 0.012875273 0.014232541 -0.20766366 -0.6045655 0.76901001 0.0016566796
-0.025815077 0.012457069 0.014643068 -0.18097055 -0.63676304 0.74952161 0.0011299188
-0.02336186 0.01210063 0.014894549 -0.14177512 -0.58137238 0.80119038 0.00098677189
0.016821178 0.012157715 0.014873933 0.087502815 -0.34538987 0.93437099 0.0018637007
0.019971337 0.012683133 0.01472913 0.10734206 -0.3732 0.92152017 0.0021014016
0.02248783 0.012933232 0.014542509 0.12353051 -0.40049016 0.90793604 0.0021373234
0.025561342 0.013428465 0.01437266 0.13207287 -0.43509096 0.89064729 0.0012139038
0.028494829 0.013368367 0.013897323 0.16155867 -0.48686978 0.85840356 0.0027352015
0.03150057 0.013462725 0.013345509 0.18344431 -0.52740335 0.82957453 0.0015424824
0.0344624 0.013781226 0.012824024 0.19736399 -0.54140812 0.81726664 0.00086197519
0.037172694 0.014312051 0.012458777 0.21372078 -0.55053192 0.80699319 0.00063049869
0.039192338 0.014632043 0.012166254 0.23833835 -0.57848322 0.78009742 0.0010058735
-0.042680196 0.017472889 0.012506695 -0.41025561 -0.64990985 0.63977152 0.0016730275
-0.040340044 0.016701126 0.013120466 -0.3697964 -0.64055836 0.67300498 0.0017518209
-0.037779924 0.016231019 0.013913084 -0.3108972 -0.60771567 0.73076987 0.0010248001
-0.034923606 0.015597392 0.01448425 -0.25596973 -0.60020059 0.75778538 0.0030286286
0.028789023 0.015490805 0.014824528 0.12308657 -0.32606453 0.93730021 0.0023290955
0.031578343 0.015802423 0.014577252 0.15751258 -0.37271816 0.91447854 0.0021689017
0.034605384 0.016445294 0.014348314 0.14933704 -0.39904425 0.90468895 0.0030364622
0.037563384 0.016432952 0.013691877 0.20255157 -0.47086868 0.85863584 0.0013138395
0.040441647 0.016470168 0.012972865 0.22451188 -0.49926338 0.83685756 0.00075327692
0.043335974 0.017152511 0.012547011 0.26047802 -0.51350963 0.81759351 0.0013924299
0.045358825 0.017590046 0.012165332 0.30997032 -0.54351372 0.78007126 0.0018810118
-0.048212375 0.020884743 0.012223778 -0.4506031 -0.62409502 0.63832766 0.0012341404
-0.04612672 0.019984707 0.012809032 -0.43640792 -0.63173407 0.64067167 0.00088530936
-0.043602888 0.019359721 0.013694885 -0.38599673 -0.57868421 0.71842271 0.0013387466
-0.04087669 0.018653726 0.014489609 -0.33297396 -0.59437567 0.73201501 0.00093921972
0.037633076 0.018626412 0.01477899 0.16917863 -0.34306777 0.92394978 0.0026145889
0.040581897 0.019310566 0.014440565 0.20653449 -0.39297712 0.89605385 0.0011756335
0.043492854 0.019405399 0.0137101 0.24296524 -0.43151963 0.86876851 0.00086803356
0.046476323 0.019497417 0.012905675 0.27966088 -0.45791844 0.84386051 0.0012152903
0.049082901 0.020276662 0.012392795 0.33000508 -0.48678371 0.80878812 0.0018523865
-0.051712625 0.023672026 0.012354962 -0.48829228 -0.59610039 0.63736564 0.0014412205
-0.049412157 0.022696728 0.013018064 -0.44892469 -0.56910121 0.68890524 0.0024210371
-0.046856411 0.022156976 0.014102795 -0.39315331 -0.51772821 0.75986052 0.0010128031
-0.044704568 0.021358922 0.014723779 -0.38899863 -0.51602066 0.76315314 0.001254644
0.043727901 0.0217888 0.014738685 0.2078027 -0.31941536 0.92454952 0.0017836936
0.046531368 0.022385871 0.01421327 0.25611567 -0.36081627 0.89678109 0.00066620315
0.049512707 0.022409527 0.013296777 0.3012194 -0.40374914 0.86385959 0.00075556536
0.052230418 0.022956884 0.012585742 0.35860717 -0.43341935 0.82677001 0.0017290027
-0.054608226 0.026495289 0.012450532 -0.52039915 -0.50483036 0.68871695 0.0012211511
-0.052407485 0.02553351 0.013227207 -0.46364778 -0.4955042 0.73451096 0.0027042567
-0.049876351 0.024866261 0.01435163 -0.41008222 -0.45307615 0.79155195 0.0010620494
0.047234446 0.024581488 0.014825545 0.20525715 -0.26178738 0.94304651 0.0023128714
0.049589451 0.025353393 0.014440574 0.248266 -0.28234947 0.92662978 0.003150078
0.052503932 0.025475068 0.01354555 0.33160123 -0.34742141 0.87711972 0.00079752988
0.055121373 0.025758166 0.012596898 0.3791014 -0.37870923 0.84431124 0.0021477232
0.057193521 0.026822429 0.012117246 0.45587426 -0.40547019 0.79232097 0.0016543473
-0.057477545 0.029561041 0.012334108 -0.56252593 -0.44128543 0.69916499 0.0022259962
-0.055352207 0.028521003 0.013227548 -0.5069294 -0.37871897 0.77433491 0.0019037626
-0.052851573 0.028000388 0.014432316 -0.42903855 -0.37718618 0.82076585 0.0013823693
0.035058085 0.029043879 0.014884833 -0.035285085 0.099224627 0.99443918 0.0017196337
0.050593041 0.027524587 0.014780235 0.21409598 -0.16124389 0.9634124 0.0032103809
0.052593619 0.028428601 0.014406115 0.28691825 -0.22695458 0.93068236 0.0015583653
0.055554867 0.028475907 0.013452673 0.34371635 -0.26168591 0.90187562 0.00084834354
0.058078475 0.028684145 0.012437872 0.44405478 -0.33736673 0.83005971 0.0012215771
-0.060166027 0.032858972 0.012027059 -0.55266106 -0.35586259 0.75360978 0.003523306
-0.058126651 0.031775426 0.012918049 -0.53589225 -0.35432938 0.76633549 0.0024644264
-0.055781942 0.031231459 0.01415557 -0.46478087 -0.28428632 0.83854634 0.0015767096
-0.053931396 0.030360006 0.014936646 -0.45167848 -0.23887977 0.85960633 0.0046172133
0.052950047 0.031117151 0.014828151 0.21660568 -0.098250225 0.97130275 0.0024872439
0.055478979 0.031431906 0.014177761 0.28618109 -0.15933944 0.94483405 0.0017803484
0.058445729 0.03146017 0.013055008 0.39757308 -0.23422924 0.88717097 0.00065345108
0.060513522 0.031963777 0.012255701 0.4659394 -0.26001501 0.8457498 0.0024495241
-0.060626905 0.034933601 0.01240357 -0.56513709 -0.26196223 0.7823016 0.0031985536
-0.058646984 0.034233797 0.013508743 -0.4841741 -0.22167237 0.84642589 0.0029950121
-0.05646668 0.034131058 0.014658498 -0.40874797 -0.15885332 0.89871615 0.0027197294
0.045777977 0.033740368 0.014791952 -0.0038557933 0.14968809 0.98872572 0.00086832035
0.050298546 0.035414193 0.014730673 0.034122918 0.14754669 0.98846626 0.0023851884
0.052655514 0.034763981 0.01478275 0.08410459 0.10163363 0.99126035 0.0058744
0.055533756 0.034344032 0.014399341 0.2441847 -0.06303221 0.96767813 0.0014817634
0.058511294 0.034380715 0.013580566 0.32824519 -0.10543423 0.93868995 0.0017856201
0.06117266 0.034667477 0.012580795 0.4312675 -0.15321824 0.88911897 0.0020714819
-0.061237719 0.037554659 0.01265071 -0.50635725 -0.13836181 0.85115123 0.0039823879
-0.05867584 0.03741838 0.014006495 -0.41437921 -0.034779485 0.90943956 0.00377038
-0.05671474 0.037350502 0.014841342 -0.35986215 -0.01750095 0.9328413 0.0030021977
0.049524371 0.037213635 0.014115651 0.017565373 0.16699694 0.98580086 0.0012869629
0.055803847 0.036749594 0.014274253 0.15072864 0.078606308 0.98544508 0.0024473327
0.058583871 0.037195705 0.013721664 0.23233777 0.066274837 0.97037458 0.0033114182
0.061618146 0.037377782 0.012700767 0.34809905 -0.029537581 0.93699235 0.0042307749
-0.061448142 0.040461872 0.012832654 -0.46301785 -0.020709651 0.88610697 0.0015619551
-0.05833317 0.040266674 0.014108519 -0.37186059 0.03458865 0.9276439 0.0012599556
-0.056365054 0.040394198 0.014582471 -0.25867873 0.124679 0.9578833 0.0025183505
0.055771559 0.040627133 0.013467632 0.17896004 0.1092552 0.97777122 0.0010487866
0.05844304 0.040726852 0.013226835 0.20430292 0.092482939 0.97452921 0.0017775169
0.061559744 0.040368073 0.012692115 0.3196421 0.057069357 0.94581813 0.004012703
0.063085184 0.039727107 0.01222016 0.41909662 0.035307363 0.90725493 0.0083095618
-0.061679684 0.043648314 0.012439084 -0.46763179 0.010821041 0.88385713 0.0010004302
-0.059931543 0.042844135 0.01323346 -0.42172915 0.01410339 0.90661216 0.0020022017
0.059197936 0.042428911 0.012853976 0.23460875 0.11623406 0.96511573 0.0027203623
0.061046463 0.043289144 0.012387283 0.23973897 0.12921908 0.96219939 0.0024360432
-0.021264521 0.011781772 0.015009698 -0.12925462 -0.60622364 0.78472042 0.0013649218
-0.019156666 0.011650681 0.015235409 -0.11664649 -0.57124501 0.81244862 0.0016034201
-0.016396321 0.011384358 0.01539831 -0.079047844 -0.5362345 0.84035945 0.0018275301
-0.013308581 0.011205762 0.015507568 -0.046440326 -0.50346071 0.86276919 0.0021729253
-0.010514641 0.010963017 0.015513044 -0.021650324 -0.4715561 0.88157028 0.0023206181
-0.0073974086 0.01096514 0.01554998 -0.0021150655 -0.45007142 0.89299011 0.0024013002
-0.0044047083 0.010980562 0.015544462 0.0087477257 -0.43333122 0.90119225 0.0022512069
-0.0015111415 0.010855359 0.015429874 0.025671104 -0.41997308 0.9071734 0.0023038213
0.00158154 0.010874479 0.015337716 0.037556481 -0.40817714 0.91212988 0.0023799052
0.0044222376 0.011142637 0.015322488 0.043231495 -0.40272179 0.91430092 0.0022296917
0.0075747962 0.011574734 0.015329722 0.049997598 -0.4081772 0.91153258 0.0021021042
0.01057255 0.011502249 0.015110643 0.067179173 -0.41694719 0.90644473 0.0019351738
0.013114845 0.011736214 0.015026151 0.078094184 -0.42471671 0.90195179 0.0014775802
-0.030466227 0.014672556 0.015199808 -0.21811745 -0.59861755 0.77076703 0.0013989484
-0.02844557 0.01440691 0.015442823 -0.17343183 -0.56721789 0.80509955 0.00218433
-0.025394449 0.013842807 0.015680024 -0.14056057 -0.52549267 0.83910674 0.0021560634
-0.022491159 0.013442604 0.015886744 -0.13007346 -0.50920981 0.85075635 0.0015842118
-0.019552693 0.013513047 0.016236888 -0.070235126 -0.43926564 0.89560741 0.0025868639
-0.0164623 0.013352212 0.016410382 -0.038283557 -0.39376882 0.91841191 0.0026536209
-0.013534809 0.013459138 0.016535765 -0.010364064 -0.35551676 0.93461245 0.003029285
-0.010452732 0.013537905 0.016589491 0.0072375545 -0.32055795 0.94720125 0.0026488686
-0.0074476944 0.013626206 0.016558165 0.020291068 -0.29409671 0.95556027 0.0028803514
-0.0044988059 0.013441625 0.016429754 0.029387437 -0.27362549 0.96138728 0.0027132018
-0.001340952 0.013257001 0.016255302 0.038736381 -0.25532416 0.96607929 0.0025246043
0.0015760782 0.013380221 0.0161548 0.04243169 -0.24400423 0.96884549 0.0023104076
0.0044947355 0.013503443 0.016054075 0.040457591 -0.23065493 0.97219414 0.002130663
0.0075919693 0.013414999 0.015896272 0.040065143 -0.23334219 0.97156894 0.0019067023
0.01054715 0.01324921 0.01568299 0.046858266 -0.24607055 0.96811861 0.0019379049
0.013551189 0.013637893 0.015600674 0.058874786 -0.26794529 0.96163356 0.0015810978
0.016334232 0.013575517 0.015398986 0.067500055 -0.28477427 0.95621508 0.0016486745
0.019267078 0.01396304 0.01529012 0.083198495 -0.31434807 0.94565493 0.001954027
0.022225453 0.014467795 0.015191022 0.092401758 -0.35201177 0.93142349 0.0025199791
0.024087401 0.01451664 0.015009045 0.11911851 -0.39223003 0.91212195 0.0021356051
-0.036800403 0.017546268 0.015348994 -0.27615365 -0.56303412 0.77892989 0.0017055988
-0.034241576 0.016874673 0.015630083 -0.22150175 -0.52371418 0.82259369 0.0025904742
-0.031523839 0.016464809 0.016080391 -0.1810088 -0.4810566 0.85779971 0.002594932
-0.028514333 0.016470462 0.0166265 -0.12636127 -0.43836927 0.88986808 0.0026362764
-0.025547622 0.016320404 0.016943956 -0.083428323 -0.35664025 0.93050921 0.0022679546
-0.022549661 0.016186092 0.017157691 -0.051608514 -0.31383759 0.94807309 0.0025522884
-0.019523688 0.01628387 0.017315209 -0.024276629 -0.29468113 0.95528722 0.004135679
-0.016569011 0.016267313 0.017345704 0.005838376 -0.24303198 0.97000074 0.0045403051
-0.013551221 0.016405301 0.017297318 0.038074724 -0.099215448 0.99433726 0.0053615388
-0.010647976 0.016514551 0.017197339 0.051174719 -0.056286942 0.99710232 0.0051482222
-0.0075049535 0.016409229 0.017049085 0.052317891 -0.021221872 0.99840492 0.0040138364
-0.0044124504 0.016364895 0.016847605 0.049435791 -0.10648258 0.99308485 0.0053637675
-0.001600894 0.016231965 0.016711116 0.038845818 -0.085229605 0.9956038 0.0054977634
0.0015690299 0.016380476 0.016565915 0.076475538 -0.073544323 0.9943555 0.0060048033
0.0046567018 0.016451471 0.016425882 0.051148999 -0.041706145 0.99781984 0.0058592833
0.0074666496 0.016439721 0.016298644 0.025801904 0.018396694 0.99949777 0.0044114576
0.010409864 0.016012201 0.016202578 0.045354415 -0.060735628 0.99712294 0.0067971037
0.013441565 0.016290545 0.016103942 0.049170539 -0.12007201 0.99154675 0.0028503181
0.016533496 0.016136853 0.015940947 0.033945266 -0.12669322 0.9913609 0.0029803317
0.019501362 0.01637705 0.015826611 0.047037393 -0.15653656 0.98655146 0.0020313999
0.022638246 0.016529443 0.015631568 0.056808345 -0.18337175 0.98140079 0.0018369267
0.025427418 0.016292609 0.015385869 0.066659093 -0.21033965 0.97535318 0.0014722806
0.028388616 0.016841808 0.015290224 0.069867007 -0.26877186 0.96066654 0.0016872453
0.031352084 0.017414339 0.015187573 0.10318208 -0.32203177 0.94108927 0.0024345161
-0.042664487 0.020775937 0.015262241 -0.34054726 -0.53713083 0.77169818 0.0021299629
-0.040357534 0.020009814 0.015623334 -0.28810003 -0.49390486 0.82040006 0.0027982271
-0.037515953 0.019356035 0.016202295 -0.23988196 -0.45078367 0.85979694 0.0022791116
-0.034515932 0.019426122 0.016937893 -0.16411151 -0.36369273 0.91694874 0.0018660628
-0.03161199 0.019517541 0.017435249 -0.11809807 -0.32106924 0.93966341 0.0030223066
-0.028597772 0.019230127 0.017674085 -0.079161681 -0.26759812 0.96027327 0.0033139777
-0.025625598 0.019079676 0.017782269 -0.043220758 -0.19309062 0.98022854 0.0040293778
-0.022528414 0.019132733 0.017825898 0.021417389 -0.099054523 0.99485147 0.0050282422
-0.019563686 0.019252822 0.017755136 0.048006058 -0.043506492 0.99789912 0.0030706665
-0.016447486 0.019065186 0.017601481 0.040683068 -0.059497062 0.99739909 0.0057198401
-0.013651845 0.019284617 0.017401148 0.075911865 -0.023627844 0.99683452 0.0043096696
-0.010230181 0.019593621 0.017059168 0.069236204 0.0025266449 0.99759704 0.0034482314
-0.0075528319 0.018582666 0.017026875 0.052324433 -0.021225164 0.9984045 0.0040133838
-0.0047734804 0.020002905 0.016529482 0.054023944 0.020769032 0.99832368 0.0019518195
-0.0010063386 0.018288668 0.016634788 0.055516645 0.0026717787 0.99845415 0.0025411726
0.0015618451 0.01933003 0.016268829 0.066182904 0.017610308 0.99765205 0.0017568795
0.0043765875 0.020222275 0.015955271 0.043723557 0.1322315 0.99025404 0.00047997542
0.0070731291 0.020120058 0.015867408 0.026008287 0.12346184 0.99200845 0.00064562785
0.010444374 0.01809744 0.016206777 0.019023158 0.01853372 0.99964726 0.0050716214
0.013516614 0.019497233 0.015962364 -0.013976134 0.016840542 0.99976051 0.0027883304
0.016557934 0.019300058 0.016031597 0.042229779 -0.033646125 0.99854124 0.0044240989
0.01949646 0.019308491 0.016009416 0.057246353 -0.037485007 0.99765617 0.004846212
0.022533724 0.01950396 0.015978746 0.0083463639 -0.03394362 0.99938887 0.0049988492
0.025531877 0.019237803 0.015834555 0.027820498 -0.095425703 0.99504769 0.0018943129
0.028520675 0.019405957 0.015746063 0.043591857 -0.12181412 0.99159527 0.0015191647
0.031646378 0.019623442 0.015617088 0.067426093 -0.16727808 0.98360145 0.0032436696
0.034367025 0.019369276 0.015375032 0.063186683 -0.20187904 0.97737014 0.0018945549
0.037493974 0.02008524 0.015257026 0.10156297 -0.27907905 0.95488209 0.0026060012
0.039436568 0.020888567 0.015222523 0.15325321 -0.2328593 0.96035939 0.0033324314
-0.045883276 0.023393609 0.015397896 -0.37207523 -0.46865007 0.80120361 0.0023798705
-0.043422662 0.022478096 0.015905321 -0.32669833 -0.45113972 0.83050656 0.001653562
-0.040456187 0.022367859 0.016772339 -0.23239389 -0.37463704 0.8975746 0.002697075
-0.037613675 0.022454612 0.017451311 -0.16169988 -0.29045054 0.94312865 0.0036091076
-0.034858357 0.022023434 0.017780947 -0.14442132 -0.24393712 0.9589771 0.0024090966
-0.031832457 0.021639038 0.017948808 -0.059342176 -0.14886731 0.98707497 0.0037401135
-0.024357485 0.022479529 0.017908115 0.056172263 0.052144069 0.99705851 0.0019907414
-0.022623748 0.022127671 0.017851453 0.046896983 0.056283675 0.99731284 0.0016437753
-0.019807575 0.022714157 0.017478123 0.069741815 0.076972552 0.99459106 0.00052477524
-0.017046453 0.022065196 0.017303627 0.063031256 -0.00041789323 0.99801147 0.0016858602
-0.013260621 0.021412427 0.017032271 0.061934453 0.04768895 0.99694031 0.0013303192
-0.0085574519 0.021263391 0.016586274 0.067517854 0.075045176 0.9948917 0.00073698943
0.008146653 0.021246407 0.015595363 0.026008263 0.12345988 0.99200869 0.00064376422
0.010498326 0.021140287 0.015632657 0.003083694 0.10534703 0.99443072 0.00069580378
0.020469012 0.023342744 0.01535981 0.0092295688 0.03087773 0.99948049 0.002158002
0.022538057 0.022105439 0.015793135 -0.016618371 0.036681075 0.99918884 0.0018790825
0.025587929 0.021820785 0.015892828 -0.0046406849 -0.02531624 0.99966872 0.0037494272
0.028466141 0.022722371 0.015827617 0.023006625 -0.014258021 0.99963361 0.001960837
0.03153443 0.02270861 0.015832296 0.0066347015 -0.032305941 0.99945605 0.0023288345
0.034726512 0.022422355 0.015782796 0.037288539 -0.065566562 0.9971512 0.0037994392
0.037420131 0.02242814 0.015680879 0.043830164 -0.10747445 0.99324131 0.0019065082
0.04049683 0.022447348 0.015424341 0.085132904 -0.15405054 0.98438853 0.0028374712
0.043524664 0.023126973 0.015207991 0.15014642 -0.24496649 0.95783478 0.0031091413
-0.048981227 0.026061278 0.015451687 -0.37748167 -0.40732148 0.83162302 0.0024368716
-0.046516653 0.025362015 0.016087469 -0.33342853 -0.38638711 0.85995954 0.0013772445
-0.043624301 0.02539264 0.017011389 -0.20895875 -0.24246199 0.94739032 0.0033174879
-0.040693391 0.025419727 0.017646555 -0.14729615 -0.16135424 0.97584254 0.0017774049
-0.037854481 0.024844641 0.017914692 -0.10377797 -0.13950014 0.98476893 0.0040311562
-0.030291593 0.026448986 0.017794844 0.048254002 0.13276342 0.98997241 0.0007757289
-0.027335396 0.024823487 0.017850323 0.075692005 0.13005222 0.98861372 0.00054443791
-0.026438681 0.025542229 0.017603803 0.0756694 0.13004735 0.98861611 0.00054264272
-0.023064895 0.024511237 0.017457299 0.076791599 0.080567114 0.99378669 0.00076079066
0.026420049 0.024188263 0.015565465 -0.0146051 0.069953978 0.99744332 0.00094016263
0.031499345 0.025891276 0.01547451 0.002540882 0.078625217 0.99690104 0.0016178512
0.034536485 0.025176665 0.015723053 -0.0040926435 0.056254864 0.99840808 0.004149565
0.037778523 0.025831418 0.01572446 -0.015964022 0.069953784 0.99742246 0.003487719
0.040603373 0.02570701 0.015732603 0.012775344 -0.025079044 0.99960381 0.0023878731
0.043437831 0.025495455 0.015586525 0.064604506 -0.085094959 0.99427617 0.0034923789
0.046379019 0.025691561 0.015261586 0.13807273 -0.17314239 0.97517061 0.0028645117
0.048728462 0.026891645 0.015126579 0.19675636 -0.11834206 0.97328418 0.0056422814
-0.052043445 0.029116889 0.015315692 -0.38994032 -0.33359113 0.85829103 0.0032297997
-0.04960081 0.028426597 0.016062327 -0.29979894 -0.2560991 0.91898519 0.0041057961
-0.046591304 0.028372072 0.017005548 -0.22019464 -0.15088898 0.9637152 0.0033707924
-0.043419793 0.028434578 0.017591326 -0.16981612 -0.070944645 0.98291874 0.0050927959
-0.040661603 0.028670158 0.017842829 -0.11276221 -0.013939266 0.99352425 0.0026869129
-0.037894629 0.029252786 0.017846147 0.01342658 0.10315485 0.99457467 0.0016676699
-0.033511657 0.028141951 0.017719883 0.044426203 0.148343 0.98793757 0.00076896942
-0.032627296 0.028963553 0.017440058 0.061577819 0.16228496 0.98482066 0.0004565313
-0.029402426 0.027245268 0.017522685 0.048461623 0.12086619 0.99148512 0.00094678911
0.035702158 0.028096642 0.015213141 -0.035298035 0.09922377 0.99443883 0.0017217159
0.037137464 0.028142301 0.015366472 -0.035285193 0.099218242 0.9944399 0.0017212468
0.040533453 0.028864253 0.01545327 -0.035524428 0.10163105 0.99418765 0.0011715754
0.043589905 0.028304851 0.015646482 0.062435955 -0.028302036 0.99764758 0.0030289663
0.046545278 0.028031258 0.015511715 0.084347166 -0.0298343 0.99598962 0.0030876023
0.049393885 0.028657403 0.01521389 0.1506786 -0.087811589 0.98467505 0.0026098716
-0.054278817 0.032035261 0.015207364 -0.40050283 -0.2404341 0.88418829 0.0040426799
-0.052405395 0.031436283 0.015851844 -0.3279241 -0.17498405 0.92835677 0.0037756721
-0.049647693 0.031362318 0.016655486 -0.27187374 -0.12523912 0.95414871 0.0014379979
-0.046524689 0.031587046 0.017223582 -0.14000741 -0.0022472444 0.99014789 0.0046250713
-0.043813638 0.03168514 0.017455576 -0.063864306 0.079283118 0.99480426 0.0030919809
-0.041516807 0.032068137 0.017398221 -0.046380341 0.11573604 0.99219656 0.0033330899
-0.036348376 0.030618139 0.017382767 0.029767523 0.16966642 0.98505193 0.00099958829
0.043570209 0.030751113 0.0153096 0.020048264 0.061167121 0.99792618 0.0017672437
0.046800785 0.031061463 0.01537273 0.05662908 0.041015036 0.99755245 0.0037973556
0.049545351 0.031727251 0.015248137 0.031755865 0.032816797 0.9989568 0.0034685556
0.051457904 0.031440113 0.015073217 0.14839867 -0.01688646 0.98878342 0.0038357861
-0.054989494 0.034602873 0.015334203 -0.36810929 -0.10815483 0.92347068 0.0023787725
