# .PCD v0.7 - Point Cloud Data file format
VERSION 0.7
FIELDS x y z normal_x normal_y normal_z curvature
SIZE 4 4 4 4 4 4 4
TYPE F F F F F F F
COUNT 1 1 1 1 1 1 1
WIDTH 560
HEIGHT 1
VIEWPOINT 0 0 0 1 0 0 0
POINTS 560
DATA ascii
-0.030426249 0.035958279 -0.011997166 0.29995897 0.63900346 -0.70830739 0.003449914
-0.028080743 0.035416238 -0.011450859 0.3013114 0.66835505 -0.68008316 0.00079995976
-0.025330937 0.034900077 -0.010750744 0.29849443 0.72906542 -0.61592597 0.0012940821
-0.022602454 0.034163181 -0.010335181 0.28083163 0.73444563 -0.61783749 0.0024421201
-0.019507974 0.033548202 -0.0097378334 0.2611005 0.76615357 -0.58722663 0.00059120933
-0.017393699 0.033187963 -0.0092068072 0.25014284 0.75651085 -0.6042515 0.0011665492
0.025639299 0.033220574 -0.0093635842 -0.24017696 0.7721923 -0.58824658 0.00085921993
0.028620427 0.033673946 -0.010008732 -0.26022601 0.75844228 -0.59753466 0.0013941654
0.031519033 0.034274876 -0.010528283 -0.27164143 0.72013319 -0.63845056 0.0012441379
0.034210972 0.035004146 -0.010912183 -0.3065992 0.73233521 -0.60801488 0.0016411975
0.036985584 0.035591405 -0.011683767 -0.31059918 0.64082849 -0.70204484 0.001379592
0.062701695 0.034118202 -0.011884683 0.5674991 -0.18790606 -0.80164587 0.0019900629
0.064476639 0.034448326 -0.010632612 0.58708084 -0.20221902 -0.7838645 0.00096539356
0.066368595 0.035093199 -0.0092402715 0.69140488 -0.25084206 -0.6775232 0.0022292605
-0.036121543 0.03888901 -0.011769056 0.31300309 0.68231231 -0.66066557 0.0012944426
-0.034154728 0.038324468 -0.011383877 0.32338575 0.67125517 -0.66696191 0.0012450572
-0.031449694 0.037730012 -0.010650854 0.3276293 0.71671075 -0.61561739 0.0016648775
-0.028716659 0.036915068 -0.010151083 0.31991503 0.73056573 -0.60326451 0.0020388176
-0.025993334 0.036292769 -0.0094005093 0.31989509 0.74554485 -0.58466226 0.0010760463
0.034903925 0.03641909 -0.009595369 -0.3308222 0.74657625 -0.57721794 0.001291355
0.037647776 0.037207365 -0.010181369 -0.34782416 0.71508032 -0.60636497 0.0021415765
0.040380523 0.037854888 -0.011055719 -0.36152631 0.65403104 -0.66448635 0.0023957475
0.043001194 0.038634133 -0.011681804 -0.32052854 0.63430935 -0.70350057 0.0015530112
0.06477847 0.037448663 -0.01104044 0.56653392 -0.10549194 -0.81725806 0.0010439325
0.066639975 0.037534676 -0.0095937587 0.63834679 -0.1400394 -0.75690311 0.0023643179
-0.042397324 0.041811485 -0.011826404 0.29366466 0.65748632 -0.69388247 0.00098864781
-0.040280782 0.041327167 -0.011327821 0.30116895 0.64790499 -0.69965452 0.00082240708
-0.037424542 0.040642131 -0.010588145 0.3304742 0.70368981 -0.62897336 0.001747778
-0.034622397 0.039826088 -0.01001585 0.35320497 0.71269834 -0.6060589 0.0015298969
-0.032528497 0.039376035 -0.0093033649 0.36313224 0.74579936 -0.55849653 0.0021584821
0.041069482 0.039582219 -0.0095727155 -0.40103033 0.7081877 -0.58107221 0.0015628233
0.043697048 0.040260464 -0.010429339 -0.37112653 0.66230911 -0.65085453 0.00192419
0.046253454 0.040938716 -0.011127799 -0.31713074 0.63237208 -0.70677692 0.001936512
0.048773371 0.041655 -0.011608149 -0.26241094 0.60610133 -0.75085396 0.0022252458
0.064717732 0.040548008 -0.011209786 0.47615364 0.04858977 -0.87801868 0.0053851549
0.067014247 0.040477529 -0.0096368901 0.62571132 -0.029728124 -0.77948809 0.0030119633
-0.062144354 0.043833241 -0.011350741 -0.22637144 0.24630234 -0.94238585 0.0018169665
-0.049075272 0.044625621 -0.01180159 0.2090652 0.60767162 -0.76617676 0.0018570417
-0.046294618 0.044075914 -0.011339619 0.26374769 0.5974896 -0.75726032 0.0016718492
-0.043426532 0.043567605 -0.010572379 0.29248855 0.65192246 -0.69960541 0.0011052226
-0.04075186 0.042902082 -0.0099218413 0.35408649 0.72269386 -0.59357923 0.0010246672
-0.038642354 0.04232727 -0.0094137918 0.36874947 0.71070457 -0.59910172 0.0012397403
0.046990898 0.042631853 -0.0098831961 -0.36975735 0.66412002 -0.64978772 0.001279988
0.049745068 0.043386899 -0.010514217 -0.32202849 0.61585981 -0.71903706 0.0017048975
0.052504625 0.043788888 -0.011243253 -0.2369449 0.56286168 -0.79186106 0.0012483163
0.055423941 0.044312958 -0.011629712 -0.15086921 0.50320995 -0.8508926 0.0023203131
0.058430254 0.044575464 -0.011826789 -0.019838717 0.42614675 -0.90443647 0.0035302895
0.061865076 0.044094395 -0.011718106 0.19862789 0.27799234 -0.93982303 0.0083397496
0.06454239 0.043458898 -0.01098563 0.38499373 0.16880463 -0.90735036 0.0052353088
0.066915683 0.043424208 -0.0096565438 0.57024783 0.082954541 -0.8172735 0.0037627385
-0.063752152 0.047081761 -0.010346205 -0.19709903 0.3132672 -0.92898631 0.0019228755
-0.061375782 0.046559602 -0.011174299 -0.17343275 0.33041656 -0.92776394 0.0036014316
-0.058596823 0.046855386 -0.01150261 -0.052031234 0.41848215 -0.90673339 0.0041852305
-0.055497438 0.04693776 -0.011431249 0.089362204 0.51897168 -0.85010755 0.0024844313
-0.052433405 0.046759956 -0.011067743 0.16776168 0.56919205 -0.80490768 0.0011683034
-0.049555652 0.046472341 -0.010423789 0.2496205 0.63260227 -0.73314667 0.0023219141
-0.046663105 0.04580754 -0.0098650437 0.31772989 0.69718856 -0.64263195 0.0015592432
-0.044603612 0.045382638 -0.0092813456 0.35084552 0.69668281 -0.62573195 0.0018284369
0.050675608 0.045297906 -0.0091865622 -0.37082455 0.68711686 -0.62478763 0.0026978333
0.052840326 0.045715727 -0.0098155951 -0.29972762 0.61376965 -0.73037672 0.0019813685
0.055599097 0.046397541 -0.010244875 -0.23958474 0.57140458 -0.78491783 0.003140152
0.05854629 0.046507888 -0.010785478 -0.059906106 0.47222605 -0.87943953 0.0027942895
0.061518312 0.046501406 -0.010838259 0.09487658 0.38874644 -0.91644675 0.0056370669
0.064532526 0.046474472 -0.010233492 0.30725104 0.28362343 -0.90838015 0.0073074657
0.066698119 0.046228886 -0.0093772085 0.49796787 0.18574874 -0.84706873 0.0043706298
-0.064180121 0.049576771 -0.0094416803 -0.11344563 0.43051964 -0.89542335 0.0024799502
-0.061412834 0.049543805 -0.0099456627 -0.072341651 0.47226784 -0.87848151 0.0043251365
-0.058467243 0.049524356 -0.010036058 0.026789278 0.54271543 -0.83948928 0.0047213417
-0.055526443 0.049101762 -0.0099627767 0.14515764 0.61253577 -0.77700019 0.0044395966
-0.052634314 0.048759174 -0.0094667273 0.23542656 0.66512018 -0.70865321 0.002853652
-0.050786342 0.048261002 -0.009276283 0.28156656 0.67221063 -0.6847285 0.0049732015
0.056814879 0.048089929 -0.0093920166 -0.22028729 0.59541488 -0.77262837 0.0037854407
0.058728289 0.048612699 -0.0094618825 -0.16595803 0.57103831 -0.80397332 0.0038913775
0.061563171 0.049028214 -0.0095734717 -0.013254691 0.47933787 -0.8775304 0.0048037958
0.064355202 0.048983824 -0.0094195558 0.18690838 0.36570197 -0.91177154 0.0056757159
0.066145271 0.048419956 -0.009122909 0.32956514 0.33603609 -0.88230753 0.0086844154
-0.061583482 0.051070947 -0.0090999631 -0.014357255 0.57267296 -0.81965816 0.0041612941
0.012830791 0.0027009742 -0.0070802965 0.083052337 -0.82129729 -0.56442279 0.0016141797
0.0075405706 0.0032649557 -0.0085159279 0.036731075 -0.75764853 -0.65162843 0.0017273702
0.011562981 0.003418122 -0.0085279066 0.055744726 -0.7899037 -0.61069196 0.00057254778
0.013347554 0.0037203277 -0.0086781671 0.099693105 -0.81377095 -0.57257146 0.0019955256
0.016495684 0.0039255945 -0.0084810359 0.10581857 -0.82326531 -0.55770653 0.0012131404
0.019648895 0.0041851718 -0.008114961 0.14025316 -0.83424473 -0.53325862 0.0011251009
0.022679197 0.0044373185 -0.0074815769 0.17728798 -0.83832532 -0.51553816 0.00065803819
0.025325608 0.005293387 -0.0080120098 0.20080933 -0.82997972 -0.52039337 0.0010247474
0.02775475 0.0057255519 -0.0076111704 0.23559994 -0.83034843 -0.50498933 0.00075392617
0.026455978 0.0061430633 -0.008966079 0.20513514 -0.81467158 -0.54242963 0.0019047445
0.029312478 0.0062007187 -0.0076637398 0.24695903 -0.83745438 -0.48752576 0.00043742478
0.031674027 0.00673531 -0.0073593408 0.29321942 -0.84514779 -0.44693121 0.0010923927
0.034566093 0.008022882 -0.0078287283 0.3010118 -0.83333355 -0.46362394 0.0012122237
0.03708129 0.0084086116 -0.0067797909 0.32249275 -0.83277595 -0.44998071 0.0017430418
0.037917823 0.0092843324 -0.0078302193 0.34483144 -0.81573844 -0.46439424 0.0016089651
0.040539246 0.010309441 -0.0075527849 0.37580693 -0.81594402 -0.43932265 0.0013815116
0.043021135 0.011399698 -0.0074188337 0.3966122 -0.80082029 -0.44876018 0.0018883684
0.044537678 0.012307867 -0.0077498201 0.42403528 -0.80107927 -0.42245233 0.0011895512
0.046629757 0.013411278 -0.0075867726 0.44254106 -0.77108467 -0.45780542 0.0016208643
0.048857313 0.014552007 -0.0073205689 0.4521929 -0.7643739 -0.45962381 0.0015272672
0.050294586 0.015620033 -0.0076837428 0.49337807 -0.75632107 -0.42960042 0.0011176298
0.052272003 0.016775988 -0.0073404447 0.50541908 -0.74843401 -0.42941594 0.0014823009
0.054340534 0.017557226 -0.0062367041 0.54365051 -0.74917144 -0.37839988 0.00056726806
0.053448606 0.018348334 -0.0084514823 0.51284146 -0.70751208 -0.48623079 0.0011655096
0.055566899 0.019365005 -0.0076287435 0.55613089 -0.7042191 -0.44135463 0.0010909756
0.057439495 0.020252353 -0.006664854 0.57915288 -0.6693719 -0.46532047 0.001177176
0.05659195 0.02110197 -0.0088419151 0.55681354 -0.62775111 -0.54395521 0.0016163044
0.05862885 0.022133777 -0.007702468 0.59545815 -0.63678116 -0.48983604 0.0020841241
0.060671918 0.023386328 -0.0068393596 0.61612177 -0.63035411 -0.47227928 0.0016686827
0.061835155 0.025399739 -0.0077634659 0.64503264 -0.55868602 -0.52134711 0.0033562297
0.063549183 0.026480136 -0.0067225541 0.68226534 -0.52638757 -0.50737578 0.0011504937
-0.00059642433 0.029911345 -0.0089605488 0.077450119 0.77002603 -0.63329411 0.0011175156
0.00184914 0.029840712 -0.0088182669 0.043423899 0.7805078 -0.62363613 0.00083072926
0.0044090399 0.029820714 -0.0087760203 -0.0013648981 0.78187621 -0.62343228 0.00091567758
0.0071365405 0.029886173 -0.0087260222 -0.04075611 0.84322274 -0.53601724 0.0028404214
0.009846909 0.029926015 -0.0089784367 -0.078812644 0.78458369 -0.61499351 0.00080145005
0.062754624 0.027541533 -0.0087269563 0.63480943 -0.45125392 -0.62720561 0.0010769774
0.064469486 0.028539047 -0.0074756849 0.71665221 -0.45073715 -0.53220832 0.0018592871
0.066099912 0.029596306 -0.0062227971 0.73238921 -0.44186011 -0.51804018 0.001464127
-0.015795613 0.032968804 -0.0088239033 0.2439114 0.78286892 -0.572384 0.00041304593
-0.013234871 0.032554019 -0.0083573516 0.22268933 0.79954922 -0.5577907 0.00043648022
-0.010283294 0.032208718 -0.0077758194 0.19264071 0.83980095 -0.50756669 0.0016178985
-0.0074938326 0.031734444 -0.0075938511 0.16028751 0.85704786 -0.48967013 0.0013460874
-0.0045094602 0.031267937 -0.0075935978 0.12124846 0.8465175 -0.5183695 0.0021466285
-0.001476688 0.03092256 -0.007541527 0.085172623 0.85750443 -0.50737745 0.0021847552
0.0014574245 0.030854953 -0.0073170303 0.039788302 0.86141205 -0.50634587 0.0024642237
0.0044833305 0.030790666 -0.0072815581 0.0072976942 0.86475986 -0.50213253 0.0024049019
0.0074510947 0.030768206 -0.0073846616 -0.034622371 0.86702204 -0.49706548 0.0024681312
0.010539648 0.030904446 -0.0075422316 -0.079788268 0.86916155 -0.48804921 0.0019121221
0.013468299 0.031164292 -0.0076764887 -0.1286861 0.85869247 -0.49607173 0.0022195817
0.016280496 0.031754084 -0.0075372672 -0.18373299 0.86308259 -0.47045791 0.0014889342
0.019178925 0.03219153 -0.0079563744 -0.22115056 0.83983213 -0.49575651 0.0016996247
0.021646503 0.03259065 -0.0084625687 -0.23809901 0.81435084 -0.52928412 0.0028157532
0.065356106 0.031024856 -0.0082996497 0.69135517 -0.35597736 -0.62873536 0.0014026384
0.066736773 0.031747144 -0.0070187864 0.74068642 -0.4049094 -0.53612679 0.0016644296
-0.022132222 0.035492454 -0.0082894824 0.30550799 0.81413031 -0.49381858 0.0017344035
-0.019375531 0.034926295 -0.0075946683 0.30411354 0.83706695 -0.45479003 0.001220202
-0.016565459 0.034051277 -0.0075017978 0.24492079 0.83111119 -0.49926761 0.0017752468
-0.013794852 0.033589106 -0.006973858 0.22817032 0.84567595 -0.48246276 0.0019149894
-0.011185701 0.033188224 -0.0064258189 0.20216662 0.85808754 -0.47203225 0.0015535381
0.019728314 0.033199392 -0.0065014204 -0.23160611 0.85754371 -0.45932281 0.0017303122
0.02275791 0.033611547 -0.0073767747 -0.24452236 0.85023767 -0.46615958 0.0019810114
0.025696622 0.034410737 -0.00744435 -0.25659353 0.8501581 -0.45977283 0.0024527765
0.028324587 0.035034928 -0.0077632936 -0.27813792 0.83888078 -0.46788704 0.0017793743
0.031222988 0.035667315 -0.008449289 -0.30336186 0.82121742 -0.48329458 0.002332285
0.065861344 0.033245534 -0.0089773703 0.69155729 -0.28048325 -0.66564077 0.0029036694
0.067585737 0.034531109 -0.0075691533 0.76246285 -0.27921653 -0.58368534 0.0019903274
0.069053501 0.035769504 -0.0062298826 0.77816558 -0.29892284 -0.55236167 0.0037687207
-0.030804148 0.038840074 -0.0088584078 0.35555944 0.75274611 -0.55403137 0.00057093945
-0.028167211 0.038249236 -0.0079298327 0.36001986 0.80181146 -0.47695288 0.0016382914
-0.025452208 0.037326567 -0.0074803787 0.34973252 0.80004644 -0.48745546 0.0016845179
-0.022718674 0.036602709 -0.0068546557 0.32394275 0.8261556 -0.46100771 0.0016494013
-0.020693097 0.036080301 -0.0062514208 0.31274202 0.84059328 -0.44226173 0.0011374507
0.029477231 0.03614575 -0.0065896101 -0.29981032 0.85347962 -0.4262467 0.0016404577
0.031427391 0.036537517 -0.0070564193 -0.31694844 0.83513457 -0.44954866 0.0019734011
0.034236863 0.037449773 -0.0075238752 -0.3459034 0.8205713 -0.45498747 0.0021977399
0.036783077 0.038370047 -0.0079597393 -0.41060171 0.77976507 -0.47262314 0.0027576901
0.068153203 0.037389945 -0.008031331 0.76079154 -0.17405459 -0.62522089 0.0021122594
0.069410622 0.037678245 -0.0065521374 0.79464501 -0.20861976 -0.57010269 0.0024713201
-0.036409117 0.041846909 -0.0084738759 0.39827195 0.73545682 -0.54816306 0.0010928852
-0.034248985 0.041126445 -0.0079244869 0.37779558 0.78624594 -0.48896596 0.0017784402
-0.031591129 0.040179074 -0.0073738899 0.3673096 0.79265922 -0.48659527 0.0015394166
-0.02916058 0.039306641 -0.0069066943 0.37525579 0.81442106 -0.44260755 0.0013032482
0.038250115 0.039678231 -0.007127672 -0.43749511 0.77871323 -0.44967067 0.0019670082
0.041015103 0.041025534 -0.0075221593 -0.45485485 0.73957384 -0.49612254 0.002410162
0.043567371 0.041609257 -0.008876998 -0.41299406 0.70058739 -0.58190477 0.0010909338
0.068382122 0.040410265 -0.0083833719 0.67866468 -0.073056579 -0.73080558 0.0021614851
0.069705695 0.040563006 -0.0068936041 0.78698665 -0.10881388 -0.60729861 0.0022012878
-0.042489298 0.044864748 -0.00864386 0.36894551 0.71193808 -0.59751433 0.00076241803
-0.040182251 0.04416313 -0.0078793801 0.39921013 0.77137727 -0.49558884 0.0025585373
-0.037672408 0.043183327 -0.0074099004 0.39210972 0.77033204 -0.50283051 0.0016578945
-0.035207104 0.042324655 -0.0067686685 0.40781137 0.8008402 -0.4385713 0.001412852
0.041833658 0.042285867 -0.006297092 -0.44366619 0.7578308 -0.47838578 0.0021037748
0.044274382 0.043086279 -0.0073660635 -0.43540788 0.74132514 -0.51074159 0.0013346755
0.046717167 0.043976001 -0.0081649087 -0.40822431 0.71993333 -0.56129211 0.0026177317
0.048493087 0.044490263 -0.0087524373 -0.37787896 0.69458085 -0.61218041 0.0015673506
0.068413928 0.04356784 -0.0084653832 0.63058108 0.0300627 -0.77554089 0.0027423985
0.069870703 0.043642905 -0.0069580963 0.75728297 -0.012341213 -0.65297031 0.0027932427
-0.04873161 0.047779888 -0.008777678 0.32269287 0.68518037 -0.652991 0.0011858339
-0.046070818 0.047200181 -0.0078867562 0.39246461 0.76957685 -0.50370926 0.0012010838
-0.043522485 0.046257999 -0.0073588183 0.37907451 0.79490221 -0.47374359 0.0014012387
-0.04108553 0.045347985 -0.0068076416 0.41234884 0.78468704 -0.46285498 0.0015609965
0.047555447 0.045509726 -0.0066946149 -0.43587023 0.75643325 -0.48767403 0.002369212
0.049969718 0.046170432 -0.0077303941 -0.39466038 0.69612479 -0.59971118 0.001151351
0.052376077 0.047187779 -0.0081396857 -0.37756667 0.6960355 -0.6107192 0.002909936
0.05450321 0.047685526 -0.0088092163 -0.30745351 0.64859927 -0.69626969 0.0029760203
0.068149604 0.046701457 -0.0083298124 0.56697279 0.12474627 -0.81423604 0.0035687282
0.069815613 0.046615757 -0.0068624057 0.70285231 0.073826648 -0.70749438 0.0036960512
-0.066425607 0.05040874 -0.0085745119 -0.13333072 0.40920362 -0.90264904 0.0013263149
-0.065494597 0.050340049 -0.008845726 -0.11160857 0.4406758 -0.89070106 0.0028380239
-0.057043485 0.050784439 -0.0088908877 0.12614252 0.69309986 -0.7097187 0.0044513452
-0.055235822 0.050546501 -0.0086639943 0.20558612 0.65762895 -0.72474724 0.002604302
-0.052296616 0.050135851 -0.0078524118 0.28492799 0.7395547 -0.60981542 0.0023932962
-0.049604617 0.049277619 -0.0074150385 0.34630546 0.72835535 -0.59124535 0.0013326231
-0.047160082 0.048478544 -0.0068464726 0.39018306 0.76757908 -0.50850713 0.0019637872
0.05275749 0.048586328 -0.0067635984 -0.41915411 0.70746464 -0.56903744 0.0015639283
0.055589642 0.049290441 -0.0077210111 -0.32073456 0.66855764 -0.67093962 0.0015266747
0.058485553 0.050031349 -0.0082718451 -0.24290931 0.60672158 -0.75689101 0.0025276372
0.061498459 0.050516177 -0.0086586913 -0.11374644 0.56582522 -0.81664163 0.004695789
0.064787626 0.050373234 -0.0087498464 0.10456588 0.42668951 -0.89833289 0.0064105853
0.067573331 0.049548633 -0.0080538411 0.46159181 0.20476761 -0.8631357 0.0055516032
0.069689818 0.049579896 -0.0065720114 0.68611109 0.12608626 -0.71648711 0.0055307266
-0.069278449 0.053455837 -0.0067005716 -0.099565186 0.39881253 -0.91161144 0.0012421269
-0.067306504 0.0525029 -0.007585153 -0.11713514 0.42198059 -0.89900595 0.0012327014
-0.064583376 0.052601065 -0.0079633463 -0.030889263 0.48804483 -0.87227184 0.0058257356
-0.061481856 0.052631363 -0.0078569101 0.10991741 0.61086231 -0.78406978 0.0082642604
-0.058469601 0.052423663 -0.0075184666 0.15058218 0.71643138 -0.68121296 0.0029016531
-0.055465754 0.051943049 -0.0071681137 0.26465556 0.74762452 -0.60911006 0.0022713291
-0.052970387 0.051491711 -0.0065505998 0.33519256 0.76556265 -0.54914445 0.0021483467
0.05641583 0.051036924 -0.0062859016 -0.38348114 0.72278792 -0.57490861 0.0049034962
0.058851484 0.051739439 -0.0068609049 -0.33306313 0.65162772 -0.68150592 0.0031580976
0.061679378 0.052398916 -0.0073876074 -0.20688781 0.57970828 -0.78812164 0.0066608838
0.064579517 0.05246811 -0.0077805952 0.045442075 0.42836821 -0.90246093 0.0087832557
0.067523196 0.052463163 -0.0072353659 0.35434163 0.29514831 -0.88731581 0.013391064
0.069346011 0.052458085 -0.0063294009 0.61483425 0.15586004 -0.77310193 0.0078238202
-0.069662035 0.054863304 -0.0062077721 -0.053489774 0.42947042 -0.9014954 0.002485058
-0.067377269 0.055144928 -0.0064950427 -0.044171512 0.47769296 -0.87741566 0.0044464986
-0.06456659 0.054704994 -0.0066487496 0.098903552 0.58433932 -0.80545986 0.0086750193
-0.061680876 0.054434936 -0.0062834835 0.18459781 0.6946153 -0.69529361 0.0049807467
0.062508605 0.054282334 -0.0062556299 -0.34128684 0.62466747 -0.70236301 0.0093523506
0.064827859 0.054858353 -0.0064932555 -0.11672215 0.48134524 -0.86872476 0.0098033259
0.067467272 0.055037953 -0.0063961484 0.18211724 0.33399725 -0.92481303 0.014877651
0.069343008 0.054276399 -0.0060029076 0.58319175 0.23338908 -0.77808541 0.0094758961
0.01639225 0.0023974702 -0.0055872509 0.11761504 -0.84707355 -0.51829827 0.00066890725
0.020636763 0.0032162443 -0.0058777495 0.15253665 -0.85487926 -0.49589732 0.00062629936
0.026214831 0.0043529915 -0.0057796044 0.20667695 -0.8625617 -0.46181387 0.00047768594
0.028574273 0.0050780792 -0.0058725076 0.24800317 -0.83764774 -0.48666269 0.00045223173
0.03091396 0.0057970937 -0.0059646247 0.28287548 -0.85587358 -0.4329685 0.00097284274
0.032665126 0.0063033421 -0.005893087 0.29456109 -0.84494555 -0.44643131 0.00095770677
0.034430705 0.0064794384 -0.0043490762 0.31956589 -0.86739165 -0.38145691 0.00057614152
0.038735125 0.0085877776 -0.0058297282 0.36728871 -0.85517323 -0.36575645 0.0025147786
0.039738949 0.0085364329 -0.0042842873 0.38474321 -0.88578302 -0.25954005 0.0024911799
0.04181423 0.0099001545 -0.0054408554 0.41584441 -0.85840768 -0.30034932 0.0013595939
0.043515019 0.010444461 -0.0046699974 0.42633143 -0.85366517 -0.29916087 0.0014330753
0.045490183 0.011104763 -0.0038142623 0.44320053 -0.8549515 -0.2695016 0.0027526913
0.046823744 0.012171027 -0.0046700859 0.46934465 -0.82756978 -0.30796754 0.0013371845
0.04941038 0.013620079 -0.0045467345 0.48227584 -0.82625598 -0.29105169 0.0012250128
0.051984254 0.014930104 -0.003845497 0.51328373 -0.81550109 -0.26739049 0.0025000069
0.052717425 0.015851749 -0.0049080006 0.52944517 -0.78285259 -0.32684794 0.0021459169
0.054885577 0.017089881 -0.004173873 0.55288553 -0.7745651 -0.3071914 0.002275819
0.056363121 0.018412707 -0.0048699644 0.5865739 -0.75295305 -0.29831654 0.0022278482
0.058402058 0.019867526 -0.0043779719 0.62898177 -0.70776844 -0.32162991 0.002249483
0.060192667 0.020923328 -0.0032851927 0.67338616 -0.70163697 -0.23293075 0.0038452032
0.059352241 0.021235434 -0.0054052779 0.62117571 -0.6920172 -0.36776763 0.0024382102
0.061489597 0.022710523 -0.0043949592 0.67401958 -0.67977643 -0.28913957 0.0010157843
0.062693521 0.024371566 -0.005321858 0.69524819 -0.63325161 -0.34003294 0.0016597947
0.064117871 0.025590362 -0.004479459 0.73405695 -0.58805412 -0.33963621 0.0027211716
0.065530352 0.027628615 -0.0048244325 0.76126397 -0.55901152 -0.32860804 0.0019381953
0.066739894 0.028982177 -0.0042370185 0.78481734 -0.51510274 -0.34457341 0.0026176707
-0.0071638413 0.03275872 -0.0055020414 0.16629237 0.91598862 -0.36511865 0.002530172
-0.0043485253 0.032529619 -0.0050336882 0.13445325 0.92091697 -0.36583373 0.0024246201
-0.0015363069 0.032399517 -0.0045147496 0.10489126 0.93047363 -0.35102227 0.0025386605
0.0014958392 0.032134436 -0.0045960895 0.055349771 0.94428951 -0.32442841 0.0029046508
0.0044649341 0.032075319 -0.0045185662 0.014829275 0.95052433 -0.310296 0.0025418447
0.0074117379 0.032088034 -0.0045367549 -0.033228606 0.94845653 -0.31516024 0.0026666699
0.010445256 0.032309551 -0.0045000082 -0.10566775 0.94361383 -0.31373125 0.0025378163
0.013241244 0.032483544 -0.0048186481 -0.14628121 0.92273986 -0.35658497 0.0020225695
0.015845569 0.032778367 -0.0052589187 -0.21257235 0.92064846 -0.32744369 0.0024622462
0.067960955 0.031388417 -0.0046701352 0.82035685 -0.412554 -0.39599732 0.002778298
0.069073737 0.032554567 -0.0035550124 0.83930027 -0.40683934 -0.36063373 0.002120811
-0.018617889 0.035763383 -0.0053459285 0.3111684 0.88944638 -0.33475268 0.0027512091
-0.016372224 0.03538347 -0.0046819677 0.27470252 0.90277529 -0.33096102 0.0026633905
-0.013526622 0.03462474 -0.0044887466 0.25151533 0.90710503 -0.33749139 0.0028578823
-0.010584784 0.033848438 -0.0044978522 0.20404319 0.92703873 -0.31458783 0.002323465
-0.0077008018 0.033396959 -0.0041719666 0.16194338 0.93689126 -0.3098532 0.0025456003
-0.0047839643 0.033170681 -0.0035495961 0.13335483 0.93978012 -0.31469011 0.0029286412
0.013874113 0.033087507 -0.0034349752 -0.12975585 0.97114176 -0.2001179 0.0013054495
0.016725007 0.033331499 -0.0042274012 -0.19156092 0.93435389 -0.30047837 0.0023270494
0.019545909 0.033903047 -0.0045881453 -0.23333959 0.92147595 -0.31053936 0.002197193
0.022570232 0.034722075 -0.0046611005 -0.27637267 0.90109342 -0.33413884 0.0021245151
0.024974486 0.035381339 -0.0047483621 -0.2770572 0.91077924 -0.30613807 0.002502328
0.027068794 0.035807349 -0.0052452646 -0.27141055 0.9151476 -0.29806226 0.002801812
0.068663687 0.033744819 -0.0055527166 0.83669811 -0.35222688 -0.41937155 0.0025744752
0.069617659 0.034593441 -0.0043173493 0.85635227 -0.33767217 -0.39068943 0.0028100589
-0.025170142 0.038510807 -0.0048149577 0.36765689 0.87305927 -0.32030576 0.002226714
-0.022467447 0.037529051 -0.0044649602 0.36236352 0.87973195 -0.30783835 0.0018091578
-0.019774193 0.036587179 -0.0042398721 0.30887672 0.90100282 -0.30461314 0.0030073139
-0.017722838 0.036266699 -0.0034779985 0.25701889 0.92176396 -0.2903319 0.0022541943
0.026107518 0.03610066 -0.003692759 -0.29358092 0.92285764 -0.24928698 0.0027486128
0.028673623 0.036598258 -0.0046007065 -0.303866 0.90585756 -0.29510584 0.0026289225
0.031490121 0.037659641 -0.0044230516 -0.36871323 0.87510645 -0.31343153 0.0034623093
0.033908442 0.038624145 -0.0046473993 -0.41034436 0.86771864 -0.28050277 0.0028873147
0.070480853 0.037420373 -0.0045135901 0.87185949 -0.25120413 -0.42042518 0.0032979033
-0.033102583 0.041714847 -0.0058212643 0.42496383 0.82505643 -0.37240791 0.0036049418
-0.031222848 0.041223876 -0.0047767689 0.44009808 0.85224408 -0.2828317 0.0016759601
-0.028531007 0.040026303 -0.0045539606 0.37865251 0.87410426 -0.30424353 0.0022828192
-0.026262347 0.039358623 -0.0038373829 0.37218967 0.88755369 -0.27152035 0.0027682416
0.035337128 0.03946377 -0.0041731582 -0.43010914 0.85404456 -0.29259881 0.0036866828
0.037281074 0.040331747 -0.0045232316 -0.44732124 0.80486369 -0.38999772 0.00055544486
0.039375644 0.041455418 -0.004819795 -0.45757443 0.77546835 -0.43505684 0.00086095708
0.071133785 0.0404572 -0.0045920168 0.88923955 -0.15378378 -0.43081731 0.0031385208
-0.037244283 0.044292014 -0.0046956646 0.43765962 0.84253985 -0.31397575 0.0024605677
-0.034523532 0.042967532 -0.0045560775 0.42182124 0.85459536 -0.30287567 0.0023945668
-0.032388646 0.042214096 -0.0037601856 0.41741067 0.86201811 -0.2875641 0.0016735672
0.040989544 0.04265837 -0.0042477925 -0.46548498 0.76531798 -0.44453582 0.00088236568
0.043659326 0.044134259 -0.0047724401 -0.47135827 0.76454628 -0.439648 0.00037323611
0.071349636 0.04358238 -0.0048548114 0.87313139 -0.058296517 -0.48398659 0.0029886446
0.072129883 0.043744102 -0.0033470227 0.90725613 -0.078337632 -0.41321859 0.0030591309
-0.043098707 0.047464352 -0.0047036237 0.4460105 0.82466584 -0.34785193 0.0026375311
-0.040520202 0.046136573 -0.004506229 0.44783258 0.82904118 -0.33486804 0.0023236957
-0.038416982 0.045236345 -0.0039032786 0.43048328 0.84453183 -0.31851232 0.0023040897
0.046290208 0.045915056 -0.004526848 -0.46515349 0.75849164 -0.45642379 0.0011193304
0.048989438 0.04717819 -0.0055087185 -0.4699913 0.74505329 -0.47329041 0.0015781021
0.071322016 0.046590827 -0.0049225888 0.84864426 0.023113573 -0.52845865 0.0034558319
0.072135903 0.046621852 -0.0034649945 0.88921678 -0.011301426 -0.45734665 0.0036572407
-0.051013969 0.050940279 -0.0059834016 0.34973305 0.76198101 -0.54504287 0.0020427029
-0.049036749 0.050442018 -0.0051489673 0.39820576 0.81613821 -0.41874889 0.0028423672
-0.046462875 0.049392518 -0.0044820365 0.45312726 0.82401615 -0.34010747 0.0025763332
-0.04427132 0.048445154 -0.0038799481 0.427737 0.83036691 -0.35711616 0.0020843144
0.050743826 0.048978414 -0.0041793911 -0.47135827 0.75618994 -0.45387015 0.0015928607
0.051981684 0.04931064 -0.0049681733 -0.44048747 0.74732482 -0.49747011 0.0014028507
0.054421335 0.050470699 -0.0055347765 -0.43852183 0.74512738 -0.50247765 0.0028175302
0.071177751 0.049512353 -0.0049388371 0.81334919 0.061102733 -0.57855809 0.0045514326
0.07213778 0.049420964 -0.0034624017 0.86014909 0.013145389 -0.50987321 0.0042902697
-0.057695519 0.05378576 -0.0056094495 0.23502859 0.7624467 -0.60285699 0.0021941292
-0.055073455 0.053323317 -0.0048713186 0.34840593 0.85641861 -0.38099918 0.0024010693
-0.052431848 0.052437309 -0.004541073 0.35672817 0.82324988 -0.44159341 0.0020404246
-0.049930263 0.051479861 -0.0038981179 0.42575207 0.83174336 -0.35628387 0.0025574148
0.055953823 0.051877379 -0.004708488 -0.45199656 0.74393332 -0.49220148 0.002327461
0.058582053 0.053106431 -0.0051819538 -0.42484754 0.70755959 -0.56468046 0.0054884646
0.060391299 0.053612597 -0.0058692428 -0.34214213 0.6583727 -0.67043579 0.004701674
0.070958219 0.052463353 -0.0048780781 0.77332515 0.074407794 -0.6296283 0.0044741523
0.072244637 0.052496761 -0.0032276402 0.81705087 0.035572637 -0.57546711 0.0054255268
-0.070435688 0.056023855 -0.0056883139 -0.027639294 0.48353446 -0.8748889 0.0062522939
-0.067394927 0.056621477 -0.0056954846 0.032085687 0.48111179 -0.87607193 0.0094728405
-0.064271383 0.056167025 -0.0054297103 0.20804845 0.62125236 -0.75548744 0.0048365011
-0.061432663 0.055732165 -0.0046243351 0.34416986 0.75785929 -0.55425304 0.0089729857
-0.058656659 0.054887641 -0.0042848457 0.30436602 0.82889944 -0.46934748 0.0048221741
-0.056082893 0.054210652 -0.0038454537 0.34384048 0.86021101 -0.37657768 0.0023051468
0.059125964 0.054171115 -0.0041974704 -0.43237823 0.69114506 -0.57910931 0.0048230453
0.061563108 0.05525947 -0.0047958312 -0.40328225 0.62075841 -0.67232609 0.0055751139
0.064392924 0.056238301 -0.0055065458 -0.20833638 0.48792952 -0.84765601 0.0049406239
0.068021558 0.056489643 -0.0058541326 0.10484992 0.33703524 -0.93563545 0.018105559
0.070662074 0.055537175 -0.0047554923 0.58538342 0.11133686 -0.80307555 0.0094826845
0.072170585 0.055116851 -0.0032152536 0.78016526 0.031104572 -0.62479973 0.0047870586
-0.072246082 0.057865456 -0.0047101267 -0.014939388 0.50766999 -0.86142212 0.0076627624
-0.070168108 0.058313597 -0.0047778897 0.036616221 0.56778604 -0.82236135 0.0079935947
-0.067480244 0.05853546 -0.0043333331 0.24940282 0.64525461 -0.72211134 0.0084475121
-0.064634539 0.057800487 -0.0039965981 0.34501013 0.71062702 -0.61316979 0.0082037523
-0.06259191 0.057252396 -0.003309601 0.41792703 0.74652392 -0.51772487 0.0019328977
0.064826541 0.058316853 -0.0043484089 -0.20683229 0.3899447 -0.89730901 0.0059936089
0.067634135 0.058392942 -0.0052397042 0.018898651 0.29580626 -0.95506096 0.020849768
0.070637301 0.058486734 -0.0043434137 0.49128565 0.10463625 -0.86469048 0.021223478
0.072174057 0.058303542 -0.0031087238 0.86834049 -0.0071175438 -0.49591738 0.023103694
-0.067701742 0.060026273 -0.0031054285 0.26402527 0.8040688 -0.53269494 0.019786736
0.065735072 0.061479151 -0.0033524735 -0.059255127 0.22395417 -0.97279668 0.011028606
0.067799561 0.061314423 -0.004406706 -0.0063770758 0.18669413 -0.98239738 0.018370083
0.070641495 0.061501265 -0.0041210712 0.36453432 0.071789987 -0.92841852 0.020874249
0.072275072 0.061587915 -0.003207701 0.79889542 -0.033963531 -0.60051024 0.022491297
0.067965418 0.064202443 -0.0038341412 -0.014268437 0.023647781 -0.99961859 0.020482013
0.07063821 0.064430885 -0.0039697266 0.12943415 0.0087997159 -0.99154896 0.043001395
0.072397009 0.06445694 -0.0032225836 0.42108458 -0.068908937 -0.90440005 0.026504241
0.068339571 0.067535214 -0.0036250101 -0.035359852 -0.034415759 -0.99878186 0.012329452
0.070731461 0.06731683 -0.0040609278 0.1654783 -0.040532116 -0.98538017 0.025482221
0.072792314 0.067641862 -0.0034500042 0.56278503 -0.1208684 -0.81771874 0.016267318
0.068341874 0.069591478 -0.0033900181 -0.072225168 -0.03338341 -0.99682945 0.0092617394
0.070639156 0.070508115 -0.0041642268 0.048999671 -0.066929005 -0.99655384 0.021713838
0.073237643 0.070578016 -0.0037197848 0.42703065 -0.18806587 -0.88446367 0.020310573
0.068890847 0.074380957 -0.0035112463 -0.52199316 0.34570399 -0.77975112 0.047037959
0.070667371 0.07333944 -0.0044088713 -0.08727777 0.21522731 -0.97265607 0.081992768
0.073620357 0.073498771 -0.0043256492 0.4205955 0.18935469 -0.88726783 0.077497818
0.075444952 0.073883019 -0.0034321733 0.71523309 -0.014224649 -0.6987412 0.078434289
0.070919491 0.076108463 -0.0041421652 0.038459174 0.71722096 -0.69578373 0.048499282
0.073359549 0.075588085 -0.0041402411 0.30752906 0.72603166 -0.61506426 0.074925944
0.075316451 0.075075388 -0.0033619252 0.75487542 0.47668764 -0.45047975 0.1033931
0.039846338 0.0080461549 -0.0019776467 0.40649071 -0.88255775 -0.23634107 0.0022076825
0.043371487 0.0096778506 -0.0016944017 0.4293299 -0.88398224 -0.18507119 0.00047352933
0.046719261 0.011382187 -0.0017190904 0.4681266 -0.85422474 -0.22618027 0.002364025
0.049700823 0.013076178 -0.0015736299 0.50957006 -0.84769076 -0.14750837 0.0008826991
0.052190613 0.014572589 -0.0015351123 0.54323411 -0.82313812 -0.16534929 0.0011261186
0.053235989 0.015358511 -0.0019945316 0.57703674 -0.80859017 -0.11493706 0.0025130252
0.055418748 0.016780801 -0.0012905785 0.57204068 -0.81269783 -0.11086834 0.0025440075
0.056906279 0.018040318 -0.0029298898 0.58821082 -0.76920003 -0.24967843 0.0019434284
0.05855066 0.019131184 -0.0014782101 0.62455964 -0.76929766 -0.13455996 0.0022401521
0.060380526 0.020635555 -0.0012754068 0.67178124 -0.73159289 -0.1161106 0.0026268365
0.061926387 0.022121161 -0.0013791069 0.69963241 -0.70751041 -0.099717081 0.0016668029
0.063354149 0.02359589 -0.0015256638 0.72282761 -0.67721415 -0.13748169 0.0029972559
0.064793386 0.02525381 -0.0016108274 0.76074529 -0.63265884 -0.14494643 0.0025552199
0.066026956 0.026703414 -0.0011395414 0.79403865 -0.58808821 -0.15380129 0.0026922214
0.06725283 0.028512385 -0.0015103992 0.8359555 -0.52612036 -0.15612742 0.0027044071
-0.00128105 0.032926351 -0.0027330918 0.097045019 0.97937196 -0.17723644 0.0022406376
0.001484675 0.032834385 -0.0019319901 0.048873983 0.98858082 -0.14254586 0.0032856262
0.0044354955 0.032787856 -0.0015952941 0.021883041 0.99040347 -0.13646343 0.0030208135
0.0074120834 0.032805663 -0.0015535015 -0.032061473 0.99003738 -0.1371063 0.0035911396
0.01022389 0.032874715 -0.0023501669 -0.094119243 0.98032552 -0.17350337 0.0018137174
0.068616852 0.030772487 -0.0017402342 0.85481435 -0.50212705 -0.13099962 0.0026941709
0.069458641 0.032259371 -0.0015855192 0.88851345 -0.42818815 -0.1649207 0.0056702206
-0.015638059 0.035881393 -0.0019650778 0.30982608 0.94379914 -0.11511277 0.0022251226
-0.013445467 0.035303548 -0.0014880294 0.25804803 0.95895958 -0.11750616 0.0023124211
-0.010556097 0.034552705 -0.001424149 0.20728199 0.96112007 -0.18243465 0.0030867951
-0.0075368383 0.033930946 -0.0015984923 0.16476165 0.97249407 -0.16464783 0.0021348898
-0.0045074988 0.033501901 -0.0013729506 0.13004701 0.98053277 -0.14711669 0.0018584124
-0.001560415 0.033177644 -0.0011586429 0.088607155 0.98704153 -0.1337824 0.0016359155
0.0011949415 0.033078022 -0.00034880859 0.036470372 0.99894595 -0.027872762 0.0015222332
0.0043915329 0.033006079 -4.7542449e-05 0.013590217 0.99920142 -0.037573177 0.001227077
0.0086667975 0.033042245 -0.00030532465 -0.023232603 0.99926084 0.030628124 0.0034155555
0.010696989 0.033114143 -0.00084286364 -0.076041594 0.99291039 -0.091360159 0.0052527804
0.013428677 0.033306427 -0.0017251198 -0.14514554 0.97463381 -0.17035738 0.0014097226
0.016288824 0.03382827 -0.0015006422 -0.19945595 0.96719939 -0.15729773 0.0027651226
0.019514754 0.034575686 -0.0015927565 -0.2581009 0.95774305 -0.1269331 0.0014496823
0.022555694 0.035388861 -0.0018718917 -0.28916308 0.94701993 -0.13977839 0.0013054247
0.070466854 0.034526031 -0.0015489992 0.92727518 -0.34631836 -0.14221247 0.0028537952
-0.024293344 0.038837496 -0.0024646223 0.39817706 0.90749407 -0.1338267 0.0018332597
-0.022454044 0.038204353 -0.0015389354 0.37723914 0.91548759 -0.13990428 0.0017366521
-0.019445499 0.037068821 -0.0015053105 0.30878615 0.93897551 -0.15157846 0.0031333249
-0.016989337 0.036382593 -0.0012057653 0.27832618 0.95464784 -0.105745 0.0023515557
0.025825111 0.036435291 -0.00099914859 -0.30183786 0.93699646 -0.17587382 0.0012857863
0.028758515 0.037283294 -0.0019040116 -0.29967001 0.92516881 -0.23293886 0.00070617464
0.030837068 0.038139384 -0.00084906252 -0.34311131 0.91527802 -0.21104683 0.0016145811
0.071475603 0.037495043 -0.0015831694 0.94779158 -0.27349922 -0.16397975 0.004892536
-0.03063212 0.041734409 -0.0016826184 0.46436274 0.87667245 -0.12574869 0.001529586
-0.028613904 0.040798787 -0.0013953305 0.41046652 0.90371418 -0.12172853 0.0020081133
-0.025661562 0.039541747 -0.0014925998 0.35979179 0.92303222 -0.13624044 0.0016570298
0.071909837 0.040038101 -0.0025478113 0.95479649 -0.16737269 -0.24566245 0.0041068029
0.072253712 0.04057543 -0.0012909248 0.98102129 -0.15262614 -0.11959321 0.0055851578
-0.036563478 0.044786107 -0.001468727 0.48369822 0.86567152 -0.12903109 0.0018043602
-0.034512836 0.043734428 -0.001525786 0.44947237 0.88375491 -0.13019939 0.0017312231
-0.032059066 0.042491846 -0.0014748762 0.43478665 0.89154637 -0.12690775 0.001881281
0.072593875 0.043482613 -0.0015252907 0.98428673 -0.073925458 -0.1603578 0.003930775
-0.042238809 0.047806822 -0.0022874097 0.47268644 0.8685655 -0.148867 0.0022189727
-0.040537499 0.046951015 -0.0015720055 0.49442056 0.85655105 -0.14788039 0.0020752603
-0.038065869 0.045581207 -0.001444119 0.45823964 0.87919348 -0.13051946 0.0020237579
0.047748692 0.047612347 -0.0027249926 -0.47571632 0.76608592 -0.43221107 0.0006106022
0.072705753 0.046568744 -0.0016659177 0.98219705 -0.031159738 -0.18525127 0.0052918554
-0.046370823 0.050230596 -0.0015807931 0.48742461 0.86067218 -0.14717515 0.0018231528
-0.043673873 0.048749339 -0.001353379 0.45834139 0.87511271 -0.15524462 0.0020372057
0.052809995 0.05097102 -0.0025672398 -0.46928397 0.75438589 -0.45899296 0.0016799516
0.07279592 0.04954626 -0.0016624801 0.97629708 -0.029546926 -0.21440849 0.0071735485
-0.052197546 0.053334843 -0.0016783867 0.41580358 0.89132684 -0.18067621 0.0037994133
-0.0494777 0.051937699 -0.001548454 0.44124928 0.88017583 -0.17489877 0.0030420029
-0.047910124 0.051169839 -0.0010001216 0.48778021 0.85589695 -0.1717871 0.002845624
0.055775207 0.052924577 -0.0023447506 -0.4641301 0.73717922 -0.4910703 0.0019903278
0.072919808 0.05258479 -0.0015825663 0.96826392 -0.015817637 -0.24942882 0.010436464
-0.060578495 0.056627393 -0.0024338679 0.42869896 0.87765509 -0.21433301 0.0074027786
-0.058588423 0.05597287 -0.0014968849 0.38251153 0.90260601 -0.1974518 0.0078359731
-0.055522919 0.054726724 -0.001489336 0.34396732 0.91784453 -0.19811094 0.0034649037
-0.053528011 0.054057695 -0.00084724481 0.37224489 0.91658807 -0.14594565 0.0072668414
0.060111079 0.055709217 -0.0028370887 -0.4762904 0.67583263 -0.56249249 0.0027053426
0.073006995 0.055595566 -0.0014681962 0.95479017 -0.017015511 -0.29679337 0.015951579
-0.066387631 0.059648283 -0.0026972101 0.35192403 0.85571951 -0.37933293 0.015928438
-0.064325601 0.059080396 -0.0017640229 0.47844875 0.83074725 -0.28450966 0.0080675846
-0.061838172 0.057689365 -0.0013697227 0.46054187 0.85889554 -0.22405285 0.010446546
0.073077209 0.058549851 -0.0015717992 0.9338935 -0.072407708 -0.35014275 0.018705441
-0.069163784 0.060295746 -0.0028011715 0.14271882 0.78383154 -0.60435045 0.029152855
-0.067106023 0.060559146 -0.0016319259 0.35212258 0.85561055 -0.37939453 0.016013242
-0.065623388 0.06019954 -0.00091131835 0.42296746 0.86193204 -0.27959201 0.015331251
0.073315315 0.061394773 -0.0017071246 0.90010601 -0.10437802 -0.42298281 0.02029733
0.066748425 0.065359399 -0.0029043583 -0.072730586 0.062857248 -0.99536896 0.013855101
0.073731601 0.06442304 -0.0016562067 0.86396438 -0.13760801 -0.4843857 0.026731193
0.074283339 0.067358293 -0.0019157698 0.85330826 -0.22930034 -0.46828017 0.016406864
0.075179756 0.068203874 -0.00063664117 0.93443447 -0.26644477 -0.2363037 0.040194385
0.074568823 0.070090421 -0.0025679257 0.82652867 -0.24707578 -0.50577062 0.016197219
0.075640984 0.070611127 -0.0012639053 0.88513625 -0.25424722 -0.38973349 0.016536931
0.076473758 0.073487498 -0.001626401 0.94629335 0.13231803 -0.29499289 0.077929884
0.06869594 0.077237122 -0.00081807585 0.25945702 0.90984619 -0.32382378 0.063663691
0.070522025 0.076702692 -0.0014869454 0.12659682 0.92508072 -0.35804874 0.071438007
0.073566444 0.075774603 -0.0014912621 0.42266864 0.88239425 -0.20671622 0.041001409
0.07551612 0.075164475 -0.0016887409 0.53843665 0.82270485 -0.18232565 0.044097006
0.041361731 0.0085303271 3.5170055e-05 0.41562635 -0.88982475 -0.18832591 0.00049841352
0.044116311 0.0098264683 6.4427019e-05 0.44124177 -0.88083094 -0.1715883 0.00067287002
0.048093364 0.011938128 0.0001858601 0.48606682 -0.86065304 -0.15170823 0.00034669487
0.052113593 0.01430799 0.0002005045 0.5553534 -0.82532364 -0.10209593 0.0023472188
0.053348385 0.015232074 0.00087617669 0.56441545 -0.81976944 -0.097021937 0.0017769388
0.054590117 0.016265422 0.0021307182 0.58981049 -0.80751014 -0.0071381363 0.0010476885
0.057448149 0.017996984 0.00012814302 0.60855454 -0.79178977 -0.052251864 0.0035009717
0.058676839 0.019181592 0.0014792536 0.63616282 -0.77152359 0.0069437977 0.0017241418
0.060309757 0.020491047 0.0010327034 0.66902936 -0.74323308 -0.0020715788 0.0017887567
0.062075317 0.022250175 0.0016636823 0.7168293 -0.69281244 0.078527585 0.0020466102
0.06338577 0.023572478 0.0015311211 0.73626161 -0.67280936 0.072432853 0.0016601242
0.065119416 0.025551947 0.0014486397 0.76962912 -0.63096327 0.097757056 0.0022569688
0.066252165 0.026840258 0.00069579971 0.7945751 -0.59967786 0.095062427 0.0023653267
0.067341045 0.028535426 0.0014193763 0.82822359 -0.54958278 0.10956483 0.0036361208
-0.0001691215 0.032971334 0.0028254457 0.12291405 0.96078211 0.24857549 0.0046959682
0.0020266315 0.032949068 0.0019645528 0.054366149 0.98902291 0.13739702 0.0015308158
0.0044994727 0.032895204 0.0019546174 0.017138232 0.99602431 0.087418549 0.0036934318
0.007480192 0.032889061 0.0018276174 -0.020772049 0.99810344 0.057947874 0.0027249635
0.010728443 0.032946769 0.0029418154 -0.095413916 0.99119735 0.091782331 0.001192318
0.068562962 0.030558573 0.0016734569 0.86164176 -0.49925938 0.091178216 0.0028438105
0.069453441 0.032081522 0.001377685 0.89364713 -0.43865234 0.094757602 0.0033971106
-0.015181043 0.035854202 0.0023580121 0.30887571 0.94888288 0.064938627 0.0032541449
-0.013332769 0.035406206 0.0014629272 0.28242451 0.95747781 0.058929518 0.0028444261
-0.010441668 0.034678336 0.001228351 0.23709409 0.96876287 0.07269679 0.0032615426
-0.0076535884 0.034192052 0.0012066222 0.1585582 0.98026353 0.11807953 0.0057306858
-0.0045089573 0.033675324 0.0014917564 0.13197072 0.98554492 0.10623086 0.0047138566
-0.0012738834 0.033256505 0.0013270165 0.092498332 0.99126333 0.094026476 0.0024988533
0.0016751619 0.033087894 0.0007068697 0.024816096 0.99879467 0.042348634 0.0034685691
0.004875496 0.033022888 0.00049255893 0.024851201 0.99955505 -0.016498277 0.0010577728
0.0067822714 0.033007324 0.00024059156 -0.024887815 0.99888569 0.040098723 0.0037589564
0.010284214 0.033158604 0.0011625648 -0.084963061 0.99523824 0.047771219 0.0038474458
0.013854277 0.033616051 0.00048027764 -0.12135665 0.99246591 -0.016851852 0.00261511
0.015965205 0.03386905 0.0018308837 -0.17853577 0.98367053 -0.022741776 0.0030697561
0.019817306 0.034781169 0.0017632208 -0.25420442 0.96481431 -0.067182414 0.003781551
0.021944309 0.03536946 0.0012499731 -0.26808763 0.95483249 -0.12815568 0.001536891
0.070550188 0.034533996 0.0014279759 0.92998248 -0.35483703 0.096037954 0.0027856976
-0.024466012 0.038988803 0.0029111288 0.3818951 0.89514065 0.22995488 0.0031821968
-0.022388577 0.038307045 0.0015232262 0.3831538 0.91966426 0.086086296 0.0024473246
-0.019420752 0.037186563 0.0014888794 0.29658481 0.95324701 0.057944458 0.0021741511
-0.01649024 0.036354061 0.001227243 0.28205255 0.95844215 0.042836327 0.0029330598
0.024011197 0.03604386 0.00017364812 -0.29904252 0.94343752 -0.14317536 0.001261923
0.071542151 0.037457142 0.0015307801 0.95248634 -0.26842606 0.1439348 0.0047232867
0.072064854 0.038692307 0.00027277676 0.96880364 -0.2367605 0.073239021 0.0054359352
-0.030342879 0.041738678 0.0016241601 0.46465623 0.88314086 0.064472549 0.0029493808
-0.028429665 0.04083471 0.0015060167 0.41529754 0.90686858 0.071535647 0.0029049935
-0.025605604 0.039644349 0.0014447754 0.37679213 0.92422426 0.06194488 0.0038060376
-0.023924522 0.039034404 4.6860725e-05 0.35433564 0.93504077 0.012037073 0.0042250697
0.03284952 0.039084312 4.4516077e-05 -0.37428242 0.89629972 -0.23782255 0.0023763829
0.071972765 0.039911613 0.0027286364 0.96679753 -0.18675366 0.17442912 0.0036421232
0.072316058 0.040614635 0.0012936236 0.98436213 -0.15460609 0.084429011 0.005952301
-0.036314066 0.044786911 0.001479004 0.48360699 0.87182832 0.077714607 0.0030324988
-0.034313291 0.043766282 0.0015267467 0.45305943 0.88861328 0.071439072 0.0028751807
-0.031789593 0.042517688 0.0011693498 0.4291819 0.90065974 0.067932889 0.0030804181
0.072696924 0.043541063 0.0014111305 0.98677832 -0.094518438 0.13166182 0.0043837214
-0.040436637 0.047035936 0.0014720596 0.4839682 0.87131917 0.08110299 0.0038915819
-0.037728634 0.045525841 0.0014298522 0.45210084 0.88842124 0.079452179 0.0029884595
0.07282573 0.046418384 0.0014053844 0.99134684 -0.032604113 0.12715518 0.0064124251
-0.046268553 0.050315641 0.0014151725 0.48460329 0.86635095 0.12081259 0.0042441334
-0.043659925 0.048853308 0.0014283579 0.47175172 0.87738562 0.087434418 0.0040844935
-0.041968357 0.048012689 0.00032759385 0.44470522 0.89466751 0.042512268 0.0068984791
0.072975233 0.049469039 0.0013655855 0.98883396 -0.026226999 0.1466953 0.0082263984
-0.054099668 0.053989455 0.002979333 0.37269562 0.89044392 0.2611661 0.0068339645
-0.05217769 0.053479511 0.0015532207 0.42153299 0.89516073 0.14490405 0.0041906782
-0.049468838 0.052069556 0.0014137255 0.43672273 0.89061242 0.12681773 0.004410482
-0.04760306 0.051117033 0.0010797961 0.44940642 0.88530016 0.11948867 0.0043201637
0.07306838 0.052558478 0.0013381173 0.99847823 -0.014378797 0.053239804 0.01126259
-0.060352929 0.056841109 0.0018182362 0.51616877 0.85203242 0.087238304 0.0096655432
-0.058582652 0.056131393 0.0012706132 0.39690349 0.91367573 0.087545566 0.0088518411
-0.055801373 0.054989338 0.0012995328 0.35415512 0.92600387 0.13073246 0.0047977539
-0.053904627 0.054245882 0.0012839978 0.39904106 0.90958965 0.11581468 0.0062345611
0.073133394 0.055476762 0.0015064229 0.98142231 1.3289052e-05 0.19185966 0.01096858
-0.064167365 0.059268899 0.0016219151 0.53339005 0.8329702 0.14715873 0.01035823
-0.06182937 0.05784836 0.0011940914 0.47542945 0.87427419 0.098038256 0.011637607
0.073303349 0.058352508 0.0012981989 0.98660207 -0.14537916 0.074035488 0.023098737
-0.066447727 0.060617849 0.0014555982 0.4476603 0.89024073 0.084093817 0.023933884
-0.065544859 0.060330924 0.00055123342 0.44792426 0.89010793 0.084093235 0.023973769
0.07379844 0.061447695 0.00092068641 0.93899322 -0.11355998 -0.32464725 0.0057544135
0.074243248 0.064553507 0.0009977736 0.96332216 -0.15874164 -0.21635969 0.020527694
0.074724033 0.066802971 0.0011042879 0.97163671 -0.22299224 -0.078718156 0.019457588
0.075188242 0.068024769 0.0006966581 0.97167975 -0.22281115 -0.078699224 0.019376352
0.074537136 0.069454923 0.002707364 0.96156502 -0.2574597 -0.095431983 0.018119354
0.075857684 0.070506461 0.00089346926 0.95178437 -0.29906905 -0.068295069 0.018180791
0.076801114 0.073841445 0.001262666 0.95894986 0.25890473 0.11568696 0.090696484
0.068869568 0.077222079 0.00062049506 0.241062 0.9563362 -0.16525798 0.041350517
0.070532627 0.076705992 0.0014976452 0.29364032 0.95591217 0.0026984296 0
0.073458113 0.075808994 0.0015500522 0.36993429 0.92864364 0.027742729 0.0058147591
0.075529851 0.075171143 0.0012789352 0.52188873 0.85291749 -0.012800006 0.010995073
0.058117755 0.018963087 0.0030609211 0.6249038 -0.77945304 0.044136658 0.0013958339
0.060886115 0.021367351 0.0031473613 0.69879967 -0.71087748 0.079574496 0.0030711545
0.06429255 0.025550697 0.0043225172 0.7630657 -0.62091941 0.17941512 0.0015736686
0.065826811 0.028098321 0.0051711015 0.79217458 -0.52880281 0.30467537 0.002565902
0.066795811 0.028684303 0.003947481 0.79217923 -0.52879274 0.30468071 0.0025683036
-0.0075765359 0.032796234 0.0059825443 0.16162394 0.88742822 0.43168148 0.0011241342
-0.0045594326 0.032522317 0.0055539333 0.12227678 0.93264848 0.33943379 0.0013840835
-0.0013311269 0.032753911 0.0040191873 0.095158786 0.95041335 0.29607314 0.0017375337
0.0012362029 0.032598697 0.0038986304 0.044164851 0.96131432 0.27189001 0.0025220299
0.0037680683 0.032386754 0.0040954975 0.025882592 0.95645112 0.29074275 0.0042031342
0.0073840735 0.032530461 0.0037335607 -0.038303293 0.9914301 0.12489717 0.00095705799
0.010545806 0.032770626 0.0036961052 -0.095413916 0.99119735 0.091782331 0.001192318
0.068262875 0.03156608 0.0045249434 0.81936282 -0.44124281 0.365991 0.0023873001
0.069122709 0.032472756 0.0036804944 0.83734447 -0.42259055 0.34680182 0.003283489
-0.018313056 0.035633475 0.005897969 0.30344561 0.88143462 0.36193052 0.00045024767
-0.016316924 0.035607491 0.0046075685 0.29541886 0.90671635 0.30098704 0.0021406619
-0.013294998 0.034742855 0.0044536046 0.27106693 0.91199559 0.30787468 0.0020316676
-0.010427646 0.03405175 0.0043268204 0.20335558 0.9334116 0.29561681 0.0019142147
