# .PCD v0.7 - Point Cloud Data file format
VERSION 0.7
FIELDS x y z normal_x normal_y normal_z curvature
SIZE 4 4 4 4 4 4 4
TYPE F F F F F F F
COUNT 1 1 1 1 1 1 1
WIDTH 560
HEIGHT 1
VIEWPOINT 0 0 0 1 0 0 0
POINTS 560
DATA ascii
-0.05543353 0.028680036 -0.010479403 -0.50547528 -0.53516656 -0.67682451 0.0021933471
-0.05328545 0.027824659 -0.0113858 -0.51217294 -0.55003202 -0.65965426 0.0013591789
-0.012532122 0.029819902 -0.011592502 0.2054531 0.71663946 -0.66649604 0.0013937483
-0.010247185 0.029483441 -0.011386447 0.16303654 0.72936571 -0.66441303 0.0015991112
-0.0074115312 0.029144235 -0.011091912 0.137234 0.74239969 -0.65575111 0.0015579916
-0.0044397777 0.028870197 -0.010871153 0.11195703 0.74891251 -0.65314299 0.0012523649
-0.0014474024 0.028691171 -0.010645384 0.079846725 0.75799209 -0.64735812 0.0012197443
0.001502515 0.028545879 -0.010570905 0.026613981 0.7423141 -0.66952336 0.0027027891
0.0045403815 0.028512325 -0.010525835 -0.0085436162 0.74582535 -0.66608673 0.0025508322
0.0075572212 0.028544692 -0.010564696 -0.036171343 0.77454692 -0.63148129 0.00099629874
0.010478818 0.028750664 -0.010627783 -0.085089147 0.76989096 -0.63247746 0.0010552565
0.013432632 0.028943028 -0.010811007 -0.12178779 0.76611298 -0.63106149 0.0014631179
0.016355749 0.029184207 -0.01118279 -0.15604736 0.75670826 -0.63485575 0.0016136667
0.019324884 0.029604087 -0.011460628 -0.18949255 0.70901436 -0.67925781 0.00048319288
0.02161913 0.029914401 -0.011859958 -0.22545454 0.72304708 -0.65297258 0.0010146967
0.061486144 0.029101163 -0.011158006 0.50246823 -0.30704442 -0.80823845 0.0010857827
-0.060347803 0.032675847 -0.0093736257 -0.5874908 -0.44303554 -0.67718089 0.001683013
-0.058250751 0.031716831 -0.01042424 -0.5512678 -0.46788755 -0.69078577 0.0022259487
-0.056281608 0.030921433 -0.011454863 -0.52712297 -0.42032897 -0.73855597 0.0020386861
-0.021707291 0.032800466 -0.011641678 0.27480462 0.7109378 -0.64734054 0.0012426594
-0.01928865 0.032296434 -0.011277711 0.24696139 0.73081827 -0.63632917 0.0017255477
-0.016365618 0.031830285 -0.01069718 0.23799831 0.74301821 -0.62552434 0.0013903761
-0.013563451 0.031295229 -0.010343391 0.19540912 0.74700987 -0.63544589 0.002459646
-0.010620814 0.030861322 -0.0099834111 0.17918131 0.75116694 -0.63532841 0.0015218338
-0.0076889452 0.030498499 -0.0096536186 0.14572532 0.7634272 -0.6292401 0.001489514
-0.0047185253 0.030218896 -0.0093706604 0.11689234 0.77194941 -0.62484425 0.0011577982
-0.0024657925 0.030059841 -0.0091255661 0.084349178 0.77550095 -0.62568635 0.0012049094
0.011345223 0.030061737 -0.0091028847 -0.081720904 0.78602386 -0.61277092 0.0011819075
0.013896035 0.030238457 -0.0093354182 -0.12235071 0.78521222 -0.60701895 0.0014285722
0.016656805 0.030473843 -0.0097425384 -0.16544317 0.77824879 -0.60577005 0.0014036467
0.019633505 0.030971127 -0.0099943522 -0.20217063 0.79397953 -0.57334411 0.00093720155
0.022589082 0.031434882 -0.010435629 -0.22814487 0.76528722 -0.60190147 0.00079790741
0.025389576 0.032011475 -0.010801312 -0.23712084 0.75416702 -0.61237723 0.0010088255
0.028226109 0.032457508 -0.011354107 -0.24672104 0.71346676 -0.65581548 0.00044081014
0.030531252 0.032843065 -0.011850322 -0.26365399 0.70046461 -0.66320121 0.0031215493
0.062511496 0.031682167 -0.011522755 0.49130636 -0.22207716 -0.84219927 0.0017817457
0.063801065 0.031761296 -0.01057959 0.56085187 -0.21900915 -0.79842347 0.0012140336
-0.061084729 0.034812916 -0.010059135 -0.58949995 -0.41346997 -0.69392532 0.0019702781
-0.05911506 0.034248713 -0.011280664 -0.52555448 -0.35855511 -0.77151185 0.0022466381
-0.027864847 0.03550797 -0.01148505 0.30034018 0.6442579 -0.70336878 0.001479732
-0.025261357 0.034951244 -0.010881792 0.30410105 0.72700816 -0.61561483 0.0013930714
-0.022565261 0.034259886 -0.010411358 0.26935133 0.74214727 -0.61373234 0.0022435524
-0.01968886 0.033638872 -0.0099086538 0.26772627 0.74811643 -0.60716093 0.001378924
-0.017182926 0.033193525 -0.0093166092 0.24990205 0.76034844 -0.59951591 0.0010535631
0.026104815 0.033330664 -0.0094793029 -0.24246137 0.77728277 -0.58055484 0.00089158869
0.028644495 0.033750102 -0.0099796597 -0.26012811 0.76256388 -0.59230876 0.0014936632
0.031556819 0.034424096 -0.010416011 -0.28376174 0.76718277 -0.57524765 0.001300988
0.034273289 0.035078794 -0.010902625 -0.30634224 0.73862505 -0.60048938 0.0015652907
0.036797676 0.035632215 -0.011597672 -0.31151545 0.64763701 -0.69535923 0.0012126875
0.064592652 0.034546606 -0.010887442 0.56886595 -0.19025253 -0.80012208 0.00058929221
0.066558741 0.035138976 -0.0094300583 0.6306237 -0.16269663 -0.7588436 0.0010968689
-0.063543268 0.03771532 -0.009509637 -0.61359149 -0.33789423 -0.71367562 0.0022700008
-0.061572473 0.03748861 -0.010901967 -0.55388588 -0.28729892 -0.78145355 0.0030495387
-0.059815142 0.036778931 -0.011856957 -0.49219161 -0.22923861 -0.83976007 0.0030583711
-0.034133136 0.038472861 -0.011447572 0.31598148 0.69589281 -0.6448946 0.0019443133
-0.031377707 0.037747219 -0.010817328 0.32701251 0.72326207 -0.60823905 0.00138359
-0.028733028 0.03701812 -0.01025687 0.31932017 0.73778766 -0.59473026 0.0019810491
-0.026171653 0.036426306 -0.009540136 0.32069305 0.74599677 -0.58364779 0.0010787462
0.035060246 0.036431685 -0.009715369 -0.33030841 0.75197709 -0.57046193 0.0011967507
0.037699528 0.037161779 -0.010296773 -0.34574676 0.70226723 -0.62231809 0.0014794626
0.040358879 0.038010359 -0.010922417 -0.34966445 0.70017737 -0.62248415 0.0016677156
0.042602204 0.03858918 -0.011599914 -0.35114861 0.66797072 -0.65613234 0.00091752328
0.064920552 0.037595723 -0.011266958 0.55541641 -0.095280245 -0.82609582 0.0015034417
0.066735767 0.037743632 -0.0098804412 0.60836411 -0.09463986 -0.78799522 0.0018354964
-0.064116113 0.04066503 -0.010075171 -0.57575154 -0.20308043 -0.7920028 0.003260595
-0.061895393 0.040354975 -0.011477053 -0.5049358 -0.13058712 -0.85322142 0.0030228191
-0.040178668 0.041462906 -0.011360426 0.30337331 0.68095809 -0.66652876 0.0017168722
-0.037370209 0.040693279 -0.010732248 0.3321566 0.70891422 -0.62218374 0.0014574765
-0.034665138 0.039942969 -0.010112493 0.34834412 0.71559036 -0.6054641 0.0014332633
-0.032178897 0.039263219 -0.0094571486 0.35943279 0.7396692 -0.56894416 0.001324656
0.040942617 0.039552059 -0.0095567964 -0.40324703 0.70502722 -0.58337677 0.0015575438
0.043576173 0.04027712 -0.010378476 -0.34822962 0.6896475 -0.63491923 0.001393793
0.046196558 0.041034911 -0.011068138 -0.34276682 0.65196592 -0.67635149 0.0016646441
0.04872271 0.041603327 -0.011708115 -0.27406919 0.61510676 -0.73927653 0.0021150361
0.065014437 0.040710445 -0.011325363 0.46342573 0.055185482 -0.88441569 0.0050225188
0.067063108 0.040478475 -0.0099150306 0.61308402 -0.020862246 -0.78974223 0.0033950335
-0.066244192 0.043935027 -0.0092274258 -0.60430247 -0.13086024 -0.78593522 0.0028363711
-0.0644679 0.0434797 -0.010338563 -0.5247193 -0.096092291 -0.84583449 0.0024662178
-0.061990213 0.043609675 -0.011598007 -0.37551895 0.048337907 -0.92555338 0.006180496
-0.048607506 0.044703294 -0.011800524 0.20793812 0.58148819 -0.7865324 0.0021362666
-0.046324145 0.044273704 -0.011396145 0.26635408 0.6285128 -0.73077166 0.00096486363
-0.043437179 0.043652914 -0.010710711 0.30620503 0.64855647 -0.69685948 0.001045138
-0.040752061 0.042976078 -0.010056403 0.35440063 0.71226144 -0.60587448 0.0019563073
-0.038450718 0.042355008 -0.0094746333 0.36970446 0.72528243 -0.58076149 0.0013457205
0.046821885 0.042661801 -0.0097891036 -0.38461316 0.68133974 -0.6227752 0.0015378837
0.049599141 0.043444365 -0.010459399 -0.31924829 0.6375668 -0.70113409 0.0018642878
0.052384038 0.043993942 -0.011139874 -0.25075054 0.57432574 -0.77927792 0.0012552437
0.055236407 0.044465479 -0.011609319 -0.16888851 0.51513976 -0.84030217 0.002347663
0.058449689 0.044782717 -0.011878099 -0.039441932 0.43656775 -0.89880633 0.0036469055
0.061726313 0.044430938 -0.011826977 0.14969862 0.29702145 -0.94306344 0.0061052777
0.064508833 0.043571278 -0.011217011 0.36727464 0.1837942 -0.91177249 0.0060773552
0.066872202 0.043460149 -0.0099761188 0.54819846 0.089870304 -0.83150572 0.0041339947
-0.066433065 0.046530847 -0.0092118476 -0.53138793 0.02670151 -0.8467077 0.0053423098
-0.06450551 0.046454702 -0.010225921 -0.38422415 0.15289681 -0.91049123 0.0066876304
-0.06144093 0.046529718 -0.011332327 -0.24784018 0.26223603 -0.93263471 0.0083673429
-0.058614865 0.047054764 -0.011592491 -0.067887433 0.39001083 -0.91830432 0.0067276312
-0.05543248 0.047140978 -0.011482224 0.076790668 0.51270849 -0.85512173 0.0025774147
-0.052400701 0.046841905 -0.011202021 0.17451231 0.5766257 -0.79815304 0.0018774291
-0.049499027 0.046490222 -0.010593891 0.23905793 0.62923747 -0.73953462 0.0011716587
-0.046685047 0.045940474 -0.0099456506 0.32067168 0.70256692 -0.63527119 0.0013669711
-0.044256054 0.045345839 -0.009361906 0.35507619 0.700185 -0.61940444 0.0017909564
0.050576646 0.045303851 -0.0091504287 -0.37553084 0.68265045 -0.62686914 0.0015411557
0.052771974 0.045885634 -0.0097064795 -0.31997553 0.64994442 -0.6893388 0.0021609552
0.055561837 0.046525419 -0.01023084 -0.25504363 0.58575928 -0.76931059 0.0031152337
0.058401112 0.046572521 -0.010857211 -0.088506721 0.49331167 -0.86533827 0.0027083496
0.061404109 0.046605453 -0.010969899 0.075569533 0.40072721 -0.91307557 0.0055937697
0.064445063 0.046531837 -0.010463375 0.25762054 0.28762028 -0.92244571 0.0057603074
0.066865489 0.04650997 -0.0094945775 0.48771405 0.19420393 -0.85112858 0.0046010958
-0.066285238 0.048536241 -0.0091452086 -0.39955449 0.18740407 -0.89734942 0.0065488913
-0.064379446 0.049393371 -0.0096051553 -0.24795114 0.28089917 -0.92715472 0.0058774659
-0.061487075 0.049522396 -0.01009746 -0.13993615 0.42708963 -0.89331537 0.0069435933
-0.05848287 0.049522731 -0.010200261 0.025715508 0.54192811 -0.84003133 0.0053023631
-0.055584125 0.049277995 -0.010012911 0.14617921 0.61935359 -0.77138364 0.0034011325
-0.052717257 0.048731741 -0.0097135948 0.23897959 0.66752833 -0.70519125 0.00239337
-0.050467718 0.048342474 -0.009237255 0.30089787 0.67615819 -0.67251056 0.0020808568
0.05664571 0.04833933 -0.0091832783 -0.28991237 0.64164025 -0.7101047 0.0025452478
0.058788754 0.048753373 -0.0094863698 -0.1877878 0.5861097 -0.7881695 0.0039441786
0.061551668 0.04910985 -0.0096628796 -0.039561033 0.49666408 -0.86704075 0.0051315455
0.064432092 0.049181771 -0.0094970837 0.164084 0.38173532 -0.9095903 0.0062666493
0.06640397 0.048952606 -0.0090813339 0.38130775 0.30508146 -0.87265664 0.006185628
-0.063368887 0.051142503 -0.0090801856 -0.10967243 0.41672584 -0.90239215 0.0066398135
-0.061565448 0.051188905 -0.009146641 -0.024195695 0.55139315 -0.83389455 0.0056414907
-0.059044618 0.051139709 -0.0090645282 0.1007534 0.65667677 -0.74741179 0.0025966347
-0.034147829 0.012599264 -0.0088036964 -0.31331819 -0.67742378 -0.66552877 0.00046879929
-0.043751676 0.017326396 -0.0078728087 -0.44724032 -0.66291702 -0.60043073 0.00056654192
-0.041555163 0.015592238 -0.0075854012 -0.42807248 -0.67232239 -0.60393417 0.000637213
-0.04866787 0.020827116 -0.0079225423 -0.47706679 -0.63717514 -0.60532236 0.00071914209
-0.046662673 0.019649709 -0.0082928184 -0.47737375 -0.66370004 -0.57586151 0.00020384509
-0.051744372 0.023468427 -0.0083408095 -0.49333623 -0.63214517 -0.59750479 0.00049112999
-0.049952786 0.021444947 -0.0074721817 -0.49464953 -0.64704895 -0.58021504 0.00010199963
-0.054805804 0.025867948 -0.0081927022 -0.53312916 -0.60782486 -0.58849156 0.00039551189
-0.053484138 0.024554094 -0.0079629729 -0.49750176 -0.62431234 -0.60226744 0.00053069135
-0.058535218 0.028718283 -0.0075422847 -0.61909133 -0.57030201 -0.53989029 0.001702227
-0.056467716 0.027373498 -0.0082972571 -0.57031244 -0.61139727 -0.54857731 0.0016453587
-0.00013260443 0.029959761 -0.0089929439 0.069049023 0.77368063 -0.62980187 0.0013175901
0.0022009523 0.029876808 -0.0088823736 0.033766694 0.78379411 -0.62010217 0.00086746697
0.0042732242 0.02988546 -0.0088054752 0.004615711 0.78720695 -0.61667168 0.00082713028
0.0070852982 0.029918117 -0.0088209696 -0.043055661 0.8083508 -0.58712447 0.0005136113
0.0090885302 0.029941119 -0.0089522731 -0.060981058 0.7797491 -0.62311536 0.0009332436
-0.061297894 0.031753946 -0.0074954703 -0.64275229 -0.52778059 -0.5552631 0.001389207
-0.059137046 0.030282225 -0.0085043516 -0.59618783 -0.56168342 -0.57364792 0.0022930163
-0.015069794 0.032993108 -0.0086861756 0.25354269 0.7949509 -0.55115259 0.0036230846
-0.01313755 0.032664243 -0.0083618555 0.22407259 0.8020075 -0.55369264 0.00041763592
-0.01036144 0.032341324 -0.007788863 0.19660866 0.84211874 -0.50217628 0.0015801053
-0.0074772066 0.031844947 -0.0075985822 0.1650732 0.86118394 -0.48074222 0.001459824
-0.0045314007 0.031365305 -0.0075957789 0.1272074 0.85807854 -0.49751335 0.0030373174
-0.0014850223 0.031027088 -0.0075259008 0.076757804 0.85733247 -0.50900811 0.0023261479
0.0014669929 0.030858494 -0.0074490099 0.055322912 0.86310738 -0.50198114 0.0023122239
0.0045476453 0.030788511 -0.0074112299 0.0073481961 0.87070346 -0.49175337 0.0022626624
0.0075922692 0.030814121 -0.0074240845 -0.034422774 0.87118948 -0.48973861 0.0026183864
0.010505101 0.030962991 -0.0075385999 -0.072740756 0.87024379 -0.48722136 0.0021545163
0.013489371 0.031282544 -0.0075518428 -0.13719429 0.85956407 -0.49226764 0.0022230006
0.016519135 0.031838134 -0.007546322 -0.19095373 0.86623549 -0.46170637 0.0015745524
0.019229675 0.032314204 -0.0078251716 -0.22126901 0.84609145 -0.4849425 0.0017346897
0.021855446 0.032633923 -0.0085529499 -0.24407318 0.78813601 -0.56503975 0.00068688992
-0.06385693 0.034825198 -0.0072417799 -0.66449672 -0.47743931 -0.57488763 0.001140879
-0.062288865 0.034170955 -0.0085361768 -0.65467948 -0.44467661 -0.61127526 0.0030683391
-0.02214356 0.035568733 -0.0084116021 0.31296796 0.77541339 -0.54843879 0.0010613983
-0.01944123 0.035008561 -0.007695999 0.29149786 0.83387601 -0.46870014 0.0017864197
-0.016542122 0.034119122 -0.0075942897 0.24446401 0.83447224 -0.49385574 0.0017874474
-0.013694572 0.033580218 -0.0071468558 0.22930337 0.84856117 -0.47682697 0.0018748647
-0.011186442 0.033213701 -0.0065558702 0.20711452 0.861076 -0.46438324 0.0015646102
0.020109059 0.033251282 -0.0066402056 -0.23128779 0.8653574 -0.44459257 0.0016960395
0.022641428 0.03363467 -0.0072989827 -0.24465311 0.85681039 -0.45389527 0.0018656132
0.025499178 0.03428195 -0.0075953715 -0.25426769 0.8486622 -0.4638108 0.0018007129
0.028429721 0.035145767 -0.0076638558 -0.2783446 0.84625411 -0.45428872 0.0016876953
0.030992903 0.035609689 -0.0084325485 -0.30709669 0.82534266 -0.4738155 0.0020618583
-0.066349156 0.038194984 -0.0068785227 -0.69342345 -0.42095295 -0.58477563 0.0011890541
-0.064926073 0.037391145 -0.0079845367 -0.66765916 -0.40127546 -0.62706405 0.0033111565
-0.030395865 0.038781099 -0.0088943746 0.3578898 0.73873591 -0.57112527 0.0013930823
-0.028230214 0.038383421 -0.0079984711 0.36010867 0.80393815 -0.47329184 0.001754243
-0.025510792 0.037414972 -0.0076039196 0.3393819 0.81353098 -0.47221527 0.0022317383
-0.022783387 0.036603726 -0.0071200756 0.32649899 0.8267644 -0.45810369 0.0014574074
-0.020469869 0.036059182 -0.0063426024 0.31744739 0.84022957 -0.43959218 0.00114921
0.02941731 0.03622536 -0.0062558609 -0.31054479 0.85116184 -0.42318496 0.0012131546
0.031708397 0.036573961 -0.0071856319 -0.32241583 0.83795995 -0.44030809 0.0016586805
0.034484092 0.037526742 -0.0075697084 -0.3560192 0.81269962 -0.46126971 0.0028091886
0.037029322 0.038445994 -0.0080306754 -0.4163591 0.7905246 -0.44912803 0.0014712883
0.039049171 0.038981453 -0.0089223627 -0.3991271 0.70657492 -0.58433676 0.0015194882
0.068777025 0.037777793 -0.0078485431 0.65446621 -0.076176494 -0.75224406 0.0011195436
-0.067118518 0.040738631 -0.0074827867 -0.69895297 -0.29783142 -0.65020096 0.0022372066
-0.065528743 0.039909288 -0.008692353 -0.67425215 -0.27836928 -0.68402827 0.0040970016
-0.036436193 0.041877501 -0.008690333 0.3849391 0.74940348 -0.53871739 0.0013931043
-0.034196433 0.041256066 -0.0079194084 0.37879446 0.78994691 -0.48218101 0.0018644
-0.031536184 0.040239785 -0.0074634058 0.3682138 0.79494655 -0.48216033 0.0015314699
-0.029029075 0.039404035 -0.0068369955 0.37601238 0.81682181 -0.43751219 0.0013457778
0.0379433 0.039559923 -0.0069798515 -0.42620483 0.79112363 -0.43871731 0.0018507577
0.040479369 0.040660255 -0.0075700218 -0.45317054 0.7788955 -0.43354148 0.0010209177
0.042838331 0.041561186 -0.0083353557 -0.41519624 0.71074587 -0.56784886 0.00087170367
0.068566985 0.040211931 -0.008537543 0.64816952 -0.052246168 -0.75970167 0.0010342721
0.069727957 0.041448221 -0.0074783363 0.68123406 -0.020152025 -0.73178822 0.0013245012
-0.06933222 0.044154722 -0.0064081028 -0.7188856 -0.23307064 -0.65489048 0.0017893919
-0.067721054 0.04349855 -0.0078725759 -0.67878461 -0.2080162 -0.70425892 0.0040717521
-0.04216652 0.044916034 -0.008556149 0.38690153 0.77463388 -0.50024945 0.002204733
-0.040190287 0.044268232 -0.0079718595 0.3987841 0.77389103 -0.49200001 0.0026329083
-0.037546951 0.043225098 -0.0074784574 0.39345759 0.77157605 -0.49986142 0.0016226213
-0.035155825 0.042410616 -0.0067995409 0.41753134 0.79348904 -0.44276708 0.0011740541
0.041685611 0.042197801 -0.006240943 -0.51356316 0.75900817 -0.40019932 0.0013692176
0.04375767 0.042816669 -0.0072631091 -0.45213863 0.74931329 -0.48383904 0.0022138064
0.046329331 0.044046372 -0.0077437321 -0.44284514 0.73152256 -0.51842356 0.0028284336
0.048594482 0.044677645 -0.0086372895 -0.39120805 0.68015677 -0.61995399 0.00090679835
0.068248473 0.04327165 -0.0089654122 0.60423517 0.048104957 -0.79535264 0.002223239
0.069573767 0.043763615 -0.0076645166 0.67905885 0.056306552 -0.73192126 0.0018656389
-0.069636665 0.046653003 -0.0067549082 -0.67479551 -0.12587023 -0.72719175 0.0043387446
-0.067875616 0.04655569 -0.0082301339 -0.59163141 -0.055491693 -0.80429655 0.0025636596
-0.048277307 0.047839135 -0.0086980518 0.32556 0.72070849 -0.6120376 0.0027492493
-0.046117853 0.047330331 -0.0079737147 0.37495893 0.75920528 -0.53198987 0.003083833
-0.043515626 0.046322644 -0.0074930731 0.37079403 0.77868539 -0.50612336 0.0021307277
-0.041005269 0.045497838 -0.0067400723 0.41704807 0.78600377 -0.45636493 0.0016725343
0.047376506 0.045441914 -0.0066068955 -0.46515489 0.73952526 -0.48655242 0.0020550375
0.049609579 0.046201941 -0.0074188672 -0.39709589 0.73738569 -0.54642212 0.0016294688
0.052187771 0.047188845 -0.0080361282 -0.36801162 0.70557523 -0.60558319 0.0022029686
0.05450245 0.047836948 -0.0087328032 -0.31655762 0.65835947 -0.68290126 0.0027387727
0.06846761 0.04648973 -0.0084425714 0.54241538 0.14414433 -0.8276521 0.0030588717
0.070060864 0.046329092 -0.0070111481 0.6658259 0.094135255 -0.74014491 0.00221154
-0.069863088 0.049615365 -0.0068100411 -0.62527949 -0.015244681 -0.78025204 0.008306725
-0.067678593 0.049558777 -0.0082520852 -0.48363864 0.081321932 -0.87148172 0.0045889742
-0.065552898 0.05065386 -0.0088868961 -0.23584166 0.25725737 -0.93712187 0.0056120665
-0.055217534 0.050738912 -0.0086640408 0.19642363 0.6632992 -0.72211629 0.0018517277
-0.052297521 0.050158899 -0.0080326237 0.3095642 0.74745876 -0.58777159 0.0029933567
-0.04959498 0.049338162 -0.0075442176 0.34263653 0.76861203 -0.54021835 0.001654678
-0.047051858 0.048556622 -0.0068788496 0.39300933 0.77121198 -0.5007751 0.0018805275
0.052958407 0.048647996 -0.0068423869 -0.43294057 0.72452754 -0.53630435 0.0017359365
0.055555977 0.049506173 -0.0075174989 -0.34443098 0.69853586 -0.62722802 0.0027520189
0.058357 0.050214056 -0.0081563806 -0.26300022 0.65821964 -0.705392 0.0035383203
0.061259158 0.050607875 -0.0086826915 -0.13975038 0.58166313 -0.80133492 0.0048365374
0.064581819 0.050599143 -0.0088856826 0.075296365 0.44238061 -0.8936609 0.0077061262
0.067674629 0.049671717 -0.0082061235 0.44696835 0.20494895 -0.87075555 0.0068625938
0.069898032 0.049392682 -0.0067706853 0.60580128 0.13485502 -0.78410399 0.0048830248
-0.069997184 0.052545536 -0.0066208746 -0.47989395 0.11796814 -0.86935914 0.0093076136
-0.067441419 0.052471559 -0.0077135772 -0.26599947 0.29477039 -0.91779882 0.013230962
-0.064501397 0.052614804 -0.0081248358 -0.020515081 0.50277621 -0.86417317 0.0052089333
-0.061480455 0.052698679 -0.007975556 0.097404115 0.61614531 -0.78158641 0.0033773903
-0.058534387 0.052501012 -0.0076247053 0.13660118 0.72186232 -0.6784209 0.0025108659
-0.05559985 0.052017763 -0.0073065041 0.24471882 0.7519756 -0.61208284 0.0029140287
-0.052979939 0.051504061 -0.0067490432 0.33992103 0.76756865 -0.5434078 0.0015985692
0.056538548 0.051169004 -0.0062320456 -0.40189829 0.71141762 -0.57650906 0.0026291278
0.058707237 0.051861688 -0.0067147915 -0.34405088 0.68800747 -0.63896382 0.0036776534
0.06148069 0.052470919 -0.0073581282 -0.20060343 0.55938119 -0.80427045 0.003209128
0.064484254 0.052555911 -0.0078859655 -0.029961463 0.45295882 -0.89102787 0.0054785898
0.067371495 0.052437391 -0.0075319828 0.27761659 0.31571859 -0.90733171 0.01280323
0.069510646 0.052598771 -0.0064623668 0.55789262 0.18477449 -0.80908239 0.0070434893
-0.069777325 0.054993574 -0.0063141268 -0.27403858 0.33859697 -0.90014166 0.011667234
-0.067444466 0.055242632 -0.0066117705 -0.09416052 0.43800458 -0.89402777 0.0097849444
-0.064640634 0.054944973 -0.0066702892 0.098438419 0.58119935 -0.80778533 0.0099401362
-0.061778877 0.054468229 -0.0064522224 0.1885924 0.6996085 -0.68918854 0.006072537
-0.059400294 0.054121282 -0.0060297903 0.25812578 0.73854721 -0.6228314 0.0025570383
0.06233729 0.054271337 -0.0062719006 -0.32709646 0.62801409 -0.70612049 0.0061347433
0.064584471 0.05495419 -0.0065027545 -0.16710746 0.50459135 -0.84703171 0.010375086
0.067297965 0.055333886 -0.0065178354 0.12577692 0.35393947 -0.92677236 0.015644208
0.069118239 0.05494779 -0.0062259994 0.48594546 0.22017486 -0.84580141 0.014306302
-0.059828635 0.028296314 -0.0050947322 -0.63005543 -0.59525198 -0.49870351 0.00073512073
-0.063301124 0.03217306 -0.0051580276 -0.66554457 -0.55543441 -0.49854085 0.00039893817
-0.06198366 0.030544419 -0.0049897633 -0.66187155 -0.55855101 -0.49994671 0.00038744166
-0.0071719112 0.032787956 -0.0055908598 0.1665626 0.92380959 -0.34472147 0.0029051658
-0.0043779826 0.032599762 -0.0050297566 0.13694257 0.92271668 -0.36033413 0.0022259366
-0.0014868756 0.032434456 -0.0045345486 0.10713568 0.94450122 -0.31054682 0.003101781
0.0015005625 0.032189906 -0.0045633018 0.063904032 0.94645482 -0.31644824 0.0031794258
0.0045016799 0.032081805 -0.004591722 0.011266041 0.95329314 -0.30183643 0.002580015
0.0074721314 0.032111973 -0.0045439331 -0.031260822 0.95273018 -0.30220503 0.0027041587
0.01050228 0.032305833 -0.0045724548 -0.10513084 0.94244552 -0.31740192 0.0027799099
0.013372215 0.032561213 -0.0047036228 -0.14754032 0.93089801 -0.33415672 0.0022908652
0.01614915 0.032734878 -0.0055344617 -0.19428773 0.92235661 -0.33393213 0.0028157008
-0.064743407 0.034263823 -0.0054049045 -0.69459373 -0.51210749 -0.50525779 0.000690268
-0.018376779 0.035716377 -0.0054773502 0.32044539 0.89525384 -0.3095727 0.0032653131
-0.016291948 0.035398401 -0.0047852346 0.27680534 0.9072535 -0.31665412 0.002735375
-0.013539038 0.034635767 -0.0046827104 0.25341016 0.90727216 -0.33561957 0.003203253
-0.010435882 0.033823881 -0.0046690474 0.20694704 0.93061292 -0.30188173 0.0022738324
-0.0076090316 0.03344781 -0.004128478 0.15933514 0.94125569 -0.2977415 0.0025712443
-0.0047456506 0.033193834 -0.0036457467 0.12231493 0.9633069 -0.23891169 0.00081386609
-0.0024911463 0.0330032 -0.003033615 0.10554999 0.97002751 -0.21887398 0.00067857513
0.014407979 0.033145331 -0.0035783839 -0.14710233 0.94655639 -0.28703994 0.002967149
0.016546894 0.033322711 -0.0041379309 -0.19052459 0.93948632 -0.28472075 0.0024508012
0.019505322 0.033893678 -0.0045309607 -0.22868581 0.92937994 -0.28975102 0.0022062995
0.022461997 0.034713678 -0.0045631733 -0.26821718 0.91989994 -0.28608328 0.0016245565
0.025320377 0.035469703 -0.0047469442 -0.27725261 0.91159105 -0.3035337 0.0021872823
0.027542811 0.03586632 -0.0054506664 -0.31834543 0.90214783 -0.29117939 0.002447014
-0.06719511 0.037725762 -0.0052677714 -0.74829119 -0.4302156 -0.50495034 0.0032892996
-0.065938406 0.03628343 -0.0059281657 -0.69338399 -0.42094117 -0.58483082 0.0012097533
-0.025191037 0.038540166 -0.0050030258 0.36571968 0.87454122 -0.31847569 0.0020600415
-0.022483269 0.03757485 -0.0046262085 0.35471678 0.87369746 -0.33290946 0.0026793634
-0.019564044 0.036544673 -0.0043843435 0.3063851 0.90400165 -0.29817614 0.0029525955
-0.017288331 0.036175549 -0.0034646306 0.26924282 0.93319988 -0.23800483 0.00076096575
0.026538035 0.036187965 -0.003670722 -0.28283447 0.92024761 -0.27046075 0.0021283193
0.028616954 0.036620699 -0.0044039381 -0.30159849 0.90973085 -0.28535599 0.0023687584
0.031482898 0.037578758 -0.0045459787 -0.35497308 0.89158762 -0.28118625 0.0021625785
0.034057174 0.038564157 -0.0048689642 -0.40173501 0.86577153 -0.29841021 0.0025024391
-0.069527782 0.041331787 -0.0046959873 -0.79089403 -0.35827729 -0.49610886 0.0040892903
-0.068513595 0.040068351 -0.0053598965 -0.78375781 -0.36310101 -0.50386643 0.0039676144
-0.033389222 0.041986663 -0.0057878257 0.4254154 0.8352015 -0.34851137 0.0030051293
-0.031239958 0.041329488 -0.0047921645 0.41411498 0.85652864 -0.30800572 0.0024572553
-0.028519856 0.040118989 -0.0045580561 0.38378054 0.87485951 -0.29552221 0.0023569188
-0.026218049 0.039366316 -0.0039781076 0.35297808 0.88484448 -0.3040669 0.0022971686
0.035191055 0.039380204 -0.0040827882 -0.39680457 0.86719769 -0.30085605 0.0024101874
0.037537802 0.04041899 -0.0045240577 -0.45248201 0.82901967 -0.32861307 0.002759058
0.039749213 0.041589402 -0.00488467 -0.50280863 0.81951493 -0.27491587 0.0023908643
-0.070275851 0.043472271 -0.0047465833 -0.80968094 -0.28813133 -0.51126999 0.0031685713
-0.037190493 0.044341944 -0.0047830641 0.44006562 0.84371907 -0.30737647 0.0025991099
-0.03450007 0.043076899 -0.0045152958 0.42773089 0.85484266 -0.29375222 0.0024402619
-0.032283179 0.042250346 -0.0038009717 0.41828683 0.86437142 -0.27910227 0.0018213916
0.041058417 0.042620089 -0.004267347 -0.48342055 0.82031405 -0.30559677 0.0018729072
0.043408524 0.043977503 -0.0046097734 -0.49715745 0.80504256 -0.32363689 0.0031150139
0.045263637 0.044831518 -0.005443973 -0.50596815 0.79198343 -0.3416993 0.0024984328
-0.072300225 0.047233094 -0.0034489257 -0.81285226 -0.26572028 -0.51832795 0.0020480615
-0.071163192 0.046502005 -0.0048882375 -0.80202371 -0.20838113 -0.55976355 0.0045774463
-0.04304162 0.047473487 -0.0048797056 0.44627661 0.82742763 -0.34088218 0.0030021418
-0.04053862 0.046256699 -0.0045109899 0.45362821 0.82905054 -0.32695046 0.0027194994
-0.03839485 0.045336917 -0.0038663219 0.43096185 0.84676731 -0.31186044 0.0023966143
0.044675287 0.045191403 -0.0036044223 -0.50715929 0.8078016 -0.30040967 0.0019864072
0.046563961 0.046082728 -0.0044192085 -0.51644105 0.79071784 -0.32871562 0.0029444273
0.04890674 0.047371928 -0.0049006473 -0.50959909 0.79026884 -0.34027037 0.0024273677
0.071516909 0.04718307 -0.0050930684 0.67521447 0.10671012 -0.72986186 0.0015873946
-0.072660834 0.049649652 -0.0038773911 -0.7517606 -0.20460255 -0.62689215 0.0038934704
-0.071342938 0.049542945 -0.0054873223 -0.73469901 -0.12131666 -0.6674577 0.0049931495
-0.048889019 0.050512746 -0.0050935643 0.42032066 0.82729334 -0.37271473 0.0042245821
-0.046479434 0.049504966 -0.0045019812 0.42626727 0.82885206 -0.36235407 0.0027863842
-0.044226684 0.048444781 -0.0040921173 0.42607614 0.83374316 -0.35118574 0.0022427293
0.050188374 0.048533186 -0.0041713179 -0.49854708 0.78324217 -0.3714599 0.0021064114
0.052440163 0.049746279 -0.004620349 -0.46797195 0.78555983 -0.40484327 0.003488611
0.054573905 0.050621528 -0.0054119839 -0.45509079 0.75560385 -0.47112125 0.0048657809
0.071045294 0.049843449 -0.0055205235 0.63262326 0.143286 -0.76108932 0.0041799494
-0.073098116 0.052669056 -0.0043730768 -0.70754272 -0.17624645 -0.68433952 0.0059981318
-0.071464285 0.052526157 -0.0056760646 -0.54586172 -0.023423493 -0.83754778 0.0078192912
-0.057454109 0.053712726 -0.0057998137 0.25538814 0.75913423 -0.59874213 0.0025920246
-0.055275988 0.05345415 -0.0049396865 0.32652983 0.85921901 -0.39385393 0.0028275219
-0.052543741 0.052573692 -0.0045697074 0.35562855 0.83849245 -0.41286668 0.00277345
-0.05006142 0.051534183 -0.004160075 0.40809163 0.82938039 -0.38156188 0.0037542856
0.053792104 0.051101901 -0.0036373131 -0.48383567 0.7940613 -0.36792618 0.0020374409
0.055707704 0.051897872 -0.0043578316 -0.4562234 0.79487795 -0.40003666 0.0031536943
0.05826709 0.053149007 -0.0048176362 -0.43283048 0.74615431 -0.50587696 0.0067199985
0.060490564 0.053806182 -0.0057533369 -0.37654218 0.63466662 -0.67484385 0.0027322636
0.070836209 0.052684296 -0.0054065185 0.55801058 0.18467945 -0.80902261 0.0070158299
0.072180927 0.053164449 -0.0037703167 0.543926 0.15001842 -0.82561433 0.0068530431
-0.073511384 0.055597667 -0.00442984 -0.64632601 0.1416 -0.74980801 0.023063892
-0.070838831 0.055805594 -0.005714858 -0.35384762 0.2009038 -0.91347116 0.012332972
-0.067400657 0.056704674 -0.0058573419 0.026099881 0.54186219 -0.84006202 0.0072686621
-0.06424626 0.056347366 -0.0054684463 0.22212245 0.62655902 -0.74705112 0.0056524626
-0.061447456 0.055843916 -0.0046736421 0.30409834 0.77578092 -0.55289072 0.0073386179
-0.058564257 0.054874372 -0.0044487193 0.27531856 0.82769305 -0.48900294 0.0036030153
-0.056206126 0.054368466 -0.0037732739 0.32327309 0.86193103 -0.39060152 0.0028230539
0.059324633 0.054552197 -0.0038003414 -0.51312643 0.73469931 -0.44375461 0.0054501649
0.061556827 0.055475499 -0.0045443242 -0.41401267 0.7110759 -0.56829971 0.0052417917
0.06415084 0.056247495 -0.0054659024 -0.29404888 0.55854338 -0.77560592 0.0082756272
0.067666411 0.05686665 -0.005909665 0.030352313 0.33467504 -0.9418447 0.020609755
0.070552222 0.055751752 -0.0051218239 0.44930243 0.18836311 -0.87329644 0.013170001
-0.073070414 0.057819728 -0.0040508071 -0.55875927 0.5775333 -0.59518367 0.0221822
-0.07051973 0.058579516 -0.0046145008 -0.20482674 0.65189052 -0.7301265 0.025854684
-0.067555919 0.058447901 -0.0046043536 0.15434891 0.65933043 -0.73583949 0.0065748701
-0.064670496 0.057929747 -0.0040606963 0.33131301 0.70799226 -0.62368149 0.0074947993
-0.062210999 0.057209585 -0.0032759295 0.38989905 0.77176636 -0.50234991 0.0040314621
0.062668666 0.057386849 -0.0033003846 -0.58135527 0.60202646 -0.54734832 0.0092532309
0.064625427 0.058288705 -0.0042316872 -0.49108154 0.49513993 -0.7167114 0.016950296
0.067363337 0.058577262 -0.0052811666 -0.033919245 0.34477115 -0.93807375 0.020746887
0.070265718 0.05852351 -0.0048282933 0.27526167 0.25394088 -0.9272244 0.0091962498
0.072371617 0.059374772 -0.0033076296 0.27917677 0.1607237 -0.9466933 0.012110575
-0.069277927 0.060091529 -0.0032502725 -0.13056809 0.88697481 -0.44297588 0.024045933
-0.067912169 0.060118694 -0.0031774179 0.042410623 0.90283239 -0.42789608 0.032179337
0.065482415 0.060788166 -0.003459913 -0.57259685 0.33858436 -0.74665487 0.0092414217
0.067402616 0.061541867 -0.0042707217 -0.31205866 0.24113594 -0.91895211 0.025029622
0.070422821 0.061565462 -0.0044255564 0.23485276 0.11353537 -0.96537763 0.019294232
0.072438784 0.061931115 -0.0033996403 0.25906914 0.12873402 -0.95724118 0.02306032
0.067633003 0.06435924 -0.0037102054 -0.42641947 0.16373029 -0.88958353 0.019960638
0.07026998 0.064483397 -0.0042332611 0.16957974 0.025849199 -0.98517746 0.025649158
0.072479196 0.064837076 -0.0034741368 0.29620159 -0.018373171 -0.95494878 0.023756385
0.068032689 0.067441985 -0.0035072027 -0.5650453 0.10822321 -0.81793129 0.016098456
0.070251212 0.067607999 -0.0042097159 -0.16847888 0.014129917 -0.98560399 0.025959797
0.072790608 0.067695804 -0.0037179478 0.17074296 -0.068120979 -0.98295802 0.033532135
0.068525463 0.070394643 -0.003424539 -0.73211974 0.099514134 -0.67386764 0.028813221
0.07049828 0.070548542 -0.0042549274 -0.27276585 -0.034215715 -0.9614718 0.02831688
0.073206581 0.070616171 -0.0039945571 0.14827098 -0.12605871 -0.98087972 0.018690726
0.068663605 0.073251694 -0.0033353472 -0.77494764 0.085841686 -0.62616873 0.022562791
0.070346765 0.073509894 -0.0043594488 -0.32439926 0.0094291372 -0.94587326 0.028798809
0.073229879 0.073676489 -0.0047148219 0.24653243 0.17602123 -0.95301533 0.085275687
0.075642891 0.074493937 -0.0037810113 -0.8790732 0.060607918 0.4728182 0.11631289
0.068754219 0.075706057 -0.0031846266 -0.64688015 0.48439434 -0.58898914 0.064783506
0.070395425 0.07599581 -0.0041506006 -0.25675568 0.61773497 -0.74329001 0.097382128
0.073247269 0.075672731 -0.0042858091 0.19607694 0.81337625 -0.54769778 0.052600659
0.075577095 0.07505957 -0.0034585712 -0.8790682 0.060030006 0.47290108 0.11622623
-0.00062017795 0.03292834 -0.0023860408 0.10606359 0.98473275 -0.13802874 0.0025714068
0.001679503 0.032832313 -0.0018698651 0.059856061 0.98301208 -0.17350674 0.0014509284
0.0044630128 0.032782596 -0.0015811834 0.017467948 0.98848909 -0.15028045 0.0026205315
0.0073784767 0.03279601 -0.0015137453 -0.024509752 0.99018055 -0.13762902 0.0030715722
0.010308775 0.032893542 -0.0021196769 -0.079951882 0.98337692 -0.16302612 0.0015062892
-0.015376459 0.035900127 -0.0015331818 0.30639249 0.94737834 -0.092724152 0.0035191705
-0.013340269 0.035315897 -0.0014374704 0.268897 0.95478398 -0.12681451 0.0018330527
-0.010366096 0.034517933 -0.0015415433 0.23648955 0.96219212 -0.13512625 0.0016478967
-0.0074479654 0.03397505 -0.0013136562 0.16037586 0.97480416 -0.15503661 0.002300513
-0.0045311297 0.033477884 -0.0016581871 0.11205001 0.9831531 -0.14441177 0.0017094193
-0.0017777258 0.033197079 -0.0012201143 0.092775322 0.98824877 -0.1214788 0.002139335
0.00099506101 0.033073954 -0.00051945541 0.040402971 0.99866664 -0.032133453 0.0014801301
0.003746208 0.033005629 -4.1451389e-05 0.025187341 0.99952829 -0.01757209 0.0011509631
0.0086259991 0.033043087 -0.00012848768 -0.025815144 0.99956113 -0.014528702 0.001508737
0.010819367 0.033118371 -0.00073751342 -0.073647499 0.99304104 -0.091899119 0.0039519658
0.013492138 0.03332014 -0.0014399685 -0.12450437 0.98559105 -0.11449449 0.0020324271
0.016554046 0.03384617 -0.0014593924 -0.19429682 0.97214621 -0.13107474 0.0026327127
0.019521993 0.034532439 -0.001512846 -0.25687912 0.96020645 -0.10962067 0.0013780021
0.022495646 0.035361048 -0.0014316089 -0.2646912 0.95947218 -0.09670493 0.0018393182
0.024418676 0.035849828 -0.0019650552 -0.30852148 0.94600552 -0.099439032 0.0019553679
-0.069023944 0.038457539 -0.0022042776 -0.79559684 -0.40376624 -0.45166194 0.0017790818
-0.024170943 0.038847398 -0.0023862133 0.39941135 0.90800673 -0.12646925 0.0017223303
-0.022419417 0.038247567 -0.0014870866 0.37283504 0.91864187 -0.13073319 0.0016210207
-0.019496813 0.037118312 -0.0015323372 0.31233045 0.93893111 -0.14442311 0.00325271
-0.016836392 0.036359496 -0.0012892553 0.27341974 0.95500463 -0.11492539 0.0017188289
0.025854025 0.036329411 -0.0014590377 -0.28433809 0.95381474 -0.096897937 0.0020436363
0.028481336 0.037167154 -0.0015438778 -0.31017703 0.94069231 -0.13743432 0.0024526352
0.031529643 0.038246959 -0.0015593057 -0.36709535 0.9222241 -0.12142353 0.0017149459
0.033165231 0.038887482 -0.0019394549 -0.44346097 0.89213181 -0.086274453 0.0035397569
-0.069874965 0.040022802 -0.002512756 -0.81251919 -0.36647868 -0.45332763 0.0024965387
-0.03039887 0.041648813 -0.0018789656 0.46133047 0.87992305 -0.1136204 0.0015687116
-0.028475806 0.040769305 -0.00151332 0.41061473 0.90464294 -0.11409112 0.0018383659
-0.025565045 0.039562535 -0.0013906631 0.36660582 0.92168969 -0.12684004 0.001567653
0.034663431 0.039648462 -0.001492972 -0.42158151 0.89900929 -0.11853863 0.0017773974
0.037455425 0.041081909 -0.0015396888 -0.48826617 0.86188966 -0.13690272 0.0028577184
0.039126117 0.041955911 -0.0025456354 -0.51240361 0.8496868 -0.12439833 0.0029730559
-0.072055735 0.044675637 -0.0019464431 -0.84048218 -0.31144372 -0.44338742 0.00068776147
-0.071183942 0.042960543 -0.0024173765 -0.83726627 -0.31665006 -0.4457778 0.00076187606
-0.03658184 0.044791806 -0.0018981176 0.48566735 0.86621559 -0.11746402 0.0018071815
-0.03456812 0.043837428 -0.001407633 0.44774115 0.88674289 -0.11495642 0.0018199737
-0.031920712 0.04248723 -0.0014376483 0.43465742 0.89320821 -0.11511774 0.00177517
0.038876064 0.042051673 -0.00071756326 -0.51244301 0.84966284 -0.12439954 0.0029665867
0.040513892 0.042957198 -0.0014688247 -0.50225192 0.85610998 -0.12173251 0.0029716894
0.042843919 0.044437639 -0.0016230092 -0.5609827 0.82147753 -0.10233815 0.0021033995
-0.07265424 0.046686608 -0.0022349579 -0.81285167 -0.2656917 -0.51834363 0.0020601007
-0.042216424 0.047786556 -0.002762062 0.48332152 0.85808033 -0.17348923 0.004437082
-0.040449105 0.046967681 -0.0015512571 0.47487915 0.87262326 -0.11409851 0.0024237391
-0.037954517 0.045596592 -0.0013460962 0.4610253 0.87919575 -0.12029323 0.002022713
0.044285938 0.045413688 -0.0014091695 -0.546193 0.82732159 -0.13119525 0.0033966862
0.046470929 0.046858147 -0.0015061799 -0.54441273 0.83134097 -0.11174524 0.003737028
0.048186015 0.047889706 -0.0023914091 -0.57141316 0.81175035 -0.12061676 0.0037180854
-0.073681861 0.049740806 -0.0022990706 -0.79659885 -0.25298199 -0.54902673 0.0012049718
-0.046339739 0.050273102 -0.0015860877 0.48304883 0.86194301 -0.1540069 0.0028491146
-0.043528005 0.048723727 -0.0013836691 0.4742994 0.87225628 -0.11920179 0.0028153597
0.049585406 0.048943892 -0.0015085558 -0.53231186 0.83653057 -0.1298489 0.0042333417
0.051864892 0.050454725 -0.0016043223 -0.56528527 0.81425333 -0.1320761 0.0031527644
-0.075564496 0.053322438 -0.0012340044 -0.93722063 -0.085248075 -0.33815715 0.024967911
-0.074587934 0.052237585 -0.0024298914 -0.75290698 -0.18387409 -0.63191897 0.0030509401
-0.052272096 0.053425379 -0.0016613993 0.41863152 0.88979846 -0.18167652 0.0039855894
-0.049489483 0.051997773 -0.0015750888 0.43820021 0.88415807 -0.16200314 0.0029438084
-0.047800377 0.051143523 -0.0011444881 0.45620722 0.87560093 -0.15873902 0.0026868845
0.053367544 0.051461734 -0.0015284617 -0.53470176 0.82674247 -0.17490244 0.0058164261
0.055442691 0.052801512 -0.0015299843 -0.5602358 0.81610578 -0.14179975 0.0040057064
0.057218272 0.053801894 -0.0022340927 -0.57872188 0.79069304 -0.19971333 0.0066716974
-0.075645782 0.055806331 -0.0018034932 -0.89197069 0.21304552 -0.39874789 0.024783727
-0.074941263 0.054290883 -0.0029429658 -0.74337745 0.10990845 -0.65978038 0.024052903
-0.060489416 0.056748018 -0.0021460752 0.50418866 0.84069407 -0.1975534 0.008267561
-0.058545925 0.055969443 -0.0016276785 0.39332247 0.8974961 -0.19949482 0.0084267333
-0.055463757 0.054729749 -0.0015523095 0.33335862 0.92355567 -0.1895176 0.0037829264
-0.053667597 0.054093312 -0.0011895921 0.37300405 0.91056848 -0.17813762 0.0039190622
0.056965824 0.054000147 -0.00051247736 -0.53957433 0.83494699 -0.108273 0.0071825748
0.058642134 0.055022657 -0.0014814745 -0.50844491 0.83310992 -0.2177422 0.006857527
0.060656521 0.056402523 -0.0018040221 -0.67054349 0.71755195 -0.18838979 0.011390591
-0.075354315 0.057281822 -0.00092669285 -0.84894979 0.43403909 -0.30148688 0.037324116
-0.073578648 0.058280442 -0.0016384338 -0.53392261 0.80265689 -0.2658357 0.022738503
-0.071086638 0.059556216 -0.0015339155 -0.38613281 0.90773576 -0.16406471 0.0066701686
-0.066418834 0.05980967 -0.0027621493 0.26065996 0.87417555 -0.40972364 0.020015415
-0.064334206 0.059191536 -0.0018108354 0.44709787 0.84001642 -0.30736938 0.0050192759
-0.061838903 0.05773142 -0.0015273519 0.47289056 0.8485328 -0.23741649 0.010236659
0.062098872 0.057972074 -0.0014346056 -0.7682904 0.59702265 -0.23085444 0.017714709
0.063509919 0.059275907 -0.0021288828 -0.74581927 0.61506099 -0.25583914 0.018716756
-0.069631696 0.060238563 -0.001477386 -0.25518742 0.95270497 -0.16502322 0.01722708
-0.067555793 0.060627595 -0.0015780664 0.057865512 0.98370588 -0.17021826 0.023278302
-0.065596983 0.060270656 -0.00087284914 0.30218333 0.91720688 -0.25964749 0.021844316
0.064576037 0.061538521 -0.0016852495 -0.8688041 0.32403934 -0.3744036 0.025486564
0.073006891 0.061452255 -0.0027421194 0.25906521 0.12870298 -0.95724648 0.023062199
0.065377973 0.064385556 -0.0013131629 -0.89064038 0.23046158 -0.39197847 0.014912463
0.066325314 0.065174356 -0.0025179784 -0.81829977 0.21134427 -0.53452694 0.016538462
0.07384707 0.064555064 -0.0021072971 0.46323743 -0.022578953 -0.88594657 0.0054964218
0.065767586 0.066955261 -0.000730436 -0.8960166 0.24005298 -0.37353557 0.010412729
0.06659323 0.067719951 -0.0019824631 -0.8475967 0.2100901 -0.48728019 0.013148575
0.074473083 0.067875914 -0.0023480721 0.37986892 -0.12677152 -0.91631246 0.010656135
0.067099117 0.070512235 -0.0016799138 -0.88982159 0.18310058 -0.41796148 0.0094889915
0.067552999 0.073526107 -0.0016286101 -0.88198698 0.15733112 -0.44423631 0.019022834
0.076648809 0.074736774 -0.0014915415 0.22613427 0.95803773 -0.17614509 0.033958487
0.068096228 0.076312363 -0.0015964861 -0.72297347 0.58821738 -0.36236668 0.080234833
0.070465945 0.076770276 -0.0017239597 -0.17086551 0.88077813 -0.44162759 0.077301279
0.073507056 0.075849816 -0.0013748684 0.32092881 0.94440931 -0.071384721 0.0024289158
0.075737096 0.075157754 -0.0016166383 0.22613427 0.95803773 -0.17614509 0.033958487
0.0022316461 0.032849733 0.0021140743 0.043902595 0.99208063 0.11767951 0.0053313682
0.0045072511 0.032871142 0.0015736516 0.009424909 0.99462593 0.10310449 0.0035921908
0.00730304 0.032867625 0.001601966 -0.024237048 0.99244839 0.12024473 0.0045340345
0.0096740434 0.032884277 0.0024440556 -0.073809259 0.98288047 0.16881423 0.0022966838
-0.015548942 0.035829175 0.002894664 0.28406072 0.95449024 0.090873405 0.0023484926
-0.013569451 0.035493948 0.0013333802 0.27183253 0.9588002 0.08251866 0.0025457132
-0.010632576 0.03472041 0.0012162299 0.23954983 0.96724731 0.08395575 0.0029028757
-0.0073632821 0.034084164 0.0015416527 0.15671162 0.984707 0.07611461 0.0024130645
-0.0044574272 0.033671197 0.001128803 0.13574117 0.9901756 0.033565599 0.0033379868
-0.0013346567 0.033201322 0.0015141966 0.08595714 0.99446738 0.060381405 0.004478775
0.0011801841 0.033070266 0.00098597561 0.027045937 0.99510747 0.095024124 0.0046133446
0.0045721 0.033008698 9.3514878e-05 0.025187211 0.99952829 -0.017571431 0.0011491361
0.0083399005 0.033015177 0.00047351906 -0.021585893 0.99974006 -0.0073375651 0.0014573834
0.010672463 0.033127464 0.0011272012 -0.062341075 0.99586916 0.066017061 0.0045170388
0.013606956 0.033406757 0.0015089909 -0.1176131 0.9880963 0.099161163 0.0035213681
0.016470386 0.033903528 0.0014492726 -0.19004534 0.974904 0.11595222 0.0041964864
0.019480024 0.034595724 0.0014955881 -0.25759143 0.96254277 0.084605321 0.0023586319
0.022485584 0.035420664 0.001397733 -0.26469591 0.96144378 0.074579231 0.0030725156
0.024245568 0.035869803 0.0021528916 -0.30932531 0.94754964 0.08042109 0.0036060715
-0.022467675 0.03835351 0.001511213 0.36793292 0.92636585 0.080447294 0.0038559635
-0.019439926 0.037202582 0.0013826186 0.31002873 0.94800574 0.071883842 0.0022499878
-0.016641458 0.036361162 0.0014219967 0.26163933 0.96238148 0.073257469 0.002059123
0.025663469 0.036362372 0.0012945493 -0.27620372 0.95806998 0.076246202 0.0035395208
0.028502841 0.037259024 0.001386835 -0.31638503 0.94177747 0.11382308 0.0036516804
0.031476427 0.038317919 0.0013553282 -0.35934022 0.92887092 0.089851707 0.0035738391
0.033152208 0.038792074 0.0029196949 -0.41486737 0.89023232 0.1880729 0.007940202
-0.03053743 0.0418493 0.0015249427 0.46921676 0.8809818 0.060882322 0.002190172
-0.028455429 0.040869977 0.0013970472 0.41616073 0.90708429 0.063311629 0.0028089543
-0.025561498 0.039641771 0.0014076335 0.38007918 0.92207366 0.072938807 0.0038594799
-0.023897674 0.039019622 0.00073028542 0.35181618 0.93344945 0.069981694 0.0038693426
0.034457751 0.039635751 0.0013712314 -0.43131989 0.89734608 0.093451522 0.0037781848
0.037379235 0.041094899 0.0014790179 -0.48450783 0.86686015 0.11749715 0.003246564
-0.036328331 0.044784829 0.001583716 0.48867011 0.86994606 0.066297948 0.0024289538
-0.034551349 0.043904297 0.0014330047 0.45559347 0.88769954 0.06651403 0.0024260653
-0.03195205 0.042612147 0.0012428695 0.43919489 0.89603996 0.064963363 0.0025928277
0.038773622 0.042064954 0.00024847453 -0.54021531 0.83819741 0.07478334 0.0034077293
0.040428519 0.042909507 0.0015056384 -0.52200443 0.84810674 0.09069971 0.0043778284
0.042751748 0.044397004 0.0015592909 -0.56129616 0.82229817 0.093661524 0.002334448
-0.042241283 0.047992289 0.0020960181 0.5059666 0.84600735 0.16813511 0.0059065237
-0.040521324 0.047103051 0.0013846323 0.48736572 0.86837482 0.091650352 0.0027087741
-0.037849758 0.045638226 0.0011739766 0.45726645 0.88608527 0.075897373 0.0030291688
0.044339199 0.045472622 0.0013248095 -0.56700289 0.817913 0.097601041 0.0027099547
0.046485651 0.046889212 0.0014561886 -0.54272604 0.83493316 0.091296718 0.0038503497
0.048088249 0.04789241 0.0020023119 -0.52857608 0.84280908 0.10139115 0.0037919919
-0.046216603 0.050294127 0.0014211222 0.49118444 0.86612284 0.092569403 0.00287638
-0.0436414 0.048850484 0.0014113669 0.47989398 0.8738597 0.077916719 0.0042544152
0.049586229 0.048977781 0.0014167489 -0.53811955 0.83626193 0.10532486 0.0042526429
0.051825058 0.050464302 0.0015264171 -0.531075 0.83732384 0.12980041 0.0040154275
-0.052325588 0.053521097 0.0015620993 0.41800898 0.89666623 0.14580141 0.0033352817
-0.04955814 0.052131802 0.0013030659 0.43909541 0.88696331 0.14314798 0.0042319982
-0.047569703 0.051095728 0.00099159789 0.44208229 0.88671291 0.13529071 0.0041946396
0.053281423 0.051452506 0.001333273 -0.53932244 0.83082497 0.13733581 0.0048587839
0.055542905 0.052923605 0.0013989046 -0.56025368 0.81446803 0.15085664 0.0051509333
0.057383653 0.053857327 0.0025620775 -0.56005096 0.78790087 0.25603738 0.011028747
-0.075739279 0.056350529 0.0016686929 -0.73826593 0.65401942 -0.16499096 0.06613607
-0.060288318 0.056892611 0.0013792178 0.48350438 0.87479919 -0.030821918 0.010036474
-0.058431264 0.056012236 0.0013027029 0.42889631 0.90084493 0.067278676 0.0051222332
-0.055594951 0.054862279 0.0012921977 0.33988008 0.93331778 0.1157559 0.0037869303
-0.053544313 0.054158092 0.00058740692 0.38713679 0.91506755 0.11303294 0.0038649428
0.058609325 0.055052798 0.0013509045 -0.57268012 0.81188852 0.11346578 0.0081362585
0.060689609 0.056519289 0.0017509426 -0.67636639 0.71830547 0.16298971 0.012679183
-0.075361416 0.057303526 0.00087918882 -0.73820698 0.65407526 -0.16503359 0.066091172
-0.073434532 0.058396287 0.0014373714 -0.49550843 0.86687088 0.054829244 0.0033797601
-0.071108304 0.059548624 0.0014111404 -0.40862566 0.91205865 0.034264311 0.0010269954
-0.064006962 0.059345219 0.00087964319 0.47428864 0.87711406 -0.075639404 0.0063148257
-0.061819006 0.057819773 0.0011703467 0.51215881 0.84988624 -0.12404309 0.0029570621
0.062148795 0.058175802 0.0011608051 -0.80793029 0.5866673 0.055409294 0.024231644
0.063318469 0.059558261 0.001610434 -0.87136775 0.48569903 0.069388144 0.021763751
-0.069608584 0.060257703 0.0015015795 -0.3717266 0.92798287 0.025829477 0.0022789449
-0.067764513 0.060769022 0.0011765272 0.021215806 0.99095887 0.13247816 0.020245349
-0.065408073 0.060235858 0.00069822581 0.31311452 0.94475126 0.096975267 0.019607592
0.064213164 0.061289348 0.001163885 -0.91275108 0.40478182 -0.055110443 0.033074323
0.06506262 0.064278089 0.00074707327 -0.93635601 0.2609095 -0.23486945 0.002436928
0.065710306 0.066983089 0.00054779107 -0.89604986 0.24001345 -0.37348109 0.010366016
0.066108853 0.068427458 0.00078744686 -0.89604086 0.24009034 -0.37345344 0.010339604
0.066697963 0.070822045 0.00070154236 -0.90653884 0.2069777 -0.36789602 0.0070524151
0.067153618 0.073776364 0.00060790306 -0.89670223 0.42049122 -0.13824745 0.060740776
0.076713935 0.074865304 0.00069099671 0.30445927 0.95103896 -0.053192701 0.0028699569
0.067925267 0.076538242 0.0008315054 -0.65821135 0.75149006 -0.044950005 0.0768122
0.070490941 0.076768704 0.0014211776 -0.11218885 0.99273473 0.043492425 0.057370666
0.073642537 0.075809687 0.0014651124 0.29756603 0.95468861 -0.004911189 6.2150626e-05
0.075721234 0.075170748 0.0013152946 0.27644593 0.95944595 -0.055146806 0.0025058051
-0.0034415778 0.032216672 0.0056603104 0.13425031 0.93682051 0.3230235 0.0018441076
