# .PCD v0.7 - Point Cloud Data file format
VERSION 0.7
FIELDS x y z normal_x normal_y normal_z curvature
SIZE 4 4 4 4 4 4 4
TYPE F F F F F F F
COUNT 1 1 1 1 1 1 1
WIDTH 557
HEIGHT 1
VIEWPOINT 0 0 0 1 0 0 0
POINTS 557
DATA ascii
-0.025416736 0.010658601 -0.010576387 -0.26268804 -0.70511979 -0.65863585 0.001419764
-0.02250639 0.0099339159 -0.010934213 -0.25310326 -0.71718979 -0.64929008 0.0014680889
-0.019610448 0.0096111307 -0.011670925 -0.21592018 -0.69124663 -0.68960607 0.0012514738
-0.017078187 0.0090352288 -0.011839101 -0.17460074 -0.67326725 -0.71848845 0.0013614132
0.029652664 0.0090080146 -0.011642005 0.20743708 -0.74424368 -0.63487887 0.0012396531
0.031680439 0.0093634026 -0.011350728 0.23052789 -0.72113711 -0.65331316 0.00071940012
0.034564827 0.0099319359 -0.010756903 0.2758427 -0.75784647 -0.59125251 0.0013271326
0.037443098 0.010834199 -0.010536659 0.30890036 -0.74430031 -0.59211278 0.0017158412
0.040055625 0.01151995 -0.0099377269 0.34918365 -0.75124294 -0.56009364 0.0011626312
-0.036209576 0.014720899 -0.010013258 -0.35568371 -0.69260174 -0.62752837 0.0013144619
-0.034185253 0.013809551 -0.010118526 -0.31844094 -0.70993334 -0.62816399 0.0012559204
-0.031416517 0.013221386 -0.01078295 -0.29943439 -0.68495065 -0.66421503 0.0015430839
-0.028638342 0.012751665 -0.011476903 -0.26853338 -0.66824561 -0.69378501 0.0029636361
-0.026220191 0.012241652 -0.011931317 -0.23334371 -0.61952794 -0.74949038 0.0013563574
0.038764894 0.012443969 -0.01181465 0.29060364 -0.66477102 -0.68820715 0.0012336562
0.040954001 0.012863229 -0.011095489 0.33654863 -0.71632844 -0.61123538 0.0011502837
0.043453496 0.013568519 -0.010485353 0.36655924 -0.73720717 -0.56759137 0.0010321048
0.046013862 0.014379414 -0.0097413706 0.41939721 -0.71202904 -0.56313461 0.0011695146
-0.039976846 0.017188318 -0.010538983 -0.37034941 -0.66133684 -0.65228432 0.0017658637
-0.037836354 0.016474437 -0.010956364 -0.3592189 -0.66566062 -0.65410823 0.0020663938
-0.034659423 0.015415044 -0.011554023 -0.30613229 -0.66683048 -0.67942637 0.0012025185
0.044451617 0.015266957 -0.011852264 0.35799876 -0.63019353 -0.68897969 0.0016418546
0.046745621 0.015908916 -0.011032554 0.39658588 -0.667629 -0.63007241 0.0025658666
0.049285624 0.016772533 -0.010252432 0.43388531 -0.67907482 -0.59211558 0.001667334
0.051534813 0.017459512 -0.0092850961 0.49264225 -0.66580951 -0.56035811 0.0014041084
-0.045059618 0.020931238 -0.010886725 -0.41633695 -0.56606925 -0.71149784 0.00040328945
-0.04331192 0.019680008 -0.010815781 -0.37636563 -0.56847119 -0.73156637 0.00062413065
-0.041534998 0.01843448 -0.010779824 -0.3924287 -0.63519388 -0.66522801 0.0011235516
0.050165631 0.018414728 -0.011399372 0.4330593 -0.63932359 -0.63539356 0.0018076452
0.052543655 0.019359186 -0.010510015 0.46810031 -0.64772248 -0.60111368 0.0014887166
0.054824207 0.020308968 -0.0097101144 0.51704043 -0.61322683 -0.59717846 0.0017738332
-0.049636092 0.023435665 -0.01002307 -0.42664734 -0.53570151 -0.72869462 0.00069956522
-0.046944041 0.022649508 -0.011187661 -0.41723171 -0.56224519 -0.71400142 0.00039269103
0.053560924 0.021348894 -0.011692462 0.48531041 -0.56397778 -0.66813391 0.00053711841
0.055730332 0.022292307 -0.010820154 0.5046168 -0.52551299 -0.68498015 0.0010466265
0.057832781 0.023178974 -0.0097937072 0.56440634 -0.54466271 -0.62031281 0.0011491876
-0.052062079 0.025649585 -0.01030365 -0.43766698 -0.52646583 -0.72889048 0.00068704272
-0.049422931 0.024987251 -0.011635269 -0.4192901 -0.5125007 -0.74935889 0.0012584438
0.056589425 0.02441862 -0.011780947 0.52424502 -0.50794202 -0.68349254 0.0007554639
0.058696091 0.025366681 -0.010867827 0.52237737 -0.46322185 -0.71592426 0.00083982496
0.060776591 0.026138803 -0.0097185252 0.58496761 -0.5174489 -0.62454748 0.0014749025
-0.055133101 0.028564211 -0.010463502 -0.47125921 -0.46236587 -0.75108755 0.00081488542
-0.052656975 0.027925866 -0.01173718 -0.45121452 -0.47526717 -0.75533205 0.00052030757
-0.012745831 0.029567569 -0.011810105 0.18586631 0.63009733 -0.75394374 0.0015414798
-0.010287933 0.029258074 -0.011533855 0.15906717 0.64508593 -0.74736995 0.0017124664
-0.0074313558 0.02895519 -0.011199593 0.13308889 0.66593337 -0.73404366 0.0017295687
-0.004441062 0.028727006 -0.010945548 0.10528528 0.68936235 -0.71672481 0.0016297719
-0.0015774894 0.02860347 -0.010691542 0.10575926 0.72963721 -0.67560673 0.002587036
0.0014697911 0.0283677 -0.010697707 0.038243882 0.72624987 -0.68636608 0.0024670423
0.0044756569 0.028404605 -0.010582363 -0.015381332 0.74348122 -0.66857988 0.0022690403
0.0074460474 0.028382573 -0.010684275 -0.069513142 0.74817204 -0.6598534 0.0025427421
0.010580892 0.028633567 -0.010729297 -0.088781431 0.73841077 -0.66848141 0.0024858876
0.013459845 0.028779211 -0.010954206 -0.11973026 0.76207757 -0.63631946 0.0013562483
0.016461993 0.029081799 -0.011274832 -0.15510392 0.75124216 -0.64154345 0.0014799775
0.019136224 0.029359782 -0.011627604 -0.19017941 0.66819447 -0.7192691 0.0013117142
0.059576668 0.0277141 -0.01174037 0.55748034 -0.39476964 -0.73032361 0.0014420412
0.061540302 0.028609507 -0.010647707 0.57559311 -0.37249982 -0.72796744 0.0010675446
0.063456327 0.029436655 -0.0094657503 0.63350201 -0.42220137 -0.64839906 0.0023586093
-0.05874034 0.032198306 -0.01026628 -0.50126004 -0.38070431 -0.7770474 0.0013668234
-0.056396019 0.031149887 -0.011393913 -0.47220528 -0.40379173 -0.78356516 0.0008035152
-0.021556629 0.032526646 -0.011773504 0.27409846 0.70362914 -0.65557307 0.0013935065
-0.019242644 0.032125257 -0.011346424 0.23933069 0.66024095 -0.71190083 0.0016411901
-0.016354941 0.031637415 -0.010827482 0.23518707 0.74124879 -0.62867892 0.0010764532
-0.013514061 0.031066418 -0.010503105 0.20894054 0.73886806 -0.64063859 0.0023614157
-0.010545907 0.030709594 -0.010076112 0.17538331 0.74784964 -0.64028239 0.0016687848
-0.0077195135 0.030358018 -0.0097747529 0.14125256 0.75833488 -0.63637716 0.0015962984
-0.0049021095 0.030167136 -0.0094233314 0.11379761 0.76592273 -0.63278162 0.0011120165
-0.0024433816 0.030043423 -0.0090880543 0.084488541 0.76545072 -0.63792396 0.00098545814
0.011217144 0.030024165 -0.0091089904 -0.095094003 0.77974367 -0.61883509 0.0008312639
0.013620549 0.030137643 -0.0093829101 -0.12097223 0.7783463 -0.61607045 0.0013766204
0.016398758 0.030389538 -0.0097588496 -0.16232495 0.77177447 -0.614829 0.0013116414
0.019529985 0.030607706 -0.010376533 -0.20302442 0.75520009 -0.62326062 0.0013965772
0.022450808 0.031213202 -0.010627458 -0.22699596 0.74796796 -0.62371212 0.0016415791
0.02543368 0.031984992 -0.010820564 -0.2385481 0.75128078 -0.6153633 0.00079802383
0.028399859 0.032413058 -0.011446344 -0.24762657 0.71301633 -0.65596402 0.000492436
0.030482031 0.032724787 -0.011941642 -0.25678298 0.66474491 -0.70155311 0.0013367154
0.062217914 0.031383082 -0.011413743 0.54475123 -0.28883862 -0.78728539 0.001455683
0.064189307 0.031860787 -0.01006282 0.6300754 -0.33620828 -0.69997782 0.0018622142
-0.060752429 0.035331212 -0.010516709 -0.53186184 -0.31447396 -0.78627545 0.0017179209
-0.058544982 0.034136251 -0.011503903 -0.49013859 -0.32489654 -0.80883026 0.0010870614
-0.0279142 0.035398498 -0.011521012 0.29666361 0.69342047 -0.6566267 0.0019581788
-0.025364039 0.034790576 -0.011024117 0.30114219 0.7220971 -0.62280744 0.0014984846
-0.022618299 0.034133684 -0.01049292 0.26936215 0.73312545 -0.62447667 0.0022689002
-0.019755937 0.033512924 -0.010017334 0.2651695 0.74292994 -0.61460567 0.0013830904
-0.017160183 0.033091575 -0.0093855569 0.24536417 0.76035577 -0.60137802 0.0009989778
0.02601167 0.033381063 -0.0093479408 -0.24221686 0.77248442 -0.58702546 0.0006946834
0.028594673 0.03366448 -0.010048486 -0.25757968 0.76034647 -0.59625995 0.0011435847
0.031484481 0.034284204 -0.010539291 -0.26428482 0.75801051 -0.59629995 0.0021950344
0.034258492 0.035015471 -0.010963455 -0.30741876 0.72820318 -0.61254704 0.0015281813
0.036990676 0.035735734 -0.01156127 -0.31095931 0.68986017 -0.65375638 0.0025191002
0.062743336 0.033841413 -0.011920933 0.55212539 -0.18081851 -0.81391782 0.0017053722
0.064539336 0.034646492 -0.010768297 0.6022808 -0.22713171 -0.76529014 0.0019576375
0.066389695 0.035265248 -0.0093947314 0.69127667 -0.2558642 -0.67577374 0.0017510486
-0.063034281 0.038488947 -0.010175784 -0.55414444 -0.25216821 -0.79330647 0.0009587261
-0.061159432 0.037826009 -0.01119673 -0.53360063 -0.2572037 -0.80567771 0.0016601848
-0.059667051 0.03686481 -0.01186975 -0.47181913 -0.20841791 -0.85670805 0.0028860709
-0.034021784 0.038330849 -0.011450607 0.3097412 0.63335127 -0.70917314 0.0013784455
-0.031343449 0.037632711 -0.010833227 0.33267173 0.71787328 -0.61154515 0.0012983244
-0.028759794 0.036922965 -0.010301149 0.31895462 0.73749906 -0.59528416 0.0020166512
-0.026159842 0.036290023 -0.0096569946 0.31778839 0.73953027 -0.5933848 0.0010866834
0.035030384 0.03649817 -0.0096259704 -0.33881974 0.74653453 -0.57261443 0.0011027798
0.037790027 0.037139975 -0.01037534 -0.33897001 0.7323845 -0.59051865 0.0023824435
0.040523533 0.037988551 -0.011028693 -0.36033103 0.69362175 -0.623739 0.0019531056
0.042863153 0.038690981 -0.011614644 -0.32072788 0.63494521 -0.70283574 0.0016395685
0.064826556 0.03750319 -0.011140546 0.55724394 -0.099097915 -0.82441419 0.0012258491
0.066756763 0.037567005 -0.0096334266 0.6695596 -0.14622645 -0.72822231 0.0024059003
-0.063749038 0.040589031 -0.010224669 -0.54507625 -0.18954152 -0.81667978 0.0027424155
-0.061645076 0.040706541 -0.011569561 -0.44800919 -0.04885437 -0.8926931 0.0042371294
-0.040182598 0.041396808 -0.011345671 0.31465682 0.65767354 -0.68443888 0.0012767407
-0.037365653 0.040592931 -0.010753961 0.32959321 0.70358437 -0.62955338 0.0014623797
-0.034755699 0.039868359 -0.010173 0.34564069 0.71052325 -0.61293495 0.0014591294
-0.032433979 0.039281424 -0.0095340479 0.35701677 0.73474336 -0.57679397 0.0011539249
0.041179597 0.039575078 -0.0096769156 -0.39093432 0.69339406 -0.60528922 0.00073579256
0.043685127 0.04026562 -0.0104341 -0.35202757 0.66595942 -0.65770406 0.0013961674
0.046315391 0.040921029 -0.011223974 -0.32802224 0.64941794 -0.68604499 0.0012994194
0.04866074 0.04165934 -0.011601162 -0.27164364 0.61725742 -0.7383787 0.0024900711
0.064892218 0.040307384 -0.011234107 0.53884029 0.00580878 -0.84238797 0.0026030922
0.067008294 0.040299758 -0.0097641731 0.62962449 -0.032986291 -0.77619898 0.0031826994
-0.064552702 0.043482121 -0.010193476 -0.46537849 -0.010194412 -0.88505304 0.0027447513
-0.06196655 0.04340345 -0.011508598 -0.36886781 0.042315453 -0.92851818 0.0040267548
-0.048905857 0.044834096 -0.011705241 0.20301683 0.59120709 -0.78055 0.0013924406
-0.046208438 0.044271857 -0.011264224 0.26980883 0.64782226 -0.71241111 0.0014688694
-0.043416034 0.043614108 -0.010656909 0.29999959 0.64193153 -0.7056374 0.00077018095
-0.040738102 0.042967308 -0.0099777812 0.35478476 0.70807606 -0.61053759 0.0020111357
-0.038553905 0.042363886 -0.0094623473 0.36762044 0.70144105 -0.6106028 0.0022013842
0.04659776 0.042682633 -0.0096224407 -0.37262389 0.69493252 -0.61499614 0.0011520098
0.049653903 0.043325428 -0.010568846 -0.32137823 0.63528484 -0.70223165 0.0019479813
0.052427828 0.043929968 -0.011157921 -0.23628263 0.56124395 -0.79320604 0.00083218358
0.055278983 0.044454161 -0.011564175 -0.16297558 0.50858068 -0.84544939 0.0027427578
0.058201317 0.044651713 -0.011849517 -0.024888311 0.42733192 -0.90375221 0.0037673516
0.061886374 0.044183709 -0.011775849 0.16146514 0.29189301 -0.94272345 0.005446054
0.064596422 0.043300621 -0.011090976 0.38957086 0.16920647 -0.90531963 0.0055361288
0.067046918 0.04326281 -0.0096979234 0.57344604 0.08052773 -0.81527597 0.0039556148
-0.066597879 0.045915853 -0.0090304157 -0.43834728 0.048702508 -0.89748526 0.0048683756
-0.064192548 0.046824813 -0.010241601 -0.36764592 0.1262366 -0.92135817 0.0071418118
-0.061437648 0.046538755 -0.01123048 -0.27703428 0.29191712 -0.91544324 0.0095997816
-0.058466237 0.046897314 -0.011577407 -0.053603161 0.41331425 -0.9090094 0.0039820299
-0.055414841 0.047070649 -0.011445731 0.075372837 0.50849843 -0.85775769 0.0029938412
-0.05245043 0.046709552 -0.011228613 0.17283151 0.56847858 -0.80433911 0.001199414
-0.049514618 0.046575911 -0.010440851 0.27751768 0.65026307 -0.70720702 0.0017636495
-0.046750259 0.045958664 -0.0098799998 0.30983526 0.68827957 -0.65595227 0.0018436272
-0.044479758 0.045410108 -0.0093279406 0.35312939 0.69674689 -0.62437439 0.0018813325
0.050796151 0.045030348 -0.0095864059 -0.33415675 0.63544506 -0.69609541 0.001929485
0.052639343 0.045865677 -0.0096314177 -0.29598874 0.63839996 -0.71051824 0.0019133177
0.055568077 0.046485521 -0.010217884 -0.23442934 0.58665627 -0.7751627 0.00215073
0.058571782 0.046506889 -0.01084916 -0.064407885 0.49208924 -0.86815876 0.0029732152
0.061579116 0.046423614 -0.010941043 0.088838711 0.3889927 -0.91694731 0.0062177824
0.064538226 0.046390947 -0.010357429 0.31314939 0.27923137 -0.90772641 0.0078695389
0.066788398 0.046178464 -0.009447529 0.50345767 0.18035248 -0.84498715 0.004602449
-0.064353399 0.049478229 -0.0094947983 -0.27574405 0.25028488 -0.92807472 0.0077481437
-0.061380949 0.049481045 -0.010053954 -0.1262728 0.4215163 -0.89798617 0.0044274232
-0.058493573 0.049637992 -0.010051881 0.019801155 0.54259253 -0.83976263 0.0049029156
-0.055539127 0.04912189 -0.010051102 0.14802344 0.61643761 -0.77336514 0.004282895
-0.052670263 0.048716027 -0.0096337907 0.23469837 0.66423154 -0.70972747 0.0022894496
-0.050330769 0.048112798 -0.0093591297 0.30422914 0.6816535 -0.66542697 0.0014109142
0.058656171 0.048701238 -0.0094353324 -0.19764185 0.58926791 -0.78339076 0.0055454946
0.061599463 0.049057353 -0.0096270042 -0.018330703 0.48124161 -0.87639636 0.0046742707
0.064406954 0.048933491 -0.0095110666 0.18173514 0.37356964 -0.90962523 0.0063598137
0.066273168 0.04845684 -0.0091576222 0.39129975 0.29812831 -0.8706342 0.0054860264
-0.063521028 0.051085908 -0.009021854 -0.14661786 0.38976228 -0.90916914 0.006652541
-0.061827805 0.051030796 -0.0091700489 -0.014413268 0.56985921 -0.82161587 0.004945158
-0.0074017225 0.0028114216 -0.0064962786 -0.12570509 -0.85172021 -0.50869519 0.0012095079
-0.0046150568 0.0026992529 -0.0070425817 -0.090426356 -0.86258328 -0.49776816 0.0013469158
-0.0014056413 0.0023682758 -0.0068990747 -0.054644298 -0.86174124 -0.50439668 0.0015707895
0.0015900418 0.0023825436 -0.0071567874 -0.027217103 -0.86841893 -0.49508369 0.0019774402
0.0045543285 0.0023423526 -0.0072242832 0.012074723 -0.87310106 -0.48738977 0.0021322067
0.0073423469 0.0024139199 -0.0071868403 0.03069707 -0.8766802 -0.48009321 0.002459493
0.010479784 0.002319904 -0.0068008392 0.048650727 -0.88272148 -0.46737126 0.0018706211
0.013235179 0.0025451193 -0.0067535536 0.089299791 -0.88270265 -0.46136931 0.0018163556
0.016625253 0.0027804151 -0.0063932124 0.12029028 -0.91221344 -0.39165932 0.0008474171
0.018481506 0.0028380509 -0.0060537374 0.16526994 -0.9224686 -0.34890905 0.0015436244
-0.018866867 0.0058747716 -0.0074638692 -0.24492681 -0.81117666 -0.53103995 0.0017533727
-0.016524088 0.0053392686 -0.0075253551 -0.21275927 -0.82321036 -0.52636307 0.0010174499
-0.013530414 0.0046608755 -0.0077109165 -0.20563357 -0.81558013 -0.54087323 0.0010613819
-0.010475249 0.0040530167 -0.0078257052 -0.13316925 -0.84039247 -0.52536315 0.00099686149
-0.0075977044 0.0037835641 -0.0080829319 -0.1220514 -0.81241894 -0.57015687 0.0019561197
-0.0045167916 0.0035563093 -0.0083868569 -0.092352182 -0.82875705 -0.55193543 0.0012492569
-0.0015230573 0.0033253396 -0.0084173875 -0.052076668 -0.83651036 -0.54547089 0.001738477
0.001554023 0.0032408158 -0.0085205939 -0.03348539 -0.8305791 -0.555893 0.0015245286
0.0043857582 0.0033624442 -0.0088394769 0.00065604493 -0.84176511 -0.53984362 0.002363859
0.0074962988 0.003399238 -0.0087848147 0.027909474 -0.80387473 -0.59414357 0.00078910874
0.01044332 0.0033445745 -0.0085726026 0.046563558 -0.81125391 -0.58283699 0.00093837088
0.013371559 0.0034477469 -0.0083675981 0.083401181 -0.853342 -0.51463747 0.0014936589
0.016513051 0.0036068545 -0.0080263978 0.10762414 -0.85986519 -0.49904799 0.0015286071
0.019632256 0.0039435835 -0.0077835931 0.15522902 -0.86290193 -0.48094088 0.0010734027
0.022490928 0.0044145193 -0.0075896732 0.17615779 -0.866723 -0.46664718 0.0021014481
0.025466194 0.0049813874 -0.0074740476 0.21075995 -0.86632222 -0.4528423 0.0015844287
0.028337752 0.0054412875 -0.0068313079 0.24870826 -0.86660969 -0.43258733 0.0015074504
-0.025352225 0.0084972782 -0.0078510521 -0.30324528 -0.78580546 -0.53902876 0.0012933098
-0.022599272 0.0075021088 -0.0078469515 -0.29161787 -0.79042566 -0.53868943 0.0013009914
-0.019824486 0.0067371037 -0.0082461704 -0.25669441 -0.79960781 -0.54289538 0.001475776
-0.01762744 0.0064577442 -0.0087726973 -0.21306972 -0.79086459 -0.57370234 0.0022028692
0.026540423 0.0060495473 -0.0089031868 0.20038126 -0.79622382 -0.5708546 0.0012219733
0.028749181 0.0062658894 -0.0082095992 0.24060458 -0.83582628 -0.49346119 0.0024366984
0.031567484 0.0067694937 -0.0075870086 0.27280623 -0.85253656 -0.44582298 0.001587258
0.034459915 0.0077248407 -0.0074618328 0.31028581 -0.83913869 -0.44673148 0.0015231288
0.037224036 0.0084659504 -0.0069058337 0.34289652 -0.84185058 -0.41678485 0.0013016344
-0.033956222 0.011675101 -0.0072876988 -0.3378472 -0.76486599 -0.54848814 0.0009698621
-0.031674929 0.011253262 -0.0081654815 -0.30213758 -0.75937182 -0.57625282 0.0015680846
-0.028955895 0.010068189 -0.0080781793 -0.31408766 -0.77611256 -0.54680735 0.0013975895
-0.026325939 0.0091476571 -0.0082750991 -0.30324298 -0.78580874 -0.53902525 0.0012939383
0.037855435 0.0094112214 -0.0082346043 0.34054387 -0.82235163 -0.45581532 0.0015152066
0.040474955 0.010191534 -0.0075244755 0.36752719 -0.82737637 -0.42470247 0.0013367201
0.04316026 0.011214326 -0.0070905527 0.40306583 -0.81002885 -0.42590043 0.001181897
-0.039040588 0.014353123 -0.0075580645 -0.37125161 -0.71286845 -0.59497124 0.00074041437
-0.03893454 0.014881757 -0.0083755618 -0.37458807 -0.6997894 -0.60825866 0.00047373277
-0.03506143 0.012942753 -0.0084384428 -0.35405582 -0.73262894 -0.58129102 0.00041769689
0.044149995 0.012266015 -0.0081457235 0.40395916 -0.79734474 -0.44839528 0.0017443425
0.046615969 0.013322602 -0.0075914245 0.4372125 -0.79034066 -0.42919326 0.001100465
0.049095299 0.014426978 -0.0070057791 0.4722116 -0.7689023 -0.43105155 0.0010565936
0.05010261 0.015660711 -0.0080836397 0.48000836 -0.74472606 -0.46365389 0.0021304593
0.052316621 0.016706862 -0.0073324307 0.50888485 -0.73648065 -0.44568205 0.0019224786
0.054269351 0.017560838 -0.0064803669 0.53297007 -0.7263931 -0.43393087 0.0011268435
0.053445134 0.018174751 -0.0083455583 0.52120066 -0.71286863 -0.46922073 0.001481841
0.055586495 0.019280493 -0.007625984 0.52791554 -0.70925784 -0.46718144 0.0017036352
0.05764734 0.020337678 -0.0066798525 0.58513862 -0.66326529 -0.46657467 0.0012171814
0.056803372 0.021172656 -0.0088553447 0.53955686 -0.60763639 -0.58280057 0.0014930217
0.058778457 0.022204539 -0.0077666142 0.59314901 -0.64323038 -0.4841786 0.0020684591
0.060746957 0.023384543 -0.0069019017 0.62518966 -0.618559 -0.47594404 0.0016501965
0.061855379 0.025299164 -0.0077923792 0.6527456 -0.58277756 -0.48403871 0.0013314015
0.063576728 0.026434403 -0.0067982133 0.67560261 -0.53351998 -0.50883937 0.0013529581
0.062814213 0.027340367 -0.0086565092 0.64155298 -0.50781381 -0.57492161 0.0029813261
0.064543031 0.028628811 -0.0076248972 0.71547371 -0.44402355 -0.5393889 0.001933773
0.066202864 0.029690254 -0.0063283592 0.72872508 -0.46085668 -0.50652832 0.00089931727
-0.012960205 0.03265148 -0.0082314732 0.22288077 0.8236708 -0.52143127 0.001810992
-0.010326732 0.03235618 -0.0076784831 0.19599526 0.83771372 -0.50972694 0.001659362
-0.0075590918 0.031791989 -0.0076323841 0.15617107 0.84492803 -0.51157337 0.0033447656
-0.0045349794 0.031324379 -0.0076224655 0.12868953 0.84542048 -0.51836592 0.0022185959
-0.0015390785 0.03090686 -0.00768913 0.088102885 0.84648651 -0.52506995 0.0025378072
0.0014171302 0.030794831 -0.0074887667 0.058741037 0.84879196 -0.52545375 0.0020237553
0.0044692056 0.030715406 -0.0074699786 -0.022886872 0.85198987 -0.52305782 0.002460409
0.0073820073 0.030788127 -0.0073963869 -0.054565955 0.85496879 -0.51580131 0.0021222038
0.010437037 0.030825844 -0.0077500655 -0.10288826 0.85654914 -0.50570506 0.0019412554
0.01337268 0.031201344 -0.0076418826 -0.13129117 0.85445386 -0.50266409 0.0023483124
0.016206352 0.031715229 -0.007661446 -0.16635786 0.85485339 -0.49147812 0.0028701522
0.019238612 0.032254867 -0.0079134181 -0.22276714 0.83365822 -0.50536001 0.0018199646
0.022093322 0.032677777 -0.0085849687 -0.25502992 0.81148028 -0.52579409 0.0014523069
0.065488867 0.031201098 -0.0084152259 0.67432952 -0.34765303 -0.6514731 0.0014362165
0.06683629 0.031910844 -0.0071708327 0.73983544 -0.38495088 -0.55177569 0.0021752936
-0.021903111 0.035376377 -0.0084706834 0.31199509 0.77265644 -0.55286616 0.0010876659
-0.019384779 0.034935061 -0.007742051 0.30103588 0.83274174 -0.46467045 0.0012764964
-0.016499372 0.034061655 -0.0075909551 0.25646389 0.82764816 -0.49922413 0.0017948775
-0.0137891 0.033577919 -0.0071255644 0.23378357 0.84059727 -0.4886117 0.0017988797
-0.011920771 0.033490386 -0.0062589543 0.21834376 0.87378043 -0.43455002 0.00042651175
0.020338668 0.033281937 -0.0068277577 -0.23666251 0.8550787 -0.46133637 0.0021054188
0.022662384 0.033572484 -0.0074502807 -0.23968893 0.85148466 -0.46639368 0.0022806718
0.025252234 0.034169897 -0.0076870387 -0.24511792 0.85449481 -0.45799103 0.0021977057
0.028263561 0.035066638 -0.0077401451 -0.29399237 0.82404643 -0.48426846 0.0026098597
0.031334151 0.035833877 -0.0082694208 -0.31244177 0.79273087 -0.5234099 0.0019895032
0.067666426 0.034600388 -0.0076642791 0.75462198 -0.28711876 -0.59000725 0.0016376503
0.069178142 0.035575658 -0.0060945987 0.78472465 -0.32608208 -0.52714103 0.0021149621
-0.063786551 0.036946107 -0.0087773884 -0.55413651 -0.25218922 -0.79330528 0.00095971511
-0.028246833 0.038293619 -0.0080886167 0.35996109 0.78422517 -0.50538975 0.0023576457
-0.02559248 0.037402008 -0.0076019871 0.34117478 0.82488489 -0.45073798 0.0012846134
-0.022764737 0.036448732 -0.0073160711 0.32316241 0.82287371 -0.46738094 0.00161632
-0.020521341 0.036022361 -0.0064370017 0.3025364 0.84234291 -0.44601592 0.0013486538
0.031631026 0.036601651 -0.0070985183 -0.324031 0.812931 -0.4838874 0.0014692346
0.034834012 0.037510715 -0.0079090279 -0.35104856 0.77397192 -0.52700335 0.0013830154
0.037039734 0.038386248 -0.0081452467 -0.38037565 0.74534529 -0.54751706 0.00083386252
0.068245001 0.037314385 -0.0080664884 0.76093704 -0.17902137 -0.6236394 0.0022620719
0.069409952 0.037501104 -0.0066535417 0.7956785 -0.20923556 -0.56843317 0.0022326207
-0.065940209 0.041698277 -0.0089240605 -0.54013544 -0.13986208 -0.82987481 0.0040755011
-0.036353406 0.041705962 -0.008805926 0.34715012 0.73487985 -0.58261335 0.0014180341
-0.034270201 0.041263837 -0.0078929327 0.38844028 0.78738606 -0.47868297 0.0019907239
-0.031497572 0.040101502 -0.0075920788 0.38927072 0.78548193 -0.48113039 0.0017698632
-0.028949946 0.039360784 -0.0067958743 0.37100956 0.8135621 -0.44773722 0.0011568369
0.036898419 0.039092164 -0.0068568215 -0.39539421 0.74266779 -0.54047006 0.00078016409
0.040224981 0.040378492 -0.0078260452 -0.40887845 0.71126705 -0.57176709 0.00059056096
0.0435737 0.041644886 -0.008867749 -0.40510154 0.70717287 -0.57948178 0.0010059011
0.068448238 0.040301133 -0.0084518436 0.68391252 -0.078505121 -0.72532791 0.0020128915
0.069760323 0.040308878 -0.0069504241 0.78709126 -0.11467977 -0.6060825 0.002203034
-0.067249037 0.044628296 -0.0084359534 -0.47777656 0.012320467 -0.87839502 0.0035974132
-0.042478118 0.044869617 -0.0087966565 0.36169636 0.74651849 -0.55846745 0.0027169348
-0.040224843 0.04439 -0.0077399365 0.40103331 0.77246875 -0.4924067 0.0026361041
-0.037558105 0.043157857 -0.0075229267 0.39565298 0.78320491 -0.47963393 0.002082305
-0.035134599 0.042357381 -0.0068166107 0.40225369 0.80081862 -0.44371334 0.001253176
0.044010814 0.042789627 -0.0075905807 -0.40608087 0.7156508 -0.56828004 0.00082283007
0.046627436 0.043909684 -0.0082111582 -0.40491992 0.72074872 -0.56263769 0.0014026923
0.048280627 0.044682108 -0.0084359394 -0.39474574 0.70033866 -0.59472805 0.001998232
0.068538591 0.043401703 -0.0084960256 0.70969957 0.02267495 -0.70413941 0.0027398232
0.069996446 0.043357655 -0.0069628437 0.76189059 -0.018771352 -0.6474337 0.0026997162
-0.066683933 0.047235344 -0.0089518726 -0.41451669 0.14348774 -0.89865857 0.0058473237
-0.046303388 0.047200866 -0.008217751 0.35429502 0.73879391 -0.57328755 0.0025596097
-0.043708976 0.046385743 -0.0074823298 0.38418338 0.78236127 -0.49021828 0.0015312333
-0.041287508 0.045596655 -0.0067614694 0.41580594 0.78385854 -0.46116275 0.001647589
0.046760198 0.045226041 -0.0064023938 -0.42065287 0.72649097 -0.54338032 0.0004191245
0.049589418 0.045905661 -0.007795868 -0.40196016 0.70960808 -0.5786919 0.0011916041
0.052344963 0.047200006 -0.008132007 -0.37383345 0.68092728 -0.62975115 0.0025838015
0.068288244 0.04643257 -0.0084024919 0.57101518 0.11815241 -0.81239259 0.0038174714
0.069950812 0.04631966 -0.0068957997 0.70698237 0.070799865 -0.70367843 0.0037394704
-0.07002338 0.05003386 -0.0066163177 -0.42884597 0.17318694 -0.8866213 0.002296001
-0.066923223 0.049622599 -0.0085566044 -0.37283012 0.23340757 -0.89806384 0.0059282202
-0.065181062 0.050613564 -0.0089117205 -0.24073936 0.28540194 -0.92768008 0.0043889205
-0.05748051 0.05090921 -0.0089692501 0.10059808 0.66963601 -0.73584485 0.0032725902
-0.05524759 0.05065902 -0.0086780004 0.20255862 0.65997016 -0.72347039 0.0020987703
-0.05223595 0.050224196 -0.0078603663 0.30739164 0.73929495 -0.59912723 0.0029921767
-0.04956812 0.049239792 -0.0075908303 0.34532884 0.76177102 -0.54813588 0.0022784362
-0.046978951 0.048428953 -0.0069516362 0.38983229 0.76888788 -0.50679606 0.0016232342
0.052970283 0.048510231 -0.0070241047 -0.4114334 0.70420015 -0.57864034 0.00042750739
0.055561945 0.049303368 -0.0077220276 -0.34360406 0.67648643 -0.65138501 0.0018529411
0.058464359 0.050011493 -0.0083305957 -0.28304821 0.64533031 -0.7095297 0.0043754983
0.061364103 0.050622538 -0.008622041 -0.10869454 0.53424156 -0.83831465 0.0037100506
0.064746596 0.050397154 -0.008827745 0.099379726 0.43003842 -0.89732414 0.0067265122
0.067668244 0.049495164 -0.008128304 0.46395451 0.20223375 -0.86246604 0.0061613941
0.069734231 0.049303953 -0.0067153429 0.69033903 0.12529154 -0.71255457 0.0059488546
-0.070031963 0.052691404 -0.0064898939 -0.36395893 0.22193713 -0.90458709 0.0098327063
-0.067383029 0.052702006 -0.0075603584 -0.26616052 0.30652195 -0.91389436 0.012247953
-0.064458519 0.052592106 -0.0080527524 -0.095512539 0.49396756 -0.86421835 0.0096409209
-0.061450124 0.052708618 -0.0079000322 0.064733371 0.58185399 -0.81071305 0.0052684597
-0.05849424 0.052510109 -0.007546036 0.17409576 0.71793276 -0.67399049 0.002231264
-0.055570737 0.052076794 -0.0071753138 0.25623474 0.77818942 -0.57338023 0.0018024726
-0.053119458 0.051571257 -0.006696587 0.3399291 0.76239926 -0.55063188 0.001694418
0.056534659 0.051167585 -0.0062301159 -0.36101618 0.66723216 -0.6515125 0.0018217352
0.058948155 0.051690318 -0.0070002112 -0.33905923 0.63899374 -0.69045341 0.0017636155
0.061683167 0.052443437 -0.0073992698 -0.21320038 0.57737368 -0.78815299 0.006095985
0.064550757 0.052550066 -0.0078012012 -0.039715838 0.48201609 -0.87526172 0.0034797054
0.067555077 0.052451022 -0.007324351 0.3480438 0.29108223 -0.89114338 0.014040129
0.069541693 0.05219689 -0.0063619041 0.6105693 0.16082121 -0.77546215 0.0074397372
-0.069688365 0.055078041 -0.0062092347 -0.30581138 0.34075341 -0.88902563 0.019656757
-0.06748981 0.055274963 -0.0065216101 -0.091160439 0.44028056 -0.89322048 0.0095552877
-0.064689294 0.054966934 -0.0065751518 0.097184263 0.58297098 -0.80665976 0.0087786354
-0.061810602 0.054422516 -0.0064465301 0.18086934 0.68871635 -0.70210826 0.0055331658
-0.059860043 0.054222956 -0.0060269278 0.25894341 0.75581193 -0.60141224 0.0033921171
0.062123239 0.054257534 -0.0061623151 -0.3001864 0.59189391 -0.7480306 0.0035399268
0.064794175 0.054941561 -0.006486279 -0.17762986 0.4842363 -0.85671633 0.012571182
0.067499518 0.055202238 -0.0064228084 0.16846551 0.3250809 -0.93055993 0.015623716
0.069190681 0.054623377 -0.0061130468 0.49786991 0.21793717 -0.83942187 0.0083919019
-0.010410684 0.0024573721 -0.0047656414 -0.15410952 -0.88024795 -0.44879156 0.0025284579
-0.0077476143 0.0022521038 -0.0051741255 -0.12879328 -0.89870983 -0.41920513 0.0014037222
-0.0045656832 0.0016838996 -0.0049230531 -0.088416226 -0.89526618 -0.43667036 0.00099076692
-0.0015449265 0.0013805663 -0.0046672886 -0.052694932 -0.90904772 -0.41334671 0.0012496514
0.001377825 0.0013962806 -0.0050594928 -0.044112474 -0.91056889 -0.41099674 0.00098880625
0.0046366146 0.0010404116 -0.0043246681 0.0008716071 -0.90392017 -0.42770046 0.0011573073
0.0074995407 0.0010961612 -0.0041388543 0.028326914 -0.91364205 -0.40553147 0.00088581291
0.010432727 0.0012457258 -0.0041859159 0.081618153 -0.92792076 -0.36373293 0.001617601
0.013502121 0.0017193999 -0.0047073546 0.10936362 -0.92967916 -0.35176182 0.0015394263
0.016326485 0.0019945437 -0.0044664601 0.11559868 -0.94233704 -0.31406674 0.0017192855
0.019643422 0.0025272369 -0.0045733536 0.17416416 -0.93606037 -0.30570891 0.0015038888
0.022252647 0.0028932004 -0.0040076342 0.18880357 -0.93511182 -0.29986492 0.0018930312
-0.021632023 0.005699126 -0.0052666739 -0.28788996 -0.82716477 -0.48261559 0.00059948006
-0.019162823 0.0050547961 -0.0057120598 -0.24756749 -0.8261615 -0.50612986 0.0012233682
-0.016463872 0.004145192 -0.0053410837 -0.2406961 -0.85044265 -0.46777421 0.00029292205
-0.014187204 0.0034834594 -0.0052538877 -0.20621836 -0.85083365 -0.48327619 0.0003969883
-0.011591669 0.0031156167 -0.0058935951 -0.16533838 -0.88062632 -0.44402769 0.0022943993
0.023006126 0.0034480018 -0.0053007049 0.20355943 -0.92732859 -0.31404644 0.0018460522
0.025603641 0.0038176354 -0.0046512573 0.23587576 -0.92727339 -0.29073468 0.0016682382
0.028524943 0.0045746621 -0.0044604493 0.25327894 -0.92266601 -0.29075286 0.0017681306
0.031341232 0.0053980993 -0.0044431328 0.27287611 -0.91643453 -0.29272258 0.0024476412
0.033176742 0.0055897739 -0.0031980968 0.32359704 -0.93586469 -0.13943531 0.0019919095
-0.029635565 0.0089669172 -0.0055895271 -0.31493732 -0.7847634 -0.53381735 0.00087433663
-0.026247116 0.0075572692 -0.0054881298 -0.30685958 -0.80056328 -0.51471901 0.00081243622
0.032650761 0.0061259465 -0.0055048955 0.29922441 -0.90896183 -0.29026386 0.0021130221
0.034613892 0.0065627526 -0.0045426283 0.35151264 -0.89851373 -0.26289156 0.0014952684
0.037573427 0.0077027325 -0.0045995205 0.34797257 -0.89451826 -0.2806282 0.0017144998
0.039876506 0.008459039 -0.0040203044 0.38846421 -0.88628703 -0.2521722 0.0019866186
0.041177299 0.0093476949 -0.0048546917 0.4010618 -0.87254399 -0.27895594 0.0014813611
0.04355339 0.010353464 -0.0045105992 0.43665251 -0.8543672 -0.28176472 0.0012801216
0.046115637 0.011593608 -0.0043670889 0.4477323 -0.84943581 -0.27927515 0.0016525864
0.047205295 0.012520666 -0.005220558 0.46143723 -0.83633864 -0.29599565 0.0014929173
0.049425222 0.013551373 -0.004511788 0.49777505 -0.81493962 -0.29680535 0.0017101502
0.051520403 0.014628491 -0.0040805456 0.5096975 -0.81027412 -0.28924766 0.001721431
0.052843161 0.015800182 -0.0047480799 0.52044034 -0.7998293 -0.2990233 0.0014893624
0.055121098 0.017213898 -0.0042613153 0.55718434 -0.77899164 -0.28760666 0.0016512144
0.056227546 0.018407578 -0.0052985502 0.56512791 -0.76290011 -0.31402841 0.0023179853
0.058389794 0.019709846 -0.0042630956 0.61358052 -0.74130791 -0.2719954 0.0010827852
0.060205363 0.020688714 -0.0030443575 0.65546185 -0.73158592 -0.18748838 0.0021287615
0.059652597 0.021301458 -0.0051821866 0.63873136 -0.69849509 -0.32268706 0.0025953674
0.061459921 0.022628335 -0.0044924924 0.67410541 -0.67903697 -0.2906729 0.0016306323
0.063157678 0.023809746 -0.003449989 0.70134282 -0.64265156 -0.30841067 0.0019064614
0.062767595 0.024372697 -0.0053727641 0.68917572 -0.63181853 -0.35474247 0.0019320536
0.064315766 0.025693819 -0.0044666743 0.72849154 -0.60441577 -0.32246175 0.0023971985
0.065572001 0.027741391 -0.0051396037 0.76160914 -0.55683148 -0.33149713 0.0020310555
0.066826411 0.029012738 -0.004320276 0.78835452 -0.50720149 -0.34820083 0.002570749
-0.0073731076 0.032920077 -0.0053519504 0.18567458 0.919999 -0.34514734 0.0022160828
-0.0044248006 0.032725699 -0.004716286 0.12776886 0.9273746 -0.35164112 0.0020408474
-0.0015416744 0.032357242 -0.0047274097 0.088369466 0.94236094 -0.32271782 0.0028611133
0.0015405228 0.032213632 -0.0045153662 0.031688277 0.94406086 -0.32824516 0.0031904974
0.0045586871 0.032200865 -0.0043170927 -0.0024132966 0.94881195 -0.31583226 0.0025866118
0.0074692722 0.032187168 -0.0043895482 -0.012025759 0.94980872 -0.31259993 0.0033737947
0.0106064 0.032250132 -0.0047573741 -0.1319278 0.91867441 -0.37233356 0.0031088174
0.013459736 0.03252887 -0.0048765889 -0.15974604 0.89432615 -0.41792583 0.0016596254
0.016404171 0.032846726 -0.00539567 -0.20429607 0.87062317 -0.44752476 0.0014636767
0.068133764 0.031530675 -0.004688831 0.82170397 -0.4155488 -0.39002785 0.0032186164
0.06922508 0.032705892 -0.00360188 0.83860624 -0.41514251 -0.35269856 0.0021895934
-0.018332457 0.035512567 -0.0058721602 0.30672592 0.84516239 -0.43774381 0.00078935461
-0.016223243 0.035339434 -0.004873143 0.28085986 0.90125287 -0.32994077 0.0023982394
-0.013526451 0.034613159 -0.0046897843 0.27948749 0.89608884 -0.34483552 0.0028751411
-0.01054456 0.033853736 -0.0046196827 0.20370904 0.92940331 -0.30775353 0.0024035587
-0.0075541041 0.033541471 -0.0038794053 0.15914384 0.94197607 -0.29555774 0.0037661116
0.016531132 0.033445425 -0.0038935982 -0.1885584 0.88364226 -0.42851144 0.0010074619
0.019587416 0.033768956 -0.0050017135 -0.23434712 0.87953669 -0.41412136 0.00038331957
0.022619503 0.034777809 -0.0046061277 -0.24223486 0.88144976 -0.40542394 0.00040564404
0.025402494 0.035591412 -0.0045620445 -0.23992658 0.88046193 -0.40892792 0.00074957754
0.068746418 0.033707161 -0.0055872221 0.80629635 -0.32027516 -0.49730289 0.0013643353
0.069686674 0.03462017 -0.0044286512 0.8565796 -0.34301022 -0.38550663 0.0034947363
-0.02490839 0.038381118 -0.0050788363 0.3727642 0.87154329 -0.31852636 0.0021635918
-0.022518998 0.037585169 -0.004585329 0.36956179 0.8672868 -0.33352304 0.0027499325
-0.019478805 0.036469597 -0.0044728015 0.2990272 0.90413141 -0.30517051 0.002913953
-0.017146248 0.036018286 -0.0038822033 0.27579671 0.91443306 -0.29622343 0.0023202754
0.02671854 0.036045164 -0.0043447712 -0.28567392 0.87222689 -0.3970021 0.00094042456
0.027138246 0.03651721 -0.0033837382 -0.2821821 0.88342565 -0.37407523 0.00042813388
0.031836912 0.037354846 -0.0055848444 -0.35254222 0.81284642 -0.46367535 0.0010859561
0.070530787 0.037321605 -0.0045813639 0.86569607 -0.23333673 -0.44285935 0.0023170828
-0.031266667 0.04131978 -0.0048171273 0.41933227 0.85539937 -0.30405965 0.0024048695
-0.02850545 0.040066101 -0.0046295496 0.37745374 0.87565261 -0.3012659 0.0024007002
-0.026053496 0.039281894 -0.0040044971 0.36218479 0.88025498 -0.30655074 0.0022662065
0.07123512 0.040359225 -0.0045790146 0.89485097 -0.15867393 -0.41721004 0.0035761851
-0.037299987 0.044438105 -0.004637579 0.44267243 0.84185356 -0.30874544 0.0025357727
-0.034514036 0.043065947 -0.0045189788 0.41389182 0.85753739 -0.30548859 0.0021555882
-0.032353781 0.04224211 -0.0038842957 0.41046807 0.85920954 -0.30540943 0.0022857941
0.044169217 0.043953277 -0.0059399791 -0.42659327 0.72453678 -0.54135436 0.00037610452
0.071436562 0.043312147 -0.0048961379 0.88550866 -0.076454341 -0.45828938 0.0042933854
0.072218172 0.043551788 -0.0033611963 0.91104001 -0.080729537 -0.40433773 0.0027903123
-0.042751286 0.047255561 -0.0049882592 0.47057679 0.80972701 -0.35057035 0.0025807186
-0.040463623 0.046239235 -0.0044153072 0.45442143 0.8265354 -0.33217514 0.0025278379
-0.038492642 0.045419578 -0.0037990082 0.43438897 0.84502238 -0.3118389 0.0023816661
0.046893295 0.045688223 -0.005832681 -0.42065287 0.72649097 -0.54338032 0.0004191245
0.049651477 0.047641266 -0.0054265996 -0.41444826 0.70997202 -0.56936127 0.00071549794
0.071451835 0.046409376 -0.004918999 0.85469049 0.020015867 -0.5187518 0.0037947367
0.072281383 0.046399802 -0.0033915893 0.89430946 -0.01386858 -0.44723397 0.0036488858
-0.048964474 0.050532296 -0.0050912821 0.41771466 0.819332 -0.39269519 0.0032479505
-0.046507038 0.049481899 -0.0045569609 0.44341707 0.81369752 -0.37586924 0.0028192189
-0.044108689 0.048367172 -0.0040937765 0.44959724 0.83258939 -0.32350767 0.0017141768
0.052335471 0.049347945 -0.0053258799 -0.41142738 0.70418483 -0.57866335 0.00043571208
0.054850675 0.050817095 -0.005399846 -0.3760637 0.70044798 -0.60658777 0.00073905359
0.071281575 0.049402542 -0.0049862289 0.82013518 0.05241406 -0.56976402 0.0043418016
0.072286375 0.049430054 -0.0033991004 0.86372 0.0052550621 -0.50394469 0.0044048098
-0.073342934 0.053408697 -0.0043102629 -0.37656233 0.16159512 -0.91218853 0.0064510526
-0.05737444 0.053623099 -0.0058674095 0.28368616 0.8036027 -0.52320635 0.0057229828
-0.055102803 0.053394433 -0.0049333009 0.30172208 0.85246223 -0.42693338 0.0055620149
-0.052445065 0.05243938 -0.0047299424 0.35729614 0.84035635 -0.40760344 0.0029621101
-0.050240599 0.051665302 -0.0040595313 0.41646516 0.82165784 -0.38914669 0.0032391488
0.055853005 0.051451098 -0.0052827569 -0.38186875 0.68658811 -0.61868656 0.00075351127
0.058208365 0.052851502 -0.005224973 -0.36576447 0.65913218 -0.6570853 0.00064194837
0.07105796 0.052485596 -0.0049402681 0.76764488 0.077812262 -0.63613409 0.0048355325
0.072275095 0.052461863 -0.0033821445 0.82214379 0.031805016 -0.56839085 0.0049385098
-0.072566397 0.055491999 -0.0050161914 -0.2606003 0.29957488 -0.91779214 0.022082718
-0.070667215 0.055997357 -0.0056731957 -0.26046294 0.29947031 -0.91786522 0.022112558
-0.067386068 0.056602132 -0.0058213039 0.037873551 0.50147086 -0.86434525 0.0067164977
-0.064278618 0.056183923 -0.005547998 0.20476636 0.61857498 -0.75857478 0.0045498842
-0.061450005 0.055781789 -0.0047053061 0.2913602 0.76675773 -0.57200688 0.0065083113
-0.058604505 0.054821569 -0.0045447042 0.27010268 0.81756353 -0.50856113 0.0030899274
-0.056061655 0.054265719 -0.0038872671 0.31855598 0.86031175 -0.39797714 0.0027378446
0.05992673 0.054183647 -0.0049377545 -0.36477837 0.63807309 -0.67808509 0.00064054655
0.061498102 0.055248205 -0.0047519188 -0.35287747 0.60500109 -0.71375847 0.0021123092
0.064347602 0.056242406 -0.0055171563 -0.24883601 0.51423973 -0.82075465 0.0072446293
0.067965269 0.056712463 -0.0058460915 0.069003329 0.38712019 -0.91944361 0.016531415
0.070639692 0.055493888 -0.004921515 0.56734854 0.11912615 -0.81481564 0.0097610597
0.072221912 0.055498928 -0.0033022338 0.76706505 0.035229538 -0.64060122 0.0058693127
-0.073353805 0.057419635 -0.0043004132 -0.26052484 0.2994397 -0.91785765 0.022104086
-0.070233688 0.058345396 -0.0048173158 -0.10404976 0.61697602 -0.78007323 0.012832844
-0.067471012 0.0585315 -0.004429847 0.1249034 0.65457958 -0.74560356 0.014261064
-0.064622506 0.057761826 -0.004152718 0.32374945 0.7060976 -0.62977171 0.0076946095
-0.062515125 0.057180591 -0.0035348614 0.37130323 0.72989416 -0.57392371 0.0056834668
0.062948927 0.057183612 -0.0039154831 -0.3565169 0.52643937 -0.77185315 0.0040501687
0.064871483 0.05814204 -0.004515585 -0.32651561 0.4158968 -0.84877408 0.012837156
0.067629829 0.058545776 -0.0052485932 0.02874399 0.32349816 -0.94579208 0.01971578
0.070526324 0.058503184 -0.0045342515 0.46840283 0.1240653 -0.87476093 0.024926947
0.072193809 0.058533963 -0.0032600039 0.84554839 -0.0021192138 -0.53389454 0.021455565
0.065615222 0.060800821 -0.003560306 -0.31118491 0.29092783 -0.9047237 0.013532248
0.067618541 0.061423723 -0.0043353019 -0.22568069 0.23427553 -0.94561261 0.023518501
0.070529953 0.061593018 -0.0042546615 0.34351695 0.079334483 -0.93578959 0.023984207
0.072251156 0.061557543 -0.0033462679 0.76948655 -0.037698377 -0.6375494 0.018513398
0.067980498 0.064346291 -0.0038447306 -0.28849137 0.1235144 -0.94948244 0.012054259
0.070649326 0.064570986 -0.004064844 0.10844307 -0.0031466421 -0.99409771 0.044128731
0.072418928 0.064723529 -0.0033400513 0.41458279 -0.069285117 -0.90737015 0.027861007
0.068239793 0.067229055 -0.0036157684 -0.35417554 0.041848909 -0.93424213 0.005502352
0.070730649 0.067551404 -0.0041398071 0.049311031 -0.04461503 -0.99778646 0.038845699
0.072888516 0.06766092 -0.003502215 0.54380077 -0.1129435 -0.83157957 0.018554015
0.068395436 0.069817826 -0.0034040543 -0.17561722 -0.024880158 -0.98414409 0.021226544
0.070484832 0.0705304 -0.004188179 -0.16847831 -0.020338014 -0.98549551 0.018845139
0.073269218 0.070628889 -0.0037990834 0.39305535 -0.17367962 -0.9029634 0.02246134
0.070504449 0.073451973 -0.0043623624 -0.22572063 -0.055142544 -0.9726302 0.013680575
0.073562413 0.073470332 -0.0044222563 0.40914616 0.076188624 -0.90928251 0.08548864
0.075479612 0.073841833 -0.0035098151 0.73278147 -0.0011714404 -0.68046302 0.080858313
0.068805411 0.075900674 -0.0032380812 -0.45061013 0.68252516 -0.57542145 0.13396215
0.070671439 0.07577341 -0.0044063008 -0.041638888 0.55674803 -0.82963717 0.10168789
0.073307328 0.075493202 -0.0044973851 0.17196122 0.74930227 -0.63951188 0.048759058
0.075320229 0.075184502 -0.0033282542 0.72941744 0.48420352 -0.48321533 0.10074875
-0.0094817365 0.001568783 -0.0023855839 -0.13439967 -0.90964717 -0.39303777 0.0010770534
-0.0031152982 0.00087022217 -0.0028981746 -0.062909104 -0.91441083 -0.39986917 0.00092276913
0.0022002128 0.00059520447 -0.0027055433 -0.024645349 -0.9186995 -0.39418748 0.00079039379
0.013858498 0.0010263274 -0.0016075489 0.10932022 -0.94884306 -0.29621965 0.00082260056
0.017743055 0.0017239655 -0.0029524078 0.15822807 -0.96576947 -0.20555586 0.0023968008
0.018874913 0.0017122907 -0.001728949 0.15980867 -0.96598184 -0.20332326 0.002508038
0.022043029 0.0023781841 -0.0017328336 0.20213774 -0.96592063 -0.1616718 0.00095551636
0.02443265 0.0028643962 -0.0014958924 0.24665229 -0.95392841 -0.17083122 0.0011090604
0.026705483 0.003430638 -0.0017216383 0.25811577 -0.95417017 -0.15144455 0.00062064949
0.028314367 0.0038596001 -0.0012524683 0.27222779 -0.95110148 -0.14593846 0.00072024949
0.031240925 0.0047530895 -0.0014712742 0.29678154 -0.94793022 -0.11553807 0.0014364462
0.033687215 0.005526117 -0.0012270018 0.34078741 -0.93488431 -0.099273756 0.0021901457
0.034987085 0.0060408553 -0.001402017 0.35554081 -0.93120563 -0.080291823 0.0014593183
0.037367806 0.006984151 -0.0017207901 0.35786757 -0.92789018 -0.10464515 0.0015332976
0.040290058 0.0081311623 -0.0012108984 0.39090031 -0.91388261 -0.10961502 0.0017686556
0.042319342 0.0089990385 -0.00046275486 0.42743078 -0.89660537 -0.11576553 0.0026777668
0.041933946 0.0090637822 -0.0025997744 0.42747432 -0.89658427 -0.11576851 0.0026735268
0.043420952 0.0096382741 -0.0014940879 0.42241588 -0.89915293 -0.11440609 0.0024085711
0.04651105 0.011203504 -0.0015456767 0.46245861 -0.87670451 -0.1323676 0.0014227849
0.049600858 0.012973345 -0.0015953669 0.50175011 -0.85574174 -0.12630485 0.0015694149
0.051958676 0.014333979 -0.0012721657 0.53640139 -0.84009403 -0.080718547 0.0028582381
0.053436607 0.015406142 -0.0017446429 0.5552991 -0.82542145 -0.10159843 0.00189369
0.055549655 0.016839754 -0.0014833789 0.55431402 -0.82277328 -0.12561934 0.002216859
0.057163388 0.017951338 -0.0014026602 0.58617967 -0.79914701 -0.13325731 0.002199261
0.058787264 0.019267147 -0.0015468727 0.62771851 -0.77148592 -0.10382231 0.0011695018
0.06039127 0.020575587 -0.0013112896 0.66745549 -0.73166114 -0.13847391 0.0042146742
0.061818447 0.021976383 -0.0016441719 0.70222431 -0.70477641 -0.10085203 0.0019615253
0.063381083 0.023510637 -0.00139106 0.72702253 -0.67336774 -0.13421641 0.003461384
0.064973332 0.025358887 -0.0015670492 0.76987106 -0.62256384 -0.14040212 0.0029873631
0.066217363 0.026887234 -0.001351651 0.7953459 -0.58858967 -0.14486918 0.0030357079
0.067426495 0.028642975 -0.0015283725 0.82478565 -0.55004758 -0.13105863 0.0030879336
-0.00090829638 0.032963313 -0.0024616453 0.065389626 0.96247739 -0.26336551 0.0045079626
0.0015452988 0.032957625 -0.0012166566 0.057496384 0.97341216 -0.22172716 0.00053230068
0.0045561134 0.032944489 -0.00063281425 0.013970354 0.95538867 -0.29502085 0.0021904067
0.0071462239 0.032929506 -0.00069471501 -0.03402127 0.96031833 -0.27682346 0.0029245645
0.0098669622 0.03290537 -0.0020465162 -0.067077316 0.94473851 -0.32088876 0.0027011649
0.068702914 0.030719901 -0.0015988654 0.85375112 -0.50496835 -0.12694906 0.0031023205
0.069448605 0.032039724 -0.0014781584 0.88911545 -0.43762836 -0.13399681 0.0039424221
-0.013320952 0.035286583 -0.0016936138 0.26719037 0.95140082 -0.15311989 0.0012135087
-0.010552885 0.034614053 -0.0012832901 0.19034314 0.96267283 -0.1924333 0.0021961562
-0.0076086754 0.033988465 -0.0015303107 0.17550412 0.96705288 -0.18441024 0.0011672792
-0.0044613467 0.033476245 -0.0017491049 0.13996105 0.97516119 -0.17167252 0.0013164205
-0.0028703997 0.033477314 -0.00023128459 0.11008556 0.97631729 -0.18624069 0.0014373234
0.070482589 0.034348007 -0.0015591225 0.92726016 -0.34727514 -0.13995889 0.0029879028
-0.02236983 0.038215462 -0.0016369949 0.36666045 0.9197284 -0.14021362 0.001197066
-0.019668309 0.037206646 -0.0014083221 0.29552963 0.95076174 -0.093350738 0.0027056211
-0.01652234 0.036266722 -0.0014055289 0.28958684 0.94572586 -0.14745232 0.0010349366
0.071499474 0.037266567 -0.0015893516 0.93073308 -0.33132553 -0.15478794 0.0032012691
0.072058544 0.038658068 -0.00071739097 0.96779144 -0.21738501 -0.12697867 0.010540217
-0.030467428 0.041751966 -0.0014707077 0.46096033 0.8798157 -0.11593107 0.0019208799
-0.028498996 0.040775992 -0.0016442217 0.4050405 0.90577179 -0.12457827 0.0019327051
-0.025544137 0.039577879 -0.0013131138 0.38710493 0.91150653 -0.13894477 0.0011671351
0.071882427 0.039386343 -0.0025976624 0.9587459 -0.19230364 -0.20934549 0.0039281202
0.072311237 0.040538259 -0.0014374922 0.97805285 -0.14371334 -0.15086098 0.0036392075
-0.036662627 0.04493231 -0.0012986605 0.48240596 0.86578667 -0.13303344 0.0015988426
-0.034607753 0.043864522 -0.0014559701 0.46064773 0.87750256 -0.13338999 0.0014819755
-0.032069888 0.042564619 -0.0015032628 0.43922225 0.89075047 -0.11682196 0.0020831539
0.072689265 0.043410577 -0.0015031938 0.98571324 -0.079767615 -0.14834608 0.0039737266
-0.04057968 0.047069844 -0.001458886 0.46750244 0.8737815 -0.13396728 0.0018129896
-0.038221136 0.045728825 -0.0015357997 0.45510212 0.88045126 -0.13299493 0.0017780163
0.07283511 0.046445809 -0.001500919 0.9846136 -0.03408505 -0.17138888 0.0053127799
-0.046365242 0.050318915 -0.0015023001 0.46396828 0.87539649 -0.13570005 0.0030208051
-0.04345664 0.048687771 -0.001484992 0.48490191 0.86175174 -0.14917777 0.0016310653
0.072916709 0.049477126 -0.0016246971 0.97714186 -0.033060536 -0.21000171 0.0074660811
-0.05204764 0.053349193 -0.0016143122 0.419696 0.88512588 -0.20101617 0.0032104265
-0.049324222 0.0519302 -0.0015533041 0.47433111 0.86703134 -0.15253404 0.0038632827
0.07298173 0.05250797 -0.0017233755 0.96579629 -0.013911884 -0.25892842 0.009747454
-0.060300037 0.056473531 -0.0027401163 0.41914779 0.82919282 -0.36980328 0.013300183
-0.058658276 0.056001883 -0.0018216707 0.38810861 0.88454604 -0.25874701 0.0054859007
-0.05560188 0.054769468 -0.001801113 0.34418881 0.91119385 -0.22640638 0.0025944472
-0.053813979 0.054215971 -0.00098868203 0.38285524 0.89868301 -0.21398765 0.0023130677
0.073094696 0.055550825 -0.0015034397 0.94468403 -0.017978124 -0.32748866 0.014972506
-0.066522643 0.05989131 -0.0026714613 0.25038078 0.86158741 -0.44156149 0.028876914
-0.064411163 0.05929146 -0.0016696478 0.48640022 0.82290912 -0.29365852 0.0065597193
-0.061812207 0.057721727 -0.0015370682 0.45965233 0.83839309 -0.29294494 0.0066974261
0.064208113 0.05982751 -0.002665438 -0.37206358 0.3799645 -0.84687406 0.0075779306
0.073175825 0.0585774 -0.0016268952 0.91374493 -0.082160838 -0.39789414 0.019183382
-0.067078687 0.06047048 -0.0021541079 0.25046006 0.86153537 -0.4416182 0.028915871
