# .PCD v0.7 - Point Cloud Data file format
VERSION 0.7
FIELDS x y z normal_x normal_y normal_z curvature
SIZE 4 4 4 4 4 4 4
TYPE F F F F F F F
COUNT 1 1 1 1 1 1 1
WIDTH 573
HEIGHT 1
VIEWPOINT 0 0 0 1 0 0 0
POINTS 573
DATA ascii
-0.013759965 0.03362013 0.0071763024 0.23507175 0.86327893 0.44664395 0.0014362743
-0.011292601 0.03318768 0.0067280009 0.20094679 0.87328589 0.44383788 0.0012456804
0.020878278 0.033070371 0.0076360013 -0.21628051 0.78722328 0.57749653 0.00040886542
0.022574529 0.033796381 0.0070314934 -0.22578529 0.77575564 0.5892573 0.00052346138
0.0255464 0.033902887 0.0083597982 -0.23997408 0.76175147 0.60178661 0.00058562704
0.027274126 0.034213614 0.0086564487 -0.25204247 0.73111784 0.63398838 0.0015716627
0.065857418 0.033164546 0.0088695697 0.64660603 -0.33838516 0.68366373 0.0026409009
0.067548245 0.034509014 0.0076073753 0.76209044 -0.29195395 0.5779109 0.0019856005
0.069080532 0.035508022 0.0060452716 0.7938301 -0.32433426 0.51443279 0.0025203719
-0.028002443 0.038453754 0.0078247404 0.36287734 0.80958015 0.46141094 0.0015313359
-0.025567513 0.037528917 0.0075529409 0.34106714 0.83286107 0.43590778 0.0016016188
-0.022747427 0.036551412 0.0071952306 0.33013895 0.84109199 0.42845377 0.0010343306
-0.020823667 0.036166128 0.0063795899 0.30393571 0.85942632 0.4111076 0.00085940404
0.068195641 0.037228845 0.0080260299 0.76168597 -0.20238689 0.61552739 0.0022597548
0.069371864 0.037703667 0.0066813682 0.80382854 -0.22545666 0.55048078 0.0024807879
-0.036384914 0.041842755 0.0089469803 0.37206346 0.74984807 0.54708022 0.0014054499
-0.034211461 0.041418865 0.0078109172 0.41667747 0.80810362 0.41635123 0.0010063133
-0.031371959 0.040155981 0.0075222226 0.38059247 0.81938171 0.42867583 0.0013329603
-0.029085945 0.039308697 0.0070167989 0.36389494 0.82259285 0.43694562 0.0010048186
0.068545148 0.040296249 0.00844118 0.68428099 -0.11204849 0.72055858 0.002072084
0.069826171 0.040579904 0.0069452473 0.80050039 -0.13321497 0.58433974 0.0022934186
-0.042347316 0.044751626 0.0089497538 0.38713506 0.7285952 0.5650447 0.0021886819
-0.040208276 0.044449694 0.0078043737 0.3895753 0.78379041 0.48363575 0.0020492277
-0.037529208 0.043287169 0.0074441973 0.38398078 0.81444257 0.43501961 0.0011761246
-0.035007555 0.04238129 0.0067094727 0.40734538 0.81034046 0.42121038 0.0010579935
0.068533644 0.043449812 0.0087636942 0.64111161 -0.018375577 0.76722759 0.0034614038
0.069900565 0.043485962 0.007263483 0.7897383 -0.045711167 0.61173844 0.0026756867
-0.048335459 0.047735579 0.0089790309 0.30786738 0.71384627 0.62900013 0.001849657
-0.046211068 0.047453441 0.0079390211 0.36960751 0.76417297 0.5286113 0.0020747969
-0.043530356 0.04638854 0.0074704792 0.39588895 0.78750062 0.47235021 0.0015410057
-0.04124143 0.045534581 0.0068683173 0.43152851 0.78137302 0.4508208 0.001496471
0.068572693 0.046702191 0.008606487 0.58443403 0.083350442 0.80714905 0.0045514205
0.069946311 0.046392679 0.0072035925 0.7498908 0.041428573 0.66026318 0.0035422214
-0.054676816 0.050745573 0.0086744614 0.21913314 0.68904871 0.69079119 0.001457928
-0.052303828 0.05037237 0.0079558771 0.2993291 0.75559109 0.58265269 0.0023145659
-0.04949056 0.049414035 0.0074734017 0.3826423 0.77828634 0.49785057 0.00096979312
-0.046868481 0.048573829 0.0067895772 0.39995486 0.77953494 0.48203868 0.0016273754
0.055855192 0.04899409 0.0086581334 -0.22098441 0.55512488 0.80187416 0.00030693211
0.058580372 0.050244737 0.0086869737 -0.13000686 0.50335103 0.85424584 0.0027629388
0.065961011 0.050902784 0.0089943083 0.26895088 0.32930335 0.90511042 0.022628943
0.068033956 0.049733277 0.0084228646 0.50406063 0.16617103 0.84753168 0.0059662405
0.069902048 0.049434703 0.0069811414 0.68411183 0.095360398 0.72311646 0.0060243197
-0.06731014 0.052809447 0.0081152227 0.10793392 0.55571175 0.82433897 0.0022027427
-0.064407311 0.053013641 0.008261675 0.053512707 0.57249057 0.8181631 0.0033616212
-0.061270282 0.053056445 0.0079363286 0.10697775 0.61599088 0.78045553 0.0047881012
-0.05844973 0.052780483 0.0075478512 0.22182058 0.72835499 0.64830142 0.0035260303
-0.055626336 0.052101202 0.0074100825 0.24405639 0.76916713 0.5906086 0.0023204749
-0.052878276 0.051549517 0.0067208367 0.3436771 0.77518559 0.53006911 0.0022061749
-0.050875392 0.051078789 0.0060835746 0.35808125 0.77055037 0.52728546 0.0024817681
0.061761461 0.051709794 0.0085301278 -0.016476501 0.40547761 0.91395646 0.0056635337
0.064720832 0.052570391 0.0083714416 0.12120784 0.36822343 0.9218027 0.0071045952
0.067619212 0.052455995 0.0079006758 0.32168958 0.27387568 0.90637076 0.011622041
0.069803216 0.052431982 0.0066638188 0.67137206 0.1388979 0.72798836 0.0082148109
-0.069304168 0.056228518 0.0065355059 0.13015057 0.54607373 0.82756531 0.002768313
-0.067157656 0.055715278 0.0068072286 0.14986843 0.56425023 0.81188732 0.004496024
-0.064641207 0.055250585 0.006740958 0.14169604 0.60383117 0.78441709 0.0083678151
-0.061912537 0.054574627 0.0066237822 0.21104823 0.69502521 0.6873126 0.0049285204
-0.058741812 0.054005239 0.0061971652 0.25536802 0.76633888 0.58950138 0.0024102686
0.065018438 0.05514488 0.0069895824 0.13525487 0.38819647 0.91159731 0.0029976049
0.067830414 0.055423468 0.0068239514 0.26927543 0.33199552 0.90402979 0.010405345
0.069523796 0.054965492 0.0063022142 0.55125928 0.24128866 0.79868209 0.0093460092
-0.069883071 0.057262789 0.0060931342 0.12147089 0.57156354 0.81151706 0.0054084891
0.067596406 0.057357125 0.0061072842 0.2494726 0.30949482 0.9175927 0.010964612
0.0014308316 0.005761378 0.011836103 0.065761119 -0.59385723 0.80187845 0.0017168856
0.004479704 0.0048706061 0.010697792 0.042847313 -0.67066032 0.74052608 0.0031452642
0.0074647516 0.0047764736 0.010312222 0.067500547 -0.73771071 0.67173392 0.0015892319
0.011398562 0.005194582 0.010471834 0.092469208 -0.73718673 0.66933191 0.0018246248
0.01369077 0.0049351691 0.0097470544 0.11360806 -0.79599285 0.59454912 0.001204466
0.016422899 0.0054022991 0.0097415885 0.14684631 -0.74085313 0.65541804 0.00081698457
0.019241164 0.0057035005 0.0093634157 0.1559585 -0.74515295 0.6484012 0.00056197215
0.011770088 0.0063360338 0.011571147 0.070293628 -0.70566028 0.70505488 0.00079038378
0.014071894 0.0066094738 0.011504889 0.11300618 -0.64084679 0.7593056 0.0027115406
0.01627038 0.0066006016 0.011170172 0.12994786 -0.7193566 0.68237793 0.0014330336
0.019138774 0.0069967397 0.010922525 0.15901414 -0.6982705 0.69794893 0.0024766834
0.022499524 0.0075024446 0.010593286 0.17407869 -0.69948965 0.69311684 0.001100066
0.025555521 0.008142245 0.010407968 0.17948568 -0.69658905 0.69465727 0.00065082882
0.028665069 0.0082908543 0.009773613 0.1963686 -0.70330429 0.68322945 0.00058909878
0.031332489 0.0086636115 0.0094521046 0.20877932 -0.6989153 0.68405306 0.00078268262
0.033388622 0.0089603392 0.0091416435 0.25624627 -0.68931818 0.67762691 0.0020476824
0.026119109 0.009593945 0.011686767 0.17114733 -0.62876457 0.75852734 0.0022956161
0.028726855 0.0097737666 0.01110821 0.19261086 -0.66171014 0.72459698 0.00035863239
0.031410247 0.010510568 0.011018306 0.20024222 -0.62607604 0.75361258 0.00028021747
0.034486718 0.010534349 0.010247461 0.235274 -0.67341763 0.70082432 0.0012179072
0.037557192 0.011130057 0.0098416684 0.26618499 -0.65498143 0.70720923 0.0021293804
0.039850954 0.011703488 0.0094565703 0.3074097 -0.67976975 0.66589218 0.0018380167
0.03483025 0.012496289 0.011727104 0.21077953 -0.61142981 0.76270938 0.00033882764
0.037710167 0.012921896 0.011273107 0.22585623 -0.5830282 0.78042752 0.00068184378
0.040583871 0.013492776 0.01080267 0.2481391 -0.59164882 0.76705837 0.00060170738
0.043258168 0.013854537 0.010062271 0.34697145 -0.65059566 0.67552656 0.0025973099
0.045630001 0.014534811 0.0094825076 0.3815541 -0.67080581 0.63595283 0.0028973054
0.041766033 0.015194886 0.011779949 0.27469873 -0.5785588 0.76799113 0.001003415
0.043808635 0.015874786 0.01149694 0.2890754 -0.57651538 0.7642417 0.00079108018
0.04651295 0.016355447 0.010699303 0.34382093 -0.60728228 0.71623689 0.0030751815
0.049258638 0.017053962 0.0098984763 0.40334645 -0.63765854 0.65627974 0.0031931829
0.051041752 0.017519064 0.0092269331 0.45486376 -0.66883492 0.58801258 0.0016956435
0.047138892 0.018187959 0.011864733 0.3058928 -0.52305341 0.79551542 0.0012756558
0.049769022 0.019057283 0.011257459 0.36042681 -0.52788925 0.76904196 0.0011327179
0.05241105 0.019648222 0.010223364 0.4526003 -0.58397114 0.6738922 0.0027946241
0.054617688 0.02046633 0.0095794126 0.48319769 -0.57791001 0.65767771 0.0026676427
0.053112134 0.021857711 0.01154652 0.3800984 -0.47344896 0.7945888 0.0014011638
0.055444662 0.022447428 0.010502153 0.44274351 -0.4939242 0.74834281 0.00095904077
0.057739984 0.023280619 0.0096057989 0.52621609 -0.5608933 0.63913649 0.0021105823
0.056284156 0.024750048 0.011495051 0.44985038 -0.43821046 0.77820706 0.0026233743
0.058637504 0.025493652 0.010499552 0.47788563 -0.43997124 0.76029646 0.00088162551
0.060661685 0.026253592 0.0095354943 0.57919288 -0.49658456 0.64648223 0.0021036381
-0.010456987 0.029708326 0.011663666 0.17600952 0.74519187 0.64320278 0.0017257689
-0.0076991357 0.029353838 0.011363007 0.1460712 0.69171613 0.70724249 0.0013417494
-0.0045756972 0.029085983 0.011058309 0.11608052 0.76453477 0.63404411 0.0017123659
-0.0015767065 0.029015113 0.010664382 0.098424159 0.77553248 0.62358814 0.0013155829
0.0015101202 0.028711732 0.010696711 0.061488621 0.74886781 0.65986067 0.0030271453
0.0047404207 0.028714465 0.010555358 0.011677365 0.75883359 0.65117991 0.0025441647
0.007296111 0.028668603 0.010607445 -0.04203577 0.74504548 0.66568786 0.0025629885
0.010387921 0.028772015 0.010687367 -0.054674074 0.74340278 0.66660559 0.0030808358
0.013501278 0.029009633 0.010775503 -0.10964186 0.75065863 0.65152931 0.001043487
0.016242938 0.029149128 0.011221731 -0.14141339 0.66915584 0.72954279 0.0025058256
0.019274639 0.029468015 0.011516652 -0.16536246 0.70970607 0.68481576 0.0016702762
0.022100609 0.029757289 0.011877697 -0.18190044 0.6751616 0.7148909 0.0021633126
0.059199173 0.027969876 0.011550052 0.45911124 -0.35474187 0.8144784 0.0014741863
0.06146846 0.028576039 0.010294664 0.55505818 -0.42147198 0.71712738 0.0025277261
0.063376382 0.029616414 0.0093333777 0.6291151 -0.40041727 0.66624337 0.001316424
-0.019125611 0.032477096 0.01146365 0.25478557 0.69852895 0.66868657 0.0010889909
-0.0163373 0.032101959 0.010789992 0.23944129 0.77008528 0.59130079 0.0013652755
-0.013590026 0.031466406 0.010545217 0.21504007 0.78897923 0.57556021 0.001261805
-0.010581123 0.030926462 0.010282706 0.18984324 0.7716524 0.60705203 0.0016008629
-0.0076387804 0.030605955 0.009869325 0.15265615 0.78402412 0.60166615 0.0018318183
-0.0047243792 0.030308262 0.0096215094 0.11598912 0.79145241 0.60012466 0.0016644106
-0.0017171133 0.030136384 0.0093053356 0.08623907 0.78573394 0.61252344 0.0015496074
0.011349886 0.030088162 0.0091484496 -0.070641972 0.77249938 0.63107401 0.0012046011
0.014374871 0.030157851 0.0095613021 -0.096994713 0.76687497 0.63442481 0.0013065418
0.016666498 0.030647552 0.0094668847 -0.1598786 0.76213324 0.62736905 0.0013958971
0.019845808 0.030760551 0.010312661 -0.17276195 0.73484349 0.6558646 0.001664485
0.022980725 0.031253561 0.010696123 -0.21228316 0.71320236 0.66804063 0.002031469
0.025892887 0.031786267 0.011101134 -0.22280869 0.7140128 0.6637333 0.0010808069
0.028526202 0.03226668 0.011426612 -0.23555145 0.68579233 0.68862504 0.0013826329
0.031934027 0.032896601 0.011995231 -0.23239954 0.58383882 0.77789634 0.0019291027
0.061852835 0.031216215 0.011238364 0.50597948 -0.29575682 0.81025475 0.0010248893
0.064011157 0.031708427 0.0098668272 0.62165922 -0.34615606 0.70264912 0.0019936815
-0.027490025 0.035721056 0.01149069 0.3214972 0.71468991 0.62117451 0.0028821602
-0.025171051 0.035216313 0.01092343 0.30481008 0.75418568 0.58163112 0.0016208877
-0.022601884 0.034497719 0.010510026 0.28792402 0.75789714 0.58539867 0.0026736553
-0.019680988 0.033783861 0.010068944 0.27213976 0.77422547 0.57141471 0.0015739584
-0.016727982 0.033287551 0.0093771359 0.24771008 0.79443586 0.55453718 0.0013612815
0.025571344 0.033042271 0.0095651178 -0.24989748 0.73567915 0.62954539 0.0014369745
0.029281557 0.033718228 0.010231328 -0.24371807 0.69234431 0.67916191 0.0017290788
0.03167221 0.033720825 0.011127547 -0.25725612 0.64956939 0.7154572 0.0017991363
0.034377534 0.035084859 0.010868281 -0.23829913 0.58342642 0.7764194 0.001317104
0.062514231 0.033854607 0.011717191 0.50306463 -0.20841117 0.83874351 0.0032899217
0.064527944 0.034472827 0.01049123 0.5929336 -0.26111233 0.76174152 0.0022787265
0.066333726 0.035349362 0.0093188686 0.68123573 -0.2673119 0.68151474 0.0024754708
-0.033798561 0.038564231 0.011536982 0.32267174 0.6743598 0.66417009 0.0010023653
-0.031160681 0.037951462 0.010792124 0.33959737 0.75079083 0.56655699 0.0015974017
-0.028578956 0.037169531 0.010287484 0.3245562 0.76870418 0.55114168 0.0021931352
-0.02585257 0.036445819 0.0096603371 0.32437095 0.77410263 0.54364377 0.0014757765
0.040640246 0.037109654 0.011892322 -0.22807586 0.47519299 0.84980762 0.0004701789
0.042443641 0.037866186 0.011997785 -0.22125183 0.4611381 0.85930157 0.0013130408
0.064608224 0.037389807 0.011137516 0.5334515 -0.13524209 0.83494848 0.00092324469
0.066755228 0.037752964 0.0096397586 0.65810865 -0.17700735 0.73182052 0.0023494165
-0.040088873 0.041606467 0.011502279 0.32515106 0.68593425 0.65097702 0.0013032332
-0.037301678 0.040898059 0.01075586 0.3339341 0.73306626 0.59253848 0.001165453
-0.034621559 0.039980028 0.010296414 0.35774657 0.73349398 0.57793075 0.0016766617
-0.032265153 0.039502315 0.0094329696 0.36813012 0.76245648 0.53210926 0.0011070976
0.044795878 0.040000901 0.011366043 -0.23697171 0.47047397 0.84999919 0.0006870692
0.047001295 0.04081532 0.011613237 -0.23082469 0.47910681 0.84686279 0.00081003958
0.049137041 0.041612603 0.011843249 -0.2241105 0.46516007 0.85638809 0.00078186888
0.064980552 0.04051685 0.011244111 0.50103194 -0.035868187 0.86468518 0.0020275908
0.067118354 0.040550772 0.0097775431 0.62537777 -0.076891698 0.77652454 0.0034401603
-0.045985054 0.044546183 0.011311966 0.3014445 0.6675247 0.68083918 0.0016718974
-0.043152157 0.043665927 0.010792143 0.340076 0.70519179 0.62213576 0.0014522012
-0.040527746 0.042974226 0.010044646 0.35951775 0.73365009 0.57663214 0.0015900986
-0.038187511 0.042357847 0.0094280597 0.37348425 0.74804616 0.54857671 0.0013760143
0.049962208 0.042878792 0.011204764 -0.22085215 0.51102072 0.8307119 0.00065615354
0.052742936 0.043908842 0.011431191 -0.20945938 0.50180513 0.8392368 0.00080984592
0.055179704 0.044450596 0.011701857 -0.15908968 0.46169111 0.8726579 0.002527226
0.06230139 0.044421006 0.011856459 0.14226499 0.24091619 0.96006256 0.0058690449
0.064691842 0.043487307 0.0112466 0.42442569 0.085599899 0.90140754 0.0034155417
0.067250669 0.043554038 0.0098131141 0.57305151 0.030646453 0.81894606 0.0043442734
-0.06044833 0.0469529 0.011961486 -0.043392308 0.45449552 0.88969147 0.0013512261
-0.058191344 0.047750663 0.011684628 -0.0033871329 0.47878319 0.87792665 0.0038029652
-0.055312525 0.047543783 0.011582437 0.12921974 0.60061157 0.78902978 0.0017897661
-0.052340105 0.047120865 0.011240232 0.19855797 0.6014207 0.77386558 0.0012959057
-0.049339697 0.046586305 0.010698983 0.28008023 0.66400975 0.69328654 0.002467494
-0.046633542 0.046038508 0.010017933 0.33379823 0.70412791 0.62672371 0.0018678816
-0.044164237 0.045284174 0.009441941 0.37069574 0.72220564 0.58395517 0.0010058342
0.05282164 0.046012785 0.0098864017 -0.22010817 0.54042566 0.81209141 0.00057687756
0.055687368 0.04623206 0.010740104 -0.17889316 0.51232779 0.83995092 0.0021562118
0.058422353 0.046443541 0.01116761 -0.083698973 0.44307902 0.8925668 0.0062156515
0.061638914 0.046391834 0.011294683 0.082093351 0.35191011 0.93242687 0.0055374601
0.064630322 0.046483409 0.010711491 0.30850729 0.2472173 0.91853511 0.0086618196
0.067087613 0.046420716 0.0096828043 0.50690144 0.14067885 0.85044712 0.0055113197
-0.06318149 0.050384916 0.0098420605 -0.010559742 0.54377842 0.83916241 0.00072479824
-0.060947865 0.049489386 0.010534905 -0.0071245679 0.54621756 0.83761305 0.00068950263
-0.058265496 0.049716774 0.010408795 0.081114367 0.57263857 0.81578517 0.0030018117
-0.055556897 0.049485203 0.010119026 0.18298601 0.6551891 0.73296881 0.0020238163
-0.052847546 0.048887651 0.0098091094 0.27124581 0.67226171 0.68883234 0.0022692145
-0.050274886 0.048271973 0.0094545083 0.31753179 0.70163858 0.637869 0.0017840724
0.059049867 0.048875757 0.0098383101 -0.12998842 0.50332654 0.85426307 0.002773857
0.061637912 0.049367644 0.0099347038 -0.028501537 0.43835413 0.8983503 0.004401329
0.064617395 0.049362395 0.0098265279 0.15893391 0.33479825 0.92878956 0.0098275263
0.066722833 0.04893988 0.00933336 0.41230038 0.24536967 0.87738371 0.0068619694
-0.064403698 0.051325276 0.0092427945 0.01421735 0.58009166 0.81442708 0.0017159728
-0.061366383 0.051473726 0.0092652058 0.048709821 0.61954987 0.78344458 0.0022825631
-0.059114631 0.051354285 0.0091903191 0.095984787 0.6666258 0.7391867 0.0038596778
0.064137675 0.051203802 0.009102501 0.1316532 0.38438517 0.91373706 0.0070894938
-0.0073502823 0.0087857395 0.014193241 0.00086614373 -0.46590227 0.88483584 0.00078778644
-0.0043223887 0.0084110107 0.014010102 0.003126699 -0.4568615 0.88953233 0.0012563673
-0.0016806185 0.0076907515 0.013479653 0.03039225 -0.53680211 0.84316063 0.00093531393
0.0012900643 0.0075756027 0.013302505 0.036255114 -0.57645947 0.81632107 0.0020029941
0.0051143952 0.0074081738 0.013048787 0.060969234 -0.60146075 0.79657257 0.0025036712
0.0075263819 0.007960815 0.013319747 0.044901047 -0.58072186 0.81286287 0.0031620178
0.010352301 0.0076068491 0.012819601 0.091472298 -0.5707823 0.81599039 0.0021261137
0.013207832 0.008220816 0.012974499 0.095624574 -0.55515242 0.82623351 0.0012768504
0.016492741 0.0083441297 0.012635323 0.11139357 -0.61671484 0.77926522 0.0020907526
0.019477695 0.0086178444 0.012362521 0.13858901 -0.64205647 0.75402695 0.0022521331
0.021309316 0.0087785618 0.012176869 0.16455111 -0.66830343 0.72546083 0.0012966366
-0.0096436115 0.0090696532 0.014332017 -0.010209984 -0.44513237 0.8954066 0.00062311545
-0.0046234187 0.0099170711 0.014935742 0.0031157569 -0.44506142 0.89549464 0.0014370779
-0.0013892382 0.0093280254 0.01456517 0.029027738 -0.45734701 0.88881445 0.0019242469
0.0019728453 0.0098110903 0.01474227 0.033997174 -0.46040887 0.88705575 0.0020793388
0.0046120905 0.009827082 0.014630201 0.036741957 -0.45728001 0.88856351 0.0020811961
0.0078025707 0.0098162219 0.014435123 0.057366554 -0.46139818 0.88533658 0.0019129635
0.010500058 0.010157159 0.014408931 0.072399281 -0.46075171 0.88457119 0.0013704833
0.01356613 0.010520877 0.014300359 0.10073281 -0.44757584 0.88855433 0.0012200767
0.016534371 0.010450612 0.01396113 0.10310095 -0.4731881 0.87490749 0.00095922715
0.019533332 0.010391036 0.013547685 0.11889701 -0.48261011 0.86772752 0.00083376659
0.022564679 0.010562327 0.01319299 0.14838369 -0.54860252 0.82281083 0.0019691354
0.025321668 0.010783136 0.012835154 0.16554029 -0.56514227 0.80821443 0.0018679405
0.028281629 0.011322555 0.012578663 0.18027425 -0.59057438 0.7865895 0.0015206347
0.030617695 0.011828037 0.012332166 0.19663389 -0.60259855 0.77344048 0.00048545032
0.016457349 0.012207678 0.014882216 0.094327286 -0.34575483 0.93357158 0.0020187066
0.019473914 0.012461248 0.014636502 0.10765821 -0.37693641 0.91996121 0.0020604131
0.022349196 0.013091564 0.014571425 0.12298547 -0.40536574 0.90584385 0.0017837647
0.025567601 0.013396777 0.014293945 0.13228512 -0.42914903 0.89349413 0.0015803478
0.028669218 0.013531948 0.013885544 0.14744295 -0.45381504 0.87881315 0.0012132608
0.03154178 0.013499404 0.013287207 0.18104315 -0.52122861 0.83399284 0.0012491278
0.034345102 0.013854002 0.012825322 0.1973898 -0.54132742 0.81731379 0.00081446377
0.037356626 0.014333826 0.01235146 0.21274221 -0.55391729 0.80493253 0.00058977649
0.039671823 0.014750003 0.012056234 0.24140295 -0.57248771 0.78357023 0.0010355668
0.025942098 0.015205474 0.014980532 0.10539647 -0.33358362 0.93681026 0.0006898815
0.028587384 0.015526777 0.014809181 0.12014706 -0.33205903 0.93557549 0.0027236848
0.031638689 0.016076181 0.014627524 0.14509189 -0.38413206 0.9118064 0.0028855347
0.03457975 0.01638055 0.01427331 0.16867779 -0.43687758 0.88356429 0.0022358489
0.037517149 0.016447596 0.013649385 0.19936459 -0.45340782 0.86872041 0.0009023631
0.040480524 0.016629964 0.012994073 0.22229066 -0.498184 0.8380928 0.00070517237
0.043153848 0.01714142 0.012542069 0.257094 -0.51510876 0.8176586 0.0014879752
0.045438096 0.017844323 0.012245139 0.29981914 -0.53878039 0.78728914 0.0016157231
0.035286792 0.01812128 0.014919819 0.12780941 -0.32903895 0.93562716 0.0019524813
0.037817899 0.018760378 0.014750808 0.17769012 -0.33982918 0.92354876 0.0032986188
0.04069975 0.019393548 0.014399677 0.20278089 -0.39621022 0.89548725 0.0014663021
0.043537401 0.019564237 0.013725501 0.24664482 -0.41438842 0.87604147 0.00059224502
0.046496484 0.019670287 0.012949063 0.27700526 -0.46138704 0.84284639 0.0013236173
0.048895787 0.020281626 0.012426946 0.33847085 -0.48452491 0.80664313 0.0017622247
-0.0032654789 0.023910465 0.014964032 0.087953642 0.52146637 0.84872669 0.0015110936
-0.0010092215 0.023820005 0.014833026 0.076962098 0.48811996 0.86937666 0.00053625787
0.0014315668 0.023648754 0.014760868 0.048214063 0.4353556 0.89896655 0.002658444
0.0042992746 0.023421165 0.014766204 0.024538636 0.43648228 0.89937812 0.0025796508
0.0074488991 0.023421327 0.014711194 -0.0040312777 0.42689705 0.90429127 0.0027141739
0.010540766 0.023518948 0.014725544 -0.024882855 0.40549946 0.91375655 0.0028715986
0.013343518 0.023571365 0.014790924 -0.050480124 0.38251033 0.92257118 0.0026874826
0.016441882 0.023847794 0.014909263 -0.0588235 0.39807782 0.91546375 0.0056112059
0.041566882 0.021264927 0.014963022 0.15295574 -0.30779159 0.93907875 0.0016105081
0.043868475 0.021875001 0.014697501 0.21168055 -0.32004753 0.92345053 0.0025935569
0.04659041 0.022481041 0.014196292 0.25751966 -0.35717085 0.8978377 0.00081644143
0.049581084 0.022498805 0.013276974 0.30039558 -0.40398312 0.8640371 0.00076638407
0.052209381 0.022930058 0.01255127 0.35113001 -0.43450934 0.82940304 0.0022461361
0.054111868 0.023680365 0.012062473 0.42146993 -0.45498407 0.78444415 0.0015604296
-0.013120194 0.02665738 0.014803916 0.17005599 0.56946403 0.80423355 0.00106158
-0.010320824 0.026175123 0.014591987 0.15088373 0.52147686 0.83981901 0.0019514122
-0.0074991058 0.025990715 0.014220369 0.12929799 0.53901643 0.83231205 0.0015143018
-0.0045401435 0.025667585 0.014011537 0.10981073 0.54707372 0.82985049 0.0011995127
-0.0016078589 0.02554333 0.013761749 0.075011291 0.55110008 0.83106077 0.001174461
0.0013682315 0.025492337 0.013564155 0.048117444 0.5524773 0.83213788 0.0010657472
0.0044388748 0.025567435 0.013393939 0.021312892 0.54693222 0.83690554 0.0012334647
0.0075003114 0.025508128 0.013416311 -0.013716247 0.5399614 0.84157807 0.0011345895
0.010550695 0.025517331 0.013541875 -0.040240332 0.52902454 0.84765196 0.0011608045
0.013519272 0.025566649 0.013694719 -0.070950903 0.514112 0.85478348 0.0014922153
0.016632946 0.025575686 0.01401471 -0.07999029 0.47667384 0.87543339 0.0022123789
0.019535882 0.025569331 0.014363048 -0.096961074 0.44577673 0.88987732 0.0027536689
0.022626976 0.026095761 0.014528158 -0.13941646 0.46105853 0.87634939 0.0044377921
0.024771929 0.026200416 0.014759764 -0.12781151 0.36536145 0.92204946 0.003858682
0.027379591 0.026699549 0.014893424 -0.12769769 0.36226341 0.9232868 0.0079396535
0.047287434 0.02455711 0.014776294 0.21651196 -0.23889421 0.94660026 0.003598768
0.049578879 0.025473058 0.014448569 0.27089286 -0.29954073 0.91481823 0.0010788352
0.052498333 0.025479613 0.013522292 0.31877184 -0.34223428 0.88388926 0.00067966431
0.055146895 0.025819976 0.012586653 0.384581 -0.36929435 0.8460018 0.0024480752
0.057163082 0.026935197 0.012161394 0.44742131 -0.41195229 0.79379439 0.0015888433
-0.021754172 0.029783458 0.014799651 0.2180071 0.55712438 0.80130231 0.00081260805
-0.019353021 0.029234217 0.014520133 0.21232788 0.54929179 0.80820507 0.0017450728
-0.016413832 0.028775528 0.014062027 0.200424 0.5766567 0.79202098 0.0011879914
-0.013568956 0.028552586 0.013499472 0.19327851 0.62261695 0.75828201 0.0022962298
-0.010659439 0.028282646 0.013059825 0.16949427 0.65305847 0.73809642 0.0011881352
-0.0076350519 0.027914686 0.012754525 0.13960944 0.66562665 0.73311013 0.0013825067
-0.004651234 0.027621984 0.012532896 0.11273649 0.67361838 0.73043048 0.0012883334
-0.0015987955 0.027438857 0.012297696 0.079277255 0.68242317 0.72664553 0.0015204474
0.0017218939 0.027275329 0.0121517 0.044239089 0.63770342 0.76901054 0.0014424268
0.0046869349 0.027148755 0.01216724 0.016211512 0.63411421 0.77306938 0.0016633772
0.0072480049 0.027118528 0.012159252 -0.021839906 0.62971401 0.77651995 0.0019497472
0.010890195 0.027292157 0.01222619 -0.047828902 0.68143147 0.73031747 0.0016205255
0.013537205 0.027530797 0.012261556 -0.086655028 0.65927303 0.74689347 0.0020336665
0.016704673 0.027875401 0.012458444 -0.11571537 0.64094955 0.75881064 0.0027191562
0.019539829 0.027874643 0.012913343 -0.13418348 0.60221654 0.7869752 0.0014759541
0.022530057 0.02839149 0.013078475 -0.16213602 0.55286199 0.81734663 0.0025185035
0.025729403 0.028192464 0.013870514 -0.12708238 0.47054568 0.87317634 0.0020134023
0.028750375 0.028446684 0.014253157 -0.14374733 0.43154323 0.89056557 0.0032274483
0.031748805 0.028879017 0.014536742 -0.13756981 0.37194675 0.91800338 0.0040500797
0.03433479 0.029099349 0.014797944 -0.14247438 0.34587631 0.92739987 0.0034463184
0.03675792 0.029826293 0.014875649 -0.13143124 0.32687134 0.93588507 0.0018993454
0.050543815 0.027712271 0.014817305 0.21022528 -0.16877389 0.96297491 0.0025849503
0.052596387 0.028493183 0.014399678 0.27246889 -0.19300409 0.94260818 0.0033503978
0.05555243 0.028546488 0.01345291 0.33959955 -0.26083773 0.90367907 0.00089691742
0.058028929 0.028825333 0.012512646 0.42145181 -0.31015372 0.85216373 0.0021994491
-0.028017765 0.032685913 0.014541042 0.25433788 0.60334396 0.75583613 0.0014635557
-0.025315797 0.031895544 0.0142475 0.23810671 0.58177739 0.77771479 0.0016612655
-0.022476904 0.031564422 0.013560527 0.24569266 0.61199814 0.75172698 0.0011105195
-0.019592891 0.031140354 0.012997118 0.23031361 0.66105592 0.71411538 0.0021338291
-0.016556293 0.03062677 0.01252434 0.22179963 0.69914931 0.67970228 0.0013030947
-0.014039669 0.030150631 0.012212119 0.19794942 0.6702053 0.71529078 0.0013138711
0.025463708 0.030155886 0.012407108 -0.18533827 0.62996393 0.75418508 0.0016913129
0.028450985 0.030755877 0.012735402 -0.18941565 0.59126139 0.78392071 0.001641073
0.031566914 0.031194033 0.01316483 -0.18040158 0.52844661 0.82957786 0.0025820225
0.034432773 0.031600799 0.013565929 -0.21080112 0.48123726 0.85086632 0.0037626014
0.037349392 0.031511471 0.014277887 -0.15831766 0.41325897 0.8967455 0.001683365
0.040260725 0.031872924 0.014616209 -0.1413212 0.36035329 0.92204875 0.0028777423
0.043455809 0.032626085 0.014841896 -0.11854414 0.26328436 0.9574073 0.0020114989
0.052996036 0.031215051 0.014799966 0.19208995 -0.10166873 0.97609681 0.0034531858
0.055582136 0.031562679 0.014161012 0.2675834 -0.14193903 0.95302278 0.002978388
0.058598481 0.031444892 0.012978503 0.36853799 -0.20848086 0.90593344 0.001822441
0.060641721 0.032235496 0.012274205 0.462376 -0.2632547 0.84670269 0.00204062
-0.036312662 0.0358284 0.014909364 0.22025989 0.53644311 0.81468666 0.0010375814
-0.034117293 0.035387926 0.014564814 0.2573289 0.57457364 0.77694726 0.00077125087
-0.031395942 0.034767799 0.014062566 0.27307123 0.6109578 0.74307644 0.0023047717
-0.028595196 0.034445945 0.013257564 0.28983164 0.64570439 0.70644426 0.0019163118
-0.025749318 0.033790845 0.012758447 0.28044304 0.69093615 0.66630238 0.00097043708
-0.023276553 0.033258617 0.012274558 0.26121235 0.6733523 0.69163913 0.0012972832
0.035880867 0.0336303 0.012737909 -0.23523274 0.52309561 0.81916821 0.0025198972
0.037922755 0.034223448 0.012901463 -0.23663306 0.48015311 0.84466422 0.0028376514
0.0404149 0.034293037 0.013578991 -0.193128 0.43232402 0.88079363 0.0015271445
0.043362126 0.034574334 0.014123525 -0.20620647 0.4066633 0.89000219 0.0027068963
0.046426557 0.03449969 0.014618834 -0.12338398 0.31460613 0.9411692 0.0023435128
0.049405739 0.034919102 0.014765207 -0.0082511296 0.18389155 0.98291188 0.0018107806
0.052852422 0.034659863 0.014778233 0.11576881 0.068866812 0.99088597 0.0036385909
0.055574451 0.03445876 0.014410117 0.16222493 0.049226802 0.98552519 0.0025004204
0.058468338 0.034402803 0.013598675 0.31429872 -0.085197426 0.94549334 0.0028315738
0.061219338 0.034694415 0.012571623 0.41842306 -0.15069497 0.89566356 0.0023110243
-0.042652678 0.038611259 0.014877417 0.18520184 0.47462034 0.86048579 0.0024781914
-0.040397137 0.038221993 0.014484817 0.23698081 0.53719389 0.80948299 0.0015587283
-0.037436664 0.037718337 0.013889719 0.24769349 0.56990111 0.78349262 0.00053840713
-0.034646109 0.037253693 0.013216524 0.28909662 0.62883669 0.72179472 0.001761559
-0.031756192 0.036715128 0.012503781 0.30812785 0.66572088 0.67961234 0.0018719635
0.043687183 0.037230469 0.012848746 -0.2207696 0.44392419 0.8684423 0.0016448554
0.046410192 0.03735147 0.013507088 -0.18592747 0.43557179 0.88074291 0.0025258895
0.049420442 0.037471648 0.013988764 -0.099941283 0.31539631 0.94368267 0.002471498
0.052429613 0.037489124 0.014243681 -0.021424035 0.24334218 0.96970379 0.0037880945
0.055438749 0.037349526 0.014211755 0.10244087 0.15349676 0.9828248 0.0043750061
0.058508277 0.037494034 0.013727583 0.23832668 0.054235402 0.96966946 0.0033595487
0.061566368 0.037499256 0.012740817 0.3469601 -0.040887795 0.93698823 0.0033454732
0.063364968 0.038627297 0.012015069 0.48741999 -0.09212245 0.86829442 0.0023266426
-0.055289805 0.041000262 0.014602703 -0.01891334 0.387227 0.92179036 0.0015859641
-0.052352846 0.041212667 0.014777196 0.0063108564 0.39302567 0.91950583 0.0031685361
-0.049426168 0.041211624 0.014639642 0.11043999 0.45459747 0.88382357 0.0023951849
-0.0463963 0.040853851 0.014283697 0.17629521 0.51184314 0.84079522 0.0012551921
-0.043426435 0.040526364 0.01372895 0.23762819 0.56697077 0.78871864 0.0014277571
-0.040505797 0.040176101 0.013014696 0.28878173 0.64330071 0.70906222 0.0014229416
-0.03798569 0.039614704 0.012500924 0.30474532 0.67155391 0.67538553 0.0012242367
0.046991061 0.039539393 0.012519753 -0.23081011 0.47910398 0.8468684 0.00080886413
0.049805202 0.040187065 0.012848263 -0.17615306 0.43540901 0.88283014 0.0019055238
0.052839126 0.040430598 0.013274291 -0.14343864 0.37272754 0.91678756 0.0040843142
0.055628456 0.040325392 0.013533334 -0.0050755977 0.29848409 0.95440114 0.0036419008
0.058585845 0.040500298 0.013312405 0.15275244 0.18411298 0.970963 0.0044735465
0.061649725 0.040385723 0.012665482 0.24955478 0.10315168 0.96285105 0.00449854
0.06344039 0.04055088 0.012046309 0.37435174 0.043254897 0.9262774 0.0039305296
-0.0584017 0.044166643 0.01324275 -0.030782809 0.38609523 0.92194521 0.0015213363
-0.055321507 0.043606851 0.013768709 -0.0085288165 0.40079319 0.91612881 0.0019138281
-0.052258905 0.04352317 0.013664017 0.062334348 0.4502722 0.8907128 0.0026801401
-0.049442708 0.043558404 0.013211144 0.1753094 0.55068529 0.81609583 0.0027582282
-0.046652853 0.043154605 0.01276776 0.24233043 0.60601133 0.75764513 0.0019098151
-0.043931454 0.042396352 0.012440804 0.28599349 0.65073776 0.70338333 0.0019231237
0.052709933 0.042431105 0.012316473 -0.17312178 0.47679615 0.86179721 0.0024310458
0.055629004 0.042914029 0.012544604 -0.080580622 0.39552054 0.91491544 0.0022820262
0.058601107 0.043485507 0.012495494 -0.005123504 0.32136384 0.94694191 0.0055777137
0.061386071 0.043214083 0.012335396 0.15887716 0.25565246 0.95362461 0.0060114549
0.063301608 0.042220034 0.012005528 0.31243935 0.14109714 0.93940049 0.0040043639
-0.060764719 0.045298595 0.012458134 -0.036986452 0.45117122 0.89167064 0.0014254609
-0.058059394 0.04648928 0.012341257 -0.011022416 0.48523086 0.87431651 0.0035822785
-0.055414148 0.046101801 0.012518347 0.054837856 0.50659883 0.8604362 0.0028747723
-0.052650012 0.045590647 0.012511969 0.14816053 0.5678913 0.80965912 0.0026808202
-0.049979992 0.045253493 0.012134766 0.22654569 0.61686373 0.75376147 0.0016914174
-0.016329074 0.011856302 0.015607408 -0.022826178 -0.34034932 0.94002199 0.00069420144
-0.013074948 0.01122965 0.01544783 -0.016167557 -0.38161832 0.9241786 0.0014399544
-0.010374121 0.011373962 0.015659342 0.00070950482 -0.37791491 0.92584014 0.0025320768
-0.0074452553 0.010868467 0.015432 0.00012009837 -0.4308911 0.90240395 0.0010006547
-0.0041618254 0.011315213 0.015645871 0.0085801892 -0.41474026 0.90989935 0.0013142606
-0.0017351999 0.011061989 0.015469773 0.0089564975 -0.42957371 0.90298736 0.0017804612
0.001308849 0.011117812 0.015387435 0.031426471 -0.40705362 0.91286349 0.0022343656
0.0050085508 0.011364061 0.015332784 0.044239461 -0.40918124 0.91138005 0.0023936473
0.0074191438 0.011504687 0.015262144 0.049400873 -0.39822519 0.9159565 0.0015706656
0.010452356 0.011656702 0.015128981 0.064354196 -0.423354 0.90367568 0.0020370251
0.012843104 0.011923365 0.015069609 0.077676766 -0.4199543 0.90421504 0.0012995257
-0.022727584 0.014770641 0.016504196 -0.023382114 -0.25057322 0.96781522 0.00088092178
-0.01905272 0.013934466 0.016429281 -0.027157063 -0.2902019 0.95658004 0.0013967667
-0.016009532 0.014166813 0.016710294 -0.017037762 -0.27245995 0.96201628 0.0036635308
-0.01345425 0.013775198 0.016616022 -0.0059841638 -0.31961554 0.94752836 0.001324908
-0.010584661 0.013756442 0.016610678 0.016354183 -0.32775918 0.94461977 0.0032801884
-0.0076490492 0.013542481 0.016506109 0.031975977 -0.27476421 0.96097976 0.0017819736
-0.0043813135 0.013521822 0.016399462 0.024879072 -0.26187733 0.96478045 0.0022423905
-0.0011542203 0.013532314 0.016286029 0.038971435 -0.25707132 0.96560633 0.0029724913
0.0014595371 0.013638481 0.016208235 0.043131322 -0.23626666 0.97073054 0.0021215975
0.0041823974 0.013524706 0.016037444 0.021821402 -0.25593972 0.9664464 0.0025306123
0.0074335174 0.013438291 0.015865006 0.04617773 -0.23745725 0.97029978 0.0022352415
0.010429511 0.013441416 0.015705995 0.062023386 -0.26058537 0.96345651 0.002687298
0.013378121 0.01357002 0.015558712 0.058239006 -0.25710237 0.96462774 0.0016254731
0.016410552 0.013805682 0.015416509 0.070596702 -0.28459787 0.95604402 0.0018805853
0.019501233 0.014084333 0.015268403 0.082368106 -0.3203747 0.94370306 0.0022253545
0.022284217 0.014594552 0.015189952 0.085933849 -0.29773006 0.95077455 0.00060019619
0.024525696 0.014906524 0.015043631 0.10538957 -0.33358163 0.9368118 0.0006921824
-0.024608668 0.017052332 0.017306879 -0.021776931 -0.20640886 0.97822344 0.001648568
-0.022480875 0.016587719 0.017250052 0.0086491192 -0.1868677 0.98234707 0.0037396734
-0.019410193 0.016864434 0.017425392 -0.0069250748 -0.21895391 0.97571069 0.0019369533
-0.016313471 0.016577294 0.017385989 0.013377983 -0.21859682 0.97572356 0.0048620221
-0.013664294 0.016575197 0.017310029 0.0067000347 -0.18036057 0.98357773 0.0059882952
-0.010716854 0.016634366 0.017204721 0.049326904 -0.14379172 0.98837787 0.00474534
-0.0076669334 0.016666885 0.017063493 0.059277572 0.0073424019 0.9982146 0.0070302617
-0.0047581014 0.016526213 0.016883561 0.057827987 -0.089252166 0.99432886 0.0043762145
-0.001700385 0.016511343 0.016727023 0.049715504 -0.079753637 0.99557406 0.0052649598
0.0014544843 0.016500454 0.016563946 0.048042677 -0.071338736 0.9962945 0.0051418934
0.0045892308 0.016629161 0.016430426 0.041689049 0.032191623 0.99861187 0.0051727411
0.0076956744 0.016514814 0.016303493 0.032040987 -0.07489714 0.99667639 0.0037278167
0.010802428 0.016411489 0.016189329 0.029841758 -0.088593811 0.99562061 0.0034380096
0.013898843 0.016556399 0.016083809 0.026602603 -0.10496961 0.99411952 0.0028021864
0.016857816 0.016438747 0.015953155 0.030653642 -0.1280228 0.99129736 0.0026779263
0.019613275 0.016432293 0.015794313 0.03968364 -0.15913278 0.98645926 0.0024953792
0.022604275 0.016511323 0.015611789 0.073868409 -0.19979198 0.97704995 0.0013924327
0.025451174 0.016619084 0.015429988 0.086474538 -0.23428845 0.96831357 0.0014935007
0.028541479 0.016948428 0.015267131 0.073765345 -0.2613866 0.96241146 0.0022814157
0.03147389 0.017563304 0.015189453 0.089335412 -0.26157743 0.9610393 0.00097686122
0.03403496 0.017862191 0.015012715 0.12784816 -0.32900408 0.93563414 0.0019454609
-0.031124756 0.020310914 0.01771898 -0.023628693 -0.072851554 0.99706292 0.00075730274
-0.028221723 0.019793194 0.017801037 -0.015015113 -0.14134163 0.989847 0.00069320615
-0.025696564 0.018686874 0.017667904 0.02097013 -0.10911088 0.99380839 0.0015761192
-0.02217662 0.019553378 0.017858673 0.032744657 -0.080613062 0.99620748 0.0027840827
-0.019172177 0.019274915 0.017762169 0.035211395 -0.02368203 0.99909931 0.0028349168
-0.016830735 0.019787669 0.017621877 0.077529311 0.040083904 0.99618399 0.002303147
-0.013691709 0.019619755 0.01739596 0.089729123 0.084611155 0.99236566 0.002249172
-0.010526055 0.019615723 0.017131444 0.079031684 0.17262369 0.98181212 0.0045463857
-0.0075957957 0.019498779 0.016896619 0.079237781 0.19982173 0.97662312 0.003941793
-0.0046000625 0.019535931 0.016651426 0.071568817 0.21446425 0.97410625 0.0032236213
-0.0015197268 0.019475441 0.016445423 0.062212545 0.22014363 0.97348154 0.002971709
0.0014615316 0.019545598 0.016260101 0.040791567 0.22172728 0.97425514 0.0027930944
0.0045123505 0.019534735 0.016142538 0.031725567 0.21131428 0.97690314 0.0026051896
0.0074879704 0.019510256 0.01605683 0.025732862 0.19729255 0.98000693 0.0028978381
0.010682375 0.019392841 0.016044872 0.011340595 0.17612642 0.98430222 0.003010463
0.013648492 0.019625641 0.015997235 0.0052841585 0.14643931 0.9892056 0.0035579973
0.016458381 0.019515391 0.016019013 0.010335539 0.11034498 0.99383956 0.0037627311
0.019023169 0.019419439 0.016010208 -0.01121153 0.07360822 0.99722421 0.0046504918
0.022179788 0.019351065 0.015943874 0.019348972 -0.037981018 0.99909109 0.0032651981
0.025521021 0.019505827 0.015835745 0.027979057 -0.080192216 0.99638665 0.0026700415
0.028496876 0.01941664 0.015721574 0.032496795 -0.11665642 0.99264055 0.0018911997
0.031373575 0.019545764 0.015590176 0.070501342 -0.17108086 0.98273134 0.0012946348
0.034316827 0.019590735 0.015396118 0.09594208 -0.22419845 0.96980935 0.0015782848
0.037301295 0.020054195 0.015233429 0.1211068 -0.26365036 0.95698565 0.0041583581
0.039254181 0.02079922 0.015184151 0.15767212 -0.29659325 0.94189805 0.0018689942
-0.034431066 0.02227194 0.017838676 -0.036851931 -0.06439051 0.99724418 0.00078040716
-0.031112297 0.021635521 0.017973209 -0.023610752 -0.072862744 0.99706244 0.00076876697
-0.024972674 0.023492854 0.017937429 0.076571561 0.10458568 0.99156368 0.0029891466
-0.022498826 0.022515636 0.017819557 0.11041161 0.14604793 0.98309678 0.0021246604
-0.019461501 0.022608656 0.01750828 0.10352373 0.23198935 0.96719372 0.0050067315
-0.016496103 0.022538638 0.017175483 0.11035908 0.27396277 0.95538753 0.0041728076
-0.013579669 0.02264311 0.01676772 0.11393332 0.30949777 0.94404989 0.00284062
-0.010566433 0.022539424 0.016419176 0.10848099 0.32793218 0.93845218 0.0022376161
-0.00759628 0.022537814 0.01605675 0.10132468 0.34916511 0.93156695 0.0023366453
-0.0046245665 0.022466676 0.015770109 0.077479459 0.3662113 0.92730057 0.0022910682
-0.0015624861 0.022348421 0.015552022 0.078162163 0.3848922 0.91964597 0.0022755894
0.0015070102 0.022171715 0.015427732 0.042417489 0.38212717 0.92313576 0.0024675974
0.004447747 0.021871211 0.015447078 0.02777306 0.38395828 0.92293262 0.0026635085
0.007289432 0.021972612 0.015354381 0.011649437 0.3716937 0.92828238 0.0028035673
0.0102782 0.021953374 0.015383113 -0.0078769168 0.35209894 0.93592954 0.0025307895
0.01341712 0.02207722 0.015403155 -0.025787367 0.32435372 0.94558436 0.0028839214
0.016535643 0.022217872 0.015494028 -0.022772832 0.28818935 0.95730263 0.0022086995
0.019590361 0.022513324 0.015541892 -0.055800684 0.25247517 0.96599305 0.0039319503
0.022631442 0.022650439 0.01568337 -0.055202093 0.19193654 0.97985363 0.0045127384
0.025240654 0.022444278 0.01579308 -0.019087551 0.12270944 0.99225909 0.00312202
0.028204927 0.022379838 0.015844887 -0.0089952536 0.080449805 0.99671805 0.0032623785
0.031282954 0.022527475 0.015808765 0.012719515 0.035017863 0.99930573 0.0028951317
0.034416173 0.022446217 0.015766874 0.027025597 -0.067415595 0.99735892 0.0026377116
0.037423059 0.022456056 0.015650142 0.038764242 -0.10493787 0.99372298 0.0023120698
0.040495932 0.022543753 0.015415271 0.11733245 -0.19763067 0.97322929 0.0015173363
0.043287601 0.023099812 0.015201405 0.13994147 -0.2501151 0.95804954 0.0042067557
0.045023043 0.023783734 0.015103392 0.19360462 -0.29059577 0.93705463 0.0016389661
-0.040094614 0.02588957 0.017810933 -0.043867424 -0.0088332156 0.99899834 0.00095617102
-0.038028579 0.02437941 0.017805165 -0.045901392 -0.045412187 0.99791324 0.00068897603
-0.031130526 0.026592202 0.017917128 0.088195257 0.17539601 0.98053956 0.002105132
-0.02828664 0.025967892 0.017748944 0.11753747 0.20281786 0.9721368 0.0036551175
-0.025358016 0.025554467 0.017504744 0.11937682 0.26871312 0.95579416 0.0033969881
-0.022275938 0.02561089 0.017046126 0.15593745 0.35482252 0.92183751 0.0023530985
-0.019466061 0.025533184 0.016609978 0.14389217 0.37584811 0.91544157 0.0025666628
-0.016563211 0.025466442 0.016115738 0.15029502 0.41243178 0.89850509 0.0020984213
-0.013613613 0.025371995 0.015640263 0.14187783 0.44834259 0.88253021 0.0022438518
-0.010764565 0.024757745 0.015510687 0.13192244 0.47938594 0.86763221 0.0021625136
-0.0078874584 0.024485245 0.015215303 0.11835049 0.5010435 0.8572914 0.0019291048
-0.004840483 0.024125248 0.015034938 0.094375737 0.47680619 0.87392741 0.00054300384
0.022504397 0.024622237 0.015137373 -0.10944576 0.3932479 0.91289526 0.0042355065
0.025724335 0.025013089 0.015294256 -0.06419158 0.28804797 0.95546204 0.0029326242
0.028655684 0.025396649 0.015417931 -0.078474477 0.24667875 0.96591485 0.0043470669
0.031338405 0.025434108 0.015556956 -0.059554327 0.18556802 0.98082507 0.0037334613
0.034317289 0.025484668 0.015657786 -0.018999135 0.11528226 0.99315107 0.0021702268
0.037253648 0.025534831 0.015714301 -0.0041502328 0.071732044 0.9974153 0.0030705277
0.040229134 0.025456928 0.015722856 0.030736024 -0.036428381 0.99886352 0.0032018197
0.043447357 0.025453113 0.015559609 0.10547327 -0.12355015 0.98671722 0.001467926
0.046356592 0.025727749 0.01524047 0.13988498 -0.15055238 0.97865528 0.0040841536
0.048136156 0.026639372 0.015153666 0.22281219 -0.24894068 0.94254088 0.0034166938
-0.042656541 0.028656924 0.017683482 -0.022095505 0.10769576 0.99393839 0.001950132
-0.039585866 0.028891511 0.01790387 -0.012012569 0.10624028 0.99426788 0.0025244222
-0.03721495 0.02931853 0.017847454 0.063851744 0.19640751 0.97844112 0.0021184678
-0.034404941 0.028815899 0.017704668 0.060312673 0.19901775 0.97813821 0.0018565127
-0.031465575 0.028579466 0.017424326 0.14661229 0.31777564 0.93676221 0.0018282923
-0.028448069 0.028589005 0.016935328 0.15923446 0.3505652 0.92290217 0.0014536891
-0.0254847 0.028558837 0.01637063 0.18107176 0.4217287 0.88845813 0.0020388945
-0.022586117 0.028326875 0.015870193 0.18417172 0.46440151 0.86626327 0.0026973973
-0.019642243 0.02776875 0.015531746 0.18429801 0.51070333 0.83977157 0.0020983601
-0.017027255 0.027401315 0.015166885 0.18149434 0.54448283 0.81890064 0.001548768
0.031795193 0.027390203 0.015102915 -0.090982243 0.35507673 0.93039918 0.002839613
0.034743179 0.027830545 0.015204583 -0.077522703 0.28762007 0.954602 0.0035024877
0.037626665 0.02835416 0.015348504 -0.072958484 0.18667486 0.97970885 0.0024403455
0.040405199 0.028529396 0.01548717 -0.045511894 0.12407686 0.99122828 0.0026251813
0.043294728 0.028396264 0.015599609 0.014943083 0.069337443 0.99748135 0.0024065252
0.046424534 0.028472118 0.015508122 0.078261144 -0.024440009 0.99663329 0.0030411338
0.049380668 0.028654993 0.01520101 0.13658533 -0.078845516 0.98748553 0.0028022991
-0.046435434 0.031518687 0.017259577 0.025826441 0.22794043 0.97333246 0.0027122146
-0.042937066 0.031720173 0.017502403 0.01122809 0.18577839 0.98252755 0.0013617709
-0.040312313 0.031613298 0.017478436 0.053314384 0.23502862 0.97052515 0.0039055937
-0.03744201 0.031648383 0.017214799 0.11522336 0.30056614 0.94677532 0.0031186882
-0.034485735 0.031546917 0.016817963 0.15590584 0.3617394 0.91915071 0.0014844527
-0.03151748 0.031662352 0.016124517 0.19041793 0.44156119 0.87679225 0.0020938413
-0.028675335 0.03119749 0.015695008 0.20575646 0.49439588 0.84453362 0.0022747333
-0.025995059 0.030500682 0.015422539 0.21652961 0.54116809 0.81255901 0.0018491369
-0.023577929 0.030015424 0.015099343 0.21289712 0.5799228 0.78636152 0.001416142
0.038714308 0.030195955 0.01500492 -0.12346642 0.36496073 0.92279989 0.0026617812
0.04081627 0.030370889 0.015183312 -0.090225354 0.23337901 0.96819091 0.0012689983
0.043499328 0.030874509 0.015269527 -0.050783698 0.19989669 0.97850007 0.0019108959
0.046540849 0.031441309 0.015306426 -0.0038214526 0.1114691 0.99376053 0.002031194
0.049793847 0.031526569 0.01521637 0.058016028 0.011750371 0.99824649 0.0025133921
0.052012041 0.032001488 0.015008614 0.1041261 -0.021964241 0.99432147 0.0053152815
-0.048498724 0.03520453 0.016708953 0.027770896 0.26980925 0.96251321 0.0018793838
-0.046562787 0.034651026 0.016882267 0.070557162 0.29727998 0.95217973 0.0032652761
-0.043654535 0.034579247 0.016829878 0.053741116 0.31382737 0.94795793 0.0038788579
-0.040390849 0.034602188 0.016495289 0.11757103 0.38156396 0.91683477 0.0021150317
-0.037413411 0.034482446 0.015994653 0.2021988 0.46765655 0.86047256 0.0011908563
-0.034534782 0.034068681 0.015546577 0.23883076 0.52217245 0.81871599 0.001084643
-0.032257538 0.033489048 0.015265074 0.23603836 0.55191904 0.79979455 0.001777132
0.047934026 0.033231687 0.01508812 -0.015901662 0.1908678 0.98148692 0.0016499769
0.050069205 0.033399981 0.015075711 0.024354238 0.10528839 0.99414349 0.0030284727
0.051996492 0.033310451 0.01500396 0.10746123 0.04350391 0.99325711 0.0037194761
-0.052040577 0.038158841 0.015802704 -0.014277 0.32311609 0.94625157 0.0011308559
-0.049449939 0.037585065 0.016038584 0.058384899 0.35341936 0.9336412 0.0015191805
-0.046423789 0.037559036 0.015972869 0.083256982 0.36853987 0.92587614 0.0015595776
-0.043430902 0.037476681 0.01562959 0.1259971 0.42428935 0.89671808 0.0026369495
-0.040533036 0.03682071 0.015432734 0.17852196 0.4932515 0.85137123 0.0029438781
-0.038098086 0.036109194 0.015252867 0.22565386 0.52804601 0.8186866 0.0012748211
-0.055151384 0.039593957 0.015020107 -0.033915229 0.35652402 0.9336704 0.00084566121
-0.052247446 0.039859295 0.015321368 -0.025846936 0.34912884 0.93671817 0.0010130106
-0.049509823 0.039716352 0.015317614 0.059796706 0.41669574 0.90707713 0.0018774717
-0.046815749 0.039295647 0.015267481 0.12923366 0.47339326 0.87131941 0.0022734322
-0.028850961 0.020995457 0.018024225 -0.012862157 -0.087965831 0.99604046 0.0010333661
-0.025369843 0.020583397 0.018039433 0.02811964 -0.089698479 0.99557191 0.0018557649
-0.035094395 0.023569737 0.018013228 -0.039357647 -0.047700621 0.99808598 0.00048742554
-0.031031186 0.023141846 0.018155098 -0.016964871 -0.0047208769 0.99984497 0.0028878592
-0.028367946 0.022648957 0.018130099 -0.00062945997 -0.014854248 0.99988943 0.0029749926
-0.025814543 0.022420505 0.018047418 0.042259049 -0.002965237 0.99910223 0.0038881996
-0.036794111 0.026185427 0.018093489 -0.014912263 0.019698573 0.99969471 0.0026238728
-0.034479648 0.025521373 0.018146336 -0.0058693006 0.0025966309 0.99997944 0.0023891004
-0.031624574 0.025267929 0.018124226 0.029369451 0.064261794 0.99750084 0.0028616847
-0.028471075 0.02444838 0.018085536 0.053981766 0.073880203 0.99580508 0.0015709101
-0.039093561 0.027654799 0.018039975 -0.048992869 0.032381348 0.99827403 0.0018664565
-0.037669811 0.027533161 0.018038979 -0.014168544 0.020954909 0.99968004 0.002795055
