# .PCD v0.7 - Point Cloud Data file format
VERSION 0.7
FIELDS x y z normal_x normal_y normal_z curvature
SIZE 4 4 4 4 4 4 4
TYPE F F F F F F F
COUNT 1 1 1 1 1 1 1
WIDTH 571
HEIGHT 1
VIEWPOINT 0 0 0 1 0 0 0
POINTS 571
DATA ascii
-0.049340624 0.051940214 0.0015390229 0.46695027 0.87777942 0.10705532 0.0037166388
0.072960228 0.05261704 0.0014565527 0.98634577 -0.023063134 0.16306503 0.0092983833
-0.060505353 0.056619588 0.0027730125 0.43479782 0.86312491 0.25683904 0.015612008
-0.058641832 0.056060322 0.0016849856 0.39394951 0.90286416 0.17216288 0.0064013288
-0.055396527 0.054712694 0.0017691102 0.34884077 0.91663909 0.19514851 0.0032746166
-0.053970166 0.054297432 0.00083625095 0.39916047 0.90279931 0.16007604 0.0032945478
0.073049113 0.055616129 0.0014608867 0.97895181 -0.024137337 0.2026591 0.014875487
-0.064236328 0.059283275 0.0015019625 0.56496137 0.8081792 0.16632795 0.0086437985
-0.061948847 0.057786543 0.0015326991 0.45085537 0.87505561 0.17608842 0.0098350719
0.073160671 0.058637988 0.0015091628 0.96520269 -0.052449711 0.2561889 0.022252491
-0.066719845 0.060585022 0.0017122922 0.41551197 0.81670749 0.40042308 0.035940152
-0.065654859 0.060001526 0.0019932557 0.48921156 0.82397413 0.28589985 0.01810802
0.073393233 0.061522666 0.0016350629 0.94627023 -0.095596723 0.30892399 0.031401448
0.073864773 0.064530931 0.001512439 0.86242676 -0.24033859 0.44548559 0.042899255
0.074344896 0.067284621 0.0018469668 0.88900465 -0.26016465 0.37680888 0.027488777
0.075147048 0.068329446 0.00077739975 0.92769748 -0.29319274 0.23111762 0.054333951
0.074710242 0.069881178 0.0025465896 0.75943983 -0.3107329 0.57157356 0.053050172
0.075641327 0.070684843 0.0013639684 0.91675496 -0.26049331 0.30282605 0.019840317
0.076607294 0.073270552 0.0015522084 0.9482367 -0.11952955 0.29421046 0.064193517
-0.014633893 0.0025858809 0.004945477 -0.15004425 -0.86206621 0.48407504 0.00061855011
-0.010040341 0.0019093525 0.0050853589 -0.11816559 -0.89594054 0.42816761 0.00026484119
-0.0072772852 0.0014546631 0.0047070268 -0.058390357 -0.93278593 0.35566965 0.0042922944
-0.0044109458 0.0012640308 0.004880528 -0.049320463 -0.94780982 0.3149986 0.0051107001
-0.0014023564 0.00096609443 0.0042650183 -0.045262963 -0.96474147 0.25927824 0.0039709918
0.0012977348 0.0011066713 0.0047923774 0.0074412595 -0.92642277 0.37641123 0.0022751074
0.0044336324 0.0010917281 0.0045291549 0.04024969 -0.93332541 0.35676813 0.0018857878
0.0073884847 0.0012895849 0.0045746113 0.047848102 -0.92921251 0.36643529 0.0021499381
0.0105017 0.0014720872 0.0046568541 0.076374061 -0.92837667 0.36370838 0.0022701879
0.013431863 0.0016624272 0.004436445 0.10460328 -0.9260143 0.36270595 0.0028650255
0.016498899 0.0021392426 0.0047102603 0.12081799 -0.91403258 0.38723058 0.0037915134
0.019468984 0.0024804359 0.0044792639 0.15359655 -0.9268679 0.34252569 0.0035392763
0.022069538 0.0027257784 0.0036641734 0.20869352 -0.92144585 0.32769585 0.0035178745
-0.014807136 0.0030688564 0.0059289588 -0.1500445 -0.86206561 0.48407596 0.00061845762
0.019937349 0.0032068829 0.0058827195 0.15507808 -0.84320998 0.51473069 0.0014455024
0.022767542 0.0033707938 0.0050324076 0.20244573 -0.9026022 0.37990126 0.0043290267
0.025569925 0.0038285579 0.0046133269 0.22933106 -0.90908557 0.3478083 0.0032167693
0.02849872 0.0046160067 0.004517403 0.22573777 -0.90543866 0.35947651 0.0033674242
0.03145067 0.0054326304 0.0043872818 0.286437 -0.90608293 0.3113963 0.0030825667
0.033393279 0.0058756983 0.0037502451 0.32624564 -0.89163047 0.31394091 0.0036513056
0.032196209 0.0061772075 0.0057176156 0.27351275 -0.85576767 0.43914965 0.0012128619
0.03467929 0.0066649294 0.0046601403 0.35361534 -0.88793486 0.2941561 0.0021192809
0.037511345 0.0076933117 0.0045521627 0.34502774 -0.88471812 0.313416 0.0027361952
0.039958727 0.0085902615 0.0041733696 0.3774842 -0.87824869 0.29357296 0.0038622878
0.041146673 0.0094454139 0.0050283899 0.38955435 -0.86214828 0.32395628 0.0027380609
0.04347796 0.01035811 0.0045113009 0.41633505 -0.8618688 0.28956416 0.0021846187
0.046012223 0.011488541 0.0040728883 0.4568001 -0.84528393 0.27718028 0.0024975219
0.0471192 0.012442735 0.004950223 0.46575806 -0.82694125 0.31502014 0.0032291948
0.049526252 0.013668704 0.0045175296 0.49293193 -0.81039244 0.3166737 0.002476701
0.051476192 0.014643545 0.0040349839 0.50669324 -0.80685389 0.30372474 0.0025474331
0.052762438 0.015800949 0.0046788044 0.53020245 -0.79117996 0.30482721 0.0026870791
0.055085063 0.017248917 0.0042547435 0.55662483 -0.77977413 0.28656775 0.0024060674
0.056331947 0.018464094 0.0050437637 0.55692804 -0.77204663 0.30622727 0.0034804039
0.058389075 0.019825906 0.0043936516 0.61507046 -0.72101361 0.31910455 0.0026939474
0.060131542 0.02079336 0.0033425456 0.64253068 -0.7091223 0.29034457 0.0023162705
0.059686158 0.021433916 0.0054270285 0.63675457 -0.6707983 0.3802278 0.0041696029
0.061365366 0.02253864 0.0044048345 0.67661577 -0.68162119 0.27853838 0.0021464226
0.063084736 0.023709245 0.0032472941 0.70686173 -0.642205 0.29651183 0.0021233333
0.062643252 0.024339808 0.0052960054 0.69564617 -0.62757462 0.34960911 0.0024484347
0.064177714 0.025575653 0.0043588961 0.71231717 -0.61917263 0.33049875 0.0030386718
0.065497562 0.027595423 0.004868743 0.75579607 -0.56220245 0.3357093 0.0025733556
0.066697694 0.028917078 0.0042956485 0.78976804 -0.50115806 0.35370484 0.0027356958
0.068027161 0.031353492 0.0045524542 0.82311624 -0.46768928 0.32209679 0.0020366258
0.069155104 0.032628454 0.0034982197 0.84467286 -0.41577965 0.33712766 0.0024997483
-0.016202275 0.035422344 0.0049199578 0.25105831 0.90134978 0.35289979 0.0016634691
-0.013581131 0.034772515 0.0045086718 0.23505807 0.90163952 0.36303428 0.00076396996
-0.010653527 0.033890475 0.0049304795 0.21902998 0.89697015 0.38401881 0.00084946357
-0.0081685763 0.033172343 0.0053995047 0.17202182 0.86957151 0.46287575 0.0011408899
0.068777017 0.033690467 0.0054604239 0.84107566 -0.36128819 0.40256995 0.003302108
0.069693096 0.03467571 0.0043264907 0.86200696 -0.34514365 0.37124109 0.0034719321
-0.024894219 0.038628317 0.0046255589 0.37626889 0.8743062 0.30661109 0.0015300929
-0.022384401 0.037596151 0.0045860545 0.36201334 0.88126075 0.30385178 0.0018295003
-0.0196344 0.036526546 0.0046837879 0.29687503 0.90196645 0.3135626 0.0015209612
0.070585489 0.037515134 0.0044905315 0.87902468 -0.26149011 0.39867109 0.0035949389
-0.031154271 0.04133546 0.0047919173 0.42841715 0.85467559 0.29323769 0.0020456503
-0.028539995 0.040141836 0.004642087 0.38399014 0.87528509 0.29398561 0.0021410668
-0.026632896 0.03951396 0.0041528721 0.35992479 0.88229007 0.30334514 0.0018032823
0.071245082 0.040425051 0.0045613647 0.89406079 -0.15476292 0.42036149 0.0022691623
0.072092459 0.041975822 0.0030093142 0.97386372 -0.12704602 0.18827845 0.0040719425
-0.037203256 0.044424221 0.0046840366 0.4377687 0.8445639 0.30833504 0.0020373603
-0.034500651 0.043102618 0.0046037408 0.42050412 0.85918331 0.29151374 0.0016708714
-0.032281633 0.042292729 0.0037761915 0.42203835 0.85998297 0.28690225 0.0020910511
0.071474537 0.043507688 0.0049508805 0.89257514 -0.064706981 0.44623157 0.003105466
0.072155654 0.043754771 0.0034127487 0.95170641 -0.078041345 0.29692498 0.0013237617
-0.042995878 0.047300905 0.0052824798 0.44227087 0.81792837 0.36795333 0.0022070939
-0.040491011 0.046273615 0.004486212 0.46139067 0.82779557 0.31917578 0.0020511658
-0.038700212 0.045449108 0.0039920253 0.43196252 0.84986013 0.30190408 0.0021140128
0.071543217 0.04663587 0.0049585761 0.8855288 -0.0040677283 0.4645665 0.003684758
0.072236359 0.046618387 0.0034642864 0.92060101 -0.027264213 0.38955152 0.0036227487
-0.048774596 0.050611556 0.004857047 0.42406592 0.82553011 0.37238166 0.0030905658
-0.046524514 0.049550533 0.0045322697 0.45096603 0.81975931 0.35302183 0.0024241384
-0.044023346 0.048415028 0.0039617168 0.44859186 0.83192563 0.32659635 0.0022132443
0.071530372 0.049560755 0.0049445587 0.86507928 0.023809822 0.50106972 0.0044106841
0.072295107 0.049611323 0.0034602291 0.90523857 -0.010554296 0.42477253 0.0042767613
-0.055109847 0.053476661 0.0051032896 0.32109427 0.84426898 0.42907843 0.005770646
-0.052449416 0.052650653 0.0044986159 0.37219715 0.85303402 0.36578998 0.0034003984
-0.050153568 0.051586866 0.0042572999 0.42303252 0.8280763 0.36787644 0.0031195821
0.07134746 0.052526861 0.005069199 0.82747996 0.061486281 0.55811846 0.0059913173
0.072325766 0.052619889 0.0034458148 0.87753135 0.01264666 0.47935247 0.0050626667
-0.066073284 0.056982566 0.0058951606 0.23683631 0.6484558 0.72347331 0.003118743
-0.063987181 0.056386162 0.0056672078 0.23472825 0.66632241 0.70775491 0.0047026495
-0.06144445 0.056134038 0.00452061 0.36210254 0.77802199 0.51338428 0.0084366109
-0.058573537 0.054914311 0.0046305992 0.2991063 0.81714427 0.49275821 0.0063778101
-0.056401521 0.05461359 0.0035772643 0.39259112 0.87331092 0.28844428 0.0062365173
0.071017899 0.055513203 0.0050325575 0.64083672 0.13138065 0.75635129 0.0092106359
0.072295815 0.055654593 0.0034091796 0.82697475 0.033366088 0.56124812 0.0074823005
-0.069455557 0.058258414 0.005607802 0.22941358 0.70185536 0.67436522 0.0060714176
-0.067567855 0.058851011 0.0046578404 0.22949636 0.70184469 0.67434812 0.0060599199
-0.064656518 0.058046672 0.0041832165 0.3786487 0.73922759 0.55692708 0.0062160138
-0.06282492 0.057304397 0.0038776821 0.35181895 0.76475608 0.53978848 0.0062402305
0.065622866 0.05723935 0.0059352308 0.1969987 0.33048406 0.92302316 0.0055562207
0.068196908 0.058563042 0.005678725 0.35904559 0.24425083 0.90079284 0.018371079
0.070775375 0.058424391 0.0046395478 0.52492422 0.16300273 0.83539492 0.0090678865
0.072352909 0.058473539 0.0031833614 0.90746421 0.014056674 0.41989416 0.029742949
-0.067869008 0.060386226 0.003144447 0.33012277 0.80505979 0.49284661 0.017449146
0.068657391 0.061549734 0.0047328519 0.41822904 0.14319946 0.89698297 0.0075117024
0.070692085 0.061378732 0.0041342266 0.47634357 0.11107049 0.87221563 0.014512612
0.072331034 0.06169543 0.0032084936 0.59752667 0.018200567 0.80164248 0.017111838
0.068717018 0.064225398 0.0040610153 0.33268288 0.07855653 0.93976116 0.023630235
0.070641406 0.064374544 0.0037327639 0.33278385 0.078607269 0.93972123 0.023614477
0.072504118 0.064517364 0.0031864627 0.47010157 -0.043654729 0.88153213 0.019965274
0.068581529 0.06718269 0.0034275844 0.27760985 -0.035659742 0.96003187 0.020413756
0.070797876 0.067084104 0.0035963899 0.32463253 -0.16044556 0.93213254 0.0243237
0.072828241 0.067649603 0.0034016373 0.55110073 -0.16889177 0.81716806 0.01819231
0.071401678 0.070312202 0.0040059825 0.37521622 -0.29356483 0.87922269 0.021106444
0.073584676 0.070584647 0.0036769393 0.51996934 -0.27588576 0.80840522 0.020125033
0.071689144 0.073584445 0.0048298971 0.53546226 -0.2188766 0.81570411 0.017770682
0.07370504 0.073419243 0.0045026075 0.53558803 -0.21885519 0.81562734 0.017735876
0.075505793 0.073620468 0.0035554401 0.71564728 -0.2196852 0.66301394 0.061852183
0.073657766 0.075460047 0.0045182956 0.71563804 -0.2197929 0.66298819 0.061838534
-0.010195218 0.0026902333 0.0067459983 -0.12433689 -0.87337482 0.47091064 0.00080831448
-0.0069705895 0.0024054432 0.0069176606 -0.084672764 -0.86885792 0.48776686 0.0012747759
-0.0043283529 0.0023436944 0.0071821543 -0.044445723 -0.87801206 0.47657046 0.0017579091
-0.0014035241 0.0023310578 0.0073398077 -0.01718845 -0.8720696 0.48908001 0.0022024598
0.0017741092 0.0022337937 0.0071713021 0.0058448822 -0.87388074 0.4861052 0.002124462
0.0045743091 0.0023441473 0.007208386 0.043563548 -0.87078464 0.48973089 0.0015232523
0.0075727073 0.0024362765 0.0069686151 0.057133406 -0.86646932 0.49595034 0.0015069942
0.010655218 0.0025581846 0.0067935693 0.078929737 -0.8628431 0.49927145 0.00088958233
0.013128144 0.0026603683 0.006397441 0.10377464 -0.85067415 0.51534867 0.00072791992
0.015868122 0.0029022389 0.0063135521 0.11316098 -0.84519464 0.52234149 0.00061760523
-0.018240783 0.0048806025 0.0080604907 -0.19592948 -0.83877009 0.50801224 0.00095207273
-0.016072903 0.0046203919 0.0084125772 -0.16011521 -0.8334617 0.52887124 0.001457957
-0.013957549 0.0038986097 0.0078913281 -0.1451022 -0.85163784 0.50364494 0.00072522036
-0.010949057 0.0036650412 0.0083204862 -0.11002944 -0.83646911 0.53685468 0.0011009045
-0.0074037351 0.0033752234 0.0085711982 -0.080631316 -0.84848028 0.52304858 0.0014205109
-0.0041723722 0.0032438235 0.0087431893 -0.043437086 -0.84011203 0.54067075 0.0017442732
-0.0015224577 0.0031812452 0.0087565538 -0.010822478 -0.84876424 0.5286606 0.002906665
0.00098201132 0.003134714 0.0087365853 0.0082623884 -0.83748531 0.54639733 0.001922949
0.0047995164 0.0031752409 0.0086157741 0.042062964 -0.84142309 0.5387373 0.002013098
0.0072925738 0.0033622326 0.0085313814 0.065095492 -0.80198926 0.59378099 0.00083377236
0.010641951 0.0034499175 0.0082619805 0.084411472 -0.83632571 0.54169554 0.00084673322
0.013726846 0.0036895568 0.0079471301 0.11138807 -0.83411354 0.54022902 0.00066796126
0.016685667 0.0040299031 0.0078394413 0.12051 -0.8232047 0.55480754 0.00047055806
0.019464817 0.0043026633 0.0075961254 0.14530872 -0.8053323 0.57473916 0.0011917943
0.022397846 0.0048003471 0.0075422581 0.15771177 -0.78927219 0.59344459 0.0010223931
0.025345065 0.005187117 0.0072467444 0.19473988 -0.81191063 0.55034316 0.0026745764
0.028203314 0.00555827 0.006742591 0.2257667 -0.81953579 0.5266788 0.0032501365
0.030026406 0.0057596015 0.0062021432 0.25934151 -0.82675695 0.49921435 0.0032153868
-0.023087362 0.0064415145 0.0082751876 -0.2097661 -0.7666257 0.60686344 0.00083623518
0.02332291 0.0060577691 0.0088540753 0.17012443 -0.73321074 0.65837657 0.00016917197
0.026112052 0.0064309961 0.008559878 0.17998946 -0.72777468 0.66177624 0.00048440765
0.028721724 0.0066996878 0.0081235552 0.19867103 -0.78767902 0.58317363 0.0031204154
0.031575572 0.0070797019 0.0075512016 0.23276791 -0.79829651 0.55546534 0.0028774829
0.034326669 0.0078894366 0.0073660035 0.2646814 -0.78847551 0.55520278 0.0029050265
0.037006874 0.008538804 0.0068655382 0.31838289 -0.8146286 0.48478094 0.0021850471
0.03508063 0.0091567971 0.0087486515 0.24306919 -0.72159618 0.64824086 0.0013935801
0.037861016 0.009670902 0.0080973487 0.31206644 -0.78608638 0.5335567 0.0035058458
0.040445846 0.010420521 0.007526516 0.34794483 -0.80483592 0.48080522 0.0021437907
0.0432075 0.011383322 0.0070543811 0.38211948 -0.78981555 0.47976676 0.002702056
0.045196965 0.011729213 0.0060019959 0.45445466 -0.80650312 0.37818462 0.0051988717
0.043992128 0.012528659 0.0082646059 0.35298145 -0.76291245 0.54163516 0.0030928475
0.04647018 0.013447396 0.007565788 0.41425824 -0.77019942 0.48495674 0.002320623
0.049012948 0.014399433 0.0068060122 0.4642885 -0.75464034 0.46363151 0.0016435676
0.049844071 0.015719973 0.0080401162 0.44767129 -0.7363109 0.50738227 0.0030068781
0.052294128 0.016880933 0.0073201903 0.47524634 -0.72865993 0.49314883 0.0029439323
0.054219101 0.017596459 0.0064241239 0.51700741 -0.72196031 0.45986587 0.0012616161
0.053462185 0.018444788 0.0083261821 0.50642407 -0.6817233 0.52800387 0.0013122982
0.055552687 0.019363711 0.0075191893 0.54036659 -0.69979727 0.46721277 0.0011255996
0.057744339 0.020480691 0.0066793477 0.56235623 -0.66583335 0.49032792 0.0014267308
0.05667378 0.021247527 0.0087388782 0.49965581 -0.58187783 0.6416871 0.0021049927
0.05867232 0.022191672 0.0077557629 0.54857546 -0.64543474 0.53148752 0.0032497677
0.060659252 0.023339408 0.0068720281 0.6162802 -0.59996617 0.51013654 0.0015217899
0.059637874 0.024025738 0.008754719 0.54632199 -0.56981528 0.61387527 0.0038070928
0.061796028 0.025388226 0.007736057 0.65279448 -0.52711183 0.54407024 0.0029082787
0.063523747 0.026289033 0.0066110771 0.67258424 -0.52950126 0.51697087 0.0017325522
0.062715739 0.027429078 0.0086696148 0.60515767 -0.50002277 0.61948484 0.0036635071
0.0644814 0.028583225 0.0075005237 0.70760292 -0.45147601 0.54356933 0.0024000606
0.06613493 0.029580113 0.0062872814 0.72699463 -0.4477253 0.52059662 0.0017731009
-0.012799873 0.032807454 0.0084520765 0.22074474 0.85437858 0.47043487 0.0016038812
-0.010266826 0.032390028 0.0080096135 0.20130192 0.85721987 0.47397429 0.001189798
-0.0078872396 0.031986929 0.0077918586 0.14855902 0.85154533 0.50279301 0.0016046531
-0.0042379983 0.031345647 0.0078750113 0.098269835 0.83339983 0.54386371 0.0012170835
-0.0018334569 0.030904109 0.0082690511 0.098567016 0.77466142 0.62464726 0.0012638135
0.0014382418 0.030308744 0.0087174876 0.05137964 0.76095241 0.64677012 0.00084910064
0.065427162 0.03110957 0.0083225528 0.67455846 -0.35710534 0.64610118 0.001438747
0.066818751 0.031785022 0.0070063961 0.73432851 -0.41099295 0.54022819 0.0023049507
-0.021522181 0.035730388 0.0080110971 0.32279253 0.83416384 0.44718632 0.0012082767
-0.019322339 0.035196647 0.0075158053 0.28226686 0.85273039 0.43951818 0.00078748842
-0.016332751 0.034170419 0.0076507181 0.25075558 0.85290945 0.45789438 0.0014289191
-0.013798241 0.033642098 0.0072199851 0.23587808 0.86354893 0.44569588 0.001367925
-0.01173767 0.033210728 0.0069448277 0.19175979 0.86526757 0.46318489 0.0014360701
0.065934099 0.033093903 0.0088551873 0.64855176 -0.34000027 0.68101418 0.002614432
0.067641385 0.034457579 0.0075739175 0.75909901 -0.29146418 0.58208013 0.0019009279
0.069227152 0.035849679 0.0061539039 0.7771939 -0.3092953 0.54800195 0.0039996211
-0.028210161 0.038533621 0.0079841213 0.36811683 0.82420641 0.43031815 0.0013341617
-0.025413299 0.037574138 0.0074328003 0.35940084 0.82416588 0.43770045 0.0011410798
-0.02281782 0.036558777 0.0073451973 0.319915 0.83722508 0.4435184 0.0012457052
0.068220064 0.037273038 0.008114404 0.76158893 -0.20131078 0.61600018 0.0026542691
0.069437847 0.037741546 0.0067227143 0.80087781 -0.22648107 0.55434746 0.0024262611
-0.034024492 0.041444764 0.007675421 0.39970297 0.80664718 0.4353826 0.0017858912
-0.031498704 0.040304806 0.007470428 0.40208352 0.81245691 0.42218792 0.0015582158
-0.028925579 0.03950727 0.0065339534 0.37313882 0.84178627 0.3900812 0.0015177281
0.068579964 0.040362198 0.0085186772 0.68104291 -0.10939272 0.72402608 0.0021891361
0.069806531 0.040620755 0.0070944224 0.79840457 -0.13819298 0.58604842 0.0025994075
-0.042183101 0.044928938 0.0087055666 0.34964141 0.75753433 0.55126458 0.0020870222
-0.040099774 0.04427338 0.0081028016 0.40404943 0.77173102 0.49109599 0.0018297293
-0.037474476 0.043242518 0.0076059019 0.40514401 0.78759104 0.46428302 0.0016612087
-0.03532603 0.042335998 0.0072653792 0.39762184 0.80520427 0.43993518 0.0016331465
0.068742968 0.043634523 0.0086614806 0.73375773 -0.020482346 0.67910236 0.0028921082
0.07008002 0.043429818 0.0071410271 0.78807402 -0.048316747 0.61368126 0.0028592991
-0.046068318 0.047331706 0.0081048962 0.37901208 0.75788534 0.53099871 0.0024158778
-0.043558989 0.046481967 0.0074796421 0.39485142 0.78966683 0.46959427 0.0015098655
-0.040965993 0.045508828 0.0067655374 0.41917473 0.79097205 0.44570819 0.0019797951
0.068696506 0.046562754 0.0086121801 0.58888787 0.082333624 0.80401015 0.0049772155
0.070087731 0.046435207 0.0071244217 0.75214285 0.041916531 0.65766567 0.0033927662
-0.05447375 0.050560251 0.0088487295 0.2238671 0.68365711 0.69461966 0.0019664979
-0.052352805 0.050350077 0.0081197703 0.29828718 0.7382853 0.60494584 0.0033257988
-0.049524244 0.049397178 0.007620933 0.35950249 0.76113462 0.53984445 0.0020292164
-0.046908684 0.048579615 0.0069211079 0.40026826 0.78096771 0.47945249 0.0015507044
0.068076923 0.049582738 0.0085011255 0.47658467 0.19600064 0.85700107 0.0093044266
0.070049793 0.049446058 0.0069061504 0.73935723 0.097461782 0.66622221 0.0067557567
-0.064592555 0.053134456 0.0082471352 0.2082257 0.6520074 0.72905993 0.0038156922
-0.061701197 0.053295232 0.0078518419 0.20931679 0.67913246 0.70353788 0.0057212762
-0.05862515 0.052803151 0.0076295817 0.1844233 0.72223431 0.66660756 0.0054319105
-0.055595569 0.052191757 0.0073754336 0.25971624 0.78606373 0.56093776 0.0025925431
-0.05279826 0.051583212 0.0067166775 0.36017632 0.77267736 0.52272624 0.0015446902
0.065192342 0.052245378 0.0085790707 0.2744033 0.30699626 0.91129369 0.0036511184
0.067744121 0.052402791 0.0079229604 0.36577761 0.24888289 0.89680773 0.0081743132
0.069881514 0.052377935 0.0066888826 0.67290652 0.13452321 0.72739285 0.0073629413
-0.066923298 0.055765927 0.006814769 0.23975414 0.62855679 0.73988807 0.0031909563
-0.064614423 0.055209413 0.006831082 0.2347001 0.66631693 0.70776939 0.0047129435
-0.061381303 0.054583404 0.0065220031 0.21623296 0.70512938 0.67530423 0.0041782088
0.065406062 0.054084402 0.0076732421 0.24180444 0.35230744 0.90410733 0.0062013818
0.067968458 0.055269022 0.0069006211 0.29051852 0.31695971 0.9028486 0.01177342
0.069553673 0.055097595 0.0063241073 0.57452083 0.21037176 0.79099274 0.0062123798
-0.069167502 0.057012971 0.0062489463 0.22028613 0.68537402 0.69407237 0.0049142041
0.068303689 0.05714798 0.0062046451 0.28011575 0.25676888 0.92498916 0.009751671
-0.015751168 0.0055299583 0.0097940024 -0.15201169 -0.7781235 0.60943931 0.00092804746
-0.013479549 0.0053750235 0.010171163 -0.13361615 -0.78484797 0.60511184 0.00066207576
-0.010146983 0.004941151 0.010253021 -0.099457085 -0.78607196 0.61008132 0.0019228684
-0.0072869761 0.0049399193 0.010637186 -0.069799192 -0.77867389 0.62353426 0.0018882221
-0.004466448 0.0046310397 0.010472853 -0.047021113 -0.77719176 0.62750453 0.0021669988
-0.0015262235 0.0047719837 0.010698081 -0.0047982149 -0.7386384 0.67408478 0.0014247076
0.0013924004 0.0047015012 0.010604369 0.017278332 -0.73877788 0.67372745 0.0015690776
0.0042692181 0.0046798168 0.010527286 0.029905876 -0.76413178 0.64436656 0.0018633687
0.0072827004 0.0048085647 0.010399478 0.064528003 -0.76250809 0.64375263 0.0020197213
0.010278007 0.0048675472 0.010237885 0.081132539 -0.76468849 0.63927227 0.0017084788
0.013200674 0.00523134 0.010226611 0.1131033 -0.75429726 0.64671719 0.0013215877
0.016350906 0.0054253563 0.0098362816 0.13403958 -0.75526977 0.64156133 0.0010519654
0.019096799 0.0056488328 0.0093849152 0.15632588 -0.74717826 0.64597744 0.00062049268
0.021091817 0.0058702459 0.0091271447 0.1360957 -0.75315356 0.64361292 0.00099245505
-0.022258662 0.0077762054 0.010598767 -0.20119897 -0.75298208 0.62652773 0.0013359677
-0.019270655 0.0071571609 0.010895796 -0.20308766 -0.76033396 0.61696649 0.001335392
-0.016895778 0.0068578143 0.011286315 -0.16283695 -0.7684567 0.61883628 0.00073310017
-0.013421495 0.0065126256 0.011643876 -0.1155664 -0.71493405 0.68957502 0.0012455785
-0.010989878 0.0061399555 0.011635143 -0.08678633 -0.74552494 0.66080314 0.001482176
-0.0083454084 0.0060618767 0.011863639 -0.038113385 -0.70670336 0.70648265 0.0020968446
0.0072610229 0.0060942015 0.011810949 0.046926051 -0.68000782 0.73170167 0.0032561668
0.010689956 0.0063325958 0.011731868 0.07764487 -0.71780819 0.69189787 0.0012018039
0.013775834 0.0065692263 0.01155267 0.10191963 -0.64670861 0.75589705 0.0021723942
0.016636999 0.0067797797 0.011304077 0.13381034 -0.72506559 0.67555511 0.0012514631
0.019550424 0.0069969431 0.010860526 0.15489466 -0.72825557 0.66757131 0.00073308445
0.022576574 0.0074815103 0.010590375 0.17372052 -0.70469075 0.68791866 0.001406362
0.025396468 0.0078104613 0.010155945 0.18961658 -0.69932616 0.68919408 0.00075538422
0.028304296 0.0082098795 0.0098161018 0.19252205 -0.69691288 0.69083107 0.0010223221
0.031111691 0.0085216928 0.0094222277 0.20861994 -0.70214999 0.68078119 0.00086494541
0.033248495 0.0088313939 0.0091055846 0.25071025 -0.71966851 0.64747316 0.0033495664
-0.025137186 0.0093529299 0.011655279 -0.22311041 -0.71824515 0.65904915 0.0021892297
0.02392146 0.0090735871 0.011901697 0.18283749 -0.678765 0.71123034 0.0008232008
0.026109045 0.0095488941 0.011692837 0.1824252 -0.66734111 0.72206432 0.00062880246
0.028635709 0.0098553514 0.011243551 0.19122924 -0.66522831 0.72173595 0.00035930873
0.031602222 0.010374363 0.010900526 0.1974867 -0.62860131 0.75223631 0.00031288865
0.034394793 0.010554302 0.010332189 0.21908411 -0.65331286 0.7246961 0.0018529518
0.037271958 0.011013664 0.0098855589 0.26476634 -0.69432855 0.66918361 0.0019001742
0.039842766 0.011637056 0.0094481483 0.30523339 -0.67431104 0.67241144 0.0021411886
0.034828909 0.012357115 0.011670484 0.20910691 -0.61389905 0.76118475 0.00043871586
0.037696689 0.012876672 0.011287311 0.22855926 -0.58153349 0.78075564 0.00064585713
0.040601701 0.013376466 0.010735445 0.24727425 -0.59208351 0.7670024 0.00053023838
0.043426041 0.013858498 0.010045734 0.33116674 -0.66334534 0.67104506 0.002798876
0.045876786 0.01455144 0.0094292974 0.38512209 -0.65652591 0.64857894 0.0019933463
0.041707374 0.015085924 0.011767065 0.25151303 -0.5853073 0.77081555 0.0006320742
0.043802451 0.015713548 0.011430241 0.28741539 -0.57883912 0.76311058 0.0008558486
0.046584141 0.016380815 0.010749663 0.32142675 -0.57404655 0.7530973 0.00064782827
0.049251921 0.017008368 0.0099287927 0.40313035 -0.63946301 0.6546548 0.0031741906
0.051567052 0.01774816 0.0091575254 0.45916396 -0.65416378 0.60103101 0.0014423724
0.047650415 0.018330874 0.011819609 0.30356771 -0.52290994 0.79649979 0.0012539825
0.049783926 0.019034715 0.011293157 0.370635 -0.52057254 0.7691775 0.0013027017
0.052328281 0.019606216 0.010304758 0.41802832 -0.5836767 0.69611347 0.0031338385
0.054772679 0.020417301 0.0094946092 0.48988405 -0.60458869 0.62808132 0.0012252772
0.053194221 0.021793019 0.011517952 0.37952673 -0.47467184 0.79413229 0.0013926766
0.055495728 0.022492001 0.010571417 0.47728223 -0.4908419 0.72888678 0.0022083516
0.05776599 0.023152469 0.009563718 0.53219259 -0.55397326 0.64022231 0.0021871552
0.056233462 0.024690203 0.011562373 0.41978323 -0.41273835 0.80834967 0.0017119644
0.058576412 0.025463499 0.010588168 0.47776353 -0.44209415 0.75914073 0.00088927586
0.060620457 0.026126433 0.0095632998 0.57660466 -0.49523503 0.64982241 0.0019981745
-0.010344803 0.029688843 0.011702523 0.17526327 0.68071175 0.71127659 0.0011191659
-0.0074705118 0.029477542 0.011226768 0.13841689 0.75591928 0.63986462 0.0019775957
-0.0042544128 0.029300969 0.010812211 0.12211744 0.76139396 0.63668406 0.0013632911
-0.0014229354 0.028813627 0.010908027 0.08806435 0.75391662 0.65104103 0.00058120169
0.0016345329 0.028433356 0.011027809 0.04656589 0.70797771 0.70469791 0.0021620879
0.0050491588 0.028337594 0.011013334 0.0056466418 0.69310987 0.72080988 0.0010518784
0.05925354 0.027982553 0.011588941 0.46049038 -0.34848246 0.81639981 0.0015418958
0.061524305 0.028540332 0.010310677 0.55512273 -0.41914406 0.71844071 0.0024337571
0.063382 0.029468471 0.0093311397 0.63006705 -0.42297122 0.65123796 0.0020365966
-0.019299656 0.032489873 0.011578248 0.25636065 0.69972348 0.66683304 0.0012388366
-0.016378162 0.032021128 0.010971832 0.23799014 0.768341 0.59414881 0.0012821273
-0.013372487 0.031509019 0.010470181 0.20265116 0.80537617 0.55704737 0.0012835045
-0.0105517 0.030948505 0.010294206 0.17250928 0.78402472 0.59627652 0.0030829061
-0.0073993248 0.030531248 0.0099758366 0.14438775 0.78140974 0.60708404 0.0017613909
-0.0041166055 0.030233927 0.0096366955 0.10399509 0.78234524 0.61410171 0.0013581782
-0.00021693941 0.030075876 0.0092423409 0.082660057 0.76762325 0.63554835 0.0010374004
0.06189926 0.031240731 0.01128819 0.50453037 -0.29797024 0.81034738 0.0010778403
0.064087763 0.031684451 0.0098718423 0.6213547 -0.34707141 0.70246696 0.0019161089
-0.027822156 0.035774365 0.011663638 0.30749461 0.68299532 0.66254395 0.00091189827
-0.025074543 0.035154954 0.011017161 0.30633399 0.73342305 0.60683614 0.0032993068
-0.022411805 0.034492373 0.010498244 0.29307914 0.75859708 0.5819236 0.0027971286
-0.019612988 0.033731535 0.010164672 0.26920786 0.77987134 0.56509101 0.0016218136
-0.017190222 0.033527181 0.0092977565 0.24397053 0.79328543 0.557832 0.0014932069
0.062647715 0.033759199 0.011675718 0.50417048 -0.21040754 0.83758026 0.0033141256
0.064522311 0.034477923 0.010575757 0.5773496 -0.25724521 0.77491444 0.0013113262
0.066371709 0.035304613 0.0093561308 0.67973995 -0.26571679 0.68362868 0.0023841027
-0.033539373 0.038547948 0.011495081 0.31986329 0.67315984 0.66674083 0.0010614287
-0.031242818 0.03794549 0.010933194 0.34029117 0.75190657 0.56465781 0.0014573272
-0.028529493 0.037223045 0.01027716 0.34482524 0.74421448 0.57204932 0.001704425
-0.025930859 0.036504757 0.0097051971 0.33056074 0.77239925 0.54233658 0.0011463077
0.064679481 0.037418492 0.011164411 0.53360176 -0.13849992 0.83431828 0.00080892094
0.066773474 0.037698753 0.0096935444 0.6567117 -0.17716068 0.73303735 0.0024644907
-0.039938703 0.041660581 0.011455714 0.31591928 0.7011807 0.63917184 0.0018468577
-0.037263021 0.040923044 0.010776605 0.34699205 0.74165767 0.57405609 0.0015243795
-0.034694508 0.039985474 0.010413049 0.34739774 0.75227511 0.55981869 0.0015430031
-0.031871952 0.039347675 0.0094789583 0.36983457 0.76769757 0.52331907 0.0013905761
0.064906366 0.040456124 0.011353621 0.46168807 0.003621124 0.88703495 0.0053729154
0.067079678 0.040495753 0.0098753758 0.61911774 -0.072690494 0.78192663 0.0033040845
-0.046008989 0.044682503 0.011268906 0.28624707 0.68086618 0.67415416 0.0018614528
-0.043467361 0.043826286 0.010869955 0.32870981 0.71198958 0.62050033 0.0012663378
-0.040792402 0.043010674 0.010252072 0.34004587 0.71203846 0.6143046 0.0007679601
-0.038520336 0.042396411 0.0096613588 0.37600568 0.72139168 0.58156157 0.0013280567
0.056728654 0.044478305 0.0119904 0.010192158 0.33984679 0.94042563 0.0010232874
0.062522531 0.044589132 0.011803581 0.17904831 0.23945673 0.95425475 0.0033422217
0.064558536 0.04338472 0.011379226 0.39774349 0.13290001 0.90782022 0.0053615985
0.067237049 0.043438803 0.0098882718 0.57420051 0.02939358 0.81818694 0.0044281594
-0.058385972 0.047800191 0.011753295 0.046152107 0.53931129 0.84084082 0.0011930078
-0.055369593 0.047513768 0.011671083 0.11339696 0.59217685 0.79778916 0.0030958341
-0.052657545 0.047302615 0.011243065 0.19941415 0.64210343 0.74022782 0.0013545671
-0.049389265 0.046636287 0.010727555 0.26519245 0.66175985 0.70124662 0.0016381623
-0.046556819 0.046035804 0.010066624 0.31820655 0.71377909 0.62391031 0.0015442516
-0.044013835 0.045373119 0.0093218377 0.37686545 0.72316843 0.5787918 0.00091912819
0.056425236 0.045473009 0.01143703 0.010188107 0.33985862 0.9404214 0.0010209306
0.059386957 0.046086937 0.011507186 0.032057598 0.35481548 0.93438661 0.0017563476
0.061710879 0.046349671 0.011345303 0.085034363 0.31072158 0.94668967 0.0042488906
0.064668603 0.046348043 0.010773357 0.33501908 0.22085769 0.91596073 0.0059551848
0.06728068 0.046391618 0.0096250614 0.50801724 0.1415603 0.84963471 0.0057328055
-0.062329251 0.050915007 0.0096573969 0.09853185 0.62906575 0.77108222 0.0010067819
-0.05809319 0.049484394 0.010606701 0.093287595 0.59824896 0.79586148 0.0030051551
-0.055322062 0.049411252 0.010177144 0.18149987 0.6254158 0.75888926 0.0022743854
-0.052623123 0.048929341 0.0097612757 0.25563601 0.69034624 0.67681038 0.0022820439
-0.050568193 0.048380669 0.0095647573 0.32312721 0.67418772 0.6641233 0.0021140687
0.062300812 0.048982967 0.010223637 0.20241326 0.29088017 0.93510294 0.0028637494
0.064622059 0.049355552 0.0098630004 0.25574204 0.28081322 0.92506212 0.0019384061
0.066639572 0.049073659 0.0093933176 0.41507658 0.25641623 0.87290448 0.0059395754
-0.060441785 0.051414609 0.0092925439 0.1224078 0.64990902 0.75008976 0.0015298449
-0.057535686 0.051135808 0.009187418 0.12576327 0.65021431 0.7492696 0.0018352921
0.064467669 0.051146653 0.0091566173 0.25509956 0.30364087 0.91800135 0.0026325181
-0.020315791 0.0087330369 0.012431791 -0.17385811 -0.68337047 0.70906854 0.00093046977
-0.016491288 0.0082493955 0.012820596 -0.13812083 -0.69966 0.70099825 0.0010276837
-0.013483531 0.0077742706 0.012851984 -0.10247634 -0.67891699 0.72702849 0.0010679596
-0.010314193 0.0079048257 0.013357889 -0.06958364 -0.62706542 0.77585244 0.00077061285
-0.0076629878 0.0076631424 0.013303895 -0.029376077 -0.63264543 0.77388418 0.0017051575
-0.0046289745 0.0075096008 0.013303791 -0.015625596 -0.63395584 0.77321136 0.0021191204
-0.0015092128 0.0073975092 0.013249638 0.0033329597 -0.63253236 0.77452677 0.0022597325
0.0014280911 0.0075486726 0.013325572 0.024773642 -0.62303346 0.78180283 0.0023173774
0.0044192346 0.0074897725 0.01317433 0.051126767 -0.60379899 0.79549545 0.0027431606
0.0074526509 0.0075864065 0.013056817 0.053873379 -0.58732104 0.80755907 0.0027424498
0.010541061 0.007720415 0.012929748 0.076933213 -0.60306644 0.79397231 0.0016196906
0.013474696 0.008026029 0.0128344 0.095107466 -0.60093462 0.79361963 0.0016442391
0.01636222 0.008244155 0.012622888 0.11658256 -0.61682963 0.77841491 0.0019714048
0.019259347 0.0085239727 0.012360227 0.13789703 -0.64209425 0.75412154 0.0022702666
0.021464333 0.0087036677 0.012118113 0.15620755 -0.67485529 0.72122777 0.002051034
-0.025338277 0.010846343 0.013182089 -0.17732929 -0.65934169 0.73063183 0.0014547646
-0.02209999 0.010911679 0.014044015 -0.1581201 -0.62096828 0.76772153 0.0017543593
-0.019364353 0.010311214 0.01409564 -0.15106219 -0.62828457 0.76317668 0.002186869
-0.016593331 0.010116664 0.01439043 -0.11472326 -0.58845639 0.8003484 0.00164033
-0.013566812 0.0096670669 0.014417849 -0.0844144 -0.61371756 0.78499997 0.00072152825
-0.010168068 0.009621989 0.014676921 -0.05321626 -0.53196067 0.84509516 0.0022562891
-0.007364356 0.0095107974 0.014682481 -0.018534115 -0.50550854 0.86262244 0.0022178034
-0.0042630956 0.0095979292 0.014779505 -0.0057654013 -0.49199685 0.87057787 0.0023677249
-0.0014536949 0.0094825188 0.014679758 0.010493652 -0.47845858 0.87804747 0.0023322704
0.0015801162 0.0095733553 0.014654607 0.026271628 -0.4658004 0.88449973 0.0023412879
0.004744695 0.0097770691 0.014624565 0.042440098 -0.46050215 0.88664341 0.0022095458
0.0077102082 0.0098738223 0.014508175 0.055098668 -0.46258205 0.88486272 0.0018987001
0.010571188 0.010105091 0.014411273 0.072218113 -0.46690863 0.88135171 0.0014610989
0.01355333 0.010301008 0.014214993 0.088417657 -0.47068104 0.87786204 0.0011810124
0.01653865 0.010426543 0.013978875 0.10235992 -0.47851709 0.87209171 0.0010224072
0.019486597 0.010462607 0.013635181 0.11737812 -0.48568946 0.86621481 0.00089948083
0.022599857 0.010500791 0.013187903 0.14236052 -0.55241472 0.82132298 0.0023011856
0.025524324 0.010793956 0.012837349 0.15895452 -0.57409221 0.8032133 0.0024170782
0.028473664 0.011301688 0.012551753 0.17916264 -0.59268165 0.7852574 0.0014949106
0.030626647 0.011628839 0.012204635 0.19411738 -0.60376346 0.77316755 0.00050158828
-0.030516213 0.014264975 0.014736451 -0.16076954 -0.47014818 0.86782134 0.0015089159
-0.028438183 0.012988406 0.014215467 -0.16569449 -0.58869463 0.79119146 0.0025467621
-0.023846485 0.012367084 0.014892198 -0.15636835 -0.592803 0.79002124 0.0027957084
0.014830728 0.01204876 0.014992616 0.075446069 -0.38465473 0.91997206 0.00054244464
0.017229611 0.012340757 0.014881824 0.083782643 -0.34396294 0.93523794 0.0025520707
0.0197894 0.012588019 0.014686087 0.10567787 -0.37710714 0.92012084 0.0020981473
0.022553287 0.013013368 0.014545565 0.12188191 -0.40311104 0.90699857 0.0019970709
0.025507197 0.013316615 0.014309123 0.13411275 -0.43565711 0.89006555 0.0015702894
0.028423609 0.013430349 0.013909158 0.15922958 -0.45086771 0.87827343 0.0013877626
0.031420585 0.013381131 0.013266373 0.18327191 -0.52796561 0.82925487 0.0011600259
0.034295205 0.013827956 0.012868548 0.19774431 -0.54383051 0.81556451 0.00065811502
0.037192326 0.014333263 0.012436754 0.21473341 -0.55490452 0.80372298 0.00055125478
0.039565392 0.014948802 0.012248386 0.23315614 -0.57088268 0.78723013 0.00085834204
0.026118215 0.015056454 0.014943924 0.10276159 -0.3322089 0.93759125 0.00073380163
0.028772054 0.01544766 0.014788522 0.12924144 -0.38760281 0.91272163 0.00083430187
0.03173336 0.01588328 0.014568464 0.14382546 -0.38490692 0.91168022 0.0026912049
0.034658659 0.016286658 0.01423968 0.16858925 -0.43636873 0.88383257 0.0020965959
0.037507899 0.016461479 0.01369485 0.19783309 -0.4532218 0.86916751 0.00085113547
0.040528901 0.016591694 0.013002953 0.22305334 -0.50330859 0.834822 0.00074378133
0.043341514 0.017089028 0.012497386 0.26037124 -0.51577413 0.81620085 0.0013365002
0.045736454 0.017748557 0.012122424 0.30376697 -0.5467903 0.78022176 0.0018641283
0.035481874 0.018151669 0.014935261 0.12714235 -0.33208749 0.93464035 0.0018541783
0.037721768 0.018598901 0.014739899 0.17769395 -0.39298528 0.9022125 0.0012862766
0.040660191 0.019255595 0.014388662 0.20533988 -0.39740232 0.89437521 0.0015956583
0.043519188 0.01950351 0.013744103 0.23725067 -0.41885301 0.87651247 0.00052763877
0.046448536 0.019532794 0.012932062 0.27752259 -0.46087387 0.84295696 0.0012330743
0.048995756 0.020318929 0.012457252 0.3359803 -0.48294014 0.80863219 0.00190315
-0.00013028049 0.023883402 0.014761557 0.063282482 0.54836655 0.83384019 0.0013561117
0.0022393034 0.023750011 0.014673308 0.052535072 0.52080429 0.85205805 0.0014002643
0.0045486223 0.023370035 0.014821842 0.016305057 0.42016751 0.90730006 0.0026019211
0.0073403209 0.023487322 0.014703703 0.002134176 0.42104489 0.90703726 0.0028778356
0.01076681 0.023810495 0.014614649 -0.017503694 0.49563226 0.86835605 0.0011705831
0.013674618 0.023314774 0.01495574 -0.039481316 0.3515428 0.93533891 0.0038448339
0.041620772 0.021170901 0.01496076 0.15168543 -0.30773675 0.93930274 0.0016282414
0.043897267 0.021723097 0.014669846 0.21069358 -0.32212701 0.92295307 0.0027174901
0.046572201 0.022466859 0.01424046 0.25640249 -0.35818854 0.89775205 0.00091772008
0.049523775 0.022449052 0.013321704 0.30109796 -0.40543345 0.86311281 0.00074829726
0.052078232 0.022832403 0.012598868 0.3517001 -0.43539658 0.82869589 0.0019694036
0.054197565 0.023744348 0.012109572 0.42034203 -0.45828059 0.78312922 0.0016624773
-0.012312456 0.026595183 0.014728693 0.15810685 0.50735247 0.84711021 0.001167796
-0.010129214 0.026249837 0.014552373 0.14868627 0.52148533 0.84020555 0.0017879624
-0.0077643069 0.025838926 0.014395319 0.13148637 0.53851736 0.83229226 0.0015843894
-0.0044457447 0.025738033 0.013987329 0.11547974 0.54139483 0.83280009 0.0011811185
-0.001617304 0.025356336 0.013927117 0.073763728 0.55886072 0.82597435 0.0008891832
0.0012885208 0.025418062 0.013668273 0.056362525 0.57906187 0.81333297 0.0024946302
0.0043519582 0.025406426 0.013537012 0.029164737 0.56902838 0.82180047 0.0026887388
0.0074097067 0.025132116 0.013712287 -0.013382763 0.50692236 0.86188787 0.0011483956
0.010281196 0.025925089 0.013258927 -0.036253475 0.5149349 0.8564623 0.00082408095
0.013449979 0.024819203 0.014167252 -0.072921313 0.4750796 0.87691611 0.001630445
0.016978202 0.025572129 0.014057686 -0.10561971 0.44074035 0.89139915 0.0012170025
0.018998846 0.025043271 0.014563328 -0.073595107 0.37017468 0.92604238 0.00068218302
0.022812814 0.025784191 0.014720464 -0.091566615 0.31519887 0.9445979 0.001775706
0.026041057 0.026138131 0.014956331 -0.094332054 0.2738336 0.95713985 0.0029673632
0.027033426 0.026898999 0.014777284 -0.072825253 0.24357827 0.96714324 0.0008726095
0.047485549 0.024661755 0.014797066 0.20179696 -0.24857634 0.94735831 0.0034846202
0.049652148 0.025308395 0.014417716 0.26807112 -0.30346093 0.91435742 0.001122375
0.052529015 0.025454987 0.013549654 0.33254284 -0.34460095 0.87787557 0.00084586511
0.055199686 0.025807738 0.012611105 0.37270483 -0.37840921 0.84728843 0.0022861015
0.057187892 0.026877575 0.012179075 0.44676626 -0.4131631 0.79353392 0.0016977995
-0.021230394 0.029835138 0.014689695 0.24724968 0.60454822 0.7572245 0.0010520902
-0.019265965 0.029263524 0.014514294 0.21247344 0.54638702 0.81013346 0.0018982796
-0.016523266 0.028711444 0.014193059 0.21847457 0.60091794 0.76887345 0.002508057
-0.013628189 0.028523484 0.013579024 0.18416925 0.59778798 0.78021222 0.00092309748
-0.010469169 0.028126787 0.013194866 0.16171011 0.6388222 0.75216758 0.0021565987
-0.0073949238 0.027887683 0.012767638 0.14053071 0.66365933 0.73471588 0.0012262388
-0.0046884296 0.027698262 0.012505905 0.11148803 0.67088056 0.73313689 0.0012964569
-0.0017207318 0.027457859 0.012329887 0.083993599 0.67939198 0.72895241 0.0015310111
0.0017419496 0.027123252 0.012305527 0.043509874 0.62751204 0.77739024 0.0010730308
0.0051460881 0.027037567 0.012280958 0.023652485 0.60776609 0.7937637 0.0011968705
0.012225556 0.027270377 0.012355491 -0.039161094 0.48894826 0.87143332 0.001723486
0.022016892 0.027377855 0.013772777 -0.10922663 0.34993416 0.9303847 0.0006334589
0.027750429 0.027710626 0.014518156 -0.080485508 0.2390265 0.96767175 0.00074171706
0.032246888 0.028253091 0.014918227 -0.08109612 0.25009078 0.96482015 0.00047994114
0.034481212 0.029218053 0.014811312 -0.081264839 0.24141896 0.96701235 0.00049929385
0.037120033 0.029623918 0.014987716 -0.078697577 0.2249414 0.97118902 0.0009870159
0.050518971 0.027462874 0.014809804 0.21691971 -0.15931754 0.96310109 0.0025955681
0.052626304 0.028398313 0.014410682 0.2674742 -0.192522 0.94413602 0.003568281
0.055564485 0.028538091 0.013493781 0.34092826 -0.26283327 0.90259987 0.00078769488
0.058096878 0.028797941 0.012523823 0.41851971 -0.30813152 0.85433966 0.0022508693
-0.027832428 0.032669362 0.014547821 0.24845441 0.60103017 0.75962698 0.00140123
-0.0252422 0.031972252 0.014221844 0.25300628 0.57457376 0.77836549 0.0016235926
-0.022545971 0.031530824 0.013669868 0.24887282 0.60864782 0.75339901 0.0010654402
-0.019778259 0.031213576 0.01305165 0.24698038 0.65338504 0.71560377 0.0019364327
-0.016850578 0.030637782 0.012649765 0.22516705 0.64965439 0.7261191 0.0013761988
-0.014302445 0.03033434 0.012155155 0.20210741 0.72151572 0.66224438 0.0016692883
0.035814937 0.030348338 0.014593356 -0.093583047 0.27989233 0.95545924 0.00011871138
0.037680045 0.031363573 0.014463214 -0.096786708 0.26430607 0.95956999 0.00035275921
0.040333107 0.032049105 0.01457927 -0.090211503 0.21836944 0.97168756 0.00070729654
0.044575259 0.032688014 0.014963675 -0.086961977 0.2346487 0.96818262 0.00097910513
0.05319285 0.031152327 0.01479103 0.19142425 -0.10157156 0.97623765 0.0029870674
0.055540543 0.031607203 0.014226674 0.26346809 -0.14152198 0.95423067 0.0029788394
0.058531284 0.031421334 0.013055415 0.36695707 -0.2072479 0.90685767 0.0018114506
0.060635936 0.032104537 0.01229296 0.46242318 -0.2633301 0.84665346 0.0020673794
-0.034258608 0.035476856 0.01460294 0.2622835 0.60105234 0.75494593 0.0012308214
-0.031215837 0.034829792 0.014008176 0.27527782 0.58605742 0.76207542 0.0012791899
-0.028339231 0.03438681 0.013264955 0.28649864 0.64630902 0.70725042 0.0019945155
-0.025346022 0.033726014 0.012726402 0.28128248 0.69017106 0.66674143 0.00092757132
-0.02306165 0.033364158 0.01213376 0.26106542 0.67523062 0.68986112 0.0012443161
0.04366412 0.033335563 0.014682687 -0.086967111 0.23467746 0.96817511 0.00097529002
0.046565372 0.034176186 0.014757807 -0.051824808 0.2219393 0.97368228 0.0016444621
0.049747024 0.034892891 0.014813664 -0.03344119 0.19541886 0.98014963 0.0028845943
0.052935246 0.034649722 0.014812395 0.051784728 0.1256837 0.99071789 0.0031544
0.055631984 0.034488175 0.014432027 0.20968105 -0.007584251 0.97774041 0.0050521228
0.058566164 0.03443449 0.013619025 0.31707156 -0.08723975 0.94438064 0.0028948167
0.061313011 0.034602255 0.012565348 0.41980636 -0.14559901 0.89585912 0.0021244243
-0.043196693 0.038829878 0.014940055 0.18794039 0.51440966 0.83669657 0.0018091847
-0.04031169 0.038348634 0.014428826 0.23302628 0.53340012 0.81313169 0.0015350517
-0.037284866 0.037507936 0.01406376 0.27243996 0.58843553 0.76126212 0.0012609105
-0.034456845 0.037350357 0.013121663 0.27814445 0.64593482 0.71091759 0.0013810784
-0.031518579 0.036637444 0.012550208 0.30415699 0.68607426 0.66090131 0.00098891126
0.046582375 0.036366638 0.013985688 -0.053941168 0.21956344 0.97410583 0.0015992302
0.049914822 0.037138756 0.014194649 -0.04672537 0.24417371 0.9686051 0.00089131435
0.052598249 0.037251584 0.014332267 0.031849321 0.19495235 0.98029548 0.0012191875
0.055548288 0.037372418 0.014234184 0.11752678 0.13573512 0.98374969 0.0033589005
0.058602009 0.037518021 0.013745273 0.23534875 0.049121466 0.97066891 0.0035025792
0.061658993 0.037409108 0.012753787 0.34990743 -0.047473583 0.93558061 0.0034589397
0.063270211 0.038825758 0.012143806 0.45341718 -0.010553117 0.89123595 0.0053828042
-0.054772098 0.040880978 0.014815589 0.0065801181 0.39320195 0.91942859 0.0016554504
-0.052524649 0.04130502 0.014822988 0.037506729 0.40249589 0.91465306 0.0026889227
-0.049405988 0.041210495 0.014680021 0.10802975 0.44902691 0.88696361 0.0028635522
-0.046473734 0.040791288 0.014405712 0.16955067 0.52541196 0.83378345 0.0020161825
-0.043472327 0.040556911 0.013798308 0.21052623 0.54661012 0.81049126 0.00093132054
-0.04078329 0.040408511 0.012979945 0.2982789 0.64820933 0.70060992 0.0021096703
-0.038086221 0.039657369 0.012572357 0.30687192 0.6519351 0.69340473 0.0016389338
0.052791011 0.039508443 0.013667423 0.030459682 0.21561992 0.97600222 0.0012806889
0.05561433 0.040258043 0.013576848 0.030647589 0.28862631 0.9569512 0.002538651
0.058760181 0.040477145 0.013335032 0.12693264 0.21070375 0.96927392 0.0060150139
0.061590146 0.040453706 0.012729918 0.26416346 0.11758684 0.95728314 0.002753925
0.063390151 0.040183268 0.01213496 0.42522824 0.054227963 0.90346014 0.0039415197
-0.055291258 0.043788221 0.013717753 0.054620244 0.45882663 0.88684541 0.001798573
-0.05208889 0.043520946 0.013690042 0.072599225 0.45008686 0.89002872 0.0019893679
-0.049223024 0.043417711 0.013297816 0.19669136 0.55387843 0.80903107 0.001927975
-0.046303242 0.04301817 0.012826127 0.23668998 0.60558212 0.75976849 0.001889037
-0.043633923 0.042467307 0.012319122 0.28086534 0.64953607 0.70655322 0.0020913447
0.055959027 0.042844694 0.012646318 -0.0031991336 0.31977403 0.94748843 0.0010883968
0.058466356 0.043089822 0.01267352 0.047724806 0.3074671 0.95036119 0.0032233351
0.061455626 0.04321748 0.012355248 0.22946927 0.19991569 0.9525637 0.0056102104
-0.058777265 0.04616113 0.012480811 0.076969564 0.54342753 0.83591992 0.0013967159
-0.055504605 0.046247397 0.012462994 0.079927512 0.52484858 0.84743464 0.0011543975
-0.05231243 0.04550872 0.012564969 0.1496003 0.57138062 0.80693489 0.0024700542
-0.049615774 0.045023784 0.012274931 0.22752289 0.61463994 0.75528216 0.0015134094
-0.018618718 0.011677936 0.015232805 -0.11769342 -0.5802086 0.80591953 0.0015570114
-0.016242737 0.011692335 0.015522311 -0.078903414 -0.53801942 0.83923143 0.0019864282
-0.013289025 0.01118 0.015421363 -0.052588437 -0.51323384 0.85663617 0.0023060744
-0.010388014 0.010957584 0.015459822 -0.02885963 -0.47104296 0.88163805 0.0017323171
-0.0072010788 0.010928157 0.0154927 -0.0058011319 -0.45381582 0.89107668 0.0022628577
-0.0042793415 0.011031553 0.015536098 0.0081835408 -0.4368189 0.89951223 0.0023107217
-0.0013550464 0.0109993 0.01545022 0.023921005 -0.42235163 0.90611631 0.0024006185
0.0016723893 0.01103642 0.015370106 0.032900698 -0.40790465 0.9124316 0.0021017906
0.0044585126 0.01126416 0.015344554 0.041495744 -0.40618914 0.91284633 0.0022356906
0.0073575745 0.011335037 0.015216455 0.051104862 -0.41065246 0.91035861 0.0021454664
0.010286201 0.011610759 0.015149791 0.067040548 -0.41803265 0.9059549 0.0018569829
0.012646101 0.011878156 0.015092967 0.083122097 -0.42760992 0.90013361 0.0015536345
-0.027730174 0.014381524 0.015461163 -0.15031192 -0.51044631 0.84667051 0.002739985
-0.025280865 0.013798023 0.015570853 -0.1315825 -0.52536696 0.84064001 0.0024046204
-0.022340899 0.013578976 0.015892319 -0.091149025 -0.47400084 0.87579393 0.001614458
-0.019479185 0.013593908 0.016224308 -0.097439788 -0.45010793 0.88764203 0.0031319861
-0.01627408 0.013512477 0.016446969 -0.035001941 -0.38998532 0.92015558 0.0028349517
-0.013466872 0.01364924 0.016574277 -0.010198078 -0.35858771 0.93344033 0.0029261573
-0.010312147 0.013431779 0.016524294 0.0065340796 -0.32143229 0.94691002 0.0024482398
-0.0074509927 0.013455947 0.016492877 0.023333194 -0.29692924 0.95461434 0.0028012707
-0.0047192071 0.013493595 0.016435778 0.037515342 -0.26933685 0.96231508 0.0025238302
-0.001658263 0.013426379 0.016304763 0.043992009 -0.25653094 0.96553433 0.0025359322
0.0013963426 0.013501029 0.016190488 0.044660181 -0.24479121 0.96854669 0.0023815392
