# .PCD v0.7 - Point Cloud Data file format
VERSION 0.7
FIELDS x y z normal_x normal_y normal_z curvature
SIZE 4 4 4 4 4 4 4
TYPE F F F F F F F
COUNT 1 1 1 1 1 1 1
WIDTH 559
HEIGHT 1
VIEWPOINT 0 0 0 1 0 0 0
POINTS 559
DATA ascii
-0.01703335 0.030305706 -0.012282985 0.20348328 0.66701818 -0.71671563 0.0015526474
0.025733126 0.030523304 -0.012414421 -0.21904819 0.66232455 -0.71648043 0.0019228742
0.028636409 0.03096687 -0.01286621 -0.22433825 0.66305947 -0.71416003 0.0012069984
0.031581309 0.031447556 -0.013343878 -0.24303903 0.61255682 -0.75213444 0.0023252345
0.034458011 0.031675022 -0.01401664 -0.22429995 0.55821961 -0.7987994 0.0010889872
0.037284091 0.0321627 -0.014518145 -0.22796632 0.50607204 -0.83181882 0.0019222751
0.039739918 0.032656919 -0.014834628 -0.20752063 0.48669955 -0.84856284 0.0017970158
0.056125801 0.031433113 -0.014687817 0.35103396 -0.12341551 -0.92819375 0.0029629718
0.058316689 0.031572983 -0.013742978 0.40090698 -0.15633878 -0.9026804 0.0017279007
0.060599584 0.031756848 -0.012556583 0.47605523 -0.24021113 -0.84597284 0.0024236927
-0.057910979 0.035414752 -0.012422521 -0.44335955 -0.27970967 -0.85158378 0.0017631678
-0.055525523 0.034555592 -0.013294824 -0.42571232 -0.27176818 -0.86308235 0.0015333593
-0.052545596 0.034660239 -0.014483649 -0.30050817 -0.13417338 -0.94429463 0.0041711465
-0.050852302 0.033680126 -0.014905559 -0.26165465 -0.15392041 -0.95280915 0.0075084432
-0.039442588 0.035626899 -0.014991409 0.15123503 0.35086527 -0.92413288 0.0042008562
-0.037245288 0.035426918 -0.014654862 0.20240217 0.43578148 -0.87699932 0.0026157901
-0.034372516 0.034804396 -0.014256546 0.22804783 0.49540675 -0.83819234 0.0015286215
-0.031494286 0.034533158 -0.013539014 0.26736927 0.5301581 -0.80464029 0.0013225143
-0.028610513 0.034150146 -0.01284973 0.26701903 0.61914623 -0.73848414 0.0014172726
-0.025964884 0.033536263 -0.012420956 0.26230922 0.65020192 -0.71304363 0.0013443029
0.032488126 0.033238862 -0.012104428 -0.25142819 0.68184292 -0.68693101 0.00079919118
0.034800403 0.033636428 -0.01254867 -0.26717296 0.66513604 -0.69728959 0.0015656495
0.03761927 0.03425587 -0.013064387 -0.28952858 0.59881049 -0.74672568 0.0020920972
0.04042498 0.034552272 -0.013802566 -0.25150931 0.54951453 -0.79672879 0.0014433045
0.043261986 0.034977552 -0.014395824 -0.22575079 0.48088148 -0.84722459 0.0019271798
0.046137527 0.035576697 -0.014767651 -0.16300397 0.41329953 -0.89588678 0.0032199123
0.048099488 0.035886116 -0.014908853 -0.083095595 0.44972104 -0.88929528 0.0039935689
0.056054126 0.034765542 -0.014790649 0.23134147 0.037634969 -0.97214437 0.0043592732
0.058499668 0.034635276 -0.0140497 0.33503148 -0.02983455 -0.94173449 0.0037265846
0.061391938 0.034526054 -0.012765069 0.44605854 -0.11637283 -0.88740587 0.0030646534
-0.058328379 0.037778012 -0.012725133 -0.40122214 -0.15186071 -0.90330458 0.0045840773
-0.055492897 0.03745291 -0.013848256 -0.31065768 -0.043554652 -0.94952339 0.0041357102
-0.052374385 0.037604339 -0.014654386 -0.14865892 0.10265107 -0.98354632 0.0033248628
-0.049479585 0.038424894 -0.014847655 -0.064872324 0.17808519 -0.98187435 0.0088482639
-0.046429936 0.038415715 -0.014803605 0.081672914 0.34016693 -0.93681163 0.0040141642
-0.043291703 0.037999935 -0.014544135 0.16084476 0.42338404 -0.89155757 0.0029816232
-0.040392213 0.037666764 -0.014123013 0.19399796 0.49381885 -0.84764832 0.0013551221
-0.037483148 0.037468079 -0.013428501 0.26763761 0.52491063 -0.80798453 0.0013771473
-0.034662884 0.037044618 -0.012796428 0.276227 0.61487621 -0.73866493 0.0016077732
-0.032197818 0.036536284 -0.012259869 0.29176098 0.6478858 -0.70364726 0.0017697832
0.04097347 0.036575198 -0.012473357 -0.30435005 0.62924606 -0.71513671 0.0015869255
0.043660291 0.037289977 -0.012985202 -0.28530756 0.58347523 -0.7603659 0.0014742657
0.046461582 0.03750924 -0.013709288 -0.2249305 0.52709979 -0.81949496 0.0017871012
0.049444702 0.037546214 -0.014325059 -0.12655598 0.45267293 -0.88264984 0.0017422575
0.052546147 0.037773367 -0.014518674 -0.031737916 0.34192845 -0.93918991 0.0054755188
0.055495676 0.03743282 -0.014497351 0.13183589 0.25860807 -0.95694369 0.0059122993
0.058441084 0.037575159 -0.013971271 0.25470233 0.12334312 -0.95912105 0.0048300899
0.061494127 0.037481751 -0.012940064 0.37460843 0.01458867 -0.92706835 0.0046075219
0.06326101 0.037843589 -0.01212331 0.511558 -0.058708135 -0.85724074 0.0026507643
-0.060337283 0.0410574 -0.012225309 -0.42705664 -0.057523757 -0.90239328 0.0035966819
-0.058387104 0.04049585 -0.012950707 -0.3120428 -0.023804409 -0.94976979 0.0074659288
-0.055536732 0.040605076 -0.013724349 -0.19979204 0.14443918 -0.96913385 0.0061265635
-0.05247831 0.040517632 -0.014165476 -0.081347026 0.25969782 -0.96225762 0.0060855355
-0.049402036 0.040573563 -0.014140138 0.035687026 0.35387385 -0.9346121 0.0046103275
-0.046501081 0.040490974 -0.013823096 0.13317375 0.43909711 -0.88851476 0.0019870067
-0.043496475 0.040418819 -0.013198638 0.22675553 0.53518015 -0.81373471 0.0025190753
-0.040659372 0.039989691 -0.012636339 0.25575793 0.59592772 -0.76122141 0.0023581504
-0.038139787 0.039292879 -0.012310852 0.28926748 0.62181622 -0.72778356 0.0014641607
0.046920519 0.039584719 -0.012484476 -0.27337828 0.58029848 -0.76714933 0.0021876842
0.049663588 0.040284842 -0.012836256 -0.20457634 0.52537048 -0.82591432 0.002606113
0.052488588 0.040522821 -0.013266491 -0.11986089 0.44717345 -0.88637984 0.0039483472
0.055502634 0.040467281 -0.013553221 0.0033288323 0.36260226 -0.93193805 0.0035814974
0.058563028 0.040575653 -0.013316469 0.14689469 0.26149198 -0.95396221 0.0046826121
0.061556228 0.040383365 -0.012668578 0.29017115 0.17216277 -0.94136107 0.0029117886
0.063319013 0.039705563 -0.012053071 0.47847903 0.060256407 -0.87602907 0.0055061406
-0.060375374 0.043036114 -0.01211748 -0.31470865 0.1488758 -0.93744034 0.0046969634
-0.0584668 0.043682445 -0.012566905 -0.19562384 0.1939538 -0.96130806 0.0026866866
-0.055474147 0.043450508 -0.013071743 -0.09570653 0.30009314 -0.94909662 0.0050791479
-0.052385662 0.043607254 -0.012986443 0.045007128 0.40550897 -0.9129824 0.0046188161
-0.049619019 0.043297913 -0.012811233 0.13552202 0.4925597 -0.859662 0.0033591622
-0.046623088 0.04269195 -0.012542949 0.21015678 0.56320137 -0.7991485 0.0030410795
-0.044347517 0.042128313 -0.012242524 0.26186454 0.6151495 -0.74365187 0.0020902883
0.052815985 0.04236196 -0.012276157 -0.19288976 0.53735727 -0.82099986 0.0024071515
0.055636197 0.042919748 -0.012443851 -0.087127231 0.46278065 -0.88218069 0.0033581196
0.058560133 0.043154325 -0.012450791 0.052916907 0.36828443 -0.92820603 0.0042134831
0.06114395 0.042819053 -0.012278822 0.24051286 0.2470198 -0.9386878 0.0050077573
-0.057862151 0.045504279 -0.012150561 -0.15685926 0.34344026 -0.92598271 0.0055708885
-0.055507313 0.04549025 -0.012255654 0.0088262707 0.45819059 -0.88881016 0.0036487863
-0.053107526 0.045300089 -0.012187158 0.12445104 0.53198433 -0.83755881 0.0027350737
-0.0044280137 0.0051595974 -0.010403606 -0.055347707 -0.62945712 -0.77506155 0.00099352165
-0.001620608 0.0053066514 -0.010813819 -0.045383338 -0.63348716 -0.77242106 0.0009415719
0.00074685307 0.0045115971 -0.010125116 -0.037859488 -0.63635659 -0.77046543 0.00096525066
0.0043080617 0.0053568743 -0.01117469 -0.015855365 -0.63718009 -0.77055186 0.00069892762
0.0076648002 0.0052792989 -0.011063084 0.012501187 -0.62500906 -0.78051746 0.00072231155
0.010004548 0.0053025121 -0.011047124 0.024951922 -0.63167775 -0.77482939 0.00091695698
0.01285455 0.0054735052 -0.011032766 0.031336993 -0.63807487 -0.7693364 0.00069910975
0.015872562 0.0055239801 -0.010793131 0.068091899 -0.66802156 -0.74102014 0.00056539453
0.019685602 0.005884815 -0.010661324 0.096397094 -0.66198075 -0.74329609 0.00055591075
-0.012861794 0.0079099648 -0.01176887 -0.11489356 -0.56307656 -0.81837904 0.00025723761
-0.0097076567 0.0071735876 -0.01171304 -0.10613095 -0.57259905 -0.81293696 0.00016897096
-0.0072497204 0.0070467968 -0.011891643 -0.072840996 -0.59162211 -0.80291802 0.00076431577
-0.0016880709 0.0064470344 -0.01194973 -0.048511986 -0.61342394 -0.78826243 0.0016910869
0.017032309 0.0067047742 -0.011915902 0.078253753 -0.66436404 -0.74330121 0.00063714402
0.02060863 0.006504125 -0.011130387 0.096398957 -0.66198468 -0.74329233 0.00055659679
0.021834295 0.0073281862 -0.011755483 0.098758474 -0.63553882 -0.76572663 0.0009522016
-0.019226817 0.0096107163 -0.011773174 -0.15921623 -0.54363358 -0.82408297 0.00048979674
0.037257511 0.011507208 -0.011473037 0.28875986 -0.6587469 -0.69474477 0.0015294398
0.041298151 0.011608188 -0.0092854965 0.33035797 -0.67060512 -0.66419303 0.00093511841
-0.030870618 0.013991217 -0.011832383 -0.22571665 -0.55588526 -0.80002719 0.00032492357
-0.027196549 0.012429268 -0.011751019 -0.21207313 -0.55169761 -0.80663174 0.00031971402
0.040860772 0.012997852 -0.011282642 0.31067321 -0.65818876 -0.68576217 0.0012416187
0.0441131 0.014155089 -0.010789459 0.34349984 -0.66315848 -0.66500276 0.0010777803
0.046303798 0.01478603 -0.010001511 0.37601888 -0.67118865 -0.6388393 0.00077514816
-0.033438187 0.015284864 -0.01199668 -0.25251058 -0.54446763 -0.79987091 0.0004241507
0.046676245 0.016340548 -0.011523143 0.37961915 -0.60935181 -0.69611758 0.0011657033
0.049395461 0.016501524 -0.0098381713 0.41741157 -0.63458687 -0.65043598 0.0004245993
0.051594794 0.017638206 -0.009406168 0.46408638 -0.61952448 -0.63309813 0.00066301861
-0.039769575 0.018557228 -0.011991601 -0.31093201 -0.52335066 -0.79336327 0.00028038074
0.050001685 0.018569017 -0.0116437 0.42005324 -0.58065468 -0.69742048 0.0015742927
0.052540816 0.019848254 -0.010966179 0.46140376 -0.57975084 -0.67156202 0.00070853933
0.054949325 0.0202905 -0.0095652631 0.51897931 -0.59286505 -0.61576903 0.0008282857
0.0537633 0.021958504 -0.011982686 0.45854527 -0.50532001 -0.73101836 0.0019510651
0.05567994 0.02235364 -0.010878812 0.50283271 -0.53827995 -0.67632389 0.0017661565
0.057860676 0.023235617 -0.0097802281 0.55571365 -0.56524223 -0.60965854 0.00089933653
-0.048683103 0.024737181 -0.011857686 -0.3586466 -0.43741792 -0.82464433 0.00054130069
0.0021376261 0.026984651 -0.01197629 0.041395016 0.69342124 -0.71934247 0.0015946253
0.056623273 0.024236824 -0.011596896 0.52309316 -0.48744953 -0.69911832 0.00051973114
0.058630846 0.025433073 -0.010929277 0.52066165 -0.4695175 -0.71306717 0.00098238804
0.060789812 0.026346192 -0.0098304898 0.59191483 -0.48659304 -0.64254493 0.0014912671
-0.012972662 0.029692352 -0.011652895 0.19045517 0.69922078 -0.68906969 0.001561147
-0.010468557 0.029355465 -0.011374923 0.16295852 0.7215758 -0.67288411 0.0015404103
-0.007420274 0.028986325 -0.011064203 0.13673241 0.67165577 -0.72813654 0.0016646283
-0.0044745835 0.028798066 -0.010771999 0.10549227 0.74424428 -0.65952396 0.0010539179
-0.0015017929 0.02859677 -0.010573189 0.073399834 0.75292969 -0.65399498 0.0010283414
0.0015120257 0.028441537 -0.010512587 0.035957932 0.73749989 -0.67438924 0.0026482779
0.0045182123 0.028356967 -0.010534095 -0.0086443909 0.74578601 -0.66612953 0.0021880851
0.0074938848 0.028427921 -0.010531137 -0.051682755 0.74430084 -0.66584164 0.0026908375
0.010499157 0.028657144 -0.010574695 -0.08432956 0.76366466 -0.64008188 0.00091969629
0.013388892 0.028895834 -0.0107079 -0.11792988 0.76131856 -0.63756299 0.0013346124
0.016428545 0.029103523 -0.011139132 -0.15520439 0.75211185 -0.64049935 0.0016222595
0.019285545 0.029426919 -0.011502411 -0.18337941 0.67335862 -0.71621233 0.001346825
0.021571927 0.029772699 -0.011861563 -0.20359525 0.68731213 -0.6972453 0.0026774306
0.05967747 0.027813438 -0.011658954 0.56905955 -0.37936294 -0.72955799 0.0011909943
0.061472025 0.028759554 -0.01075252 0.57379019 -0.37010112 -0.73060936 0.0010684144
0.06336502 0.029053913 -0.0092707826 0.65224743 -0.42869726 -0.62513357 0.0023790896
-0.057518288 0.031980045 -0.011078573 -0.46094728 -0.30826253 -0.83216703 0.00066587277
-0.056417037 0.031735443 -0.011678065 -0.43583554 -0.3063049 -0.8463006 0.0011338243
-0.021901196 0.032642376 -0.011674908 0.25594357 0.69606501 -0.67081028 0.0017974528
-0.019303871 0.032253809 -0.011130051 0.24687755 0.72816336 -0.63939786 0.0017046231
-0.016417561 0.031697255 -0.010662174 0.23401135 0.74259782 -0.62752467 0.0012949582
-0.01360477 0.031168446 -0.010320251 0.20030533 0.74156731 -0.6402778 0.0023998125
-0.010547147 0.030778645 -0.0098910201 0.17936093 0.74429947 -0.64331019 0.0015041017
-0.0076473854 0.030436436 -0.0095425509 0.14287892 0.75758886 -0.63690245 0.0014807009
-0.0044135521 0.03014686 -0.0092252465 0.10820567 0.76660222 -0.63293964 0.001118655
0.01378602 0.030164799 -0.009270642 -0.11967879 0.78172547 -0.61203128 0.0013752813
0.016728675 0.030461704 -0.0096569462 -0.16519646 0.77177566 -0.61406225 0.0014536049
0.019657394 0.030786937 -0.010101127 -0.20428811 0.75515622 -0.62290084 0.0016936819
0.022585243 0.03121168 -0.010574316 -0.21734594 0.726515 -0.65187174 0.00090866134
0.025360713 0.031954534 -0.01072725 -0.23312724 0.75439662 -0.61362648 0.0011058073
0.028233994 0.032379147 -0.011319859 -0.24735543 0.70940566 -0.65996879 0.0005238739
0.030305365 0.032668706 -0.011830014 -0.26053575 0.69251966 -0.67270911 0.0034965584
0.062095072 0.031375952 -0.011455931 0.56754023 -0.29416689 -0.7690019 0.001035988
0.06405361 0.031649463 -0.010045344 0.63159114 -0.33280846 -0.7002365 0.0019584491
-0.060595363 0.035838317 -0.010825553 -0.5316273 -0.29049179 -0.79560477 0.0012964592
-0.058919698 0.034551647 -0.011440693 -0.47972772 -0.30747774 -0.82177776 0.00066453277
-0.030249765 0.035911411 -0.011982647 0.30755484 0.64438516 -0.70012695 0.0037080809
-0.028149476 0.035483029 -0.011436265 0.30005899 0.66673404 -0.68222457 0.00076767144
-0.025314458 0.034830049 -0.010833888 0.30085853 0.71005976 -0.63663119 0.00067169446
-0.022633657 0.034211487 -0.010305272 0.27226135 0.73622555 -0.61955285 0.0021887105
-0.019785274 0.033625972 -0.0097724814 0.26831263 0.7454372 -0.6101898 0.0013244973
-0.017559111 0.033250771 -0.0092075691 0.24894561 0.75714308 -0.60395396 0.001139597
0.025998756 0.033290289 -0.0093542542 -0.24370532 0.77286333 -0.58590961 0.0010607257
0.028642049 0.033685036 -0.0099373581 -0.2601034 0.75975853 -0.59591365 0.0014395377
0.031574618 0.03430764 -0.010450324 -0.2731913 0.7212736 -0.63649893 0.0012479186
0.034297831 0.035033803 -0.010857895 -0.30458519 0.73376912 -0.60729784 0.0015864146
0.036947213 0.035567604 -0.011628573 -0.31040752 0.64175409 -0.70128363 0.0013255257
0.062851712 0.033917844 -0.011814477 0.54855227 -0.1775184 -0.81705421 0.0017384891
0.064579152 0.034591466 -0.010672094 0.60058457 -0.22329387 -0.76774871 0.0020834939
0.066413447 0.035228148 -0.0093210703 0.68617451 -0.25715888 -0.680466 0.0017344311
-0.063182816 0.03777875 -0.009707123 -0.54812008 -0.22303687 -0.80611342 0.0011144428
-0.061217923 0.037881166 -0.011158915 -0.50993222 -0.19542173 -0.8377229 0.002326679
-0.05968928 0.03700044 -0.011864539 -0.48664162 -0.19137965 -0.85238117 0.001892947
-0.036249243 0.038983397 -0.011754988 0.31842646 0.66962421 -0.67097539 0.0012919042
-0.034240305 0.038390398 -0.011380388 0.31521514 0.66403955 -0.67800504 0.00089503714
-0.03143201 0.037685029 -0.010708662 0.32277 0.69947988 -0.63761073 0.00056709495
-0.028706146 0.036979787 -0.01009349 0.33140054 0.72150588 -0.60794985 0.0015081338
-0.026206097 0.036270835 -0.0095770555 0.30945042 0.73986083 -0.59736627 0.0010482578
0.034952104 0.036428828 -0.0095559536 -0.33046928 0.74688065 -0.57702637 0.0012657109
0.037601378 0.037058726 -0.010257743 -0.336539 0.7324003 -0.59188789 0.0019157049
0.040293805 0.03791539 -0.010874872 -0.35928974 0.69775581 -0.61971581 0.0018531387
0.042910866 0.038559183 -0.011654442 -0.32591122 0.6486271 -0.68779707 0.0020937258
0.064744599 0.037469897 -0.011131461 0.55831403 -0.098411545 -0.82377219 0.0011298739
0.066767737 0.037685234 -0.0095954658 0.6601609 -0.13512483 -0.73887002 0.0027134267
-0.064232349 0.040790848 -0.0099037001 -0.54611433 -0.1587642 -0.82252842 0.0016628188
-0.061717886 0.040475544 -0.011456323 -0.48018673 -0.12602596 -0.86806571 0.0019474261
-0.042354934 0.041699313 -0.011918462 0.27928004 0.60785806 -0.74331105 0.0035083788
-0.040085558 0.041299868 -0.011279162 0.30003899 0.6492303 -0.69891095 0.00089868758
-0.037454262 0.04067146 -0.010601259 0.3191765 0.71218312 -0.62523729 0.0011728173
-0.034721095 0.03992318 -0.009973852 0.35436833 0.71296608 -0.60506397 0.0014418492
-0.032332499 0.039282497 -0.0093201604 0.35664019 0.73776364 -0.57316017 0.001270221
0.041122604 0.03953829 -0.0095830495 -0.39955774 0.71063638 -0.57909381 0.0016011129
0.043674991 0.040278126 -0.010328205 -0.35962316 0.67459351 -0.64466637 0.0016130055
0.04630205 0.040919159 -0.011109925 -0.32062209 0.63206446 -0.70547569 0.0021576395
0.048854679 0.041605271 -0.011636783 -0.2670607 0.6110785 -0.74515879 0.0019775801
0.064638339 0.040542785 -0.011312393 0.47222316 0.052360613 -0.87992251 0.0051530199
0.066840582 0.04056824 -0.0098446412 0.62131745 -0.026038602 -0.78312618 0.0029227994
-0.066364795 0.044887848 -0.0091363778 -0.56298447 -0.068224326 -0.82364678 0.0029729723
-0.064435638 0.043709394 -0.010245226 -0.49395657 -0.042692613 -0.86843783 0.0064041358
-0.061794706 0.043727916 -0.011517066 -0.36680052 0.059285805 -0.92840862 0.0068145958
-0.048749883 0.044522267 -0.011802591 0.20866115 0.61299932 -0.76203173 0.0020872301
-0.046311669 0.044092417 -0.011351417 0.26202646 0.59745109 -0.75788808 0.0016969079
-0.043466832 0.043573979 -0.010602768 0.30386987 0.64052403 -0.70526028 0.00086968805
-0.040803552 0.042880438 -0.0099887215 0.35377416 0.69272977 -0.62846583 0.0016326213
-0.038484693 0.042307816 -0.0093597509 0.36576056 0.72195488 -0.5873673 0.0013836012
0.046894129 0.042634767 -0.0097578056 -0.38101831 0.67760348 -0.62902987 0.0015997258
0.04960886 0.043406371 -0.010386408 -0.31244525 0.63112283 -0.70997316 0.0020324122
0.052383736 0.043851368 -0.011115198 -0.23997234 0.56567627 -0.7889384 0.0010179618
0.055310376 0.044374187 -0.011542737 -0.16619089 0.55200094 -0.81711411 0.0024295927
0.058303788 0.044571575 -0.011819156 -0.0270331 0.431409 -0.9017514 0.0035231516
0.061827265 0.044167608 -0.011716495 0.18583542 0.28448841 -0.94049543 0.0082697086
0.064519376 0.043393552 -0.011048912 0.37447071 0.17935905 -0.90972632 0.0049890759
0.067047819 0.043476377 -0.0096144611 0.56318188 0.087251082 -0.82171369 0.0037326915
-0.066126034 0.046743125 -0.0092484225 -0.46973774 0.081558615 -0.87903047 0.0064331461
-0.064258792 0.0466167 -0.010180072 -0.36672619 0.17612807 -0.91350472 0.0055411584
-0.061295759 0.046570275 -0.011206249 -0.26345953 0.29337111 -0.91897905 0.0070799161
-0.058528326 0.046834655 -0.011533917 -0.071230412 0.38925874 -0.91837019 0.0069889259
-0.055399664 0.047014255 -0.011385499 0.082634859 0.51148897 -0.85530728 0.0026356468
-0.052427627 0.046756838 -0.011089136 0.17123313 0.56918478 -0.80418152 0.0011570061
-0.049510345 0.046361398 -0.010521022 0.23492593 0.61623538 -0.75170726 0.0011193156
-0.046676297 0.045800544 -0.0098931836 0.31947792 0.67067754 -0.66942185 0.0017185578
-0.044652406 0.045347951 -0.0093631428 0.35840496 0.67258459 -0.64743799 0.0027251274
0.050668616 0.04509386 -0.0093417587 -0.34711647 0.64841115 -0.6775493 0.0040407642
0.052780952 0.045816567 -0.0096541643 -0.31077605 0.64570159 -0.6974867 0.0022900335
0.055603135 0.046427473 -0.010190139 -0.24982461 0.57941705 -0.77579862 0.003182851
0.058502007 0.046566475 -0.010726635 -0.070773423 0.48088694 -0.87392157 0.0028581768
0.061483696 0.046487898 -0.01084678 0.086881451 0.39180064 -0.91593879 0.0056278454
0.064502336 0.046467461 -0.010276838 0.29874539 0.2862688 -0.91038525 0.0075073782
0.066621423 0.046379115 -0.0094378758 0.48882076 0.19191252 -0.85101336 0.0049596145
-0.066016011 0.048692472 -0.0090956576 -0.37407103 0.19779807 -0.90606111 0.0082451301
-0.064238042 0.049445625 -0.0094818715 -0.25848278 0.31651336 -0.91269165 0.0041659782
-0.061515614 0.049563479 -0.0099203521 -0.088332497 0.45047697 -0.88840747 0.0067961146
-0.058487758 0.049475119 -0.010065492 0.028631074 0.54696953 -0.83666283 0.0044628601
-0.055600286 0.049161885 -0.0099418946 0.14305061 0.61467063 -0.77570385 0.0041462164
-0.052660491 0.048659589 -0.0095791742 0.23783419 0.66722447 -0.70586568 0.0025376414
-0.050479066 0.048130542 -0.0092859203 0.30655211 0.69280022 -0.65272784 0.0016091954
0.056724273 0.04819572 -0.0092156976 -0.28175798 0.63755566 -0.71703219 0.0024942467
0.058757167 0.048648842 -0.0094183916 -0.17600012 0.57669491 -0.79777628 0.004219899
0.061555445 0.049038947 -0.0095549282 -0.024238721 0.48797002 -0.87252384 0.0048725284
0.06424021 0.049006235 -0.00943744 0.17089114 0.38033965 -0.9089213 0.0057832175
0.066249155 0.048491642 -0.0090877675 0.37798715 0.30838215 -0.87294108 0.0051997905
-0.061735213 0.051063064 -0.0090835327 -0.0056191436 0.57183057 -0.82035249 0.0036950244
0.056660805 0.020602267 -0.0082761655 0.55277729 -0.59541345 -0.58302671 0.0012340943
0.058455497 0.020624777 -0.0060283425 0.57503849 -0.59266269 -0.56398743 0.0008121751
0.05868296 0.022050003 -0.0076689832 0.5750438 -0.5926618 -0.56398284 0.00080636842
0.060575072 0.023185814 -0.0068283048 0.60723978 -0.59234071 -0.52952081 0.00053710246
0.059949707 0.024397001 -0.0089744003 0.57217234 -0.54188818 -0.61561018 0.0013663307
0.06183017 0.025284322 -0.0077787908 0.63115835 -0.52708793 -0.56904966 0.0012415855
0.063480429 0.026187979 -0.006625561 0.6732825 -0.53431046 -0.51108021 0.0011715011
-0.0010733426 0.029966472 -0.0089051239 0.07668341 0.77153999 -0.63154233 0.0010939142
0.0018022263 0.029854679 -0.0087791001 0.039426692 0.77855384 -0.62633801 0.00091693172
0.0047052419 0.029816717 -0.0087477816 0.0026131179 0.840509 -0.54179138 0.0026677041
0.0074487696 0.029867074 -0.0087375818 -0.036762804 0.78476322 -0.61870432 0.00097446091
0.010150238 0.029933471 -0.0089675002 -0.082464285 0.78477842 -0.61426574 0.00093579898
0.062737927 0.027243704 -0.0086169662 0.63364792 -0.47730419 -0.60882753 0.0015477383
0.064565726 0.028627759 -0.0075676306 0.70743167 -0.45530796 -0.54058778 0.0019251588
-0.015262043 0.03282547 -0.008815635 0.24823593 0.75584298 -0.60587156 0.0012710593
-0.013184784 0.032494295 -0.0084252451 0.21744744 0.7807219 -0.58582419 0.0011642284
-0.010363303 0.032185975 -0.0078416197 0.20621541 0.8466478 -0.49057397 0.0013927362
-0.0075432137 0.031760391 -0.0075523951 0.16424216 0.85913408 -0.48467854 0.0015482707
-0.0045594815 0.031283289 -0.007560784 0.12421945 0.84784424 -0.51548976 0.0020669987
-0.0015361474 0.030924926 -0.0075277565 0.085593559 0.8581804 -0.50616217 0.0023005917
0.0014357378 0.03083851 -0.0073154322 0.041822311 0.86435431 -0.50114107 0.0023289113
0.0045055151 0.030745968 -0.0073231244 0.0064537884 0.86624271 -0.49958184 0.0023528051
0.0074675814 0.030781858 -0.0073242947 -0.035775304 0.86789554 -0.49545678 0.0024294909
0.010502545 0.030878553 -0.0075296848 -0.08195354 0.86834615 -0.48914069 0.0020494461
0.013502213 0.03122157 -0.0075278836 -0.13019428 0.86015791 -0.49313065 0.0021314593
0.016483022 0.031747229 -0.0075474768 -0.18649444 0.86447179 -0.46680656 0.0015968974
0.019364845 0.03224653 -0.0078675412 -0.22202171 0.84200501 -0.49166438 0.00184543
0.022096895 0.032626715 -0.0085448688 -0.24384543 0.79938382 -0.5491128 0.00044600345
0.024107289 0.03295524 -0.0089864014 -0.24872443 0.76742423 -0.59092826 0.0010309762
0.065486759 0.031227807 -0.008373647 0.71471286 -0.36195114 -0.59847891 0.0021051227
0.066747926 0.031650811 -0.0070636836 0.72285247 -0.38926214 -0.57092845 0.0012588645
-0.024262898 0.035949007 -0.0088936649 0.32430136 0.75165236 -0.57432348 0.0016858149
-0.022198446 0.035484124 -0.0083529586 0.30979326 0.79148138 -0.52686375 0.00083230966
-0.019471528 0.034962252 -0.0075857346 0.2896809 0.83288169 -0.47158572 0.0017316014
-0.016532365 0.034042075 -0.0075009656 0.24605007 0.83127636 -0.4984366 0.0018261713
-0.013677171 0.033519737 -0.0070438264 0.2270157 0.84625918 -0.48198482 0.0018890764
-0.010971041 0.03312749 -0.0064387862 0.20119862 0.87915772 -0.43197328 0.00049913314
0.01998684 0.033243045 -0.0064639528 -0.23408324 0.85970062 -0.45400423 0.0017455249
0.022720873 0.03366036 -0.0071691899 -0.23836145 0.84877431 -0.47198078 0.002178313
0.025533948 0.034308486 -0.0074615809 -0.24326402 0.84246385 -0.48070499 0.0018353093
0.028474545 0.03512644 -0.0076188454 -0.27687988 0.84212995 -0.46276835 0.0017955311
0.031032871 0.035575181 -0.0084025469 -0.3084251 0.82052147 -0.48126757 0.0021487495
0.067626536 0.034529798 -0.0076328753 0.75578576 -0.29223937 -0.58598965 0.0018881086
0.069192022 0.035934411 -0.0062631685 0.79447204 -0.27234524 -0.54280967 0.0047409921
-0.064429842 0.03812186 -0.0088240514 -0.55329543 -0.20135985 -0.80828112 0.00085193053
-0.030530162 0.038834147 -0.0086909924 0.36527893 0.74202961 -0.56210613 0.00084804511
-0.02819718 0.038278382 -0.0079241041 0.35648441 0.80225688 -0.47885582 0.0019283864
-0.025531523 0.037337258 -0.007522075 0.32494953 0.83122522 -0.45107925 0.00091734843
-0.022763567 0.036532611 -0.0070240851 0.32754734 0.82568097 -0.45930791 0.0016530112
-0.020745425 0.036160257 -0.0060898527 0.32552677 0.83495015 -0.44372353 0.00072272023
0.029756544 0.036309179 -0.0062736543 -0.31189665 0.84684563 -0.4307819 0.0012592536
0.031689588 0.036592446 -0.0070419391 -0.32589027 0.83276802 -0.44754094 0.0018477228
0.034528784 0.037497625 -0.0075694071 -0.3565878 0.80888194 -0.46749869 0.0028028542
0.037140612 0.038446765 -0.0080360519 -0.39982435 0.78316587 -0.47622648 0.0020626786
0.068164371 0.03743903 -0.0081385337 0.7487396 -0.16631949 -0.64165956 0.0020756177
0.069430284 0.03796953 -0.0067473617 0.78882343 -0.2024757 -0.58031124 0.0021899045
-0.066852942 0.041084319 -0.0078514004 -0.60024941 -0.16590533 -0.78241676 0.001213209
-0.036319815 0.041671477 -0.0086870622 0.38905203 0.7372874 -0.55230951 0.0019793052
-0.034268755 0.041224755 -0.0078026704 0.37846395 0.78928506 -0.48352259 0.0018460097
-0.031583093 0.040135879 -0.0074611991 0.3669658 0.79479766 -0.4833557 0.0015841258
-0.029170586 0.039383505 -0.0067857201 0.38933524 0.80643052 -0.44507053 0.0010306883
0.037972618 0.03957713 -0.0069035357 -0.42227823 0.78758866 -0.44875956 0.0016169854
0.040432163 0.040595394 -0.0075562801 -0.44477969 0.75562286 -0.48083797 0.0023132169
0.042810433 0.041537318 -0.008262774 -0.42789656 0.72709352 -0.53687948 0.0020826128
0.068402074 0.040471371 -0.0084607005 0.73981947 -0.069259651 -0.66923106 0.0023517651
0.069770172 0.040662162 -0.0069442829 0.77420861 -0.10057541 -0.62488848 0.0021766352
-0.067261912 0.04353619 -0.0081933197 -0.56286377 -0.068223074 -0.82372934 0.0030218677
-0.042471323 0.044750202 -0.0088210991 0.39105526 0.71704167 -0.57699823 0.0017244838
-0.040248834 0.044208556 -0.0078913579 0.3812266 0.77219439 -0.50831306 0.0023165252
-0.03758768 0.04309801 -0.0074933418 0.38208818 0.77838671 -0.49811912 0.0015672569
-0.035259333 0.042390294 -0.006741418 0.41551962 0.79299986 -0.4455274 0.00106129
0.04187806 0.042240381 -0.0063014552 -0.46882433 0.76358086 -0.4440136 0.0010235615
0.0438543 0.042845834 -0.0072306781 -0.45070288 0.74478215 -0.49210408 0.0023045896
0.046358742 0.043982498 -0.0077719186 -0.43793401 0.72822505 -0.52716428 0.0027338816
0.048688944 0.044615775 -0.0086629819 -0.38815641 0.67730498 -0.62497401 0.0010215035
0.068486176 0.043799609 -0.0084703499 0.69682759 0.034163091 -0.71642447 0.0028154915
0.069856033 0.043519307 -0.0070724045 0.75330788 -0.0071427976 -0.65762931 0.0028185144
-0.069452144 0.046459328 -0.0067778951 -0.59316063 -0.011297231 -0.80500484 0.0015009115
-0.067702971 0.0466813 -0.0082369419 -0.57420868 -0.0093274033 -0.81865585 0.0023762907
-0.048455156 0.04781343 -0.0086178575 0.33218867 0.73608583 -0.58976972 0.0014081867
-0.046223301 0.047238223 -0.0079598865 0.37490425 0.7532416 -0.54043865 0.0030148469
-0.043579932 0.046251617 -0.0074324198 0.36922672 0.77736402 -0.50929046 0.0021492136
-0.041111466 0.045480847 -0.0066402811 0.42307669 0.78290349 -0.45614487 0.0018015119
0.047283474 0.045386933 -0.0065245549 -0.46381333 0.74388349 -0.4811596 0.0019347062
0.049667835 0.046186373 -0.0073938775 -0.39296553 0.73443329 -0.55334061 0.0015537996
0.052196588 0.04715186 -0.0079871556 -0.38955963 0.70364076 -0.59424996 0.003309858
0.054455258 0.047657046 -0.0087652868 -0.29855689 0.63082612 -0.71618575 0.0015399272
0.068077587 0.046628412 -0.0084555056 0.56134802 0.12549093 -0.81801009 0.003703549
0.069853254 0.046494178 -0.0069173425 0.69595796 0.077533998 -0.71388441 0.0035235202
-0.069756322 0.049475417 -0.0067841597 -0.55789518 0.015816826 -0.82976067 0.0037715831
-0.067314923 0.049706183 -0.0082774311 -0.45205706 0.18290097 -0.87303579 0.013028984
-0.064989321 0.050652899 -0.0088786259 -0.17799988 0.33531928 -0.92513627 0.010344285
-0.057270769 0.050810155 -0.0089120716 0.10113291 0.67456859 -0.7312519 0.0030754851
-0.055138219 0.050594412 -0.0085896282 0.20315495 0.6611408 -0.72223324 0.0024343382
-0.052284263 0.05006586 -0.0079420852 0.30612504 0.74335879 -0.59473115 0.0028149732
-0.049560826 0.049246389 -0.0074400147 0.34210315 0.7667917 -0.54313529 0.0016618534
-0.047071904 0.048495427 -0.0067713554 0.39195329 0.76711386 -0.50784737 0.0019374597
0.052994162 0.048600405 -0.0068422696 -0.42883649 0.72173393 -0.54332268 0.0017876776
0.055578597 0.049447536 -0.0074836193 -0.33866751 0.69369447 -0.63568252 0.0025975006
0.058365572 0.050047867 -0.0081782015 -0.25047874 0.60881168 -0.75273412 0.0024529397
0.061259426 0.050528172 -0.0085938266 -0.12351642 0.57107294 -0.81155372 0.0045970967
0.064744063 0.050368708 -0.0087620048 0.092254966 0.43432742 -0.89601833 0.0069572534
0.067639358 0.049506936 -0.0080775768 0.45274261 0.21104577 -0.8663047 0.0062086899
0.069705747 0.049511649 -0.006637176 0.6834408 0.12473924 -0.71926963 0.0063479417
-0.069984183 0.052603371 -0.0065013892 -0.46619198 0.1216948 -0.87627357 0.0084419241
-0.067534469 0.052518673 -0.0075194105 -0.28382581 0.28375772 -0.91592824 0.013242786
-0.064431481 0.052599125 -0.0079766903 -0.070689686 0.4599652 -0.88511866 0.010157323
-0.06142731 0.052597836 -0.0078789266 0.096013717 0.56394142 -0.82021433 0.0085330093
-0.058534838 0.052447304 -0.0075035738 0.14724357 0.71315676 -0.68536609 0.0030570938
-0.055597417 0.052003313 -0.0071439468 0.26168707 0.74917507 -0.60848713 0.0022497487
-0.052847926 0.051431205 -0.0065698433 0.33971193 0.76528728 -0.54674596 0.0016572402
0.056634791 0.051141143 -0.0062256907 -0.40748376 0.71450424 -0.56871843 0.0033870444
0.058816709 0.051761404 -0.0067706676 -0.33648381 0.68271601 -0.64859664 0.0036211344
0.06157396 0.052436896 -0.0072952807 -0.1979866 0.56777906 -0.79901719 0.0052339882
0.064507529 0.052525353 -0.0077407574 0.034038641 0.43133742 -0.90154839 0.0090223821
0.067445256 0.05242287 -0.007302966 0.33556804 0.30529925 -0.8911714 0.013166846
0.069507845 0.052295443 -0.0062952233 0.59547168 0.16798645 -0.78561699 0.0073763765
-0.069621101 0.054941144 -0.0062245373 -0.35737246 0.23766042 -0.90321779 0.010492859
-0.06740769 0.055049557 -0.0065483432 -0.087828852 0.44305512 -0.89218175 0.0092329774
-0.064636655 0.054813012 -0.0065835817 0.091604009 0.58301306 -0.80728215 0.0095565738
-0.061784219 0.054378532 -0.0063632946 0.18880805 0.67244112 -0.71566361 0.0047439146
0.062596597 0.05438143 -0.0061701499 -0.31727046 0.61925703 -0.71823412 0.0062301499
0.064712033 0.054842148 -0.0064549465 -0.13984266 0.49386629 -0.85821909 0.010549824
0.067426443 0.055099059 -0.00640328 0.15952609 0.33835867 -0.92739683 0.015643308
0.069208324 0.054170415 -0.0061336793 0.45462939 0.26938888 -0.84896511 0.028546939
0.065051541 0.026689403 -0.004577612 0.7148608 -0.47978052 -0.50870878 0.00085467478
0.065085374 0.027685946 -0.0059404448 0.70698243 -0.48213464 -0.51741856 0.00086634152
0.066428602 0.028891902 -0.0050917808 0.7309913 -0.45941013 -0.50457323 0.00084020186
-0.0094073564 0.032992724 -0.0059827995 0.20120321 0.87914997 -0.43198678 0.00051146245
-0.0072608958 0.032786567 -0.0054384768 0.17109542 0.8921414 -0.41810286 0.00039640389
-0.0043707439 0.032566369 -0.0049111387 0.14014344 0.92081851 -0.36394101 0.0021008761
-0.0014987714 0.032353207 -0.0045602331 0.10846026 0.93193376 -0.34602877 0.0024552115
0.0014875457 0.032142118 -0.0045178649 0.051515367 0.94619542 -0.31946889 0.0025825319
0.0045020697 0.032041769 -0.0045211096 0.014343649 0.93350244 -0.35828394 0.0029895669
0.0076043606 0.032055233 -0.0045564142 -0.033029981 0.95055556 -0.30879295 0.0026079316
0.01056117 0.032267917 -0.0045460942 -0.093704455 0.94404644 -0.31622115 0.0038559991
0.013339857 0.032474902 -0.0047874791 -0.14783999 0.92813742 -0.34161994 0.0025659967
0.016020123 0.032791976 -0.0051947921 -0.19403851 0.91794795 -0.34600678 0.002820407
0.068052329 0.031688668 -0.0050951294 0.79453123 -0.3981086 -0.45850816 0.0017970449
-0.018591536 0.035754208 -0.0053338651 0.31926277 0.89380634 -0.31493101 0.0032880062
-0.016309025 0.035357017 -0.004684784 0.2954528 0.90380228 -0.30959496 0.0022515394
-0.013494086 0.034583196 -0.0045570717 0.2499842 0.90736055 -0.33794183 0.0028760999
-0.010547567 0.033806469 -0.004552498 0.20927483 0.92382121 -0.32055971 0.0028443148
-0.0076566366 0.033430226 -0.0040397919 0.15814009 0.93737328 -0.31035957 0.0028359131
-0.0049257828 0.033206403 -0.0034781636 0.13645405 0.93975651 -0.31342936 0.0027634834
0.014378558 0.033104934 -0.0036263182 -0.15886489 0.94273812 -0.29326922 0.0033401921
0.016743477 0.033350434 -0.0040613459 -0.19125989 0.93610543 -0.2951715 0.0026166509
0.019487854 0.033900931 -0.0044134632 -0.2307329 0.92535955 -0.30078554 0.002371032
0.022492848 0.034718741 -0.0045009567 -0.26794925 0.91835284 -0.29125834 0.001527281
0.025363786 0.035466865 -0.0046942108 -0.29814121 0.90969157 -0.28908995 0.0016919747
0.027608596 0.035866152 -0.0054289899 -0.31607568 0.90109372 -0.29686072 0.0024540727
0.06854862 0.033292659 -0.0056004901 0.7944544 -0.31960526 -0.51642489 0.0025821589
0.069627836 0.034690794 -0.0045826854 0.8454529 -0.27861673 -0.4556118 0.0026771228
-0.027154792 0.038983144 -0.0055949441 0.37155914 0.86468667 -0.33802477 0.0026550943
-0.025137309 0.038487058 -0.0048336429 0.38660589 0.87340647 -0.29613662 0.0020098747
-0.022477848 0.037498277 -0.0045739212 0.35879499 0.88368142 -0.30062142 0.0019908664
-0.019712405 0.036523845 -0.0043479619 0.30400556 0.90351945 -0.30204827 0.0029310349
-0.017507976 0.036148332 -0.0035828315 0.27668068 0.91402376 -0.29666194 0.0026921709
0.026536025 0.036166545 -0.0037033465 -0.28283954 0.91916853 -0.27410027 0.00193802
0.028721012 0.03665103 -0.0043364386 -0.30161804 0.9079324 -0.29100743 0.0023096772
0.031495046 0.037575603 -0.0045136544 -0.33950019 0.8912788 -0.30060211 0.0020690502
0.03401288 0.03850989 -0.0049148141 -0.39759812 0.86369616 -0.30974922 0.0024080009
0.070446745 0.037562307 -0.0048753694 0.85827267 -0.23333904 -0.45707855 0.0023850396
-0.033132777 0.041876003 -0.0054980721 0.41707298 0.84574491 -0.33281472 0.0034503597
-0.031256698 0.041260038 -0.0047364999 0.43999261 0.85306925 -0.28049847 0.0018116856
-0.028497417 0.040029977 -0.0045109731 0.38277969 0.87487942 -0.29675877 0.0026239972
-0.026159495 0.039281078 -0.0039238743 0.36416575 0.88489646 -0.29041609 0.0021364437
0.035185721 0.039377578 -0.0040426049 -0.40998992 0.86497855 -0.28934458 0.0016701629
0.037453119 0.040372316 -0.0044982983 -0.46359926 0.82453048 -0.32438424 0.0028574425
0.03974675 0.041560583 -0.0049349698 -0.5146383 0.80997187 -0.28123471 0.0020396453
0.071192846 0.040510669 -0.0046828403 0.88603532 -0.16856831 -0.43188676 0.0015137584
0.072085559 0.041862614 -0.0031378784 0.95446032 -0.12882355 -0.26909098 0.0029087348
-0.039223958 0.044936784 -0.0057154554 0.44444016 0.81009972 -0.38237599 0.004163438
-0.037279163 0.044307083 -0.0047220378 0.46015048 0.83880126 -0.29098794 0.0018299565
-0.034593675 0.043019693 -0.0045218421 0.42653447 0.8540116 -0.29788023 0.0023937142
-0.032442939 0.042257402 -0.0037511766 0.43198806 0.8491075 -0.30397838 0.0025099725
0.041028079 0.042615686 -0.0042176405 -0.49627522 0.81767267 -0.29175732 0.0024354504
0.043407265 0.043964885 -0.0046222764 -0.49619761 0.80145907 -0.33384311 0.0030230011
0.04551981 0.044867206 -0.0056423303 -0.48899743 0.77719575 -0.39604077 0.0044900374
0.071325235 0.043506835 -0.0050529917 0.86281151 -0.038826488 -0.50403249 0.0027813839
0.07214877 0.043919604 -0.003532761 0.9472878 -0.06288068 -0.31415263 0.0030387307
-0.07074599 0.047026638 -0.0056041037 -0.60134619 -0.033727884 -0.79827636 0.00075020397
-0.04306097 0.04740148 -0.0048254756 0.44421247 0.82618427 -0.34654698 0.0028367683
-0.040532853 0.046173826 -0.0044524409 0.45785788 0.83116382 -0.3154884 0.0026151498
-0.038460899 0.045337241 -0.0037214858 0.4443512 0.84572095 -0.29547939 0.0019444635
0.044580448 0.045137122 -0.0035772324 -0.50651354 0.80450976 -0.31017438 0.0018519257
0.046635415 0.046118721 -0.0044121053 -0.51579219 0.78512514 -0.34283656 0.0028145537
0.049051002 0.047412004 -0.0049507618 -0.48885867 0.77685308 -0.39688361 0.003915471
0.071407899 0.046523586 -0.0049198382 0.84431893 0.027019031 -0.53515935 0.0034470761
0.072205387 0.046597581 -0.0035005535 0.93782896 -0.0061935713 -0.34704241 0.0035876036
-0.071366534 0.049649715 -0.0053838692 -0.5515542 0.013281289 -0.83403325 0.0036476145
-0.04909138 0.050514095 -0.0050682887 0.41380107 0.81929761 -0.39688802 0.003336045
-0.046551373 0.0494215 -0.0045409133 0.42530504 0.82807481 -0.3652502 0.0029920812
-0.04424604 0.048407238 -0.0039575272 0.42909765 0.82953411 -0.35741904 0.0021437227
0.050149698 0.048540402 -0.0040666587 -0.49942204 0.79112005 -0.35313839 0.0037061272
0.052441452 0.049707513 -0.0046364837 -0.5028708 0.78890342 -0.35320306 0.0018154226
0.054599643 0.050691035 -0.0052516675 -0.47593993 0.7720108 -0.42128444 0.0036510979
0.071231149 0.049593136 -0.0049802852 0.81071627 0.054577556 -0.58288974 0.0038438388
0.072244793 0.04931071 -0.0034191946 0.91375142 0.021033267 -0.40572906 0.0041640359
-0.072699212 0.052659616 -0.0046341829 -0.55766708 0.05217094 -0.8284235 0.0027977889
-0.071364552 0.052662916 -0.0056352047 -0.42300701 0.086671151 -0.90197188 0.0074067358
-0.057667527 0.053746924 -0.0056647696 0.23635088 0.76146734 -0.60357749 0.0022838823
-0.055164132 0.05337799 -0.0048085698 0.3086524 0.84330618 -0.43996409 0.0045701675
-0.052464876 0.052430671 -0.0045763496 0.37770221 0.82613337 -0.41814438 0.0029012752
-0.049980123 0.051469576 -0.0039817877 0.43460169 0.8304376 -0.34856108 0.0025118543
0.053799599 0.051150993 -0.0035132086 -0.50231463 0.77500612 -0.38346502 0.0021259622
0.055758491 0.051890302 -0.0043663057 -0.47429323 0.75983423 -0.44463238 0.0045709228
0.058240354 0.053023729 -0.0049003293 -0.41847348 0.73754334 -0.53000915 0.0059476257
0.060480651 0.053693146 -0.0057655745 -0.40050143 0.65529156 -0.64046198 0.0063945623
0.070930161 0.052627053 -0.0049920967 0.76333553 0.073711373 -0.641783 0.0044265413
0.072207674 0.05281892 -0.0034220393 0.80941343 0.033372328 -0.58629012 0.0046789013
-0.073445916 0.055756442 -0.0043438054 -0.56212097 0.25337172 -0.78728825 0.020489851
-0.070672654 0.055819165 -0.0056362487 -0.3318795 0.21041654 -0.91955477 0.0098988451
-0.067438275 0.056609642 -0.0057377648 0.044604205 0.57334405 -0.81809968 0.0080223614
-0.064260535 0.056193858 -0.0054081338 0.20975654 0.62384987 -0.7528702 0.0049408968
-0.06149688 0.055793703 -0.004579999 0.34966883 0.75878954 -0.54951811 0.0087764775
-0.05867454 0.054864805 -0.0043329615 0.29862902 0.83187515 -0.46776539 0.0045845867
-0.056184668 0.054262366 -0.003792668 0.34490919 0.86058164 -0.37474918 0.0024251395
0.059243612 0.054471407 -0.0037778467 -0.50070995 0.73200375 -0.46201733 0.0060956925
0.061550964 0.055358108 -0.0045814239 -0.39952508 0.67610717 -0.61907905 0.0056907083
0.064239375 0.056236163 -0.0053890962 -0.28150511 0.56416595 -0.77619046 0.010496035
0.06776344 0.056579914 -0.0058496553 0.05282063 0.40192497 -0.91414785 0.016696168
0.070549123 0.055574629 -0.0049038725 0.55388367 0.13270783 -0.82194984 0.010213331
0.072242267 0.055440962 -0.0032144294 0.82457024 0.053856682 -0.56319034 0.0070465654
-0.072991952 0.057881698 -0.0040071914 -0.4316465 0.68044913 -0.59217423 0.01880651
-0.070378944 0.058511876 -0.004574771 -0.22022061 0.62189996 -0.75149405 0.022591783
-0.067557201 0.058531687 -0.0043646316 0.11371767 0.69416243 -0.71077901 0.012258026
-0.064728335 0.057859741 -0.0039794492 0.32630724 0.73429 -0.59526616 0.0076951352
-0.062619843 0.057332713 -0.0032444473 0.43655208 0.79264414 -0.42560256 0.014000859
0.062721074 0.05731371 -0.0034003779 -0.59481424 0.60083157 -0.53403884 0.02094418
0.064721711 0.058268845 -0.0042328718 -0.46462727 0.47623423 -0.74654031 0.018116638
0.067492075 0.05847349 -0.0051835575 -0.024738539 0.30431497 -0.95225018 0.020233462
0.070497617 0.05852909 -0.0044784038 0.43425405 0.12066668 -0.89267176 0.02234059
0.072159365 0.058404408 -0.0032517959 0.79009086 -0.0063894372 -0.61295652 0.012812326
-0.069412366 0.060111545 -0.0030457976 -0.17677744 0.89643902 -0.40638268 0.021794751
0.065557696 0.060954358 -0.0033833261 -0.66393954 0.30649808 -0.68208736 0.018765712
0.067509539 0.061432905 -0.0042338162 -0.26881441 0.26816478 -0.92510885 0.031335808
0.070530407 0.061521601 -0.0042012027 0.31180057 0.086179703 -0.94623119 0.021907357
0.072284184 0.061644092 -0.0032687457 0.72584563 -0.023146883 -0.68746805 0.014954297
0.067860112 0.064402163 -0.003725888 -0.42856699 0.12333558 -0.89505231 0.021796107
0.070515856 0.064446747 -0.0040125633 0.20081155 0.019677788 -0.97943223 0.023355382
0.072476588 0.064699136 -0.0032652016 0.36828005 -0.056988854 -0.92796665 0.025779871
0.068120569 0.067480288 -0.0034713184 -0.47543702 0.072687037 -0.87674189 0.013976566
0.070488021 0.067443646 -0.0040804469 -0.11708284 0.00021885852 -0.9931221 0.021704733
0.072781429 0.067752488 -0.0035212799 0.49612316 -0.10625661 -0.86172587 0.014709463
0.068546198 0.070205644 -0.0033971583 -0.6456601 0.10302822 -0.7566427 0.022267034
0.07048595 0.07052362 -0.004123468 -0.062949792 -0.037188683 -0.99732363 0.041953851
0.073226087 0.070638895 -0.0037899883 0.38176093 -0.23214154 -0.89463335 0.024121044
0.068702035 0.073384106 -0.003317219 -0.70999604 0.078438461 -0.6998235 0.01592809
0.070565283 0.07343702 -0.0043511884 -0.26078293 0.008092666 -0.96536362 0.022543466
0.07350675 0.073599756 -0.0044447812 0.39023659 0.25607407 -0.88438761 0.081387363
0.075411499 0.074072905 -0.0035800207 0.70781696 0.0073452783 -0.70635772 0.07879559
0.068804078 0.075855725 -0.0031282101 -0.42240882 0.73836881 -0.52572066 0.085382648
0.070544563 0.076006033 -0.0040760455 -0.19765639 0.55896467 -0.80528909 0.088310152
0.073283821 0.075630337 -0.0041227625 0.26547623 0.76605231 -0.58539408 0.060474236
0.075293005 0.075115874 -0.0033176076 0.86425722 0.31937471 -0.38866347 0.079530351
-0.00082899752 0.032922275 -0.0023245611 0.11026791 0.98146379 -0.1567478 0.0019531408
0.0016366147 0.032822948 -0.0017457389 0.073530197 0.9878518 -0.13690196 0.0032729206
0.0045235814 0.0327751 -0.0014561097 0.032618791 0.98797345 -0.15114412 0.002136169
0.0073927296 0.032770511 -0.0015506058 -0.041186877 0.98625374 -0.16002251 0.0023026459
0.010213103 0.032877363 -0.002056201 -0.096533798 0.98246294 -0.15952371 0.0019275304
0.012381667 0.032960512 -0.0026286745 -0.14578246 0.97761858 -0.15168874 0.0022949951
-0.01549986 0.035836272 -0.0019097598 0.30607057 0.94518709 -0.11376385 0.0023258701
-0.013492959 0.035294313 -0.0015701884 0.26780528 0.95531702 -0.12509914 0.0022310242
-0.010518576 0.034520425 -0.0014726924 0.22199818 0.96027875 -0.16906036 0.002520452
-0.0074477205 0.033905514 -0.0015292778 0.15866768 0.97468358 -0.15753229 0.0021981022
-0.004481995 0.03346036 -0.001485531 0.12837945 0.98190755 -0.1391985 0.001748647
-0.0017700261 0.033164695 -0.0012063934 0.093443498 0.9865784 -0.13390771 0.0018181392
0.0010681835 0.033058684 -0.0003662378 0.043029074 0.99889004 -0.019164329 0.0015387698
0.0086857183 0.033028334 -0.00014297907 -0.036157489 0.99877506 -0.033782091 0.00070263632
0.011037113 0.033117849 -0.00072613684 -0.076189823 0.9959076 -0.04861144 0.0014814476
0.013556677 0.03330487 -0.0015609611 -0.1401536 0.97969294 -0.14338334 0.0020836887
0.016518362 0.033826575 -0.0014971812 -0.19104682 0.97151852 -0.14018834 0.002103037
0.019505011 0.034538556 -0.0014452557 -0.25773221 0.95881796 -0.11934116 0.0012654354
0.022524392 0.035361562 -0.0015475777 -0.26969081 0.95614833 -0.11422438 0.0015734133
0.024451306 0.035873156 -0.0018823164 -0.3080124 0.94390815 -0.11901996 0.0015756844
0.070484862 0.034838881 -0.0026046876 0.8959319 -0.32894406 -0.29849923 0.0017811049
-0.024291985 0.038916163 -0.0018708422 0.38667896 0.9147619 -0.11700381 0.0030999011
-0.022520563 0.038225848 -0.0015491553 0.37993211 0.91350657 -0.14545521 0.0015735136
-0.019575085 0.037105598 -0.0014565662 0.32118064 0.93601501 -0.14394049 0.0024219193
-0.016875811 0.036320835 -0.0013208059 0.27686521 0.95508784 -0.10560682 0.002294115
0.025900384 0.036325157 -0.0016305892 -0.28352854 0.94801867 -0.14447199 0.0027099564
0.028508253 0.037206873 -0.0013721702 -0.29922286 0.94722182 -0.11505051 0.0012001047
0.031561773 0.03826775 -0.0015990267 -0.37073597 0.91962695 -0.1297729 0.0017737667
0.033056229 0.038805902 -0.0023362744 -0.40071034 0.90534574 -0.14064258 0.0030926978
0.071480319 0.037622783 -0.0021307662 0.92260104 -0.25571716 -0.28881845 0.001469041
0.072168924 0.038896281 -0.00043250591 0.95069814 -0.20785828 -0.23014769 0.0031091338
-0.030604674 0.041729398 -0.0016308426 0.46214721 0.87870407 -0.11957927 0.001578282
-0.028570382 0.040765807 -0.0014745358 0.41110581 0.90318286 -0.12350142 0.0018751859
-0.025698669 0.039559763 -0.0014324017 0.37601978 0.91919136 -0.11703143 0.0030122236
0.034615979 0.039653514 -0.0014453734 -0.42497805 0.89555824 -0.13179149 0.0017511336
0.037490774 0.041123167 -0.0016241272 -0.4849695 0.86371976 -0.13708651 0.002148323
0.071785308 0.039355025 -0.0028804743 0.94213557 -0.20239423 -0.26723978 0.0024762265
0.072279699 0.040831249 -0.0018698272 0.95451272 -0.12871978 -0.26895469 0.0027362031
-0.036544513 0.044738214 -0.0017310448 0.4845984 0.86547971 -0.12692223 0.0017779262
-0.034528982 0.04374719 -0.0014902205 0.45056289 0.88416404 -0.12347908 0.0018517353
-0.032045759 0.04250408 -0.0013461018 0.4350583 0.89198107 -0.1228577 0.0018723961
0.038754068 0.042010088 -0.00072830875 -0.53589898 0.83357489 -0.13403401 0.0022314764
0.040451642 0.042960417 -0.0014269468 -0.5241586 0.84248614 -0.12439796 0.0024468279
0.042796291 0.044464275 -0.0014892367 -0.55895638 0.82106912 -0.11581601 0.0020394519
0.07266622 0.043734685 -0.0017092506 0.95778102 -0.034980077 -0.28536302 0.0030745713
-0.042291939 0.047854826 -0.0021716501 0.49126494 0.85914516 -0.14327693 0.0018584924
-0.040523715 0.046953619 -0.0015161464 0.47646248 0.86740845 -0.14347848 0.0020713191
-0.038016297 0.045566019 -0.0013772249 0.46001172 0.87862998 -0.12805742 0.0020360909
0.044322401 0.045465752 -0.0014790233 -0.54002446 0.8283543 -0.14900616 0.0035900264
0.046472233 0.046890777 -0.0015434891 -0.55843759 0.81572658 -0.15079015 0.0038095403
0.04811836 0.047812913 -0.0026386892 -0.53868133 0.82763743 -0.15760274 0.0034347146
0.0727726 0.046565238 -0.0017164947 0.96232182 -0.036362339 -0.26947075 0.0023435405
-0.046367414 0.050220873 -0.0016299494 0.47890767 0.86175096 -0.16742975 0.0027776323
-0.043680746 0.04874447 -0.001425348 0.48137096 0.86890978 -0.11522873 0.0038567467
0.047963575 0.048048291 -0.000488016 -0.53893805 0.83550465 -0.1071342 0.0037084431
0.049604412 0.048976928 -0.0016035687 -0.51016796 0.84102517 -0.18001506 0.0031548005
0.051798139 0.050421502 -0.0016753394 -0.56114781 0.81360555 -0.15218164 0.0029210967
0.072870724 0.049516317 -0.0017793942 0.94245058 -0.029472211 -0.33304402 0.0035536846
-0.052316386 0.053377833 -0.0017101124 0.41689098 0.89003408 -0.18450259 0.0037006431
-0.049532298 0.051970281 -0.0015220114 0.43845391 0.88177574 -0.17386706 0.0028794147
-0.047800206 0.051134434 -0.00081609271 0.45466951 0.87428802 -0.16998819 0.0027513197
0.05327573 0.051477037 -0.001296624 -0.5314936 0.82441092 -0.19457921 0.0050835884
