# .PCD v0.7 - Point Cloud Data file format
VERSION 0.7
FIELDS x y z normal_x normal_y normal_z curvature
SIZE 4 4 4 4 4 4 4
TYPE F F F F F F F
COUNT 1 1 1 1 1 1 1
WIDTH 569
HEIGHT 1
VIEWPOINT 0 0 0 1 0 0 0
POINTS 569
DATA ascii
-0.073188052 0.057941183 0.0042637051 -0.52211052 0.64549655 0.55743599 0.016716404
-0.070507772 0.058614288 0.0047559845 -0.16162094 0.66703182 0.72728759 0.02682695
-0.067503542 0.05843335 0.0045204535 0.1680375 0.6898132 0.7042166 0.011628276
-0.064778648 0.057786763 0.0040369323 0.34458202 0.71008784 0.61403465 0.0066256784
-0.06294395 0.057212524 0.0034950569 0.41916028 0.7622714 0.49320078 0.014430332
0.0624502 0.057421055 0.0035458074 -0.48547584 0.61665571 0.61971676 0.0085844556
0.064541891 0.058426134 0.0044168094 -0.44031942 0.49243647 0.75074971 0.021498773
0.067408837 0.058542509 0.005307402 0.03761379 0.32959402 0.94337314 0.021548718
0.070383623 0.058542576 0.004429901 0.42290616 0.27005619 0.86499721 0.0083541125
-0.069614947 0.060082536 0.0033624538 -0.12829414 0.89258718 0.43223676 0.0239702
-0.068486512 0.060034156 0.003374367 0.014787123 0.92428309 0.38142097 0.027796917
0.065401748 0.06116084 0.0035206757 -0.66619688 0.31908944 0.67406493 0.026642546
0.067455992 0.061514042 0.0042699105 -0.1877071 0.27118045 0.94404829 0.029989595
0.070320703 0.061443571 0.0038768309 0.351109 0.10804677 0.93007976 0.017929763
0.067647718 0.064434953 0.0034865683 -0.22398807 0.19211242 0.95546961 0.019444857
0.070441104 0.064442478 0.0033986168 0.15696277 0.02554075 0.98727423 0.015567053
0.072000004 0.065004088 0.0030525455 0.197586 0.022540273 0.98002636 0.015706409
0.068278141 0.066861488 0.003146379 -0.30675393 0.13680162 0.94190621 0.017624343
0.070597664 0.067283206 0.0032558141 0.13575555 0.0018371628 0.9907406 0.015062998
0.072514534 0.067841724 0.0031855593 0.19163027 -0.067930117 0.97911358 0.015454185
0.070718423 0.070374899 0.0035151469 -0.089028068 -0.075843804 0.99313736 0.029730828
0.072991826 0.070604086 0.0035627158 0.15843441 -0.1810946 0.9706201 0.024996556
0.068956845 0.074952789 0.0032447618 -0.56650168 0.30153251 0.76691198 0.051220089
0.070454441 0.073417701 0.0039486866 -0.35122946 -0.088052988 0.93213975 0.01350785
0.073358856 0.073545069 0.0042567393 0.3201842 0.012207737 0.94727665 0.068937659
0.075375557 0.074005947 0.0033415945 0.76313835 0.032681625 0.64540827 0.086987041
0.068901367 0.075932406 0.0032772596 -0.56657112 0.30139211 0.7669158 0.051205143
0.070442274 0.075741395 0.0041882615 -0.14415686 0.46202317 0.87507343 0.097086482
0.073004439 0.075510129 0.0043757744 0.17829944 0.6363256 0.75053257 0.068777367
0.075002164 0.075202972 0.0031602539 0.6431722 0.67422909 0.36296654 0.10663804
-0.01318095 0.00298133 0.0060984306 -0.14412652 -0.86156827 0.48675215 0.00089664909
-0.0011928243 0.0027660704 0.0077724373 -0.018319583 -0.83115262 0.55574244 0.0016840718
0.0014546318 0.0022215801 0.0067998669 0.0030513979 -0.82606959 0.56355983 0.0014586061
0.0045359107 0.0022940987 0.006734808 0.061988439 -0.8337512 0.54864961 0.0009755661
0.0076243244 0.0026160881 0.0069221882 0.078916512 -0.8356806 0.54351652 0.00098647957
0.0098985843 0.002653972 0.0067470516 0.086545534 -0.84350342 0.53010541 0.00081169495
0.013045925 0.0026844593 0.0060052946 0.089813076 -0.83978593 0.53543752 0.00073169608
-0.02159027 0.0055167843 0.0072142719 -0.23506494 -0.84445351 0.48129278 0.0011537912
-0.019607486 0.005249205 0.0077307136 -0.21504566 -0.84329903 0.49254662 0.0012946542
-0.016679849 0.0046093105 0.0078378879 -0.18485846 -0.84058678 0.50915736 0.00082483166
-0.013325157 0.0041434448 0.0081328647 -0.15702207 -0.83027244 0.53478193 0.0011684514
-0.010522504 0.0034445433 0.0078497129 -0.11817758 -0.84015352 0.52931672 0.0015618182
-0.0074119554 0.0033777093 0.0082544079 -0.069931589 -0.82919157 0.5545727 0.0016721584
-0.0044853529 0.0031997284 0.0083242925 -0.039655644 -0.82352209 0.56589651 0.0019780167
-0.0027478591 0.0030365202 0.0082103582 -0.027257269 -0.83822125 0.54464865 0.0012382163
0.0013104132 0.0035148833 0.0088729504 0.020279249 -0.79322952 0.608585 0.00095386687
0.0036104582 0.0031959496 0.0084414333 0.04189907 -0.81137615 0.58302081 0.00057833706
0.0073949369 0.0033078429 0.0080536725 0.068129048 -0.82914442 0.55486739 0.0012070932
0.010581044 0.0036680386 0.0082243355 0.093880899 -0.82063538 0.56368786 0.00049876556
0.013763231 0.0038955247 0.0078529585 0.11343722 -0.82516998 0.55337733 0.00029004036
0.016624555 0.0039749402 0.0073646433 0.12069585 -0.81218576 0.5707773 0.00047011158
0.019516181 0.0047668517 0.0077800634 0.14161475 -0.78290164 0.60581374 0.00043623117
0.022479221 0.0050588343 0.0074744457 0.15743819 -0.77306437 0.61447918 0.00053499313
0.025185898 0.0054146382 0.0072068009 0.16638719 -0.75880575 0.62970573 0.00068043702
0.027392071 0.0056173913 0.0067359414 0.18405177 -0.74783868 0.63785756 0.00049713248
-0.031197533 0.0088152522 0.0074710189 -0.30293328 -0.83841932 0.45308334 0.00088257762
-0.028373398 0.0079740528 0.0077833976 -0.28322107 -0.84816116 0.4476701 0.00052554102
-0.025459507 0.0071539069 0.0079741832 -0.26008248 -0.83164924 0.49062887 0.0011091355
-0.022903541 0.0064344928 0.0080788033 -0.25489888 -0.83721292 0.48383996 0.001259826
0.022661727 0.00610431 0.0086502731 0.16182971 -0.75183111 0.63918787 0.00045269183
0.025560303 0.0064957701 0.0083611608 0.18098263 -0.74456763 0.64254516 0.00062225841
0.028526893 0.0070444574 0.008156959 0.17684644 -0.72863209 0.6616801 0.0011168639
0.031505927 0.0075771785 0.007822331 0.19726908 -0.70043796 0.68590939 0.00056292198
0.034164023 0.0083537949 0.0076606949 0.25318351 -0.73156106 0.63302189 0.001773483
-0.037156519 0.011358253 0.0075977603 -0.36912656 -0.80564255 0.46334183 0.0011617944
-0.034616716 0.010335302 0.0078878198 -0.33421296 -0.81216252 0.47821927 0.00085512816
-0.031760909 0.0095440252 0.0083333645 -0.30129027 -0.8286885 0.47169849 0.0012310242
-0.029916963 0.0092262691 0.0088516669 -0.30119467 -0.81085926 0.50178587 0.0014841256
0.03455377 0.0092870779 0.0086684311 0.26167962 -0.70093399 0.66348726 0.0031369037
0.037535585 0.0097772935 0.0079134107 0.27502716 -0.71925813 0.63798726 0.0022033618
0.040505234 0.011031799 0.0078516109 0.31815267 -0.73794013 0.5951665 0.001506187
0.043533906 0.011473975 0.006431968 0.34493151 -0.70958668 0.61441761 0.00097284635
-0.042778231 0.014196215 0.0076588402 -0.43867356 -0.77113104 0.4614352 0.0012058322
-0.040453084 0.013213775 0.0081567168 -0.40374598 -0.78140587 0.47580898 0.00089919043
-0.038067173 0.012359596 0.0085576484 -0.37346816 -0.80117387 0.46759161 0.0011552155
0.041299392 0.012215887 0.0089350911 0.31083998 -0.6767745 0.66734922 0.0030873008
0.043371856 0.012926037 0.0086804768 0.34672377 -0.68600154 0.63967538 0.0018738802
0.046388101 0.013906643 0.0077665695 0.3928982 -0.70644045 0.58870447 0.0011057523
0.049081914 0.014455945 0.0063058715 0.42836285 -0.70873129 0.56054008 0.0013479833
-0.048627328 0.017465787 0.006847112 -0.50493395 -0.73867178 0.44654861 0.00073548139
-0.046540007 0.016685648 0.0078766411 -0.48075482 -0.7438938 0.46421635 0.00091415417
-0.044227134 0.015515035 0.0082954047 -0.47284424 -0.74469709 0.47100377 0.0011516901
0.04787875 0.015300934 0.0086058239 0.39322197 -0.64807916 0.65220392 0.0024552634
0.050097354 0.016155131 0.0078668203 0.4360314 -0.66333455 0.60816437 0.0017033977
0.052088499 0.017543131 0.0078554004 0.44715714 -0.6643194 0.59894097 0.0013943969
0.054104127 0.017743086 0.0062118936 0.46795371 -0.67707211 0.56797242 0.00053043541
-0.052015293 0.020290157 0.0074457563 -0.53048748 -0.69693154 0.48256549 0.00083907892
-0.049667142 0.018956216 0.0080586681 -0.51202226 -0.71189052 0.4806715 0.0010123438
0.053059187 0.01887561 0.0086983666 0.44270769 -0.62986684 0.638183 0.0020479341
0.055473812 0.0196929 0.0074727871 0.50068104 -0.62915647 0.59454238 0.0012760293
-0.057094175 0.023531018 0.0060611377 -0.60378885 -0.64974058 0.46181834 0.00059996097
-0.055160921 0.022859566 0.007635273 -0.5695051 -0.66388977 0.48467955 0.0011004417
-0.053020991 0.021517359 0.0082088243 -0.53256226 -0.69642431 0.48101002 0.00092336006
0.055682145 0.02112399 0.0089907357 0.48124263 -0.61199987 0.62758404 0.0023840168
0.05829281 0.022385821 0.0077988221 0.53521067 -0.55858755 0.63366354 0.00075453491
-0.06023116 0.026745029 0.0062617189 -0.63748193 -0.60293114 0.47967774 0.00095397828
-0.05831828 0.025741942 0.0076051163 -0.62480384 -0.60683423 0.49129662 0.0013905991
-0.05628027 0.024457844 0.0085364133 -0.59209222 -0.64757431 0.47966063 0.0011044735
0.059973381 0.024120985 0.0079136332 0.56063604 -0.51516473 0.64829975 0.0012285247
0.061565209 0.025733713 0.0077438513 0.59714228 -0.50607818 0.62233907 0.001243855
0.063431352 0.026526555 0.0063774786 0.65051186 -0.46161848 0.60311079 0.001222849
-0.061238449 0.028805047 0.007377984 -0.67794949 -0.53406042 0.50513744 0.001003991
-0.05953737 0.027726373 0.0084317783 -0.64160836 -0.57753253 0.50477225 0.0010131996
-0.00040584826 0.029993495 0.0089831771 0.075364165 0.80192232 0.59265572 0.0010492215
0.0015344698 0.029869204 0.0089440867 0.052812401 0.80288142 0.59379476 0.00072119653
0.0034638192 0.029767301 0.00897572 0.020266518 0.80001783 0.59963375 0.00079714129
0.0076340195 0.029953284 0.0087416591 -0.020447126 0.77377301 0.63313293 0.0014123948
0.0095374137 0.029906798 0.0089480327 -0.076235838 0.77349442 0.62920141 0.00076844724
0.062503867 0.027757736 0.0085641416 0.62743092 -0.4552699 0.63171166 0.00096521561
0.06425152 0.029054983 0.0075492561 0.66192573 -0.43433899 0.61090416 0.00095091463
-0.063866258 0.032002673 0.0070277471 -0.69955593 -0.46972829 0.538495 0.00096433703
-0.062342208 0.031077042 0.0082230074 -0.68905151 -0.47239119 0.549595 0.0022116052
-0.015251179 0.032827795 0.0089878803 0.25181261 0.7771197 0.5767802 0.0014793694
-0.013177413 0.032618102 0.0084132915 0.22143504 0.84329754 0.48970985 0.0017453714
-0.010392918 0.032292262 0.0077677313 0.1911981 0.85454237 0.48290849 0.0012727785
-0.0074776411 0.031762246 0.0076158228 0.15780625 0.87036031 0.46644413 0.00098683708
-0.0044979621 0.031303763 0.0076168114 0.12055852 0.86458808 0.48780429 0.0023814521
-0.0014926569 0.031029848 0.0074393484 0.08022213 0.8624168 0.49980164 0.0024967561
0.0014542437 0.030882373 0.0072976407 0.064617306 0.86194468 0.50286776 0.0027225125
0.0044910489 0.030731283 0.0074247476 0.003733888 0.86976045 0.49346 0.0023506819
0.0075331302 0.030809812 0.0073711281 -0.028014567 0.86664742 0.49813402 0.0024543104
0.010508679 0.030907093 0.0075417887 -0.076838605 0.85877967 0.50655043 0.0023844701
0.013533401 0.031180521 0.0076392624 -0.11898986 0.84574783 0.52014613 0.002393483
0.016536258 0.031730227 0.0076195812 -0.18578039 0.84912014 0.49444973 0.0018035319
0.019362649 0.03219489 0.0079737389 -0.21595739 0.82652229 0.51983011 0.0016104794
0.022189882 0.03262978 0.0084317345 -0.22983281 0.75827032 0.61008435 0.0012412709
0.06496609 0.031474918 0.0084639369 0.64979845 -0.36129892 0.66874886 0.0018804017
0.066711612 0.031870678 0.0065985601 0.69805831 -0.3381249 0.63117844 0.0016472165
-0.066466935 0.035419945 0.0063109878 -0.7335043 -0.41569802 0.53774214 0.0011872503
-0.064814962 0.034428343 0.0077794376 -0.70234972 -0.40919933 0.58246088 0.0019051044
-0.022090767 0.035552796 0.0082375193 0.31273243 0.82791656 0.46556696 0.0012325572
-0.019456252 0.034905985 0.0076503041 0.28670213 0.84523928 0.45096838 0.0010361786
-0.016554024 0.034010135 0.007585221 0.24537423 0.84538925 0.47445601 0.0013924042
-0.013753023 0.033475183 0.0070479438 0.23119321 0.85563374 0.46307731 0.0016012144
-0.011220611 0.033233877 0.006169646 0.20014657 0.86965501 0.45126656 0.0011036051
0.019939311 0.033222202 0.0065463525 -0.22736265 0.8480261 0.47870451 0.0015270155
0.022733185 0.033691276 0.0070911609 -0.23719558 0.83655196 0.49388161 0.0018922755
0.025520334 0.034205642 0.0076055862 -0.24864221 0.83043718 0.49854904 0.0030548028
0.028338583 0.035024438 0.0077589811 -0.27891657 0.82041138 0.49912998 0.0020349624
0.031110317 0.035645049 0.0083129155 -0.30091244 0.79736048 0.5231328 0.0028959929
0.065672815 0.033489846 0.0087549388 0.70748824 -0.30576593 0.63715589 0.0015313677
0.067059085 0.034475952 0.0077218544 0.7128219 -0.30276719 0.63262701 0.0014897571
-0.066975094 0.037709396 0.0071660625 -0.7549141 -0.32083371 0.57198817 0.0017605969
-0.065550461 0.037106715 0.0085630203 -0.71110839 -0.30288574 0.63449585 0.0029684799
-0.030389637 0.038811933 0.0087066311 0.37229171 0.76410753 0.52681917 0.0022837725
-0.028300406 0.038338952 0.0078260088 0.37565061 0.81928915 0.43318808 0.00086912874
-0.025531281 0.037197065 0.0077061434 0.33441868 0.81662649 0.47040978 0.0011007185
-0.022883877 0.036437538 0.007079293 0.32277182 0.8365069 0.44280314 0.0010228835
0.029345935 0.036212217 0.0063957274 -0.30275202 0.83851105 0.45303476 0.0017616089
0.031828161 0.036717709 0.007079368 -0.32387012 0.81503773 0.48043892 0.0022032044
0.034472868 0.037542935 0.007611624 -0.35635146 0.80123258 0.48066616 0.0024794394
0.037008937 0.038397353 0.008143561 -0.37728423 0.74378169 0.55176574 0.0036198737
0.068019889 0.037397247 0.0078038946 0.74482548 -0.20515577 0.63493788 0.0017396425
0.06935598 0.037914049 0.0062851608 0.76816148 -0.21748011 0.60218787 0.00090502936
-0.069225818 0.041587606 0.0062691998 -0.77785653 -0.28494084 0.56013209 0.0041795732
-0.067566618 0.040478624 0.0077512544 -0.72863227 -0.23067968 0.64488918 0.002193375
-0.036471408 0.041728958 0.0087139308 0.38735989 0.76356006 0.51665115 0.0014519817
-0.034347951 0.041185573 0.0078561204 0.38282257 0.79711819 0.46695781 0.0015513687
-0.031641923 0.040038619 0.0075226165 0.37396887 0.80647582 0.45797825 0.0014233917
-0.029158296 0.03932694 0.0065453532 0.39000311 0.81707072 0.42460924 0.00069685315
0.035887945 0.039120551 0.0061082677 -0.46737337 0.79322696 0.39032435 0.0034023381
0.037953794 0.039644953 0.0070932368 -0.42051873 0.76723456 0.48426759 0.0024585365
0.040401954 0.040731937 0.0075927731 -0.42313987 0.75070256 0.50734442 0.0024241426
0.042887315 0.041558918 0.0085239708 -0.40223578 0.68351525 0.60910857 0.0014885562
0.068233244 0.040518668 0.0083622793 0.73592585 -0.10802569 0.66838872 0.0020396018
0.069544025 0.040599454 0.0068766237 0.77731782 -0.1220532 0.61715466 0.0019798873
-0.069518149 0.043795485 0.0066589913 -0.72658342 -0.18666229 0.66123641 0.0033427458
-0.068018891 0.043434933 0.0081075868 -0.69660211 -0.11501452 0.70817876 0.0032752794
-0.04255107 0.044732161 0.0086538326 0.40565297 0.73217356 0.54714489 0.0012052876
-0.040270541 0.044140499 0.0078590931 0.41597739 0.78381801 0.46107712 0.0012866585
-0.037577391 0.042979624 0.00756968 0.37795594 0.79107738 0.48098427 0.0014323583
-0.035434321 0.042422466 0.0065664351 0.41219279 0.80009687 0.4358235 0.00095346913
0.04153898 0.042234942 0.0063781342 -0.44065773 0.75618398 0.48374227 0.0013309749
0.043657761 0.042938694 0.0072508156 -0.44076622 0.73475212 0.51562035 0.0026991998
0.046281636 0.044074893 0.007872452 -0.4027743 0.71852446 0.56700552 0.0020634402
0.048444208 0.044660807 0.0086693196 -0.36371732 0.68071496 0.63587475 0.0032587715
0.068320237 0.043489251 0.0085395053 0.62995815 -0.008252468 0.77658516 0.0034295251
0.069850236 0.043763954 0.0068961643 0.76830608 -0.037690941 0.63897192 0.0022062925
-0.069810964 0.046511255 0.0069114761 -0.69386351 -0.097890265 0.713422 0.0063166562
-0.068016231 0.046523117 0.0083742701 -0.57317472 -0.016907416 0.81925875 0.0029030007
-0.048431851 0.047777925 0.0085237995 0.33256572 0.7311514 0.59566569 0.0025906772
-0.046209216 0.047155429 0.0078743212 0.38256562 0.76119894 0.52365994 0.0025973916
-0.043630499 0.0460875 0.0075512342 0.39381516 0.77251452 0.49812749 0.0019608163
-0.041161869 0.04536942 0.0066075139 0.4303695 0.77903724 0.45594206 0.0015617098
0.047152344 0.045492344 0.0066896034 -0.44945008 0.73250258 0.51130676 0.0022467391
0.049571928 0.046317544 0.0075010643 -0.38833681 0.7192468 0.57608902 0.0018799681
0.052248191 0.047192503 0.0082623232 -0.36255082 0.68755519 0.6291461 0.0023336592
0.054515339 0.047872864 0.008818632 -0.32941067 0.66345018 0.67180544 0.0014172113
0.068240248 0.046505187 0.0084976209 0.57948774 0.089496642 0.8100521 0.0043647671
0.069698185 0.046536431 0.00705068 0.73198408 0.043636415 0.67992288 0.004423853
-0.070192792 0.049552415 0.0068481271 -0.58117568 -0.0070184907 0.81374782 0.0099173738
-0.06769798 0.049629014 0.0083505204 -0.44839913 0.0983674 0.88840425 0.0053975256
-0.065381311 0.050806656 0.0089192195 -0.1638999 0.32557452 0.93120241 0.01218588
-0.057332627 0.050970256 0.008825914 0.10647699 0.69851929 0.70762527 0.0035073734
-0.055247929 0.050554205 0.0086242137 0.21389848 0.6963172 0.68512034 0.0015580354
-0.052372046 0.050084021 0.0078908913 0.31608123 0.75212741 0.57827061 0.0029784883
-0.049632557 0.049166877 0.0074479617 0.33765018 0.76696891 0.5456658 0.001953095
-0.047225211 0.048511252 0.0067252824 0.39809328 0.77487743 0.4910059 0.0014741382
0.052775208 0.048701085 0.006931094 -0.40950668 0.69887483 0.58641142 0.0022523983
0.055459224 0.049545623 0.0076546031 -0.33044028 0.65880799 0.67585593 0.001575034
0.058296032 0.050280187 0.0082892701 -0.2600309 0.59192294 0.76289648 0.0025045378
0.061214078 0.050805099 0.008761242 -0.13621686 0.53719974 0.83238298 0.0038358283
0.064547464 0.05081439 0.0089199301 0.082882412 0.41389996 0.90654141 0.0079168519
0.067607738 0.049691267 0.0083062258 0.46412218 0.18777975 0.86563814 0.0077949273
0.06970267 0.049484454 0.0067639062 0.66290659 0.10125171 0.74182409 0.0056072986
-0.070256546 0.052550156 0.0067409119 -0.44041184 0.11828793 0.88996929 0.0092948657
-0.067428216 0.052573767 0.0077449568 -0.24026945 0.29293367 0.92545152 0.014620944
-0.064515479 0.052590713 0.0081175854 -0.097763732 0.46782741 0.87839609 0.01229969
-0.061500747 0.052713573 0.0078483289 0.05343486 0.63531196 0.7704047 0.0065762224
-0.058526687 0.052363545 0.0076142345 0.14514618 0.73723334 0.65986329 0.0019347884
-0.055659093 0.05195386 0.0072003412 0.27415916 0.7535221 0.59752923 0.0020333324
-0.053023778 0.051394351 0.0065624989 0.34974101 0.76598668 0.53939384 0.0015245687
0.056499414 0.051315885 0.0063551487 -0.41122225 0.66964418 0.61844391 0.0047850898
0.058772925 0.052001175 0.0069162771 -0.33274406 0.67860144 0.65481406 0.0028410449
0.061499324 0.052652646 0.0074870819 -0.20094958 0.57310683 0.79446077 0.0040920051
0.064506486 0.052698694 0.0080129122 -0.020113416 0.45052838 0.89253551 0.0059559583
0.067443766 0.052499827 0.0076239514 0.30858409 0.31431392 0.89776534 0.011970097
0.069582812 0.052429125 0.0064581796 0.65978104 0.14412801 0.73750675 0.010756499
-0.070091657 0.055220496 0.0063705309 -0.21605831 0.35213736 0.91066909 0.0148259
-0.06759429 0.055371303 0.0066224285 -0.043701999 0.45387122 0.88999498 0.011454581
-0.064668849 0.05483631 0.0066479445 0.12767586 0.59334421 0.79475874 0.0092667863
-0.061794508 0.054373872 0.0063725417 0.19481942 0.6924414 0.69467276 0.0043836515
0.06222941 0.054471333 0.0062914318 -0.33923993 0.61563677 0.71127194 0.0052564014
0.064616024 0.055191759 0.0066101509 -0.14075144 0.50114638 0.85383922 0.009968047
0.067416824 0.055392478 0.0065801544 0.1879278 0.36577883 0.91153115 0.01776517
0.069421604 0.054673921 0.0060882727 0.34423625 0.255086 0.90356648 0.017316453
-0.015604787 0.0053741313 0.0093440749 -0.1617087 -0.80040967 0.5772301 0.0013246933
-0.013524026 0.0054694596 0.009994708 -0.13380559 -0.77601033 0.61636347 0.00096728635
-0.010487003 0.0050257808 0.010002654 -0.098812915 -0.76704645 0.63393676 0.00088629476
-0.007496126 0.0048840865 0.010234061 -0.067833327 -0.75907952 0.6474542 0.001127665
-0.0044453964 0.0049826084 0.010555415 -0.014341791 -0.73835522 0.67425948 0.0012029646
-0.0015763919 0.0047653173 0.010330942 -0.0092004174 -0.748285 0.66331357 0.00073498092
0.0016171405 0.0049376218 0.010540333 0.0030212582 -0.72417063 0.68961418 0.0014141395
0.0045502577 0.0048111486 0.010292533 0.047775082 -0.73780853 0.67331737 0.0010351185
0.0075911847 0.0049611591 0.010187876 0.05957057 -0.75585043 0.65202874 0.0021455714
0.010405318 0.0051788841 0.010205885 0.083759092 -0.74825501 0.65810257 0.0013401675
0.013399484 0.00543606 0.010060811 0.11924298 -0.74605191 0.65512413 0.0014678279
0.016452027 0.0054802727 0.0094777625 0.13685539 -0.74768549 0.64979756 0.0010094648
0.019793823 0.0059757992 0.0091908062 0.14765958 -0.74155349 0.65444255 0.000631881
-0.027603015 0.0087649515 0.0094112717 -0.27794009 -0.78309441 0.55633849 0.00037062861
-0.025503507 0.0083361091 0.0097879479 -0.24337155 -0.78159285 0.57435435 0.0007115
-0.022434676 0.0080255279 0.010580819 -0.2122166 -0.77700043 0.59265041 0.0013205352
-0.019371245 0.0071588331 0.010564523 -0.20201853 -0.78151935 0.59026784 0.00074531912
-0.016560301 0.0068013794 0.010972331 -0.16609995 -0.76760316 0.61902833 0.001242333
-0.013785171 0.0066757561 0.011428605 -0.11670559 -0.74934781 0.65181112 0.0010422579
-0.010386663 0.0063570854 0.011614072 -0.082262777 -0.68769854 0.72132069 0.0013537437
-0.0074943271 0.0061868406 0.01169388 -0.050165292 -0.72636116 0.68548012 0.0013554264
-0.0055512949 0.0060477071 0.011679936 -0.024677284 -0.73031694 0.68266255 0.0013423081
0.0014792859 0.0061384691 0.011856058 0.0036337937 -0.66495824 0.74687165 0.0026036922
0.0056319758 0.0063715186 0.01187478 0.042788815 -0.63670653 0.76991808 0.0021487551
0.0073913415 0.0063009108 0.011660497 0.054355595 -0.71493381 0.69707608 0.0017161951
0.010856676 0.0065305731 0.011534466 0.077459276 -0.7051934 0.70477122 0.0012722727
0.013700259 0.0067614475 0.011361629 0.10868802 -0.71573049 0.68986732 0.0016228978
0.016527565 0.0070668892 0.011196324 0.1387573 -0.65658462 0.74137908 0.0020807062
0.019476248 0.0073939562 0.010883438 0.1671185 -0.68520409 0.70891941 0.001993746
0.022402611 0.0077230623 0.01048007 0.16877942 -0.69556439 0.69835782 0.0010910252
0.025417322 0.0079562822 0.0098921368 0.18642333 -0.70468986 0.68458641 0.0002386735
0.028240826 0.0085006841 0.0097144125 0.1899047 -0.67562062 0.71237141 0.0003136507
0.031094914 0.0086464072 0.0091401376 0.20360589 -0.67057753 0.71335149 0.00050434907
-0.034176257 0.011319307 0.0096649285 -0.32716358 -0.76178622 0.55914748 0.00062139833
-0.031520166 0.010975342 0.010610837 -0.27575675 -0.76396006 0.58337235 0.0011917275
-0.028672494 0.010158932 0.010858526 -0.25429276 -0.77103209 0.58381897 0.00066175178
-0.025609789 0.0095049795 0.011367483 -0.22069405 -0.76112294 0.60990655 0.0012934976
-0.023612646 0.0093900999 0.01188977 -0.21404661 -0.7036041 0.67758799 0.0019242842
0.023372084 0.0092310868 0.011767622 0.16157204 -0.65711117 0.736274 0.0013117951
0.025700957 0.0095085157 0.011358647 0.18239596 -0.66288078 0.72616857 0.0006918204
0.028562734 0.010117053 0.011099569 0.19070561 -0.657754 0.72869128 0.00029450018
0.031443015 0.010460015 0.01061164 0.20533544 -0.62607974 0.75223762 0.00035619803
0.034430459 0.010855403 0.010181088 0.22655264 -0.65647089 0.71952766 0.00088023633
0.03722395 0.011344651 0.009803582 0.2541503 -0.64216989 0.72320497 0.0016818063
0.039641507 0.011995489 0.0094854971 0.27656329 -0.65893286 0.69951421 0.0010054125
-0.040255714 0.014446434 0.010096345 -0.3947809 -0.72910374 0.55906671 0.00065558869
-0.037591152 0.013587584 0.010644915 -0.34469101 -0.7522499 0.5615232 0.00053840713
-0.034659602 0.012696341 0.011263052 -0.31385532 -0.74295431 0.59119672 0.0010207267
0.032531966 0.012195797 0.01170906 0.20878565 -0.61050904 0.76399428 0.00029023507
0.034701683 0.012725515 0.011573428 0.2085747 -0.58844483 0.78117174 0.00012087233
0.037547871 0.013266814 0.011209095 0.2198762 -0.57255518 0.78983235 0.00042554952
0.040330663 0.013669081 0.010669412 0.25683472 -0.61964017 0.7416752 0.00219427
0.043155547 0.014276322 0.010118675 0.32843915 -0.61695212 0.71519077 0.0017577722
0.045405932 0.014676278 0.0093533937 0.31718242 -0.65847856 0.68249631 0.0034164789
-0.045624588 0.017568933 0.0099377465 -0.46311462 -0.69659263 0.54798132 0.00074930739
-0.043393828 0.016644912 0.010527076 -0.42894003 -0.71057183 0.55776179 0.00061704888
-0.040885337 0.015772685 0.011382699 -0.37691391 -0.69113815 0.61665553 0.0013521062
0.041244961 0.015432696 0.011728128 0.24123028 -0.57229161 0.78376663 0.00099359325
0.043855656 0.016144121 0.01129052 0.2821261 -0.56200463 0.7775318 0.001840975
0.046480045 0.016647853 0.01058155 0.33722275 -0.59374112 0.73058355 0.0023046113
0.04905076 0.017032674 0.0096069649 0.41168812 -0.64202625 0.6467728 0.0019326125
-0.049181785 0.020225286 0.010175248 -0.48810747 -0.67285848 0.55588895 0.00088710722
-0.046787508 0.01909963 0.010914975 -0.45414636 -0.67525226 0.58119315 0.0010678277
-0.044403493 0.018195856 0.011700885 -0.42383021 -0.6560725 0.62444925 0.0023022124
0.047065116 0.018554667 0.011756177 0.30412871 -0.49220625 0.81562167 0.0016152406
0.049642909 0.019245083 0.011051584 0.37668315 -0.52131402 0.76572937 0.0013655652
0.052236687 0.019797409 0.010063169 0.42260838 -0.57326317 0.70197678 0.0025347923
0.054271109 0.020608906 0.0095182918 0.43498239 -0.58421558 0.68518794 0.0017761132
-0.05450828 0.023629563 0.0093395673 -0.55934149 -0.61491019 0.55589783 0.001626383
-0.052317783 0.022738378 0.010360158 -0.50373137 -0.65418154 0.56418186 0.00072833727
-0.050024945 0.021753309 0.011241796 -0.46883374 -0.64605069 0.60234004 0.0012454333
0.050752874 0.021332933 0.01189459 0.38367409 -0.51962024 0.7634061 0.0014715603
0.052919921 0.022130826 0.011403264 0.39714575 -0.46890816 0.78892362 0.0014565942
0.055469006 0.022650111 0.010223403 0.47171879 -0.51101243 0.71857345 0.0031126386
0.057509448 0.023317197 0.0093809692 0.50287557 -0.53713346 0.677203 0.0014394525
-0.057343524 0.026490519 0.0095590474 -0.57332075 -0.55129939 0.60611254 0.00085141021
-0.055383291 0.025625087 0.010587611 -0.5333091 -0.57331991 0.62200141 0.0021393728
-0.053087305 0.024537489 0.011614113 -0.48941118 -0.5661487 0.66328907 0.0012059022
0.0074809454 0.026971608 0.011949137 -0.0089137508 0.65563035 0.75502938 0.0034731734
0.055801682 0.025051322 0.011520686 0.41942751 -0.41426152 0.80775487 0.00077818974
0.058400694 0.025640296 0.010338348 0.50584072 -0.46206218 0.72843921 0.0022628717
0.060318027 0.026053324 0.009256646 0.56184506 -0.48625073 0.66924608 0.0018764625
-0.0602764 0.029705577 0.0094017601 -0.62315273 -0.51623601 0.58752102 0.0013625849
-0.058330506 0.028684022 0.010508146 -0.5874427 -0.4951781 0.6400857 0.002394354
-0.056272238 0.02755492 0.011542237 -0.56485873 -0.52860129 0.63365227 0.00088423316
-0.012545167 0.029753143 0.011784232 0.19791719 0.69033045 0.69589698 0.0034152428
-0.010442729 0.029482994 0.011524473 0.16961469 0.67245895 0.72043729 0.0014303769
-0.0074620373 0.029189026 0.011119246 0.14414328 0.74899668 0.64670449 0.0018230767
-0.0044023157 0.028961746 0.01078994 0.11733342 0.75064528 0.65020347 0.0013807706
-0.0014865925 0.028638845 0.010706854 0.078482397 0.75967073 0.64555472 0.0015578497
0.0015187442 0.028371716 0.010708633 0.055023223 0.73421276 0.67668605 0.0031398409
0.0045491722 0.028401176 0.010560001 0.016562181 0.72159767 0.69211459 0.0025066703
0.00745425 0.028429793 0.010545919 -0.028742254 0.73619771 0.67615598 0.0032728985
0.010528475 0.028561896 0.010600195 -0.065305434 0.72563642 0.68497223 0.0021506567
0.013455246 0.028804898 0.010663935 -0.10716629 0.71004999 0.6959486 0.0029859568
0.016429519 0.028992439 0.011071468 -0.14456294 0.72933376 0.66871059 0.0016286172
0.019467654 0.029400721 0.011313146 -0.16495982 0.70411909 0.69065511 0.0016574106
0.022310108 0.029727984 0.011655542 -0.18493807 0.64330119 0.74294114 0.0005579954
0.024241969 0.029972959 0.011930464 -0.20755379 0.65061092 0.73049754 0.00090961432
0.058833711 0.028289037 0.011495621 0.45473635 -0.35966566 0.81477326 0.0011289424
0.061221495 0.028648466 0.010103647 0.55968636 -0.399014 0.72631878 0.0014613468
-0.061079402 0.031741336 0.010067244 -0.6399132 -0.40732411 0.65161198 0.002167955
-0.059264459 0.031146793 0.011374616 -0.60313481 -0.3727335 0.7051937 0.0016495675
-0.021562904 0.032781243 0.011680196 0.26952252 0.70341039 0.65770161 0.003374133
-0.01929519 0.032332808 0.011280779 0.24795036 0.7491926 0.61419135 0.0018168819
-0.016423242 0.031855587 0.010717086 0.23427434 0.7618106 0.60395384 0.0012848355
-0.013559415 0.031181825 0.010491944 0.20526707 0.76254463 0.61350727 0.0028011149
-0.010561293 0.030829066 0.010017006 0.18268363 0.76258069 0.62056214 0.0016303315
-0.0076356325 0.030511105 0.0096274382 0.14655501 0.77345657 0.61667389 0.0016941413
-0.0048073856 0.030240159 0.0093598925 0.11791354 0.77817416 0.61688042 0.0014751481
-0.0021017704 0.030104995 0.0090266671 0.087044857 0.80243248 0.59036028 0.00070050755
0.014124335 0.03020185 0.009142478 -0.10353559 0.76185244 0.63942254 0.0012095186
0.016601877 0.030395079 0.0094856573 -0.16061862 0.74738896 0.64467937 0.0012442352
0.019641683 0.030850673 0.0098483386 -0.18617688 0.76694298 0.61411446 0.0011203333
0.022621943 0.031245191 0.010321324 -0.20728266 0.71568304 0.66695708 0.0028169744
0.025480723 0.031658266 0.010793075 -0.20497034 0.65404528 0.72815651 0.00086154434
0.028362731 0.032173745 0.011185724 -0.23008025 0.69427478 0.68194252 0.0019688748
0.031049768 0.032656807 0.011639473 -0.23366784 0.62192023 0.74740517 0.0012653862
0.033001203 0.032983817 0.011988791 -0.24087676 0.61300373 0.7524659 0.0014224219
0.059714187 0.030698556 0.011890881 0.44083026 -0.25711122 0.8599782 0.001932633
0.061549198 0.03136529 0.011087302 0.51813233 -0.29082263 0.80433887 0.0015525242
0.063748844 0.031889115 0.0097578727 0.59724337 -0.33373535 0.72932929 0.0027926827
-0.063583933 0.035079129 0.0095564658 -0.65962481 -0.3624182 0.65844375 0.0017837965
-0.061720695 0.034398798 0.010942533 -0.60303736 -0.32766974 0.72730911 0.0022626889
-0.028184339 0.035596412 0.011544413 0.30191484 0.67140508 0.67680317 0.0011216274
-0.025358111 0.034999549 0.010846238 0.30580369 0.74488384 0.59298581 0.0013152251
-0.022550685 0.034192927 0.010459087 0.27279717 0.76249886 0.58666617 0.0025318505
-0.019691849 0.033621769 0.0098812301 0.26898116 0.76669055 0.58295333 0.0014895292
-0.017324032 0.033182949 0.0093643162 0.2505728 0.7796753 0.5738638 0.0014059022
0.02602458 0.033207275 0.0092701474 -0.2381036 0.73600656 0.63371998 0.0014849238
0.028690113 0.03366727 0.0098123122 -0.25184399 0.71815896 0.64870822 0.0016271992
0.031586077 0.03429101 0.010239127 -0.27557981 0.70299083 0.65563685 0.0033841536
0.034352969 0.034761917 0.010892135 -0.29177058 0.66430885 0.68815964 0.0012107246
0.036978167 0.035437282 0.01141377 -0.2964586 0.64285624 0.70629185 0.0028192287
0.062266853 0.034408662 0.011609482 0.471672 -0.1970215 0.85948128 0.0020310262
0.064330466 0.034617845 0.010298884 0.58954334 -0.24053122 0.77109236 0.0015329353
0.06617295 0.035876889 0.0092278132 0.64833879 -0.23933655 0.72275501 0.0051669078
-0.06417001 0.037695777 0.010138812 -0.63500828 -0.25882187 0.72785705 0.0024227907
-0.062301721 0.037256971 0.011508247 -0.59462816 -0.1952901 0.77992249 0.0020351619
-0.034148209 0.038475331 0.011391346 0.31962138 0.71278882 0.62431896 0.0016460425
-0.031466592 0.037776273 0.010742288 0.32914498 0.73817569 0.58886349 0.001320378
-0.028630149 0.036977008 0.010145843 0.33223304 0.73867536 0.58649802 0.0014580706
-0.026165545 0.036319237 0.0095842723 0.32399824 0.76475197 0.55693763 0.0011286992
0.035039235 0.036420926 0.0095597384 -0.32460138 0.70479262 0.63079417 0.0017445093
0.037790827 0.037096679 0.010191535 -0.33625787 0.67282844 0.65896326 0.002899735
0.040352572 0.037789598 0.010861522 -0.34306648 0.60325736 0.71999025 0.0026271932
0.043088969 0.038365245 0.011623674 -0.307677 0.59655124 0.74125665 0.0019998092
0.062639125 0.036916953 0.011854468 0.45664927 -0.097020186 0.8843407 0.0041882256
0.064497799 0.037548903 0.010841914 0.50231057 -0.0958324 0.8593604 0.0023384942
0.066628017 0.03776136 0.009350731 0.65105873 -0.16186973 0.74156642 0.003225659
-0.066266738 0.040991351 0.0092391614 -0.66051084 -0.18286206 0.72820801 0.0023707927
-0.064438172 0.040522382 0.010574006 -0.57484239 -0.11785343 0.8097325 0.0037339889
-0.062581107 0.040202614 0.01180887 -0.49205449 -0.049928069 0.86913157 0.003157177
-0.042318277 0.041952286 0.011766313 0.30979308 0.68319309 0.66126817 0.0011720465
-0.040168278 0.04140285 0.011311533 0.31345773 0.67348909 0.66944504 0.0010456394
-0.037424218 0.040630758 0.010697267 0.32778233 0.7226885 0.6085065 0.0010410263
-0.034687433 0.03983707 0.010096574 0.35065204 0.72830212 0.58874369 0.0013964042
-0.032163564 0.039239418 0.0092875594 0.37588853 0.74728811 0.54796737 0.0013254222
0.041056368 0.039575789 0.0095278583 -0.3889766 0.67361093 0.62844694 0.0022863641
0.043610893 0.040245388 0.010284806 -0.35547596 0.62166202 0.69797784 0.0025288798
0.046327367 0.040800329 0.011097283 -0.29843315 0.55905598 0.77355933 0.0012372572
0.049093619 0.041496616 0.011640223 -0.26032621 0.56825852 0.78058475 0.0025559848
0.051044676 0.041935768 0.01192129 -0.17974272 0.52119851 0.83429289 0.0031839057
0.062486187 0.041861318 0.011993968 0.29279429 0.054016314 0.95464855 0.0066398233
0.064299241 0.040509667 0.011232872 0.44949898 -0.011968698 0.89320064 0.003459549
0.066707231 0.040622558 0.0097084781 0.61138201 -0.071813904 0.78807032 0.0035415574
-0.066493303 0.043589354 0.0094218189 -0.60876775 -0.052245472 0.79162639 0.0035368933
-0.064398363 0.043452777 0.01081569 -0.47563174 0.047509614 0.87836051 0.0043041934
-0.062454358 0.043903194 0.011764658 -0.3966859 0.097057328 0.91280901 0.0039319205
-0.048883308 0.044712048 0.011839092 0.22124998 0.63740605 0.73807991 0.0022633271
-0.046364054 0.044270333 0.011306377 0.2830151 0.67741323 0.67897993 0.0020203907
-0.04349459 0.043538164 0.010674188 0.31666848 0.68883848 0.65209097 0.00086677918
-0.040763207 0.042823225 0.009936071 0.3533338 0.71440792 0.60396725 0.0011872337
-0.03846322 0.04218455 0.0093756756 0.37739259 0.73202688 0.56719619 0.001090564
0.044871021 0.042025514 0.0092787873 -0.40250558 0.63331914 0.66098118 0.0032472787
0.046761669 0.042696789 0.0096922936 -0.36427429 0.62795413 0.68773383 0.0021782457
0.049545478 0.043490048 0.010304316 -0.32159618 0.59164202 0.73928046 0.001999059
0.052379481 0.043791331 0.011111458 -0.22372736 0.53540993 0.81442147 0.0016046207
0.055355623 0.044319101 0.011541043 -0.16152333 0.46082565 0.87266827 0.0026164015
0.058487423 0.044698145 0.011757597 -0.040529132 0.38115388 0.92362279 0.0038286885
0.061725557 0.044043295 0.011747514 0.13224988 0.28540406 0.9492389 0.0040725633
0.064366177 0.043583784 0.011031523 0.37129429 0.13151222 0.91915447 0.0062789652
0.066772267 0.04333581 0.009778427 0.56659645 0.036278162 0.82319641 0.0041779932
-0.06655705 0.046471275 0.0093177399 -0.5212903 0.077250771 0.84987569 0.0054206639
-0.06458506 0.046573784 0.010344934 -0.3838588 0.20285344 0.90083462 0.0074669593
-0.061570119 0.046759963 0.011392319 -0.18851101 0.35935548 0.91396242 0.0045441142
-0.058528244 0.04721313 0.011598418 -0.018868104 0.47081622 0.88202953 0.0028220918
-0.055498272 0.047160547 0.011468423 0.10639702 0.54603517 0.83097857 0.0026956638
-0.052380998 0.046803005 0.011113456 0.18852061 0.59772986 0.77921689 0.0010798716
-0.049545601 0.046476349 0.010458291 0.27237663 0.66590947 0.69453257 0.001600662
-0.046720091 0.045769729 0.0099505084 0.32937208 0.69063562 0.64384502 0.0013191318
-0.044516075 0.045326889 0.0091594458 0.36580968 0.71545774 0.59523404 0.0011256352
0.050583791 0.045358825 0.0092068054 -0.36679247 0.61911887 0.69437397 0.0023479136
0.052755255 0.04592656 0.0096855834 -0.30650473 0.61430883 0.72710353 0.0026329628
0.055557881 0.046678446 0.010131179 -0.24529757 0.54416919 0.80231482 0.0031101645
0.058474157 0.046671689 0.010786206 -0.084737353 0.44239384 0.89280868 0.0032660225
0.061419494 0.046630479 0.010915047 0.073428698 0.35636851 0.93145573 0.0055359537
0.064472795 0.046435695 0.010427184 0.29578575 0.24356245 0.9236818 0.0077902311
0.066763021 0.046710566 0.0094581367 0.49881309 0.14485177 0.85451943 0.0051736045
-0.066422977 0.048752222 0.0091359252 -0.39169952 0.2314539 0.89050573 0.0070639695
-0.064360231 0.049519751 0.0095844772 -0.25374854 0.33348534 0.90796435 0.0067354003
-0.061462879 0.049568567 0.010080088 -0.1246056 0.46033597 0.87895632 0.0054846876
-0.058540937 0.049547732 0.01016605 0.089019403 0.60670358 0.78992808 0.0015340808
-0.055574801 0.049123514 0.010023161 0.16921754 0.63593483 0.75296241 0.0029945697
-0.052614603 0.048630621 0.0095514497 0.2472332 0.68301594 0.68728817 0.0022074291
-0.050613068 0.048343346 0.0091445763 0.31973541 0.70345181 0.63476366 0.0013164349
0.056373902 0.048376311 0.0091991387 -0.29633373 0.61162192 0.73355633 0.0028468121
0.058700591 0.048879668 0.0094850091 -0.18825395 0.55289799 0.81170452 0.004282041
0.06161147 0.049361739 0.0096540423 -0.038512401 0.45902511 0.8875882 0.0057703871
0.064383507 0.049324486 0.0095742848 0.1635538 0.35284543 0.92127645 0.0060252333
0.066285379 0.048967481 0.0091833277 0.39495721 0.2799716 0.87499982 0.0069825966
-0.061414134 0.051232155 0.0090460712 -0.0016100556 0.57121551 0.82079852 0.004386018
-0.059605792 0.051136233 0.009024417 0.11563081 0.65055209 0.75060749 0.0025854791
-0.019397961 0.0088055683 0.012461987 -0.15394892 -0.67334265 0.72312474 0.0014278031
-0.016445568 0.0084039271 0.012661319 -0.13210842 -0.65996933 0.73958623 0.0012030296
-0.013341768 0.0080805272 0.012825238 -0.10056642 -0.66785109 0.73746949 0.0011823893
-0.010518719 0.0079239793 0.013027039 -0.067596331 -0.65363443 0.75378567 0.0013342527
-0.0074046603 0.007744866 0.013055168 -0.033109874 -0.63678908 0.77032685 0.0012771989
-0.0044814046 0.0078043174 0.013211872 -0.0083174305 -0.60180229 0.79860175 0.0019332651
-0.001475859 0.0074809901 0.012972224 0.0038065561 -0.59575433 0.80315775 0.002279171
0.0015592707 0.0078162653 0.013172522 0.025965003 -0.57222223 0.81968743 0.0023760302
0.0043425593 0.0076956586 0.012980416 0.044888154 -0.5900088 0.80614805 0.0018498932
0.0074802488 0.0079069678 0.012938056 0.063630961 -0.58704996 0.80704606 0.0022399421
0.010293575 0.007942806 0.012764529 0.077926978 -0.58179677 0.80959249 0.0017263825
0.013236761 0.008256563 0.012662865 0.093464188 -0.58809346 0.80337453 0.0017870791
0.016238689 0.0084858155 0.01246646 0.11440521 -0.61234254 0.78227115 0.0024443804
0.018565111 0.008701372 0.012254585 0.14459485 -0.64438415 0.75090706 0.0019074809
-0.031191159 0.011958603 0.012016435 -0.263082 -0.73381388 0.62634259 0.0010036716
-0.028080057 0.011352389 0.012508882 -0.23373273 -0.71330315 0.66073263 0.0011417671
-0.0253856 0.010968043 0.0129798 -0.20371661 -0.69645905 0.68807286 0.0014618187
-0.022433244 0.010698104 0.013452874 -0.17713946 -0.65286094 0.73647416 0.0019054232
-0.019480757 0.010569666 0.013953851 -0.13676566 -0.58476001 0.79959416 0.0017062612
-0.016594218 0.010310961 0.014221052 -0.11049282 -0.57131428 0.8132596 0.00092232617
-0.013526161 0.010143482 0.014410255 -0.072929844 -0.54788446 0.8333689 0.001684957
-0.010442524 0.0099126808 0.014493646 -0.045588259 -0.52453226 0.85016918 0.0019026739
-0.0075420272 0.0097704222 0.014488988 -0.017750956 -0.49929753 0.86624867 0.0020175599
-0.0045927474 0.0098166047 0.014553468 0.0030065447 -0.48333648 0.87542957 0.0021032193
-0.0015322095 0.0098548485 0.014534107 0.019416286 -0.46652585 0.88429445 0.0019635195
0.0015270284 0.0099964105 0.014518295 0.028133495 -0.45828271 0.88836104 0.002026984
0.0047149202 0.010081762 0.01441916 0.044134296 -0.45125753 0.89130175 0.0016062171
0.0075466875 0.010375776 0.014400061 0.055772666 -0.44951424 0.89153039 0.001378659
0.010511124 0.010446229 0.014207849 0.072218172 -0.45116663 0.88951284 0.0010717753
0.013554624 0.010607498 0.014009234 0.083631329 -0.45118612 0.8885026 0.00096742366
0.016424652 0.01047431 0.013649894 0.10362258 -0.4799332 0.8711639 0.0024765744
0.019486245 0.010587606 0.013327902 0.12634523 -0.5108124 0.85035729 0.0016293246
0.022502165 0.010713113 0.012969304 0.13901941 -0.53227419 0.83507949 0.00222186
0.025264382 0.010984907 0.012645052 0.15596981 -0.56438744 0.81064188 0.0028541458
0.028164977 0.011566977 0.012445493 0.17931625 -0.58722413 0.78931195 0.0014693859
0.030430773 0.011974638 0.012152913 0.19821012 -0.60110068 0.77420336 0.00065347721
-0.036975164 0.014578898 0.012214237 -0.32931024 -0.70612901 0.62684661 0.0012875652
-0.034294348 0.014129585 0.012975572 -0.2951802 -0.65345132 0.69704372 0.0011151995
-0.031452883 0.013721673 0.0136507 -0.23053133 -0.65484017 0.71974969 0.0016347429
-0.028624075 0.01309804 0.013945959 -0.20556995 -0.65189886 0.72991019 0.0014774364
-0.025703797 0.012835388 0.014506954 -0.17413735 -0.56526494 0.80631983 0.0020043277
-0.022533793 0.012361479 0.014773591 -0.14097224 -0.55841851 0.81749344 0.0038020564
0.011317391 0.012173334 0.014942035 0.060935497 -0.29179138 0.95453894 0.002219843
0.013643105 0.012504905 0.014884023 0.073499292 -0.31261775 0.9470312 0.0025983427
0.016746726 0.012746684 0.014713947 0.088345386 -0.34485194 0.93449032 0.0021389993
0.019718649 0.01331755 0.014628323 0.11186286 -0.358798 0.92668796 0.0018861225
0.022488516 0.013487148 0.014381045 0.11282725 -0.39507529 0.91169375 0.0013727985
0.025487261 0.013446013 0.013996583 0.12582833 -0.40873685 0.90393662 0.0014125354
0.028491875 0.013605678 0.013605389 0.14205332 -0.43027607 0.89145011 0.0012895691
0.031464867 0.013638271 0.01304836 0.18084535 -0.50468284 0.8441506 0.0022359521
0.034329329 0.014175519 0.012703203 0.18593596 -0.5305298 0.82702231 0.0011899096
0.03711962 0.014648864 0.012261666 0.20944628 -0.54587054 0.81126916 0.00042862416
-0.042612582 0.017836105 0.012429453 -0.38976434 -0.64189965 0.66033977 0.0011880847
-0.040281795 0.016995627 0.01296442 -0.36843604 -0.65218502 0.66250253 0.00075825903
-0.037462257 0.016543522 0.013853302 -0.28713891 -0.59319788 0.75210863 0.00083543605
-0.034671798 0.015879963 0.014350121 -0.26551521 -0.62743205 0.73200458 0.0011881134
-0.032621052 0.015534351 0.014809098 -0.21678564 -0.5203594 0.82597226 0.0026216011
0.023009617 0.015210879 0.01496961 0.086091034 -0.22576889 0.9703694 0.0020566066
0.025750013 0.015574591 0.01478655 0.099980004 -0.27416712 0.95647079 0.0022960333
0.028650288 0.016084807 0.014652988 0.12859471 -0.31965482 0.93876737 0.0018488414
0.03146559 0.016570497 0.014491586 0.11037776 -0.35899982 0.92678797 0.0034004773
0.03444751 0.016528206 0.014020436 0.16745518 -0.40935755 0.8968752 0.0016239822
0.037429281 0.01657673 0.013382072 0.1962236 -0.46903744 0.86110407 0.00080762198
0.040335435 0.016778251 0.012766682 0.21827905 -0.48398229 0.84741688 0.0007560376
0.043102294 0.017427033 0.012367997 0.25585467 -0.50359303 0.82518631 0.00092463294
-0.045853984 0.020274177 0.012784443 -0.4455469 -0.58691072 0.67603528 0.001713395
-0.043385342 0.019651951 0.013595639 -0.3696917 -0.58970302 0.7180379 0.0022795661
-0.040713236 0.018905519 0.014309494 -0.32274574 -0.53344864 0.78183609 0.0015211636
-0.038865022 0.018417042 0.014817768 -0.32220358 -0.52983814 0.78451031 0.0015778645
0.032549698 0.018387513 0.014949988 0.085535787 -0.20247179 0.97554535 0.0021602439
0.0346605 0.018643396 0.014816299 0.12657471 -0.27346456 0.95351768 0.0034752593
0.037601065 0.019309407 0.014620728 0.16994993 -0.34062907 0.92471009 0.0025261922
0.040451016 0.019550789 0.014163288 0.19386958 -0.38347349 0.90297437 0.0013294698
0.043553703 0.019599039 0.013389775 0.23673157 -0.43171167 0.87039262 0.00061511761
0.046319012 0.019744722 0.012690834 0.27195033 -0.45110658 0.85002691 0.0012343121
0.048759099 0.020556888 0.012269401 0.32926369 -0.4901447 0.80705857 0.0020810768
-0.051239714 0.023751816 0.01229672 -0.47046375 -0.56329387 0.67923766 0.0017345699
-0.049311198 0.02298782 0.012873925 -0.43808842 -0.56600875 0.69836426 0.0021370612
-0.04672705 0.022403933 0.013899053 -0.40589646 -0.5159725 0.75433445 0.0016522026
-0.044050511 0.021466756 0.014681781 -0.34658331 -0.53690499 0.76916379 0.0018012376
-0.0042040278 0.023725269 0.014843591 0.10197236 0.41335639 0.90484148 0.0025114513
-0.0015476475 0.023419267 0.014736684 0.075326212 0.43052059 0.89943206 0.0026100399
0.001762353 0.023181541 0.014620665 0.046355419 0.43927366 0.8971566 0.0024242743
0.0045116544 0.023056729 0.014588432 0.019322548 0.43799922 0.89876771 0.0022788669
0.0074545541 0.02307391 0.014538839 -0.0044483058 0.43043402 0.90261108 0.0023577758
0.010429521 0.023031937 0.01461788 -0.026935034 0.41283011 0.91040969 0.0025126627
0.013481717 0.023285229 0.014615865 -0.0536368 0.38529527 0.92123318 0.0027902378
0.016476138 0.023410114 0.014781247 -0.073347457 0.33884522 0.93797874 0.0030705873
0.019241314 0.023551982 0.014905242 -0.078911915 0.28937539 0.95395744 0.0027934781
0.038905241 0.021028975 0.014971148 0.11463141 -0.20270941 0.97250634 0.0014056938
0.041211389 0.021692595 0.014809564 0.14153753 -0.2569468 0.95600498 0.0038511129
0.04359179 0.022438338 0.014600504 0.20196529 -0.31613892 0.92696613 0.0022642708
0.046470087 0.022445666 0.013867066 0.24096237 -0.33354378 0.91141963 0.0011258043
0.04944326 0.02265626 0.01304552 0.28515637 -0.39599571 0.87285346 0.0012594044
0.051833313 0.023006923 0.012381792 0.35986421 -0.42398286 0.83110547 0.0021446191
-0.054289322 0.026737357 0.012394759 -0.51227492 -0.49590868 0.70117682 0.0011795729
-0.052126408 0.025737081 0.01310818 -0.45366254 -0.50460547 0.73454994 0.0021118356
-0.049703468 0.025330061 0.01428681 -0.41130352 -0.44337073 0.7963993 0.0015726922
-0.047794465 0.024526214 0.01478815 -0.40902704 -0.4480353 0.7949599 0.0015666458
-0.015739476 0.026821317 0.014869551 0.18171754 0.5106625 0.84035856 0.00062887976
-0.013343615 0.026398733 0.014635694 0.16306257 0.49313936 0.85453147 0.0021399674
-0.010431739 0.025946917 0.014384528 0.15010534 0.51695579 0.84274852 0.0017049332
-0.0074654282 0.025612392 0.014096388 0.12617993 0.53588814 0.83480686 0.0012079645
-0.0044623418 0.025518809 0.013741036 0.10218893 0.53978872 0.83557504 0.0010420113
-0.0014754444 0.025562502 0.013390416 0.08604233 0.57002932 0.8171066 0.0026142104
0.0014283034 0.025528116 0.013187097 0.04510776 0.57772166 0.81498659 0.0027615631
0.0044650021 0.025472002 0.013131478 0.00068648881 0.57328135 0.81935829 0.0025938509
0.0075524421 0.025449073 0.013129658 -0.024360767 0.56983286 0.82139945 0.0031497783
0.010482136 0.025583155 0.013164886 -0.045532603 0.54506177 0.83715856 0.0028352374
0.013489598 0.025570067 0.013371815 -0.076627895 0.52983689 0.84463078 0.0039839675
0.016466821 0.025449403 0.013758202 -0.091574743 0.46957234 0.87813205 0.001473502
0.019536484 0.025499176 0.014079671 -0.10451518 0.44798884 0.887909 0.0015019475
0.022429844 0.025493396 0.01445383 -0.095575504 0.39494675 0.91371906 0.0038203441
0.025282206 0.025876395 0.014639049 -0.12072819 0.36840531 0.92179298 0.003081308
0.02821132 0.026276 0.014831946 -0.10446884 0.29998305 0.94820702 0.0035526026
0.031310488 0.026826784 0.014918472 -0.077369489 0.21149053 0.97431296 0.0027924273
0.044602152 0.024369441 0.014940047 0.1372405 -0.20756376 0.96854651 0.0019224318
0.046732303 0.025139807 0.01471134 0.21156903 -0.23792101 0.94796211 0.0029271068
0.049480446 0.025630893 0.014174047 0.25009832 -0.27651736 0.92789495 0.0015456785
0.05246881 0.025495877 0.013187424 0.30967677 -0.32658783 0.89299536 0.0013459101
0.054870002 0.026157072 0.012502721 0.3833698 -0.37412035 0.84442973 0.0017362656
-0.057222337 0.029669121 0.012153309 -0.55439013 -0.43608326 0.7088604 0.0022950766
-0.055249747 0.028791633 0.013027935 -0.50489402 -0.42718259 0.75006473 0.0019101698
-0.052633371 0.028292686 0.014262752 -0.42616823 -0.37493777 0.82328755 0.0013053643
-0.050615426 0.027490806 0.014904586 -0.40948799 -0.36843851 0.83460927 0.001065606
-0.024174009 0.029812653 0.014992989 0.19051033 0.56968868 0.79947525 0.0016388603
-0.022138661 0.029579982 0.01463866 0.21716332 0.55212092 0.80498606 0.0006207074
-0.019361166 0.028924191 0.01434275 0.2048274 0.54744279 0.81138891 0.0015495981
-0.016456969 0.028558698 0.013851946 0.18964717 0.5630846 0.80434424 0.00081251055
-0.013575437 0.028435003 0.013222408 0.18702327 0.63160861 0.7523914 0.0013269724
