# .PCD v0.7 - Point Cloud Data file format
VERSION 0.7
FIELDS x y z normal_x normal_y normal_z curvature
SIZE 4 4 4 4 4 4 4
TYPE F F F F F F F
COUNT 1 1 1 1 1 1 1
WIDTH 573
HEIGHT 1
VIEWPOINT 0 0 0 1 0 0 0
POINTS 573
DATA ascii
-0.047913697 0.051080365 -0.00085510052 0.48528302 0.87101507 -0.076374725 0.0042260285
0.053294737 0.051511809 -0.0014422986 -0.53750318 0.8318184 -0.1384501 0.0063468209
0.055513076 0.052932322 -0.0015494452 -0.5639835 0.81019109 -0.15972811 0.0067918822
0.057172123 0.053908933 -0.0022310158 -0.59256107 0.78971159 -0.15883023 0.0072318269
-0.076033622 0.056325573 -0.001303012 -0.62567478 0.77483153 -0.090372756 0.01163809
-0.060523685 0.056758892 -0.0016631657 0.51350474 0.84860724 -0.12719516 0.010014709
-0.05847735 0.055850804 -0.0014605103 0.39671284 0.90948468 -0.12432398 0.0086330483
-0.055498764 0.054627649 -0.0014955038 0.35384506 0.9279505 -0.11705302 0.0067990287
-0.053668573 0.05404041 -0.00040665385 0.36825904 0.92310697 -0.11072018 0.0066444189
0.056970119 0.054116659 -0.00029797931 -0.53171068 0.84584051 0.0428668 0.010708247
0.058580626 0.055098794 -0.0014555881 -0.57181811 0.81422573 -0.10030207 0.011428606
0.060514562 0.056490701 -0.0016779928 -0.69109225 0.70958531 -0.13740522 0.01386877
-0.075342856 0.057312179 -0.0012730728 -0.62567478 0.77483153 -0.090372756 0.01163809
-0.073472157 0.058370315 -0.001475829 -0.51741403 0.84508252 -0.13460447 0.0080632903
-0.071065925 0.05955537 -0.001447184 -0.38348055 0.91822702 -0.099004 0.0031377242
-0.066210911 0.059753925 -0.0027466659 0.27299595 0.89224398 -0.35968578 0.016001752
-0.06437853 0.059218414 -0.0015085139 0.5243718 0.83725691 -0.15503223 0.0089582363
-0.061880216 0.057645604 -0.0013581732 0.47157755 0.87039512 -0.14151651 0.012021141
0.062014155 0.058164489 -0.001357265 -0.78363574 0.59888381 -0.16508535 0.024169996
0.063368648 0.0595515 -0.0021391215 -0.76648217 0.62157553 -0.16170596 0.024532299
-0.069600597 0.060251981 -0.0014384266 -0.18889187 0.97742498 -0.094659366 0.015459461
-0.067637965 0.060634021 -0.0013944752 0.12500292 0.98881286 -0.081383854 0.013308179
-0.065695293 0.060212959 -0.00059287192 0.24228126 0.97019982 -0.0034622566 0.018831378
0.064078785 0.061385572 -0.0013872485 -0.90138888 0.3969574 -0.17298231 0.025674462
0.065140411 0.064524315 -0.0013923122 -0.97041255 0.22415549 -0.089743152 0.043464463
0.065648586 0.06726712 -0.00089969893 -0.95598227 0.25460008 -0.14586502 0.043715902
0.06632071 0.06779021 -0.0022157903 -0.90308475 0.2627345 -0.33971834 0.068058975
0.066606633 0.070393153 -0.0013884223 -0.94473612 0.25318438 -0.20825799 0.020529535
0.067126311 0.073460601 -0.001412494 -0.96716899 0.15842855 -0.19870751 0.0209722
0.076290429 0.074784517 -0.0011323396 0.29476961 0.95542657 0.016460212 0.00039758373
0.067947723 0.076525025 -0.0013803078 -0.79195613 0.57898629 -0.19385667 0.079799294
0.070612706 0.07656192 -0.0014731617 0.018499039 0.98691857 -0.16015458 0.061276037
0.073597595 0.07564424 -0.001553817 0.28774858 0.95766389 -0.0089768497 0.00022751928
0.075354949 0.075104192 -0.001413479 0.29965726 0.95395887 0.012960938 0.00053743803
-0.0030911912 0.032939773 0.002939506 0.088582262 0.9845193 0.15124433 0.0045981142
-0.0011440309 0.032874841 0.0023294296 0.11317986 0.97698015 0.18083175 0.0033571036
0.0015733413 0.032784306 0.0016113849 0.097086623 0.98528725 0.14065322 0.0036724485
0.0045005921 0.032706585 0.0015426365 0.028200334 0.98896438 0.14544465 0.003422166
0.0075511765 0.032733567 0.0014598612 -0.043241091 0.99047816 0.13070266 0.0042956839
0.010225626 0.032838378 0.001941148 -0.10031942 0.98305202 0.1534436 0.0049304278
0.012541458 0.032920748 0.0025750441 -0.14419402 0.97632229 0.16125366 0.0043738857
-0.015642526 0.035798706 0.0018330085 0.31419471 0.94231009 0.11547065 0.0032273121
-0.013472351 0.035212282 0.0014809867 0.27330306 0.95371878 0.12540244 0.0032335406
-0.010456353 0.03443335 0.0015029236 0.21749619 0.96396726 0.15317452 0.0043144315
-0.007542456 0.033924438 0.0015403115 0.16062102 0.97703338 0.14002435 0.0046116374
-0.0045557665 0.033449519 0.0014859142 0.13083586 0.98214346 0.13518958 0.0041478951
-0.001660241 0.033128072 0.00098767038 0.089984939 0.99035168 0.10538657 0.0069336612
0.00034426147 0.033027373 0.00031728781 0.046851199 0.99866951 0.021546694 0.0013110961
0.011124857 0.033069309 0.00074428291 -0.084588408 0.99343938 0.076961026 0.0064453278
0.01364684 0.033301923 0.0013845643 -0.13266318 0.98087817 0.14240256 0.0037350743
0.016539128 0.03378297 0.001547566 -0.18309993 0.97237885 0.14475448 0.0045422004
0.019512655 0.034499533 0.0014768516 -0.24542259 0.95632803 0.15875858 0.0040373229
0.022493381 0.03531231 0.0015348996 -0.2766293 0.95304459 0.12321601 0.0034344879
0.024432508 0.035843723 0.0017845476 -0.31965452 0.94066465 0.11389066 0.0036960489
-0.024385178 0.038822751 0.0020576396 0.40859798 0.90568018 0.11309785 0.0030642673
-0.022495056 0.038112242 0.0015612968 0.36734569 0.92254347 0.11819773 0.0030128811
-0.019456208 0.036969498 0.0015171743 0.30394149 0.94174963 0.14396946 0.004734253
-0.01704376 0.036271788 0.0013850585 0.26778707 0.95805818 0.10205185 0.0031548915
0.025859948 0.036313355 0.0014192703 -0.27864492 0.95456332 0.10566881 0.0036435677
0.028502408 0.037152719 0.00153027 -0.30747256 0.93872762 0.1557276 0.0042496007
0.031534806 0.038245965 0.0014811633 -0.36471006 0.92371982 0.11716755 0.0047505158
0.033215761 0.03890634 0.0020359014 -0.41296741 0.90379232 0.11232653 0.0043178294
-0.030627469 0.041625135 0.001663629 0.46384785 0.87933892 0.10774145 0.002674564
-0.02846038 0.040603619 0.0015043259 0.41206518 0.90452236 0.10973386 0.0030644117
-0.025708653 0.039466649 0.0013820655 0.36753261 0.92335379 0.11107458 0.0031329873
0.034623455 0.039628189 0.0015018361 -0.42765456 0.89662308 0.11479797 0.0048702983
0.037454437 0.041076232 0.00158376 -0.4844569 0.86217618 0.14816771 0.0035737869
0.039170444 0.041893627 0.0029123642 -0.53791082 0.81285375 0.22342913 0.0029688999
-0.036652528 0.044668738 0.0017545272 0.48698831 0.86619574 0.11201528 0.0029321397
-0.034532771 0.043629378 0.0014672041 0.44997215 0.88617688 0.1105242 0.0029881676
-0.032104939 0.042411938 0.0013777143 0.42989683 0.89631599 0.10865702 0.0029488369
0.038790144 0.042021628 0.00033692006 -0.51425785 0.84592855 0.14122219 0.0031726488
0.040540319 0.042948887 0.0014604706 -0.50562006 0.85105568 0.14160714 0.0029962563
0.042871453 0.04443524 0.0015989701 -0.56083113 0.81786186 0.12872602 0.0021949741
-0.042356394 0.047803123 0.0017444106 0.50708419 0.85253245 0.12670483 0.0035261251
-0.040451124 0.046776678 0.0015113577 0.47582918 0.87119961 0.12082119 0.0037668834
-0.038121466 0.045501567 0.0013431805 0.45391536 0.88336986 0.11669902 0.0033531082
0.044313032 0.04541434 0.0013700891 -0.53980374 0.82622659 0.1611257 0.0038893516
0.046487417 0.046846695 0.0014967278 -0.53877306 0.82785201 0.15615617 0.0035663189
0.048184548 0.047818244 0.0023835173 -0.55498296 0.81704855 0.15628709 0.0031294085
-0.04819151 0.050971463 0.0022111388 0.47381678 0.86520427 0.16407099 0.0054713432
-0.046498749 0.050149545 0.0015632486 0.47406045 0.8623333 0.17789888 0.0043604751
-0.043818638 0.048679896 0.0014159655 0.46765316 0.87407035 0.13153505 0.0039593112
0.049566947 0.048922427 0.0014193226 -0.53698146 0.83218527 0.13827026 0.0049734078
0.051903401 0.050426029 0.001686232 -0.56331247 0.81348866 0.14462101 0.0031255216
-0.054250702 0.053885069 0.0022990699 0.37618127 0.90757549 0.18653238 0.0063247392
-0.052402239 0.053273607 0.0015846582 0.4046784 0.88849956 0.21634224 0.0039644404
-0.049607527 0.051858384 0.0014729323 0.43917111 0.87914222 0.18503429 0.00432547
-0.04788319 0.051038995 0.00096858561 0.43560967 0.89343745 0.10960723 0.0075673983
0.053334109 0.051464021 0.0012545963 -0.532924 0.82469958 0.18937436 0.0060114991
0.055466585 0.052789126 0.001491601 -0.56311411 0.81748676 0.12090421 0.0051970482
0.057306927 0.053759675 0.0023868671 -0.53892577 0.80636489 0.24358727 0.0054943529
-0.075812466 0.056379236 0.0014623781 -0.66735911 0.72833896 0.15541574 0.035259284
-0.074929893 0.056952391 0.0028368358 -0.58576393 0.77807766 0.2268829 0.02348201
-0.060726438 0.056650646 0.0018903107 0.49870718 0.84263158 0.20313327 0.0087168058
-0.058548391 0.055751406 0.0015040789 0.39258903 0.8989256 0.1944391 0.0083070081
-0.055640798 0.054593701 0.0014870111 0.33759078 0.91824979 0.20700192 0.0047443081
-0.053846616 0.054071739 0.00049223303 0.37606108 0.90762913 0.18651372 0.0062741968
0.058652766 0.055020556 0.0014070241 -0.56630367 0.80542874 0.17488471 0.0095853191
0.060692202 0.056422874 0.0017386082 -0.67311335 0.70753777 0.21519443 0.011417596
-0.075315744 0.05734029 0.00084740482 -0.66777068 0.72795129 0.15546487 0.035055161
-0.07350634 0.058328055 0.001550795 -0.50038344 0.83743668 0.21980959 0.022837076
-0.071096696 0.059533443 0.0014990768 -0.39333692 0.90913045 0.13699597 0.0046419343
-0.066705346 0.059704218 0.0026578365 0.22374675 0.85016173 0.47661552 0.016489176
-0.064411052 0.058992352 0.0016286545 0.51134831 0.82548052 0.23896594 0.0069711022
-0.062044777 0.057619479 0.0013066562 0.46756476 0.85480297 0.22515553 0.010003142
0.062104806 0.058000088 0.0013731134 -0.76334721 0.60296458 0.23180753 0.017968064
0.063481867 0.059305515 0.0019500706 -0.74469721 0.61797172 0.25206584 0.019746516
-0.069549702 0.060228962 0.0015011971 -0.18545277 0.95195657 0.24369198 0.025818426
-0.067659043 0.060535986 0.0013520466 0.055679299 0.9846881 0.16519465 0.023693344
-0.065757029 0.06019783 0.00051287451 0.26121676 0.9609248 0.091592692 0.016899468
0.0645101 0.061461087 0.001645909 -0.77312237 0.43657458 0.46009168 0.024407469
0.065253466 0.064321034 0.0011613332 -0.86220908 0.25664276 0.43672639 0.02133362
0.066646867 0.064911269 0.0025655606 -0.66606575 0.25853714 0.69965345 0.046572022
0.072052397 0.063908666 0.002896118 -0.033182085 0.19334413 0.98056978 0.0088291662
0.06571544 0.067246668 0.00057089317 -0.88529229 0.25781122 0.38702831 0.033941075
0.067171492 0.067619175 0.0021436892 -0.57929975 0.21939734 0.78503281 0.039338753
0.069850601 0.067928992 0.0028970898 -0.31423578 0.14817038 0.9377107 0.0082378387
0.067211926 0.07048443 0.0014168664 -0.70103806 0.19590437 0.6856873 0.040328942
0.0696548 0.070584476 0.0027626038 -0.4577772 0.035090972 0.88837415 0.010983876
0.067653537 0.073600635 0.0013536165 -0.81818658 0.18699865 0.54369318 0.030484451
0.069403313 0.073036529 0.0028186236 -0.50746918 0.12358607 0.85276109 0.022068447
0.076271057 0.074759141 0.0011546368 0.29501706 0.95535022 0.016459322 0.00042419569
0.068092242 0.076426223 0.0011795853 -0.75688112 0.55082852 0.35173702 0.067842349
0.070345491 0.076538466 0.0015859453 -0.36033297 0.77443928 0.52000386 0.084467381
0.073392324 0.075707205 0.0015482594 0.27694941 0.95992458 0.042939845 0.0010676042
0.075279973 0.075126983 0.0012896853 0.29598832 0.9548713 0.024733847 0.00034016176
-0.0094194412 0.032931745 0.0056289188 0.20488109 0.91272724 0.35348675 0.0018702833
-0.0072684586 0.032634661 0.0053239306 0.16287178 0.91293126 0.37420499 0.0014629448
-0.0043777735 0.032451604 0.0047401134 0.14239612 0.91841018 0.36911532 0.0013598239
-0.0014983419 0.032188386 0.0045203832 0.12083748 0.93186331 0.34209514 0.0019465701
0.0014777452 0.031951677 0.0045319959 0.047524411 0.94245374 0.33094156 0.0021224434
0.0045208465 0.031866349 0.0045039989 0.013906458 0.92908216 0.36961195 0.002065141
0.0075427061 0.031878904 0.0045177196 -0.036608946 0.92655522 0.37437299 0.0023242126
0.010549614 0.032090772 0.0045045963 -0.097368635 0.93415129 0.34333751 0.0028296015
0.013428569 0.03238301 0.0045744437 -0.1503731 0.92170429 0.35755995 0.0021010241
0.016260967 0.032629695 0.0051624114 -0.18363728 0.90537888 0.38283983 0.0023041544
0.018599434 0.032888014 0.0057479087 -0.22547501 0.86803174 0.44235951 0.00052555447
-0.019004803 0.035725411 0.0052526346 0.29854876 0.88757551 0.35082513 0.0019109969
-0.016425943 0.035245884 0.0045729354 0.27871737 0.89797986 0.34051263 0.0017116299
-0.013487295 0.03438326 0.0045497408 0.25232157 0.90387797 0.34545401 0.0016663851
-0.010570581 0.033698305 0.0043928176 0.19991837 0.92035437 0.33612561 0.0017095676
-0.0076949191 0.03333389 0.0039054092 0.15661685 0.92884511 0.33573499 0.0017993596
-0.0051324577 0.033104505 0.0034228407 0.13374989 0.94987983 0.28255853 0.00075314846
0.014212993 0.033042092 0.0032692133 -0.14150845 0.95454925 0.26231831 0.00090885058
0.016670691 0.033292457 0.0037652282 -0.18685032 0.92228091 0.33835593 0.0026412166
0.019556185 0.03374147 0.0043880674 -0.23410735 0.90925753 0.34415776 0.0023366993
0.02251821 0.034498472 0.0045495578 -0.25591981 0.89982533 0.35329795 0.0024191746
0.025372706 0.035310682 0.0045532198 -0.29590809 0.89846557 0.3243424 0.0016067994
0.027729368 0.035701539 0.0054146606 -0.30892587 0.88347584 0.35218653 0.0018793681
-0.027359243 0.038782768 0.0057404093 0.39125678 0.84174347 0.37200278 0.0022808106
-0.025222993 0.038345244 0.0047595738 0.38168177 0.86918479 0.314383 0.0014349672
-0.022490555 0.037326112 0.0045061018 0.33817706 0.88181311 0.32869723 0.0015479913
-0.019805992 0.036472302 0.0041081547 0.29901493 0.9013359 0.31334281 0.0019089598
-0.017726164 0.036089525 0.0034997053 0.26555565 0.90669703 0.32769009 0.0021279163
0.026606545 0.036152139 0.0033826416 -0.28773814 0.90503711 0.3132326 0.001818874
0.028722843 0.036529493 0.0042428076 -0.30956823 0.89170468 0.33019754 0.0021172646
0.031541124 0.037437942 0.0044803014 -0.36903024 0.86443502 0.3414219 0.0028615191
0.034110527 0.038435262 0.0048031113 -0.39524508 0.85346651 0.33967075 0.002403572
-0.033464339 0.041824162 0.0055181403 0.42442918 0.82632422 0.37020022 0.0026814761
-0.031323485 0.04114582 0.0045910021 0.43829545 0.84769064 0.2988604 0.0014584668
-0.028551739 0.039896641 0.0044112289 0.38382056 0.87013596 0.30910388 0.0018624632
-0.026329378 0.039262101 0.0036569787 0.36045411 0.88019305 0.30876043 0.0015535327
0.035211481 0.039316077 0.0038715773 -0.41099375 0.85448259 0.31771621 0.0016202206
0.037457187 0.040241212 0.0044839289 -0.45146579 0.81950212 0.35298005 0.0028022337
0.039794918 0.041482404 0.0048542987 -0.48016202 0.8005327 0.3585971 0.0031792405
-0.039431289 0.044837005 0.0055639278 0.40732014 0.84235501 0.3528856 0.00283625
-0.037319802 0.04414846 0.0046370821 0.45193309 0.838902 0.30331483 0.00141563
-0.034610536 0.042901412 0.0043729581 0.4256632 0.85106403 0.30740997 0.0017567109
-0.032631498 0.042212054 0.0036442964 0.43140146 0.84589404 0.31361771 0.0018630481
0.041115742 0.042525873 0.0042627412 -0.48812133 0.80163223 0.34514257 0.0021356149
0.043392811 0.043830886 0.0046131392 -0.48454955 0.7993592 0.35529801 0.0029370335
0.045521911 0.044734616 0.0055805929 -0.48640823 0.77076685 0.41149169 0.004928364
-0.070527434 0.046580274 0.005757127 -0.61522889 -0.034828201 0.78757882 0.001984867
-0.045348369 0.047959931 0.0057983305 0.41006833 0.77577102 0.47960755 0.0011358291
-0.043260284 0.047288842 0.0047630691 0.43479148 0.82541394 0.36006704 0.0024808119
-0.040675815 0.046041142 0.0044058985 0.45168835 0.83130199 0.32390529 0.0019499002
-0.038644813 0.045316286 0.0035222401 0.45030069 0.83077365 0.32717654 0.0019300075
0.044685535 0.045148671 0.0034463785 -0.50322461 0.80047065 0.32559434 0.0018565743
0.046644427 0.046030048 0.0043593645 -0.51238507 0.78072596 0.35767099 0.0031226932
0.049044639 0.047294956 0.0049258699 -0.48798233 0.77339029 0.40464878 0.0042481748
-0.07149858 0.049351722 0.0053188819 -0.51161516 -0.027998816 0.85875845 0.0043561109
-0.051063329 0.050854344 0.0058422661 0.41292512 0.7543512 0.51034009 0.0046171253
-0.049129907 0.050432451 0.0047882879 0.44006956 0.82342523 0.35820347 0.0020778398
-0.046553206 0.049201429 0.0044918852 0.44998252 0.81736529 0.35976344 0.0023432137
-0.044437744 0.04835137 0.0038232107 0.44697434 0.83047986 0.33244118 0.0012338145
0.050112389 0.048489626 0.0039196401 -0.50021273 0.77970344 0.37662956 0.0023449645
0.05246437 0.049683455 0.0045096278 -0.46488771 0.77914757 0.420486 0.0033449465
0.054625295 0.050567709 0.0052865474 -0.48002934 0.76865363 0.42278054 0.0035236191
-0.072771586 0.05237928 0.004772719 -0.53330028 0.059145171 0.84385586 0.0031617889
-0.071383551 0.052549176 0.0057979305 -0.39827746 0.077551514 0.91398078 0.008457317
-0.057881173 0.05373488 0.0054202708 0.24036922 0.8130011 0.53033191 0.0052926857
-0.055312693 0.053291846 0.004664178 0.33846274 0.84861344 0.40656871 0.0017542525
-0.052525464 0.052274648 0.0045006783 0.34958825 0.82846487 0.43753162 0.0020353056
-0.050266236 0.051398549 0.0039535882 0.43288094 0.82314652 0.36748317 0.0022554158
0.053962376 0.051272508 0.00326226 -0.50143558 0.77368003 0.38727444 0.0019363995
0.055776872 0.051901843 0.0041991482 -0.45762318 0.78559321 0.4164423 0.0036261349
0.058317021 0.053054083 0.0047940835 -0.42756471 0.73974675 0.51957977 0.005347902
0.060685843 0.053741485 0.0057333838 -0.34732193 0.62947768 0.69507211 0.0055478923
-0.073583573 0.055835102 0.0043683662 -0.59143293 0.26592293 0.76124376 0.025102703
-0.070680842 0.056069188 0.0056693191 -0.21674396 0.35310462 0.91013139 0.011207991
-0.06733238 0.056496896 0.0057299915 0.064767994 0.52197951 0.85049546 0.0061829225
-0.064273208 0.056162801 0.0052358727 0.23296157 0.6271258 0.74326456 0.0042176228
-0.061444871 0.055559635 0.0045512919 0.29522109 0.77801275 0.5545634 0.0073024658
-0.058685821 0.054733001 0.0041843164 0.29889509 0.82973933 0.47137499 0.0042430926
-0.056408226 0.054265857 0.0035165816 0.33867246 0.86083102 0.37983018 0.0028936854
0.059311591 0.054487977 0.0036538651 -0.49203163 0.70928651 0.50479466 0.0039773006
0.061566077 0.055381931 0.0044246088 -0.40962678 0.68594503 0.60140276 0.0050134934
0.064093642 0.056224294 0.0052711694 -0.304189 0.56390929 0.76777303 0.0077001145
0.067074843 0.056649134 0.0058189761 -0.024458958 0.40523562 0.913885 0.013301256
0.069676854 0.055847272 0.0055299914 -0.024361417 0.40529948 0.91385931 0.013286856
-0.073014081 0.057961602 0.0038793064 -0.44205192 0.7229504 0.53097343 0.020488378
-0.070507802 0.058720324 0.0042904601 -0.23812862 0.67131472 0.70187706 0.024236234
-0.067557342 0.058445189 0.0043137036 0.13945365 0.69701052 0.7033698 0.011699386
-0.06473273 0.0578027 0.0038180756 0.34376258 0.70480627 0.62054437 0.0075642769
-0.062654756 0.0571279 0.0032184441 0.3980664 0.72512197 0.56190872 0.0058352621
0.062488586 0.057167321 0.0031745841 -0.49109441 0.62138218 0.6105001 0.0076852245
0.064608082 0.058350161 0.004033885 -0.52379262 0.44224447 0.72805303 0.013367454
0.067335092 0.058520343 0.005030808 -0.11865884 0.36785361 0.92228186 0.010546676
0.069877818 0.059110731 0.0045638718 -0.099497676 0.38026574 0.91950977 0.0084112855
-0.068450749 0.060038738 0.0030760118 0.12008227 0.86019224 0.4956305 0.025948247
0.065563008 0.060719449 0.0033685442 -0.46931526 0.33218986 0.81816453 0.016876997
0.067285977 0.061438501 0.0039062419 -0.29735455 0.29027867 0.90957052 0.018657174
0.069602273 0.061901908 0.003915573 -0.079109207 0.26096752 0.96210063 0.0099847037
0.067896195 0.06414488 0.0033404068 -0.32977211 0.248053 0.91088969 0.015866136
0.069836415 0.064713933 0.003293372 -0.056012981 0.19367862 0.97946471 0.012258714
0.068522818 0.066656381 0.0030095784 -0.39946535 0.17839752 0.89922285 0.017209372
0.070559435 0.066650659 0.0030728048 -0.11592135 0.029172597 0.99282986 0.011209153
0.070800461 0.070562117 0.0033264533 -0.45793977 0.035000052 0.88829392 0.010969582
0.070332184 0.073828116 0.0036815938 -0.32829916 0.2129306 0.92026097 0.069283105
0.075491212 0.074847355 0.0031117678 0.072545089 0.99555027 0.060140103 0.040728152
0.070705511 0.076043703 0.0036991842 -0.22796293 0.79696506 0.55935633 0.091892883
0.073195778 0.075623192 0.0038199057 -0.011172725 0.97116965 0.23812747 0.099459879
-0.001262364 0.029890593 0.0088492902 0.086063102 0.77254301 0.62910295 0.0015212544
0.0015041021 0.029784538 0.0086786821 0.049560685 0.7763114 0.6283983 0.0014934487
0.0044772904 0.029716907 0.0086333994 0.012375685 0.77888817 0.62704074 0.0013364459
0.0076330053 0.029729724 0.008632618 -0.024372136 0.77464646 0.63192475 0.0014057077
0.01056573 0.02981698 0.0087100146 -0.056429442 0.77086377 0.63449556 0.0010042631
0.012892796 0.029800676 0.008910602 -0.10901038 0.7833041 0.61200607 0.00050515914
-0.015427414 0.032884683 0.0086895255 0.25324133 0.78382874 0.56699312 0.0014227196
-0.013116659 0.032450125 0.0083357403 0.224711 0.84005386 0.4937757 0.0016797438
-0.010407155 0.032208867 0.0075569195 0.20698158 0.85870713 0.4688077 0.0011879506
-0.0075139119 0.031604029 0.007550735 0.15720786 0.8525486 0.4984442 0.0028230653
-0.0045369556 0.031151047 0.0075011519 0.12671472 0.85598707 0.50122797 0.0020007342
-0.0015412989 0.030820379 0.007420803 0.091195889 0.86343735 0.49614447 0.0021880148
0.0014290035 0.030709108 0.0072126547 0.048044194 0.86619228 0.4973959 0.0023421647
0.0044114576 0.030674152 0.0070948554 0.012712686 0.86759669 0.4971059 0.0022683246
0.0074539366 0.030642698 0.0071832505 -0.027442927 0.86492139 0.50115663 0.0024205677
0.010500414 0.030813742 0.0072301216 -0.063713364 0.85817665 0.50938541 0.0023620408
0.013525121 0.030991035 0.0074155391 -0.10975208 0.83873785 0.53336042 0.0027458596
0.016466137 0.031442456 0.0075274627 -0.16029617 0.8192445 0.55058479 0.0018556252
0.019392956 0.032031268 0.0076626935 -0.22827561 0.83259147 0.50466001 0.0014525509
0.022256924 0.032453895 0.0081768502 -0.22140154 0.81086218 0.54174155 0.0020189267
0.024657661 0.032812282 0.0086790957 -0.24893084 0.7320084 0.6341902 0.0014906366
-0.022111211 0.035502654 0.0080749411 0.31584489 0.82405418 0.4702943 0.0012231405
-0.019466205 0.034814786 0.0075410721 0.2907764 0.84421933 0.45026973 0.0011017467
-0.016540937 0.033931166 0.0074058007 0.24735892 0.84419328 0.47555375 0.0014380112
-0.013704766 0.033324476 0.0070015336 0.23594537 0.8545745 0.46263614 0.0015286071
-0.011588811 0.033122841 0.0061955564 0.2137799 0.86169583 0.46019393 0.0009737045
0.020458587 0.033136979 0.0063363607 -0.21789277 0.84291375 0.49195433 0.0015520967
0.022672612 0.033491891 0.0068224748 -0.23664822 0.83699197 0.49339849 0.0018835106
0.025605666 0.034048907 0.0073177363 -0.24616118 0.81655562 0.52215093 0.0024266695
0.028518837 0.034833908 0.0075542373 -0.28017092 0.81947774 0.49996039 0.0019595493
0.031262252 0.035417203 0.0081477053 -0.28873122 0.79863465 0.52803123 0.0028666665
0.033248764 0.03578693 0.0087063806 -0.32182458 0.7098279 0.62655658 0.002101437
-0.03065113 0.038784754 0.0087018637 0.36893493 0.78051686 0.5046587 0.0011750599
-0.028314946 0.038258746 0.0077542579 0.3586143 0.81332445 0.45814753 0.0015678564
-0.025531832 0.037168276 0.0075062159 0.34273827 0.81784928 0.46222615 0.0013761766
-0.022941038 0.036416706 0.0069072358 0.32655826 0.83465326 0.44352406 0.00099438115
0.0299778 0.036150943 0.0062803966 -0.3194764 0.82897735 0.45905498 0.0012342308
0.031818848 0.036524598 0.0067755478 -0.32290339 0.81380898 0.48316503 0.0023282561
0.034596879 0.037292238 0.007446602 -0.33515212 0.79796326 0.50092679 0.0032676174
0.037210926 0.038243238 0.007889769 -0.39339766 0.76164579 0.51491165 0.0030533089
0.039237678 0.038872205 0.0086262906 -0.41518676 0.70487803 0.57512325 0.003792637
-0.036656164 0.041695464 0.0086863264 0.36583617 0.7541309 0.54539025 0.00066427421
-0.03434027 0.041140962 0.0077221147 0.38196039 0.79483074 0.47154039 0.0016133997
-0.031610571 0.039976422 0.0074047344 0.37406346 0.80204153 0.46562412 0.0014340567
-0.02942127 0.039313223 0.0066086599 0.39229205 0.8142007 0.42800009 0.00066116225
0.038106978 0.039525874 0.0067233522 -0.42262158 0.77089924 0.47655573 0.0021734254
0.040504042 0.040428218 0.0074439263 -0.41973945 0.75623447 0.50192446 0.0019818663
0.042939298 0.04132399 0.008208069 -0.3847478 0.70517617 0.59556347 0.0030895118
-0.069746636 0.044370595 0.0061173816 -0.63350612 -0.060332138 0.77138191 0.00097080809
-0.067415096 0.043598723 0.0082676755 -0.59023315 -0.013251723 0.80712396 0.0026420776
-0.042681377 0.044738796 0.0085322242 0.37335321 0.72372562 0.58036941 0.00034466624
-0.040282775 0.044069 0.0077779437 0.38406706 0.77343023 0.50427985 0.0019911746
-0.03761128 0.042963855 0.0074200276 0.37677419 0.78723925 0.48815536 0.0014204801
-0.035423841 0.042359728 0.0064934953 0.41057619 0.79806602 0.44104183 0.0010742575
0.043875497 0.042732622 0.0070681022 -0.4444038 0.74228221 0.50152004 0.0025215142
0.046412896 0.043780278 0.007720788 -0.40941593 0.72005528 0.56026691 0.0020439653
0.048886377 0.044579767 0.0084774289 -0.38417765 0.6651687 0.64027977 0.0027691424
-0.069422469 0.047054902 0.0069291256 -0.61522907 -0.034823239 0.78757888 0.0019773783
-0.067634344 0.046298705 0.0082349442 -0.5908621 -0.023431968 0.80643225 0.0033513769
-0.048621505 0.047627769 0.0086468849 0.34455767 0.70882386 0.61550695 0.0020316106
-0.046252172 0.047067922 0.0078250188 0.35854667 0.75569791 0.54805565 0.0020166126
-0.043656569 0.046161041 0.0072773085 0.39300999 0.77616841 0.49305764 0.0016193584
-0.041321144 0.045385171 0.006595083 0.42480144 0.77461582 0.46852323 0.0016922927
0.047484871 0.045356307 0.0065020374 -0.46281987 0.7310971 0.50129312 0.002334269
0.049640328 0.046085615 0.007245807 -0.40665674 0.72395921 0.55723733 0.0025091965
0.052200727 0.046995532 0.0078886244 -0.38460726 0.69358772 0.60910863 0.0027937805
0.054713447 0.047548339 0.0087230243 -0.30289099 0.61493725 0.72808594 0.0022423817
-0.069807716 0.049597498 0.0067564882 -0.52553576 0.014572209 0.85064667 0.0049082083
-0.067376405 0.049520522 0.0081833936 -0.37700924 0.1664447 0.91113126 0.0092875687
-0.064854257 0.050537758 0.0088050552 -0.17195337 0.34295118 0.92348063 0.0094793737
-0.061882153 0.0508935 0.008979518 -0.013135548 0.56829041 0.82272315 0.0042664604
-0.0581397 0.050828181 0.0088370796 0.10557459 0.68430805 0.72150987 0.0030679335
-0.055314325 0.050478037 0.0084804222 0.21024936 0.67156374 0.71049094 0.0016679524
-0.052346148 0.049983434 0.007773147 0.28778437 0.74034989 0.60750479 0.0019211648
-0.049614958 0.049118381 0.0072977184 0.33525279 0.74299675 0.57927656 0.0014981152
-0.047093049 0.048428401 0.0065731183 0.40093741 0.77105755 0.49469134 0.0016081391
0.052949842 0.048546936 0.0066539412 -0.43161428 0.69975054 0.56926125 0.0018315219
0.055551726 0.049400736 0.0073355664 -0.33888832 0.67930257 0.65092462 0.0025400061
0.058338929 0.049994875 0.0080913724 -0.26724255 0.60121739 0.7530731 0.0024545139
0.06134811 0.050540399 0.0085863955 -0.15000328 0.56518686 0.81121075 0.0044289357
0.064710252 0.050448809 0.0088214548 0.037439883 0.42927626 0.90239686 0.0057986169
0.06691774 0.04964786 0.0085472222 0.11260866 0.40765348 0.90616661 0.0033344883
-0.069936477 0.052613199 0.0065739187 -0.43912694 0.11069891 0.89157909 0.010057199
-0.067522317 0.05268386 0.0074053979 -0.22652462 0.29019052 0.92977208 0.012252757
-0.064434938 0.05265671 0.0077870134 -0.060175441 0.44457978 0.89371562 0.01060915
-0.061406996 0.052566204 0.0076896669 0.054974686 0.62130564 0.78163743 0.0057278387
-0.058555655 0.052322149 0.0073956866 0.1527836 0.71790552 0.67916781 0.0033557506
-0.055634487 0.051868353 0.0070448103 0.25745809 0.75119299 0.60780287 0.0020456323
-0.053251658 0.051442415 0.0064349901 0.32913202 0.76486295 0.55376607 0.0020548399
0.056838751 0.051300019 0.0060234624 -0.41510537 0.71242458 0.565808 0.0037784057
0.058804307 0.051719882 0.0067091919 -0.35219389 0.65572554 0.66781998 0.0035789073
0.061524466 0.052462757 0.0072354903 -0.27119985 0.57543516 0.77157313 0.0082970867
0.064285554 0.052548427 0.0077849645 -0.03419758 0.45445248 0.89011437 0.0062882002
0.067192793 0.052653309 0.0074770991 0.15621001 0.37712789 0.91289258 0.0025800455
0.069289312 0.052908618 0.0065761483 0.1562589 0.37710932 0.91289198 0.0025764769
-0.069793552 0.055046391 0.0062111691 -0.33181739 0.25317222 0.90873593 0.011672198
-0.067360342 0.055163253 0.006479457 -0.04659158 0.44794586 0.89284587 0.0098105287
-0.064676382 0.054737836 0.006490245 0.11648008 0.58972442 0.79916042 0.0091514532
-0.062035635 0.054310124 0.0062775514 0.2005212 0.69888937 0.68654573 0.0045822114
0.062409118 0.054135293 0.0062065665 -0.33809668 0.63716334 0.69261354 0.0052295495
0.064604647 0.054787524 0.0064952364 -0.1982792 0.53185844 0.82329327 0.010024992
0.067211397 0.055155993 0.0065064356 0.025475964 0.44803157 0.8936547 0.014483556
0.0019792435 0.026772417 0.011896761 0.046929985 0.69094443 0.72138292 0.0012152354
0.0047637052 0.026786942 0.011803845 0.013679547 0.68922865 0.72441483 0.0011734519
0.0076631648 0.026785545 0.011790469 -0.017076045 0.68685472 0.72659403 0.001383302
0.010397266 0.026866825 0.011877517 -0.060762417 0.68238986 0.72845858 0.0015168063
-0.012964801 0.029745517 0.011644639 0.19874887 0.71565962 0.66957474 0.0014585478
-0.010335769 0.029357003 0.011343625 0.17438285 0.66834289 0.72312409 0.0014054449
-0.0073500662 0.029037427 0.01094962 0.14866857 0.74404633 0.65137744 0.0017191711
-0.004345444 0.0287455 0.010690073 0.11811254 0.74451721 0.65707201 0.0014310741
-0.0014058922 0.028526852 0.01047603 0.078488715 0.73338854 0.67526346 0.0024414188
0.0015865983 0.028349258 0.010387265 0.039706029 0.7335816 0.67844039 0.0026337167
0.0045938352 0.028303776 0.010319173 0.011202958 0.71244693 0.70163661 0.0010527979
0.0075174705 0.028315146 0.010303882 -0.020075722 0.75414914 0.65639633 0.0013129511
0.01045501 0.028404478 0.010385226 -0.046361979 0.72793496 0.68407696 0.002578042
0.013494433 0.028555952 0.010520636 -0.091472052 0.7239309 0.68378133 0.0031152959
0.016434101 0.028847719 0.010791582 -0.14441554 0.67310888 0.72530591 0.0017323869
0.019401943 0.0291311 0.011131926 -0.16299839 0.6419782 0.74919659 0.0018925697
0.022341255 0.029485298 0.011464749 -0.18128516 0.68267399 0.70787847 0.0015084364
0.024406718 0.029696498 0.011790119 -0.19640554 0.65111071 0.73313004 0.0015983228
-0.02178357 0.032711934 0.011598445 0.26419556 0.68755299 0.67636639 0.00067755795
-0.01926796 0.032235011 0.011124116 0.25187081 0.74599272 0.61648679 0.0017613377
-0.016437311 0.03174378 0.01057883 0.23651862 0.76000494 0.60535252 0.0013606788
-0.013617462 0.031118345 0.010318445 0.20715995 0.76022023 0.61575156 0.0024831719
-0.010580163 0.030691963 0.0099007543 0.18624339 0.76007223 0.62257814 0.0016953264
-0.0077581466 0.030381039 0.0095038498 0.15058903 0.77021712 0.61974877 0.0017195331
-0.0051705344 0.030150428 0.0092164744 0.11773973 0.77198708 0.62463862 0.0014463414
0.014998256 0.030055763 0.0090755522 -0.10253497 0.7484265 0.65524375 0.0012819517
0.01688214 0.030222354 0.0093052993 -0.15357013 0.76963192 0.61974424 0.00039008123
0.01964991 0.030616529 0.0096541597 -0.18455204 0.72967941 0.65841365 0.0014934293
0.022667335 0.031124264 0.010024006 -0.20510282 0.74144471 0.63889951 0.0013869983
0.025515463 0.031459436 0.010539806 -0.2127358 0.671637 0.70968109 0.00092567725
0.028314816 0.031935569 0.010949165 -0.24721965 0.63226843 0.73424727 0.0011473234
0.031324886 0.032414351 0.011504814 -0.23844503 0.63048327 0.73867089 0.0010079776
0.033209104 0.032669894 0.011908501 -0.23513043 0.60963047 0.7570101 0.0037611865
-0.028203104 0.035482112 0.011458796 0.3039723 0.66677904 0.68044585 0.0011606578
-0.025318466 0.034856565 0.010762526 0.2979418 0.74299699 0.59932131 0.0013446099
-0.022632655 0.034160964 0.010293642 0.27512151 0.76124483 0.58720899 0.0023306457
-0.01986303 0.033590902 0.009744212 0.27270219 0.76326466 0.58571368 0.0014590283
-0.017411986 0.033039011 0.0093333209 0.25497997 0.7805993 0.57065749 0.0012601872
0.026391353 0.0330851 0.0090659 -0.23774236 0.7610442 0.6035648 0.00064338627
0.028622577 0.033475149 0.0095218671 -0.25075585 0.71900994 0.64818692 0.0015800722
0.031536438 0.034047488 0.010012678 -0.26513579 0.69602495 0.66727227 0.0019405512
0.034374364 0.034552447 0.010620947 -0.26885629 0.64244843 0.71761847 0.0022737687
0.037200905 0.035169601 0.011272085 -0.28738767 0.5768764 0.76460576 0.0022728087
0.03940006 0.035736341 0.011725668 -0.27360198 0.60231209 0.74990809 0.0031435236
-0.06108347 0.036367755 0.011768303 -0.45027333 -0.072652504 0.88993019 0.00094232114
-0.034202352 0.038383357 0.011310861 0.32616001 0.68923342 0.64697516 0.00091321999
-0.03144208 0.037683975 0.010619495 0.32776946 0.73311055 0.59591615 0.0013534446
-0.028686099 0.036917284 0.010038588 0.33242476 0.73429203 0.59186906 0.0014837908
-0.02619986 0.036269214 0.0094435699 0.32593307 0.76192307 0.55967921 0.0011518118
0.035319552 0.036281031 0.0093548652 -0.33262017 0.69832355 0.63380444 0.0013722875
0.037744921 0.036924783 0.0098446878 -0.35447338 0.67215568 0.65004259 0.0031066623
0.040459197 0.03758939 0.01059826 -0.31559137 0.61047006 0.72644913 0.001709698
0.043254565 0.038234171 0.011344029 -0.30269051 0.53970826 0.78555292 0.0021565892
0.045607567 0.038713671 0.0118966 -0.25475037 0.50813872 0.82273769 0.0024624115
-0.066320725 0.041967783 0.0090378178 -0.58669078 -0.017967345 0.80961168 0.0024491281
-0.064037509 0.040749498 0.010544728 -0.50882959 -0.030452691 0.8603285 0.0017488903
-0.062227629 0.040480621 0.011667129 -0.4217439 0.016264057 0.90656906 0.0037198744
-0.042355627 0.04185538 0.011657308 0.30777219 0.68216479 0.66327029 0.0010933091
-0.04022887 0.041274417 0.011261558 0.31365788 0.67133802 0.67150867 0.00089978956
-0.037398521 0.040569097 0.010544667 0.32595196 0.71964592 0.61307842 0.0010161517
-0.034754071 0.039764706 0.010019079 0.34836146 0.72315061 0.59640378 0.0015037401
-0.032610063 0.039371345 0.0091919443 0.37188774 0.76101363 0.53156161 0.002247679
0.041242212 0.039281692 0.0094070882 -0.38431486 0.66130143 0.64419132 0.002338226
0.043714207 0.040082335 0.0099991458 -0.35481629 0.64636385 0.67551404 0.0022938831
0.046390586 0.040639374 0.010791714 -0.28638181 0.55051517 0.78416735 0.00083968427
0.049173683 0.041231781 0.011429131 -0.25349677 0.50605291 0.82440877 0.0022375139
0.051847551 0.041792586 0.011837979 -0.19352186 0.49989226 0.84419012 0.0018528748
0.063250549 0.041084897 0.011648275 0.1507097 0.2480302 0.95695746 0.0018427056
-0.066318825 0.044423942 0.0092187533 -0.59028322 -0.013313289 0.80708641 0.0026174155
-0.064461954 0.043776453 0.010418325 -0.47811744 0.063861303 0.87597114 0.0036952985
-0.061835449 0.04385861 0.011683756 -0.35778028 0.12971403 0.92475271 0.0052122767
-0.049070463 0.044715732 0.011655812 0.21425886 0.628088 0.74806327 0.0016894301
-0.04638293 0.04411155 0.011250682 0.26897869 0.62037677 0.7367382 0.0016350106
-0.043529108 0.043506254 0.010526609 0.32127839 0.66509521 0.67411315 0.0011434021
-0.040796906 0.042702664 0.0099057509 0.35270184 0.7116009 0.60763937 0.0011023688
-0.038675752 0.042192686 0.0092735142 0.3681896 0.72632116 0.58042562 0.0013206332
0.047067381 0.042531684 0.0095213549 -0.36763495 0.63935941 0.67532516 0.0023335316
0.049663156 0.043352995 0.010018572 -0.33504626 0.5936563 0.73165309 0.0022513368
0.052479722 0.043663122 0.010819511 -0.25796887 0.53528243 0.80431634 0.0024489525
0.055398308 0.043995302 0.011372266 -0.16717729 0.46782404 0.86786658 0.0019835809
0.058452785 0.044290446 0.011625612 -0.059209678 0.3994422 0.91484433 0.0027150495
0.061417371 0.044003595 0.011623277 0.106706 0.28904977 0.95134854 0.0048178616
0.06363418 0.043773375 0.011172562 0.1532734 0.25868946 0.95372277 0.0016214475
-0.066081583 0.046564542 0.0092276493 -0.4908278 0.12729403 0.86190742 0.0045025731
-0.064374723 0.046492789 0.010112999 -0.38909721 0.22135708 0.89420605 0.0050091827
-0.061440207 0.046696495 0.01114113 -0.23280726 0.32365566 0.9170866 0.0070045064
-0.058422793 0.046903793 0.011473044 -0.056403629 0.43024272 0.90094942 0.0054102964
-0.055383816 0.046987414 0.011314296 0.093195699 0.54030401 0.8362931 0.0026087384
-0.052344926 0.046738297 0.010914982 0.18145782 0.5918836 0.78533232 0.0010848562
-0.049571335 0.046445765 0.010280257 0.26446199 0.66133446 0.70192349 0.0014888732
-0.046730295 0.045708813 0.0098190028 0.32651603 0.68697512 0.6491937 0.0015754899
-0.044694018 0.045140158 0.0093207126 0.36272812 0.69056439 0.62573892 0.0019957665
0.05273699 0.045628276 0.0094708269 -0.31344843 0.61572051 0.72293735 0.0022835813
0.055599168 0.046372533 0.0099623781 -0.25719041 0.5451383 0.79792064 0.003687711
0.058457192 0.046678219 0.010446901 -0.10443641 0.47501042 0.87376094 0.0030150246
0.0613828 0.046612456 0.010659939 0.026014842 0.38176748 0.9238922 0.0031927174
0.064369142 0.04666353 0.010259436 0.098549783 0.37280926 0.92265987 0.0028070018
-0.064174525 0.049142167 0.0094615258 -0.32845199 0.29388967 0.89763474 0.0079887128
-0.061372634 0.049503163 0.0098290294 -0.11121567 0.46394533 0.87885475 0.006465361
-0.05845752 0.049490895 0.0099240383 0.032241955 0.56617945 0.82365125 0.004053534
-0.055527497 0.049017031 0.0098724281 0.16085491 0.62931561 0.76032066 0.003266125
-0.052840721 0.048583362 0.0094443131 0.24359518 0.67816252 0.69336641 0.0021519461
-0.050677016 0.048144892 0.0091237351 0.31471494 0.70045179 0.64056373 0.0016279363
0.056752864 0.048162594 0.0090844482 -0.30750936 0.61880583 0.7228536 0.0023673263
0.058713607 0.048569374 0.0093247164 -0.19944443 0.56584418 0.80002642 0.0041389987
0.061561838 0.049027052 0.0095232837 -0.060643651 0.48008457 0.8751235 0.0043762582
0.064296655 0.049059719 0.0094610229 0.056256745 0.44623074 0.89314801 0.0056204321
0.066385821 0.048340663 0.0091917804 0.086519353 0.39512947 0.91454202 0.0023492067
-0.0070792353 0.023742074 0.014922232 0.12313368 0.39885104 0.90871108 0.0027716048
-0.0044339062 0.02349134 0.01471505 0.10264276 0.42851824 0.8976841 0.0024688679
-0.0014066329 0.023100181 0.014606691 0.077833578 0.44184539 0.89370835 0.0021239736
0.001557008 0.022976881 0.014454158 0.049480747 0.44958964 0.8918637 0.0017171799
0.0045673973 0.022876399 0.014388248 0.026815448 0.44315726 0.8960427 0.0018867481
0.0075366832 0.022738535 0.014402566 0.0020118596 0.43831593 0.89881873 0.0016336661
0.010464598 0.022767201 0.014442043 -0.026622299 0.41335866 0.91017908 0.0020553002
0.013462504 0.022869118 0.014491323 -0.044366948 0.40363717 0.9138428 0.001936177
0.016427675 0.023111986 0.014586345 -0.069213949 0.37152708 0.92583853 0.0022103505
0.019381201 0.023214657 0.014740757 -0.080530405 0.32041436 0.94384825 0.0027836582
0.022257075 0.023497477 0.014887777 -0.058579359 0.24457921 0.9678582 0.0034603518
0.039071318 0.02180508 0.01498848 0.01190814 0.00056194281 0.99992889 0.0003184916
-0.016210487 0.026677508 0.014825699 0.18113129 0.4692288 0.86430073 0.0021057823
-0.013410411 0.026208302 0.014522998 0.16690254 0.49990335 0.8498472 0.0018073675
-0.01037572 0.025777236 0.014227118 0.14954415 0.52351189 0.83879197 0.0012070149
-0.0073826993 0.025604997 0.013816348 0.12999037 0.53191334 0.83676213 0.0010214605
-0.0044069258 0.025669625 0.013365551 0.11158868 0.58494771 0.80335808 0.0013759868
-0.0014712756 0.025558868 0.013103246 0.081195459 0.58469099 0.80718261 0.0016618699
0.0014882046 0.025442807 0.012966418 0.049722433 0.58104938 0.81234801 0.0016727035
0.0044782874 0.025368307 0.012900727 0.021196177 0.57714581 0.81636596 0.0018425756
0.0075081894 0.025330139 0.012904746 -0.009499683 0.57050675 0.82123798 0.0021724554
0.010558045 0.025409216 0.012965672 -0.037811063 0.53767616 0.8423031 0.003290874
0.013477918 0.025636777 0.012989433 -0.074009262 0.5433417 0.83624297 0.0025433605
0.016394844 0.02563896 0.013308058 -0.095267035 0.51965368 0.84904903 0.0023945076
0.019433957 0.02565809 0.013650561 -0.10117371 0.43703288 0.89373714 0.0016266897
0.022381052 0.025553254 0.014102146 -0.091083467 0.39529079 0.914029 0.0026004424
0.025408259 0.025674039 0.014409481 -0.090102881 0.36586186 0.92629725 0.0035579985
0.028496791 0.025881456 0.014681094 -0.061400328 0.27051875 0.96075469 0.0030713482
0.031602263 0.026381588 0.014783927 -0.093856037 0.26624316 0.95932555 0.0027495942
0.034572843 0.026723707 0.014912233 -0.076904714 0.19342606 0.97809613 0.0023456258
-0.024966298 0.02982953 0.014967832 0.21614411 0.51484728 0.82958663 0.00088405836
-0.022291405 0.029352887 0.014591094 0.21150912 0.51041514 0.83351076 0.001896482
-0.019260103 0.028848164 0.014128995 0.20838872 0.54643029 0.81116456 0.001117748
-0.016518867 0.028614659 0.013577612 0.20305598 0.56796199 0.79761368 0.0007662882
-0.013680888 0.02840418 0.013026244 0.19205624 0.60547221 0.7723456 0.0021709912
-0.010669313 0.027918231 0.012737727 0.16427334 0.64131904 0.74948263 0.0012895259
-0.0076047461 0.027540667 0.012420815 0.1360753 0.6578474 0.74075657 0.0014233404
-0.0047050398 0.027231565 0.012219897 0.10861239 0.6715976 0.732912 0.001140289
-0.0023427373 0.027009631 0.012057357 0.081166819 0.68596774 0.72309071 0.0011863355
0.014960234 0.027260834 0.012020488 -0.09583617 0.68621349 0.7210592 0.0023121075
0.017006261 0.027311552 0.012280324 -0.12069162 0.64206553 0.75709021 0.0021032114
0.019734195 0.02769657 0.012428283 -0.13111302 0.60743845 0.7834717 0.002107441
0.0225964 0.027942318 0.012772408 -0.1414413 0.57045841 0.80905598 0.0023684027
0.025523912 0.028618589 0.012897169 -0.1582202 0.52747989 0.83470434 0.0026396483
0.028437138 0.028592154 0.013484313 -0.1440579 0.45986977 0.87622321 0.0041065924
0.031418353 0.028772455 0.01389797 -0.12875789 0.39032441 0.9116295 0.0019460737
0.03436821 0.028509561 0.014373292 -0.099094473 0.3374424 0.93611592 0.0035906341
0.037363011 0.028771462 0.014639349 -0.072341457 0.22936688 0.97064799 0.0019568268
0.040263701 0.0289941 0.014848468 -0.067306362 0.20337345 0.97678506 0.0040511931
0.043185178 0.029551789 0.014923255 -0.052474171 0.1490486 0.98743659 0.0016941167
0.046099797 0.02982601 0.014957002 -0.074964382 0.18970077 0.97897595 0.002253843
-0.031103844 0.032676145 0.014851031 0.2294382 0.48334569 0.84482849 0.0020035396
-0.028355697 0.0321365 0.01441578 0.24309209 0.53208506 0.81104362 0.0013123681
-0.02548508 0.031659227 0.01385319 0.23915748 0.56920451 0.78664476 0.0010487263
-0.022528656 0.031385541 0.013117772 0.24891567 0.63664252 0.72988164 0.0015598189
-0.019608524 0.030793898 0.012701114 0.23115328 0.66583234 0.709391 0.0012126808
-0.016905658 0.030376365 0.012246207 0.21293002 0.68768358 0.69408357 0.0011654369
0.028841654 0.030512515 0.012348187 -0.19406661 0.60559791 0.77174437 0.0016658049
0.031704556 0.031080738 0.012644479 -0.17714079 0.55488318 0.81285042 0.0034106872
0.034623716 0.031462714 0.013041818 -0.19707462 0.47458667 0.85786307 0.0039937575
0.037453309 0.03161547 0.013615727 -0.16984326 0.4233222 0.88991666 0.0029684801
0.04047377 0.031486586 0.014180372 -0.12032498 0.32032344 0.93963546 0.0030782332
0.043344505 0.031758342 0.014470645 -0.11591087 0.24305701 0.96306175 0.0031984199
0.046250831 0.031704064 0.014716567 -0.074064709 0.21102925 0.97466969 0.0012721514
0.049101464 0.031540845 0.014750608 -0.01749325 0.18068503 0.98338538 0.0010162549
0.052756999 0.032148413 0.014412781 -0.00049871445 0.18174115 0.98334628 0.0010186873
-0.060103644 0.03565478 0.012187914 -0.43173459 -0.073375903 0.89901119 0.00089974276
-0.057934985 0.035592012 0.013519757 -0.38831389 0.016002657 0.92138815 0.0056691822
-0.055123419 0.034839272 0.014698438 -0.34862024 -0.0045647114 0.93725294 0.0045000175
-0.037039746 0.035570305 0.014690827 0.21678627 0.4863815 0.84642589 0.0018798955
-0.034180019 0.03489862 0.014296612 0.24283913 0.53566056 0.80876261 0.0011341878
-0.031465754 0.034609582 0.013588086 0.26785487 0.57581854 0.77245504 0.0010040498
-0.028770778 0.034112472 0.013012498 0.27294186 0.62528509 0.73110962 0.0020074525
-0.025802722 0.033521105 0.01243047 0.27288133 0.67726117 0.68326646 0.0012862282
-0.02380513 0.033055998 0.012087503 0.2657479 0.64804304 0.71373552 0.00172928
0.035425905 0.03340837 0.012092426 -0.22710754 0.59842134 0.76831895 0.0020550333
0.037828624 0.033726264 0.012533504 -0.22921138 0.54016268 0.80974466 0.0038875674
0.040561963 0.034399774 0.01290839 -0.23067752 0.4509795 0.86220962 0.0035754261
0.043459706 0.034551993 0.013529961 -0.17032067 0.39175797 0.90416622 0.0028838646
0.046325043 0.034497369 0.01401443 -0.11619702 0.28078061 0.95271218 0.0026923311
0.049226392 0.034655351 0.014242873 -0.061197944 0.26736233 0.96165079 0.0047061555
0.052378576 0.034629423 0.014291363 -0.0070790639 0.20773533 0.97815949 0.0016369019
0.055523619 0.034899276 0.01393133 0.010232424 0.20693675 0.97830081 0.0016939739
-0.058502156 0.03768938 0.013446189 -0.40373304 -0.020691156 0.91464287 0.0039056947
-0.055464193 0.037661225 0.014588278 -0.26026776 0.10164455 0.96017134 0.0053658574
-0.053076163 0.038754873 0.014939756 -0.11647806 0.17537871 0.97758639 0.0068473634
-0.046397179 0.038686894 0.014889911 0.11384544 0.4095661 0.9051491 0.0026316149
-0.043384638 0.03833491 0.014566884 0.17855696 0.47597563 0.86114144 0.0019208885
-0.040557373 0.037815709 0.014188311 0.21921045 0.52806491 0.82042313 0.00093094894
-0.037564378 0.037547659 0.013447811 0.27076703 0.58440244 0.76495695 0.0019116779
-0.034713041 0.036996115 0.0128573 0.27897677 0.62828755 0.72624153 0.0017938417
-0.032148965 0.036415119 0.01235235 0.29802176 0.67335892 0.6765877 0.0011252854
0.04138758 0.036268163 0.01205095 -0.28362501 0.56557256 0.77439302 0.0026510886
0.043607946 0.036760431 0.012467243 -0.24127533 0.50260168 0.83016729 0.0034408455
0.046558138 0.037347771 0.012913514 -0.20440525 0.41501859 0.886554 0.0030941823
0.049598005 0.037470706 0.013417073 -0.14219511 0.34627023 0.92729574 0.0029129481
0.052523509 0.03759446 0.013647263 -0.043005776 0.28714997 0.95691973 0.0034544843
0.055275779 0.03783863 0.013613504 -0.027104056 0.26784506 0.96308064 0.0031349668
0.058278292 0.038054861 0.013258998 0.055489279 0.21807542 0.97435313 0.0010506052
-0.060874093 0.040801995 0.012432954 -0.42173368 0.01628151 0.90657359 0.0037236719
-0.058522418 0.040521868 0.013402759 -0.28999844 0.11631853 0.94993204 0.0046232161
-0.055468768 0.040600903 0.014105341 -0.1666349 0.24137235 0.95601892 0.0065025403
-0.052417297 0.040564366 0.014409424 -0.05678178 0.36109751 0.93079776 0.0053742859
-0.049476039 0.040566038 0.014322851 0.076278567 0.43198395 0.89864975 0.0026119207
-0.046517644 0.040555783 0.013871484 0.17829433 0.51946652 0.83568275 0.0013299412
-0.043527078 0.040548407 0.013136109 0.23868816 0.57284582 0.78414005 0.0019781764
-0.0407308 0.039904077 0.012714617 0.27019534 0.62677848 0.73085099 0.0017915133
-0.038476612 0.039351653 0.012310876 0.2946566 0.66097546 0.69013679 0.0012696554
0.047365282 0.039216563 0.012165092 -0.25917348 0.52365559 0.81155038 0.0028407513
0.049691133 0.039787021 0.012405124 -0.19051708 0.4329223 0.88106835 0.0023355521
0.052545678 0.0403804 0.01265477 -0.12718923 0.39274329 0.91081041 0.0023907667
0.055425316 0.040678754 0.012835725 -0.039338246 0.31458157 0.94841498 0.0027562506
0.058431163 0.040830236 0.012735096 0.053465523 0.25314438 0.96594995 0.00098050677
0.061086059 0.040626612 0.01234157 0.12547837 0.21928674 0.96755803 0.0021102927
-0.060546696 0.043230504 0.012282401 -0.31544307 0.21361406 0.92458892 0.0051753339
-0.058398675 0.043575093 0.0127824 -0.20330772 0.27651587 0.93925768 0.0032576092
-0.055436235 0.043561634 0.013157531 -0.072669819 0.36172146 0.92944962 0.0037609094
-0.052427351 0.043585341 0.013031119 0.067255318 0.45773903 0.88653916 0.0038835017
-0.04955082 0.043237977 0.012832187 0.15346372 0.53070414 0.83354783 0.0027301002
-0.046620995 0.042712253 0.012481902 0.22029941 0.58666736 0.77928793 0.0025993097
-0.044389918 0.042269018 0.012122563 0.27788869 0.63332409 0.72227311 0.0021486133
0.055597033 0.042427171 0.012178245 -0.1081219 0.42638299 0.89805746 0.002390269
0.058402326 0.04271419 0.012209626 0.01423113 0.33541727 0.94196218 0.0032449623
0.060715854 0.042674229 0.012073157 0.1182823 0.29839909 0.94708359 0.0052485084
-0.058153916 0.045439739 0.012162363 -0.13559312 0.39231676 0.90978134 0.0045358413
-0.055501603 0.045469169 0.01224937 0.025725393 0.49238312 0.86999828 0.0034498649
-0.053248316 0.045340296 0.012160257 0.1400421 0.56571531 0.81262189 0.0022671241
-0.017274488 0.017931581 0.01710991 0.090891674 0.11269984 0.98946321 0.00060992158
-0.013556132 0.017092073 0.01689443 0.091307789 0.13507044 0.98661995 0.0011350251
-0.010897361 0.017166577 0.016738104 0.10020719 0.15675826 0.98254025 0.001525549
