# .PCD v0.7 - Point Cloud Data file format
VERSION 0.7
FIELDS x y z normal_x normal_y normal_z curvature
SIZE 4 4 4 4 4 4 4
TYPE F F F F F F F
COUNT 1 1 1 1 1 1 1
WIDTH 555
HEIGHT 1
VIEWPOINT 0 0 0 1 0 0 0
POINTS 555
DATA ascii
-0.022455433 0.0099186692 -0.010983984 -0.23772958 -0.68086284 -0.69275576 0.00038415301
-0.019803671 0.0095054274 -0.011524878 -0.20889677 -0.68825388 -0.69474363 0.001048533
0.029410537 0.0091184145 -0.011779828 0.17914635 -0.70977014 -0.6812731 0.0027811951
0.031793304 0.0095135402 -0.011441361 0.23224181 -0.69626588 -0.67917424 0.0012917545
0.034628652 0.0099283708 -0.010702767 0.2753785 -0.75559449 -0.59434313 0.0012382697
0.03746298 0.010754451 -0.010397939 0.29386029 -0.75152278 -0.59064341 0.0016717807
0.040153254 0.011403307 -0.009696302 0.35527402 -0.74478114 -0.56487298 0.0010282132
-0.036859509 0.014633707 -0.0096242139 -0.37400872 -0.70031166 -0.60801405 0.0011997066
-0.034198329 0.013715861 -0.010088356 -0.33801973 -0.70350605 -0.62515754 0.0017737118
-0.031656742 0.013196953 -0.01071582 -0.2941145 -0.70875019 -0.64122534 0.0013558181
-0.028651861 0.012493736 -0.011267098 -0.26176444 -0.66181749 -0.70247912 0.00044422457
-0.025995884 0.012135973 -0.011924772 -0.2321827 -0.63686043 -0.73518705 0.00096031709
0.038539398 0.012264504 -0.011666383 0.29263628 -0.65621793 -0.69551563 0.0014747623
0.040780935 0.012735386 -0.010986135 0.33555177 -0.72856098 -0.59716314 0.0014932713
0.043472629 0.013527118 -0.010375944 0.36462829 -0.7151109 -0.59637457 0.0018270755
0.045862589 0.014361929 -0.0097698132 0.41855153 -0.70689315 -0.57019013 0.0010112874
-0.042728342 0.017688463 -0.0092936214 -0.45857891 -0.68624109 -0.56460482 0.00052767538
-0.040443819 0.016883725 -0.010010376 -0.40765604 -0.67546403 -0.61446309 0.0015784267
-0.037701562 0.016203932 -0.010825713 -0.35629928 -0.6467284 -0.67438352 0.0010450346
-0.034940008 0.015223491 -0.011290312 -0.30530727 -0.66246939 -0.68404806 0.0011905574
0.044732083 0.015481829 -0.011800032 0.35952699 -0.61771971 -0.69940168 0.0017565924
0.046893671 0.015878154 -0.010823498 0.40605739 -0.69137651 -0.59759164 0.001515083
0.04935905 0.016808182 -0.010162219 0.43328643 -0.6773932 -0.59447569 0.0016846063
0.051466033 0.017522387 -0.0093234191 0.491521 -0.65752035 -0.57102895 0.001658006
-0.046217687 0.020237911 -0.0094677527 -0.47752896 -0.6648261 -0.57443219 0.00065726007
-0.043748438 0.019492975 -0.010412036 -0.43275261 -0.62851864 -0.64628893 0.0017309814
-0.041181225 0.018596884 -0.011250986 -0.37070554 -0.6163649 -0.6947459 0.0017465537
0.050224576 0.018633332 -0.011459176 0.43625155 -0.61694658 -0.65502781 0.00037425448
0.052451316 0.019396326 -0.01051496 0.46478304 -0.60236079 -0.64895165 0.0010051476
0.054663323 0.020394372 -0.009831883 0.51790297 -0.60712135 -0.60264432 0.0013310375
-0.05136992 0.023833483 -0.0092102541 -0.48510572 -0.62266636 -0.61396992 0.0020037605
-0.049258761 0.02272127 -0.0096780201 -0.49193734 -0.64684302 -0.58274502 0.00052573037
-0.046931613 0.022154359 -0.010827811 -0.45171109 -0.58708799 -0.67177737 0.0014399936
-0.044669501 0.021462696 -0.011719007 -0.40556282 -0.58619249 -0.70135385 0.0017668516
0.05352129 0.021408943 -0.0116424 0.4896712 -0.57923138 -0.6517002 0.0011123108
0.05569141 0.022188537 -0.010635496 0.52770483 -0.55533034 -0.6427564 0.0023949279
0.057663262 0.02318095 -0.0098182084 0.56529909 -0.55013561 -0.61464441 0.0015477936
-0.052382726 0.025756603 -0.010228499 -0.49148279 -0.59002972 -0.64055407 0.0018300288
-0.049513508 0.024621064 -0.011268232 -0.45276955 -0.5796454 -0.67750347 0.0014007209
0.056496397 0.024376864 -0.011672353 0.48100412 -0.4431341 -0.75648344 0.0017831251
0.058730412 0.025302134 -0.010639902 0.5497126 -0.47455427 -0.68746942 0.0013078323
0.060771506 0.02615731 -0.0095872711 0.58351243 -0.50969821 -0.63223487 0.0015716368
-0.055665366 0.028474012 -0.010068007 -0.53392756 -0.56047356 -0.63308048 0.0015718961
-0.053512704 0.027875446 -0.011137282 -0.49455944 -0.56318468 -0.66199237 0.0013871026
0.059590604 0.027984262 -0.011705042 0.53630626 -0.38256603 -0.75234222 0.0020262599
0.061534274 0.028299395 -0.010314498 0.59609795 -0.42924759 -0.67853791 0.001826868
0.063370787 0.029513845 -0.0094290106 0.64821398 -0.42051971 -0.63480854 0.001364756
-0.060353052 0.032664716 -0.0092904326 -0.62046486 -0.58062118 -0.52716446 0.0018688027
-0.058604069 0.03134536 -0.0098236641 -0.56994456 -0.53202397 -0.62618989 0.00082794781
-0.054634858 0.030128099 -0.011979539 -0.52242529 -0.5284735 -0.66916925 0.00069641008
0.062178254 0.031120032 -0.011140266 0.57796437 -0.33299044 -0.74503326 0.001398753
0.064111337 0.031635534 -0.0098374533 0.66557568 -0.3612 -0.65310299 0.0010477179
0.065145165 0.033913918 -0.0098532578 0.67685527 -0.30461735 -0.67013073 0.00098917261
0.066350818 0.035249457 -0.0092149246 0.71921396 -0.25968727 -0.64443296 0.0014212178
0.066820562 0.036126345 -0.0090031037 0.74404031 -0.26297149 -0.61420691 0.0015352761
-0.0097289775 0.0028528557 -0.0061213169 -0.16187008 -0.86343354 -0.47778723 0.001105422
-0.0074616172 0.0027452381 -0.0065609594 -0.1236586 -0.86098492 -0.49336943 0.0016452877
-0.0044551906 0.0025060885 -0.0068906797 -0.091422349 -0.86350119 -0.49599159 0.001781052
-0.0014572847 0.0023334916 -0.0069670738 -0.050889067 -0.86450368 -0.50004375 0.0018734413
0.0015738158 0.002294776 -0.0071395044 -0.030772222 -0.86616027 -0.49881792 0.001894731
0.0045500332 0.0022468499 -0.0071904534 0.0022092222 -0.8713752 -0.49061224 0.0017811806
0.0074599991 0.0022900051 -0.0071107703 0.030331919 -0.87346637 -0.4859387 0.0018514907
0.010454535 0.002367625 -0.0070369872 0.056561459 -0.8781088 -0.47510597 0.0016770809
0.013440569 0.0025774178 -0.0069106021 0.093172573 -0.87924439 -0.46717042 0.0017481006
0.016245423 0.0027442197 -0.0065563903 0.11585692 -0.90181816 -0.41629457 0.00042555141
0.018627316 0.0028836373 -0.0062219799 0.16093783 -0.90391469 -0.39627925 0.00067695742
-0.021009702 0.0057101846 -0.0060232184 -0.31274396 -0.83450067 -0.4536517 0.0016313654
-0.019313319 0.0055380664 -0.0067932582 -0.26229453 -0.83406979 -0.48531345 0.0018467794
-0.016495233 0.0050731059 -0.0072757583 -0.23151706 -0.8303355 -0.50689518 0.0018720836
-0.013538749 0.0044325278 -0.0075052106 -0.19078387 -0.82856047 -0.52639258 0.0020588862
-0.010557909 0.003806629 -0.0075545325 -0.15488109 -0.83820415 -0.52290124 0.001094104
-0.0075684991 0.0037028994 -0.0080830939 -0.11767568 -0.83558375 -0.53661186 0.0016531267
-0.0045429249 0.0034672711 -0.0083620604 -0.087618306 -0.83123416 -0.54897434 0.0016588161
-0.0014706791 0.0033417281 -0.0085281273 -0.05184526 -0.78552234 -0.61665785 0.00078334124
0.0015208449 0.0032581876 -0.0086256843 -0.033742443 -0.78706551 -0.61594582 0.00079105311
0.0044842414 0.0032521517 -0.00874638 -0.0028056595 -0.79284978 -0.60941064 0.00074539118
0.0075363363 0.00323169 -0.0086129801 0.025176648 -0.79555815 -0.60535401 0.00078947266
0.010562086 0.0032783337 -0.0085359188 0.050340492 -0.80394238 -0.59257275 0.00080711854
0.013585341 0.0034368346 -0.0083678132 0.083166137 -0.8523097 -0.51638311 0.0016761465
0.016618423 0.0035474715 -0.007987218 0.10838702 -0.85715622 -0.50352317 0.0016095852
0.019594919 0.0037885355 -0.0075948075 0.14503184 -0.85859197 -0.49171692 0.0011941316
0.022485455 0.0043150443 -0.0074976077 0.17228262 -0.8620019 -0.47673002 0.002162453
0.025478946 0.0049281195 -0.0074513084 0.19560084 -0.86175334 -0.46810418 0.0011878255
0.02827399 0.0055115554 -0.0070901397 0.2469594 -0.86022818 -0.4461149 0.0016492347
0.030636685 0.0058147316 -0.006348602 0.2899372 -0.86191809 -0.41597313 0.0017484851
-0.027850268 0.0086009009 -0.0066337516 -0.33163869 -0.820885 -0.4649339 0.0014108063
-0.025415583 0.0080442512 -0.0072409273 -0.29461437 -0.81052125 -0.50621903 0.0014014347
-0.022627018 0.007168096 -0.0074836714 -0.31702906 -0.82127607 -0.47433975 0.00081707694
-0.019734658 0.006536705 -0.0081335222 -0.24715737 -0.8076579 -0.53535223 0.0017122613
-0.016916038 0.0061824666 -0.0087722903 -0.21327199 -0.77472681 -0.59524226 0.00048370229
0.026898492 0.0061137364 -0.0088683153 0.23177491 -0.79802442 -0.55627096 0.0013228834
0.029011913 0.0063975197 -0.0083719241 0.23163381 -0.84428883 -0.48324141 0.0018418741
0.031676628 0.006799615 -0.0076474547 0.29187113 -0.84910017 -0.44027284 0.001176648
0.034515597 0.007733901 -0.0074923374 0.31145644 -0.83231789 -0.45852131 0.0015997561
0.037096471 0.0084758066 -0.0070661488 0.32981884 -0.84026217 -0.43032429 0.0015894839
0.039267421 0.0088425018 -0.0061240965 0.38139129 -0.83179331 -0.40331209 0.0011116503
-0.034258217 0.01145644 -0.0069479514 -0.37002391 -0.80358481 -0.46619084 0.001137324
-0.031433668 0.010597304 -0.0074521578 -0.33176944 -0.80244434 -0.49599606 0.0020422873
-0.028727787 0.0096804202 -0.0077889692 -0.32507658 -0.80177253 -0.5014838 0.001703035
-0.026481085 0.0093560144 -0.0086471587 -0.29489839 -0.75015408 -0.59186465 0.0009839799
0.038050611 0.009422888 -0.0081560472 0.32150888 -0.818883 -0.47546044 0.0014085472
0.040490307 0.010185014 -0.007524176 0.37850353 -0.8154043 -0.43800786 0.0017060636
0.043179896 0.011244588 -0.0071506929 0.39618608 -0.80971676 -0.43289179 0.0015592489
0.045247078 0.011791774 -0.0063196053 0.42213261 -0.79551697 -0.43469164 0.001779262
-0.04006245 0.014452525 -0.0070134611 -0.43608895 -0.77063894 -0.46469572 0.0011099913
-0.037471995 0.013360648 -0.0074002254 -0.39604631 -0.78992718 -0.46814775 0.001216354
-0.034902181 0.012617758 -0.0082796412 -0.35339615 -0.76950973 -0.53194535 0.0019397998
0.044263322 0.012380228 -0.0082566151 0.38459688 -0.7903105 -0.47696382 0.0015518942
0.0465835 0.013269979 -0.0075222198 0.45358974 -0.78890055 -0.41459906 0.00090110081
0.049021948 0.014435575 -0.0070844362 0.47338697 -0.76499623 -0.43667549 0.0011336311
-0.045588803 0.017771641 -0.0067072422 -0.5010007 -0.73442513 -0.45784059 0.0007979559
-0.043375153 0.016677961 -0.0073312651 -0.47216824 -0.74491876 -0.47133142 0.0007332472
-0.040796068 0.015499373 -0.0080265254 -0.42180991 -0.75953317 -0.4951624 0.0018399188
0.050081193 0.01556976 -0.0079288818 0.47441348 -0.75655538 -0.45006201 0.0017705901
0.05237899 0.016808268 -0.0073702312 0.51275557 -0.72099555 -0.46609771 0.0019976196
0.054420341 0.017629702 -0.0063666306 0.53344631 -0.71943134 -0.44480747 0.0011805107
-0.048967015 0.020526059 -0.0072104284 -0.53748167 -0.71154511 -0.45256704 0.0010882552
-0.046658598 0.019034082 -0.0074734804 -0.5056603 -0.71853721 -0.47750592 0.0020644844
-0.044978671 0.01868121 -0.0085817091 -0.50553 -0.66899252 -0.54487473 0.0016812366
0.0535358 0.01831976 -0.0084011015 0.49662682 -0.66477972 -0.5580588 0.00088496262
0.055612352 0.019343102 -0.0076157348 0.56493533 -0.67407238 -0.47589338 0.0021009992
0.057608195 0.020425458 -0.0067532836 0.57621729 -0.66088617 -0.4808358 0.00093481544
-0.052263912 0.023044316 -0.007257204 -0.55264539 -0.68247163 -0.47834659 0.0015143458
-0.050182804 0.021927241 -0.0078947311 -0.49491593 -0.69890517 -0.51632333 0.0025478525
0.058747232 0.022193043 -0.0076765851 0.59792745 -0.61419606 -0.51502037 0.0019751203
0.060668498 0.023382014 -0.0068893204 0.62425017 -0.61237246 -0.48508945 0.001605775
-0.057200018 0.026495676 -0.0063710604 -0.56937706 -0.67149466 -0.47424126 0.0020142572
-0.055154826 0.025467286 -0.0073190103 -0.55386704 -0.67141068 -0.49238095 0.002086702
-0.053108532 0.02475903 -0.0086350255 -0.51271921 -0.61659867 -0.5974322 0.00068122783
0.061790928 0.025245486 -0.0076688803 0.64850128 -0.55806321 -0.51769817 0.0028963862
0.063503504 0.026418718 -0.006734354 0.6807071 -0.54263651 -0.49212143 0.002398975
-0.060254369 0.029612081 -0.0064831828 -0.63989067 -0.57261175 -0.51249957 0.0017715367
-0.058236152 0.028264532 -0.007445727 -0.60067236 -0.60668731 -0.52069497 0.0021926984
-0.056674194 0.027325854 -0.0080514839 -0.56089604 -0.64556789 -0.5183028 0.0033305949
0.062679365 0.027216911 -0.0085356431 0.61268336 -0.5216186 -0.59374499 0.0024141225
0.064489424 0.02844207 -0.0073568895 0.71250433 -0.44676569 -0.54105264 0.0017451498
0.066040054 0.029958151 -0.0066484693 0.72240418 -0.44020307 -0.53324795 0.0019139656
-0.061223976 0.031297859 -0.0071679903 -0.65841669 -0.55877811 -0.50423658 0.0019137821
-0.0599728 0.031266503 -0.0085631404 -0.63841546 -0.57017422 -0.51703691 0.0015531136
0.065383822 0.031163778 -0.0083020218 0.67655236 -0.35239655 -0.6466015 0.0010551923
0.066800304 0.031720351 -0.0068908464 0.73617393 -0.38412425 -0.55722219 0.0022821648
-0.065209553 0.035898823 -0.0065652393 -0.73961496 -0.5510819 -0.38636568 0.0022599462
-0.062119283 0.033150755 -0.0079227928 -0.66299856 -0.54137552 -0.51705456 0.001225733
0.067649685 0.034309279 -0.0073222728 0.75770545 -0.29916224 -0.57998657 0.00097698707
0.067955412 0.037188217 -0.0081007546 0.76936644 -0.23721623 -0.59313047 0.0018143511
0.069315799 0.037596967 -0.0065638223 0.79975778 -0.2219754 -0.55777633 0.0014152409
0.067880876 0.039759412 -0.0086959768 0.78855425 -0.18859886 -0.58533132 0.001294854
0.069715664 0.040049665 -0.0066963779 0.8193754 -0.17019942 -0.54740846 0.0023893095
0.070255838 0.042440016 -0.0063073146 0.85998774 -0.10671855 -0.49903136 0.0034094392
-0.015325906 0.0029545743 -0.0032448228 -0.26091832 -0.93801975 -0.22812368 0.0010286703
-0.013277776 0.0026416827 -0.0040219519 -0.21063432 -0.9224149 -0.32370329 0.0021966049
-0.010499741 0.0022372925 -0.0044445191 -0.15660146 -0.93288445 -0.32434958 0.0016580553
-0.0074924449 0.0018066331 -0.0044383327 -0.12765124 -0.93074846 -0.342655 0.0023004627
-0.0045034364 0.0014025613 -0.0044795582 -0.09526889 -0.93257576 -0.34817567 0.0023211334
-0.0015195465 0.0011980271 -0.0044938996 -0.049186058 -0.93339461 -0.35546491 0.0024587796
0.0015063705 0.0010786005 -0.0045121158 -0.028886698 -0.93374819 -0.35676312 0.0025103374
0.0045018783 0.0010046983 -0.0045109442 0.0065266616 -0.93540221 -0.35352531 0.0025862886
0.0074780011 0.0011085476 -0.0044673723 0.038686734 -0.93676537 -0.34781304 0.0024442282
0.010540188 0.0012392591 -0.0044421731 0.064742044 -0.93958187 -0.33614641 0.0021405208
0.01350944 0.0015684867 -0.0045374497 0.1024438 -0.93992358 -0.32565165 0.0020380337
0.016513566 0.0019142706 -0.0044262121 0.12817158 -0.94129342 -0.31231189 0.001826041
0.019470705 0.0023577656 -0.004427087 0.16767734 -0.94045776 -0.29567468 0.0017833209
0.022034936 0.0027372683 -0.0039356039 0.20031132 -0.93851882 -0.28117219 0.0016217727
-0.024617989 0.0059728674 -0.0032335967 -0.3531141 -0.91016012 -0.21660788 0.00097447151
-0.02229337 0.0054384456 -0.0042833574 -0.3265982 -0.88632834 -0.32826173 0.0020647941
-0.019466801 0.0045071207 -0.0044469349 -0.27925625 -0.89675349 -0.34329164 0.0022706897
-0.016500311 0.0037205499 -0.0045404104 -0.24804321 -0.90262216 -0.35177797 0.0020744761
-0.01381877 0.0033070426 -0.0053174198 -0.21397264 -0.89861733 -0.38301769 0.0016947485
0.020209692 0.0030425172 -0.0059205368 0.16093519 -0.90391546 -0.3962785 0.00067767303
0.02291844 0.0032656165 -0.0050216313 0.21047281 -0.92541355 -0.31513667 0.0021101532
0.025504168 0.0036631091 -0.004486531 0.23875131 -0.92218149 -0.30426827 0.0014650333
0.028512942 0.0045134779 -0.0045091254 0.26155639 -0.9151572 -0.30671743 0.0017427858
0.031447805 0.0053482773 -0.0044135698 0.28434199 -0.91584861 -0.28349766 0.0019526482
0.033522923 0.0058067851 -0.0036657003 0.32386872 -0.90618116 -0.27192813 0.0016786472
-0.030705972 0.0086062085 -0.0039207698 -0.36587733 -0.87947178 -0.30440629 0.002140291
-0.028526962 0.0079132784 -0.0044996482 -0.34525463 -0.87990695 -0.32643989 0.0019049441
-0.0255589 0.0067652874 -0.0045148148 -0.33376297 -0.88093299 -0.33549875 0.0020943086
-0.023316741 0.0062176753 -0.0052832928 -0.34482077 -0.87749648 -0.33331433 0.0020797546
0.032612443 0.0061703501 -0.0058494355 0.29977867 -0.86196524 -0.40883839 0.0011353592
0.034638684 0.0065508778 -0.0046695247 0.33253413 -0.8935678 -0.30159187 0.0018810594
0.03750696 0.0075895237 -0.004513754 0.33613002 -0.89145809 -0.30384049 0.0014424262
0.040004678 0.0085374694 -0.0042251162 0.38764408 -0.88442689 -0.25984818 0.00194402
-0.036917411 0.011447643 -0.0041433075 -0.41835073 -0.85001552 -0.32008791 0.0027464738
-0.034396354 0.010382593 -0.0045014066 -0.37947646 -0.87013739 -0.31441766 0.0017441772
-0.031859104 0.0094241248 -0.0047914428 -0.39114165 -0.86784679 -0.30634987 0.0021510276
0.041261986 0.0093681309 -0.0049389782 0.42278019 -0.86667365 -0.26482767 0.0016359994
0.04353549 0.010292714 -0.0044970652 0.41559336 -0.87094557 -0.26217565 0.00167051
0.046009962 0.01145607 -0.0042442014 0.45712107 -0.84956002 -0.26322627 0.0018856539
-0.042607483 0.014482089 -0.0041454639 -0.4873592 -0.80911964 -0.32833877 0.0018605819
-0.040436737 0.013455718 -0.0045158258 -0.46315971 -0.81880742 -0.33917186 0.0016874026
-0.03818053 0.012396991 -0.0048797592 -0.44424835 -0.84196806 -0.30615872 0.0018168509
0.047266118 0.0124229 -0.0049344711 0.48951179 -0.83046615 -0.26590249 0.0015666379
0.049504261 0.013570378 -0.0045194128 0.49704516 -0.81256431 -0.3044425 0.0015020139
0.051650766 0.014645775 -0.0039360845 0.51101261 -0.80642515 -0.29756439 0.0016514744
-0.046173107 0.017025035 -0.0043301177 -0.53478861 -0.78519368 -0.31220514 0.0016383588
-0.04403029 0.015737932 -0.004812933 -0.52910817 -0.79229486 -0.30383122 0.0013492765
0.052845638 0.015782142 -0.0047203954 0.53401721 -0.79158592 -0.29701409 0.0017030532
0.05507873 0.017186515 -0.0042881356 0.56162351 -0.77492595 -0.28994626 0.001981566
-0.051563006 0.020700231 -0.0037572796 -0.55582559 -0.76393795 -0.32780597 0.0018172672
-0.049462263 0.019463185 -0.0045683482 -0.55718076 -0.77102029 -0.30834606 0.0014983632
-0.047384806 0.018206693 -0.0051778355 -0.54132599 -0.76752979 -0.34331363 0.0029261068
0.056466546 0.018381596 -0.0048195147 0.59119755 -0.75196683 -0.29160124 0.0017358752
0.058339197 0.019754956 -0.0044068308 0.62041551 -0.71197969 -0.32889116 0.001988312
0.060087241 0.020767264 -0.0032991397 0.6407212 -0.70254022 -0.30969906 0.0015117147
-0.054700535 0.02316935 -0.0039413627 -0.59646642 -0.73873574 -0.31384286 0.001770385
-0.052746229 0.022052493 -0.0048547466 -0.57250291 -0.75351924 -0.32318595 0.0019616934
0.059658587 0.021325892 -0.005162138 0.64062488 -0.68943143 -0.3380594 0.0020581507
0.061437819 0.022624206 -0.0044494509 0.6746465 -0.67723751 -0.29360089 0.0015613209
0.063148633 0.023897042 -0.0035277198 0.69962549 -0.64142609 -0.3147963 0.0020140498
-0.058020018 0.02603112 -0.0041613011 -0.62430263 -0.70869201 -0.32863635 0.0030647926
-0.056075484 0.024591705 -0.0045693582 -0.6089676 -0.73348987 -0.30191228 0.0014929144
0.062701277 0.024239501 -0.0051574735 0.6835165 -0.64378411 -0.34401646 0.0025927776
0.064220615 0.025634496 -0.0044283676 0.73899513 -0.5806731 -0.34162107 0.0031846855
-0.061165839 0.029172797 -0.0042637973 -0.66662163 -0.66658115 -0.33359426 0.0021679774
-0.059338361 0.027558878 -0.0049232529 -0.64879179 -0.6854074 -0.33058426 0.0027045228
0.065529086 0.027628172 -0.0048731854 0.76333773 -0.5502122 -0.33849975 0.0018480436
0.066674337 0.02892204 -0.0043450468 0.78717786 -0.5081473 -0.34948164 0.0021709239
-0.063907005 0.031916343 -0.0037378143 -0.72828662 -0.59645075 -0.3374092 0.0017408303
-0.062608585 0.031082589 -0.0048145028 -0.70445955 -0.60858905 -0.36517972 0.0030541152
0.068031095 0.031401545 -0.0045299209 0.8217842 -0.41913417 -0.38600168 0.0026201808
0.069205239 0.032811474 -0.0035081992 0.8344323 -0.4056434 -0.37306324 0.0028833433
-0.066519164 0.035307784 -0.0038037244 -0.7797659 -0.56676644 -0.26597166 0.0047739353
-0.065463193 0.035028115 -0.0052902871 -0.73962086 -0.55107349 -0.3863664 0.0022469079
0.068794377 0.033724155 -0.0052521881 0.84796363 -0.34784928 -0.3999483 0.0029614037
0.069623932 0.034655418 -0.0043279245 0.86763287 -0.32438618 -0.37681136 0.0028000181
-0.067708835 0.036709614 -0.0031925093 -0.79112577 -0.54791659 -0.27185911 0.0051183887
0.070539705 0.037280504 -0.004248301 0.89452016 -0.24797301 -0.37194493 0.0023218135
0.071115918 0.040259093 -0.0044858125 0.90241742 -0.15842985 -0.40067792 0.0022038892
0.071484111 0.04326123 -0.0044649607 0.91265303 -0.082027823 -0.40041965 0.0015038484
0.071798831 0.046457969 -0.0040059374 0.95755237 -0.079484671 -0.27708396 0.0037784812
0.07206656 0.048604853 -0.0034694336 0.98398453 -0.044478666 -0.17261548 0.0033854072
0.073351748 0.070688695 -0.0035682404 0.85781246 -0.26861206 -0.43818414 0.024238855
0.074142233 0.073194005 -0.0038991033 0.88597095 -0.21671829 -0.4099862 0.024440996
0.075235285 0.07307902 -0.0031882667 0.88597047 -0.216718 -0.4099873 0.024440341
-0.016039263 0.0027574359 -0.0013503303 -0.24618758 -0.95494246 -0.16576062 0.0010679805
-0.013488872 0.0020840701 -0.0014935199 -0.22325903 -0.95677334 -0.18638737 0.0013998881
-0.010470637 0.0014639174 -0.001478984 -0.1512852 -0.97135943 -0.18323134 0.0026151747
-0.0075545395 0.0010384448 -0.0014181783 -0.13348052 -0.97232467 -0.19174936 0.0036755314
-0.0045181825 0.00063356396 -0.001508344 -0.098576538 -0.97625864 -0.19287783 0.0042310981
-0.0014570889 0.00043105384 -0.001501031 -0.051295847 -0.97947609 -0.1949238 0.004621502
0.0014967358 0.00031117344 -0.0014693907 -0.029908169 -0.99690866 -0.072653741 0.0064483359
0.0045178682 0.00025962683 -0.0015400707 0.0059785093 -0.99051732 -0.13725801 0.0016677311
0.0075017968 0.0003782408 -0.0014560749 0.043806233 -0.98080593 -0.19000196 0.004924268
0.010446699 0.00053070422 -0.0014785377 0.074621908 -0.98036069 -0.18255018 0.0043183221
0.013467255 0.00083814142 -0.0015181486 0.11508234 -0.97749555 -0.17680103 0.0039859251
0.016477868 0.0012355646 -0.0014859443 0.13731579 -0.97667825 -0.16505726 0.0033202912
0.019503595 0.0016973945 -0.0014808597 0.17662863 -0.97396785 -0.14208771 0.0023132754
0.022500597 0.0023306366 -0.0014754132 0.1928729 -0.97321099 -0.1251417 0.0017444715
0.024807204 0.0028152061 -0.001347898 0.21177952 -0.96972334 -0.1215982 0.0020246648
-0.024880432 0.0056977766 -0.0014394085 -0.34740102 -0.91843981 -0.18915829 0.00068676146
-0.022461029 0.0047746492 -0.0014898297 -0.32252708 -0.92464882 -0.20248652 0.00075166597
-0.019482514 0.0037228663 -0.0014680161 -0.29057899 -0.93904883 -0.18371482 0.00073999062
-0.017417917 0.0031957349 -0.0017773022 -0.27827835 -0.9433589 -0.18065204 0.00093877356
0.026176915 0.0031749662 -0.00169598 0.25245512 -0.95849019 -0.13252489 0.0022978934
0.028480468 0.0038310802 -0.0015151725 0.28356513 -0.95178515 -0.11702882 0.0015473444
0.031489022 0.0047263382 -0.00151188 0.29091391 -0.95072776 -0.10717183 0.0011856544
0.034049451 0.0055833855 -0.0013641764 0.3241677 -0.9401775 -0.10479276 0.0018136321
-0.033021886 0.0089329807 -0.00091608474 -0.39438686 -0.89026964 -0.22776978 0.0017723496
-0.031389259 0.0083173616 -0.0014506362 -0.39091986 -0.89905918 -0.19716544 0.00079821429
-0.028507223 0.0071201976 -0.0015400427 -0.35704255 -0.90757072 -0.22098856 0.00094680733
-0.02635772 0.006267481 -0.0015160299 -0.365859 -0.9096356 -0.19674908 0.00054894871
0.035533987 0.006202457 -0.0018232868 0.3668589 -0.92403865 -0.10755064 0.0016776058
0.037456393 0.006898792 -0.0014897569 0.37357798 -0.92101985 -0.1102812 0.0016004242
0.040513888 0.0081822919 -0.0014789371 0.38683906 -0.9139334 -0.12280628 0.0014239366
0.042210184 0.0088997716 -0.00076405547 0.41550401 -0.90122086 -0.12311527 0.0015949354
-0.039260764 0.011909272 -0.00070788525 -0.43465033 -0.86337423 -0.2562497 0.0025868504
-0.037518274 0.011089588 -0.0014956341 -0.44125944 -0.87460411 -0.20089251 0.00098876341
-0.034527384 0.0096466448 -0.0014844862 -0.40753281 -0.88476002 -0.22609016 0.001418667
-0.03266184 0.0090414789 -0.002629464 -0.39147004 -0.89584041 -0.21028848 0.00084263302
0.043630712 0.0096695991 -0.0016191074 0.44557649 -0.88658816 -0.12418911 0.0015923353
0.046485476 0.011103228 -0.0014699227 0.45391065 -0.8824234 -0.12366851 0.0014648628
0.048168305 0.011976429 -0.00074279198 0.48465142 -0.86556029 -0.1261681 0.001744328
-0.043280672 0.01423212 -0.0015191206 -0.51908898 -0.83171117 -0.1969852 0.0016872974
-0.040711001 0.012787926 -0.0015475852 -0.46560651 -0.85360956 -0.23358347 0.0012137911
0.049590394 0.012894947 -0.0015648343 0.50995284 -0.85116661 -0.12435224 0.0017486766
0.052025579 0.014328463 -0.0013334394 0.52843904 -0.84200704 -0.10851938 0.0018856259
-0.048300385 0.01770341 -0.0014915189 -0.57349283 -0.78823763 -0.22313096 0.0015456236
-0.04656259 0.016506515 -0.0015100447 -0.5542239 -0.80743295 -0.20220754 0.00084786949
-0.044792801 0.015315756 -0.0017489817 -0.5578177 -0.8055203 -0.19994129 0.00089247082
0.053480774 0.015367772 -0.0016206162 0.55486935 -0.82449466 -0.11103342 0.0019423096
0.055503432 0.016764719 -0.0015456181 0.57638425 -0.80840993 -0.11939277 0.0019739906
0.057216827 0.017839601 -0.00068932143 0.5942288 -0.79315096 -0.13343033 0.0021238758
-0.051844202 0.020359129 -0.001575182 -0.58578426 -0.78652644 -0.19553269 0.0011263688
-0.049789216 0.018803068 -0.0015482196 -0.5765866 -0.7847501 -0.22741 0.0013168645
0.058629788 0.019109549 -0.0015865448 0.62307024 -0.77096111 -0.13191828 0.0019570426
0.060459659 0.020603567 -0.001233283 0.66427213 -0.73394448 -0.14166194 0.0036817486
-0.055205069 0.022903556 -0.0014590692 -0.61635906 -0.76517427 -0.18603702 0.00097191404
-0.053361189 0.021495393 -0.0016365425 -0.60587645 -0.77060384 -0.19769518 0.00062105648
0.061909676 0.022044139 -0.001608885 0.7129153 -0.68790752 -0.13614345 0.002912055
0.063432828 0.023537513 -0.0012173956 0.72728574 -0.67189986 -0.14002189 0.0033584002
-0.060176566 0.026993753 -0.00080668967 -0.683267 -0.70679939 -0.18325095 0.0009491542
-0.058493644 0.025641648 -0.0016088407 -0.64498645 -0.74140429 -0.18523547 0.000898864
-0.056789845 0.024147505 -0.0011928397 -0.62964779 -0.7520299 -0.19492239 0.0011864521
0.064899005 0.025272219 -0.0015183871 0.7699188 -0.62214804 -0.14197488 0.0029302449
0.066150203 0.026790325 -0.0011853528 0.79578435 -0.58684719 -0.14945805 0.0029310693
-0.061491068 0.028487908 -0.0013995743 -0.70381266 -0.68786478 -0.1774538 0.00082802074
0.067233227 0.028407736 -0.001523873 0.82410473 -0.54909807 -0.13907766 0.002623837
-0.06412372 0.031287566 -0.001176732 -0.75010717 -0.64202213 -0.1585775 0.001559453
-0.06295605 0.030375578 -0.0027228249 -0.72760427 -0.66431957 -0.1710894 0.0015506715
0.06861262 0.030651974 -0.0015775699 0.85471326 -0.49977171 -0.14033382 0.0027773909
0.069447316 0.03207184 -0.0012644351 0.88872075 -0.43495205 -0.14488649 0.0034605418
-0.066688932 0.034447122 -0.0010175573 -0.80130196 -0.5843327 -0.12833689 0.00064794457
-0.065502852 0.033360273 -0.0024869905 -0.78646368 -0.58896506 -0.18599738 0.0022228162
0.070475779 0.034469761 -0.0014879438 0.91097641 -0.36901712 -0.18425097 0.0035514582
-0.06913349 0.037972055 -0.00093632762 -0.82569557 -0.5521518 -0.11556432 0.0013393513
-0.068376362 0.037247717 -0.0020497686 -0.82575357 -0.55206203 -0.11557916 0.0012618183
0.071483374 0.037489846 -0.0015442746 0.93599677 -0.27774757 -0.21625505 0.0033256004
0.07208845 0.03882537 -0.00027178574 0.9743048 -0.21537098 -0.065920755 0.011677751
-0.069738701 0.039282937 -0.0017670005 -0.8257907 -0.55200189 -0.11560123 0.0012492595
0.071863957 0.040005609 -0.0025857484 0.95962363 -0.1652534 -0.2276264 0.0046022977
0.072276793 0.040478196 -0.0010256188 0.97707701 -0.16617611 -0.13306399 0.005483977
0.072541066 0.043280203 -0.0015209845 0.9798702 -0.08049722 -0.18268687 0.0038525891
0.072741494 0.04674127 -0.0014316223 0.9915427 -0.066650376 -0.11135874 0.0080304006
0.07281743 0.049691208 -0.0013712998 0.99456626 -0.085197374 -0.059827507 0.0075772917
0.072967887 0.052153662 -0.0012139491 0.99638098 -0.077676207 0.034514803 0.0074157277
0.0731076 0.054728676 -0.0010711368 0.99325621 -0.039410524 0.10903659 0.0039468957
0.073205546 0.058502458 -0.0012362258 0.96571237 -0.0024019857 0.25960326 0.015078172
0.073529467 0.061679959 -0.001318123 0.95114446 -0.083749175 0.29717055 0.017637391
0.073914774 0.064851835 -0.0013941481 0.92122567 -0.23377888 0.31095129 0.037916802
0.074307457 0.067114122 -0.0016886436 0.93224561 -0.23122518 -0.27830386 0.024765057
0.075162634 0.068281874 -0.00069666764 0.96711808 -0.16104214 -0.19684498 0.037223991
0.074664593 0.070390008 -0.0025013855 0.85784507 -0.26852539 -0.43817335 0.024265144
0.075679004 0.070696369 -0.0011839896 0.89752185 -0.2634961 -0.35358772 0.022301948
0.076486677 0.073046751 -0.0015655515 0.93482971 -0.230235 -0.27034277 0.052273378
-0.018527275 0.0028629913 0.0024142489 -0.24949928 -0.96814042 -0.02131333 0.0066293878
-0.016358253 0.0024885288 0.0015403498 -0.23510624 -0.97173029 -0.021569673 0.005782458
-0.013411893 0.0017914557 0.001491579 -0.20515999 -0.97871596 -0.0049394988 0.0015064232
-0.010434536 0.0012823025 0.0015083364 -0.15407366 -0.98463774 0.082157403 0.0053389831
-0.0074755815 0.00090450037 0.0015056743 -0.12390174 -0.9864431 0.10760252 0.0057889638
-0.0044793198 0.00050877628 0.0015083681 -0.089146659 -0.99434417 0.057727218 0.0013833754
-0.0015311823 0.0003327163 0.0015329698 -0.048119888 -0.99616385 0.073089153 0.0015738418
0.0014683066 0.00022439771 0.0014931042 -0.01165238 -0.99603283 0.088219948 0.0019102643
0.0045108655 0.00017751998 0.0015267247 0.010968674 -0.99452561 0.10391559 0.002450045
0.0075096083 0.00030093989 0.0015214579 0.047930218 -0.98242348 0.18040793 0.0074221953
0.010526247 0.00044914006 0.0014860061 0.07373327 -0.98146123 0.17691052 0.0070406743
0.013512693 0.00075526728 0.0015397148 0.11152961 -0.97922754 0.16933575 0.0070249452
0.016499847 0.0011561587 0.0015194612 0.13644665 -0.97915035 0.15048879 0.0054518702
0.019555053 0.001626704 0.0015201326 0.17581278 -0.9763931 0.125484 0.0040159738
0.022504231 0.0022504595 0.0015105277 0.19774684 -0.97338492 0.11583625 0.0038410004
0.024963165 0.0027685263 0.0013409455 0.21744907 -0.97355872 0.069994472 0.002618945
-0.027658438 0.0056730933 0.0024963648 -0.34243086 -0.93539107 -0.088231236 0.010083735
-0.025394591 0.0052899919 0.0016119732 -0.2901341 -0.94850469 -0.12712611 0.0039591999
-0.022513563 0.0043459381 0.0014475384 -0.32399973 -0.94368142 -0.067003816 0.001740027
-0.019622173 0.0034114637 0.0013861675 -0.3048878 -0.94887751 -0.081699811 0.0021484217
-0.017866682 0.0030904762 0.00038449836 -0.21484126 -0.97199762 -0.095204502 0.0015240007
0.026450133 0.0031718509 0.0017373461 0.27823192 -0.95709932 0.080918811 0.0027550787
0.028510623 0.0037560735 0.001502717 0.28608754 -0.95391649 0.090538129 0.0025124799
0.031506907 0.0046507339 0.0014815568 0.28790855 -0.95424986 0.080721617 0.0017689706
0.034189489 0.0055691553 0.0014603619 0.3207792 -0.94393772 0.077989534 0.0027129073
-0.034297187 0.0084405467 0.0020306429 -0.37507212 -0.91469294 -0.15052469 0.0073556057
-0.031583138 0.0076934388 0.0015487276 -0.35522377 -0.92373651 -0.14327201 0.0028551624
-0.028705148 0.0066808448 0.0012460011 -0.37205771 -0.91488528 -0.15670945 0.0036093227
-0.026657969 0.0061625647 0.0006680332 -0.31321108 -0.93630528 -0.15884317 0.0031771034
0.035595845 0.0061305515 0.0017437808 0.36990026 -0.92565298 0.079626061 0.0025129595
0.037496872 0.0068391082 0.0015063664 0.37508261 -0.92346901 0.08073438 0.002410755
0.040454607 0.0080835754 0.0015433201 0.38577551 -0.91718107 0.099780567 0.0021798566
0.042251188 0.0088725071 0.00098316488 0.41501239 -0.90441418 0.098992884 0.0024517719
-0.042356819 0.011959488 0.0026912035 -0.50746673 -0.8469215 -0.15874965 0.020559637
-0.040154446 0.011250436 0.0020931896 -0.41297975 -0.89427251 -0.17240767 0.013422311
-0.037429221 0.010305259 0.0014027231 -0.44764867 -0.86452061 -0.22850531 0.004115737
-0.03476968 0.0095482152 0.00063086895 -0.39400259 -0.89298302 -0.21758495 0.0032045725
0.043694422 0.0096189165 0.0015634715 0.44770169 -0.88849163 0.10072642 0.0023635849
0.04650579 0.01104486 0.0014865216 0.45202762 -0.88684076 0.095835216 0.0020613
0.048148792 0.011903026 0.00085231196 0.48461011 -0.86919284 0.098269038 0.0023405841
-0.045743842 0.014290683 0.0024566718 -0.58563435 -0.80420876 -0.10139396 0.013643458
-0.043408662 0.013560869 0.0013359229 -0.52900189 -0.81008124 -0.25283465 0.0088337008
-0.04099242 0.012618338 0.00073852495 -0.43321171 -0.85931563 -0.27185348 0.0056387428
0.049584974 0.01282113 0.0015907615 0.51288062 -0.8527236 0.099074557 0.0022306433
0.052061655 0.014300321 0.0014893983 0.5279851 -0.8452301 0.082569227 0.002248877
-0.049116176 0.017104993 0.0019007524 -0.56116974 -0.80506402 -0.19225131 0.0063488004
-0.046713579 0.016045153 0.0011113362 -0.55090803 -0.80543739 -0.21856555 0.0049317623
-0.044868059 0.01508468 0.00088448013 -0.57424253 -0.78658682 -0.22699521 0.005821825
0.053550698 0.015342798 0.0016677388 0.55446959 -0.82802224 0.083322704 0.0023929256
0.055491593 0.016674696 0.0015009975 0.56266201 -0.82212633 0.08671625 0.0022800958
0.05723346 0.017830124 0.0011121585 0.59321463 -0.79759842 0.10923886 0.0029597215
-0.052311867 0.019813929 0.0015811314 -0.60356098 -0.75880015 -0.24481952 0.0033080315
-0.050060321 0.01876477 0.00071408116 -0.58263642 -0.77293658 -0.25120485 0.0036600165
0.05867387 0.019061489 0.0015484766 0.6235376 -0.77418137 0.10882973 0.0028502059
0.060512874 0.020572703 0.0012693555 0.66294611 -0.74410903 0.082487509 0.0028545903
-0.057674907 0.023818249 0.0023877006 -0.6560902 -0.73905754 -0.15277347 0.0059744474
-0.055475842 0.02252502 0.0013100938 -0.61780226 -0.75486946 -0.22021022 0.0019803778
-0.053710312 0.021381054 0.0010366492 -0.62749749 -0.74882621 -0.21332198 0.0014682041
0.061953872 0.021998098 0.001608153 0.70211053 -0.70828581 0.073294953 0.0020893326
0.063438281 0.023471566 0.0013638113 0.73512506 -0.67224497 0.087623864 0.0030273357
-0.06046452 0.026798058 0.0017577216 -0.70757085 -0.6900292 -0.15232587 0.0006002126
-0.058568407 0.025262991 0.0011312191 -0.64553386 -0.73892611 -0.19306515 0.0018570591
-0.056879904 0.024039188 0.00085135549 -0.61375904 -0.76608717 -0.19081467 0.0019741948
0.064915918 0.025203556 0.0016015563 0.77589488 -0.62070489 0.11275018 0.0034895211
0.066192545 0.026769651 0.0013531349 0.79988623 -0.58854222 0.11747356 0.0034037346
-0.06309849 0.02973423 0.0014167298 -0.75581139 -0.64706075 -0.10030679 0.00070642075
-0.061744947 0.028413882 0.0013056083 -0.73058653 -0.66961169 -0.13365468 0.0010826846
0.067346416 0.028440598 0.0015071781 0.82483995 -0.55517936 0.1068409 0.0033424927
-0.064511441 0.031491291 0.0013443895 -0.7714467 -0.63257414 -0.068701722 0.00045313616
0.068682015 0.03062824 0.0016546859 0.85582525 -0.50764185 0.099312164 0.0030940869
0.069442734 0.031954098 0.0015027175 0.89435565 -0.43572572 0.10134666 0.0038184554
-0.066978499 0.034658905 0.001286515 -0.82953513 -0.55784041 -0.02618322 0.0024110051
-0.065887876 0.033140399 0.0016763064 -0.7941094 -0.6055848 -0.05154898 0.00086567103
0.070511602 0.034344498 0.0015060387 0.93296838 -0.34588853 0.099654786 0.0028307068
-0.069508165 0.038443107 0.0014613904 -0.82620162 -0.56265479 -0.028468348 0.0028446186
-0.068449952 0.036769416 0.0013220856 -0.8362754 -0.54830825 0.0012040727 0.0018224095
0.071552575 0.037358668 0.0015235982 0.95811498 -0.25004211 0.13962288 0.0061899191
0.072035424 0.038628269 0.00083244569 0.97155672 -0.22717276 0.066858739 0.0092485575
-0.070350334 0.039844785 0.0015047484 -0.84054732 -0.53337985 0.094795279 0.015234706
0.071814433 0.039020453 0.0028962626 0.96812218 -0.1572848 0.19493851 0.0047364123
0.072286978 0.040510211 0.0015480813 0.9739508 -0.16012771 0.16055809 0.0033115328
0.072655745 0.043239489 0.0016971709 0.98789299 -0.09314847 0.12405947 0.0033849389
0.07282082 0.046556555 0.0015396776 0.99128646 -0.039872359 0.12554443 0.0054837116
0.072991855 0.049759943 0.0014361755 0.98754245 -0.026789986 0.15505554 0.0071586757
0.072984293 0.052418448 0.0018582413 0.98381299 -0.027118515 0.17713445 0.0083340565
0.073155843 0.055477168 0.0015326113 0.9751994 -0.022121899 0.22021979 0.01021055
0.07333795 0.058657371 0.0012850612 0.93161291 0.043206941 0.36087471 0.022226872
0.073525317 0.061454039 0.0016062562 0.92728931 -0.06737987 0.36823142 0.028704764
0.074017689 0.064485982 0.0014930813 0.8916021 -0.22281417 0.39420748 0.034366067
0.074414052 0.067164592 0.0020068248 0.82268333 -0.2841883 0.49237093 0.073497817
0.075169541 0.068073221 0.0010102498 0.92428219 -0.2262191 0.30745301 0.036064129
0.074767247 0.069896877 0.0027789476 0.79656833 -0.35797146 0.4871707 0.014193687
0.075788952 0.070684627 0.0014489786 0.89119041 -0.3079443 0.33309162 0.026316235
0.068731092 0.072430879 0.0029387318 -0.011423267 -0.056724686 0.99832451 0.030788824
0.076658718 0.072792269 0.001647301 0.90171391 -0.20682849 0.37964988 0.043680724
-0.018512161 0.0028940837 0.0035897978 -0.22260508 -0.96999115 0.097796544 0.0060420712
-0.016341886 0.0025844092 0.0042762412 -0.19403113 -0.94768167 0.25347883 0.0050470289
-0.013484498 0.0021054971 0.0045287022 -0.17343333 -0.95463681 0.24205242 0.0049396781
-0.010490533 0.0016225262 0.0045360131 -0.12923533 -0.95656735 0.26129895 0.0043169088
-0.0075096176 0.0012677035 0.0044808462 -0.1010981 -0.95205182 0.2887499 0.0042691459
-0.0045065391 0.001002109 0.0045136577 -0.071191609 -0.94853359 0.30857065 0.0040190071
-0.001549082 0.0008717156 0.0045353984 -0.029369436 -0.94432116 0.32771155 0.0035688798
0.0014799617 0.00082453946 0.0044715595 -0.0043748259 -0.941037 0.33827543 0.0028973089
0.0045258375 0.00089869864 0.0045082429 0.030834822 -0.93643785 0.34947583 0.0024734056
0.0074764127 0.0010894652 0.0045206803 0.051895276 -0.93118078 0.36084518 0.0024567051
0.010495553 0.0012383342 0.0045438549 0.072210439 -0.92909551 0.36272189 0.002432368
0.01350545 0.00151477 0.0045133252 0.099201098 -0.92773068 0.35982636 0.0030076702
0.016503254 0.0018842847 0.0045527741 0.1216904 -0.92745125 0.35358953 0.0038168344
0.019449381 0.002276846 0.0044366308 0.16689236 -0.92681038 0.33640683 0.0039490578
0.022318149 0.0026832505 0.003958391 0.19622092 -0.92744702 0.31833851 0.004619183
0.024289362 0.0028925871 0.0032118834 0.22916783 -0.96096641 0.15500194 0.0033475726
-0.027774571 0.0057778331 0.0036974046 -0.28373563 -0.95794839 0.042766161 0.01158432
-0.025440697 0.0052604456 0.0043859268 -0.28950077 -0.94683927 0.1403023 0.017335003
-0.022473469 0.0043863058 0.0045584328 -0.32329714 -0.91217327 0.25183102 0.0072280215
-0.019690095 0.0035747567 0.0047125956 -0.26746166 -0.92317975 0.27604938 0.0067712823
-0.017259598 0.0032511675 0.0054735946 -0.22837074 -0.93276185 0.27893057 0.0061018355
0.020401765 0.003077684 0.005863281 0.15293179 -0.86243182 0.48251754 0.001144213
0.022761287 0.0033129156 0.0053892136 0.18620314 -0.9010964 0.39160386 0.0042743771
0.025537804 0.0036000921 0.0045496491 0.26036865 -0.91365975 0.31214416 0.00228945
0.02849111 0.0044077802 0.0044949455 0.25582561 -0.90486312 0.34025872 0.0040545063
0.031455699 0.005267648 0.0044750064 0.28519619 -0.90770417 0.30779248 0.0034333672
0.033514276 0.0057507437 0.0038533853 0.32028282 -0.90348697 0.28483361 0.0027337356
-0.03616472 0.0089274896 0.0033122564 -0.38322487 -0.92103124 0.069571875 0.018423595
-0.034222789 0.0084153833 0.0043619294 -0.35800183 -0.92987293 0.084681727 0.020110685
-0.031469099 0.0074364091 0.0045194179 -0.37160671 -0.89779443 0.23637599 0.0083160857
-0.02878467 0.0065188729 0.0047551207 -0.33992133 -0.9118132 0.23032601 0.011578641
-0.026710983 0.0061192177 0.0056195017 -0.28582877 -0.90605307 0.31204131 0.010337377
0.032685839 0.006076992 0.0056181531 0.29116043 -0.90085912 0.32199141 0.0037736213
0.034807589 0.0065226271 0.0047068624 0.35724935 -0.88795322 0.28967556 0.0022990648
0.037504748 0.0074689644 0.0044998517 0.3378607 -0.89724398 0.28425944 0.0019328146
0.040198192 0.0085003506 0.0041927504 0.38449857 -0.88233268 0.2713851 0.0027056911
-0.042081296 0.011814978 0.0033943846 -0.43406388 -0.90058035 -0.023315802 0.021742808
-0.040393565 0.011285441 0.0044106632 -0.43506938 -0.89433306 0.10432163 0.027228639
-0.03751697 0.0099675739 0.0045640375 -0.43829024 -0.87827098 0.19115919 0.011022158
-0.035402771 0.0092302468 0.0053231851 -0.44087079 -0.8773362 0.18951048 0.011164465
0.041277658 0.009311704 0.0051029352 0.42431858 -0.86225986 0.27651697 0.0023661775
0.043502111 0.010164133 0.0045279367 0.41504639 -0.86823583 0.27185115 0.002572732
0.046046395 0.011353544 0.0042527528 0.45226237 -0.85060811 0.26818758 0.0026071046
-0.045902666 0.014416846 0.0041970355 -0.56059724 -0.82743722 0.032840207 0.025182452
-0.043490071 0.013004607 0.0045357128 -0.53921658 -0.82856292 0.15076123 0.013210835
-0.041403349 0.012230498 0.0056548887 -0.40001702 -0.87225217 0.28135836 0.0060552196
0.047398236 0.012358533 0.0048929383 0.48808536 -0.83093351 0.26706225 0.0021472969
0.049526274 0.01344628 0.0045161271 0.49847516 -0.82049674 0.27983496 0.0028372381
0.0515991 0.014534932 0.0041235653 0.50727701 -0.80717695 0.30188632 0.0023736448
-0.051220573 0.017893037 0.0036190362 -0.56555903 -0.82470679 0.0013221413 0.023504386
-0.049462125 0.016889183 0.004523898 -0.54085606 -0.83850527 0.066209555 0.026006894
-0.047212888 0.015537263 0.004980491 -0.56721479 -0.81943488 0.082424596 0.015902048
0.052922919 0.015697643 0.0047301012 0.53164369 -0.79151839 0.30141929 0.0025477912
0.055285193 0.017186252 0.004332141 0.55290812 -0.78150386 0.28904048 0.0023226959
-0.054480962 0.020524774 0.0043085562 -0.68307275 -0.72854769 0.05128276 0.022575937
-0.052583374 0.019263435 0.0047389264 -0.59702545 -0.77670139 0.20073733 0.015773885
-0.050709419 0.018212449 0.0056221131 -0.55043441 -0.80572098 0.21871367 0.0086718602
0.056526355 0.018439068 0.0052234959 0.58128095 -0.76246351 0.28418618 0.0020582727
0.058438506 0.01962761 0.0044143484 0.61452103 -0.7465747 0.25493145 0.0012004543
0.060278561 0.020778639 0.003458783 0.64109635 -0.71264482 0.28483841 0.002163142
-0.05773716 0.023363752 0.0043174578 -0.65908098 -0.75207198 5.2914213e-05 0.021230582
-0.055909581 0.021903498 0.0048056236 -0.62794012 -0.77071816 0.10809588 0.016258465
0.059729308 0.021250514 0.0055129598 0.63723326 -0.6933229 0.33650732 0.0023153215
0.061490897 0.02244693 0.004511843 0.67576873 -0.68470901 0.27296573 0.0018380629
0.063241564 0.023738418 0.0034900159 0.70546949 -0.64482546 0.29413071 0.0020632101
-0.060559548 0.026205402 0.0047613527 -0.73715919 -0.64319867 0.20710364 0.012103535
-0.059073515 0.024714099 0.0048176288 -0.7256217 -0.68734556 0.032081712 0.01339696
0.062745728 0.024313832 0.0055535426 0.69564795 -0.62831891 0.34826612 0.0023210926
0.064364709 0.025546325 0.0044256551 0.74977958 -0.58444506 0.31024906 0.0030426683
-0.063376628 0.02965036 0.0046867467 -0.75473964 -0.6431765 0.12919749 0.012294432
-0.062072922 0.027958851 0.0044078701 -0.76152372 -0.64754242 0.027756767 0.0080830762
0.065560758 0.027537975 0.0051399725 0.76214546 -0.56446588 0.31703722 0.0023251234
0.06679263 0.02876902 0.0043459502 0.79108924 -0.51285475 0.33340344 0.0029815983
-0.064721905 0.031483341 0.0046247896 -0.80088741 -0.57785869 0.15703095 0.010912797
0.068170965 0.031293977 0.0046334215 0.8301512 -0.43417314 0.34977514 0.0021053068
0.069227621 0.032566607 0.0037268628 0.84325612 -0.42266616 0.33207294 0.0025635434
-0.066841893 0.034681343 0.0042028325 -0.8355093 -0.50290108 0.22139296 0.0066716499
-0.065926164 0.033088483 0.0039913435 -0.8253687 -0.53719383 0.17375055 0.0089546517
0.068879321 0.033744853 0.0057168766 0.81181169 -0.32657623 0.48405561 0.0017380691
0.069844797 0.034605701 0.0043531856 0.86197555 -0.35060662 0.36615989 0.0038274133
-0.068405785 0.037469991 0.0044590868 -0.85133684 -0.46092543 0.25054598 0.0043021869
0.070774943 0.037485383 0.0044475235 0.89936346 -0.23953643 0.36574274 0.0026031211
0.07126417 0.040128868 0.0047815223 0.90502679 -0.20308743 0.37374049 0.0026223939
0.072030157 0.041421756 0.0033940782 0.92502546 -0.17147653 0.33900404 0.0034201613
0.071583234 0.042803183 0.0049683084 0.90896338 -0.10439182 0.40359372 0.003340262
0.072167985 0.043613076 0.0037519801 0.92553973 -0.075141214 0.37111998 0.0039145947
0.071560271 0.046424314 0.0052366368 0.88585651 -0.0093187364 0.46386561 0.003293243
0.072282799 0.046449866 0.0037064066 0.91606808 -0.019344164 0.40055588 0.003525754
0.07146477 0.049738586 0.0053019971 0.87905926 0.00032269341 0.47671247 0.0030003441
0.072312884 0.049695253 0.0037476707 0.9006266 -0.0035304732 0.43457946 0.0040718964
0.071550392 0.053282421 0.0049891393 0.87459856 0.014483905 0.48463142 0.0019109299
0.072320916 0.053142045 0.0037614759 0.89658237 -0.0013405874 0.442875 0.0027409974
0.071383804 0.055822942 0.0048805135 0.86100781 0.044881262 0.50660753 0.0039119059
0.07236094 0.05581953 0.0035721827 0.93392116 0.042880252 0.35489795 0.015107702
0.070833899 0.059481855 0.0046440242 0.79639107 0.025929241 0.60422593 0.0058726682
0.072249413 0.058710523 0.0035608103 0.91374046 0.011972694 0.40612197 0.022118803
0.071355104 0.061471716 0.0039464105 0.87908202 -0.053676117 0.47363868 0.027724843
0.072420858 0.061828345 0.0033234742 0.87908018 -0.053765062 0.47363207 0.027717585
0.071518824 0.06464833 0.003706095 0.65074182 -0.030357931 0.75869191 0.0098298965
0.072524495 0.064558804 0.0033676617 0.8391301 -0.04314867 0.5422166 0.044892102
0.07105048 0.068086736 0.0037765473 0.31799996 0.056428637 0.94641 0.049263664
0.072879404 0.067573957 0.0035508862 0.53916544 -0.13564005 0.83120537 0.022390071
0.071098462 0.070579685 0.0040944805 -0.011419845 -0.056721017 0.99832469 0.030786682
0.073560461 0.070561908 0.0038586857 0.44751889 -0.29508072 0.84418851 0.02079298
0.075247511 0.071791947 0.0032259848 0.63119125 -0.45948586 0.62487632 0.06672281
0.070523292 0.07337936 0.0043005454 -0.0062586106 -0.061091527 0.99811256 0.031378251
0.073550858 0.073312014 0.0047214516 0.26990062 -0.0095775304 0.96284056 0.066529036
0.075518616 0.073339343 0.0037420334 0.64357328 -0.063956618 0.76270771 0.12435685
0.068952516 0.075142346 0.0034800344 -0.0062561659 -0.061089955 0.99811268 0.031374842
-0.015057754 0.0029954589 0.0060602953 -0.22844064 -0.90586585 0.35668182 0.0093245134
-0.012919717 0.0027894317 0.0064333784 -0.16371278 -0.8787837 0.44826049 0.0014495144
-0.010319062 0.0025862353 0.0068750065 -0.12142029 -0.88174188 0.45583805 0.0016862076
-0.0074237529 0.0023728278 0.0071291337 -0.084782846 -0.88206691 0.46343282 0.001829472
-0.0044831838 0.0022626086 0.0073520495 -0.052207794 -0.88192374 0.46849218 0.0016961895
-0.0014925689 0.0021665061 0.0073901997 -0.020670423 -0.87991911 0.47467363 0.0017571372
0.0014883778 0.0021864737 0.0074321264 0.0086140335 -0.87706143 0.48030093 0.0018086875
0.0044558789 0.0022275678 0.0073636216 0.043333557 -0.87630087 0.47981146 0.0014483392
0.0074708648 0.0023316224 0.0071359221 0.059744701 -0.86856729 0.49195674 0.0015381039
0.010456527 0.0024416249 0.0069742054 0.078711435 -0.86449027 0.49644843 0.00096584042
0.013391763 0.002628406 0.006620917 0.10249179 -0.85506684 0.50828737 0.00075719319
0.016415657 0.0027454118 0.0063128062 0.11011419 -0.86353958 0.49211213 0.00058448658
0.018331334 0.0028750617 0.0061985273 0.15764882 -0.8386066 0.52142668 0.0020794079
-0.024607548 0.0057924674 0.0063695288 -0.28290224 -0.86381948 0.41687188 0.0011165024
-0.022234177 0.0053991484 0.0071177576 -0.257525 -0.85773784 0.44493434 0.0012429341
-0.019516062 0.0048067723 0.0075307144 -0.23446153 -0.85427248 0.46394646 0.001106146
-0.016544914 0.004078568 0.0075559402 -0.18684894 -0.85927075 0.47617355 0.0010253686
-0.013571581 0.0035865661 0.0077879117 -0.15314509 -0.8540287 0.49717349 0.0013123287
-0.010596234 0.0033783363 0.0082960371 -0.11681137 -0.85301858 0.50863981 0.0016972496
-0.0076575219 0.0032506704 0.0086358609 -0.080492862 -0.81202614 0.57804358 0.00083574426
-0.0048923357 0.003148478 0.0088160187 -0.042981002 -0.80611384 0.59019738 0.00077701634
-0.0016033574 0.0030806633 0.0088869911 -0.014679509 -0.79923469 0.60083979 0.00082831824
0.0011254296 0.0030325542 0.0089014079 0.0095221819 -0.7976284 0.60307407 0.00082350784
0.0047411714 0.0031010911 0.0088318521 0.045767456 -0.79970115 0.59865135 0.00085065822
0.0076446864 0.0032418424 0.0086143957 0.06776537 -0.79988158 0.59631979 0.00087586057
0.010626553 0.0033617141 0.0084498581 0.085533805 -0.80569327 0.58612484 0.0008517286
0.013561114 0.003548526 0.0081061404 0.11068552 -0.83431649 0.54005986 0.00071418245
