# .PCD v0.7 - Point Cloud Data file format
VERSION 0.7
FIELDS x y z normal_x normal_y normal_z curvature
SIZE 4 4 4 4 4 4 4
TYPE F F F F F F F
COUNT 1 1 1 1 1 1 1
WIDTH 571
HEIGHT 1
VIEWPOINT 0 0 0 1 0 0 0
POINTS 571
DATA ascii
-0.048675511 0.047672972 0.0087893149 0.3305268 0.70266384 0.63009167 0.0012172775
-0.046243824 0.047120336 0.0079224398 0.35779771 0.7541154 0.55071837 0.0017180927
-0.043620136 0.046017978 0.0076187667 0.38990623 0.77355903 0.49957934 0.0019605896
-0.041386042 0.045548793 0.006538569 0.4204272 0.77623469 0.46978804 0.0013386884
0.047538284 0.045631446 0.0066125738 -0.45987394 0.73213446 0.50248885 0.002397524
0.04969104 0.046353288 0.007342861 -0.41206691 0.704054 0.57836735 0.0026928636
0.052144907 0.047077596 0.0081239976 -0.35923231 0.68577361 0.63298231 0.0022276784
0.054578301 0.047790393 0.0087419972 -0.32719854 0.65869141 0.67754471 0.0014391766
-0.070059299 0.049526367 0.0067513264 -0.59827632 -0.014224079 0.80116355 0.0093753599
-0.067638725 0.049518414 0.0082430365 -0.45978382 0.08986824 0.88347185 0.0046896618
-0.065325186 0.050568555 0.0088799875 -0.22570775 0.28356889 0.93201107 0.0054515637
-0.058498394 0.050960612 0.0089567108 0.11086322 0.68586004 0.71923941 0.0037261473
-0.055231921 0.050552439 0.0085486267 0.21107341 0.7216835 0.65925795 0.0022979374
-0.052491739 0.049953107 0.008074387 0.28596666 0.74269754 0.60549426 0.0020697457
-0.049826615 0.049330909 0.0073155169 0.35226479 0.76989806 0.53213394 0.0024218969
-0.04708543 0.048509333 0.0065911599 0.39749804 0.79195076 0.46347523 0.0012921012
0.052847322 0.048613071 0.0068809004 -0.41031945 0.69729131 0.58772683 0.0025628053
0.055482093 0.049490206 0.0075386097 -0.33070719 0.67456442 0.65999663 0.0026034375
0.058293637 0.050092578 0.0082711941 -0.257164 0.59153318 0.76416963 0.0023567262
0.061235666 0.050612383 0.0087461388 -0.1354114 0.5204004 0.84311754 0.0038266701
0.064780101 0.050637711 0.0088523859 0.043803439 0.42391983 0.9046399 0.00575434
0.067147724 0.049891546 0.0084646353 0.16406426 0.33310708 0.9285056 0.0017123934
-0.070195302 0.052498356 0.0066229925 -0.45684159 0.099425748 0.88397413 0.0095539978
-0.06748943 0.052457638 0.0076396922 -0.24936444 0.28787696 0.92463195 0.013914221
-0.064494088 0.052435219 0.0080882739 -0.11717943 0.45495716 0.88277 0.010506222
-0.061480001 0.052589599 0.0078649931 0.04252651 0.61847091 0.78465611 0.0064742477
-0.05853847 0.052370332 0.0075187501 0.15902312 0.73930925 0.65431905 0.0028673857
-0.055705849 0.051863451 0.0072809481 0.25352529 0.74944204 0.6116057 0.0021617359
-0.053249195 0.051507667 0.0065162363 0.3434481 0.76399678 0.54621631 0.0024273815
0.056527484 0.051159713 0.0063644513 -0.39954081 0.69925719 0.59279555 0.0026203035
0.058812845 0.051887285 0.0068585901 -0.34016246 0.67684197 0.65282029 0.0031798175
0.061447881 0.052555203 0.0073765754 -0.25268847 0.5961495 0.76207232 0.0022988436
0.064384788 0.052670583 0.007904591 -0.011588779 0.44461015 0.89564919 0.0067214379
0.067207046 0.052628681 0.0075855562 0.12166133 0.39019406 0.91265935 0.0016619494
-0.070032604 0.055043407 0.0062980629 -0.2513476 0.33169693 0.90928632 0.014131804
-0.067560971 0.055148467 0.0066169281 -0.067680597 0.43726647 0.89678174 0.0099133607
-0.064705729 0.054803792 0.0065961685 0.11134552 0.57942885 0.80738115 0.0094447322
-0.062169135 0.05440104 0.0063979551 0.19165231 0.67777646 0.70985103 0.0046235216
0.062453851 0.054318078 0.0063633109 -0.33054584 0.62097687 0.71072298 0.005399588
0.064582385 0.055073008 0.0065280101 -0.17204387 0.51348054 0.8406775 0.0097762803
0.0671046 0.055356611 0.0065542567 -0.080974095 0.47036004 0.8787517 0.007353323
-0.018416198 0.0058925464 0.0090333857 -0.19866954 -0.80310059 0.56174725 0.00088685984
-0.01579684 0.0057636257 0.0096740173 -0.16788191 -0.79653704 0.58081347 0.0016132959
-0.013470773 0.0053280913 0.0096657407 -0.13510148 -0.77418399 0.61837417 0.00095313112
-0.01031059 0.0052834656 0.010231475 -0.10485024 -0.76714569 0.63284588 0.0010620874
-0.0076779057 0.0052014124 0.010475677 -0.064339392 -0.74979973 0.65852922 0.0012518369
-0.0044128876 0.0049886038 0.010438537 -0.027518842 -0.74774033 0.6634208 0.00063508929
-0.00084196741 0.0048401598 0.010307953 -0.0096122092 -0.73523504 0.67774397 0.00090504927
0.0021299312 0.0048661018 0.010339388 0.0030800074 -0.73086143 0.68251884 0.00094910653
0.00445046 0.0051947129 0.010626346 0.040657032 -0.70880431 0.70423245 0.0011935272
0.0073742233 0.0047041997 0.0098093878 0.054767914 -0.69676501 0.71520555 0.00053453713
0.010146769 0.0053199045 0.010270672 0.064477004 -0.68908364 0.72180772 0.00059323898
-0.027372278 0.0085373633 0.0090276161 -0.27107796 -0.81337762 0.51471698 0.00071760366
-0.025481461 0.0083234282 0.009624159 -0.24743491 -0.79623604 0.55207253 0.00029526642
-0.022373553 0.0079107815 0.010276101 -0.21621475 -0.78419077 0.58163226 0.0015082624
-0.01952837 0.0073494501 0.010584478 -0.19881621 -0.77430618 0.60076791 0.00073223724
-0.016369388 0.0069670104 0.011075821 -0.15099171 -0.75897688 0.63336843 0.00093577325
-0.013357407 0.0066776318 0.011364557 -0.11648752 -0.69929397 0.70527911 0.0013884749
-0.010364234 0.0064353044 0.011562094 -0.084971398 -0.73375773 0.67407686 0.0014014516
-0.0074821729 0.0062946714 0.011668573 -0.050984118 -0.7199316 0.69216985 0.0010182658
-0.0043461234 0.006158716 0.011710045 -0.022526942 -0.71133858 0.70248842 0.00095682312
-0.00082872953 0.0061848238 0.011790963 0.0052214745 -0.70510334 0.70908529 0.00085231313
0.0014919168 0.0063087023 0.011879745 0.0092754755 -0.69993228 0.71414888 0.0012783925
0.0040071947 0.0063567581 0.011842649 0.045115575 -0.68949157 0.72288728 0.00088918238
0.0079006376 0.0065233507 0.011726646 0.057808302 -0.62189239 0.7809661 0.0025967122
0.011357814 0.0068364069 0.011652768 0.064214587 -0.62467164 0.77824283 0.0019389507
0.014278603 0.0066865887 0.011085242 0.091227628 -0.59815121 0.79617369 0.0013182121
0.017510798 0.0073941448 0.01121552 0.11207606 -0.56825417 0.81518471 0.00051714777
0.022015564 0.0088958377 0.011685447 0.11563339 -0.50553662 0.85502148 0.0010035572
-0.034041874 0.011496685 0.0098462626 -0.33432373 -0.76493537 0.55054653 0.00078654819
-0.031527106 0.010979439 0.010449141 -0.2696676 -0.7681548 0.58070427 0.00096534524
-0.02849861 0.010271163 0.010924475 -0.24927317 -0.77227443 0.58434159 0.00073352241
-0.025527712 0.0096749105 0.01142648 -0.22358647 -0.72860795 0.64740992 0.0012626777
-0.022822702 0.0093166279 0.011904967 -0.19719693 -0.70151895 0.68482447 0.0015127984
0.022974249 0.0094772931 0.011922369 0.11846484 -0.48569474 0.86606389 0.00045680467
0.035088185 0.010629528 0.0097205294 0.2091676 -0.55768889 0.80326337 0.00032429825
0.03779472 0.011216682 0.0094217602 0.20696883 -0.55628228 0.80480671 0.00045531188
-0.04014859 0.014356762 0.0098541332 -0.39529479 -0.72880375 0.55909491 0.00075924682
-0.037433613 0.013669195 0.010678199 -0.3451139 -0.73506618 0.58358729 0.00097837357
-0.034749407 0.012688649 0.011020654 -0.32224074 -0.74542677 0.58352357 0.0012675208
-0.032538258 0.012058818 0.011455764 -0.28823119 -0.75739264 0.58590031 0.0012366131
0.037821654 0.014357906 0.011797915 0.19140108 -0.52937919 0.82651269 0.00171859
0.039978441 0.014845243 0.011575937 0.22232282 -0.51726049 0.82644671 0.0012324614
-0.045514748 0.017560363 0.009818594 -0.46536514 -0.69908804 0.54287302 0.00061734137
-0.043420494 0.016802885 0.010517754 -0.42332262 -0.69892132 0.57646066 0.001106238
-0.040923085 0.015772231 0.011155714 -0.38755187 -0.69907898 0.60090947 0.0019558857
0.041227769 0.015028707 0.011356493 0.19653007 -0.50462323 0.84067315 0.0017404655
0.043119613 0.016816363 0.011907037 0.21448083 -0.4467634 0.86856228 0.00079761265
-0.048879955 0.020140113 0.010137863 -0.49874693 -0.66119319 0.56042391 0.00090723502
-0.046733692 0.019151697 0.010820127 -0.44862452 -0.6771332 0.58328956 0.001029502
-0.044414535 0.018415071 0.011736656 -0.42969689 -0.63814652 0.63885021 0.0012582787
-0.054328073 0.02344263 0.0090899374 -0.53302902 -0.64263421 0.55036479 0.00062971195
-0.05237079 0.022895003 0.010286874 -0.50132793 -0.63513947 0.58759516 0.0016585485
-0.049985588 0.02177041 0.011076696 -0.47138119 -0.64558917 0.60084468 0.0012630004
-0.057260338 0.026506497 0.0094418516 -0.57782131 -0.56175816 0.5920729 0.00055532414
-0.055206057 0.025527559 0.010445819 -0.53367615 -0.55750084 0.63591093 0.0011487239
-0.053202264 0.024830265 0.011580654 -0.49358946 -0.53710324 0.68402451 0.0022891511
0.0019991228 0.026933825 0.011958076 0.047735184 0.68637455 0.72567993 0.0012821701
0.004084656 0.026914828 0.011917209 0.013152562 0.68744051 0.72612154 0.0012936326
0.0075185685 0.026911996 0.011903751 -0.023361821 0.68457645 0.72856659 0.0014490511
-0.060165636 0.029638613 0.0092414161 -0.62021744 -0.5135057 0.59299427 0.001509656
-0.058302402 0.028681044 0.010313046 -0.60434103 -0.46426734 0.64747798 0.0015988473
-0.056300487 0.027637661 0.011366708 -0.56767571 -0.52555144 0.63367176 0.00091803167
-0.01282187 0.02970564 0.011845061 0.19584277 0.68607181 0.700679 0.0006856285
-0.010334176 0.029356683 0.011551097 0.16968852 0.67343295 0.71950948 0.0013028014
-0.0074718576 0.02910454 0.011114952 0.14424478 0.74560338 0.65059137 0.0017800365
-0.0044720955 0.028922193 0.010751155 0.11852866 0.74812114 0.65289021 0.0013191124
-0.0014911179 0.028605154 0.010636971 0.091184966 0.75268924 0.65203077 0.0012140546
0.0014556382 0.028441904 0.010529651 0.045372892 0.75336879 0.65603107 0.0013134893
0.0044845631 0.028378973 0.010476842 0.010646815 0.71259296 0.70149696 0.0011797608
0.0075382683 0.028376812 0.01048831 -0.015053425 0.72908157 0.68426126 0.0028358435
0.01045685 0.0284907 0.01054858 -0.058574852 0.7256375 0.68557936 0.0021946807
0.0134636 0.028720569 0.010608819 -0.10018988 0.73894972 0.66626972 0.0013375628
0.016410058 0.028966032 0.010946597 -0.145411 0.72700751 0.67105567 0.0015707954
0.019440956 0.029286465 0.01126201 -0.16239412 0.70550281 0.68985063 0.0016696486
0.022366799 0.029564697 0.011657146 -0.1840172 0.67607254 0.71348697 0.001559101
-0.061033189 0.03187136 0.0099817216 -0.64626437 -0.41380292 0.64117825 0.0020635852
-0.059111197 0.031068237 0.01124981 -0.58341241 -0.37878242 0.71843851 0.0016488648
-0.021794111 0.032875907 0.011605495 0.26387793 0.71831471 0.64373326 0.0019266726
-0.019297516 0.032214824 0.011348709 0.24933062 0.68521285 0.68433738 0.0014183735
-0.016439663 0.031883724 0.01062297 0.23542541 0.75926256 0.60670853 0.0012321315
-0.013531189 0.031274885 0.010301428 0.20479172 0.78058302 0.59055096 0.00082418701
-0.010546401 0.030797167 0.0099749994 0.18225792 0.75862926 0.62551069 0.001580722
-0.0075089433 0.030463887 0.0095723681 0.14796187 0.76830274 0.6227504 0.0017153842
-0.0047587552 0.03023445 0.0092692366 0.12032561 0.77411085 0.62150961 0.0013739503
-0.0029301848 0.030087544 0.0090804361 0.11777848 0.75653374 0.64326108 0.0016820127
0.014085627 0.030075487 0.0091456212 -0.10371437 0.75832582 0.64357233 0.0011985279
0.016597819 0.030331708 0.0094202561 -0.15806171 0.74679911 0.64599353 0.0012281664
0.019625142 0.030715566 0.0098545374 -0.18440056 0.72821283 0.66007757 0.0015542815
0.022561725 0.031188825 0.010204382 -0.20516528 0.71844798 0.66463506 0.0026050059
0.025431944 0.031625543 0.010646592 -0.21621969 0.66303831 0.71667939 0.0010992959
0.028445901 0.032014459 0.011194594 -0.22535241 0.62918025 0.74387395 0.0014826865
0.031032 0.032511577 0.011599275 -0.23682962 0.66227347 0.71084851 0.0022575688
-0.063438036 0.034990679 0.0094359722 -0.65815753 -0.36160097 0.66035861 0.0018313011
-0.061672714 0.034537684 0.010848167 -0.58996069 -0.29233 0.75265509 0.0012586683
-0.059871946 0.03347338 0.011921637 -0.54540968 -0.26577643 0.79491585 0.0031899491
-0.027920742 0.035514027 0.011453222 0.30406314 0.71956134 0.62432134 0.0018386041
-0.025424011 0.034975216 0.010857226 0.30289525 0.74732119 0.5914098 0.0012640097
-0.022670928 0.034135547 0.010529978 0.28853095 0.75445962 0.5895257 0.0026087037
-0.019698389 0.033686154 0.0097425263 0.26892573 0.76251572 0.58842903 0.0015401486
-0.017170874 0.03309048 0.0093586445 0.244856 0.78128427 0.57414317 0.001060979
0.026294746 0.033195399 0.0092363395 -0.24359648 0.72813588 0.64068621 0.0013653691
0.028760919 0.033607516 0.0097558005 -0.2518785 0.71657902 0.65043962 0.0015670338
0.031675112 0.034189466 0.01021716 -0.25825015 0.70611423 0.65932506 0.0024665089
0.034406744 0.03476321 0.010739966 -0.27459714 0.62947619 0.72688121 0.0018951281
0.037339289 0.035345916 0.011476829 -0.29494011 0.64075667 0.70883095 0.002364056
-0.064052291 0.037631277 0.010012116 -0.64907283 -0.25130391 0.71801877 0.0029795968
-0.062137574 0.037359811 0.01146605 -0.55802387 -0.18960214 0.80787396 0.0020332511
-0.034150235 0.038492329 0.011326144 0.31536841 0.70710975 0.63288116 0.0016654577
-0.031470485 0.03778157 0.01068868 0.337468 0.7335192 0.58997029 0.0012497206
-0.02867936 0.03683513 0.0103046 0.31983083 0.75774455 0.56879824 0.0018387174
-0.026101546 0.036370393 0.0094335275 0.32767239 0.76193464 0.55864704 0.0011266386
0.03543872 0.036470048 0.0095331687 -0.32734534 0.70231491 0.63213825 0.0017255594
0.037713535 0.037077039 0.0099977655 -0.35740492 0.67546916 0.64498311 0.0030180197
0.040316772 0.037678167 0.010759745 -0.34035534 0.60278738 0.72166866 0.0022441384
0.043065846 0.038277451 0.011508627 -0.29781824 0.53436899 0.7910462 0.0023505434
0.045043364 0.038720947 0.011931883 -0.30322313 0.58174878 0.75473446 0.001533702
0.062401164 0.036741294 0.011862275 0.28469148 -0.0033978908 0.95861322 0.0018939156
-0.066253148 0.041528262 0.0091870325 -0.66772038 -0.18198156 0.7218256 0.002750918
-0.064590625 0.040499218 0.010274471 -0.58392483 -0.13963756 0.79970819 0.0046981834
-0.06253852 0.040543448 0.011665198 -0.5437479 -0.060596235 0.83705813 0.0031125392
-0.042227823 0.041875672 0.011740131 0.30538559 0.69153017 0.65461856 0.0016808236
-0.040082913 0.041254688 0.011373809 0.310489 0.69356745 0.65004683 0.0016783567
-0.037294451 0.04059165 0.010627337 0.32610351 0.72231162 0.6098544 0.00098758319
-0.034765363 0.039776616 0.010182405 0.35384747 0.73736185 0.57540369 0.001984769
-0.032827761 0.039454684 0.0094023552 0.38620162 0.74479747 0.54417372 0.00091721676
0.041223422 0.039431676 0.0095783379 -0.38570857 0.67213726 0.63202882 0.0023358231
0.043595683 0.040227912 0.010114138 -0.37551081 0.6273154 0.68225139 0.0024625654
0.046289254 0.040728539 0.010952118 -0.29255149 0.5692175 0.76837826 0.0015954691
0.049251039 0.041383974 0.011595198 -0.25017816 0.50371045 0.82685351 0.0019792323
0.064204589 0.040601961 0.011224245 0.27201581 0.10469345 0.95658076 0.002726265
-0.066370241 0.04358346 0.0093284752 -0.61577451 -0.053942878 0.7860738 0.0040885415
-0.064626284 0.043499894 0.010502075 -0.52323341 0.0039625783 0.85218012 0.0018621661
-0.062339071 0.043669648 0.011678176 -0.41597506 0.083247617 0.90555757 0.0037376489
-0.048764344 0.044666726 0.011766597 0.21197312 0.62510252 0.75120848 0.0018724299
-0.046300568 0.044183608 0.011307837 0.29183838 0.65472674 0.69725412 0.002035283
-0.043493006 0.043552332 0.01060978 0.32173404 0.70439327 0.6327064 0.0013182405
-0.040627539 0.042639341 0.010044727 0.35198364 0.71115917 0.6085723 0.0010297511
-0.038336542 0.04231444 0.0090892194 0.36280286 0.7660023 0.53067368 0.0010794153
0.044728924 0.042009894 0.0090172105 -0.39196977 0.6555813 0.64542454 0.0027679908
0.047004696 0.042700626 0.0096342955 -0.36053613 0.62502676 0.69235486 0.0021943906
0.049547929 0.043404885 0.010205127 -0.3456884 0.59261805 0.72753239 0.0022763016
0.052363582 0.043687258 0.011009078 -0.23458214 0.52107149 0.82064348 0.001238479
0.055398934 0.044107169 0.011516425 -0.16059422 0.45942625 0.87357712 0.0024865563
0.058293104 0.044337437 0.011766874 -0.039900716 0.37496126 0.92618144 0.0038069056
0.061508894 0.043940462 0.011706566 0.16570798 0.24651474 0.95486718 0.0075205253
0.064334117 0.043618631 0.010959199 0.27039024 0.20164797 0.94139636 0.0014836836
-0.066359445 0.046256047 0.0092806807 -0.52834922 0.069218412 0.84620088 0.0048812414
-0.064464867 0.046476375 0.010269922 -0.39244446 0.19340883 0.89921093 0.0070309686
-0.061537705 0.046566233 0.011338799 -0.19467469 0.35324723 0.91505098 0.0045775133
-0.058566827 0.047058821 0.011559331 -0.032922424 0.45885545 0.88790071 0.0028523218
-0.055451635 0.047046065 0.011444536 0.093004748 0.53810287 0.83773232 0.0027903696
-0.052472312 0.04672192 0.011127347 0.18368737 0.59392506 0.78327006 0.0011676276
-0.049635004 0.046432469 0.010471514 0.2381909 0.63375509 0.73594815 0.00075122429
-0.046890154 0.045754675 0.010011972 0.32703027 0.68536526 0.65063488 0.0014028532
-0.044811491 0.04524624 0.0094240624 0.36460784 0.69064683 0.62455428 0.002257376
0.050614294 0.045255531 0.0091398554 -0.35651782 0.64877194 0.67230207 0.0017117044
0.052842591 0.045813672 0.0096387435 -0.30336258 0.61264247 0.72982204 0.0027960888
0.05553627 0.046481147 0.010100155 -0.24933495 0.54088455 0.80329078 0.0033596915
0.058418941 0.046553668 0.010702974 -0.088069722 0.4414874 0.89293486 0.0027700053
0.061312586 0.046582054 0.010818734 0.065946534 0.3543002 0.93280351 0.0049488149
0.064232059 0.046398759 0.010407777 0.18897921 0.29657364 0.93612552 0.0019060033
0.06639266 0.046428639 0.0096665481 0.18888858 0.29659575 0.93613678 0.0019142386
-0.066242836 0.048617039 0.0090836436 -0.39891762 0.22085674 0.88999271 0.0068159453
-0.064358465 0.049282756 0.0095382016 -0.26596928 0.32348406 0.90808505 0.0063358746
-0.061512832 0.049458627 0.010015617 -0.11816832 0.46048358 0.87976766 0.0057893777
-0.058562849 0.049496617 0.010094802 0.033131137 0.56294775 0.82582814 0.0048651211
-0.055643626 0.049116377 0.0099731032 0.15776026 0.62630492 0.76344866 0.0025824737
-0.052634608 0.048570439 0.0095472224 0.24597637 0.66348183 0.70660275 0.0019895067
-0.050310977 0.048243236 0.0090736141 0.30479956 0.71529639 0.62884676 0.0020541809
0.056407005 0.048218079 0.0091848932 -0.28818417 0.61656874 0.73266155 0.0027454977
0.058617141 0.04860444 0.0094954055 -0.19714239 0.53609985 0.82081169 0.0037833555
0.061547659 0.049146321 0.0096301585 -0.045111775 0.46692774 0.88314408 0.0049394956
0.064221859 0.049266357 0.0095035573 0.12979269 0.35689303 0.92508447 0.0044872696
0.066075779 0.049105898 0.0091631059 0.11481602 0.34455094 0.93171996 0.0040664454
-0.061531242 0.051076908 0.0090370812 -0.02110431 0.56950963 0.82171363 0.004338155
-0.018595599 0.0086934734 0.012436182 -0.16701625 -0.71253628 0.68146729 0.0013691458
-0.016289972 0.0084773134 0.012624886 -0.13033539 -0.68623644 0.71560615 0.0014909019
-0.013259955 0.0081483079 0.012769288 -0.1007736 -0.67019969 0.7353074 0.0014201703
-0.010365572 0.0079005482 0.012889523 -0.065089628 -0.64530283 0.76114887 0.0010609627
-0.0072741085 0.0079642106 0.013110824 -0.036679041 -0.62804013 0.77731597 0.00092477899
-0.0044503012 0.0075660674 0.012910394 -0.014594109 -0.61610699 0.78752726 0.0011557082
-0.0016063901 0.0078615937 0.013148215 0.0084775351 -0.55818319 0.82967436 0.00096612971
0.0012933179 0.0077463794 0.01301109 0.029901544 -0.57059461 0.82068729 0.0029397393
0.0043597557 0.0078405403 0.012971281 0.045911033 -0.57045448 0.82004505 0.0013815099
0.00734198 0.0080413213 0.012927586 0.057848115 -0.58752644 0.80713463 0.002714345
0.010182631 0.0079476126 0.012660874 0.07810422 -0.57420105 0.81498027 0.0017265172
0.013447967 0.0083864005 0.012621209 0.10036565 -0.53023547 0.8418889 0.0016963034
0.015305776 0.0088403961 0.012748847 0.090646774 -0.51932794 0.84975392 0.0019519365
0.018227734 0.0087154917 0.012208559 0.10908563 -0.53201431 0.83967924 0.0012996242
-0.028155064 0.011616615 0.012610373 -0.23398277 -0.66798979 0.70642883 0.0012858959
-0.025424551 0.011217015 0.01307716 -0.20313048 -0.65488678 0.72791582 0.0011667504
-0.022461308 0.01076638 0.013386318 -0.15993163 -0.6607762 0.73334622 0.0021931289
-0.019433163 0.010440589 0.013718832 -0.14124675 -0.59920925 0.78803402 0.0010607983
-0.016472761 0.010402823 0.014164298 -0.097561397 -0.57227445 0.81423807 0.00084622134
-0.013458614 0.010131194 0.014276662 -0.073284358 -0.55071348 0.83147103 0.001451367
-0.010554174 0.0099514229 0.014391033 -0.04365183 -0.52274036 0.85137361 0.0018197692
-0.0076654991 0.0099218274 0.014458697 -0.014371694 -0.49856448 0.86673349 0.002016552
-0.0044361092 0.0098110456 0.014429201 0.0010756433 -0.4797768 0.87738991 0.0018612414
-0.0015903357 0.0099684615 0.014482457 0.016459933 -0.46701255 0.88409752 0.0019544745
0.0015593302 0.010166585 0.014484107 0.032916818 -0.4534179 0.89069003 0.0016097561
0.0047239331 0.010336999 0.01442432 0.061359972 -0.42236429 0.90434694 0.0015903407
0.007522529 0.010626905 0.014400058 0.072108828 -0.42416042 0.90271157 0.0015620907
0.01046963 0.010485183 0.014114078 0.069535218 -0.44518241 0.89273602 0.0011318405
0.013576828 0.010585144 0.013883108 0.074977279 -0.43643162 0.89660794 0.001056529
0.016577635 0.010477099 0.013519679 0.11390271 -0.46585375 0.8775 0.0024938816
0.01968253 0.010722895 0.013278258 0.12042362 -0.45829958 0.88060188 0.0012836269
0.022910703 0.011152135 0.013090591 0.11773293 -0.46217707 0.87893766 0.0011603821
0.025699722 0.010968989 0.012447531 0.10048853 -0.45150927 0.88658977 0.0011537543
0.02747838 0.011878177 0.012731109 0.12680893 -0.44078237 0.8886115 0.00083169364
-0.036361091 0.014672361 0.012450804 -0.31313378 -0.66494161 0.67808533 0.0021036307
-0.034236189 0.014175593 0.012889261 -0.2987223 -0.65943629 0.68986136 0.001894646
-0.031433344 0.01348205 0.01330401 -0.25465521 -0.65293944 0.7133168 0.0017104889
-0.028513579 0.01348522 0.014151777 -0.20604804 -0.62142831 0.75589091 0.0023620385
-0.025483903 0.012671247 0.014295608 -0.17587017 -0.62301695 0.76218081 0.0011192572
-0.022360286 0.01250949 0.014771172 -0.13917662 -0.5991531 0.788445 0.0012328203
-0.020224851 0.012162652 0.014869131 -0.11047932 -0.56168419 0.81994218 0.00094951654
0.0086818943 0.012143623 0.014995547 0.047996715 -0.26822034 0.96216118 0.0023795122
0.010919945 0.012287752 0.014897464 0.063717239 -0.28568727 0.95620233 0.0026166537
0.013476442 0.01252167 0.014785613 0.076694742 -0.31276181 0.94673014 0.0024099208
0.016517632 0.012830085 0.014647339 0.086655967 -0.33773372 0.93724418 0.0020454437
0.019726027 0.013382179 0.014529707 0.10791928 -0.34491977 0.93240744 0.0014807658
0.022496432 0.01358211 0.014299565 0.082106821 -0.34830812 0.93377721 0.0013914887
0.025352053 0.013553368 0.013950716 0.12200049 -0.3894718 0.91292256 0.0014608935
0.02839301 0.013681076 0.013557 0.10289071 -0.38553679 0.91693777 0.0013520176
0.031097565 0.013645369 0.013033646 0.14603317 -0.39833254 0.90554148 0.0012923223
0.034478303 0.013684414 0.012217332 0.19209856 -0.52042168 0.83202124 0.0023250673
-0.04037302 0.017146012 0.012888144 -0.3608239 -0.63403571 0.68396258 0.0017331437
-0.03766251 0.016431427 0.013522149 -0.3073194 -0.62416774 0.71831006 0.0021214408
-0.034740277 0.0160554 0.014319322 -0.24941105 -0.56962657 0.78314734 0.0016227241
-0.031816192 0.01538569 0.014773384 -0.21198054 -0.52775979 0.82251686 0.0021437465
0.022893947 0.015337981 0.014897311 0.083045483 -0.2243706 0.97095895 0.0019456219
0.025635 0.015778417 0.014746596 0.097873338 -0.26388004 0.95957708 0.0023578454
0.028618138 0.016363412 0.014622059 0.11294343 -0.32037905 0.94053227 0.0018294246
0.031506278 0.016671443 0.014404171 0.09173771 -0.32073498 0.94271588 0.0017891969
0.03432814 0.016510811 0.01393106 0.12229887 -0.37475583 0.91902179 0.0026161354
0.03730407 0.016957443 0.01354975 0.18478435 -0.43693748 0.88030708 0.001606125
0.040191445 0.016894396 0.012766186 0.21234718 -0.44533905 0.86981714 0.00094423367
-0.045811746 0.020233186 0.012596965 -0.43076989 -0.59716505 0.67663229 0.0019400585
-0.043362495 0.019561244 0.01336739 -0.3819831 -0.58637601 0.71431929 0.0020565733
-0.04073184 0.01910254 0.014290292 -0.31706986 -0.52458578 0.79011166 0.00093109242
-0.038279753 0.018401716 0.014867407 -0.27478161 -0.53762341 0.79715508 0.0013666101
0.031705279 0.018339897 0.014889378 0.086707823 -0.19591598 0.97677976 0.0022339253
0.03449994 0.018807424 0.014750669 0.11189439 -0.25434318 0.96061921 0.0025660116
0.037462655 0.019411568 0.01456256 0.1565868 -0.32800519 0.93160778 0.0020922571
0.040273193 0.019686788 0.014147972 0.16337457 -0.33430183 0.92819774 0.0019883725
0.043241289 0.019459156 0.013293543 0.19406341 -0.40161222 0.89501232 0.0016046875
0.045935757 0.019956548 0.012805216 0.23538223 -0.38710445 0.89148492 0.0006468246
0.049373753 0.020722291 0.012023484 0.24579668 -0.35029879 0.90381116 0.00041640093
-0.051165376 0.023656208 0.012091269 -0.46875992 -0.5675081 0.67690372 0.0018380149
-0.049189962 0.023097351 0.012864587 -0.43554416 -0.56327802 0.70215327 0.0022297269
-0.046603728 0.022365432 0.013771325 -0.37832269 -0.50420994 0.77630162 0.00070684915
-0.04410306 0.02165935 0.014620761 -0.34217107 -0.49940741 0.79593414 0.0034381195
-0.0043017878 0.023741649 0.014738415 0.1028895 0.50399995 0.8575533 0.0014302275
-0.0013137563 0.023333274 0.014650398 0.075894326 0.4295935 0.89982748 0.0024269798
0.0015618249 0.023099924 0.014562112 0.048425287 0.43942574 0.89697266 0.0021439213
0.0044858051 0.022975102 0.014509006 0.022220882 0.43691379 0.89922887 0.0022510744
0.0075032087 0.022906641 0.014493866 -0.0014816986 0.43331671 0.90124047 0.0020664306
0.010524162 0.022940936 0.014536102 -0.023360614 0.41029784 0.91165233 0.0024483539
0.013494525 0.023046397 0.014592088 -0.052445974 0.39058018 0.91907382 0.0023438078
0.016420981 0.023235109 0.014708676 -0.06939213 0.34381956 0.9364683 0.003028946
0.019307617 0.023496257 0.014797981 -0.07530833 0.29469228 0.95262015 0.0032276229
0.022178456 0.023820799 0.014936309 -0.074310698 0.22953427 0.9704597 0.0032188478
0.040737547 0.021755859 0.014776096 0.14908195 -0.24449591 0.9581213 0.0028109157
0.04330327 0.02274443 0.014626197 0.16929866 -0.2744244 0.94658822 0.0039016895
0.046489041 0.022910118 0.013938439 0.21733648 -0.31683964 0.92324293 0.0026761659
0.048993718 0.023003424 0.013231528 0.24317007 -0.32407358 0.91424543 0.0011698026
0.051322013 0.023060644 0.012546327 0.26947457 -0.30959702 0.91188443 0.00096506334
-0.054303758 0.026858129 0.012289504 -0.51589388 -0.49570704 0.69866157 0.0011601889
-0.052217815 0.025763828 0.012896278 -0.47525769 -0.50418735 0.72105843 0.0019371425
-0.049780916 0.025327988 0.014078656 -0.41162521 -0.44283792 0.79652959 0.0014451543
-0.047523625 0.02448828 0.014720924 -0.35502508 -0.40929025 0.84049904 0.0028158983
-0.015771361 0.026700161 0.01486243 0.18101157 0.50714761 0.84263641 0.00057224318
-0.01338521 0.026319228 0.014602844 0.16162419 0.48734757 0.85812002 0.0020712106
-0.010453761 0.026034916 0.014244453 0.15071769 0.51331538 0.84486181 0.0015249592
-0.0075299065 0.025600579 0.01401165 0.12929322 0.52967262 0.8382901 0.0012638225
-0.0045972513 0.025595883 0.013611977 0.10495276 0.53501433 0.83829862 0.0011173735
-0.0015774203 0.025518751 0.013325116 0.081060447 0.58734834 0.80526459 0.0014273338
0.0014963394 0.025515473 0.013089596 0.049959723 0.5833118 0.81071037 0.0016995452
0.0045932415 0.025473598 0.013018508 0.0185847 0.57729995 0.8163206 0.0017213658
0.0074694576 0.02540463 0.013040792 -0.0023683389 0.55136305 0.83426207 0.002860127
0.010333018 0.0255324 0.013068484 -0.045408938 0.5567227 0.82945633 0.0020266953
0.013473948 0.025571231 0.01323679 -0.073374994 0.54699975 0.83391094 0.0026675151
0.016498243 0.025493171 0.013599384 -0.089322701 0.4673402 0.87955362 0.0012978716
0.019472323 0.025585432 0.013887936 -0.10470682 0.44045487 0.89164788 0.0017458382
0.022483865 0.025508998 0.014312943 -0.092227399 0.39794201 0.912763 0.0034844959
0.025355089 0.025752993 0.014549505 -0.11379029 0.3691541 0.9223758 0.0026172702
0.028316187 0.026226031 0.014714799 -0.10571928 0.31046602 0.94468743 0.0033980154
0.031134242 0.02646029 0.014871881 -0.08296027 0.23123275 0.96935499 0.0033715935
0.034415498 0.026889555 0.014999104 -0.063791022 0.16123435 0.98485237 0.0023024592
0.044539753 0.024508113 0.014855906 0.10659847 -0.14506949 0.98366237 0.0030843182
0.046635389 0.025667464 0.0147343 0.19195734 -0.22413307 0.95546675 0.002344823
0.049659636 0.025540594 0.013985554 0.24043676 -0.2510663 0.9376331 0.0013159601
0.052499257 0.025472825 0.013073778 0.25426221 -0.30057508 0.91924173 0.001050022
0.05505535 0.026527328 0.01251417 0.28029785 -0.24427661 0.92831141 0.00081817916
-0.057043105 0.029849874 0.012179986 -0.55818242 -0.43684527 0.70540661 0.0021345704
-0.055265274 0.028855249 0.012880737 -0.50621676 -0.42831483 0.74852592 0.0021700263
-0.052691862 0.028332969 0.014087815 -0.42740151 -0.37199304 0.82398367 0.0012001847
-0.050407458 0.02741145 0.014814523 -0.36924699 -0.32362407 0.87116253 0.0034870403
-0.022259843 0.029486328 0.014647488 0.212771 0.50534379 0.83627516 0.0017680245
-0.019403264 0.028834604 0.014331412 0.21236984 0.54192239 0.81315386 0.0012609938
-0.016490128 0.028622286 0.013725197 0.19725183 0.56558168 0.80075538 0.0010867025
-0.013535956 0.028258992 0.013275011 0.18043974 0.58394903 0.79148281 0.00099295762
-0.010619653 0.027952371 0.012877669 0.16259031 0.64271486 0.74865353 0.0013550898
-0.0075479094 0.02760656 0.012544613 0.13913229 0.65622008 0.74163163 0.0014809328
-0.0045618182 0.027402097 0.012245575 0.10467021 0.66786855 0.73688251 0.0013386171
-0.0014556576 0.027071781 0.012133526 0.081192866 0.67872465 0.7298907 0.0012273673
0.01177267 0.027082741 0.012024688 -0.057694253 0.67727381 0.73346543 0.0014769403
0.014102913 0.02722379 0.012156907 -0.087785639 0.66051841 0.74566019 0.0021175367
0.016642772 0.027444528 0.012352495 -0.11805006 0.63243455 0.76556557 0.0023128847
0.019520948 0.027811674 0.012524915 -0.12905225 0.59522247 0.7931304 0.002126799
0.022525912 0.028089333 0.012877554 -0.15163071 0.55934715 0.81494719 0.0023610853
0.025472527 0.028502742 0.013174456 -0.16292687 0.52555436 0.83501339 0.002385224
0.028419351 0.028587516 0.013682944 -0.13394068 0.47096929 0.87192196 0.0036321571
0.0314238 0.028554643 0.014171666 -0.12543121 0.39145106 0.91161019 0.0020283696
0.034449879 0.028534338 0.0145306 -0.12693076 0.34047753 0.93164569 0.0026329979
0.03727968 0.028907208 0.014740127 -0.11591024 0.27305067 0.95499116 0.0030016752
0.040236127 0.02941804 0.014892799 -0.083175682 0.1893775 0.9783752 0.0025087218
0.042589575 0.029744962 0.014976192 -0.028340381 0.10152797 0.99442887 0.0028289638
0.047448691 0.02757939 0.014916671 0.11176049 -0.11387457 0.98718905 0.0037847052
0.049415234 0.028559983 0.014731064 0.16476989 -0.10756655 0.98044902 0.0025094326
0.052518036 0.028575694 0.0139877 0.23041874 -0.19062811 0.95423692 0.0022377088
0.055083964 0.029090181 0.013342586 0.2566523 -0.16527839 0.95226705 0.0024864485
-0.057805829 0.031876512 0.012598137 -0.51325291 -0.33756503 0.78906357 0.0025934407
-0.055525355 0.031481765 0.01381478 -0.44991362 -0.26845351 0.85176897 0.0013266165
-0.053390093 0.030749777 0.014756265 -0.39147332 -0.23032726 0.89089733 0.0028929028
-0.031215537 0.032848138 0.014909517 0.23149177 0.51996666 0.82222027 0.0011861359
-0.028364718 0.032192692 0.014526458 0.24274427 0.52723014 0.81431174 0.0015181412
-0.025376728 0.031654805 0.013969776 0.24862923 0.57263333 0.78120077 0.0010836307
-0.022571305 0.031399444 0.013277017 0.24598564 0.62046832 0.74465442 0.0020243665
-0.019718409 0.030816112 0.01287781 0.232063 0.62452149 0.74573427 0.001266088
-0.016817326 0.030495495 0.012282723 0.21696377 0.68587691 0.69462186 0.0014507462
-0.014599116 0.030059922 0.012034772 0.17498457 0.65124446 0.73841792 0.0015661365
0.026126878 0.030202204 0.012113705 -0.19067639 0.63514268 0.74848932 0.0012934512
0.028601922 0.0306032 0.012468722 -0.18775722 0.59167171 0.78401005 0.0022246533
0.03165397 0.031218573 0.012759951 -0.1840978 0.5364095 0.82363397 0.0035559633
0.034500048 0.0315242 0.013188974 -0.18497278 0.4822641 0.85627472 0.0034535201
0.03742972 0.031471744 0.013869567 -0.16422524 0.37638086 0.91179359 0.0017228678
0.040541593 0.031568006 0.01431834 -0.14614514 0.32379892 0.93477046 0.0022484632
0.043523397 0.031572487 0.014678397 -0.05735033 0.20640421 0.97678471 0.0016613916
0.046372958 0.031831767 0.014815951 -0.06192743 0.17756532 0.9821586 0.00205732
0.049396265 0.031573556 0.014804116 0.028599648 0.10842769 0.99369287 0.0024687175
0.052463368 0.031640906 0.014478249 0.1685366 -0.040246733 0.98487335 0.0034426809
0.055310167 0.031537484 0.013799705 0.25114676 -0.11399167 0.96121341 0.0039192908
0.057600778 0.031629652 0.012998261 0.2686725 -0.14732377 0.95189857 0.0021272281
-0.060216665 0.035083182 0.012155613 -0.5642879 -0.25795203 0.78424484 0.0032735728
-0.058488242 0.034552213 0.013123464 -0.50717765 -0.24278563 0.82693768 0.0015834632
-0.055750836 0.034397822 0.014489989 -0.40910634 -0.15279877 0.89960241 0.0017981663
-0.036863547 0.035623346 0.014742034 0.21811639 0.53925031 0.81340909 0.0011219825
-0.034389149 0.035093058 0.014371279 0.24583592 0.56238401 0.78948653 0.00055834278
-0.031426977 0.034539171 0.013776149 0.25059044 0.56355935 0.78715008 0.0005510074
-0.028544351 0.034171961 0.013026852 0.27975139 0.64413857 0.71191615 0.0011148056
-0.025693437 0.033514608 0.012552635 0.26745814 0.67849815 0.684183 0.0011524973
0.035055812 0.03339937 0.012217846 -0.23433562 0.59157622 0.77144313 0.0022561264
0.037696909 0.033886522 0.012626206 -0.23709953 0.52626145 0.81659824 0.0038499408
0.040484499 0.034514531 0.013039052 -0.20828956 0.45006165 0.86836624 0.0036675842
0.043449968 0.034607485 0.013685411 -0.16558367 0.3818633 0.9092648 0.0027957528
0.046509635 0.034556542 0.014169563 -0.10546523 0.27658892 0.95518357 0.0029048487
0.04957002 0.034620032 0.014397077 -0.0336629 0.20830891 0.97748363 0.0035661217
0.052724414 0.034415174 0.01438269 0.12424744 0.079441123 0.98906612 0.0086267935
0.055716764 0.034636281 0.013937536 0.19838774 0.014524166 0.98001599 0.0042147199
0.058544289 0.034503512 0.013132279 0.26155058 -0.018214162 0.96501791 0.0016344133
0.06057696 0.034779489 0.012455832 0.26379359 -0.014172945 0.96447504 0.0017348169
-0.060679372 0.03768811 0.012452881 -0.51064813 -0.13135351 0.84969693 0.0028885475
-0.058484003 0.037458781 0.0135648 -0.40453985 -0.045158755 0.9134047 0.0038512233
-0.055781074 0.037584782 0.014648608 -0.29705447 0.024234362 0.95455295 0.006037686
-0.045756549 0.038770601 0.014900214 0.11341985 0.39898473 0.90991598 0.0026820048
-0.043228533 0.038332824 0.014678955 0.18121773 0.4715296 0.86302954 0.0023092455
-0.040354334 0.037894778 0.014228039 0.21992528 0.52548933 0.82188433 0.001075938
-0.037498564 0.037440944 0.013652374 0.26240563 0.57192707 0.77720183 0.0012775912
-0.034691103 0.037085548 0.012920225 0.27939034 0.63090712 0.72380745 0.0015971733
-0.032026745 0.036416981 0.012449245 0.29487979 0.63425744 0.71467704 0.0011926636
0.041297421 0.036397375 0.012178912 -0.27826524 0.56273818 0.77839208 0.0023384222
0.04372457 0.036998719 0.012584335 -0.23104778 0.49663451 0.83664274 0.0037202062
0.04647978 0.037520356 0.013003977 -0.21757653 0.44520754 0.86859125 0.0015269727
0.049409188 0.037560869 0.013522953 -0.099510126 0.33777994 0.93594998 0.0030813902
0.052373137 0.037573148 0.013790098 -0.018861676 0.26153138 0.96501064 0.0036485917
0.055476725 0.037472982 0.013760294 0.087135978 0.17994086 0.97981054 0.0057115043
0.05862689 0.037583426 0.013263599 0.22185566 0.059943028 0.97323525 0.0041999831
0.06145972 0.038096439 0.012411254 0.25962743 0.060097914 0.96383703 0.0033151982
-0.060996804 0.040501215 0.012541986 -0.44054446 0.015062665 0.89760441 0.0037662822
-0.058504201 0.040446948 0.013567326 -0.31439075 0.11512951 0.94228637 0.0052468642
-0.055519007 0.040426545 0.014288764 -0.19735064 0.24987899 0.94795221 0.0064325333
-0.052597329 0.040691435 0.014507386 -0.023941074 0.33795238 0.94085866 0.0049316301
-0.049448602 0.040674772 0.01441119 0.094449274 0.44145 0.89230108 0.0016163799
-0.046492565 0.040458716 0.014064666 0.15778381 0.49864954 0.85232204 0.0012128773
-0.043585587 0.040451296 0.013369306 0.24917816 0.54357564 0.80152094 0.0010279639
-0.040761732 0.040029395 0.012766514 0.27178359 0.62807763 0.72914481 0.0016465675
-0.03827136 0.039313234 0.012413692 0.29679433 0.66540933 0.68494052 0.0013209876
0.04716973 0.03938159 0.012227179 -0.2551603 0.52630383 0.81110877 0.0027395145
0.04959137 0.039920133 0.012511154 -0.19241814 0.45734608 0.86822218 0.0029903196
0.052395292 0.040532161 0.012736 -0.11061235 0.37102324 0.92201227 0.0031290557
0.055423759 0.040503498 0.013038117 0.0031459352 0.28330857 0.95902377 0.0031141045
0.058555402 0.040400762 0.012903173 0.11627579 0.20121446 0.97262156 0.0036212069
0.061223149 0.040684097 0.012325398 0.26812816 0.09455552 0.95873171 0.0028312546
-0.060893133 0.043370068 0.012294456 -0.3497844 0.15748423 0.92349857 0.0036409341
-0.058514316 0.043436754 0.012964407 -0.19308892 0.24903251 0.94905192 0.0050709997
-0.055495132 0.043488804 0.013339432 -0.068467878 0.36227497 0.92955315 0.0039654793
-0.052542184 0.043515041 0.013231958 0.066359155 0.45271459 0.88918275 0.0041641584
-0.049689561 0.043324612 0.012945013 0.15285961 0.53136623 0.83323693 0.0027869595
-0.046754729 0.042805228 0.012598363 0.22288419 0.58565181 0.77931678 0.0024198566
-0.044377733 0.042321172 0.012216825 0.27489278 0.63450462 0.72238344 0.0021870302
0.053091433 0.042216346 0.012095169 -0.18850708 0.48854348 0.85193336 0.0022722704
0.055505294 0.042629059 0.012246842 -0.086159952 0.40637001 0.90963721 0.0037944783
0.058492865 0.042867187 0.012296352 0.034962974 0.31495154 0.94846356 0.0032493884
0.060896568 0.042467691 0.012168332 0.21406581 0.18844783 0.95846921 0.0040715523
-0.060576227 0.045186438 0.012023509 -0.29960701 0.2165176 0.92916942 0.0051709204
-0.058389664 0.045512952 0.012258598 -0.13833329 0.34920362 0.92677981 0.0063288324
-0.055551406 0.045618556 0.012325147 0.02141656 0.48471442 0.87441027 0.0032971515
-0.052732829 0.045213196 0.012303628 0.13887812 0.5630585 0.81466436 0.0024044323
-0.016428044 0.011880625 0.015174399 -0.080782659 -0.53489828 0.84104574 0.0013723336
-0.013450514 0.011694262 0.015260113 -0.046261933 -0.50368583 0.86264735 0.0019186556
-0.010552742 0.011379838 0.015233803 -0.019377021 -0.47233903 0.88120389 0.0020606753
-0.0074251578 0.011446426 0.01528244 0.0020040378 -0.44350746 0.89626843 0.001847158
-0.0045279479 0.011413842 0.015245772 0.014115885 -0.43298146 0.90129232 0.0022229799
-0.0014144119 0.011390106 0.015156698 0.026563961 -0.4099589 0.91171712 0.0018323691
0.0014497153 0.011606051 0.015143639 0.03644935 -0.40512291 0.91353536 0.0019636336
0.0044160262 0.011791439 0.015075924 0.044011239 -0.39878109 0.9159894 0.001642948
-0.027578129 0.014862018 0.01536609 -0.17567098 -0.56166637 0.80849892 0.0015272124
-0.025321711 0.014172173 0.015361645 -0.13599752 -0.51629704 0.84554243 0.0020688798
-0.022432394 0.013941469 0.015657026 -0.097550295 -0.47621149 0.87390304 0.0026172709
-0.019448588 0.013698895 0.015826963 -0.068577573 -0.430978 0.8997528 0.0027077594
-0.016584318 0.013521907 0.015962135 -0.045137942 -0.38256374 0.92282581 0.0023374059
-0.013587139 0.013483211 0.016045175 -0.0067885877 -0.34098867 0.94004291 0.0025949944
-0.010521744 0.013530428 0.016094655 0.0091458885 -0.30823627 0.95126581 0.0023747829
-0.0074811392 0.013591552 0.016066782 0.021886293 -0.27879584 0.96010095 0.0025108778
-0.0044808579 0.013503709 0.015963435 0.035215683 -0.25755036 0.96562296 0.0024475239
-0.0014688768 0.013479624 0.015835118 0.036976598 -0.23610608 0.9710235 0.0022045525
0.0014397404 0.013501409 0.015724091 0.042065021 -0.22079818 0.97441202 0.0019680706
0.0044287471 0.013502146 0.015576363 0.059586298 -0.22539237 0.97244424 0.0019282134
0.0074569383 0.013660467 0.015477476 0.04075725 -0.20931564 0.97699839 0.0015056974
0.010361324 0.013733188 0.015342379 0.029304598 -0.24627431 0.96875703 0.0022607679
0.013384926 0.014160654 0.015278443 0.054825369 -0.24963935 0.96678561 0.0021156762
0.016672013 0.014450507 0.015141897 0.063981958 -0.28269815 0.95707268 0.0023571416
0.019216673 0.014761209 0.015038623 0.076643549 -0.30968928 0.94774383 0.0020192873
-0.036554102 0.017830268 0.015041845 -0.26417381 -0.55487144 0.78887892 0.0016390642
-0.034160271 0.017327113 0.015379407 -0.22081257 -0.5227012 0.82342285 0.0025973083
-0.031401508 0.016860601 0.015797619 -0.17277524 -0.47885835 0.86072254 0.0027893817
-0.028480453 0.016629893 0.01618729 -0.12496211 -0.41986114 0.89894438 0.0026677449
-0.025486181 0.016437707 0.016481699 -0.080594949 -0.37818813 0.92221373 0.0032437558
-0.022426445 0.016477069 0.016757524 -0.050699003 -0.32712418 0.94362038 0.0033888079
-0.019451622 0.016529519 0.016892252 -0.023240943 -0.28371766 0.95862615 0.0043098563
-0.016462581 0.016481759 0.016912924 0.010435847 -0.22689581 0.97386312 0.0041142409
-0.013474153 0.016427118 0.016839182 0.027006652 -0.18515326 0.98233849 0.0042102728
-0.010415591 0.016632209 0.01675261 0.039123204 -0.14810877 0.98819691 0.004629232
-0.0074559087 0.016437715 0.016584547 0.052269015 -0.11377642 0.99213046 0.0044104792
-0.0044624568 0.016548149 0.016425522 0.054755241 -0.087527439 0.99465615 0.0043586316
-0.0014528097 0.016474506 0.016259417 0.055263083 -0.070895821 0.99595171 0.0044311355
0.0015016561 0.016483614 0.016114568 0.046249639 -0.058660619 0.99720603 0.0038725515
0.004503964 0.016592711 0.015977241 0.04041554 0.020056931 0.9989816 0.0039038241
0.0073231068 0.016587507 0.015872931 0.040893164 -0.056114819 0.99758649 0.0030285041
0.010421098 0.0165544 0.01576183 0.030791029 -0.063914374 0.99748027 0.0029588656
0.013570684 0.016615324 0.015653891 0.028440626 -0.085693419 0.99591553 0.0024695096
0.016400293 0.01662821 0.015541508 0.030868238 -0.10396282 0.99410206 0.0023463345
0.019457204 0.016581863 0.015388133 0.044600017 -0.13188064 0.99026173 0.0016853865
0.022488846 0.016727407 0.015219444 0.053048711 -0.16197525 0.98536789 0.0017494111
0.025413673 0.017389167 0.01515605 0.059367597 -0.20768711 0.97639209 0.0020644071
0.027836151 0.017773069 0.015094442 0.071280569 -0.2565532 0.96389812 0.0021103313
-0.039969873 0.020338774 0.01538901 -0.30085897 -0.48229375 0.82272512 0.0025110457
-0.037476383 0.019746356 0.015885195 -0.25725353 -0.46743011 0.84577167 0.0017891764
-0.034502275 0.019477164 0.016438192 -0.19858801 -0.41455141 0.88809347 0.0015649357
-0.031518091 0.019553782 0.016961699 -0.11183862 -0.33236808 0.93649536 0.0040835175
-0.028508645 0.019564116 0.017278301 -0.060206052 -0.27141535 0.96057743 0.0039206231
-0.025473977 0.019491527 0.017387476 -0.042640362 -0.21952438 0.97467476 0.007069183
-0.022614706 0.019486688 0.017417543 0.01013579 -0.15954395 0.98713875 0.0066806185
-0.019606546 0.019528888 0.017333217 0.04483695 -0.033228435 0.99844152 0.0027520382
-0.016388457 0.019452093 0.017157514 0.054904338 0.026530551 0.99813908 0.0025917669
-0.013456298 0.019579479 0.016932271 0.075236112 0.13239516 0.98833752 0.005420303
-0.01054381 0.019406356 0.016710583 0.081955954 0.16251799 0.98329604 0.0041875951
-0.0074901255 0.019508664 0.016439499 0.074840911 0.18599926 0.97969538 0.0031249649
-0.0044744047 0.019427964 0.016213045 0.067345709 0.1977718 0.97793198 0.0030247099
-0.0014752195 0.019497767 0.015992908 0.057865776 0.2001137 0.97806239 0.0026274782
0.0015161399 0.019584987 0.015799634 0.041837428 0.19737989 0.97943389 0.0025419279
0.0045284661 0.019447234 0.015712794 0.030958381 0.18999201 0.98129743 0.002416543
0.0075642611 0.019686949 0.015570859 0.021364933 0.17722389 0.98393869 0.0025010174
0.010505977 0.019398391 0.015600665 0.011533272 0.15555592 0.98775971 0.002331736
0.013430752 0.019700585 0.015537317 0.007727515 0.12892412 0.99162436 0.0025845694
0.016533382 0.019430434 0.015578701 0.0056764768 0.091506727 0.99578828 0.0026933379
0.019576021 0.019627437 0.015542609 0.013132584 0.055512387 0.99837166 0.0028464792
0.022330528 0.019497907 0.0155076 0.020284865 -0.033132643 0.99924511 0.0020556636
0.02537513 0.019700956 0.015412913 0.018512458 -0.058585417 0.99811071 0.0019089975
0.0284761 0.019480288 0.015282579 0.068443894 -0.13016306 0.9891274 0.0015870027
0.031439207 0.019776577 0.015187693 0.045793049 -0.12948264 0.9905237 0.0016357754
0.034320537 0.020410199 0.015124856 0.059816435 -0.1945855 0.97905999 0.0024075799
0.036856778 0.020793503 0.015031103 0.1010176 -0.25428954 0.96183801 0.0023330047
-0.045594186 0.02366101 0.015088405 -0.3552964 -0.46938094 0.8083601 0.0025919576
-0.043263998 0.022872239 0.015615813 -0.29450724 -0.42175066 0.85754991 0.0031363775
-0.040504042 0.022499597 0.016291432 -0.22989707 -0.35606375 0.9057405 0.0033253578
-0.037507828 0.022515155 0.016978089 -0.16464369 -0.29904422 0.93992817 0.0041931747
-0.034544148 0.022514589 0.017428661 -0.095341198 -0.23876928 0.96638459 0.0058439295
-0.031445876 0.022561951 0.01762734 -0.044046655 -0.049539242 0.99780047 0.008027669
-0.028384387 0.022498447 0.017666174 0.0081055425 -0.026816031 0.99960744 0.0032552436
-0.025317144 0.022338754 0.017572815 0.045457024 0.052334644 0.99759448 0.0029821624
-0.022458721 0.022666989 0.017341435 0.078813799 0.17125241 0.98206979 0.0057683536
-0.019534443 0.022450715 0.017099375 0.097813562 0.21962574 0.97066826 0.0043518269
-0.016531017 0.022535812 0.016732085 0.11263405 0.2613382 0.95865309 0.0034448605
-0.013510644 0.022494815 0.016351227 0.11149924 0.29020518 0.95044667 0.0026633155
-0.010508238 0.022530958 0.015963128 0.10651145 0.31675404 0.94250846 0.0023527504
-0.0074892067 0.022441177 0.015629528 0.095639594 0.33332497 0.93794858 0.002156412
-0.0045737345 0.022128223 0.015455006 0.083616979 0.35771173 0.93008095 0.0023264317
-0.0016500261 0.021817958 0.01532754 0.063576758 0.37628528 0.92432004 0.0025766192
0.0014327033 0.021555733 0.015243312 0.046525348 0.38897517 0.92007273 0.002729313
0.0045262584 0.021404201 0.015194232 0.026765805 0.3893449 0.92070311 0.0026223136
0.007353493 0.021473825 0.015118824 0.0093653658 0.37726393 0.92605847 0.0028971888
0.010409682 0.021411058 0.015140244 -0.0089274086 0.36357901 0.93152058 0.0028472685
0.013662463 0.021481592 0.015147768 -0.023187146 0.32994246 0.94371617 0.0033383337
0.016500443 0.021838954 0.015166947 -0.030122016 0.28229249 0.95885533 0.0030294987
0.019538786 0.02195497 0.015256113 -0.030418722 0.22580847 0.97369671 0.003365193
0.022431314 0.022478616 0.015264901 -0.026686065 0.16001163 0.98675436 0.0026051824
0.025484217 0.022496277 0.015355799 -0.011969622 0.10002957 0.99491251 0.0024371417
0.028504541 0.022595832 0.015383005 0.0015193624 0.057137929 0.99836516 0.0020756503
0.03131846 0.022458766 0.015360608 0.012703784 0.0052096578 0.99990571 0.002678823
0.034343485 0.022635359 0.015335604 0.024108028 -0.020711029 0.99949479 0.0022712753
0.03752869 0.0225494 0.015211058 0.070673957 -0.10810583 0.99162412 0.0037792206
0.040252734 0.023133647 0.015117074 0.079056285 -0.14877599 0.98570579 0.0020669394
-0.048564225 0.02635045 0.015217721 -0.36584732 -0.39119449 0.84446585 0.0027574371
-0.046291478 0.025588868 0.01573451 -0.30047828 -0.33742762 0.89210731 0.0040994459
-0.043455929 0.02553615 0.016576057 -0.22128414 -0.27688009 0.93507785 0.0041675288
-0.040537376 0.025492419 0.01720277 -0.14856048 -0.21424709 0.96541589 0.0055705686
-0.037611898 0.025497332 0.017533783 -0.097042531 -0.086983927 0.99147189 0.0043626865
-0.034524854 0.025440885 0.017687738 -0.021279858 0.011257463 0.9997102 0.0038317703
-0.031469386 0.025590392 0.017621562 0.045554332 0.10412962 0.9935199 0.0032644423
-0.028448371 0.025562583 0.017400336 0.092811249 0.22525002 0.96987033 0.0050136596
-0.025482999 0.025463756 0.017093245 0.10762358 0.27620858 0.95505279 0.0034247097
-0.022520224 0.025514454 0.016657243 0.12948291 0.32494539 0.93682688 0.0030084474
-0.019486772 0.025560975 0.016145384 0.16562717 0.38331857 0.90864426 0.0015906501
-0.016614404 0.025317458 0.015751336 0.16965707 0.42608595 0.88863224 0.0018285996
-0.013607618 0.024928592 0.015430126 0.13749877 0.44296345 0.8859331 0.0022142285
-0.010576367 0.024476025 0.015183709 0.13144922 0.47078377 0.87240124 0.0019806407
-0.0080960337 0.024109907 0.015010005 0.11950082 0.49290723 0.86183637 0.0016829856
0.025698176 0.024283286 0.015064673 -0.055411119 0.16374056 0.98494601 0.0026440239
