# .PCD v0.7 - Point Cloud Data file format
VERSION 0.7
FIELDS x y z normal_x normal_y normal_z curvature
SIZE 4 4 4 4 4 4 4
TYPE F F F F F F F
COUNT 1 1 1 1 1 1 1
WIDTH 553
HEIGHT 1
VIEWPOINT 0 0 0 1 0 0 0
POINTS 553
DATA ascii
-0.021336032 0.032746676 -0.011761845 0.24014349 0.68963236 -0.6831826 0.0031071862
-0.019266266 0.032358132 -0.011414501 0.24921979 0.7026549 -0.66645753 0.00043789783
-0.016552709 0.031825952 -0.010985358 0.23994511 0.74485958 -0.62258369 0.0011356216
-0.01363239 0.031195492 -0.010680849 0.20411626 0.74927002 -0.63002455 0.0022866013
-0.010520047 0.030716129 -0.010353853 0.17814212 0.7510671 -0.63573861 0.0014078392
-0.0074043423 0.03039607 -0.009949442 0.14186521 0.76341271 -0.63013917 0.0014169011
-0.0045457347 0.030261219 -0.0095154746 0.11044547 0.77274233 -0.6250369 0.0011469465
-0.0015464062 0.030029755 -0.009311269 0.08076594 0.77743834 -0.62375194 0.0011615201
0.00055731449 0.030033106 -0.0090713976 0.052834496 0.82077605 -0.56880158 0.0037974454
0.008909462 0.030044883 -0.0090565784 -0.030841682 0.81363118 -0.58056271 0.0034765739
0.010635321 0.030046901 -0.0093077477 -0.083934188 0.7925896 -0.60395098 0.0010255651
0.013670952 0.030232655 -0.0095712021 -0.11977168 0.78735948 -0.60474765 0.0016134081
0.016515423 0.030479908 -0.0099795973 -0.16721985 0.77796066 -0.60565227 0.0014221467
0.019619098 0.030859029 -0.010398625 -0.19858702 0.77407157 -0.60114586 0.0023531332
0.022434006 0.031514704 -0.01058654 -0.23269808 0.76511115 -0.60038024 0.00082994596
0.025327455 0.031953387 -0.011148164 -0.23289055 0.75724185 -0.61020213 0.0013074972
0.027943976 0.032367807 -0.011646318 -0.24204692 0.68879056 -0.68336004 0.00095783273
0.062539093 0.031324204 -0.011465068 0.53018087 -0.26860535 -0.80421358 0.00037065076
0.064714111 0.032201581 -0.010146634 0.5196144 -0.21875189 -0.82592279 0.0022505538
-0.063185461 0.035974994 -0.0091246171 -0.61544496 -0.42324775 -0.66489768 0.0024375392
-0.061265901 0.034854248 -0.010160422 -0.5918296 -0.39459664 -0.70287353 0.0014247169
-0.05921042 0.034244481 -0.011463493 -0.53702867 -0.34398592 -0.77024275 0.0019485836
-0.027866501 0.035614766 -0.011570221 0.3035197 0.69810927 -0.64847451 0.0017891048
-0.025415042 0.035007235 -0.011097486 0.30899796 0.71972418 -0.62170529 0.0011089474
-0.022587098 0.034294236 -0.010578915 0.26933849 0.73513114 -0.62212461 0.0017093442
-0.019550469 0.033632364 -0.010040246 0.26946899 0.75069684 -0.60319215 0.0012023499
-0.017446063 0.033245496 -0.0095734065 0.24310096 0.75508833 -0.6088872 0.0013654046
0.02373049 0.03301724 -0.0091711711 -0.2471135 0.78178853 -0.57248729 0.00089527137
0.025931012 0.033295121 -0.0097479289 -0.24367654 0.77666152 -0.58087742 0.0010747396
0.028664682 0.033673421 -0.010379652 -0.26300338 0.76216167 -0.59155631 0.0013603538
0.031449415 0.034505874 -0.010581511 -0.28962517 0.76599967 -0.57390046 0.0014359268
0.034210917 0.035053987 -0.01122077 -0.30678046 0.71746808 -0.62540013 0.0010056332
0.036378682 0.035565123 -0.011769563 -0.31260037 0.69142431 -0.6513167 0.0030963316
0.064022958 0.034524634 -0.011491628 0.54384297 -0.15637654 -0.82448846 0.0022251154
-0.063764185 0.03800635 -0.0097060381 -0.62280577 -0.33268872 -0.70811802 0.0027324031
-0.06171307 0.037560232 -0.011068688 -0.54571158 -0.26625237 -0.79454935 0.0016968736
-0.059899781 0.03640658 -0.011905384 -0.54311091 -0.27453616 -0.79351145 0.0017377035
-0.034147426 0.038668383 -0.011441338 0.32973573 0.6871987 -0.64732701 0.0019236052
-0.031360261 0.037803832 -0.010945604 0.34188741 0.71753156 -0.60684556 0.0013141923
-0.028658787 0.036982417 -0.010453891 0.32871503 0.72899008 -0.60043311 0.0016838136
-0.025881017 0.03654382 -0.0093811294 0.31620446 0.74410927 -0.58848631 0.0010194804
0.032972191 0.036059614 -0.0092015229 -0.32692522 0.76854366 -0.54996419 0.00072801224
0.034843341 0.036470328 -0.0098540168 -0.3367739 0.75099623 -0.56796837 0.0013873811
0.03761299 0.037192754 -0.010530098 -0.34936416 0.73589128 -0.58000755 0.0015797949
0.040266242 0.038067721 -0.011130596 -0.36951095 0.69654924 -0.61504531 0.0020741301
0.042634722 0.038639296 -0.011887464 -0.34002912 0.61147279 -0.71447963 0.0013620941
0.064759485 0.037383467 -0.011512158 0.4776352 -0.023934938 -0.87823212 0.0019990895
-0.066270679 0.041942183 -0.0090986723 -0.64936125 -0.24851973 -0.71872652 0.0026526474
-0.064396665 0.040758926 -0.010133227 -0.5678978 -0.21394028 -0.79480922 0.0047035217
-0.062220912 0.040494945 -0.011543495 -0.49343637 -0.13267431 -0.85960346 0.0026580754
-0.04010611 0.041481961 -0.011487401 0.31915456 0.68542439 -0.65447211 0.002476946
-0.037341021 0.040683802 -0.010921827 0.34065473 0.71842605 -0.60648036 0.0015237669
-0.0347852 0.0400603 -0.010213202 0.33908698 0.72887141 -0.59478271 0.0013739772
-0.0321749 0.03925683 -0.009648121 0.34634572 0.73857534 -0.57840395 0.00081070152
0.040801328 0.039519764 -0.0098198773 -0.40267518 0.70575804 -0.58288789 0.0012553172
0.043490618 0.040417183 -0.010498651 -0.36276516 0.6715377 -0.64609498 0.00087421795
0.046252877 0.041174505 -0.01128686 -0.323888 0.63964099 -0.69710541 0.00097152771
0.048505805 0.041762911 -0.01178219 -0.26480317 0.62812889 -0.7316649 0.0025204548
0.064353392 0.040484775 -0.011887664 0.4290669 0.10080132 -0.89763063 0.0039187116
0.067022063 0.040818229 -0.010125927 0.52896386 0.067749836 -0.8459357 0.00064340944
-0.066407427 0.043837126 -0.0093423603 -0.58607644 -0.12608778 -0.80038506 0.0041444697
-0.064481303 0.043636147 -0.01057407 -0.46771553 -0.016818928 -0.88371903 0.002941591
-0.062243033 0.043788385 -0.011708885 -0.41378808 0.019497465 -0.91016442 0.0037434276
-0.048658572 0.044879179 -0.011864837 0.20731394 0.57428539 -0.79197043 0.002681894
-0.046379682 0.044509578 -0.01140216 0.26920354 0.6524542 -0.70840174 0.001780819
-0.043416325 0.043686502 -0.01084783 0.31229633 0.66756839 -0.67588717 0.0021800848
-0.040763069 0.042937998 -0.010281325 0.33307436 0.71789783 -0.61129707 0.0014271841
-0.038254861 0.042413287 -0.009428978 0.35801566 0.73010439 -0.58204144 0.00067282107
0.044643346 0.042254247 -0.0092004724 -0.42334604 0.70482892 -0.56920505 0.0018032647
0.046806779 0.042843312 -0.0099090422 -0.38634741 0.67288721 -0.63083953 0.0016977761
0.049485009 0.043571893 -0.010584966 -0.30487031 0.63353872 -0.71111369 0.0010028373
0.052366875 0.04424154 -0.011228694 -0.26100293 0.61541694 -0.74373353 0.0019777787
0.055286031 0.044764604 -0.011696591 -0.17054205 0.5433042 -0.82203162 0.0023632939
0.057517204 0.044998594 -0.011955042 -0.062022526 0.47244969 -0.87917262 0.0042411694
0.062365327 0.044328358 -0.011977522 0.18409298 0.28786385 -0.93981069 0.001752079
0.064441495 0.043653987 -0.011423868 0.38934356 0.18658963 -0.90199548 0.0067496877
0.067432575 0.043443885 -0.0097471299 0.49032569 0.13760427 -0.86060774 0.00085189188
-0.06648282 0.046641171 -0.0094114589 -0.53564227 0.027292103 -0.84400386 0.004837146
-0.064488642 0.046614923 -0.010441751 -0.3918972 0.14249004 -0.90890765 0.0065774997
-0.061651792 0.046612434 -0.011479521 -0.2747913 0.29217592 -0.91603655 0.0096333204
-0.058630321 0.04714917 -0.011762608 -0.036366493 0.42695612 -0.90354079 0.0038692835
-0.055449024 0.047295425 -0.011589617 0.079395041 0.50533074 -0.85926551 0.002868555
-0.052423496 0.047078621 -0.011217733 0.17987153 0.61815625 -0.76519877 0.0021669327
-0.049600139 0.046509717 -0.010801557 0.24010876 0.6465072 -0.72413826 0.0016753088
-0.04677844 0.046102818 -0.010002143 0.31451768 0.69741178 -0.64396852 0.0018681773
-0.044247199 0.045278929 -0.0096120685 0.34404245 0.68905348 -0.63784021 0.0023298459
0.050599616 0.04559952 -0.0091649322 -0.38942325 0.68112499 -0.62001473 0.001561578
0.052764762 0.046108335 -0.0098067895 -0.32772663 0.6536063 -0.68219787 0.001882351
0.055440232 0.046551112 -0.010459432 -0.25327605 0.5831933 -0.77183992 0.00206671
0.058397695 0.046518419 -0.011154927 -0.10961857 0.52766746 -0.8423484 0.0018649002
0.061439864 0.046550024 -0.011225173 0.10948631 0.43386519 -0.8943007 0.0073782834
0.064365886 0.046543553 -0.010690863 0.28424743 0.28339145 -0.91591084 0.0082656471
0.066736206 0.046823375 -0.0096842824 0.44017512 0.21989313 -0.87057042 0.0034456127
-0.066437326 0.049135249 -0.0091927713 -0.35775125 0.21658649 -0.90835249 0.0088250348
-0.064548388 0.049529914 -0.0097351754 -0.24558185 0.28598976 -0.92622864 0.0063711125
-0.061472729 0.049338661 -0.010415516 -0.12992147 0.43663862 -0.89020622 0.0064919861
-0.058546688 0.049387131 -0.010495665 -0.0021853009 0.52661687 -0.85009992 0.0045850901
-0.055697728 0.049345616 -0.01017126 0.14370662 0.62036145 -0.77103829 0.002839946
-0.052919228 0.048868928 -0.0098415958 0.24635082 0.65149951 -0.71753722 0.0023353708
-0.050380427 0.048429042 -0.009276052 0.32461533 0.68954372 -0.64742136 0.0021133069
0.056187924 0.048295274 -0.0093390616 -0.29407975 0.63292354 -0.71618778 0.0023251355
0.058690287 0.048816193 -0.0096879276 -0.18812093 0.58244777 -0.79080033 0.0041673002
0.061585467 0.049361859 -0.0097732432 -0.041910615 0.49315766 -0.8689298 0.0047180876
0.064262353 0.049642831 -0.009570688 0.099578179 0.40846139 -0.90732765 0.01050822
0.066368274 0.048911382 -0.0093182577 0.4292376 0.21674675 -0.87679869 0.0035588101
-0.063885756 0.051272962 -0.009172895 -0.17038926 0.41548333 -0.89349937 0.009208641
-0.061576251 0.051302399 -0.0092656678 -0.016792871 0.55932599 -0.82877773 0.0050606928
-0.059059948 0.051198561 -0.0092123589 0.10509791 0.60387671 -0.79011852 0.0026300151
-0.0093161836 0.0026909634 -0.0060253134 -0.17344975 -0.89637166 -0.40796205 0.0037851834
-0.007507334 0.0026388245 -0.0064442307 -0.1236913 -0.86888331 -0.47931433 0.0016719111
-0.0043625883 0.0023516261 -0.0067685079 -0.087719254 -0.87898654 -0.46870896 0.0019082406
-0.0015776308 0.0024065101 -0.007228639 -0.044877168 -0.87472826 -0.48253149 0.0025348896
0.0014506351 0.0023258531 -0.0073332647 -0.033409741 -0.87963045 -0.47448292 0.0021504168
0.0044817976 0.0022441051 -0.0073494171 -0.010420145 -0.8806231 -0.47370285 0.0018288693
0.0075129932 0.0023301125 -0.0073688934 0.027212862 -0.88363707 -0.46738109 0.0022844987
0.010553149 0.0023989473 -0.0072401324 0.061706059 -0.88613749 -0.45929587 0.0017651793
0.013298646 0.0025785982 -0.0071054869 0.085092597 -0.88418347 -0.45932427 0.0019886105
0.016494101 0.0026740227 -0.0065056328 0.11707871 -0.87861288 -0.46295992 0.0014949334
-0.021364793 0.0059548048 -0.0063296575 -0.31805095 -0.83620292 -0.44677541 0.0020543747
-0.019318877 0.0056013986 -0.0070155631 -0.26576838 -0.84418505 -0.46553057 0.0017690755
-0.016459918 0.0051662764 -0.0076032975 -0.21844092 -0.83526337 -0.50459749 0.0014850651
-0.013440837 0.0043644537 -0.0075991563 -0.21069749 -0.83998102 -0.5000385 0.0023531003
-0.010493349 0.0038036748 -0.0077681504 -0.15773903 -0.84492737 -0.51109302 0.0009323351
-0.007619028 0.0035881051 -0.008113808 -0.12067597 -0.84945858 -0.51367044 0.0017345708
-0.0044981064 0.0033175107 -0.0083777653 -0.088303581 -0.83967042 -0.53586948 0.0017699572
-0.0015305813 0.0034656739 -0.0089318566 -0.062236533 -0.80148083 -0.59477311 0.00075703283
0.00095656904 0.0033732443 -0.0089787748 -0.036097564 -0.84763682 -0.52934748 0.0024363075
0.0051556057 0.0032112275 -0.0089224027 0.0077301436 -0.84368175 -0.53678793 0.001989282
0.0076416349 0.0031055235 -0.0086668478 0.021302467 -0.84735715 -0.53059596 0.0019931288
0.010521538 0.0032400824 -0.0087163206 0.053313643 -0.81263113 -0.58033478 0.00071200752
0.013933904 0.0034449231 -0.0085700285 0.097774714 -0.85358804 -0.51169091 0.0016378093
0.01677249 0.0034610836 -0.0080028987 0.11080024 -0.86404628 -0.49106756 0.0017225383
0.019148655 0.0037793685 -0.0079571595 0.14645743 -0.85103649 -0.50426888 0.001317576
0.022283347 0.0042635244 -0.0076868725 0.16855556 -0.86157864 -0.47882289 0.0011045672
0.025410265 0.0049606836 -0.0077616349 0.19337633 -0.84873533 -0.49219301 0.00091207551
0.02885705 0.0055422005 -0.0070205783 0.23098452 -0.84301668 -0.48576641 0.00072204339
-0.027966904 0.0087919822 -0.007000397 -0.33567384 -0.82821739 -0.44875276 0.001452232
-0.02538237 0.0080822567 -0.0074604917 -0.29867262 -0.81623459 -0.49452582 0.0014517244
-0.022599116 0.0072263735 -0.007767512 -0.29159284 -0.81949276 -0.4933612 0.0014695505
-0.019870948 0.0066159037 -0.0083887875 -0.25093204 -0.81660402 -0.51979911 0.0018218681
-0.01783145 0.0064002145 -0.0089496616 -0.24576244 -0.76587868 -0.59416395 0.0016951885
0.029451668 0.0064919181 -0.0085494239 0.23983182 -0.80677229 -0.53999937 0.0007164015
0.031462125 0.0063769137 -0.0071844053 0.25109944 -0.81738764 -0.51848489 0.00037580778
0.034091197 0.0075623542 -0.0076991646 0.28334993 -0.81617182 -0.50356382 0.0004098741
0.037459463 0.0087114265 -0.0074866121 0.30853626 -0.79029667 -0.52937382 0.0005769679
-0.036093861 0.011895852 -0.0062266085 -0.39391473 -0.81412196 -0.42665744 0.00091499672
-0.034263745 0.011464877 -0.0070697507 -0.36603948 -0.81094068 -0.45649791 0.0015531522
-0.031503819 0.010621435 -0.0075941109 -0.33545718 -0.8112936 -0.47882271 0.002099369
-0.028743517 0.0098011661 -0.0081541482 -0.31752664 -0.79117215 -0.52270782 0.0024033999
-0.026650261 0.0094419196 -0.0088807466 -0.29058453 -0.75404733 -0.58904445 0.001014057
-0.040106349 0.014403049 -0.0070115398 -0.44456947 -0.77612108 -0.44720691 0.0011993179
-0.037548225 0.013436048 -0.0076170159 -0.40468585 -0.78064799 -0.47625402 0.0019136956
-0.035044242 0.012611081 -0.0083786845 -0.35446215 -0.75648928 -0.54961848 0.00075786537
0.044599514 0.012336098 -0.0081776883 0.37432218 -0.70469105 -0.60273826 0.00067772262
-0.045476995 0.01770442 -0.0068040062 -0.50103998 -0.74142307 -0.44637513 0.00093099929
-0.043385632 0.016716048 -0.0075218584 -0.48108816 -0.73910517 -0.47146344 0.0017571872
-0.040907007 0.015551813 -0.0082122665 -0.43587041 -0.76158327 -0.47959137 0.0017384308
-0.048788685 0.020205108 -0.0070715523 -0.54617518 -0.70696181 -0.44933024 0.0016108732
-0.046731103 0.019219905 -0.0078279059 -0.49084631 -0.72047651 -0.48988113 0.0020149453
-0.044678759 0.018420991 -0.0087081175 -0.49049652 -0.68317688 -0.5410015 0.001911821
-0.054234304 0.023806809 -0.0061336546 -0.56420213 -0.71150368 -0.41885373 0.00054027484
-0.0523027 0.02301904 -0.0073212427 -0.55906975 -0.6912452 -0.45784384 0.0018499702
-0.050026502 0.021692963 -0.0079157772 -0.53683925 -0.71304595 -0.45096475 0.0011498139
-0.057461217 0.026751088 -0.0065501444 -0.5939675 -0.66277331 -0.45599788 0.0012251303
-0.055441041 0.025696153 -0.0074854242 -0.58486271 -0.68804151 -0.4295747 0.0009704667
-0.053376287 0.024551377 -0.0083195241 -0.52441996 -0.65730351 -0.54123545 0.00067457132
-0.060360651 0.029640656 -0.0065431274 -0.64737952 -0.59187806 -0.48018757 0.0010055153
-0.058582515 0.028589571 -0.0075823572 -0.63392782 -0.6263749 -0.45364085 0.0011818478
-0.056602735 0.027512278 -0.0085763205 -0.55357009 -0.60474283 -0.57257867 0.00080281531
-0.06324248 0.032834206 -0.0064224587 -0.6840781 -0.53028321 -0.50083625 0.001313693
-0.061470792 0.031723995 -0.0075284205 -0.66762662 -0.54559982 -0.50655264 0.0032406207
-0.059613276 0.030671917 -0.0086226296 -0.59622478 -0.53574455 -0.5979079 0.00091498817
-0.012886551 0.032628655 -0.0085260775 0.21946804 0.83348924 -0.5070793 0.0017744602
-0.010352624 0.032364618 -0.0079837786 0.19829151 0.8450408 -0.49657482 0.0017551176
-0.0073887915 0.031807821 -0.0078635933 0.15789331 0.85834795 -0.48816848 0.0012305969
-0.0043345969 0.031412348 -0.0077415737 0.12057054 0.85182774 -0.5097571 0.0021890507
-0.0013841878 0.031120127 -0.0076273829 0.086946495 0.85945421 -0.50376451 0.0023458183
0.0017096113 0.030801736 -0.0077615925 0.061191708 0.86066103 -0.50548822 0.0019176783
0.0045597176 0.030723158 -0.0077704191 0.011986644 0.86709625 -0.49799636 0.0019574277
0.0075759455 0.030806715 -0.0076964567 -0.04548667 0.86350292 -0.50228858 0.0022872493
0.01060067 0.031047853 -0.0077289948 -0.083754718 0.87115592 -0.48381042 0.0019089553
0.013419743 0.031431425 -0.00757231 -0.12263764 0.86397213 -0.48837703 0.0025829806
0.016389184 0.031912748 -0.0076988325 -0.18754379 0.86694378 -0.46177468 0.0016095807
0.019179601 0.03224149 -0.0082506193 -0.22492358 0.82749522 -0.51445222 0.0035030551
0.021367408 0.032515697 -0.0088127414 -0.23268053 0.78894585 -0.56870389 0.00081155862
-0.064144567 0.034964584 -0.0072759041 -0.70244765 -0.4834387 -0.52235454 0.0023587854
-0.062555775 0.033976126 -0.008360385 -0.64558578 -0.46292016 -0.60739106 0.00069244485
-0.022006799 0.035524912 -0.0085904859 0.31880891 0.79676533 -0.5133478 0.0022237219
-0.01925814 0.034923438 -0.007953696 0.29560864 0.83211458 -0.46925563 0.0013688595
-0.016225101 0.034057632 -0.0077313655 0.24429345 0.84195215 -0.48107916 0.0017973884
-0.013496056 0.03359909 -0.0072409357 0.22758944 0.84466648 -0.4845013 0.001588753
-0.010857584 0.033310533 -0.0063965572 0.20224655 0.85538322 -0.47688141 0.0013960982
0.01965077 0.033188332 -0.0068310471 -0.22817035 0.8631041 -0.45054373 0.0018177921
0.022547591 0.033637393 -0.0075597144 -0.23890626 0.85499704 -0.46033028 0.0017440439
0.025498569 0.034450848 -0.0076343333 -0.26119047 0.84565037 -0.46546203 0.0027521448
0.028358329 0.035153095 -0.0079614213 -0.28339353 0.8442232 -0.45494547 0.0016439218
0.030681647 0.035545502 -0.0087046959 -0.30751172 0.79651928 -0.52057052 0.00060513412
-0.06659475 0.038173709 -0.0068286709 -0.71205008 -0.41051826 -0.56961352 0.0026581613
-0.065117069 0.037411865 -0.0080616651 -0.69107616 -0.38302657 -0.61294734 0.0027079338
-0.02826838 0.038316298 -0.0083521772 0.36906782 0.77984494 -0.50559944 0.0023220943
-0.025650978 0.037563626 -0.0076273554 0.34301668 0.83111089 -0.43771484 0.0013722563
-0.02302134 0.036443502 -0.0078348033 0.3076216 0.82528186 -0.47358084 0.001895324
0.029196883 0.036134485 -0.0066661444 -0.29123431 0.85780948 -0.42349195 0.0016243669
0.031643391 0.036642227 -0.0073547452 -0.31320816 0.83930814 -0.44436756 0.0018993921
0.034450483 0.037657063 -0.0076900166 -0.3691473 0.81587368 -0.44506216 0.0020254101
0.036904771 0.038451359 -0.0082853995 -0.39385062 0.78725106 -0.47446543 0.0023237218
-0.067408569 0.040770456 -0.0074466169 -0.70972091 -0.29539725 -0.63955969 0.0024069888
-0.065748088 0.039815817 -0.0087081706 -0.68655866 -0.29438028 -0.66481382 0.0015575115
-0.0341447 0.041409053 -0.0077665215 0.36513916 0.7459811 -0.55694312 0.0002706642
-0.031593625 0.039973613 -0.008170587 0.35082167 0.75403672 -0.55529523 0.00019040247
-0.029359885 0.039105594 -0.0078972336 0.3677648 0.80427599 -0.46678597 0.001723357
0.035942305 0.039141487 -0.0061645964 -0.46654385 0.81270337 -0.34907025 0.0033457717
0.037969302 0.039602436 -0.0073070559 -0.42272925 0.79041457 -0.44333363 0.0020282778
0.040422276 0.040838122 -0.0076095522 -0.45878243 0.76091683 -0.45882913 0.0024310879
0.042536344 0.041557465 -0.0084465723 -0.47586703 0.72279245 -0.50112033 0.0033847294
-0.069425665 0.043986354 -0.0065032863 -0.73090571 -0.24927092 -0.63532734 0.0023340199
-0.067925811 0.043561019 -0.0079645189 -0.67868012 -0.16555542 -0.71553111 0.0043651066
-0.040090978 0.044468999 -0.0077794283 0.37342888 0.72999811 -0.5724104 0.00033444594
-0.037913822 0.043289851 -0.0078734262 0.36871991 0.74052572 -0.56184274 0.00034607312
-0.035632879 0.042402804 -0.0074800532 0.36875674 0.74478608 -0.55615848 0.00027528641
0.041639026 0.042256795 -0.0064880154 -0.47812957 0.76013488 -0.43998533 0.0010730524
0.043739412 0.043060936 -0.0072488901 -0.45225704 0.76645213 -0.45608643 0.0019616128
0.046242118 0.044162605 -0.007881457 -0.41809782 0.74248004 -0.52337128 0.0024888439
0.048455894 0.044884492 -0.0086504435 -0.42586157 0.72132796 -0.54619408 0.0012865403
-0.069864325 0.046703998 -0.0068009878 -0.71344817 -0.12897597 -0.68873572 0.0054648397
-0.06806691 0.046631198 -0.0083385212 -0.58892936 -0.05180575 -0.80652243 0.0030684297
-0.046381332 0.047345761 -0.0083317459 0.34082869 0.72316563 -0.60072231 0.00081660948
-0.043317124 0.046254087 -0.0076213963 0.3625361 0.72427469 -0.58650982 0.00055435067
-0.040762074 0.045216631 -0.0071828202 0.37344706 0.72997415 -0.572429 0.00034541322
0.047243044 0.045589879 -0.006634614 -0.46907404 0.74377626 -0.47619995 0.0024215924
0.049507018 0.046384938 -0.007450805 -0.43662676 0.74368405 -0.50625193 0.00081059308
0.052089009 0.047193836 -0.008313261 -0.35824233 0.67227411 -0.64785033 0.0013591582
0.06851963 0.045319732 -0.0087440386 0.49672657 0.14631921 -0.85548437 0.0010066095
0.069011509 0.04586646 -0.0082901949 0.49671674 0.1463487 -0.85548496 0.0010015729
-0.07013303 0.04961624 -0.0068443082 -0.62519711 -0.015398351 -0.78031498 0.0084033301
-0.067875408 0.04971572 -0.0083541097 -0.48552331 0.077609427 -0.870772 0.0049167173
-0.065656573 0.050972648 -0.0089529231 -0.14906938 0.29001978 -0.9453395 0.012591426
-0.05480944 0.050828516 -0.0086399391 0.23188679 0.74190986 -0.62912506 0.0019140398
-0.052412171 0.050106809 -0.0083511788 0.28775582 0.73512322 -0.61383253 0.0020668996
-0.049756911 0.049300816 -0.0078957519 0.33515871 0.72777832 -0.59833729 0.00091766851
-0.047087599 0.048691396 -0.006877136 0.34013548 0.73529273 -0.58621871 0.00062849547
0.050892971 0.048078425 -0.0062680948 -0.4495059 0.73483533 -0.50789922 0.00077047088
0.052791256 0.048645962 -0.0070517398 -0.41330332 0.71962851 -0.55795622 0.0024986558
0.055375885 0.049594086 -0.0076563819 -0.33522961 0.69377726 -0.63741213 0.0021782278
0.058297791 0.050308894 -0.0083492324 -0.26909763 0.6631183 -0.69847023 0.0035644898
0.061257843 0.050865673 -0.0087840632 -0.13614196 0.55960071 -0.81750369 0.0040036882
0.06531468 0.050982215 -0.0088816276 0.14749281 0.44923183 -0.88115644 0.016621817
0.06750261 0.049663674 -0.0085042054 0.38510379 0.25038928 -0.88825691 0.0082574394
0.069337673 0.05010483 -0.0072787176 0.45084366 0.19752721 -0.87047279 0.0016367731
-0.07023444 0.052641351 -0.0067161559 -0.48609832 0.11068179 -0.86686671 0.0097005544
-0.067587085 0.052563868 -0.0078606009 -0.27485806 0.28861108 -0.91714597 0.014667352
-0.064559974 0.052640069 -0.0083163055 -0.076043084 0.48763096 -0.8697319 0.0096600438
-0.06154554 0.052852701 -0.0080700712 0.08358594 0.62859243 -0.77323037 0.0039154403
-0.058554132 0.052584697 -0.0077354466 0.2076824 0.71115381 -0.67166084 0.0035149569
-0.055696312 0.052013524 -0.0075525013 0.22398835 0.75616181 -0.61485642 0.0020360555
-0.053048611 0.051585514 -0.0068585933 0.32039687 0.75378352 -0.57372141 0.00088474201
0.05639692 0.051324602 -0.0062936749 -0.41462523 0.71953386 -0.55709684 0.0035140335
0.058683015 0.052022923 -0.0068526729 -0.35610434 0.69053602 -0.62956309 0.0032831153
0.061419886 0.052490175 -0.007620695 -0.24007092 0.58788443 -0.77250111 0.0095313182
0.064439297 0.052597228 -0.008112316 0.032570522 0.45460105 -0.89009953 0.010268147
0.067341909 0.052410502 -0.0077615059 0.23241208 0.33644256 -0.91257387 0.0083937002
0.069243819 0.053541832 -0.006653579 0.21113704 0.29353991 -0.93233871 0.0059723221
-0.07012096 0.055263035 -0.0063361293 -0.2465416 0.31816772 -0.91541606 0.015597093
-0.067526326 0.05535236 -0.0067591346 -0.087959066 0.44190699 -0.89273816 0.01004362
-0.064735658 0.054996435 -0.0068371422 0.085351393 0.57262754 -0.81536055 0.0097108344
-0.061856888 0.054547954 -0.0065857186 0.18216446 0.68786776 -0.70260519 0.0053198282
0.062109102 0.054361414 -0.0063802302 -0.33493668 0.62221736 -0.70757544 0.0050417115
0.064641804 0.055088721 -0.006704641 -0.18316606 0.49694949 -0.84822839 0.01257207
0.067324653 0.055658162 -0.0066198832 0.049749725 0.31977761 -0.94618559 0.012395624
0.069405936 0.055408783 -0.0061467867 0.16988136 0.25679827 -0.95141739 0.005255233
0.067253083 0.057439689 -0.0060082437 -0.026829738 0.30853462 -0.95083463 0.019178251
-0.013123303 0.0026464001 -0.0040581534 -0.20415697 -0.92511821 -0.32011899 0.0022681085
-0.010583103 0.002414637 -0.0049086367 -0.18585747 -0.9230271 -0.33686492 0.0018852833
-0.0075690541 0.0018161723 -0.0044186246 -0.12681064 -0.94358939 -0.30587256 0.0029282991
-0.0045928005 0.0014911784 -0.0046776212 -0.12214362 -0.93346548 -0.33722866 0.0032182152
-0.0013954015 0.0010693714 -0.004129237 -0.068979263 -0.91856325 -0.38920867 0.0014006589
0.0014558515 0.0010150502 -0.0043343394 -0.03135154 -0.90323073 -0.42800847 0.00056072243
0.004174625 0.00090610521 -0.0042300476 -0.016447853 -0.90024942 -0.43506366 0.00054167118
0.0076733767 0.0012811181 -0.0049616988 0.040328845 -0.91219103 -0.40777567 0.00089346635
0.010489428 0.0012287366 -0.0044118897 0.063872524 -0.91518652 -0.39793703 0.00069386797
0.013373591 0.001569071 -0.0046080588 0.079893716 -0.91489935 -0.39569706 0.0005969035
0.015699878 0.0019826789 -0.0049575176 0.10480926 -0.90975976 -0.40168679 0.00022427842
0.018988432 0.0025238849 -0.0052473559 0.13213012 -0.88409632 -0.44823572 0.00089627045
-0.02430786 0.0059367046 -0.0033463719 -0.33933571 -0.91453362 -0.22018072 0.0016586893
-0.022333004 0.0055532511 -0.0044979113 -0.32696167 -0.8934623 -0.3079305 0.0023280387
-0.019535786 0.0045987442 -0.0046186657 -0.28396621 -0.9022308 -0.32456547 0.0025278891
-0.016561335 0.0037893199 -0.0046539917 -0.25530437 -0.91119576 -0.32332948 0.0018774892
-0.014063981 0.0033860542 -0.00543052 -0.24583934 -0.89576066 -0.37037271 0.0032491076
0.022511687 0.0034019556 -0.0057988861 0.16666773 -0.87331545 -0.45775762 0.00043955288
0.024964232 0.0037893448 -0.0053553074 0.19581498 -0.87506765 -0.44262078 0.00035156898
-0.030891942 0.0087769814 -0.0040633283 -0.35736442 -0.88162911 -0.30825445 0.0021702033
-0.028570902 0.008040213 -0.0047383844 -0.34812284 -0.8846491 -0.31017169 0.0021060002
-0.025679568 0.0068785967 -0.0046651778 -0.36319494 -0.88403809 -0.29422113 0.0014753495
-0.02353823 0.0064678187 -0.0057176836 -0.35683301 -0.85690588 -0.37199786 0.0029277336
-0.036945101 0.011577108 -0.0043585422 -0.40698311 -0.85715973 -0.31566101 0.0023952681
-0.03448578 0.010433841 -0.0044927853 -0.39495465 -0.87019902 -0.29455805 0.0016700012
-0.032217652 0.0096072983 -0.0048977099 -0.36347964 -0.87585205 -0.31743622 0.0020685776
-0.042645738 0.014521229 -0.0040905336 -0.49263194 -0.81378978 -0.3083179 0.0019153934
-0.040453859 0.013511151 -0.0046171853 -0.46610728 -0.82568181 -0.31779492 0.0018757381
-0.038252525 0.012520406 -0.0050912788 -0.4419176 -0.84534711 -0.3001619 0.0016309179
-0.046346217 0.017216694 -0.0044446629 -0.53773725 -0.78942043 -0.2960642 0.0018652927
-0.043913182 0.015666623 -0.0048297783 -0.52238208 -0.79550534 -0.30706382 0.0021498343
-0.051290434 0.020565629 -0.0038105133 -0.58783919 -0.76016343 -0.27676108 0.0015770254
-0.049542952 0.019531067 -0.0045543867 -0.57268023 -0.77913934 -0.25490996 0.0010930815
-0.047734439 0.018518586 -0.0053828526 -0.54901582 -0.7812112 -0.29713753 0.0016969241
-0.05485376 0.023429787 -0.0041945032 -0.59372139 -0.75020158 -0.29101974 0.0019231078
-0.052692026 0.02195077 -0.0047174739 -0.59312326 -0.75964195 -0.26673761 0.0014451019
-0.050863888 0.021123912 -0.0059436802 -0.55221152 -0.72721308 -0.40770522 0.00083490601
-0.058108617 0.026163438 -0.0042615053 -0.61743164 -0.72039533 -0.31592521 0.0022208239
-0.056156445 0.024709107 -0.0046842885 -0.61942363 -0.73237681 -0.28273422 0.0016092322
-0.061016321 0.029080743 -0.0044152648 -0.6847111 -0.64098966 -0.3468473 0.002040097
-0.059487134 0.027739618 -0.0050052912 -0.665277 -0.68046248 -0.3072091 0.0021913901
-0.06379398 0.032164097 -0.0043969988 -0.73843068 -0.58030695 -0.34345874 0.0023201078
-0.06238338 0.030820373 -0.0049515786 -0.70984149 -0.6268214 -0.32127878 0.0021169172
-0.006643666 0.032870706 -0.0054259114 0.16837206 0.87284434 -0.45803237 0.0013483083
-0.0042113611 0.032648668 -0.0051326458 0.14319597 0.8916145 -0.42955613 0.00128936
-0.0014318245 0.032426447 -0.0048222793 0.12897629 0.91202831 -0.3893193 0.0027423971
0.0013614711 0.032199886 -0.0048904801 0.067419201 0.93406576 -0.3506791 0.0038434351
0.0044940375 0.032215785 -0.0045980583 0.029494414 0.9492631 -0.31309694 0.0026636638
0.0076887785 0.032230232 -0.0046328227 -0.0419873 0.94231117 -0.33209431 0.0038827215
0.010514032 0.032240629 -0.0051118406 -0.12254165 0.92414528 -0.36185509 0.0039435397
0.013559825 0.032745548 -0.0046459408 -0.13798873 0.93981582 -0.31257856 0.0020968972
0.015588886 0.03299889 -0.0049591018 -0.20054424 0.92754644 -0.31534061 0.002745972
-0.066465832 0.035511207 -0.0042326981 -0.7623508 -0.526972 -0.37566179 0.0035055885
-0.065221667 0.034233067 -0.0047683744 -0.75316119 -0.57473046 -0.32005167 0.0018860657
-0.016350159 0.035466816 -0.0049490598 0.24143389 0.86003006 -0.44950855 0.00055685366
-0.013757294 0.03471005 -0.0049282773 0.22650842 0.86465079 -0.44841167 0.00030313677
-0.010485008 0.033874199 -0.0048528756 0.2004512 0.8781628 -0.43433788 0.00026547539
-0.007603399 0.033343382 -0.004728151 0.16836727 0.87285036 -0.45802265 0.0013396937
-0.005655305 0.033361841 -0.0038937067 0.16045019 0.89749235 -0.41080806 0.0004352704
0.016685134 0.033301841 -0.0046313312 -0.18320467 0.93613964 -0.30013117 0.0028277473
0.019330632 0.033975258 -0.0045874128 -0.22352855 0.92903566 -0.29483524 0.0028152515
0.022435823 0.034833893 -0.0046145301 -0.26469842 0.92423433 -0.2751829 0.0017412009
0.025105687 0.035422381 -0.00512526 -0.28638041 0.911533 -0.29511669 0.0019992443
-0.067676939 0.037646744 -0.0045820163 -0.79089797 -0.48454165 -0.37376446 0.0037081535
-0.024523769 0.0387883 -0.0039914153 0.33863443 0.84075665 -0.42243925 0.00041190628
-0.022293692 0.037173979 -0.0056422111 0.31957245 0.84567541 -0.4274419 0.00028710568
-0.019688666 0.036281437 -0.0053618839 0.29930621 0.84340209 -0.44619358 0.00074473926
-0.017816143 0.036079161 -0.004531133 0.27380985 0.85333288 -0.44367912 0.00076876313
0.026087906 0.036049318 -0.0041636014 -0.27316737 0.92015719 -0.28051788 0.00208256
0.028333528 0.036629427 -0.0045066881 -0.30702871 0.90603155 -0.29127353 0.0021546539
0.031538185 0.037780982 -0.0044808672 -0.35448402 0.8946383 -0.27196217 0.0020556157
0.033772655 0.038499717 -0.0051563089 -0.40798113 0.86330974 -0.29706499 0.0028482708
-0.069681555 0.040893927 -0.0042921151 -0.81930405 -0.39941952 -0.41134536 0.0033183498
-0.068626843 0.039905291 -0.0053423867 -0.79283047 -0.4098396 -0.45105588 0.0051675006
-0.027694607 0.039641779 -0.0050392444 0.36991727 0.81533331 -0.44541314 0.0011976557
-0.026244558 0.039211497 -0.0046819965 0.36373883 0.83526039 -0.412352 0.00067537831
0.034989178 0.039340362 -0.0043931813 -0.39062995 0.86836338 -0.30553767 0.002570238
0.037522923 0.040593136 -0.0045155506 -0.45577222 0.84510553 -0.27940741 0.0024272592
0.039635707 0.041597031 -0.0051759961 -0.46064362 0.83544642 -0.29972762 0.0025708515
-0.070649259 0.043702431 -0.004575605 -0.8237946 -0.29437959 -0.48446169 0.0039183097
0.040928904 0.042677037 -0.0043919887 -0.47623941 0.81937855 -0.31908414 0.0026625474
0.043394711 0.044190694 -0.0045451019 -0.53306937 0.80248648 -0.26805323 0.0017563583
0.045237806 0.044887435 -0.0057573477 -0.48204935 0.75971216 -0.43642387 0.0012530783
-0.072365433 0.047068469 -0.0035691671 -0.84189922 -0.28422236 -0.45871925 0.0034201306
-0.071310684 0.046513755 -0.0049958266 -0.83178747 -0.23423089 -0.50325483 0.0072677108
0.044666134 0.045444667 -0.0034486991 -0.51142979 0.81042111 -0.28575733 0.0020539709
0.046574116 0.046281632 -0.0044413344 -0.52796602 0.78906268 -0.31405699 0.0030036855
0.04878379 0.047417399 -0.0051135658 -0.49504688 0.78695756 -0.36827499 0.0039062831
-0.072767839 0.049702372 -0.0040462906 -0.78458029 -0.2360764 -0.57332516 0.0072667869
-0.071567588 0.049618255 -0.0055515179 -0.67426699 -0.12559739 -0.72772884 0.0052498439
-0.049258795 0.050355133 -0.0059788609 0.33407494 0.74555558 -0.57666361 0.00063021522
0.049989831 0.048496868 -0.0044182753 -0.50635624 0.79885334 -0.32471004 0.0035899892
0.052366246 0.049953256 -0.0045581246 -0.51836175 0.78578848 -0.33739823 0.0020819157
0.054460183 0.050642833 -0.0056594424 -0.46176511 0.77417564 -0.43292636 0.0019142724
-0.073345266 0.052698035 -0.0043845251 -0.73097795 -0.21092698 -0.64898455 0.0081231249
-0.071650378 0.052209463 -0.0057423115 -0.6437031 -0.027598204 -0.76477754 0.0082425028
-0.055357359 0.053332936 -0.0054503428 0.27716568 0.78411865 -0.55528104 0.00072947529
-0.052873053 0.052463174 -0.0053522587 0.31919646 0.7810719 -0.53669381 0.0005136354
-0.050750293 0.05119694 -0.0057855216 0.33609259 0.76253378 -0.55279648 0.00041185509
0.053619139 0.05134755 -0.0032424713 -0.52381319 0.799577 -0.29376236 0.0077071413
0.055592887 0.052006941 -0.0044588605 -0.46264783 0.78615326 -0.40978056 0.0043565677
0.057983775 0.053141087 -0.004946229 -0.43782979 0.75805581 -0.4833802 0.0072566373
-0.075111054 0.055571027 -0.0032313908 -0.86794525 0.085200757 -0.48929733 0.028248841
-0.073518373 0.055568065 -0.0046655405 -0.63379639 0.18330853 -0.75146532 0.020849885
-0.071088724 0.056092247 -0.0058111022 -0.32948345 0.22617827 -0.91667008 0.021699565
-0.066199511 0.056685425 -0.0059413342 0.037267283 0.56201941 -0.82628405 0.010201721
-0.06411998 0.056420546 -0.0055467091 0.23069674 0.66541314 -0.70993268 0.0057711951
-0.061517905 0.0557562 -0.0050350111 0.25493935 0.71547413 -0.6504634 0.0022259753
-0.058612615 0.054633956 -0.0051070848 0.22567628 0.74495572 -0.62778276 0.0012686576
-0.056453358 0.054113489 -0.0047286609 0.2577565 0.78290069 -0.56624037 0.00030126635
0.059101176 0.05447251 -0.0040519177 -0.49828699 0.76111811 -0.41522196 0.0057437541
0.061507754 0.055701282 -0.004575917 -0.51582384 0.650244 -0.55777097 0.0095401518
0.06408418 0.056502394 -0.005550663 -0.33524263 0.58289337 -0.74016732 0.0087547591
0.070132568 0.055808265 -0.0055921115 0.1335092 0.25472471 -0.957753 0.0056017432
-0.073163919 0.05789604 -0.004178178 -0.5411067 0.64056534 -0.54486662 0.019183977
-0.070612922 0.058465403 -0.0049315244 -0.32694981 0.65215975 -0.68395293 0.028971406
-0.067668967 0.058270518 -0.0049606985 0.15301517 0.67027014 -0.7261709 0.0067062266
-0.064929977 0.057889964 -0.0044094296 0.25045076 0.64418572 -0.72270274 0.004756433
-0.061962847 0.057002526 -0.003520736 0.27317181 0.69520479 -0.66488159 0.0014495372
0.062661879 0.057505708 -0.0035244022 -0.60957652 0.54057926 -0.57981938 0.011276556
0.064537488 0.058369298 -0.0044053658 -0.47916251 0.54097986 -0.69119036 0.01696288
0.067301773 0.058674663 -0.0054629883 -0.08659184 0.32256511 -0.9425782 0.019849801
0.069780551 0.058851052 -0.0052373996 -0.13371745 0.28559145 -0.94897687 0.019977763
-0.069412395 0.060120415 -0.0034328992 -0.16017617 0.89538294 -0.4154911 0.028900208
-0.068389967 0.060171977 -0.0034368392 0.041515883 0.89498323 -0.44416383 0.038850792
0.065394528 0.061060537 -0.0035412582 -0.58020657 0.33298135 -0.74329245 0.01078073
0.067390524 0.061490178 -0.0045601754 -0.39663813 0.30788046 -0.8648051 0.025809675
0.070022099 0.061661646 -0.0047769132 -0.15036847 0.22243853 -0.96328104 0.01598637
0.067413375 0.064542249 -0.0038202412 -0.48633003 0.21247572 -0.84754777 0.023004746
0.070035063 0.064480849 -0.0044892603 -0.19916375 0.21665782 -0.95571601 0.02028372
0.072446533 0.065168791 -0.0036857103 -0.15306398 0.040938713 -0.98736793 0.019209987
0.067978844 0.067459486 -0.0037162856 -0.56603038 0.11443132 -0.81640375 0.016414026
0.070462264 0.067410618 -0.004450989 -0.17841716 0.019655086 -0.98375857 0.02642839
0.073018759 0.068371408 -0.0038748083 -0.068243764 -0.057346486 -0.99601918 0.010599269
0.068298504 0.070285589 -0.0035393564 -0.73339283 0.081656195 -0.67488313 0.032988153
0.070319645 0.070706688 -0.0044552698 -0.29240176 -0.017478092 -0.95613581 0.031333804
0.072806895 0.070652902 -0.0043402608 -0.17358319 -0.10059532 -0.97966808 0.01024346
0.068472117 0.073442653 -0.0034333295 -0.79212755 0.077292696 -0.60544181 0.023594916
0.070315696 0.073472425 -0.0045870193 -0.40058812 -0.03464181 -0.9156031 0.029017068
0.073382653 0.073530458 -0.0048310892 -0.24739985 -0.097002394 -0.96404558 0.013167068
0.068619989 0.075838365 -0.0032946735 -0.7048347 0.025724789 -0.70890498 0.072483525
0.070155047 0.075715914 -0.0044849967 -0.49210405 -0.038918175 -0.86966604 0.036142651
0.072386727 0.075539984 -0.0051758597 -0.49221411 -0.039059848 -0.86959738 0.036123961
-0.015388037 0.0027255889 -0.0015446207 -0.24629802 -0.95380902 -0.17200497 0.0011459724
-0.013523811 0.0022598708 -0.0018147895 -0.23447841 -0.95480716 -0.18265592 0.0010784324
-0.010335555 0.0015862252 -0.0017159528 -0.17209904 -0.97166997 -0.16198535 0.001782922
-0.0063038515 0.00089088356 -0.00059518818 -0.1522505 -0.96861339 -0.19648877 0.0026489515
-0.0054178052 0.00092831097 -0.0021375997 -0.12435094 -0.95415759 -0.27225003 0.00098754652
0.010499121 0.00079392263 -0.0029403435 0.061762344 -0.92234319 -0.38140318 0.00041645064
-0.025005799 0.0058905971 -0.0016133046 -0.34890038 -0.91965312 -0.18029605 0.00065308233
-0.022666935 0.0049759741 -0.0014168851 -0.32374835 -0.92942148 -0.17709512 0.00026048478
-0.019846316 0.0040049031 -0.0018454368 -0.29565534 -0.93831569 -0.17930853 0.00056772726
-0.017339811 0.0032793966 -0.0017148567 -0.26278588 -0.95119756 -0.16176148 0.00082106225
-0.031393688 0.0084349504 -0.0013620013 -0.37383476 -0.90131533 -0.21881093 0.00066313252
-0.028379403 0.0072011538 -0.0016190239 -0.36023197 -0.90788984 -0.21440358 0.0010603154
-0.026300889 0.0064051547 -0.0017656606 -0.35214067 -0.91285837 -0.20660734 0.0014693631
-0.037516739 0.011223983 -0.0014828186 -0.43321654 -0.87312764 -0.22354327 0.0012085864
-0.034582511 0.0098142214 -0.0016417617 -0.40200114 -0.88681453 -0.22793663 0.00071185571
-0.043076709 0.014224831 -0.0014409126 -0.52473253 -0.82685798 -0.20239 0.0020445134
-0.040505841 0.012837047 -0.0017637284 -0.46181956 -0.8551209 -0.23556504 0.00091315788
-0.048333876 0.0178973 -0.0016547818 -0.57912213 -0.78219748 -0.22974926 0.0011043356
-0.046499427 0.016596256 -0.0015031885 -0.54079312 -0.80025393 -0.25910705 0.0027469969
-0.044526886 0.01526291 -0.001836599 -0.55424666 -0.7982139 -0.23593464 0.0030122935
-0.051685881 0.020337963 -0.0013497504 -0.58921421 -0.78214896 -0.20265666 0.0012638372
-0.049854405 0.019000139 -0.0016685746 -0.57306886 -0.78440613 -0.2372745 0.0013237466
-0.055154853 0.023006694 -0.001546344 -0.61532801 -0.76635838 -0.18457066 0.0010829587
-0.053174186 0.021503326 -0.0017423478 -0.59749436 -0.7741968 -0.20885347 0.000997814
-0.058516409 0.025778444 -0.0015645832 -0.64021778 -0.74555302 -0.18512639 0.0010082147
-0.056643192 0.02422389 -0.0015479878 -0.63496614 -0.74468905 -0.20556305 0.0017170358
-0.061511733 0.028682083 -0.0015907791 -0.71164924 -0.68180239 -0.16941345 0.001083666
-0.059972469 0.027329028 -0.0029159023 -0.67257226 -0.68314159 -0.28454182 0.0014166882
-0.064219065 0.03163987 -0.0015974198 -0.76161957 -0.62735039 -0.1623798 0.0018945074
-0.062958173 0.030390421 -0.0026722965 -0.7477212 -0.62819922 -0.21512517 0.0024456221
-0.00020723653 0.032924924 -0.0026680771 0.10903264 0.93625635 -0.33396986 0.0024306823
0.001730512 0.032943271 -0.0015277106 0.054703381 0.95675296 -0.28571203 0.0026972634
0.0045899395 0.032964002 -0.00081681355 0.024369773 0.95648396 -0.29076546 0.0027630811
0.007809286 0.032982036 -0.00083002506 -0.040619649 0.97979563 -0.19583315 0.0010072532
0.010545498 0.032988787 -0.0021562281 -0.080887057 0.96648186 -0.24365988 0.003489183
-0.066768043 0.034805875 -0.001473787 -0.80720448 -0.5715428 -0.14751178 0.0024418528
-0.065643474 0.03339117 -0.001471399 -0.78741008 -0.59917098 -0.14484252 0.0017871509
0.014090228 0.03350443 -0.0015013288 -0.16865864 0.97355741 -0.15407874 0.0020347356
0.01681298 0.033951998 -0.0017009737 -0.20839354 0.96685648 -0.14751543 0.0010413562
0.019598786 0.034654193 -0.0014883289 -0.23207699 0.9601565 -0.15569158 0.0033907001
0.022309372 0.035378322 -0.0016559589 -0.26656026 0.95741808 -0.11088767 0.0015979377
-0.069273502 0.038444262 -0.0012673109 -0.85153091 -0.49557382 -0.17117733 0.0041146311
-0.068254367 0.036981359 -0.0016710071 -0.82042086 -0.55650008 -0.1312142 0.0022912591
0.025513085 0.03632414 -0.0015000292 -0.30460131 0.94596839 -0.11118399 0.0014396966
0.028792333 0.037382994 -0.0015608076 -0.32191187 0.94408256 -0.071279295 0.0027523793
0.031551223 0.038378548 -0.0014365937 -0.36419585 0.92372876 -0.11868684 0.001404069
-0.07031098 0.040311344 -0.0016247737 -0.87727779 -0.45464832 -0.1538785 0.0042518955
0.034543157 0.039702874 -0.0015793467 -0.42912525 0.89605135 -0.11376967 0.0015735179
0.037566509 0.041270602 -0.0016036704 -0.48048803 0.86994517 -0.11102557 0.0018050822
-0.072156772 0.044337235 -0.0012276003 -0.92504352 -0.32373011 -0.19872932 0.007284292
-0.071470506 0.042952292 -0.0017939475 -0.90430808 -0.39122924 -0.17078234 0.00457648
0.04048894 0.043079428 -0.0014754722 -0.54102629 0.83432877 -0.10576408 0.0024596555
0.042900916 0.044615421 -0.0016375245 -0.56396711 0.82226992 -0.076244928 0.002431382
-0.072830364 0.046462286 -0.0016109722 -0.933092 -0.29378226 -0.20743978 0.0076991552
0.044440217 0.045692571 -0.0011365052 -0.57576609 0.81285942 -0.088050932 0.0027857907
0.046464425 0.046970308 -0.0017159156 -0.54872477 0.82698417 -0.12246823 0.0039340989
-0.073987685 0.049647897 -0.0015943035 -0.9116661 -0.32234588 -0.2548686 0.012763171
0.047996044 0.048177939 -0.00047021752 -0.55379939 0.83229935 -0.024167223 0.0084028542
0.049470197 0.048995674 -0.0016779117 -0.54301703 0.82503331 -0.15637279 0.0034818633
0.051771689 0.050578088 -0.0014386061 -0.57214832 0.81096333 -0.12241235 0.0027815523
-0.075486653 0.052915543 -0.0013487309 -0.93380725 -0.2217377 -0.28077844 0.016777016
-0.074703246 0.052036799 -0.0024733418 -0.88380432 -0.26914904 -0.3826862 0.017543463
0.053278431 0.051599704 -0.0013134127 -0.55552793 0.81912524 -0.14290746 0.0041816072
0.055416111 0.052891459 -0.0018038155 -0.52910954 0.82694912 -0.19025844 0.0058484194
-0.07587599 0.055582721 -0.001723098 -0.94543678 0.084728688 -0.31459564 0.031930245
0.056945689 0.054162107 -0.00035152686 -0.51032478 0.85996705 0.0050304644 0.0084254844
0.058467902 0.055055629 -0.0015577477 -0.56014568 0.79940689 -0.21722215 0.0057921363
0.060605783 0.056619208 -0.0017214069 -0.6647054 0.71695304 -0.21010727 0.0094728069
-0.075293124 0.057362191 -0.0015484262 -0.86692786 0.4325853 -0.24760056 0.04893418
-0.073983796 0.058144625 -0.0016529242 -0.68555278 0.68628955 -0.24294856 0.032087624
-0.071378998 0.059495401 -0.0013625958 -0.42816561 0.89778066 -0.1032674 0.0031853698
-0.065838754 0.059693225 -0.0027001253 0.30012333 0.8390578 -0.45377079 0.023067523
0.062192712 0.058308803 -0.0014433108 -0.75280821 0.61147892 -0.24366623 0.01989205
0.063445725 0.059379753 -0.0024163292 -0.75658917 0.55791503 -0.34103328 0.029865015
-0.069902427 0.060189266 -0.0018373911 -0.21880668 0.95681006 -0.19141068 0.029425694
-0.068332978 0.060624782 -0.0019210648 -0.10629269 0.93785375 -0.33035171 0.035424635
0.064293303 0.061471399 -0.0016073408 -0.80909675 0.4485485 -0.37969285 0.034282405
0.06527669 0.06431672 -0.0015342867 -0.93162 0.26842937 -0.24501008 0.033881102
0.06628754 0.065562889 -0.0026788861 -0.78022832 0.1324421 -0.61131251 0.045895252
0.065711387 0.067005582 -0.00095746235 -0.95202291 0.23089755 -0.20084476 0.034696285
0.066479713 0.067822568 -0.0021909678 -0.87972939 0.23204695 -0.41500655 0.022642665
0.066893451 0.070563778 -0.0016711149 -0.92089939 0.16870716 -0.35140058 0.015299568
0.067368835 0.073463455 -0.0016455416 -0.8859309 0.13355546 -0.4441728 0.020811386
0.06777937 0.076084189 -0.0015574892 -0.77296489 0.24460229 -0.58540148 0.037031207
-0.016390366 0.0026334757 0.0013374113 -0.25430059 -0.95494819 -0.15298738 0.00067163992
-0.01390654 0.0020585232 0.0014030678 -0.21749693 -0.97154826 -0.093750276 0.00073402649
-0.010010512 0.0013952701 0.002041097 -0.17893755 -0.97655803 -0.11964872 0.00067181728
-0.027515629 0.0058332826 0.0019579818 -0.34299698 -0.92077476 -0.18581417 0.0014398969
-0.025379283 0.0054248427 0.0013297012 -0.33766523 -0.92181718 -0.19035541 0.0016330001
-0.022430338 0.0044748224 0.0012229822 -0.32858422 -0.93324119 -0.14523536 0.00077096565
-0.019545447 0.0034537241 0.0015357847 -0.28462103 -0.95220274 -0.11090872 0.00037848807
-0.017727757 0.0031985035 0.00042351615 -0.26923963 -0.95194101 -0.146008 0.00075057143
-0.034233984 0.0086325128 0.0015674891 -0.37281695 -0.89800733 -0.23364557 0.0014094535
-0.031443145 0.0077528371 0.0012745198 -0.37414682 -0.90148115 -0.21759096 0.0012138146
-0.028590798 0.0066861054 0.0012023158 -0.36234695 -0.90996581 -0.2016606 0.0015071498
-0.026636496 0.0063285995 0.00043987151 -0.35756615 -0.91401011 -0.19165584 0.0014435789
-0.040148966 0.011417027 0.0016800879 -0.45793146 -0.85264897 -0.25157198 0.00080665387
-0.037492882 0.010399572 0.001231566 -0.42926124 -0.86853456 -0.24775513 0.0013451912
-0.034949996 0.0095240483 0.00084134768 -0.39431044 -0.88871872 -0.23387691 0.00089282572
-0.045645412 0.014480846 0.0019859772 -0.54324937 -0.79633003 -0.26596734 0.0035715601
-0.043457218 0.013493218 0.0013990466 -0.49301448 -0.82661527 -0.2713742 0.0035751432
-0.040978003 0.012564908 0.00083673466 -0.49136356 -0.82819897 -0.26953346 0.0025248278
-0.049209867 0.017202593 0.0017626981 -0.56376392 -0.78384674 -0.26029691 0.00093141175
-0.046752904 0.015916042 0.0012436956 -0.53967816 -0.79746079 -0.26982161 0.0028714177
-0.044687636 0.015073281 0.00072855572 -0.54320031 -0.79636276 -0.26596972 0.0035725769
-0.054346088 0.020596731 0.002552541 -0.60275185 -0.74685425 -0.2808896 0.0028681529
-0.05234094 0.019687263 0.0017267111 -0.56896377 -0.77111357 -0.28576955 0.0029914514
-0.050120909 0.018668989 0.00091989763 -0.58906645 -0.76254064 -0.26745552 0.0018538682
-0.05735581 0.023453794 0.0023388877 -0.66001183 -0.70510173 -0.25926027 0.0020909228
-0.055510659 0.022395406 0.0015579906 -0.61428362 -0.73732489 -0.28108281 0.0048309942
-0.053401567 0.021245647 0.00096612197 -0.58874661 -0.75970316 -0.27609545 0.0029970489
-0.060429681 0.026539627 0.0022486155 -0.7188887 -0.66499329 -0.20244263 0.00066848018
-0.058734559 0.025336593 0.0014167399 -0.65353334 -0.7214784 -0.22882991 0.0023710455
-0.056819126 0.024206696 0.00052073412 -0.64577842 -0.724177 -0.24194624 0.0023570759
-0.06326893 0.029851779 0.0023344425 -0.77759176 -0.62098026 -0.098663643 0.00073507417
-0.061806884 0.028471632 0.0015383809 -0.7356627 -0.66262144 -0.14047469 0.001325476
-0.0643645 0.031420834 0.001589217 -0.79261786 -0.60658848 -0.061703544 0.00132972
-0.066827774 0.034713313 0.0015490364 -0.82670313 -0.56258285 0.0079000136 0.0011489046
-0.065744981 0.033241704 0.001749458 -0.80830896 -0.58787239 -0.032292258 0.00059604796
0.01353662 0.033518039 0.00083039317 -0.12556072 0.97737277 -0.17022629 0.0015741281
0.016545283 0.034032345 0.00085572049 -0.19560367 0.97076863 -0.13909513 0.0010356139
0.019698136 0.034798775 0.00064138544 -0.2214848 0.96905512 -0.10898019 0.0012806291
0.022506086 0.035417333 0.0019931057 -0.25595173 0.96437609 -0.066839278 0.0017345356
-0.069289558 0.038437989 0.0014665338 -0.8612982 -0.50382847 0.065744556 0.0017522733
-0.068306625 0.036874972 0.0014182189 -0.8514744 -0.52187991 0.051308785 0.0023012208
0.025009101 0.036265153 0.0010164633 -0.27069464 0.96219087 -0.030218925 0.0016589779
0.028527565 0.03739151 0.00099006447 -0.31748667 0.94704944 -0.047954503 0.0025740631
0.031599376 0.038443491 0.001312934 -0.39407912 0.91810381 -0.042275008 0.0030291546
-0.070370488 0.040374018 0.0013811584 -0.89710462 -0.43117416 0.096395418 0.00257974
0.034367081 0.039684094 0.0011962692 -0.38188019 0.92416847 0.0089518549 0.0047929864
0.037510194 0.041229479 0.0015585336 -0.48613811 0.86033118 0.15329738 0.0032287491
-0.072222181 0.044508517 0.00075047713 -0.93427634 -0.31874144 0.1597863 0.0052153463
-0.071583785 0.043129422 0.001481402 -0.92232192 -0.34009689 0.18345666 0.0045912387
0.040579554 0.043103084 0.001369761 -0.53603488 0.83497053 0.12446224 0.0026299418
0.042647932 0.044379022 0.001793663 -0.55659503 0.82147801 0.12399964 0.0021990079
-0.072756782 0.046383061 0.0012390967 -0.93268597 -0.3140215 0.17744671 0.0046130838
0.044077601 0.04531062 0.001786674 -0.5416705 0.83198828 0.11995248 0.0024186375
0.046421062 0.046967402 0.0011993611 -0.53803688 0.8356927 0.11015502 0.0020051703
-0.073842771 0.049377263 0.0012970546 -0.90885997 -0.408097 0.08619976 0.0056688953
