# .PCD v0.7 - Point Cloud Data file format
VERSION 0.7
FIELDS x y z normal_x normal_y normal_z curvature
SIZE 4 4 4 4 4 4 4
TYPE F F F F F F F
COUNT 1 1 1 1 1 1 1
WIDTH 550
HEIGHT 1
VIEWPOINT 0 0 0 1 0 0 0
POINTS 550
DATA ascii
0.022346161 0.0083262725 -0.012732442 0.12756367 -0.67874157 -0.72321326 0.0017446418
0.025350297 0.0085799554 -0.01238557 0.16135755 -0.68965232 -0.70593441 0.0012457946
0.027756842 0.0088838972 -0.012085215 0.19284581 -0.70832169 -0.67903674 0.0007783224
-0.025145732 0.011813162 -0.012113127 -0.23440549 -0.65678024 -0.71672434 0.00077905698
-0.021881741 0.011242871 -0.012476748 -0.21542101 -0.63686454 -0.74026841 0.0011138156
-0.019344263 0.010532428 -0.01257923 -0.1960801 -0.61963445 -0.76000375 0.0012747319
-0.016682193 0.0098511167 -0.012643218 -0.18195866 -0.6215772 -0.76192707 0.0010251246
-0.013362403 0.0099812066 -0.013449307 -0.13973746 -0.62662953 -0.76668698 0.00042737287
-0.010480947 0.010123864 -0.013950584 -0.12682615 -0.61929256 -0.77484965 0.00021349684
-0.008511846 0.0091959154 -0.013502929 -0.089268297 -0.61092144 -0.78664225 0.00062536984
-0.0038841823 0.0098896604 -0.014275387 -0.066736914 -0.58889389 -0.80545026 0.0002504421
-0.0012025815 0.00934905 -0.014119951 -0.045069031 -0.59297317 -0.80396003 0.00053951307
0.0028608632 0.0092407232 -0.014160715 -0.027679704 -0.58101583 -0.81342143 9.9519697e-05
0.0056119286 0.0094247563 -0.014336446 -0.01085659 -0.57562357 -0.81764275 0.0001220615
0.0081446702 0.0098618614 -0.014623533 0.0086281868 -0.57006854 -0.82155192 0.00036086875
0.010483623 0.0095507978 -0.01445071 0.021141771 -0.57908297 -0.81499445 0.00056795904
0.013920517 0.0099112093 -0.014594487 0.036936652 -0.57255387 -0.81903464 0.00059758162
0.017204639 0.0093689077 -0.014152754 0.077961735 -0.61259317 -0.78654408 0.00059481547
0.019508265 0.0099052377 -0.014325532 0.093028791 -0.58940166 -0.8024658 0.00067873986
0.022496102 0.010067973 -0.014101228 0.11442664 -0.58665854 -0.80170959 0.0011027827
0.025614044 0.010234803 -0.013742041 0.13672544 -0.58909875 -0.79640996 0.00073641021
0.02873606 0.010184209 -0.013002932 0.20091125 -0.67855591 -0.70653844 0.00096201658
0.031554505 0.010600157 -0.012616556 0.23130119 -0.6996004 -0.67606145 0.0014218822
0.034105115 0.011444613 -0.012574704 0.24029484 -0.67555469 -0.69705397 0.0016091031
0.036363058 0.011889151 -0.012215393 0.26313365 -0.67789477 -0.68645424 0.0012659084
-0.031022567 0.014598604 -0.012531618 -0.2614902 -0.6416744 -0.72102493 0.00097836403
-0.028645154 0.013715063 -0.012467859 -0.25001073 -0.63907933 -0.72737354 0.00075826736
-0.02555283 0.013392793 -0.013129842 -0.24180093 -0.63288927 -0.73551577 0.00065678195
-0.022797503 0.012566239 -0.013217319 -0.21843357 -0.62526292 -0.74922156 0.00045493626
-0.020269573 0.012746831 -0.014058471 -0.18797557 -0.58073294 -0.79209501 0.00052934705
-0.017450875 0.01280122 -0.014500108 -0.17990762 -0.59829438 -0.78081822 0.00042940932
0.026160188 0.0120412 -0.014908275 0.12999673 -0.54230928 -0.8300612 0.0015842312
0.028032703 0.012301215 -0.014800816 0.14769876 -0.56099486 -0.81453651 0.0010680347
0.031557158 0.012684477 -0.014325341 0.19162835 -0.58415937 -0.78869283 0.00067901495
0.034651943 0.013140716 -0.013854004 0.2115906 -0.58151644 -0.78553683 0.00053131592
0.037371382 0.013507015 -0.013290744 0.28707406 -0.65124285 -0.70247507 0.0012404372
0.040229023 0.014020838 -0.012642724 0.31143296 -0.65686846 -0.68668282 0.0013692488
0.042327255 0.014579049 -0.012180873 0.35436752 -0.67955852 -0.64235812 0.00077924738
-0.037156321 0.017464843 -0.012559459 -0.32050613 -0.61046505 -0.72429854 0.0010139362
-0.034259852 0.016650217 -0.013032252 -0.26852342 -0.58510405 -0.76521134 0.0016760868
-0.031398464 0.015814353 -0.013232587 -0.25737369 -0.61951816 -0.7415902 0.00062913069
-0.028342567 0.015426729 -0.013849621 -0.24928713 -0.61797458 -0.74562949 0.00061603729
-0.024936564 0.015344507 -0.01466227 -0.21580964 -0.57916564 -0.78612554 0.00020409253
0.038009249 0.015538614 -0.014652853 0.2545062 -0.5607391 -0.78790754 0.00070395548
0.040785134 0.016106389 -0.014104715 0.28142065 -0.56478709 -0.77576929 0.0010600098
0.043425068 0.016126921 -0.01301058 0.35541609 -0.62523395 -0.69481063 0.0015930011
0.046166584 0.017157473 -0.012551937 0.38825828 -0.62302679 -0.67903835 0.0011520422
0.048206788 0.017943813 -0.012051786 0.43706539 -0.66235131 -0.60849375 0.00084553793
-0.042512573 0.020556521 -0.012458988 -0.40092412 -0.58584148 -0.70430791 0.00074693968
-0.040282026 0.019669836 -0.012867858 -0.37173986 -0.59277308 -0.71444356 0.00076468609
-0.03761889 0.019149622 -0.013603434 -0.32670179 -0.57997245 -0.74625599 0.00070271624
-0.034581166 0.018869538 -0.014439964 -0.27356759 -0.55741858 -0.78386563 0.00080669491
0.044111624 0.01851676 -0.014504336 0.32198313 -0.5484724 -0.77168959 0.0013283384
0.046669506 0.01908474 -0.013766136 0.35421655 -0.53082448 -0.76990646 0.0011843444
0.049212631 0.019433966 -0.01271522 0.43699133 -0.60392421 -0.66656888 0.000882408
0.051546387 0.020354822 -0.012141292 0.44754022 -0.56809229 -0.69063658 0.0014103446
-0.045818429 0.023074305 -0.01255516 -0.42777815 -0.58081347 -0.69257605 0.00017738389
-0.043813799 0.022197014 -0.01297379 -0.40380719 -0.56790733 -0.71723151 0.00050987111
-0.041017562 0.02199669 -0.014111584 -0.3746058 -0.56817448 -0.73269933 0.00042207562
0.047636088 0.021725889 -0.014930639 0.34486973 -0.45276368 -0.82223475 0.00046135773
0.049377177 0.02168538 -0.014144099 0.39588341 -0.49711695 -0.77210814 0.0007263897
0.052667633 0.022107027 -0.01265287 0.46561578 -0.55573404 -0.68873912 0.00081748224
0.054468546 0.023276806 -0.012370694 0.49144471 -0.53008634 -0.69100696 0.00099153037
-0.051387377 0.026874475 -0.012206983 -0.45707309 -0.5596295 -0.69130248 0.00074803352
-0.049313374 0.025606994 -0.012471851 -0.43586978 -0.57734531 -0.69042736 0.0004456465
-0.047175873 0.025040649 -0.013201202 -0.43648526 -0.57199806 -0.69447738 0.00044079882
0.050988924 0.02446384 -0.014811894 0.39082572 -0.37323043 -0.84140027 0.00060774508
0.052705146 0.025165552 -0.014347238 0.39810377 -0.36650819 -0.84094298 0.00051794824
0.055846173 0.024752706 -0.012396556 0.51256442 -0.51115274 -0.68992805 0.00087281858
0.0575555 0.026424972 -0.012308978 0.51154572 -0.42841834 -0.74483466 0.0018459081
-0.054074861 0.029076472 -0.012057734 -0.49962553 -0.53803164 -0.67889351 0.00031515738
-0.052594021 0.028722882 -0.01270603 -0.46586457 -0.53363466 -0.70583588 0.00048752633
-0.049503647 0.027054496 -0.013337039 -0.43791479 -0.55503547 -0.70722443 0.00054922403
0.055775184 0.028305847 -0.014073797 0.43982241 -0.33218247 -0.83439267 0.00079708832
0.05831841 0.028711701 -0.012871413 0.50391209 -0.3541798 -0.78780025 0.0011443767
0.060358264 0.029701939 -0.012012323 0.5555138 -0.36034063 -0.74937242 0.0014964977
0.059165955 0.031644605 -0.013353438 0.52488148 -0.32378137 -0.78718811 0.0011731758
0.060817964 0.031721819 -0.012426376 0.56843978 -0.31121176 -0.76159275 0.00093148579
0.06318941 0.037144452 -0.012025425 0.60615081 -0.19252262 -0.77169704 0.0007065878
-0.01556585 0.0058766403 -0.0092194676 -0.20519634 -0.77856988 -0.59306276 0.00071629265
-0.013283237 0.0055694622 -0.0094210552 -0.18039039 -0.7782777 -0.60145092 0.0015319254
-0.010699537 0.0050955294 -0.0094799437 -0.14572076 -0.80590898 -0.57382601 0.000733978
-0.0075329123 0.0047282279 -0.0096055428 -0.10517713 -0.790362 -0.60354424 0.0010215368
-0.0042567239 0.0047798832 -0.010136057 -0.078807622 -0.77147269 -0.63136292 0.0010930969
-0.0014790399 0.0043978472 -0.0099445321 -0.057305288 -0.77356297 -0.63112307 0.0020755616
0.0014433895 0.0043301606 -0.010018238 -0.030388666 -0.79748362 -0.60257477 0.0015845773
0.0045279358 0.0043779784 -0.010159253 -0.004234605 -0.78564262 -0.61866617 0.0013057663
0.0080062384 0.0041781478 -0.0098726079 0.03919249 -0.78951609 -0.61247712 0.0010163707
0.010488119 0.0042617465 -0.0098488405 0.049951404 -0.8247686 -0.5632599 0.0011800844
0.013437035 0.004582908 -0.0099809906 0.077260569 -0.80492127 -0.58833033 0.0011175894
0.016508536 0.004960862 -0.010047276 0.11172053 -0.80306834 -0.58532029 0.0011379004
0.019355357 0.0052975761 -0.0099485153 0.13417709 -0.80566871 -0.57697004 0.00079115666
0.022189494 0.0055347318 -0.0095261335 0.18326464 -0.84184939 -0.50764531 0.00092283089
0.02461504 0.0058471984 -0.0092810802 0.19219522 -0.80402726 -0.56267321 0.00065684598
-0.024417799 0.0088555021 -0.0091598928 -0.29001859 -0.75416225 -0.58917612 0.0014957734
-0.022775471 0.0084749842 -0.0095316311 -0.28468803 -0.76931381 -0.5719344 0.0011098103
-0.019347372 0.0078503871 -0.010099017 -0.24114983 -0.74174851 -0.62582409 0.0011510231
-0.016563458 0.007122172 -0.010204525 -0.20412247 -0.74807423 -0.63144189 0.00086380146
-0.013340483 0.0068211015 -0.010751518 -0.1626938 -0.73154676 -0.66209519 0.0014920988
-0.010283937 0.0065994803 -0.011169195 -0.1235311 -0.70496303 -0.69840324 0.00056029734
-0.0077010239 0.0063520912 -0.011312596 -0.10177522 -0.68259633 -0.72367406 0.0012497624
-0.0047246087 0.0062988936 -0.011671651 -0.076053597 -0.69928712 -0.71078366 0.00097374228
-0.0017213202 0.0061414414 -0.011766436 -0.045918293 -0.6831128 -0.72886789 0.0024595573
0.0021674461 0.0060051056 -0.011794073 -0.03207422 -0.67793173 -0.73442483 0.0026107414
0.0050229961 0.0060506589 -0.011911413 0.0050358335 -0.67994368 -0.73324704 0.0025860539
0.010229811 0.0060870759 -0.011847299 0.024794048 -0.69105667 -0.72237521 0.0025067241
0.013904043 0.0061489618 -0.011722961 0.063175417 -0.72545487 -0.68536425 0.0011886547
0.016311439 0.0062961876 -0.011665647 0.095408127 -0.74119812 -0.66447163 0.00080993812
0.019918961 0.0064949999 -0.011325536 0.12983935 -0.76316321 -0.63302737 0.0008741027
0.022832835 0.0066804281 -0.010888834 0.15990794 -0.78106099 -0.60363328 0.00072692533
0.025582433 0.0069994694 -0.010489016 0.19466408 -0.7914387 -0.57942277 0.00062675728
0.028399495 0.0073266705 -0.0099260965 0.22734818 -0.82779115 -0.51290798 0.0013098876
0.031131554 0.0080247251 -0.0098104225 0.26058 -0.80225289 -0.53711116 0.0011561709
0.033907332 0.0086872522 -0.0094342995 0.28884447 -0.79718339 -0.53015804 0.00090542401
-0.030815408 0.01142536 -0.009286751 -0.31190732 -0.74562299 -0.58886343 0.00094759621
-0.028270485 0.010822341 -0.0098077124 -0.30460024 -0.76641071 -0.56553805 0.00098884013
-0.025401875 0.010229976 -0.010325792 -0.27727136 -0.72208518 -0.63380873 0.0015334766
-0.02250077 0.0099238548 -0.011158682 -0.25303939 -0.70743048 -0.65993422 0.00094400981
-0.020077884 0.0093423259 -0.011386423 -0.21987768 -0.66995978 -0.70908934 0.00091598998
-0.017466076 0.0090096286 -0.011932512 -0.17766705 -0.67219353 -0.71874219 0.0011307012
0.029220119 0.0090646278 -0.011841526 0.20290546 -0.73564947 -0.64625794 0.00096705672
0.0317913 0.0095638111 -0.011490424 0.23868477 -0.73257053 -0.63747156 0.00093047693
0.03456305 0.009910116 -0.010738037 0.27982053 -0.76614583 -0.57855093 0.0011830451
0.037186351 0.01046488 -0.010121319 0.32771868 -0.80009037 -0.50244987 0.0010696189
0.040354077 0.01148279 -0.0096509857 0.37286577 -0.78964341 -0.48727238 0.00086565828
0.042296313 0.011974086 -0.0091087511 0.39859363 -0.74673378 -0.53245825 0.0012512531
-0.037157301 0.014427622 -0.0094932923 -0.36920258 -0.7480951 -0.55140108 0.0010605532
-0.034481175 0.013506399 -0.0099196201 -0.33429471 -0.75337434 -0.56628102 0.0012068346
-0.031993672 0.012675598 -0.010206266 -0.3143799 -0.74752706 -0.5851227 0.0010394722
-0.028950317 0.012522602 -0.011333301 -0.27623454 -0.69828933 -0.6603685 0.00090931216
0.038644489 0.012186577 -0.011508408 0.30041835 -0.7088148 -0.63822442 0.0015329584
0.041119903 0.012657066 -0.010711032 0.35546076 -0.74527615 -0.56410211 0.00090551871
0.043475147 0.013502574 -0.010290345 0.38767114 -0.73570716 -0.55537915 0.00079619314
0.046057533 0.014359828 -0.0095780492 0.43811178 -0.75357407 -0.49008578 0.00091805833
-0.042955939 0.017578367 -0.0092976177 -0.47554255 -0.72489393 -0.49838552 0.0012661822
-0.04054518 0.016240414 -0.0095111523 -0.42622572 -0.74510032 -0.51298839 0.0013430839
-0.037531964 0.015613771 -0.010665742 -0.36152884 -0.71548557 -0.59781033 0.0012479082
-0.035258695 0.015308049 -0.011382157 -0.31331033 -0.67234325 -0.67066473 0.0013721937
0.04456231 0.015146324 -0.011564758 0.36005315 -0.67823946 -0.64058793 0.0017195314
0.047367863 0.01550002 -0.0099935411 0.43893465 -0.72986168 -0.52405953 0.0010570768
0.049429044 0.016691709 -0.0098966416 0.46391788 -0.72629333 -0.50722599 0.0010951012
0.051494494 0.017610054 -0.0093567539 0.48076677 -0.6699692 -0.5656895 0.0013273599
-0.046445422 0.020161938 -0.0096103828 -0.49451968 -0.68393463 -0.53636163 0.0011910532
-0.043650236 0.019139057 -0.010531453 -0.44361413 -0.6292209 -0.63819087 0.0016654858
-0.041164074 0.018471241 -0.011496268 -0.36936909 -0.59550059 -0.71340424 0.00079032959
0.050183047 0.018427359 -0.011260505 0.43444404 -0.61895472 -0.65433437 0.0013143496
0.05251969 0.019329654 -0.010405079 0.47527397 -0.63259923 -0.61150056 0.001689226
0.054763637 0.02044047 -0.0097351307 0.52489424 -0.6380921 -0.56331563 0.0014159696
-0.051346347 0.023528516 -0.0092853475 -0.51709849 -0.68692207 -0.51063406 0.0014495434
-0.049105994 0.02225508 -0.0096514355 -0.52058393 -0.68009323 -0.51620305 0.00092295825
-0.046951286 0.022113513 -0.011109446 -0.45380494 -0.59970754 -0.65909934 0.0011882634
0.053510029 0.021426564 -0.011633311 0.48879653 -0.58553946 -0.6467005 0.00072034512
0.055809051 0.022153338 -0.010489305 0.52024484 -0.57550508 -0.63098276 0.0011310835
0.057889797 0.023129005 -0.0096161589 0.56519723 -0.57366985 -0.59283644 0.0010479883
-0.054362699 0.026247855 -0.0095839705 -0.5050782 -0.58524102 -0.63434142 0.00091561652
-0.052473869 0.025481038 -0.010295601 -0.47253895 -0.61757755 -0.6287328 0.0014363857
-0.050150439 0.024810079 -0.011354227 -0.43755233 -0.57288951 -0.69306976 0.00052870583
0.056640357 0.024390588 -0.011658975 0.53142476 -0.53198051 -0.65923011 0.00074089301
0.058747299 0.025124552 -0.010487008 0.57104737 -0.51824236 -0.63665515 0.00083706289
0.060693227 0.026124451 -0.0095515326 0.61185896 -0.51715124 -0.5984841 0.00095157279
-0.058239132 0.02929025 -0.0090960674 -0.59977925 -0.61020583 -0.51760381 0.0013627466
-0.055595439 0.028329959 -0.010403408 -0.51278096 -0.5581001 -0.65236497 0.001402098
-0.052862212 0.027230147 -0.01156297 -0.46666026 -0.56175834 -0.6831221 0.0010400191
0.059540287 0.027775334 -0.01163047 0.55158436 -0.43660465 -0.71072567 0.0012399843
0.061638728 0.028307661 -0.010188419 0.6168285 -0.46037409 -0.63841856 0.00085358956
0.063229814 0.029273733 -0.0093774796 0.64898795 -0.42455634 -0.63132131 0.0013265791
-0.060495585 0.032406874 -0.0094385343 -0.62256259 -0.52414185 -0.58111203 0.00061119482
-0.058165651 0.031091839 -0.010445138 -0.56065422 -0.52542019 -0.6400004 0.001053207
-0.056188934 0.030541928 -0.011598561 -0.51793563 -0.52193606 -0.67773563 0.00038621959
0.062571824 0.030889869 -0.010807531 0.63050997 -0.36523029 -0.68488252 0.0010989541
0.064076655 0.031291828 -0.0096765719 0.68168956 -0.38982844 -0.61913896 0.0011305491
-0.061974667 0.034309123 -0.0094035305 -0.64509809 -0.50480902 -0.57359952 0.0012970584
0.064904906 0.033689164 -0.0099524669 0.6800738 -0.30779001 -0.66540581 0.0016194547
0.066162601 0.034580853 -0.0091667147 0.72470492 -0.27802676 -0.63047904 0.0015911836
0.064710364 0.036823321 -0.01087977 0.64840031 -0.18856908 -0.73757631 0.00146327
0.066564605 0.037598912 -0.009629515 0.6650815 -0.17316139 -0.72641712 0.0017588197
0.067011639 0.039782636 -0.0095437001 0.67032284 -0.10486987 -0.73462206 0.002168677
-0.009819149 0.0028064952 -0.006357674 -0.15700683 -0.86699551 -0.47293505 0.0012463194
-0.0076139974 0.0026841827 -0.0066377465 -0.11790148 -0.9082225 -0.40153596 0.0017679251
-0.0039770775 0.0023056343 -0.0066351038 -0.08087147 -0.90624118 -0.41495386 0.001315227
-0.0020902038 0.0023078038 -0.0069130799 -0.061713498 -0.90993184 -0.4101409 0.0016204445
0.0014458004 0.0021132885 -0.006853099 -0.02684636 -0.91194361 -0.40943637 0.0011464027
0.0046171458 0.0021334037 -0.0069672042 0.012786426 -0.91205502 -0.40986851 0.0011472262
0.0076463623 0.0022182702 -0.0070011779 0.047238685 -0.91349161 -0.40410587 0.0011827665
0.010481331 0.0023362804 -0.0069192308 0.063310251 -0.90977073 -0.41025496 0.001084496
0.013591756 0.0026037602 -0.0068928418 0.093396984 -0.91295838 -0.39722028 0.0013026457
0.016129086 0.0027462288 -0.0066009895 0.11704989 -0.9074958 -0.40342379 0.00085177232
0.018464766 0.0029015548 -0.006293992 0.15701805 -0.88965017 -0.4287982 0.0012115969
-0.021688957 0.0058284821 -0.0061458442 -0.3083998 -0.84266514 -0.44136718 0.00094296393
-0.019414173 0.0054385308 -0.0067881923 -0.27284122 -0.83648688 -0.475234 0.0012215321
-0.016412498 0.0047513433 -0.0071437703 -0.22520237 -0.84108758 -0.49178818 0.001357883
-0.01354089 0.0041380255 -0.0072887111 -0.19067849 -0.85281271 -0.48616076 0.0013403295
-0.010643017 0.0035827521 -0.0073015951 -0.15527204 -0.86057597 -0.4850769 0.0018879488
-0.0075051095 0.0035160319 -0.0079752505 -0.1113324 -0.83279324 -0.54227346 0.001410088
-0.0046965247 0.0034382374 -0.0083689019 -0.086448371 -0.83885306 -0.53744978 0.0014239275
-0.0015301764 0.0032004456 -0.0083634919 -0.056425653 -0.83427948 -0.54844683 0.001235701
0.0018991054 0.0033320989 -0.0088346489 -0.030523837 -0.81909961 -0.57283872 0.00072777952
0.0045648334 0.0032473952 -0.0087750917 0.0032169002 -0.84176105 -0.53984076 0.0011491152
0.0073522534 0.0032958009 -0.0087581128 0.025858238 -0.8533833 -0.52064222 0.00094758172
0.010888281 0.0032624633 -0.0084590549 0.059311781 -0.8458693 -0.53008223 0.0011471517
0.013924126 0.0032245137 -0.008017539 0.093688168 -0.89237779 -0.44145721 0.00094635109
0.016472388 0.0034158078 -0.0077803531 0.11591372 -0.88462162 -0.45167318 0.00093866425
0.019699285 0.0035992276 -0.0071606738 0.17060266 -0.88554358 -0.43209639 0.0010620963
0.02272414 0.0042168912 -0.0072195763 0.19320661 -0.88469172 -0.42425445 0.0012565563
0.025593664 0.0049049547 -0.0072527444 0.21457773 -0.87156314 -0.44083348 0.0010124251
0.028380284 0.0054632626 -0.0069085155 0.25145385 -0.88058877 -0.40166447 0.0012240293
0.030353026 0.0058426289 -0.0064800666 0.27976176 -0.87021071 -0.40554491 0.0014919892
-0.027999735 0.008564638 -0.0066555953 -0.33225015 -0.83208477 -0.44412249 0.0009114967
-0.025411882 0.0078740492 -0.0071915863 -0.30528018 -0.82082808 -0.48274764 0.0013004029
-0.022583127 0.0069466121 -0.0074157761 -0.30508146 -0.82726163 -0.47176635 0.001249444
-0.019777469 0.006447529 -0.0082202908 -0.26957667 -0.80702639 -0.525392 0.00097551977
-0.017437108 0.0060565365 -0.0087467562 -0.22469412 -0.77432477 -0.5915519 0.0011786453
0.026813272 0.0061560972 -0.0089288652 0.21978384 -0.81522697 -0.53581721 0.00082119519
0.029184705 0.0063922196 -0.0082224226 0.25228846 -0.84989244 -0.46263748 0.00095374481
0.031597495 0.0067123012 -0.0074230675 0.28786853 -0.8683722 -0.40380874 0.0012033124
0.034528941 0.0077064806 -0.0073554995 0.31876731 -0.85473627 -0.4096503 0.0011766205
0.037319276 0.0084738024 -0.0067676865 0.34707284 -0.85220212 -0.39152518 0.00095693325
0.039149173 0.0089647118 -0.0063231173 0.38664353 -0.83719778 -0.38679022 0.001590781
-0.036536597 0.011920919 -0.0062830979 -0.40403756 -0.80519038 -0.4340761 0.001280982
-0.034283105 0.011296345 -0.0068773185 -0.36100262 -0.81189638 -0.45880428 0.0011654457
-0.031465534 0.010393967 -0.0073716133 -0.34507787 -0.81701314 -0.46196401 0.001292813
-0.029208761 0.0095580071 -0.0074914293 -0.35014242 -0.85099787 -0.39141151 0.001161666
-0.026624659 0.0093049435 -0.0086349016 -0.30410516 -0.77061403 -0.56006616 0.0010752046
0.035929941 0.0090434141 -0.008867437 0.3216165 -0.77681541 -0.54140621 0.0011928516
0.03809841 0.0095365271 -0.008175591 0.34909534 -0.83048886 -0.43407461 0.0013066453
0.040523008 0.01009328 -0.0072250152 0.37776965 -0.83042067 -0.4095017 0.0011841357
0.043237977 0.011264415 -0.0070080273 0.40947723 -0.80966073 -0.42044958 0.0010497244
0.04526259 0.011883204 -0.0063296938 0.42719162 -0.80104232 -0.41933107 0.0012536771
-0.042222731 0.014873353 -0.0062253946 -0.46515581 -0.76755041 -0.44101748 0.0009128527
-0.040339235 0.014307552 -0.0069391495 -0.44217899 -0.77722651 -0.44765699 0.0010750346
-0.037596501 0.013091004 -0.0073033106 -0.4015187 -0.79660839 -0.45188254 0.00094657933
-0.035002783 0.012435868 -0.0082081463 -0.35700706 -0.78599477 -0.50473577 0.0010053207
0.04401879 0.012441632 -0.008408145 0.41174197 -0.79112524 -0.4523156 0.0009427144
0.046431303 0.013149744 -0.0073553203 0.44546241 -0.78871423 -0.42366639 0.0010412283
0.04897321 0.014307579 -0.0067727841 0.47928846 -0.77069086 -0.41990253 0.0011425423
-0.045667257 0.017582297 -0.006744056 -0.52220541 -0.74838573 -0.40892586 0.001314404
-0.043328695 0.016308697 -0.0072125448 -0.48802894 -0.74996728 -0.44651628 0.00092588086
-0.04105629 0.015480254 -0.0081506027 -0.43757829 -0.75849175 -0.48292381 0.0010647298
0.049906347 0.015543622 -0.0078925472 0.48128492 -0.75514489 -0.44510776 0.0011147767
0.052274995 0.016720083 -0.0072295894 0.51213622 -0.74543607 -0.42666322 0.0011752095
0.054297283 0.017733417 -0.0065434244 0.54062539 -0.73791391 -0.40398917 0.0014633934
-0.049222063 0.020252505 -0.0069712512 -0.54336417 -0.71920854 -0.43300632 0.0010011526
-0.046786815 0.018869545 -0.0074459966 -0.51999748 -0.73705202 -0.43169081 0.0012337633
0.053465873 0.018418843 -0.008559729 0.5150134 -0.69277716 -0.50479794 0.0013505614
0.055561367 0.019380208 -0.0075638876 0.56156963 -0.7037105 -0.43523687 0.0011039276
0.057681303 0.020488318 -0.0066705281 0.57844061 -0.67417866 -0.45922709 0.0011651409
-0.054324318 0.023743406 -0.006395109 -0.54610848 -0.70323253 -0.45522472 0.0009391185
-0.052420408 0.022790341 -0.0071418188 -0.54338616 -0.71972913 -0.43211275 0.0010978222
-0.050526679 0.021463081 -0.0071428339 -0.55175245 -0.73641145 -0.39149395 0.00084568682
0.05679372 0.021126481 -0.0085911993 0.56197894 -0.62750977 -0.53889805 0.0011260945
0.058496706 0.021930104 -0.0076105488 0.60641229 -0.65541655 -0.45021477 0.001295549
0.060665689 0.023249695 -0.0065849801 0.64324665 -0.63015586 -0.43489915 0.00138724
-0.057355165 0.026371902 -0.0066131819 -0.59898251 -0.67423898 -0.43199748 0.0010894487
-0.055423319 0.025143662 -0.0071782395 -0.56458712 -0.69584447 -0.44389403 0.0011878721
-0.053117767 0.024485098 -0.0087184384 -0.52964443 -0.67717594 -0.51079297 0.00084718829
0.059768036 0.024099015 -0.0087602157 0.5831185 -0.57104647 -0.57782245 0.0012838987
0.061924472 0.025038857 -0.0070746727 0.67127568 -0.58618551 -0.45362493 0.001767636
0.063490704 0.026420003 -0.0066193701 0.68293977 -0.54506123 -0.48631418 0.0016260849
-0.0606886 0.029349469 -0.0062423134 -0.64565647 -0.6183365 -0.44809338 0.00085535762
-0.058641631 0.027778989 -0.0068886229 -0.61940986 -0.63995075 -0.4547466 0.0015182676
-0.056820147 0.027413916 -0.0084827403 -0.58135664 -0.62308013 -0.52325481 0.0013227272
0.062631428 0.027500356 -0.0087000672 0.66001809 -0.48673171 -0.57224858 0.0016537589
0.064737603 0.028437601 -0.0068068593 0.73976624 -0.51436603 -0.43378979 0.0017950995
0.066203415 0.029755836 -0.0060655982 0.74554807 -0.46925157 -0.4732452 0.0021701183
-0.06326592 0.032295674 -0.0062226299 -0.66655803 -0.53613526 -0.51793766 0.0014356006
-0.061739713 0.030898089 -0.0066653914 -0.67451388 -0.60955346 -0.416504 0.0022294726
-0.059720844 0.030495148 -0.0086713266 -0.60883373 -0.53328902 -0.58730257 0.00059763488
0.065382488 0.030899225 -0.0080744708 0.70486486 -0.39274982 -0.59068877 0.00097674073
0.06675408 0.031737849 -0.0068686604 0.74815947 -0.40190285 -0.52795017 0.0016679092
-0.063998662 0.033839457 -0.0068305605 -0.68973845 -0.51707095 -0.50685161 0.0013896964
-0.062574059 0.033654146 -0.0083462801 -0.66533583 -0.52015722 -0.53550428 0.00097286492
0.065791234 0.033019617 -0.0087675164 0.75687522 -0.36297637 -0.54349625 0.0010333686
0.067723177 0.034493849 -0.0072317687 0.76963454 -0.32063386 -0.55213815 0.0013338876
-0.066325791 0.036583215 -0.006315215 -0.7246446 -0.5246262 -0.44683051 0.0013661891
-0.064884327 0.036331311 -0.0078123598 -0.70357263 -0.47743472 -0.52634746 0.00083480851
0.068247765 0.037204634 -0.0077437833 0.78877199 -0.24284308 -0.56468219 0.0021914255
0.069334686 0.037391998 -0.0064329132 0.82701695 -0.24443886 -0.50625348 0.0017043353
0.068651602 0.039732233 -0.0078720767 0.7938835 -0.16893364 -0.58413225 0.0020887144
0.069735579 0.04049395 -0.0067411088 0.83991265 -0.13701095 -0.52514255 0.0023996034
0.068492733 0.042333942 -0.0083776722 0.78337806 -0.072689049 -0.61728048 0.0014407792
0.070049867 0.043441847 -0.0066320393 0.84054172 -0.048045173 -0.53961217 0.0021313904
0.070067801 0.046803333 -0.0065100179 0.84482074 -0.023651803 -0.53452653 0.0029372144
0.069758058 0.04922555 -0.0064857486 0.87100047 -0.0051046847 -0.49125564 0.0021450627
-0.015458932 0.0028405781 -0.0034203443 -0.24593516 -0.91813606 -0.31071204 0.0020882247
-0.013262654 0.0026563352 -0.0043136235 -0.19223429 -0.93709135 -0.29138595 0.0018339837
-0.010403913 0.0021838595 -0.0045015672 -0.16050841 -0.94254208 -0.29300436 0.0020438004
-0.0075982534 0.0016707752 -0.0043042065 -0.12108295 -0.93792033 -0.32502979 0.001584817
-0.0044518462 0.0013451928 -0.0044005029 -0.089049444 -0.94015491 -0.32890567 0.0017318631
-0.0012832183 0.001050209 -0.004218014 -0.053299736 -0.96061879 -0.27270985 0.0032177004
0.001658428 0.00096013542 -0.0042585488 -0.024792925 -0.95329159 -0.30103239 0.0022409603
0.0047319457 0.00092012755 -0.0041978308 0.012470019 -0.96109396 -0.27593982 0.0032739395
0.0076184538 0.0010258293 -0.0042755404 0.039893039 -0.95271021 -0.30125037 0.0018649367
0.010540072 0.0012292032 -0.0043303454 0.079328761 -0.94952476 -0.30349597 0.0019000442
0.013505814 0.001514205 -0.0043397979 0.105447 -0.9496302 -0.2950989 0.0016207319
0.016578313 0.0019160397 -0.0043565254 0.13192467 -0.94724661 -0.29209527 0.0017038098
0.0194299 0.0023793741 -0.0043588202 0.15833107 -0.94941235 -0.27119631 0.001603258
0.022118919 0.0027545202 -0.0039103925 0.199736 -0.94430637 -0.26151684 0.001477421
-0.024415769 0.0058187242 -0.0036946086 -0.34155405 -0.88489664 -0.31669986 0.0023786528
-0.0224953 0.005355807 -0.0041386308 -0.32330656 -0.91231841 -0.25129285 0.0013488239
-0.019473186 0.0042903251 -0.0041375249 -0.28907511 -0.9179402 -0.27170104 0.0014507265
-0.016701255 0.0036190059 -0.0045426106 -0.26128623 -0.92372817 -0.28009933 0.0014956146
-0.014199985 0.0032314309 -0.005223494 -0.21056102 -0.92680359 -0.3109647 0.0015144986
0.020567751 0.0030386725 -0.0056981109 0.16548048 -0.92510724 -0.34174958 0.0010963568
0.022897299 0.0032701381 -0.0049889823 0.21846543 -0.93365633 -0.28382877 0.001731268
0.025541134 0.0037090804 -0.0043901866 0.24551895 -0.92960155 -0.2748844 0.001388272
0.028537087 0.0045504207 -0.0044880603 0.26465267 -0.91986889 -0.28948265 0.0015603226
0.031571429 0.0053985766 -0.004206189 0.29586491 -0.92046845 -0.2553463 0.0016644169
0.033403538 0.0058193933 -0.0035626739 0.3186473 -0.90868193 -0.26974252 0.0016539107
-0.031047907 0.0086754849 -0.0039953273 -0.3632164 -0.8855747 -0.28953651 0.0015690896
-0.028543226 0.0077140192 -0.0041389167 -0.35355771 -0.8903529 -0.28682512 0.0017536054
-0.025548916 0.0065015489 -0.0041209282 -0.35411841 -0.90000814 -0.25413656 0.00099293806
-0.023150282 0.0061859004 -0.0056680506 -0.32087353 -0.85922396 -0.39846504 0.0015394043
0.032808505 0.0062504131 -0.0055672657 0.29390037 -0.90497905 -0.30762884 0.0020718644
0.034691967 0.0065581584 -0.0044390676 0.34317663 -0.90298563 -0.25854748 0.0014368228
0.037530698 0.0076128291 -0.0043011932 0.36153015 -0.8947801 -0.26203921 0.0013918479
0.039919995 0.0085865688 -0.0042082691 0.37998623 -0.8864271 -0.2643058 0.0013376785
-0.039033093 0.011984123 -0.0035181877 -0.44652906 -0.84054965 -0.30673784 0.0023894762
-0.037237819 0.011473022 -0.0042104525 -0.41854289 -0.86962909 -0.26185325 0.0011896696
-0.034370072 0.010163304 -0.0041762735 -0.3786594 -0.87574732 -0.29947248 0.0014183717
-0.031868871 0.0093335425 -0.0049211164 -0.36688158 -0.87151879 -0.32535052 0.0020462624
0.04127153 0.0093778484 -0.0047900137 0.4076317 -0.87284595 -0.26828447 0.0013822591
0.043561138 0.010335824 -0.0043074312 0.43123603 -0.86656469 -0.25119939 0.0012630278
0.045999695 0.011507801 -0.0040730271 0.45185629 -0.85414398 -0.25741789 0.0012726065
-0.042393502 0.014196596 -0.0041321148 -0.47906506 -0.82688516 -0.29454657 0.0012834418
-0.040319804 0.013079219 -0.0042567234 -0.46290115 -0.84661281 -0.26262 0.0016990399
-0.038538374 0.012399977 -0.0050462228 -0.42498264 -0.85950315 -0.28397897 0.001608433
0.047280263 0.012438798 -0.0047222674 0.47434792 -0.84609818 -0.24312937 0.0013638785
0.049547255 0.01362412 -0.0043207873 0.5063287 -0.82067841 -0.26479834 0.0014913691
0.051593114 0.014694174 -0.0038022441 0.51236653 -0.81043893 -0.28402334 0.0015870999
-0.04805756 0.017806362 -0.0037443363 -0.56822479 -0.77041686 -0.28909943 0.0018813816
-0.0460504 0.01667206 -0.004316079 -0.55854619 -0.77391124 -0.29847538 0.0018027124
-0.044384688 0.015498345 -0.0041850959 -0.51375306 -0.8053574 -0.29573169 0.0010340066
0.050951608 0.015022971 -0.0058066482 0.50974756 -0.77422976 -0.37513426 0.0021450389
0.052868076 0.015813146 -0.0045073135 0.54317081 -0.80033118 -0.25384161 0.0013494384
0.055022575 0.017208461 -0.0042258091 0.55966079 -0.77819508 -0.28494257 0.0014102207
-0.051587582 0.020527333 -0.0038918422 -0.56098384 -0.7690407 -0.30638799 0.0016308101
-0.04965429 0.019370425 -0.0044331523 -0.57972485 -0.7586562 -0.29725376 0.0017722733
-0.047650006 0.018162377 -0.0053182072 -0.56710869 -0.76214331 -0.31229052 0.0020270515
0.056434736 0.018486544 -0.0047866227 0.58946031 -0.75275862 -0.29307157 0.0016052669
0.058301479 0.019823398 -0.0043366645 0.61904049 -0.72522628 -0.30138958 0.0020367105
0.060098261 0.020932067 -0.0033045094 0.6552009 -0.70328647 -0.27586222 0.0012744323
-0.055175908 0.023387169 -0.0041037118 -0.58650243 -0.76144814 -0.27606449 0.0016251057
-0.052982181 0.021844923 -0.0045847944 -0.57536769 -0.764018 -0.29193929 0.0015054146
0.059657 0.021377208 -0.0051681702 0.64115679 -0.68912667 -0.337672 0.0017985789
0.061366789 0.022606649 -0.004279647 0.68313736 -0.67043197 -0.28955886 0.0016080259
0.063152149 0.023929261 -0.0033186383 0.70298791 -0.6395905 -0.31101778 0.0019406419
-0.058279529 0.025853919 -0.0041147782 -0.63060933 -0.71618235 -0.29902285 0.0016353545
-0.056265846 0.024438586 -0.0045510754 -0.60575342 -0.74335009 -0.28371364 0.0018079191
0.062697276 0.024465691 -0.0051473686 0.7041344 -0.63511497 -0.31752735 0.001718095
0.064076826 0.025558386 -0.0042112898 0.73758119 -0.60379142 -0.30234075 0.0020040127
-0.061194882 0.028563812 -0.0039820368 -0.69768846 -0.65740889 -0.28468293 0.0015509835
-0.059684616 0.027463311 -0.0047880714 -0.66270071 -0.68513227 -0.30235997 0.0013873571
0.065486588 0.027581668 -0.0045157378 0.76647353 -0.56433541 -0.30666557 0.0021089325
0.066666894 0.028859712 -0.0038758246 0.79843855 -0.53417546 -0.27776331 0.0021849368
-0.064048387 0.031828087 -0.0041285702 -0.71638697 -0.63473821 -0.28964987 0.0012933835
-0.062466025 0.0306093 -0.0051432815 -0.71232194 -0.63661689 -0.29549351 0.0012126354
0.067889974 0.031217681 -0.0042994306 0.83462852 -0.45980796 -0.30326879 0.003181282
0.069203861 0.032759875 -0.0032735348 0.84814334 -0.42758361 -0.31277004 0.006218364
-0.066579513 0.035009254 -0.0040243766 -0.77300346 -0.5838306 -0.24820857 0.0020787255
-0.065364309 0.033700291 -0.0044904491 -0.74822414 -0.58780026 -0.30765492 0.0020430088
0.068689249 0.033591598 -0.00522504 0.8454442 -0.33871192 -0.4129144 0.0029626712
0.06948217 0.03437037 -0.0040577082 0.88382047 -0.39639285 -0.24846329 0.0031282583
-0.06920249 0.03865619 -0.0036634682 -0.79277825 -0.52037674 -0.31734943 0.0013928993
-0.068106979 0.037399083 -0.0042622909 -0.80144346 -0.5366146 -0.26407018 0.0015453158
0.070459194 0.037426453 -0.0044456143 0.87110865 -0.26239547 -0.4151125 0.0028180715
-0.06981346 0.040203679 -0.0041783964 -0.84608132 -0.49127245 -0.20687611 0.0043771472
-0.068894498 0.039433133 -0.0050248862 -0.77290654 -0.50512022 -0.38401705 0.0034052315
0.071208648 0.040409788 -0.0042246715 0.91156071 -0.15872785 -0.37929219 0.0039624521
0.07150086 0.043389056 -0.0043891654 0.92260927 -0.091933057 -0.37462035 0.0042636078
0.072132438 0.043834541 -0.0033118213 0.90714163 -0.086573452 -0.41182411 0.0026782502
0.071454123 0.045925975 -0.0046010767 0.9043836 -0.035296086 -0.42525819 0.0022557992
0.072169915 0.046504058 -0.0033236258 0.94097066 -0.024964236 -0.33756632 0.0039014283
0.07155773 0.04937768 -0.0042933454 0.91945767 -0.015585599 -0.39288011 0.0031096721
0.072153829 0.049436361 -0.0032873871 0.90448868 -0.010104427 -0.42637783 0.0020267419
0.071566314 0.052677616 -0.0040213037 0.91471171 -0.011297192 -0.40394896 0.0077676303
0.072128154 0.051934976 -0.0032032914 0.95860869 -0.017605787 -0.28418216 0.0086765513
0.071562558 0.054877575 -0.0038320413 0.95410371 -0.027176993 -0.2982406 0.0067053768
0.072162583 0.055967614 -0.0030761119 0.95731944 0.0076322104 -0.28893134 0.0086023184
0.071843743 0.057958592 -0.0033881669 0.9649992 -0.077845529 -0.25043279 0.0083642686
0.073594868 0.070172817 -0.0034211304 0.87307501 -0.281277 -0.39827555 0.018373035
0.074422263 0.073203579 -0.003857831 0.89605248 -0.24057387 -0.37311435 0.018073346
0.075334467 0.073514953 -0.0034064979 0.89605147 -0.24057342 -0.37311685 0.018072173
-0.01619661 0.0026420276 -0.0011695095 -0.23921767 -0.96174592 -0.13349009 0.0014234213
-0.013505695 0.0020219448 -0.001397823 -0.20630068 -0.97038376 -0.12567979 0.0016738577
-0.010574935 0.0014349134 -0.0013463059 -0.16925251 -0.97806692 -0.12140272 0.0020904425
-0.0074548097 0.00093429099 -0.0013409824 -0.13356601 -0.98226279 -0.13160522 0.0033365185
-0.0044671991 0.00060462672 -0.0012305266 -0.083329774 -0.99034637 -0.11077078 0.0036503961
-0.0013667373 0.00039094614 -0.0014161746 -0.060335465 -0.99036896 -0.12461504 0.0041128802
0.0013889504 0.0002763489 -0.0012433028 -0.023648433 -0.99373585 -0.10922421 0.0037711964
0.0045440039 0.00027110748 -0.0013201099 0.016079491 -0.99398255 -0.10835183 0.0048420997
0.0075047845 0.00037352409 -0.0014171904 0.051483434 -0.99197024 -0.11551849 0.004242396
0.010650369 0.00057769404 -0.0012969781 0.085301861 -0.99064153 -0.10655013 0.0040108296
0.013565982 0.00087140076 -0.00132751 0.12138404 -0.98819774 -0.093440481 0.0042191665
0.016457688 0.001252674 -0.0013351619 0.14831713 -0.98477179 -0.090700373 0.0036540523
0.019442439 0.0017514814 -0.0013625931 0.17933656 -0.98025829 -0.083259083 0.0021011808
0.022449009 0.0023594687 -0.0014168497 0.20083731 -0.97549969 -0.089803919 0.0016940787
0.024669219 0.0028339608 -0.001110552 0.21994366 -0.9728511 -0.07201089 0.0021319995
-0.02499265 0.0056278859 -0.0013257681 -0.345276 -0.92220032 -0.17415813 0.0010937005
-0.02243479 0.0046712519 -0.0013618406 -0.32422611 -0.92890471 -0.17892355 0.00046832321
-0.019515734 0.0036473081 -0.0012841817 -0.28865492 -0.94721341 -0.13951725 0.0013148715
-0.017571261 0.0031415154 -0.001897681 -0.26883668 -0.94963026 -0.16102558 0.0011946608
0.026108997 0.0032439216 -0.0015176949 0.26196039 -0.96169281 -0.080769666 0.0017286075
0.028539438 0.0039094035 -0.0014593467 0.28496549 -0.95523882 -0.079457574 0.001503839
0.031499818 0.0048103156 -0.0013467484 0.29922748 -0.95066351 -0.081865452 0.0014342801
0.033994678 0.0056591425 -0.0013564565 0.32376742 -0.94341958 -0.071653426 0.00172324
-0.033281002 0.008930698 -0.00081989786 -0.37235695 -0.89676237 -0.23909751 0.0017524597
-0.031326413 0.008200109 -0.0014750301 -0.37062144 -0.90200216 -0.22143127 0.0010076269
-0.028390063 0.0069873375 -0.0013788454 -0.35547629 -0.91031379 -0.21205036 0.001027398
-0.026407041 0.0062505249 -0.0017513705 -0.35600096 -0.91303217 -0.19908684 0.00097992143
0.03549638 0.0062210206 -0.0015397719 0.36516681 -0.92625564 -0.093292803 0.0016526288
0.037516739 0.0070052897 -0.0013636346 0.37947252 -0.92218208 -0.074705184 0.0014843849
0.040565636 0.008305666 -0.0013180146 0.40708697 -0.91156483 -0.057704184 0.0020282792
0.042152259 0.0089465417 -0.0010595589 0.42217818 -0.90038675 -0.10521095 0.0027404299
-0.039461561 0.011827926 -0.0011872498 -0.45382097 -0.85640466 -0.24620627 0.0020972772
-0.037470311 0.01094948 -0.0016202594 -0.41142732 -0.87917328 -0.24037866 0.0015080062
-0.034636088 0.0096232314 -0.0015012347 -0.38423985 -0.88827139 -0.2516619 0.001437777
-0.032832049 0.0090513481 -0.0029738143 -0.40802619 -0.87382126 -0.26448262 0.0032528844
0.04182322 0.0090402504 -0.0027224587 0.40648761 -0.90339875 -0.13652261 0.0029806544
0.04352821 0.0096972054 -0.0012833866 0.44901201 -0.89142156 -0.061284918 0.0018127993
0.046392702 0.011171836 -0.0013578616 0.46975437 -0.87915456 -0.08011353 0.001812943
0.048094973 0.011924994 -0.00046220096 0.47527486 -0.87691271 -0.071679629 0.0032808706
-0.043006863 0.013933976 -0.0016059714 -0.50205708 -0.8301996 -0.24229607 0.0012287016
-0.040665708 0.01260374 -0.0017447176 -0.4637695 -0.84656423 -0.2612409 0.0015228806
0.047823254 0.012054066 -0.002303065 0.4935779 -0.86155784 -0.11873917 0.0028350132
0.049459714 0.012912643 -0.0013182739 0.51176602 -0.85735047 -0.0551886 0.0016111443
0.051924765 0.014413398 -0.0012277568 0.53484833 -0.84373802 -0.045205172 0.0017259683
-0.048534639 0.017646369 -0.0011937736 -0.58189529 -0.78334147 -0.21857272 0.0017129566
-0.045929439 0.015942061 -0.0020079084 -0.53322518 -0.80588126 -0.25734475 0.00075341767
-0.044830136 0.01513435 -0.0019524748 -0.5471068 -0.81023812 -0.21021011 0.00076107774
0.053316209 0.015358432 -0.0014342557 0.56050497 -0.82571048 -0.063532904 0.001540377
0.055459443 0.016841175 -0.0013864485 0.57585919 -0.81444299 -0.07119558 0.0019473162
0.057130065 0.017950444 -0.00089886662 0.60778731 -0.786933 -0.10644743 0.0021720831
-0.052007169 0.020283209 -0.0014999205 -0.58405977 -0.78608161 -0.20236073 0.0011981912
-0.050039008 0.018801663 -0.0013631567 -0.58970314 -0.77395123 -0.23075913 0.0014478565
0.056872364 0.018077111 -0.0028071327 0.60194981 -0.77023482 -0.21070035 0.0026385665
0.058499001 0.019181283 -0.0013995594 0.63670981 -0.76859814 -0.062109496 0.0020107126
0.060346808 0.020704318 -0.0012268317 0.6651842 -0.74074829 -0.09392529 0.0023840384
-0.057082169 0.023960864 -0.00027511129 -0.62170738 -0.76735896 -0.15697184 0.00043580099
-0.055459201 0.022847846 -0.0011687968 -0.60090643 -0.77646995 -0.18975203 0.00097669731
-0.053547144 0.021440007 -0.0014930038 -0.59370947 -0.77625233 -0.21199358 0.001807378
0.061779819 0.022121146 -0.0013880662 0.702245 -0.70898128 -0.064788789 0.0023311987
0.063301325 0.023592127 -0.0010375932 0.73592538 -0.66996825 -0.097757272 0.0025300877
-0.06023261 0.026750863 -0.0011619058 -0.68225241 -0.71074688 -0.17137797 0.00089498452
-0.058357514 0.025239363 -0.0014612348 -0.64715832 -0.74027956 -0.18213274 0.0010327249
-0.056896187 0.024308247 -0.0027419105 -0.61555839 -0.75534111 -0.22482805 0.0016493096
0.064683922 0.02526015 -0.0012497295 0.76545829 -0.64002728 -0.066623218 0.0024047906
0.066113479 0.026873687 -0.00055993657 0.8031323 -0.5854243 -0.11071083 0.0031181758
-0.0632599 0.029848106 -0.00084261317 -0.7449438 -0.65255058 -0.13869545 0.00097316096
-0.061752521 0.028324697 -0.0013200584 -0.72134084 -0.67553955 -0.15268859 0.00078912068
0.065827303 0.027244313 -0.0029177559 0.78272533 -0.59542012 -0.18115199 0.0030903893
0.067080714 0.028433938 -0.0012368613 0.83513814 -0.54317868 -0.086609066 0.0022883688
-0.0645715 0.031469591 -0.0012831938 -0.75185215 -0.64123255 -0.15342471 0.0012260681
0.068529487 0.030849079 -0.0014713518 0.8667146 -0.49430197 -0.066868186 0.002568023
0.069352098 0.032241315 -0.0011003785 0.88935167 -0.45234621 -0.066607483 0.0033382364
-0.067025781 0.034501575 -0.0011275514 -0.79628438 -0.59575844 -0.10489578 0.0015958151
-0.065881141 0.033411644 -0.0026010203 -0.76864827 -0.61999851 -0.15742174 0.0015202406
-0.013898921 0.035461269 -0.00074552023 0.24433732 0.95317185 0.17822093 0.0017093752
0.07033886 0.034507848 -0.0011645992 0.9213084 -0.38400206 -0.061100796 0.0033690252
-0.069532648 0.038026784 -0.0011423733 -0.84559625 -0.52930689 -0.069291204 0.0035041936
-0.068520159 0.03659182 -0.0014382461 -0.81607229 -0.57315469 -0.074295208 0.0017973823
-0.022500042 0.038229443 -0.00075979996 0.35979638 0.92764395 0.10011647 0.0020473097
-0.020779496 0.037491962 -0.0017683151 0.33289331 0.93663561 0.10906818 0.0019965775
0.071417913 0.037497249 -0.0011084133 0.95742518 -0.28437817 -0.04965971 0.0042962772
0.072061762 0.038836181 -0.00068873604 0.96086645 -0.23802929 -0.14169604 0.00945515
-0.071009234 0.040574864 -0.0008724099 -0.88797832 -0.45972496 -0.012145994 0.003327193
-0.03018577 0.041526746 -0.00091556506 0.4192934 0.90594435 0.058804698 0.00035570405
-0.029117614 0.041027706 -0.0011447961 0.42070675 0.9029721 0.087448552 0.0010834954
-0.02617193 0.039739713 -0.00048450226 0.39350668 0.91663229 0.070268653 0.00058435049
0.071902566 0.03956588 -0.0012033571 0.97536176 -0.21807137 -0.033380441 0.005205147
0.072224431 0.040827572 -0.00094951654 0.98695308 -0.15187566 -0.05345495 0.0041901283
-0.072358437 0.043450624 -0.00059175916 -0.90879893 -0.3969627 0.12847236 0.0068958588
-0.071727343 0.042141795 -0.0015343294 -0.90828472 -0.41586325 -0.045570981 0.0071397596
-0.036230132 0.044589411 -0.00090577384 0.45751461 0.88640046 0.070530698 0.00032948647
-0.034484684 0.043697722 -0.00091816636 0.45808673 0.88535339 0.079409584 0.00063564326
-0.031685814 0.042281501 -0.0006041826 0.44147035 0.89513767 0.061907656 0.000344467
0.072468333 0.043418139 -0.0015201602 0.99417853 -0.10428067 -0.027102411 0.0028969455
-0.073461458 0.046619799 -0.00086414942 -0.92647618 -0.36475211 0.092724599 0.0014721903
-0.040311154 0.046845146 -0.00097153406 0.48571262 0.86975688 0.087213501 0.00065161899
-0.037464723 0.045279186 -0.00081803725 0.4729645 0.87389755 0.11228362 0.0015645956
0.0727382 0.046349075 -0.0011268572 0.99320716 -0.041531116 -0.10869536 0.0042069554
-0.075242177 0.050742485 -0.00046797108 -0.9217881 -0.3667157 0.12580292 0.0065102694
-0.074616246 0.049645625 -0.00061443169 -0.89142853 -0.36317426 0.27103451 0.0073277433
-0.046199191 0.050175693 -0.00064960879 0.4799839 0.86234468 0.16117427 0.0014348743
-0.043592617 0.048710831 -0.00066682021 0.48285857 0.86519748 0.13520736 0.0015114604
0.072845817 0.049817968 -0.00080598734 0.99959236 -0.017927634 0.022217616 0.0041518654
-0.07585451 0.052060585 -0.00045789705 -0.90794021 -0.33935773 0.24592865 0.0090124691
-0.074991487 0.051149759 -0.0019115439 -0.92399538 -0.37456813 0.077015281 0.0061290646
-0.051030338 0.052842841 -0.00033822018 0.46989816 0.86468756 0.17751378 0.0017481407
-0.049148463 0.051807337 -0.00051609578 0.47849303 0.8596496 0.17901698 0.0019009361
-0.047504265 0.051006071 -4.9069233e-05 0.48688522 0.85310662 0.18748847 0.001378155
0.072873868 0.051754996 -0.00093364017 0.9987064 -0.022132557 0.045779526 0.0049282899
-0.05865683 0.056058675 -0.00080473861 0.40439832 0.89192641 0.20230997 0.0030567441
0.07293056 0.055469263 -0.0012576185 0.98986 -0.052574284 -0.13195887 0.0084056417
-0.063647419 0.058999002 -0.0006898382 0.51232195 0.82572412 0.23602098 0.0042301626
-0.061610736 0.05762618 -0.00062311254 0.51061076 0.82258695 0.25025457 0.005748827
0.073161624 0.058487065 -0.0009006192 0.97522032 -0.068509251 0.21036103 0.017308459
0.063722193 0.062110886 -9.5327938e-05 -0.80518335 0.38205555 0.45355627 0.0080391401
0.073490724 0.061588701 -0.00093017338 0.95025116 -0.11473832 0.28958207 0.014461286
0.06468115 0.065400362 -0.00018452251 -0.87482369 0.24869253 0.41573498 0.0058118645
0.074065112 0.064690255 -0.00063084887 0.88602668 -0.16541387 0.4331224 0.016372684
0.065172404 0.067108914 -0.00055279874 -0.79274565 0.23923723 0.56064242 0.017519331
0.07472048 0.067533709 -0.00061661011 0.94006705 -0.2440331 0.2381635 0.013585365
0.075122155 0.068509132 -0.00046854134 0.94236654 -0.27594137 0.18921338 0.028094385
0.066121057 0.070952252 -0.00067762227 -0.79943836 0.1747756 0.5747624 0.014339337
0.074532852 0.069947623 -0.0024779665 0.95093536 -0.28432637 -0.12198526 0.016449286
0.07571847 0.070785068 -0.00066850946 0.90668571 -0.31706145 0.27819622 0.015807215
0.066618234 0.074110121 -0.00037191619 -0.81248206 0.12229317 0.57001519 0.022677511
0.076594092 0.072952963 -0.00081919692 0.90118235 -0.3048071 0.30816075 0.02235055
0.066887885 0.075731531 -0.00048014661 -0.80645621 0.13278338 0.57619178 0.012864109
-0.018530402 0.0028422845 0.002707883 -0.25476545 -0.96696264 0.0088280933 0.0056987386
-0.016332136 0.0024465693 0.0017418304 -0.21511856 -0.97617251 0.028481614 0.0041815746
-0.013480873 0.0018321852 0.0016879097 -0.18983459 -0.97905439 0.07358896 0.0025257359
-0.010507848 0.0013103756 0.0015763872 -0.15356427 -0.98188233 0.11101866 0.0038906126
-0.0074729025 0.0008747853 0.0015240051 -0.11703362 -0.98762012 0.10444915 0.0045729685
-0.0044471938 0.0005673655 0.0015690821 -0.077358499 -0.99388045 0.078849249 0.0032876849
-0.0014097224 0.00037751134 0.0015849577 -0.042912968 -0.99349648 0.10546728 0.0031530934
0.0014354642 0.00030538446 0.0017441827 -0.013174131 -0.99228263 0.1232945 0.0043570972
0.0045013679 0.00027362179 0.0016050726 0.023144357 -0.99288553 0.11680227 0.0042232359
0.0075031877 0.00037205993 0.001618885 0.053283472 -0.98539633 0.1617251 0.0048203375
0.010513634 0.00058416306 0.0016553184 0.08470016 -0.97776467 0.19183879 0.0058357939
0.013395298 0.00086210348 0.0015949394 0.11363354 -0.97288293 0.20146021 0.0052651209
0.016502349 0.001275621 0.0015955135 0.13927665 -0.97374171 0.18008026 0.0042193267
0.019526618 0.0017820839 0.0016457284 0.17385438 -0.97162569 0.16036883 0.0035598825
0.022491528 0.0023688967 0.0016223998 0.19653659 -0.96995646 0.14338033 0.0029357923
0.024708413 0.0028440712 0.0013613807 0.22123055 -0.96776003 0.12040591 0.0027520044
-0.027769176 0.0056880536 0.0024699387 -0.31677416 -0.94645423 -0.062278297 0.0096664056
-0.025575867 0.0052164597 0.0018817035 -0.31826621 -0.94740379 -0.033657081 0.006402758
-0.022420799 0.0041862107 0.0017189156 -0.31475529 -0.94853431 -0.034810834 0.0028433644
-0.019618835 0.0033786795 0.0014239982 -0.2950007 -0.9539035 -0.055159573 0.0028638621
-0.017836455 0.0030291118 0.00058711792 -0.25391829 -0.96417737 -0.076729223 0.0024845528
0.026091198 0.0032418806 0.0017908881 0.27124739 -0.95465648 0.12270248 0.0023331163
0.028487584 0.0038810938 0.001593206 0.28114066 -0.95208907 0.12035897 0.0021059723
0.031506974 0.0048106457 0.0015911642 0.29703221 -0.94654244 0.12581474 0.0021553747
0.033994179 0.0056455829 0.0014541998 0.31844702 -0.94120103 0.11283644 0.0023433191
-0.036345921 0.0089125372 0.0024189397 -0.38251129 -0.92284024 -0.045288812 0.010823631
-0.034488678 0.0082535185 0.0024786713 -0.35010824 -0.936095 -0.033918045 0.011335484
-0.031426448 0.0072989957 0.0019140162 -0.36498418 -0.92941046 -0.054614533 0.0045082737
-0.028636089 0.0064740921 0.0013164426 -0.34574547 -0.93009371 -0.12403963 0.0051117749
-0.026626017 0.0061309189 0.00045904331 -0.31390077 -0.93866563 -0.1427346 0.003522353
0.035439346 0.0062037823 0.0017957062 0.3669126 -0.92320734 0.1142951 0.002192653
0.037463296 0.0069816993 0.0015908359 0.37846097 -0.91889751 0.11133105 0.0020516885
0.040452767 0.0082500307 0.0015881957 0.39284888 -0.91244102 0.11454751 0.0020736435
0.042148843 0.0089133894 0.00086239353 0.42460832 -0.90209782 0.076987952 0.003611048
-0.042280935 0.011832943 0.0025473468 -0.46127895 -0.88531286 -0.058675226 0.011589019
-0.040483173 0.011073707 0.0023175257 -0.43665218 -0.89578521 -0.083088927 0.011388373
-0.037641875 0.0098076556 0.0021225563 -0.43721807 -0.89890516 -0.028459821 0.010890367
-0.034736268 0.0094444733 0.00047050495 -0.38786843 -0.88800824 -0.24698091 0.002779938
0.041869078 0.00903745 0.0027352304 0.42803532 -0.89654154 0.11401314 0.0035536624
0.043614477 0.0097416481 0.0016376618 0.44333893 -0.88905138 0.11418533 0.0020626239
0.04643381 0.011186072 0.0015245671 0.46437857 -0.87912178 0.10722622 0.0024900129
