# .PCD v0.7 - Point Cloud Data file format
VERSION 0.7
FIELDS x y z normal_x normal_y normal_z curvature
SIZE 4 4 4 4 4 4 4
TYPE F F F F F F F
COUNT 1 1 1 1 1 1 1
WIDTH 555
HEIGHT 1
VIEWPOINT 0 0 0 1 0 0 0
POINTS 555
DATA ascii
-0.025460957 0.031564694 -0.01385104 0.22861946 0.54023814 -0.80986172 0.0012486727
-0.022600129 0.031407621 -0.013112728 0.2385394 0.6093654 -0.75615656 0.0016940153
-0.019672021 0.030867035 -0.012685318 0.22378953 0.64144582 -0.73380208 0.00150129
-0.016940048 0.030354552 -0.012309835 0.20593455 0.66663271 -0.71637398 0.0013982136
-0.014742769 0.030085035 -0.012122308 0.17880483 0.63179982 -0.75422668 0.0016291905
0.023452153 0.030116396 -0.012150706 -0.20260285 0.67745644 -0.70711023 0.0011618166
0.025757039 0.030515 -0.012483697 -0.2172472 0.67541975 -0.70470685 0.0010877609
0.02863607 0.031013755 -0.012902436 -0.22634673 0.65942901 -0.71688253 0.001525333
0.03154866 0.031496178 -0.013371889 -0.23696116 0.61764836 -0.74990654 0.0014015021
0.034385573 0.031716254 -0.014048609 -0.22296704 0.56570387 -0.7938922 0.0012357049
0.037237044 0.032254208 -0.014509849 -0.23027512 0.51657611 -0.82469541 0.0019260215
0.039508011 0.032735232 -0.014841154 -0.21443039 0.49634096 -0.84122849 0.0018731368
0.056294359 0.031545658 -0.014775163 0.3288942 -0.094480693 -0.93962866 0.0029588332
0.058412924 0.031669129 -0.013890442 0.38541588 -0.12371219 -0.91441232 0.0017160218
0.060877219 0.031889793 -0.012629039 0.49051452 -0.21363679 -0.84484005 0.0029345276
-0.057682268 0.034937218 -0.012500898 -0.46088988 -0.28745827 -0.83961201 0.0025971353
-0.05530896 0.034756884 -0.013599205 -0.37107843 -0.16963434 -0.91297591 0.0026736814
-0.052707303 0.034584813 -0.014594438 -0.30425093 -0.12141468 -0.94482267 0.0024880113
-0.050947469 0.033429086 -0.014930395 -0.28798231 -0.13388894 -0.94822991 0.0078968834
-0.039250601 0.035694111 -0.014966349 0.15440413 0.40482897 -0.90126187 0.0062460541
-0.037100118 0.035447579 -0.014720809 0.20362277 0.4401218 -0.87454593 0.0029456441
-0.034309726 0.034891877 -0.014300682 0.23236145 0.49831322 -0.83527964 0.001604293
-0.031461675 0.03455006 -0.013630805 0.25980929 0.54318267 -0.79840577 0.0013081958
-0.028640622 0.034184124 -0.012932845 0.273096 0.60867268 -0.7449404 0.0018658541
-0.025796084 0.033537503 -0.012454967 0.26320919 0.64752519 -0.71514475 0.0013924808
-0.02376068 0.033133473 -0.012149082 0.24091785 0.63111264 -0.7373299 0.0018420729
0.032531399 0.03321008 -0.01218348 -0.24762912 0.66507351 -0.70452613 0.0011289624
0.034815717 0.033645991 -0.012603477 -0.26529291 0.67007703 -0.69326508 0.0014400338
0.037658639 0.034314554 -0.013085496 -0.29303533 0.60858232 -0.73739934 0.0018621021
0.040457286 0.034616623 -0.013856694 -0.25427246 0.54530072 -0.79874444 0.0012806456
0.043327425 0.035076205 -0.014457851 -0.2325476 0.49183276 -0.83906019 0.0020164547
0.045940671 0.03561607 -0.014790074 -0.16896403 0.45828477 -0.8725974 0.0026311211
0.048133563 0.035857547 -0.014930706 -0.074250683 0.394566 -0.91586268 0.0033716364
0.056369148 0.034673035 -0.014848757 0.22736105 0.04381153 -0.97282451 0.0044256751
0.058371156 0.034595802 -0.014275032 0.31116033 0.0099506462 -0.95030528 0.0037373556
0.061356489 0.03469716 -0.012939605 0.4267503 -0.084499307 -0.90041322 0.002913343
0.063102528 0.035086326 -0.012063126 0.54594219 -0.16780943 -0.82084537 0.0026095856
-0.060173277 0.03865134 -0.012156429 -0.49158475 -0.20154588 -0.84718573 0.0034813921
-0.058308493 0.037770804 -0.012892214 -0.39706948 -0.12602648 -0.90909469 0.0027563875
-0.055390313 0.037660092 -0.014027686 -0.27028984 0.0033849645 -0.96277303 0.0034017384
-0.052679747 0.037726503 -0.014734707 -0.16792823 0.093687199 -0.98133725 0.0042785429
-0.049751334 0.038581111 -0.014914667 -0.030624548 0.2214262 -0.9746961 0.0053586168
-0.046285208 0.038598891 -0.01482002 0.089528829 0.34701371 -0.93357706 0.0037312768
-0.043331247 0.038197286 -0.014588248 0.16265653 0.43180519 -0.88717932 0.0027632844
-0.040384784 0.037702236 -0.014215247 0.20101556 0.49035004 -0.84802687 0.0016094809
-0.037494481 0.037528802 -0.013496507 0.26317054 0.54837149 -0.79374421 0.0017621046
-0.034673601 0.037071466 -0.012872994 0.28460243 0.61377168 -0.7364006 0.0016401634
-0.032125514 0.036487803 -0.012366843 0.29165769 0.65058488 -0.70119548 0.0013157614
0.03875678 0.036139347 -0.012038781 -0.32924008 0.62849259 -0.70469707 0.0018788798
0.040924385 0.036634352 -0.012488145 -0.31058693 0.6312269 -0.71069568 0.0014746607
0.043645937 0.037339602 -0.013024832 -0.29326537 0.5837 -0.75715899 0.0015484098
0.04648475 0.037526626 -0.013796394 -0.22251539 0.51360536 -0.82867151 0.0013963119
0.049400877 0.037667319 -0.014361597 -0.13141203 0.43882027 -0.88891375 0.0027331517
0.052449033 0.037884634 -0.014595103 -0.042723093 0.35599047 -0.93351251 0.0043668505
0.055497631 0.037642274 -0.014595147 0.11585391 0.23489445 -0.96509194 0.0046793506
0.058447178 0.037527964 -0.014112237 0.23951201 0.139837 -0.96077025 0.0047677653
0.061472628 0.03754783 -0.013049171 0.37598515 0.030414432 -0.92612642 0.0037792551
0.063365884 0.037551202 -0.012161967 0.49487734 -0.035239719 -0.86824799 0.0024799716
-0.060525004 0.04074439 -0.012245652 -0.39643717 -0.031230733 -0.91753054 0.0038176314
-0.058458369 0.040665422 -0.013055244 -0.29021943 0.044993091 -0.95590186 0.0041273278
-0.055467669 0.04062466 -0.013884492 -0.18504089 0.17516035 -0.9669947 0.0064019617
-0.052466035 0.040537931 -0.014281851 -0.073071986 0.26712731 -0.96088678 0.0059984983
-0.04946043 0.040544942 -0.014275988 0.032925773 0.36312941 -0.93115675 0.0051170024
-0.046483975 0.040559027 -0.013891785 0.13224627 0.45032829 -0.88301492 0.002215673
-0.043504775 0.040486414 -0.013263047 0.23125933 0.53824914 -0.81043637 0.0023671293
-0.040657047 0.039992958 -0.012742122 0.26334503 0.5998041 -0.75556892 0.0019884021
-0.038174469 0.039371561 -0.01233749 0.29042184 0.63676316 -0.71427441 0.0015278921
0.044753183 0.039174106 -0.012157872 -0.33462432 0.60275269 -0.72437263 0.0026315365
0.046781629 0.039619748 -0.012483906 -0.27778301 0.5848161 -0.76211995 0.0021965487
0.049585659 0.040295128 -0.012897595 -0.21553159 0.52949142 -0.82047844 0.0025738871
0.052472625 0.040512849 -0.013374778 -0.13744245 0.45864367 -0.87792689 0.0025080694
0.055475954 0.040518861 -0.013645206 0.0010597677 0.36385775 -0.93145388 0.0036893229
0.05847761 0.040554624 -0.013480029 0.13386381 0.27424151 -0.95229828 0.0047080871
0.061443698 0.040565636 -0.012820218 0.27650887 0.17462063 -0.94501346 0.0042779297
0.063385479 0.040267281 -0.01212569 0.41902894 0.107143 -0.90162921 0.0035899808
-0.060558598 0.043287024 -0.012196998 -0.30499327 0.13582079 -0.94261962 0.0049330243
-0.058405306 0.043607991 -0.012734611 -0.20203039 0.20851511 -0.9569248 0.0045108991
-0.05545634 0.043517251 -0.013170716 -0.084206156 0.31386441 -0.94572645 0.0051290118
-0.05246827 0.043541927 -0.013124728 0.048883934 0.41587868 -0.90810531 0.0038520384
-0.049570274 0.043364566 -0.01286313 0.14954561 0.4989461 -0.85363275 0.0032181267
-0.046729714 0.042837668 -0.012569554 0.21099719 0.56433368 -0.79812759 0.0030756944
-0.044325601 0.042251766 -0.01226167 0.2649574 0.61434752 -0.7432192 0.0018861346
0.050602343 0.042115524 -0.012091394 -0.26757705 0.59428066 -0.75844121 0.0017433459
0.052913394 0.042486157 -0.012323119 -0.19773445 0.54096341 -0.8174715 0.0025438727
0.055610031 0.042962909 -0.012516428 -0.096736096 0.4702583 -0.87721103 0.0033873448
0.058474075 0.043251995 -0.012530334 0.040880144 0.37770766 -0.92502201 0.0037322307
0.061242625 0.043049734 -0.012314039 0.2198993 0.27247316 -0.93669772 0.0047292602
0.063176736 0.042758182 -0.012019226 0.23817994 0.30313912 -0.92270094 0.0047145085
-0.060351823 0.04531483 -0.012074121 -0.24593104 0.1985265 -0.94873875 0.0056089228
-0.058287058 0.045557071 -0.012202631 -0.13966008 0.34513563 -0.92810374 0.0052952557
-0.055555727 0.045558762 -0.012315798 0.012636938 0.45525268 -0.89027256 0.0037351251
-0.05280387 0.045377653 -0.012208763 0.12445472 0.53281558 -0.83702964 0.0027985424
-0.050718747 0.045185365 -0.012094771 0.1944287 0.58752424 -0.78550154 0.0020351536
-0.015093439 0.0056972303 -0.0090150265 -0.21590504 -0.77801681 -0.58997869 0.0031983352
-0.013388127 0.0057839472 -0.0095829964 -0.17434244 -0.74909854 -0.63910574 0.0010087471
-0.010325582 0.0054688845 -0.0099598113 -0.13152196 -0.71489757 -0.6867485 0.0010049039
-0.006933209 0.0053407196 -0.010386523 -0.10010385 -0.71225882 -0.69474208 0.0008938213
-0.0043492187 0.0049269791 -0.010272962 -0.070619099 -0.7111125 -0.69952267 0.000865496
-0.0011298272 0.0052147852 -0.010876028 -0.047585715 -0.6840896 -0.72784412 0.0013446464
0.0013140495 0.0048056762 -0.010602273 -0.034423504 -0.68779051 -0.72509253 0.0012527077
0.0045859958 0.0049265213 -0.010834178 -0.0038344034 -0.68738186 -0.72628611 0.0009668172
0.007570195 0.004951138 -0.010862866 0.0082913488 -0.68816143 -0.72551024 0.00091168343
0.010328184 0.0049922229 -0.010814602 0.025322255 -0.69968849 -0.71399915 0.0011429143
0.01365643 0.0052618012 -0.010861891 0.050887268 -0.70374596 -0.70862693 0.00083195703
0.01620714 0.005222199 -0.010510761 0.088814072 -0.74697506 -0.65889329 0.00088262459
0.019558974 0.0054560485 -0.010213617 0.11308063 -0.74538249 -0.65697616 0.00078557199
0.022433456 0.0055272677 -0.0096172746 0.15181141 -0.78267139 -0.60363799 0.0010224122
0.025270391 0.00584953 -0.009236427 0.1921715 -0.78799701 -0.58491951 0.00031657764
-0.02426468 0.0089851068 -0.0093299747 -0.26498759 -0.75948286 -0.59411061 0.0028905307
-0.021941217 0.0084569491 -0.0097016096 -0.26236978 -0.72459108 -0.63728321 0.0011889881
-0.018874457 0.0081768325 -0.010591431 -0.21534702 -0.66839021 -0.71195513 0.0009338847
-0.016473586 0.0079015438 -0.011060248 -0.18057798 -0.65824437 -0.73082554 0.00073217717
-0.013678675 0.0074682189 -0.011331374 -0.14839208 -0.65650433 -0.73958218 0.00073645572
-0.010633667 0.0067862272 -0.011268449 -0.11948127 -0.65615124 -0.74511057 0.0010210567
-0.0077148913 0.0067414981 -0.01172262 -0.095943227 -0.67136055 -0.73489445 0.0011705387
-0.0048447154 0.0064569623 -0.011853465 -0.068888068 -0.64331424 -0.76249671 0.0016918514
-0.0019467515 0.0062779067 -0.01184927 -0.054602932 -0.64351171 -0.76348615 0.002179614
0.0025148469 0.0060335323 -0.011924638 -0.024746748 -0.66742635 -0.74426454 0.002924762
0.01078124 0.0060564089 -0.011941044 0.0198457 -0.69119787 -0.72239298 0.0025838974
0.014093589 0.0062606623 -0.011915806 0.051538963 -0.68776625 -0.72410035 0.0019396041
0.016274575 0.0063123005 -0.0117607 0.067056775 -0.68051547 -0.7296589 0.0010110983
0.019786118 0.006545553 -0.011502675 0.10493103 -0.71035516 -0.69597775 0.0010024867
0.022147661 0.0069372845 -0.011466001 0.12919302 -0.71990359 -0.68194431 0.0012796525
0.025538247 0.0071115163 -0.010809131 0.18522969 -0.77905804 -0.59896457 0.00089394872
0.02851118 0.0077782245 -0.010680495 0.21181135 -0.76314902 -0.61052394 0.0015059828
0.031215031 0.0081442194 -0.010156607 0.23575011 -0.76171649 -0.60349798 0.0012477086
0.033916149 0.0085957199 -0.0095375823 0.28661868 -0.77242672 -0.566751 0.00077730801
-0.030294018 0.011666768 -0.0097221369 -0.30545205 -0.73219132 -0.60876501 0.0015266326
-0.028420188 0.011406237 -0.010314163 -0.27355129 -0.67686486 -0.68339127 0.00082196662
-0.025573224 0.010733235 -0.010776733 -0.25314903 -0.68206853 -0.68607444 0.0014511835
-0.022716749 0.0097774323 -0.010894652 -0.22988135 -0.66968882 -0.70616674 0.00089556834
-0.01972951 0.0093619181 -0.011511425 -0.20154874 -0.62798792 -0.75167096 0.00074224203
0.031986117 0.0095557608 -0.011542409 0.22665218 -0.69560719 -0.68173271 0.0014910154
0.034647968 0.010167696 -0.011157282 0.26751655 -0.70640564 -0.65530598 0.0012997458
0.037330851 0.011036817 -0.010937868 0.28252184 -0.69400007 -0.66222763 0.0010775144
0.03999465 0.011441644 -0.010109249 0.34212133 -0.7479012 -0.56885564 0.00091998465
0.042044051 0.011827481 -0.0093014324 0.37719849 -0.75488514 -0.53653497 0.0031715287
-0.036931843 0.014602864 -0.0097403983 -0.35435617 -0.67945087 -0.64247829 0.00082242931
-0.034177922 0.014057469 -0.010581672 -0.30666587 -0.67959654 -0.66641182 0.0010316226
-0.031549577 0.013452522 -0.011132387 -0.2799986 -0.64965701 -0.70678604 0.00081448781
-0.028630035 0.012597512 -0.011527774 -0.25235912 -0.64627784 -0.7201665 0.00087886403
-0.026373291 0.012148038 -0.011880904 -0.2364054 -0.62836558 -0.74112701 0.0015846351
0.038980503 0.012718684 -0.011929133 0.29717171 -0.64751899 -0.70171803 0.00070690108
0.040834539 0.012692583 -0.011107475 0.31986928 -0.68286926 -0.65679014 0.0011194166
0.043682441 0.013771405 -0.010682552 0.36185411 -0.68965483 -0.62724626 0.00076654257
0.046349477 0.01447436 -0.0097625516 0.40585059 -0.68390584 -0.6062656 0.00068045728
-0.042504601 0.017672131 -0.0095263161 -0.46330693 -0.67329538 -0.57621181 0.0013025813
-0.040368121 0.017044935 -0.010306606 -0.3964836 -0.65201885 -0.64627564 0.00082595955
-0.037698958 0.016149379 -0.010952248 -0.35044742 -0.65667212 -0.66780859 0.00091074343
-0.034974061 0.015470411 -0.011647111 -0.28954992 -0.61764258 -0.73121715 0.00093936891
0.044557814 0.015186623 -0.011779025 0.36675763 -0.65870684 -0.65695822 0.0011379193
0.0467165 0.015971571 -0.011265198 0.39662799 -0.65875924 -0.63931406 0.00096373766
0.049298633 0.016796326 -0.010363825 0.43347079 -0.65667164 -0.61715919 0.0012449436
0.051858444 0.017593345 -0.0093358355 0.46958047 -0.65076339 -0.59665829 0.00072249305
-0.045821808 0.020400262 -0.0099755237 -0.46581259 -0.6363495 -0.6148805 0.0010008952
-0.043490104 0.019379249 -0.010625304 -0.43596798 -0.64380604 -0.62884468 0.0012139564
-0.040663958 0.018565163 -0.011639808 -0.37140572 -0.60601687 -0.70342106 0.00093128922
0.050263073 0.01849867 -0.011495277 0.43459591 -0.63177526 -0.6418618 0.0014055829
0.05258131 0.019580213 -0.010854419 0.47363177 -0.59944648 -0.64524168 0.0011590264
0.054741558 0.020100892 -0.0096555064 0.50889474 -0.62041593 -0.59674972 0.00097405189
-0.049107701 0.023023758 -0.01014192 -0.47480321 -0.6184094 -0.62620419 0.0012981117
-0.046453431 0.022131791 -0.011188639 -0.43272948 -0.58109933 -0.68925226 0.0017248795
-0.044449691 0.021242658 -0.011742926 -0.41844258 -0.60426885 -0.67805964 0.0013438178
0.05329451 0.021227639 -0.011846697 0.46877286 -0.55921924 -0.68375868 0.0010053499
0.05570893 0.022253834 -0.010911915 0.49897063 -0.54977185 -0.66990989 0.0016521078
0.057941698 0.023086414 -0.009809955 0.55972254 -0.55693948 -0.61361974 0.0015226769
-0.054382414 0.02646305 -0.009463843 -0.52027571 -0.59576225 -0.61186641 0.0012207654
-0.052263301 0.025761113 -0.010425324 -0.48568025 -0.59624678 -0.63922185 0.0014363873
-0.049909525 0.0248552 -0.011314408 -0.44997221 -0.5838753 -0.67573273 0.0024077445
0.0015557569 0.026945863 -0.011930598 0.017421803 0.67307991 -0.7393645 0.002496799
0.0049533602 0.026918326 -0.011938032 -0.0080431625 0.69886005 -0.71521324 0.0012530542
0.006631786 0.026880879 -0.011936982 -0.026089862 0.66330326 -0.74789584 0.003489699
0.056828115 0.02437008 -0.011698578 0.52437198 -0.49652013 -0.69173831 0.0011256943
0.058690049 0.025488257 -0.011109863 0.52816486 -0.44556376 -0.72285187 0.0016350488
0.060802203 0.026113719 -0.0097449403 0.59420013 -0.4983317 -0.63134116 0.0010949343
-0.057480905 0.029446304 -0.0094949119 -0.56045097 -0.55110073 -0.61820924 0.00068400777
-0.055385262 0.028619893 -0.010525638 -0.52411568 -0.53823626 -0.66000336 0.0017191491
-0.053080723 0.027653446 -0.011505467 -0.47930655 -0.55549753 -0.67947608 0.001262763
-0.012824954 0.029733703 -0.011717324 0.19168757 0.6967302 -0.69124734 0.0013775976
-0.010342485 0.029410571 -0.011429593 0.16655938 0.70033324 -0.69411194 0.0015399316
-0.0074381512 0.029077588 -0.011100753 0.13562396 0.72804409 -0.67198056 0.0017896023
-0.0044234018 0.028862946 -0.010806714 0.10885 0.73867452 -0.66521543 0.0016866891
-0.001436532 0.028659182 -0.01061251 0.078308053 0.74456245 -0.6629439 0.0018485766
0.0015078235 0.028523199 -0.010532423 0.037468582 0.74120867 -0.67022818 0.0021573587
0.0044611073 0.028460583 -0.010527939 -0.0046312283 0.74242836 -0.66990948 0.0021308998
0.0075064995 0.028505931 -0.010549794 -0.03602165 0.74758112 -0.66319293 0.002447041
0.010527893 0.02872386 -0.010581617 -0.077559575 0.74795681 -0.65920031 0.0016120101
0.013427571 0.028912185 -0.010771111 -0.1214523 0.75593233 -0.64328504 0.0019137678
0.01639016 0.029178878 -0.011099048 -0.15969451 0.7505188 -0.64126378 0.0016531572
0.019295936 0.029535623 -0.011492644 -0.19360732 0.70677263 -0.6804328 0.00060949608
0.021644235 0.029810743 -0.011893935 -0.2132296 0.6828844 -0.69871461 0.0018528816
0.059600394 0.027501173 -0.01168485 0.55883026 -0.39817354 -0.72743833 0.00092121138
0.061282717 0.028630596 -0.011004798 0.54940248 -0.35190651 -0.75783825 0.0014640414
0.063368171 0.029208701 -0.0094674407 0.63478702 -0.42273998 -0.64678925 0.001263439
-0.060375839 0.032688238 -0.009431052 -0.58773685 -0.46803942 -0.65992767 0.0016929089
-0.058128621 0.032122292 -0.010831928 -0.5188117 -0.39061931 -0.76042813 0.0015508721
-0.056191497 0.03102093 -0.011606127 -0.47434288 -0.36972812 -0.79893672 0.0019544677
-0.021776354 0.032718126 -0.011710789 0.26076919 0.67669451 -0.6885376 0.0020423532
-0.019301439 0.032283466 -0.011227523 0.24788259 0.69697469 -0.67288971 0.0013606086
-0.016423119 0.031780664 -0.010688561 0.23510703 0.73868155 -0.63172328 0.0015910029
-0.013574 0.03121979 -0.010356821 0.20050007 0.74436361 -0.63696349 0.002388733
-0.010572948 0.030793622 -0.0099673895 0.18138373 0.74833381 -0.63804114 0.0017418092
-0.0076817176 0.03045726 -0.0096130483 0.14484483 0.76062387 -0.632828 0.0016069924
-0.004738288 0.030208996 -0.0093138861 0.11451413 0.77177024 -0.62550551 0.0014251271
-0.0021081432 0.030064398 -0.0091095502 0.081881143 0.78650033 -0.61213779 0.0014009954
0.00042629972 0.030051265 -0.0090372935 0.042474467 0.78237331 -0.62135971 0.0012436089
0.011432974 0.030056413 -0.0090814838 -0.07632333 0.78300571 -0.61731422 0.0013326688
0.013778242 0.030191654 -0.0092748711 -0.12123846 0.79355073 -0.59630406 0.0016438182
0.016699523 0.030479291 -0.0096246637 -0.16757338 0.77472293 -0.60969132 0.0014928858
0.01968001 0.030856436 -0.01008338 -0.20507376 0.75916761 -0.61774522 0.0014563106
0.022537412 0.03133573 -0.010481376 -0.21891232 0.7532239 -0.62026709 0.0016104085
0.025377192 0.031965122 -0.010791133 -0.2392509 0.75420922 -0.61149609 0.0011085169
0.028254807 0.032443244 -0.011349641 -0.24641621 0.70796978 -0.66185939 0.00082353357
0.030416207 0.03275634 -0.011816764 -0.25801653 0.69639301 -0.66967475 0.0028669492
0.062287547 0.031298321 -0.011482289 0.57042015 -0.27394167 -0.77432346 0.0015590881
0.064224437 0.031845208 -0.010112211 0.62571418 -0.30036771 -0.71990347 0.0011438917
-0.060924966 0.035076145 -0.010342494 -0.56173295 -0.34403744 -0.75239241 0.0013614907
-0.059003789 0.034399338 -0.011447847 -0.50026071 -0.31974292 -0.80467606 0.0011806011
-0.030471256 0.035878193 -0.01184885 0.31707129 0.68018669 -0.66091752 0.0012979258
-0.028009454 0.035505321 -0.011494222 0.29872733 0.6685735 -0.68100774 0.0019264016
-0.02534066 0.034960736 -0.010822508 0.29874787 0.72689253 -0.61836636 0.0013292852
-0.022615686 0.034222513 -0.010390657 0.27433792 0.7295177 -0.62653232 0.0018999326
-0.019748656 0.03365913 -0.0098107615 0.26852667 0.74889046 -0.60585195 0.001428211
-0.017320903 0.033213545 -0.0092985677 0.24596201 0.76176244 -0.59935015 0.001301431
0.026037997 0.033280246 -0.0093950471 -0.25013196 0.77668434 -0.57809645 0.0010633835
0.028700108 0.033746112 -0.0099437386 -0.26408124 0.76306546 -0.5899086 0.0014346218
0.03158525 0.034345679 -0.010474441 -0.27094275 0.7614094 -0.58893609 0.001681324
0.034330901 0.035067085 -0.010890421 -0.30364388 0.73735672 -0.60341156 0.0015968733
0.036794301 0.035576489 -0.011547646 -0.31868118 0.66699374 -0.67346984 0.0017538616
0.062807418 0.033523511 -0.011856899 0.56825888 -0.19462594 -0.79950148 0.0016464469
0.064306691 0.03466804 -0.010999163 0.57145613 -0.17045312 -0.80273509 0.0017365969
0.066439837 0.035217572 -0.0094050001 0.66628629 -0.22845216 -0.70983946 0.0013974941
-0.063582167 0.037905656 -0.0095719015 -0.57937843 -0.28147563 -0.76491314 0.0015952956
-0.061421312 0.037515588 -0.011036909 -0.53103626 -0.24733146 -0.810449 0.0014130767
-0.05968377 0.036693748 -0.011898621 -0.48525992 -0.21749204 -0.84688842 0.0028345918
-0.036267925 0.038939483 -0.011855063 0.31452614 0.66145086 -0.68084949 0.0020247367
-0.034152169 0.038431901 -0.011429544 0.31430894 0.65788674 -0.68439394 0.0012276339
-0.031401236 0.037775453 -0.010705616 0.32939234 0.71220529 -0.61989057 0.001559521
-0.028646007 0.036976133 -0.010164994 0.32731915 0.7349093 -0.59394491 0.0020858026
-0.026011029 0.03636957 -0.0094519332 0.3208555 0.74595642 -0.58361006 0.0011730309
0.035054471 0.036432076 -0.009581849 -0.32835197 0.74905533 -0.57541382 0.001322477
0.037694737 0.037108809 -0.010300483 -0.34841704 0.72099751 -0.59897274 0.0018548123
0.040291924 0.037964933 -0.010877598 -0.36134261 0.69593829 -0.62056541 0.0016641679
0.042779222 0.038595833 -0.011617915 -0.33655065 0.65246576 -0.67898607 0.0016458632
0.064746924 0.037617307 -0.011257446 0.54273689 -0.067573152 -0.83718008 0.0017292604
0.066732094 0.037779812 -0.0097250855 0.63952184 -0.10953069 -0.76093024 0.0020500459
-0.064074904 0.040802516 -0.01018393 -0.53398651 -0.13920262 -0.83395499 0.0023545057
-0.061855055 0.040509902 -0.011529041 -0.45476237 -0.080750816 -0.88694447 0.0026793301
-0.042372338 0.041806534 -0.011835763 0.29630646 0.64612681 -0.70336527 0.0015017956
-0.040191334 0.041374106 -0.011363483 0.30491212 0.65280581 -0.69345021 0.0011525907
-0.03743637 0.040687423 -0.010685074 0.32822093 0.70615423 -0.62738919 0.0013748795
-0.034720425 0.039919075 -0.010069772 0.34934327 0.72180724 -0.59745586 0.0016414188
-0.032383356 0.03931373 -0.0094308453 0.36242083 0.74141484 -0.56476116 0.0016371621
0.041083146 0.039522067 -0.0096451556 -0.40193391 0.70887953 -0.57960242 0.0015157908
0.043638904 0.040297512 -0.010365955 -0.36584669 0.67275423 -0.64308465 0.0014808929
0.046306506 0.041038994 -0.011088225 -0.32603225 0.63359767 -0.70161021 0.0015938085
0.048826296 0.041604232 -0.011718847 -0.26893777 0.61210179 -0.74364227 0.0019032342
0.06294965 0.04158929 -0.011951179 0.37444264 0.12832697 -0.91832727 0.0076506813
0.064699456 0.040605489 -0.01137773 0.47529179 0.048799202 -0.87847388 0.0039559077
0.066899471 0.040683735 -0.009903199 0.59855223 -0.0054105935 -0.80106556 0.0029823654
-0.066249184 0.043977924 -0.0092579164 -0.58951819 -0.10067014 -0.80145729 0.0025981001
-0.064380296 0.043630406 -0.01039485 -0.49741003 -0.045191322 -0.86633766 0.0027068341
-0.061886262 0.043748051 -0.011625222 -0.36152056 0.075479813 -0.92930388 0.0041739135
-0.048825145 0.044714674 -0.011786629 0.21143819 0.61109346 -0.76279658 0.0022709931
-0.046251997 0.044224102 -0.011321223 0.26670647 0.62727654 -0.73170465 0.0015369124
-0.043402236 0.043608099 -0.010644704 0.30531728 0.65944463 -0.68696004 0.0010677598
-0.040684242 0.042900909 -0.010003481 0.35123771 0.70545572 -0.61560082 0.0016117138
-0.038443778 0.042311624 -0.0094003407 0.36856705 0.71661943 -0.59212744 0.0013983414
0.044723436 0.042085808 -0.0092142327 -0.42646813 0.69474036 -0.57918972 0.0022820702
0.046864759 0.042710576 -0.0097445892 -0.38068554 0.67623055 -0.63070649 0.0015517905
0.049565569 0.043414485 -0.010414115 -0.30836758 0.632267 -0.71073759 0.0013379338
0.052332908 0.043908332 -0.011113916 -0.24856019 0.57696724 -0.77802747 0.0012809577
0.055276517 0.044409942 -0.011615447 -0.17121482 0.52766621 -0.83201796 0.0024094523
0.058434784 0.044685032 -0.011855233 -0.035208311 0.4453117 -0.89468312 0.0036215207
0.061774492 0.044306871 -0.011800556 0.15472569 0.30751115 -0.93888056 0.0050294092
0.064390607 0.043612331 -0.011183597 0.36786556 0.19263624 -0.90970665 0.0048400597
0.066920847 0.043563083 -0.009795595 0.54384899 0.09715718 -0.83353984 0.0034464626
-0.066368528 0.046397433 -0.0092752073 -0.50191915 0.065413356 -0.86243737 0.0049022702
-0.064494707 0.04657501 -0.010224658 -0.36663002 0.17269047 -0.91419935 0.0053280145
-0.061457124 0.046636626 -0.011263662 -0.23286653 0.28549498 -0.92965895 0.0068946294
-0.058576316 0.046988785 -0.011572462 -0.053598184 0.41096106 -0.91007596 0.0057206713
-0.055444825 0.047095809 -0.011437026 0.082398131 0.51370114 -0.85400331 0.0025876726
-0.0523904 0.046819482 -0.011125401 0.17241371 0.5722754 -0.80173212 0.0015472452
-0.049525831 0.046495855 -0.010506527 0.24629603 0.62563515 -0.74021548 0.0012609072
-0.046709139 0.045880731 -0.0099325348 0.32381472 0.67730677 -0.66060549 0.0018004337
-0.044348028 0.045309156 -0.0093437005 0.35977629 0.69906867 -0.61795139 0.0016854675
0.050609231 0.045227304 -0.0091973115 -0.36443523 0.67185295 -0.64482611 0.001962383
0.05276813 0.045800488 -0.0097049689 -0.31735072 0.64610428 -0.69414532 0.0020081655
0.055572629 0.046443272 -0.010235746 -0.24342227 0.58328879 -0.77493215 0.0025547179
0.058455352 0.046549544 -0.010824093 -0.082467072 0.4899103 -0.86786348 0.0031581221
0.061451431 0.04657191 -0.010930081 0.073314808 0.40666455 -0.910631 0.0052004918
0.064465404 0.046527192 -0.010402253 0.28055367 0.29788402 -0.91244441 0.0066657439
0.066781238 0.046417877 -0.0094580827 0.46409699 0.20615353 -0.86146075 0.0044770292
-0.066220514 0.048716143 -0.0091119027 -0.35946223 0.24119842 -0.90144897 0.007010987
-0.064300358 0.049439039 -0.0095791658 -0.25698534 0.31098098 -0.91501337 0.0060268212
-0.061489504 0.0495314 -0.010089186 -0.12752129 0.44025946 -0.88876873 0.0060854107
-0.058494311 0.04955307 -0.010133575 0.049162127 0.55180424 -0.83252335 0.0041658785
-0.055561785 0.049225274 -0.0099685183 0.14772993 0.6136471 -0.77563715 0.0036324216
-0.052673917 0.04868434 -0.0096442029 0.238012 0.66467172 -0.70821035 0.0025093639
-0.050499227 0.048212226 -0.0092992708 0.29933214 0.68400908 -0.66523069 0.0020167499
0.056554247 0.048206169 -0.0091832355 -0.28333661 0.62809056 -0.7247225 0.0026399223
0.058736805 0.04869147 -0.0094643692 -0.18652391 0.58201146 -0.7914995 0.0038228037
0.06155321 0.049085718 -0.0096233003 -0.033781819 0.50051844 -0.86506647 0.0048988578
0.064279042 0.049140081 -0.009466459 0.17029968 0.38681358 -0.90629643 0.0058767181
0.066266619 0.048541129 -0.0091698356 0.38486734 0.27976361 -0.8795507 0.0066662128
-0.063566729 0.051226385 -0.0090856478 -0.15275416 0.48236072 -0.86255103 0.0098489579
-0.061285798 0.051146947 -0.0091608753 -0.021107199 0.57683188 -0.81659013 0.0045841392
-0.059319377 0.051135857 -0.0091428272 0.067506798 0.62943721 -0.77411342 0.0032583089
-0.0080172522 0.0027653654 -0.006583252 -0.12111475 -0.82582575 -0.55076593 0.00059712667
-0.0047625573 0.0028228695 -0.0074127326 -0.09681268 -0.81620538 -0.56959289 0.00098818867
-0.0014172259 0.0026508975 -0.0075730341 -0.056130026 -0.83132058 -0.55295169 0.00060906576
0.0015274545 0.0023406539 -0.0072707096 -0.027822115 -0.83011645 -0.55689555 0.0011725741
0.0043007238 0.0022780283 -0.007254093 -0.00086626277 -0.83647239 -0.54800838 0.0014474286
0.007183467 0.0028223563 -0.0081329048 0.031511709 -0.84601527 -0.53222656 0.0012036713
0.0097006913 0.0020036257 -0.0064442321 0.048910413 -0.88117456 -0.47025442 0.00018789835
0.012477574 0.0027001919 -0.00744532 0.058445688 -0.8465268 -0.52912807 0.00095506548
0.015833419 0.0027978611 -0.0069260546 0.082503743 -0.8491931 -0.5215978 0.00081389403
-0.019230329 0.0055227792 -0.006787532 -0.2523807 -0.79332411 -0.55402237 0.00079037016
-0.016279925 0.0052320608 -0.0077762771 -0.22141133 -0.8006109 -0.55677569 0.00065140123
-0.013376696 0.0044765761 -0.0077175964 -0.17265689 -0.80532831 -0.56712955 0.0012390567
-0.010580776 0.0039916271 -0.0078832041 -0.13844 -0.80571991 -0.57589042 0.0012267553
-0.0074718534 0.0038029153 -0.0083561661 -0.1140446 -0.7972334 -0.5928008 0.0012995035
-0.0043252455 0.0034157806 -0.0083153341 -0.080769643 -0.82230359 -0.56328773 0.00099523109
-0.0020537928 0.0035301417 -0.0087617142 -0.065567672 -0.8029685 -0.59240401 0.001386974
0.0018808481 0.0032538038 -0.0086740721 -0.028849877 -0.81030118 -0.58530313 0.0015035928
0.0047607813 0.0032096514 -0.0087826103 0.0027957598 -0.83265841 -0.55377984 0.0015903051
0.0071504675 0.0030547297 -0.0084707011 0.026544675 -0.83712465 -0.54636776 0.0013516541
0.010611284 0.0032655227 -0.0085705733 0.05171274 -0.84161812 -0.53759158 0.0012733049
0.013676828 0.0035250336 -0.0085958242 0.063822895 -0.82220393 -0.56560349 0.0015321914
0.016499151 0.0036139018 -0.0082539078 0.09865921 -0.82971013 -0.54940647 0.0011780018
0.019417129 0.0038763857 -0.0079168342 0.14251994 -0.82627749 -0.54493445 0.0011562679
0.022521926 0.0045273667 -0.0080737825 0.17876084 -0.82795411 -0.53154176 0.00079486892
0.025174852 0.0050704763 -0.0079880515 0.18904479 -0.82484102 -0.53282207 0.00084825332
0.027778191 0.0056342501 -0.0077925706 0.21292242 -0.81466216 -0.53943449 0.00087758829
0.031286631 0.0059876568 -0.0063860505 0.24665985 -0.83895439 -0.48509225 0.00063541945
-0.028231783 0.008737688 -0.0064850934 -0.31618381 -0.81474525 -0.48602265 0.00077700696
-0.025143065 0.0083506741 -0.007850552 -0.3036845 -0.78317738 -0.54259461 0.0015646666
-0.022557519 0.0073920493 -0.0079000397 -0.29395276 -0.7843619 -0.54623085 0.00096477754
-0.019709371 0.0065887691 -0.0082493257 -0.25849524 -0.77728546 -0.57359177 0.0010376454
-0.017326383 0.0062382347 -0.0088244416 -0.22828934 -0.78275943 -0.57894021 0.0012295444
0.028473338 0.0062604584 -0.0085866638 0.21292309 -0.80512339 -0.55357027 0.00099259987
0.031412512 0.0068594986 -0.0080864485 0.25061688 -0.80212444 -0.54202175 0.00036262092
0.03449513 0.0079180328 -0.0080791581 0.29539391 -0.79876137 -0.52413988 0.00083593949
0.037370808 0.0087219272 -0.0075727794 0.3209382 -0.79506743 -0.51465172 0.00070418592
-0.03395918 0.011461537 -0.0070878314 -0.34649685 -0.77638721 -0.5264625 0.00056908221
-0.031543642 0.011108498 -0.0081820246 -0.32594293 -0.77034128 -0.54802871 0.00057650602
-0.028542425 0.009762438 -0.0080060307 -0.297674 -0.78155696 -0.54823261 0.0012468814
-0.026774172 0.0094673261 -0.0085987691 -0.2991277 -0.7701661 -0.56335312 0.0016776919
0.038215563 0.0095473416 -0.0084459279 0.32650772 -0.79550236 -0.51045924 0.00079696497
0.040485643 0.010420746 -0.0082259532 0.34655932 -0.78651637 -0.51116401 0.00084611954
0.043161824 0.011438944 -0.0077915806 0.38781896 -0.77036399 -0.50609863 0.00056116673
-0.039858926 0.014437867 -0.0072181411 -0.41655886 -0.74123144 -0.52635986 0.00095223024
-0.037375733 0.013550324 -0.0078798328 -0.37628502 -0.75590754 -0.53573626 0.00099247124
-0.034744073 0.01258113 -0.0083227977 -0.34835023 -0.7627691 -0.54482609 0.001007761
0.044315845 0.012443844 -0.0084855761 0.41680893 -0.78921568 -0.45100886 0.00078118721
0.04618128 0.013280733 -0.0082255006 0.41573691 -0.74733371 -0.51831961 0.00075453985
0.048809689 0.014533037 -0.0077769128 0.44876882 -0.73362929 -0.51028877 0.00048163516
-0.045646518 0.017701346 -0.0064672893 -0.50527799 -0.72144145 -0.47351491 0.00070210837
-0.043217663 0.016947946 -0.0079170065 -0.45637715 -0.68818808 -0.56401861 0.00072739483
-0.040731195 0.015624536 -0.0082796533 -0.42925549 -0.72327864 -0.5409323 0.00099518802
0.050236542 0.015969727 -0.0085622845 0.46046576 -0.69009763 -0.55833369 0.0006836807
0.05189475 0.016572483 -0.0077921026 0.48039892 -0.69209653 -0.53871995 0.00074339699
0.054419797 0.017885447 -0.0071092914 0.53933442 -0.71140933 -0.45057213 0.00082138286
-0.048520628 0.02044786 -0.0074972189 -0.50029308 -0.66779608 -0.55114001 0.00039277517
-0.04646723 0.019247891 -0.0079790633 -0.48535821 -0.67090291 -0.5606395 0.00075679249
-0.044488262 0.018208243 -0.0084643243 -0.4673765 -0.66857755 -0.57841432 0.00096508424
0.053486008 0.018218802 -0.0086982269 0.48714662 -0.65731478 -0.57500041 0.00063323812
0.055682011 0.019494336 -0.0079819122 0.53382373 -0.65286118 -0.53740537 0.00091357273
0.057926342 0.02040316 -0.0065334528 0.56904918 -0.64125156 -0.51476157 0.0010084285
-0.052392673 0.023372198 -0.0074939793 -0.51659167 -0.66352612 -0.54117101 0.00066894607
-0.049917728 0.022012547 -0.0082323262 -0.50788969 -0.66185653 -0.55135649 0.00075274671
0.05679274 0.021158675 -0.0089970967 0.53527766 -0.6054492 -0.58898997 0.00094297633
0.058936708 0.022128828 -0.0077356314 0.5842157 -0.59971917 -0.54683536 0.0011447616
0.060817994 0.023340082 -0.0069347289 0.61317873 -0.58141822 -0.53475666 0.00089439779
-0.057069708 0.026746443 -0.0069265827 -0.58870465 -0.65536726 -0.47320259 0.0010986467
-0.055531971 0.025952794 -0.0076467777 -0.55054748 -0.62984908 -0.54789382 0.0010117601
-0.053337574 0.024638627 -0.008261865 -0.51935321 -0.64902258 -0.55591547 0.00081646594
0.061880205 0.025410756 -0.0079573141 0.62387258 -0.53891915 -0.56599396 0.0015101493
0.063503787 0.026538365 -0.0071178786 0.67147458 -0.51967299 -0.52826303 0.0010881025
-0.060516559 0.029908676 -0.0066164914 -0.64364302 -0.58705944 -0.49100396 0.0016030748
-0.058322877 0.028618418 -0.0077339052 -0.60348111 -0.59008121 -0.5362972 0.0010951736
-0.056620203 0.027508631 -0.0083660828 -0.57278383 -0.59572202 -0.56305766 0.0015769296
-0.00086126942 0.029944876 -0.0089435112 0.079662107 0.79871249 -0.59641618 0.0010420468
0.0018978983 0.029847071 -0.0088736024 0.033426806 0.79720962 -0.60277641 0.0013267202
0.0044926889 0.029845368 -0.0088325301 0.0041563362 0.8181417 -0.5750016 0.0019786416
0.0072732102 0.029878335 -0.0088504897 -0.029798241 0.80209881 -0.59644747 0.0015862179
0.0098412363 0.029929277 -0.008916392 -0.075978346 0.79654348 -0.59978807 0.00073615613
0.062805116 0.027479764 -0.0087063797 0.64173144 -0.47389716 -0.60299438 0.002079735
0.064443342 0.028541302 -0.0077515291 0.69522101 -0.46019015 -0.55217093 0.0015174625
0.066090323 0.029271983 -0.0062708226 0.7181589 -0.44566682 -0.53444254 0.0010156743
-0.061313923 0.031749487 -0.0075362171 -0.6458379 -0.52834016 -0.5511353 0.0016061019
-0.059689283 0.03036903 -0.0080995997 -0.62073731 -0.55567485 -0.55309188 0.0014331965
-0.015480399 0.032888047 -0.008851449 0.24711116 0.76552731 -0.59405732 0.0011750503
-0.01315435 0.032593261 -0.0084245317 0.22407672 0.80632603 -0.54738271 0.0012621837
-0.010346908 0.032280572 -0.0078034722 0.1932832 0.84195292 -0.50374293 0.0015693839
-0.0075012073 0.031828213 -0.0075466637 0.16007978 0.85612261 -0.49135378 0.0015483174
-0.0045020683 0.031350579 -0.0075526428 0.12037434 0.85166126 -0.51008147 0.0025896158
-0.0014517742 0.031019226 -0.0074759959 0.085139699 0.85614783 -0.50966871 0.0022670969
0.0014853881 0.030847697 -0.0074026831 0.043993369 0.86345553 -0.50250274 0.0022470749
0.0044621257 0.030774256 -0.0073823729 0.00625253 0.86826301 -0.49606481 0.0022336319
0.007518623 0.030794131 -0.0074047726 -0.034143474 0.8666237 -0.49779266 0.0022135968
0.010553058 0.030963033 -0.0074787182 -0.072102904 0.86716706 -0.49277025 0.0020468275
0.013476507 0.03124425 -0.007535527 -0.12476382 0.86216199 -0.49103025 0.0025583424
0.016495513 0.031781107 -0.007533256 -0.18601313 0.86347568 -0.4688378 0.0018431918
0.019364282 0.032310341 -0.007837588 -0.22032221 0.84535348 -0.48665765 0.001425188
0.022070615 0.032674763 -0.0084908037 -0.2409357 0.81578863 -0.52577472 0.0010988839
0.024106828 0.032915063 -0.0089727473 -0.25550634 0.76969427 -0.58505321 0.0012816358
0.065688081 0.031746484 -0.0085681658 0.68276101 -0.30602029 -0.66346741 0.0013305758
0.066782087 0.031825829 -0.0072494214 0.73049676 -0.38382596 -0.56484693 0.0018347629
-0.063922487 0.034851409 -0.0073069674 -0.66954195 -0.4649114 -0.57928485 0.001528126
-0.062325776 0.033917904 -0.0083854049 -0.64691198 -0.44762534 -0.6173625 0.0025620386
-0.024268463 0.035941295 -0.0088291615 0.34126362 0.77140504 -0.53709722 0.0017284491
-0.02206975 0.035581991 -0.0082732579 0.30805477 0.81403524 -0.49239102 0.001741149
-0.019432206 0.035013869 -0.0076011498 0.30241796 0.83750874 -0.45510706 0.0013738289
-0.016545897 0.034100089 -0.0075180102 0.25268626 0.83613098 -0.48686206 0.0020491167
-0.013694762 0.033553064 -0.007055081 0.22369507 0.85228539 -0.47283199 0.001915471
-0.010941495 0.033196833 -0.0063847755 0.19821785 0.86403 -0.4627763 0.0015595183
0.020079797 0.033240952 -0.0064899563 -0.22683859 0.86385977 -0.44976726 0.0015614955
0.02266454 0.033609618 -0.0071446397 -0.24244496 0.85495985 -0.45854563 0.0017279558
0.025504082 0.034262501 -0.0075141029 -0.25934476 0.84230059 -0.47251442 0.0016303227
0.028406823 0.035120025 -0.0076617398 -0.29081726 0.84294111 -0.45263183 0.001361819
0.030981289 0.035626378 -0.0083771935 -0.30463457 0.82171822 -0.48163995 0.0017214949
0.067380831 0.034208249 -0.0079494333 0.71912223 -0.24963358 -0.64849544 0.0017637166
0.069124751 0.035722807 -0.0063563935 0.8039096 -0.31098926 -0.50696647 0.0035107837
-0.066632986 0.038208298 -0.00667 -0.70468181 -0.41118196 -0.57823253 0.0017447344
-0.064852871 0.037489515 -0.0081723798 -0.65426689 -0.35980964 -0.66518563 0.0024465707
-0.030342495 0.038838785 -0.0087133655 0.36903119 0.76760012 -0.52402872 0.0016755655
-0.028172391 0.038336474 -0.0079494985 0.36885095 0.80265433 -0.46871632 0.0017522485
-0.025493385 0.037391923 -0.00751926 0.34026775 0.81702304 -0.46550089 0.0022637174
-0.022804059 0.036572684 -0.0070510735 0.32197559 0.83081651 -0.45395556 0.0017151549
-0.020482672 0.036128752 -0.0062039574 0.3221356 0.84287375 -0.43103653 0.0014046737
0.029499141 0.03617854 -0.0063775717 -0.3116568 0.84990406 -0.42489183 0.0013792804
0.031741779 0.036590237 -0.0071339086 -0.31625241 0.83757883 -0.44547293 0.0016707942
0.034498464 0.037489694 -0.0075405072 -0.36097878 0.81366169 -0.45568505 0.0030438441
0.03706073 0.038421344 -0.0080642039 -0.41144586 0.78186363 -0.46840319 0.0026518616
0.039028943 0.038940758 -0.0088790385 -0.41710034 0.7333377 -0.5368827 0.0019796996
0.068288542 0.037443832 -0.008087107 0.72514659 -0.15597343 -0.67069709 0.0021473309
0.069489226 0.037960332 -0.0068321768 0.76263666 -0.17200223 -0.62353873 0.0017706177
-0.066955455 0.041020967 -0.0078253346 -0.66604882 -0.2409655 -0.70591402 0.0020725571
-0.065615125 0.040074922 -0.0087713217 -0.6080665 -0.21599354 -0.76393843 0.002105881
-0.036334619 0.041762739 -0.0087215509 0.38253081 0.75274968 -0.53575939 0.0016729037
-0.034201089 0.041260231 -0.0078279627 0.39987549 0.79349995 -0.4587563 0.0015608437
-0.031562041 0.040172081 -0.0074952724 0.3690688 0.79793966 -0.47652972 0.0017441716
-0.029098257 0.039390996 -0.0068097971 0.38271642 0.81586987 -0.4334566 0.001549365
0.038018171 0.039583936 -0.0069948011 -0.43478027 0.781739 -0.4470461 0.001852055
0.040466227 0.040646005 -0.0075794649 -0.44379106 0.77189028 -0.45523068 0.0015419406
0.042784426 0.041524295 -0.0083200186 -0.42780608 0.72698241 -0.53710198 0.0020203101
0.068470359 0.040435813 -0.0084736748 0.70254821 -0.053565007 -0.70961732 0.0023622303
0.069747731 0.040755659 -0.0070985435 0.75588644 -0.075835757 -0.65029579 0.0019284418
-0.069451429 0.044218101 -0.0063791154 -0.70453572 -0.18959601 -0.68387336 0.0017499432
-0.067517146 0.043627638 -0.0081337467 -0.62808681 -0.12748098 -0.7676298 0.0025763421
-0.042315323 0.044787779 -0.008710485 0.37013301 0.72826558 -0.57674158 0.0013681704
-0.040218234 0.044273477 -0.0078929821 0.39857519 0.77390414 -0.49214864 0.0021285461
-0.037587013 0.043190867 -0.0074588582 0.38016674 0.79134828 -0.47879142 0.0017651418
-0.035194486 0.042390052 -0.0067418083 0.41277766 0.79954326 -0.4362857 0.0015432267
0.0417023 0.04217514 -0.0062554255 -0.48069957 0.76440609 -0.42966416 0.0014111483
0.043791071 0.042849619 -0.0072447662 -0.452766 0.74866104 -0.48426184 0.0020388383
0.046347704 0.044021171 -0.0077788853 -0.43069977 0.73712659 -0.52071297 0.0023481101
0.048610788 0.044661406 -0.008632456 -0.39343733 0.68636984 -0.61163998 0.0017444337
0.068420805 0.043586332 -0.0086216517 0.68252838 0.037064027 -0.72991872 0.0024252217
0.069767296 0.043589026 -0.0072653219 0.73457974 0.010231621 -0.67844516 0.0024650313
-0.069634981 0.046541646 -0.0067276778 -0.65723103 -0.079661183 -0.74946749 0.0033555133
-0.067835964 0.046630409 -0.0082762782 -0.57677758 -0.017349008 -0.81671703 0.0025462813
-0.048475761 0.047822412 -0.0087268399 0.32103643 0.70311624 -0.63447863 0.0018778146
-0.046196271 0.04727539 -0.0079891607 0.3643409 0.75260264 -0.54849339 0.0027619556
-0.043545645 0.046281934 -0.0074707214 0.3802993 0.77854371 -0.49924162 0.0016942434
-0.041093752 0.045449656 -0.0067639048 0.41703561 0.78392911 -0.45993084 0.0016030153
0.047374789 0.045439169 -0.0066161896 -0.45598063 0.74432999 -0.48790839 0.0020236231
0.049640853 0.046190411 -0.0074135414 -0.39912251 0.73105097 -0.55341285 0.0017399061
0.052174076 0.047139797 -0.0080136918 -0.36945722 0.697366 -0.61415136 0.0025860814
0.054539964 0.047754765 -0.0087504853 -0.31571463 0.65347052 -0.68796843 0.0020462915
0.068163998 0.046721458 -0.0084844669 0.54975748 0.14189351 -0.82318467 0.0032386465
0.069892079 0.046419341 -0.0069692647 0.69195288 0.08527907 -0.71688819 0.0033420101
-0.069834471 0.049545273 -0.0068036406 -0.58621478 0.012184645 -0.81006408 0.0066380547
-0.067521311 0.049720585 -0.0082445545 -0.42632058 0.15779188 -0.89070338 0.0058264867
-0.065392584 0.050665785 -0.008851408 -0.20419599 0.32903308 -0.9219768 0.0068267565
-0.05747788 0.050901592 -0.0088950619 0.10509675 0.67463923 -0.7306276 0.0031619985
-0.0551081 0.050630283 -0.0086370697 0.20896877 0.67636043 -0.7063064 0.0024455998
-0.052337337 0.050151322 -0.0079619037 0.29860866 0.73877794 -0.60418546 0.0026733817
-0.049612418 0.049328383 -0.0074637961 0.33818877 0.76401645 -0.54946077 0.0016841339
-0.047027376 0.048519563 -0.0068192654 0.3932541 0.7689479 -0.50405383 0.0018120264
0.052969128 0.04865168 -0.0067943987 -0.42319757 0.71749103 -0.55327249 0.002335066
0.05553763 0.049458712 -0.0075024273 -0.34264269 0.69203925 -0.63535631 0.0023590312
0.058329958 0.050100606 -0.0081766024 -0.25573286 0.62730086 -0.73559111 0.0024577251
0.061304972 0.050532769 -0.0086762514 -0.12910616 0.57755804 -0.80607581 0.0044544809
0.064788006 0.050518304 -0.0087779379 0.082520783 0.44011825 -0.89413995 0.0076190066
0.067566969 0.049661458 -0.0081895282 0.41632563 0.24039096 -0.87686098 0.0062237699
0.069716766 0.049282189 -0.0067985612 0.63924962 0.14665027 -0.75488651 0.0052588326
-0.069877736 0.052631278 -0.0066182367 -0.41032162 0.15561482 -0.89856559 0.0083408086
-0.067436233 0.052559387 -0.00759013 -0.24616776 0.30888999 -0.91868842 0.012363899
-0.064462282 0.052589256 -0.0080562718 -0.059317093 0.47684792 -0.87698209 0.0091479449
-0.061461169 0.052700404 -0.007884399 0.064492218 0.62330562 -0.7793144 0.0050278637
-0.058519185 0.052552015 -0.0075612105 0.15805055 0.72429287 -0.67113334 0.0026871406
-0.055594686 0.052039143 -0.0072353221 0.2568571 0.75135404 -0.60785818 0.0024326746
-0.052922826 0.051480949 -0.0066316635 0.34421253 0.76061523 -0.55043811 0.0016615075
-0.050968636 0.051021587 -0.0061514089 0.34742472 0.76377076 -0.5440132 0.002061232
0.056664884 0.051207591 -0.0062370924 -0.41020548 0.70932013 -0.57323343 0.0026920731
0.05876879 0.051772166 -0.0067806016 -0.33912998 0.68057173 -0.64947128 0.0033838593
0.061529785 0.052456502 -0.0072784587 -0.23625314 0.60586447 -0.75967932 0.0040073087
0.064425267 0.05253543 -0.0077792495 -0.0017936324 0.45468649 -0.89064974 0.0070471917
0.067394502 0.052515414 -0.0073932172 0.30435562 0.31314257 -0.89961618 0.011421627
0.069448061 0.052531835 -0.0064005014 0.5252946 0.21203835 -0.8240785 0.006916408
-0.069784157 0.054995064 -0.0062632151 -0.30278111 0.28154424 -0.91052532 0.010739721
-0.067441881 0.055151951 -0.0065839235 -0.076855347 0.44656655 -0.89144349 0.0091510741
-0.064568013 0.054859389 -0.0066146725 0.099478446 0.58479339 -0.80505943 0.0096333167
-0.061813008 0.054397941 -0.0063872226 0.18147363 0.68881333 -0.70185721 0.0055387509
-0.059591126 0.054084804 -0.006121885 0.23483226 0.74280697 -0.62697011 0.0028468075
0.062577657 0.054279864 -0.006244442 -0.3237004 0.61726296 -0.71708059 0.0069043399
0.0647038 0.054865465 -0.0065025445 -0.15970501 0.4987264 -0.85191917 0.010425218
0.06733413 0.05521496 -0.0064529977 0.14744401 0.33802214 -0.92951667 0.016036777
0.069301717 0.054420643 -0.0061132503 0.45749843 0.22104539 -0.86129797 0.014147366
0.067449108 0.057148859 -0.0060055442 -0.0405786 0.33025947 -0.94301754 0.019998316
-0.0094549786 0.0025125151 -0.0056213313 -0.15203145 -0.82810104 -0.53956938 0.00071774516
-0.0061385487 0.0021803961 -0.0058610681 -0.10126647 -0.83725017 -0.53736138 0.00051255448
-0.0032064912 0.0017518279 -0.0055615418 -0.073090255 -0.86887479 -0.4896065 0.00023870826
0.00048440255 0.0014011638 -0.0053289579 -0.050783526 -0.84213293 -0.53687358 0.00065921573
0.0056035426 0.0015200236 -0.0057739643 0.025128262 -0.87760723 -0.47872147 0.00016954768
0.007189326 0.0013840829 -0.0053762109 0.037320662 -0.86237764 -0.50488806 0.00068970595
0.010554582 0.0016167492 -0.0055071888 0.060676318 -0.86980236 -0.48965523 0.00044942196
0.012973322 0.0019264548 -0.0057257023 0.060427729 -0.84924024 -0.52453744 0.00083324878
0.020050013 0.0029161975 -0.0057395995 0.15696327 -0.84772503 -0.50668013 0.0018006206
-0.022324502 0.005866982 -0.0053153778 -0.31420511 -0.81885326 -0.48036918 0.00053698395
-0.019470407 0.0050394838 -0.0056970497 -0.27962029 -0.81904393 -0.50097865 0.0009820119
-0.01648053 0.0038651081 -0.0051639029 -0.22394949 -0.84039086 -0.49354824 0.00039927286
-0.013576788 0.0032121399 -0.0053393566 -0.19981498 -0.84206265 -0.50100356 0.00085425627
0.023784323 0.0032558681 -0.0045587872 0.18506083 -0.86682391 -0.46299982 0.00062292477
0.026811762 0.0042783334 -0.0053648893 0.20892027 -0.86017102 -0.4652507 0.00084920041
-0.027520778 0.0080763381 -0.0056699421 -0.3112846 -0.80489647 -0.50521636 0.00038049888
-0.024881158 0.0065315822 -0.0045457212 -0.31388071 -0.82717395 -0.46611398 0.00024480457
-0.023822835 0.006629433 -0.0057200128 -0.31375587 -0.81875587 -0.48082843 0.00044257881
0.038326461 0.0080465237 -0.0051033814 0.35457867 -0.81886256 -0.45137367 0.00082039466
0.039761815 0.0086752996 -0.0051636673 0.36340925 -0.82853806 -0.42597935 0.00036140907
-0.03707663 0.01170605 -0.0045910506 -0.3917613 -0.80842245 -0.43929061 0.0005414249
-0.035038292 0.011155806 -0.0055716289 -0.36843878 -0.79465938 -0.48246175 0.0010360515
-0.031491917 0.0097153531 -0.0057602376 -0.33706835 -0.81490004 -0.47151124 0.00017738639
0.043582082 0.010564011 -0.0054617347 0.39442626 -0.81845719 -0.41779885 0.00046521935
0.04590613 0.011599815 -0.0050868476 0.42176911 -0.79655892 -0.43313357 0.00032586633
-0.042312503 0.014827651 -0.0053051147 -0.47641897 -0.76104355 -0.44027013 0.0005413607
-0.040389057 0.013491466 -0.004728267 -0.44441748 -0.79685444 -0.40928739 0.00055241329
-0.038126133 0.012685357 -0.0057379426 -0.41062507 -0.79710424 -0.44273236 0.00049367943
0.046891537 0.012366875 -0.0056416579 0.43125045 -0.79031575 -0.43522874 0.00034979641
-0.046025872 0.017301347 -0.0052228719 -0.52385259 -0.7381413 -0.42511871 0.00025910034
-0.04400003 0.015853697 -0.0050450559 -0.49495384 -0.75777894 -0.42519617 0.00034004473
0.052479718 0.015729226 -0.005566468 0.5030992 -0.7359519 -0.45306298 0.00090198359
0.055316903 0.017398492 -0.004780801 0.54419506 -0.71446955 -0.43975577 0.00077745813
-0.049836613 0.020082146 -0.0051748902 -0.53277522 -0.70175183 -0.47296396 0.00041106431
-0.047433555 0.01850765 -0.0055603692 -0.52930564 -0.73008853 -0.43221086 0.00024451211
0.058436926 0.020040005 -0.0050761169 0.60323226 -0.67060095 -0.43174669 0.0020170491
-0.054301992 0.023656689 -0.0055297553 -0.55544108 -0.70071894 -0.44774789 0.00052491424
-0.053139504 0.022587646 -0.0052038692 -0.54836941 -0.70393682 -0.45140219 0.00047570749
-0.050660912 0.021019962 -0.0057489141 -0.54578835 -0.72296208 -0.42360479 0.00011358569
0.061410725 0.022679228 -0.0048773326 0.64914244 -0.63350254 -0.42105657 0.0010917354
-0.05800914 0.026397886 -0.0049807965 -0.61532551 -0.64858657 -0.44800672 0.00045697903
-0.056139112 0.024926815 -0.005283325 -0.58086491 -0.68432999 -0.4407815 0.0004420327
0.062918946 0.024311626 -0.0049934275 0.68297392 -0.58250934 -0.44071481 0.0018632512
