# .PCD v0.7 - Point Cloud Data file format
VERSION 0.7
FIELDS x y z normal_x normal_y normal_z curvature
SIZE 4 4 4 4 4 4 4
TYPE F F F F F F F
COUNT 1 1 1 1 1 1 1
WIDTH 670
HEIGHT 1
VIEWPOINT 0 0 0 1 0 0 0
POINTS 670
DATA ascii
-18.881943 11.827855 -1.3646368 -0.11899373 -0.031921126 0.99238175 0
-18.912502 11.830444 -1.3642223 -0.56194538 -0.58243048 0.58736032 0
-18.911501 11.830425 -1.3626714 0.13051482 -0.16338193 0.97789174 0
-18.883266 11.830474 -1.3632323 0.040526584 0.093061946 0.99483526 0.022081047
-18.881687 11.830936 -1.3648239 0.13329266 0.75962305 0.63655788 0
-18.912325 11.833326 -1.3641409 0.036031842 -0.048166517 0.99818927 0
-18.911413 11.833583 -1.3627273 -0.015254648 0.10516194 0.9943381 0
-18.883018 11.833549 -1.3629813 0.070782632 0.50782597 0.85854679 0.0010991493
-18.881659 11.833438 -1.3645006 -0.037559573 0.11799051 0.99230415 0
-18.912277 11.836222 -1.3642942 -0.018856376 0.21111518 0.97727931 0.035681739
-18.911346 11.836617 -1.3628558 -0.020712702 -0.064254269 0.99771857 0
-18.88266 11.836392 -1.3628078 -0.040071394 0.29724932 0.95395869 0.011346635
-18.8813 11.836728 -1.3642925 0.061226171 -0.0023383503 0.99812114 0.010280701
-18.912329 11.839508 -1.3646603 0.24417199 0.040630735 0.96888041 0
-18.91136 11.839569 -1.3631154 0.4523209 0.13857163 0.88102424 0
-18.882469 11.839359 -1.3623776 -0.0013409884 0.023431599 0.99972457 0
-18.881136 11.839588 -1.36387 0.057911176 0.062886529 0.99633908 0
-18.912249 11.842004 -1.3649141 0.041052368 -0.88387591 0.46591645 0.011380468
-18.91118 11.842696 -1.3632573 -0.061520584 -0.1777409 0.98215246 0
-18.882141 11.842278 -1.3622065 -0.44319415 0.016974172 0.89626491 0
-18.880762 11.84259 -1.3635956 0.11553071 0.28537342 0.95142764 0.00051616429
-18.910973 11.845395 -1.3634106 -0.026986714 -0.13872902 0.98996264 0
-18.880404 11.84538 -1.3633548 -0.13216631 0.50015301 0.85579139 0
-18.878944 11.846706 -1.3645598 -0.069892809 -0.025757482 0.99722195 0
-18.910549 11.848481 -1.3633529 -0.012624498 0.12022422 0.99266648 0
-18.879974 11.848248 -1.3631071 0.92630899 0.37261602 -0.055757288 0
-18.878714 11.848966 -1.3645864 -0.029639242 -0.2803452 0.9594416 0
-18.910196 11.851487 -1.3634886 0.025599135 0.14856781 0.98857087 0
-18.879585 11.851216 -1.3626608 -0.056979086 -0.21454206 0.97505134 0.011644061
-18.878365 11.851704 -1.3641729 0.079839267 -0.98005164 0.18200143 0.015375503
-18.909822 11.854384 -1.3636645 -0.0040896642 0.039959777 0.99919295 0
-18.90877 11.855329 -1.3623891 0.017383846 0.10553399 0.99426383 0
-18.879141 11.854187 -1.3622633 -0.24672981 -0.40771714 0.87914234 0
-18.87796 11.854556 -1.3636999 -0.10177422 0.54899698 0.82960492 0
-18.909521 11.85755 -1.3641657 0.14144786 0.018648218 0.98977005 0
-18.908434 11.857783 -1.3626742 -0.066763125 -0.03545247 0.99713886 0
-18.87735 11.857491 -1.3633474 0.38881472 0.084391586 0.91744268 0
-18.875851 11.858665 -1.3645793 0.00779043 0.18278289 0.98312247 0
-18.909285 11.859718 -1.3645757 -0.058381449 0.081739917 0.99494231 0
-18.908213 11.860558 -1.3632601 -0.65909445 -0.083201408 0.74744374 0
-18.87677 11.86025 -1.3629822 -0.071054876 0.032957204 0.9969278 0
-18.875629 11.860992 -1.3642645 -0.045481801 -0.026353125 0.99861747 0
-18.907669 11.863486 -1.3635284 -0.0066422299 0.17308426 0.98488468 0
-18.876345 11.862802 -1.362412 0.070645146 0.65564567 0.75175661 0.024871521
-18.875099 11.863767 -1.3636619 -0.048507635 0.11725834 0.99191612 0
-18.90694 11.8664 -1.3635961 -0.070836402 -0.011647183 0.99741995 0
-18.905821 11.867494 -1.3624511 -0.78865474 0.075075462 0.61023557 0.012409438
-18.874281 11.866543 -1.3634392 -0.022623355 0.54103512 0.84069568 0
-18.872927 11.867428 -1.3648736 -0.56334585 -0.619187 0.54703641 0
-18.90654 11.869246 -1.3641614 -0.064242594 -0.042099643 0.99704593 0
-18.905437 11.869488 -1.3626994 -0.3750917 -0.5821417 0.72139949 0.029569311
-18.873705 11.869247 -1.362857 -0.0079368884 0.022890447 0.99970651 0
-18.87257 11.869816 -1.364233 0.10861568 -0.52444452 0.84448838 0
-18.906275 11.871249 -1.364646 0.24383721 -0.036223572 0.96913946 0
-18.904968 11.872573 -1.3633536 -0.44728106 0.76627821 0.46125641 0
-18.873325 11.871438 -1.362452 -0.2783874 -0.30583146 0.91047657 0.010249588
-18.871923 11.872535 -1.3636431 -0.11406364 -0.46714967 0.87678993 0
-18.904097 11.875517 -1.3634667 0.0026289693 0.089333192 0.99599832 0
-18.871094 11.875389 -1.3631406 0.36903134 -0.028017193 0.92899454 0
-18.86981 11.876204 -1.364575 0.21891972 -0.068731889 0.97331911 0
-18.903618 11.878236 -1.3640769 -0.057244971 -0.018654948 0.99818587 0
-18.902561 11.878471 -1.3626542 0.046685427 0.026319878 0.99856287 0
-18.870378 11.878048 -1.3625245 -0.038924359 0.037840042 0.99852538 0.022051917
-18.869102 11.878792 -1.3638555 0.19420302 0.29374424 0.93594849 0.014518242
-18.903252 11.880069 -1.3645551 0.36222491 0.85070521 0.38091186 0
-18.901957 11.881547 -1.3633822 -0.091967739 0.19114727 0.97724342 0
-18.868217 11.881492 -1.3632251 0.32789841 -0.045885179 0.94359803 0.029824844
-18.866703 11.882502 -1.3645613 -0.16247116 -0.028004333 0.98631585 0
-18.900997 11.88451 -1.3635525 -0.069213584 -0.29421398 0.95323008 0
-18.89962 11.88564 -1.3621721 0.061970651 0.11516805 0.99141109 0
-18.867556 11.883855 -1.3625083 -0.23542999 -0.37890685 0.89498729 0
-18.866238 11.884772 -1.3636694 -0.070696443 0.052091505 0.99613672 0
-18.900444 11.88719 -1.3642601 -0.030056192 0.038091712 0.99882215 0
-18.899353 11.887511 -1.362826 -0.42354175 -0.019281391 0.90567136 0
-18.865141 11.88733 -1.3632526 0.027423469 0.044650253 0.99862629 0.016376382
-18.863665 11.888395 -1.364387 0.39185041 -0.45704862 0.79847336 0.047036745
-18.898552 11.890512 -1.3635391 0.0057880976 -0.14643729 0.98920304 0
-18.864422 11.88966 -1.3624533 0.1467001 0.080328897 0.98591405 0.043931711
-18.862932 11.89077 -1.3636383 -0.10393862 -0.024500176 0.99428189 0
-18.897552 11.893435 -1.3640047 -0.39268693 -0.1410381 0.90879333 0
-18.896505 11.893941 -1.3627372 -0.11562482 -0.019724322 0.99309713 0
-18.861902 11.893223 -1.3630656 -0.045682814 0.027348682 0.99858153 0.012621875
-18.860559 11.893981 -1.3642889 0.081594475 0.014141464 0.99656534 0
-18.897003 11.895402 -1.3645477 -0.026348991 0.088868812 0.99569476 0
-18.895678 11.89653 -1.3633598 0.0094294902 0.10432468 0.99449861 0
-18.861235 11.895398 -1.3622837 -0.10682073 -0.11947384 0.98707408 0
-18.859623 11.896522 -1.3634955 -0.075057268 -0.065437257 0.99502993 0
-18.857853 11.897519 -1.3646457 -0.030115716 0.0044880221 0.99953634 0
-18.894705 11.899087 -1.3638505 -0.033154856 0.091258682 0.99527514 0
-18.89344 11.899934 -1.3626118 -0.030596573 0.017060291 0.99938625 0
-18.858667 11.899062 -1.3627552 0.016763754 -0.41683561 0.9088273 0
-18.857164 11.899989 -1.3638593 -0.05046688 0.049923088 0.99747729 0.011048143
-18.894024 11.901137 -1.3644933 -0.028092721 0.10482099 0.99409425 0.041598942
-18.892561 11.902505 -1.3633592 -0.066729888 0.10468005 0.99226469 0.021264955
-18.856218 11.902381 -1.3631788 -0.25748318 -0.24383153 0.93501264 0
-18.854635 11.903132 -1.3644642 -0.13714355 -0.50317389 0.85323364 0
-18.891331 11.904812 -1.3634224 0.070324302 0.7458449 0.66239703 0.0046007214
-18.890265 11.905984 -1.3630319 0.066299833 0.84775847 0.52622241 0.012575566
-18.855389 11.904717 -1.3624411 0.0078665437 -0.00019839115 0.99996907 0.011047599
-18.853792 11.905578 -1.363557 0.48094144 0.56788749 0.66798145 0
-18.851736 11.906919 -1.3647649 -0.044849467 0.1071706 0.99322855 0
-18.889254 11.908062 -1.3633969 -0.0082210368 0.036424905 0.99930257 0
-18.887722 11.909662 -1.3627052 -0.11212767 0.69035113 0.71473265 0
-18.852798 11.908135 -1.3628429 0.067967333 0.10279842 0.99237734 0.0058740485
-18.85111 11.908932 -1.3640743 0.010771709 -0.24878414 0.96849906 0.017732939
-18.888344 11.910349 -1.3642708 -0.21868005 -0.19370806 0.95637661 0.013432325
-18.8866 11.911646 -1.3630373 0.8203274 0.017255364 0.57163382 0
-18.852152 11.910599 -1.3621583 -0.044813152 0.020701023 0.99878091 0
-18.850294 11.911427 -1.363238 -0.11849307 -0.38535881 0.91512728 0.013037057
-18.848536 11.912059 -1.3645357 0.20523804 0.022914687 0.9784438 0
-18.885712 11.913575 -1.3637795 -0.023607926 -0.03181994 0.99921483 0
-18.884121 11.915006 -1.3630435 -0.083902061 -0.10196613 0.99124336 0
-18.849533 11.913852 -1.3624982 -0.10433863 -0.031710915 0.9940362 0
-18.847746 11.914696 -1.3636541 -0.2856217 -0.17820668 0.94162768 0.027961275
-18.845734 11.915699 -1.3647974 -0.059838809 -0.0070497766 0.99818313 0
-18.882956 11.916873 -1.3635783 0.452714 0.30594718 0.83752394 0
-18.881386 11.918173 -1.3628924 -0.52225924 -0.57777303 0.62723488 0
-18.849005 11.916337 -1.3620359 0.080268651 0.21579747 0.97313327 0.016043633
-18.847099 11.917397 -1.36283 0.0066242618 0.011813871 0.99990821 0
-18.845228 11.917756 -1.364185 -0.012028327 -0.55099928 0.83441901 0.0051082307
-18.880087 11.920218 -1.3637372 -0.12990387 0.55149877 0.82399875 0
-18.878246 11.921454 -1.3628635 -0.89747882 0.43322578 0.082747601 0
-18.846777 11.92059 -1.3623215 0.0054509467 0.18964358 0.98183793 0
-18.844473 11.920487 -1.3636346 0.063964985 0.11045815 0.99182034 0.010366206
-18.842524 11.921204 -1.3647348 0.0033891986 0.034532208 0.99939787 0
-18.877148 11.923161 -1.3636951 -0.14362274 -0.011976439 0.98956001 0.019902516
-18.875372 11.924201 -1.362759 0.10077114 0.28809491 0.95228487 0
-18.846987 11.923612 -1.3623676 -0.24501412 -0.11207653 0.96301973 0
-18.844492 11.923562 -1.3633531 0.016384259 -0.074410856 0.99709308 0
-18.842075 11.92349 -1.3645061 -0.0065383981 0.02383529 0.99969453 0
-18.874214 11.925871 -1.3636973 -0.083063141 -0.042336974 0.99564457 0
-18.872232 11.927071 -1.3631256 0.012292852 0.12434761 0.99216259 0.02453376
-18.849445 11.927124 -1.3621016 0.012890121 -0.020434778 0.99970806 0
-18.847368 11.926543 -1.3625522 0.00086311193 0.16043217 0.98704648 0.0016094776
-18.844557 11.926528 -1.3636166 0.20404154 -0.043136157 0.97801143 0
-18.842257 11.926316 -1.3645992 0.15579261 0.14447877 0.97716659 0
-18.87084 11.928626 -1.3638737 -0.10414768 -0.10097852 0.98942232 0
-18.868622 11.929747 -1.3632772 0.018721431 0.13250396 0.99100566 0
-18.866302 11.930588 -1.3624289 0.13371347 -0.00057258975 0.99101985 0
-18.852392 11.930573 -1.3621111 -0.17320547 0.27380466 0.94606072 0
-18.849993 11.92979 -1.3623108 -0.1031638 -0.055073686 0.99313855 0
-18.847435 11.929493 -1.3630346 -0.0067282915 0.21511866 0.97656476 0.0034765769
-18.844496 11.929443 -1.3641185 0.043100938 0.037209414 0.99837756 0
-18.842522 11.92881 -1.3648434 0.33056131 0.0084564118 0.94374669 0
-18.867332 11.931339 -1.364507 -0.51507378 -0.21443841 0.82988864 0.016353531
-18.865213 11.931953 -1.3635333 -0.39429376 0.51983553 0.75782812 0
-18.862576 11.932841 -1.363065 -0.35617638 -0.63003075 0.69007218 0
-18.859558 11.933207 -1.3624221 -0.22309858 -0.15504925 0.96238595 0
-18.856415 11.933249 -1.3623261 -0.085898407 0.39281183 0.91559833 0
-18.853369 11.932819 -1.36243 -0.072573937 -0.16338862 0.98388886 0
-18.850491 11.932511 -1.3629042 -0.14639781 0.036091715 0.98856723 0
-18.847504 11.932477 -1.3637174 0.073399648 -0.10544978 0.99171209 0
-18.844866 11.932233 -1.3645792 0.14546776 -0.060337178 0.98752147 0.0021143986
-18.861626 11.934269 -1.364378 0.25005376 0.05696141 0.966555 0.018490821
-18.859316 11.934713 -1.3638663 -0.42836568 -0.61212289 0.66468674 0
-18.856329 11.934909 -1.3632437 0.098014399 0.057333063 0.99353212 0
-18.853548 11.935191 -1.3634843 0.052860171 0.27564782 0.95980418 0
-18.850471 11.935371 -1.3640018 0.10521767 0.41489214 0.90376651 0.0037050406
-18.847712 11.934976 -1.3644832 -0.080662429 -0.16387777 0.9831773 0
-18.845474 11.934353 -1.3648362 -0.026647439 -0.1389031 0.98994738 0
-18.852585 11.937048 -1.3648605 0.024087224 0.033202771 0.99915832 0.0050770575
-18.851402 11.937106 -1.364946 -0.036169726 0.016869761 0.99920326 0
-18.894682 11.792518 -1.3619738 0.0073694801 0.049491443 0.99874741 0
-18.892811 11.792665 -1.361917 -0.011726868 0.26479575 0.96423322 0
-18.897755 11.795084 -1.3619115 -0.063160032 0.0094455276 0.99795872 0.00093241397
-18.895298 11.794993 -1.3617491 0.013307287 0.018750671 0.99973565 0
-18.892649 11.794746 -1.3616791 -0.22519539 -0.088494614 0.97028643 0
-18.89072 11.794922 -1.3618581 0.58613354 0.40892109 0.69945061 0
-18.90033 11.79846 -1.361835 -0.22649361 0.51411819 0.82727456 0
-18.898287 11.797671 -1.3616699 -0.048694693 -0.044245582 0.99783319 0
-18.89562 11.797482 -1.3613201 -0.3376694 0.064771377 0.93903357 0
-18.892519 11.797488 -1.3612219 0.024072694 0.0016574437 0.99970883 0.0024327589
-18.890402 11.797658 -1.3617048 0.1133647 0.59810978 0.79335564 0
-18.903864 11.801905 -1.3619183 -0.47723651 -0.79084897 0.38314909 0
-18.901171 11.8007 -1.3617153 0.33798671 -0.11976518 0.93349946 0.0015918001
-18.898508 11.800513 -1.3612636 -0.10065486 0.0035198247 0.99491513 0
-18.895332 11.800467 -1.3608259 -0.12924303 -0.08827097 0.98767632 0
-18.892439 11.800575 -1.3607508 0.12980109 0.034948029 0.99092388 0.00086890574
-18.890125 11.800588 -1.3614527 -0.11125574 0.040748823 0.99295598 0
-18.903868 11.804016 -1.361688 0.042140216 -0.16160384 0.98595554 0
-18.901421 11.803459 -1.3612442 0.12147688 0.31510726 0.94124961 0
-18.898438 11.803514 -1.3607181 -0.042654008 -0.21785034 0.97504967 0
-18.895525 11.803429 -1.3603865 -0.085501373 0.012371155 0.99626124 0
-18.892391 11.803544 -1.3603939 0.00015364878 0.18471651 0.98279184 0
-18.889666 11.803604 -1.3613852 0.042549841 0.12655288 0.99104679 0
-18.906267 11.807053 -1.3618082 0.055325374 0.056662392 0.99685931 0
-18.904428 11.806365 -1.3613983 -0.051453285 -0.0069551994 0.99865121 0.0021076356
-18.901587 11.806557 -1.3607373 0.046627466 0.21927667 0.97454786 0
-18.898546 11.80647 -1.3602566 0.078306526 0.020591805 0.99671668 0
-18.895525 11.806561 -1.3599472 0.060063366 0.053051837 0.99678373 0
-18.892439 11.806453 -1.3600798 0.024564341 0.03354973 0.99913514 0
-18.889666 11.80652 -1.3610834 -0.053903356 -0.055009596 0.99702972 0.0037725593
-18.887949 11.80679 -1.3618052 0.037357166 0.13458939 0.990197 0
-18.906895 11.809443 -1.3616158 -0.038814444 -0.020629574 0.99903345 0.0012011178
-18.904436 11.809494 -1.3608574 -0.1961817 -0.42006066 0.88603717 0.0045736772
-18.901453 11.8096 -1.3602287 -0.17773144 -0.091982588 0.97977072 0.00098520191
-18.898514 11.809474 -1.3598151 0.035456121 0.090915807 0.99522716 0
-18.895456 11.809544 -1.3595511 -0.13777019 0.25680402 0.95659345 0
-18.892469 11.809478 -1.359704 -0.060931835 -0.13481341 0.98899579 0.00045894893
-18.889532 11.809474 -1.3608161 0.12997505 -0.014998588 0.99140382 0
-18.887716 11.809582 -1.3618317 0.06677895 0.066878133 0.99552399 0
-18.907377 11.812573 -1.3613304 -0.46702364 -0.56544161 0.67982697 0
-18.904364 11.812462 -1.3603334 0.030070079 -0.0487024 0.99836057 0
-18.901392 11.812518 -1.359763 -0.060881272 -0.017841989 0.99798554 0
-18.89852 11.812489 -1.3593884 0.087746486 0.087112933 0.99232644 0
-18.895554 11.812091 -1.3592201 -0.014849894 0.12868889 0.99157381 0
-18.892357 11.812478 -1.3593456 -0.047637243 -0.041474242 0.9980033 0
-18.889465 11.812465 -1.3605056 -0.10232272 -0.018609438 0.99457717 0
-18.887564 11.812634 -1.361678 -0.095584989 0.021277649 0.99519384 0
-18.90925 11.815987 -1.3616744 0.052085597 0.1370775 0.98918992 0
-18.907194 11.815425 -1.360829 0.19331913 0.0046396032 0.981125 0
-18.904379 11.815434 -1.3598772 -0.13586399 -0.12257084 0.98311615 0
-18.901602 11.81531 -1.3593736 0.059665896 -0.1649009 0.98450381 0
-18.899181 11.814834 -1.359107 -0.066776887 -0.017546827 0.99761361 0
-18.895691 11.814602 -1.3590839 -0.27593723 -0.61532938 0.73839581 0
-18.891808 11.815339 -1.3592019 -0.28741014 0.079086527 0.95453691 0.0049879374
-18.889488 11.815442 -1.3600756 -0.13102531 0.013071909 0.99129289 0
-18.887331 11.815574 -1.361488 0.24226108 0.16487259 0.95609969 0.02243243
-18.909481 11.818497 -1.3616949 -0.45802978 -0.82619429 0.32804239 0
-18.907648 11.818484 -1.3606201 0.05393808 0.35892624 0.93180615 0.0013867724
-18.904593 11.818477 -1.3595184 0.050180074 0.55422181 0.83085507 0
-18.902176 11.817538 -1.3591167 -0.15153086 -0.15403929 0.97637612 0.00064921571
-18.891188 11.81778 -1.3591142 0.055885088 0.19294687 0.97961646 0.0030419235
-18.889183 11.818432 -1.3598394 -0.19240816 0.080590464 0.97800016 0.0055427477
-18.88702 11.818593 -1.3613486 -0.19435829 0.19110176 0.96213561 0
-18.90971 11.821522 -1.3613883 0.053557411 0.14351985 0.98819721 0
-18.907442 11.821538 -1.360199 0.025804501 0.016700089 0.99952745 0
-18.904892 11.821434 -1.3592978 0.010167381 -0.031759311 0.99944389 0
-18.889051 11.821423 -1.3595762 -0.15032168 -0.4217611 0.89415932 0
-18.886839 11.821586 -1.361138 0.10967423 -0.049716271 0.99272341 0
-18.909821 11.825176 -1.3610389 0.24163815 -0.058109045 0.96862501 0
-18.907389 11.824574 -1.3598918 -0.025449999 0.021484526 0.99944526 0.0036826844
-18.905218 11.823974 -1.3591781 0.06548968 0.03385032 0.99727893 0
-18.888758 11.824341 -1.3594499 0.024040196 0.037846301 0.99899435 0
-18.886711 11.824554 -1.3609065 -0.051043049 0.29048306 0.95551783 0
-18.909832 11.827477 -1.360855 0.010129214 -0.0046723718 0.99993777 0
-18.907309 11.827424 -1.3596491 0.17020619 0.19215551 0.9664917 0
-18.905655 11.828038 -1.3591059 0.0433858 0.11311234 0.99263453 0
-18.888525 11.827329 -1.3592473 0.09454421 0.099193364 0.99056655 0
-18.886557 11.827571 -1.360665 -0.016147459 0.16358913 0.98639637 0
-18.884651 11.827836 -1.3618817 -0.029972203 0.035464942 0.99892139 0
-18.909567 11.829829 -1.3606027 -0.0029270416 0.049099255 0.99878955 0.0054528327
-18.907598 11.83049 -1.3595924 -0.16754358 -0.043068629 0.98492342 0.0025942244
-18.905737 11.830317 -1.3591074 -0.078946769 -0.33985886 0.93715709 0
-18.888214 11.829643 -1.3591782 -0.16472685 -0.40014726 0.9015249 0.0090604825
-18.88645 11.830531 -1.3603588 -0.12335637 -0.13456121 0.98319715 0
-18.884657 11.830894 -1.3617945 -0.03174036 -0.0070727468 0.99947113 0
-18.909945 11.833504 -1.3610533 -0.099255696 0.20832388 0.97301054 0
-18.907677 11.833484 -1.359543 -0.044496652 0.073739529 0.99628437 0.0042283018
-18.905977 11.833583 -1.3590461 0.10669088 -0.086985894 0.99047995 0
-18.888229 11.832294 -1.3590058 -0.079481751 0.10569052 0.99121749 0
-18.886305 11.833466 -1.3600531 0.26559737 -0.034312066 0.9634732 0.0043254751
-18.88455 11.833519 -1.3614998 0.0024754056 0.39292461 0.91956747 0
-18.90974 11.836605 -1.360894 0.50548226 -0.00057314115 0.86283684 0
-18.907875 11.83652 -1.3595657 0.073894054 -0.11566596 0.9905358 0.0041741598
-18.905991 11.835525 -1.3590052 -0.0048072161 0.025478238 0.99966383 0
-18.886053 11.836433 -1.3597606 -0.10662215 -0.28969836 0.95116067 0.0029162485
-18.884132 11.836697 -1.3613378 -0.07487762 0.028502626 0.99678534 0
-18.909712 11.839373 -1.3609774 -0.087718248 -0.022080604 0.99590057 0
-18.907763 11.839465 -1.3595186 -0.00036733324 -0.0011074006 0.99999928 0
-18.885695 11.839248 -1.3595543 0.1079385 0.26750949 0.95749044 0
-18.883894 11.839595 -1.3609791 -0.076455057 -0.20230551 0.9763335 0
-18.909693 11.842166 -1.3611873 -0.26263854 0.60173529 0.75427824 0
-18.907356 11.842496 -1.3593392 0.028477369 -0.1022023 0.99435586 0
-18.885435 11.841908 -1.3592381 -0.029704403 -0.086951748 0.99576956 0.00037428216
-18.883591 11.842532 -1.3606325 -0.0043328409 0.023493066 0.99971461 0
-18.881767 11.843046 -1.3618715 -0.049531341 -0.012786592 0.99869072 0
-18.909578 11.845454 -1.3613989 0.08903446 0.57628572 0.81238401 0
-18.90745 11.845365 -1.3594593 -0.0051888148 0.26873171 0.96320111 0.0017450497
-18.905987 11.846325 -1.3590159 0.0083842818 0.12089024 0.99263048 0
-18.88516 11.844604 -1.3591509 0.016908031 0.034281932 0.99926919 0
-18.883421 11.845436 -1.3601905 0.17884029 0.26507154 0.94749838 0
-18.881668 11.846108 -1.3617049 0.035240199 0.38269666 0.92320168 0.013872918
-18.909363 11.84822 -1.3616087 0.096161433 0.14883156 0.98417592 0
-18.90729 11.848923 -1.3596491 -0.078010693 0.05745288 0.99529564 0
-18.90597 11.848538 -1.359066 -0.11735199 -0.11995894 0.98581862 0
-18.883036 11.848365 -1.3598894 0.011617862 0.075014256 0.99711472 0
-18.881399 11.848496 -1.3613749 -0.020832835 0.055206064 0.99825764 0
-18.90913 11.851265 -1.3618798 0.13621114 0.38919142 0.91103053 0
-18.907394 11.8515 -1.3600398 -0.028156996 0.024602605 0.99930078 0
-18.905876 11.852282 -1.359077 -0.060446218 0.028999927 0.99775016 0
-18.882696 11.851134 -1.3595276 0.062293984 0.31994689 0.94538534 0
-18.881012 11.851578 -1.360968 -0.01452732 -0.073243044 0.99720836 0.0081967702
-18.90745 11.854453 -1.3607166 -0.42532775 -0.38976592 0.81681019 0
-18.905613 11.854349 -1.3592657 -0.055475425 -0.088971309 0.99448812 0
-18.882345 11.853946 -1.3591551 0.23084685 -0.12814794 0.96451426 0
-18.880606 11.854473 -1.3606137 -0.0057486305 -0.0036144282 0.99997699 0
-18.878778 11.855305 -1.3619087 0.023716722 -0.13017221 0.99120772 0
-18.906986 11.857405 -1.360754 0.037402209 0.056117211 0.99772334 0.0058121164
-18.905291 11.857508 -1.359236 -0.0062756375 0.068657495 0.99762052 0.0081590656
-18.880241 11.857362 -1.3601055 0.11623068 0.026928058 0.9928571 0.0060453224
-18.878611 11.858093 -1.3615313 -0.013902958 0.10328255 0.99455488 0
-18.906664 11.860271 -1.3612257 0.45370975 0.50560391 0.73383391 0
-18.905005 11.860554 -1.3596792 -0.21824211 -0.1826012 0.95865905 0
-18.879759 11.860309 -1.3596425 0.22156559 0.24461126 0.94396722 0.011892962
-18.878218 11.860526 -1.3611145 -0.0085080294 -0.040572386 0.99914038 0
-18.906404 11.863216 -1.361722 -0.10893186 -0.03353921 0.99348325 0
-18.90448 11.863307 -1.359611 -0.072997101 0.063846603 0.99528641 0.0090267537
-18.879335 11.86295 -1.359193 -0.040480051 0.081143521 0.99588013 0
-18.877716 11.863549 -1.3605894 0.19367662 0.26770478 0.94383448 0
-18.875708 11.864673 -1.3619779 0.029550975 0.15718745 0.98712659 0
-18.904408 11.866521 -1.3604014 0.04965172 0.028670112 0.99835503 0
-18.902933 11.867722 -1.3591452 0.037938438 0.0020549726 0.99927795 0
-18.877172 11.866433 -1.3600644 -0.097480737 -0.2119619 0.97240406 0.0052901395
-18.87561 11.867055 -1.3614377 0.0075024557 -0.0072375983 0.99994558 0
-18.90357 11.868778 -1.3600423 0.83655345 -0.26350904 0.48035535 0
-18.902575 11.869433 -1.3593569 0.059936248 0.06414409 0.99613911 0
-18.876612 11.869246 -1.3595842 0.12616949 -0.10295813 0.98665136 0.0076259933
-18.875061 11.869667 -1.3609823 -0.20889434 -0.44524568 0.87070048 0
-18.903561 11.872028 -1.3612424 -0.060317799 -0.0065906504 0.9981575 0.025560865
-18.90213 11.872089 -1.3595731 -0.073647469 0.075436883 0.99442714 0
-18.876163 11.871669 -1.3591276 0.0042379159 0.050547522 0.99871266 0.016462987
-18.874496 11.872418 -1.3604612 -0.29940143 -0.33536172 0.8932476 0.026671931
-18.872845 11.873447 -1.3617175 0.19749744 -0.39060459 0.89912337 0
-18.90328 11.874387 -1.3618392 -0.40727106 -0.85698575 0.31576204 0
-18.901787 11.875175 -1.3601854 -0.038802747 0.0034794828 0.99924088 0
-18.873945 11.875248 -1.3598629 -0.014174392 0.035470538 0.9992702 0.0048637809
-18.872332 11.875855 -1.3612624 0.33951363 0.43383276 0.8345775 0
-18.900806 11.8784 -1.3602227 -0.0076142107 0.062761024 0.99799955 0
-18.899775 11.878716 -1.3592939 -0.035367005 0.003402485 0.99936855 0
-18.873413 11.877769 -1.3593847 -0.056471888 -0.024555882 0.99810213 0.0049903053
-18.871771 11.878615 -1.3606281 0.0057885577 0.13497148 0.99083257 0.014364284
-18.869907 11.879555 -1.3618115 -0.00077896949 0.061086383 0.99813223 0
-18.900476 11.881435 -1.3612661 -0.0049476735 -0.10422107 0.99454182 0
-18.899097 11.881568 -1.3595655 -0.21716243 -0.071313381 0.97352701 0
-18.871201 11.881227 -1.3600063 -0.046668973 0.075938076 0.99601984 0
-18.869537 11.881719 -1.3614025 -0.029362412 0.23254879 0.97214144 0
-18.900288 11.883377 -1.3619533 0.068858936 0.072267376 0.99500549 0
-18.898335 11.884171 -1.359827 -0.060532853 0.14416301 0.98770076 0
-18.870491 11.883817 -1.359488 -0.046190683 0.031135004 0.9984473 0
-18.868753 11.884631 -1.3607355 0.11047513 0.41313726 0.90394294 0
-18.866665 11.885908 -1.3618501 0.062988088 0.19061399 0.97964221 0
-18.897835 11.887682 -1.3607423 0.47746831 0.79798305 0.3677595 0
-18.896507 11.888287 -1.3595861 -0.039054617 0.032744531 0.99870044 0
-18.86812 11.887395 -1.3599454 0.0014924521 0.076359391 0.99707919 0
-18.86643 11.887788 -1.3613216 0.74090093 -0.29900786 0.60138184 0.029173234
-18.89748 11.889813 -1.361498 -0.15701696 -0.0099941399 0.98754537 0
-18.895763 11.890857 -1.3598982 0.14979722 0.3902097 0.90845865 0
-18.867399 11.889881 -1.3593454 -0.06770803 0.03676277 0.99702764 0
-18.865698 11.890515 -1.3605924 0.030214144 0.057746831 0.99787396 0
-18.863749 11.891393 -1.3616867 0.015220514 0.1476938 0.98891604 0
-18.894867 11.893433 -1.3602004 0.0059226644 0.25496408 0.96693236 0
-18.893473 11.894475 -1.3593115 -0.065535173 0.030663153 0.99737906 0
-18.865004 11.893224 -1.3598491 -0.11307576 -0.016723674 0.99344563 0
-18.86318 11.893756 -1.3612847 -0.094754837 -0.44444722 0.89077955 0
-18.894718 11.895796 -1.3613657 -0.32973742 0.18826826 0.92510986 0
-18.893068 11.896702 -1.3600714 -0.021564407 -0.0044211526 0.99975765 0
-18.864264 11.895757 -1.3592882 -0.12489226 -0.15657525 0.97973776 0.0013859408
-18.862497 11.89647 -1.3604892 0.14034475 0.17429627 0.97464049 0
-18.860651 11.89751 -1.3616196 0.20584852 -0.25350863 0.94517708 0
-18.892138 11.899017 -1.36028 -0.033429977 -0.052806523 0.99804503 0.037608534
-18.890617 11.900205 -1.3593239 0.046357945 0.069138162 0.9965294 0
-18.8619 11.899182 -1.3596764 -0.058257356 0.059574995 0.99652237 0
-18.859913 11.899849 -1.3610338 0.4204953 -0.36456302 0.83082944 0.013368078
-18.891312 11.902311 -1.3613057 -0.25936636 -0.35608315 0.89773822 0
-18.889809 11.90255 -1.3598535 -0.061774317 0.0048660622 0.99807829 0
-18.861397 11.901575 -1.3591909 -0.038209856 -0.031036176 0.99878764 0
-18.859398 11.902406 -1.3601761 0.02132871 0.030442569 0.99930888 0
-18.857332 11.903171 -1.361503 -0.032913387 0.00077690056 0.9994579 0
-18.88903 11.905233 -1.3607786 -0.086543337 -0.21061414 0.97373092 0.022392789
-18.887239 11.906096 -1.3594884 -0.0086978786 -0.038920481 0.9992044 0
-18.858709 11.905125 -1.3594928 -0.090569861 0.11645137 0.9890582 0
-18.856657 11.905632 -1.3607975 0.25293919 0.53627747 0.80525041 0.02470424
-18.854591 11.906616 -1.3617049 0.094543278 0.033388957 0.99496067 0
-18.888212 11.907288 -1.3614495 0.062617682 0.18191895 0.98131776 0
-18.886589 11.90839 -1.3603461 -0.0057194876 0.023014799 0.99971873 0
-18.884701 11.909384 -1.3592238 0.01369406 0.098220736 0.9950704 0
-18.858004 11.907374 -1.3591179 0.053205118 0.01442663 0.99847943 0
-18.856314 11.908387 -1.3598174 0.054231755 -0.15626949 0.98622447 0
-18.854141 11.908745 -1.3612852 0.12394433 0.18407068 0.97506708 0
-18.88563 11.911196 -1.3613653 0.34285089 -0.0022408592 0.9393872 0.02656363
-18.883686 11.911716 -1.3598394 -0.017543528 0.23756255 0.97121382 0.017153496
-18.881538 11.912962 -1.3591181 -0.065606996 -0.018168412 0.99768013 0
-18.855639 11.911122 -1.3593334 -0.052461416 0.090742216 0.99449164 0
-18.853559 11.911489 -1.3605205 0.25150073 -0.1369171 0.95812374 0.0061483309
-18.851616 11.912229 -1.3616363 -0.1568456 -0.28823945 0.94462556 0
-18.882935 11.914288 -1.360949 0.041539896 0.14897867 0.98796749 0
-18.880808 11.914818 -1.3595808 -0.030138651 -0.020001194 0.9993456 0
-18.855488 11.914856 -1.3591502 -0.27355656 -0.62433445 0.73169214 0
-18.853388 11.914505 -1.3598007 0.031264152 0.2009766 0.97909707 0.0031942774
-18.850803 11.914691 -1.3611654 0.0065614437 0.14976063 0.98870051 0.0023468554
-18.848942 11.915894 -1.3616828 -0.12939118 -0.2371752 0.96281147 0
-18.882261 11.916073 -1.3619347 0.0021072505 0.14279346 0.98975027 0
-18.8801 11.917316 -1.3606836 0.024199039 0.092319608 0.99543536 0
-18.877781 11.918027 -1.359535 0.070403405 -0.23812722 0.96867889 0
-18.875458 11.918882 -1.3590537 -0.059977468 0.070286259 0.99572212 0
-18.85578 11.917585 -1.35921 -0.020276213 0.10861403 0.99387723 0
-18.853489 11.917567 -1.3597211 0.072450101 0.3164078 0.94585252 0
-18.850418 11.917447 -1.3608392 -0.088656507 -0.64503807 0.75899011 0
-18.848391 11.91811 -1.3617582 0.0041706352 -0.080047436 0.99678236 0.010901984
-18.879356 11.919382 -1.3617651 -0.00056204427 0.20821105 0.97808379 0
-18.877312 11.920332 -1.3607605 -0.014819515 -0.096134305 0.99525803 0
-18.874855 11.920834 -1.3596017 0.21169728 0.31831762 0.92404443 0
-18.87252 11.92161 -1.3591542 -0.13999788 0.091780491 0.9858889 0
-18.858295 11.921456 -1.3590622 -0.0035294888 0.018595979 0.99982089 0
-18.85615 11.920667 -1.3592895 0.066398136 0.14019802 0.98789459 0
-18.853411 11.920518 -1.3599944 -0.016404286 0.036949683 0.99918246 0
-18.850428 11.920503 -1.3609084 0.15428175 -0.15490149 0.97580874 0
-18.848267 11.920437 -1.361681 0.079976641 -0.030030206 0.99634427 0.00040107963
-18.876492 11.9223 -1.3618073 -0.03093827 0.92392552 0.38131949 0
-18.874235 11.923256 -1.3608141 -0.023091195 0.010425572 0.99967903 0
-18.871508 11.923686 -1.3596498 0.16299134 0.60800332 0.77702367 0.0050001177
-18.868874 11.924098 -1.3593102 -0.13976964 -0.73277485 0.66596216 0
-18.86573 11.924483 -1.3590949 -0.019938059 0.044084124 0.99882883 0
-18.86216 11.924334 -1.3591255 -0.052393969 0.36206409 0.93067956 0
-18.859324 11.924045 -1.3592262 -0.07638289 0.035836622 0.99643433 0
-18.856482 11.923478 -1.3596172 0.013767974 0.060708579 0.99806052 0
-18.853432 11.923547 -1.3603177 -0.043982647 0.0059654047 0.99901456 0
-18.850386 11.923467 -1.3611716 0.028877182 0.048185263 0.99842095 0.0068988539
-18.848265 11.923024 -1.3618412 0.38711756 0.18074682 0.90414077 0
-18.873505 11.925159 -1.3619392 0.076145709 0.20975326 0.97478479 0.010627024
-18.871136 11.926181 -1.361074 -0.066440798 -0.31271929 0.947519 0
-18.868521 11.926435 -1.3601341 0.15288441 0.07617341 0.98530394 0.00065952801
-18.86549 11.926445 -1.3596255 -0.1991356 0.083420441 0.97641498 0
-18.862429 11.926613 -1.3595786 -0.041600756 -0.029302506 0.99870455 0
-18.859459 11.926544 -1.3597546 -0.035297032 0.015323017 0.99925935 0.0020094679
-18.856501 11.926455 -1.3601193 0.075462349 0.031118136 0.99666297 0
-18.853567 11.926448 -1.3607305 0.060969576 0.077438943 0.99513113 0.013159645
-18.850721 11.926448 -1.3614842 -0.13753808 -0.022426033 0.9902426 0
-18.848709 11.925775 -1.3618953 -0.028921019 -0.073472567 0.99687785 0
-18.868042 11.92863 -1.3614352 -0.016495828 0.058347996 0.99816 0
-18.865387 11.929241 -1.361032 -0.004793826 0.081867449 0.99663168 0
-18.862274 11.929185 -1.3604757 0.055304676 0.16776033 0.98427534 0
-18.859419 11.929486 -1.3605614 -0.020348448 0.12271509 0.99223334 0
-18.856482 11.929436 -1.3608419 0.018720387 8.8328037e-05 0.99982476 0.0009033329
-18.853571 11.929348 -1.3613237 -0.050107058 -0.048686806 0.99755639 0
-18.85121 11.928941 -1.3618001 -0.081457898 -0.0077818683 0.99664646 0
-18.864573 11.931101 -1.3619356 0.019968897 0.001553614 0.99979943 0
-18.86207 11.931689 -1.3616773 -0.096618086 -0.26492831 0.95941544 0
-18.858944 11.93163 -1.3613766 0.00050729193 -0.30762967 0.95150602 0
-18.85647 11.931916 -1.3616303 0.027562737 -0.0022152769 0.99961758 0
-18.854094 11.931401 -1.3618059 -0.15924978 0.040822495 0.98639393 0
-18.897495 11.813484 -1.3589282 0.05867837 0.093721502 0.99386781 0
-18.894926 11.813381 -1.3589132 0.0025972596 -0.19964679 0.97986448 0
-18.893248 11.813149 -1.3589128 -0.022227062 -0.33170277 0.94312209 0
-18.900671 11.816334 -1.3588946 -0.09112291 -0.0074826521 0.99581158 0
-18.898085 11.815978 -1.3588215 -0.030241786 0.04798574 0.9983902 0
-18.895422 11.815701 -1.3587385 0.024601791 0.11386288 0.99319178 0
-18.892862 11.815854 -1.3588089 0.023658292 0.047373865 0.99859703 0.001459204
-18.890779 11.816725 -1.3589371 -0.048536129 -0.10715511 0.99305689 0
-18.903088 11.819224 -1.3588778 -0.053034656 -0.02532888 0.99827141 0
-18.9011 11.81887 -1.3587943 -0.070021711 -0.033419657 0.9969855 0
-18.898432 11.818519 -1.3585496 0.29883465 -0.59458023 0.74643964 0
-18.895487 11.81849 -1.3583931 0.15412542 0.17846631 0.97179991 0
-18.892473 11.81855 -1.3585092 0.0058764522 0.1653319 0.98622048 0
-18.890577 11.818749 -1.3588831 -0.12802644 -0.047635961 0.9906261 0
-18.903536 11.821942 -1.3588794 -0.16865452 -0.027965814 0.98527849 0
-18.901457 11.821461 -1.3585645 -0.076067738 -0.05987975 0.99530303 0
-18.898485 11.821469 -1.3582315 -0.12405959 -0.038516544 0.99152696 0
-18.895519 11.821528 -1.3580633 -0.0019194945 -0.068992153 0.9976154 0
-18.892485 11.821465 -1.3581897 -0.0070676277 -0.014659856 0.99986756 0
-18.890501 11.821704 -1.3586918 0.040460151 -0.0019302691 0.99917924 0
-18.903961 11.824584 -1.3587579 -0.060862817 0.057704624 0.99647677 0
-18.901596 11.824448 -1.3583161 0.037959017 0.10197118 0.9940629 0
-18.898581 11.824481 -1.3579483 -0.072696231 0.043146253 0.99642044 0
-18.895569 11.824551 -1.3577646 0.2511853 0.32649246 0.91121268 0
-18.892569 11.824552 -1.3578562 -0.072838239 -0.33966914 0.9377203 0.0013947985
-18.890259 11.824547 -1.3585325 0.29773825 0.31480148 0.90125024 0.0014938527
-18.904144 11.827403 -1.3586272 -0.10731295 -0.11639089 0.98738903 0
-18.901499 11.827327 -1.3580904 -0.33777913 -0.89535582 0.29024652 0
-18.89859 11.827594 -1.3577019 -0.038309902 -0.1305144 0.99070597 0
-18.895399 11.827537 -1.3575002 -0.024108673 -0.011095941 0.9996478 0.00065528695
-18.892368 11.827523 -1.3576101 0.15591542 0.12256359 0.98013705 0
-18.889919 11.827502 -1.3583914 -0.058814395 0.041569684 0.99740303 0.0046748393
-18.90634 11.830711 -1.3589323 -0.010708809 0.011016953 0.99988198 0
-18.904345 11.830388 -1.3585254 -0.050323293 -0.054590695 0.99723983 0
-18.901636 11.830509 -1.3579575 0.35982063 0.2315336 0.90383697 0
-18.898598 11.830457 -1.3575445 -0.014878134 0.12083811 0.99256068 0
-18.895491 11.830422 -1.3573275 -0.056832347 -0.076862521 0.99542063 0
-18.892414 11.830539 -1.3573633 0.3067607 -0.0067839129 0.95176256 0
-18.889587 11.830577 -1.3581957 -0.070412971 -0.019384176 0.99732959 0
-18.887932 11.831179 -1.3587996 -0.01182877 0.010316517 0.99987686 0
-18.906403 11.834089 -1.3589089 0.058569517 0.038254924 0.99755007 0
-18.904448 11.833511 -1.3584265 -0.076593228 -0.04709737 0.99594945 0.0028060565
-18.901602 11.833512 -1.3578533 -0.074707121 0.0030183077 0.99720091 0
-18.898561 11.833488 -1.3574196 -0.084045649 0.40070963 0.91234213 0
-18.895424 11.833458 -1.3571655 0.0764945 0.33697146 0.9384023 0
-18.89229 11.833527 -1.3571521 -0.052023675 0.17618719 0.98298097 0
-18.889412 11.833533 -1.3579477 -0.038816746 -0.056910075 0.9976244 0
-18.887619 11.833955 -1.3588575 0.032135509 0.37215102 0.9276157 0
-18.906403 11.836514 -1.3588678 -0.011480229 -0.21903503 0.97564948 0
-18.904455 11.836555 -1.3583499 0.0038079722 -0.0049266936 0.99998063 0
-18.901667 11.83646 -1.3578159 -0.19151764 0.15375507 0.96937114 0
-18.898474 11.836473 -1.3573385 -0.20853096 -0.27752 0.93781525 0.00061524386
-18.895418 11.836522 -1.3570223 -0.16132362 -0.32488805 0.93189186 0
-18.892483 11.836464 -1.3569454 -0.0015003736 0.028255029 0.99959964 0.0049843793
-18.889488 11.83644 -1.3575883 0.0032085499 0.10109132 0.99487197 0
-18.887527 11.836673 -1.3586456 0.17459601 0.52586049 0.83245838 0.007386982
-18.906448 11.839376 -1.3589635 0.0050215507 -0.0046213507 0.99997675 0
-18.904387 11.839477 -1.3583208 -0.022454452 0.070728064 0.99724287 0
-18.901434 11.839423 -1.357731 -0.046662059 0.092044123 0.99466097 0.00076503778
-18.898703 11.839505 -1.3572899 -0.079071335 -0.022792969 0.99660832 0
-18.895517 11.839488 -1.3569131 -0.10564443 0.54228264 0.83352798 0.00086489011
-18.892456 11.839503 -1.3567623 0.34789154 0.15033944 0.92540234 0
-18.889486 11.839534 -1.3572187 0.0046399473 -0.034787036 0.99938393 0.0024526168
-18.88718 11.8396 -1.3584274 -0.027911801 0.020168141 0.99940693 0
-18.906008 11.84245 -1.3589497 -0.0046203868 0.021295613 0.99976254 0
-18.90448 11.842487 -1.3583006 -0.19972751 -0.11816089 0.97270089 0
-18.901552 11.842525 -1.3576282 -0.087154351 -0.094043039 0.99174601 0.00030909645
-18.898579 11.842555 -1.3571571 0.0084643727 0.2359657 0.97172457 0
-18.895542 11.842504 -1.3567976 -0.040916201 0.021823747 0.99892426 0
-18.892515 11.842509 -1.3566132 -0.032625277 0.050551087 0.99818844 0
-18.889481 11.842529 -1.3569311 -0.31014824 -0.24501476 0.91857272 0
-18.886671 11.842578 -1.3582779 -0.013950823 0.10290791 0.99459308 0
-18.906059 11.845221 -1.3588252 -0.16402864 0.30506077 0.93810046 0.0014659306
-18.904478 11.84547 -1.3582848 0.36682361 0.2982628 0.88118082 0
-18.901482 11.845492 -1.3575044 -0.0050286208 0.032760315 0.99945056 0
-18.898573 11.845452 -1.357015 -0.033209473 0.050731249 0.99816006 0
-18.895445 11.845478 -1.3566698 0.09190473 -0.26437923 0.96002972 0
-18.892492 11.845454 -1.3565083 0.068630271 0.3650026 0.92847347 0
-18.889433 11.845376 -1.3566719 -0.10714263 -0.2729319 0.95604843 0.00246307
-18.886545 11.845592 -1.3578881 -0.14809491 0.15247698 0.97714829 0
-18.884678 11.846195 -1.3588568 0.1267384 0.3349461 0.93367475 0
-18.906338 11.847591 -1.3588073 -0.020287877 -0.13286172 0.99092698 0
-18.904333 11.848493 -1.3582605 0.14259249 0.16340436 0.97619998 0
-18.901421 11.848586 -1.3574299 0.067407094 0.091169067 0.99355143 0
-18.898565 11.848483 -1.3569008 0.40777487 -0.1519109 0.90035701 0
-18.895548 11.848458 -1.3565788 0.019408137 0.089986883 0.99575382 0
-18.892511 11.848506 -1.3564005 0.1936263 0.38307008 0.90319771 0
-18.889498 11.848499 -1.3564531 0.1312625 0.093785629 0.9869014 0
-18.886465 11.848519 -1.3574816 0.38012114 -0.48045945 0.79035854 0
-18.88451 11.848784 -1.3586673 0.00068401359 0.00063615188 0.99999958 0
-18.904411 11.851425 -1.3583832 0.28526196 0.05656191 0.95677918 0
-18.901472 11.851613 -1.3574604 0.023645842 -0.056849696 0.99810266 0
-18.898405 11.851659 -1.3568277 -0.078270756 -0.083081312 0.99346417 0
-18.895523 11.851459 -1.3565258 -0.070036352 -0.018252609 0.99737746 0
-18.892551 11.85146 -1.3563226 0.025042126 0.20541091 0.97835541 0
-18.889549 11.851531 -1.3563199 0.052990731 -0.0067953453 0.99857181 0
-18.886532 11.851521 -1.3570342 0.06127144 0.098658957 0.9932332 0
-18.884138 11.851544 -1.3583838 0.40661925 -0.084938668 0.90964073 0.0071642553
-18.904133 11.85459 -1.3583931 -0.14387266 -0.059894104 0.98778206 0.0048105908
-18.901457 11.854487 -1.3575268 -0.011566393 0.070742399 0.99742752 0
-18.898399 11.854583 -1.3568367 -0.015925268 0.053522397 0.99843967 0
-18.895529 11.854511 -1.35648 0.0091521507 0.034119446 0.99937588 0
-18.89266 11.854462 -1.3562695 -0.052315269 -0.069237262 0.9962275 0
-18.889315 11.854397 -1.3562331 0.098391153 0.073773518 0.99240953 0
-18.886414 11.854473 -1.3567342 -0.029966598 -0.31771308 0.94771326 0.00041726019
-18.883631 11.854599 -1.3581215 -0.36704245 -0.23073164 0.90113407 0
-18.903913 11.857285 -1.3584942 0.083360642 0.25803092 0.96253365 0
-18.901407 11.857564 -1.3575858 0.076317616 -0.043986183 0.99611288 0.00097456324
-18.898453 11.857578 -1.3568788 0.04487269 -0.1052133 0.99343681 0
-18.895443 11.857537 -1.356424 -0.18429573 0.28975195 0.93919057 0
-18.892736 11.857487 -1.3561931 -0.009344128 0.092572324 0.99566209 7.6930359e-05
-18.889318 11.857581 -1.3562282 -0.012648424 0.086011566 0.99621385 0
-18.886305 11.857455 -1.3564167 -0.21003604 0.030013299 0.97723293 0.0056868489
-18.883522 11.857539 -1.3576303 0.045432236 0.34546146 0.93733257 0.0026718832
-18.881613 11.858025 -1.3587784 -0.10023411 0.045122311 0.99394011 0.0096452935
-18.903814 11.860059 -1.3586578 -0.10264839 0.11747383 0.98775667 0
-18.901484 11.86055 -1.3577614 -0.043531556 -0.063437186 0.99703598 0
-18.898439 11.860542 -1.3569132 -0.005137397 0.0048631728 0.99997503 0.00065351027
-18.895424 11.860474 -1.356398 -0.11149679 0.01885278 0.99358594 0
-18.892372 11.860514 -1.3562059 0.010507325 0.28538024 0.95835674 0
-18.889278 11.860277 -1.3561312 0.090599351 0.10719714 0.99010134 0
-18.886171 11.860356 -1.3562384 -0.17069595 0.51246721 0.84157014 0
-18.883501 11.8605 -1.357077 0.078519538 0.13137768 0.98821789 0.0036268265
-18.881281 11.860549 -1.3584224 -0.048124827 -0.19796944 0.97902608 0.00076014083
-18.903408 11.86338 -1.3588099 0.079300158 0.086517401 0.9930892 0
-18.901344 11.863456 -1.3578831 0.049209461 -0.045903184 0.99773312 0
-18.898443 11.863545 -1.356999 0.33650622 0.32974297 0.8820619 0
-18.895658 11.863591 -1.3564196 0.18124869 0.26275274 0.94768667 0
-18.892797 11.863481 -1.356181 -0.086573258 -0.0613291 0.99435598 0
-18.889315 11.863494 -1.3561242 0.011624816 0.052858863 0.99853432 0
-18.886223 11.863491 -1.3561594 -0.026315518 0.10188418 0.99444818 0
-18.883354 11.863393 -1.3566498 0.12618037 -0.01257822 0.9919275 0.00043806227
-18.880638 11.86361 -1.3580843 0.0010248882 -0.025336003 0.99967843 0
-18.87891 11.864633 -1.3586987 -0.063171193 -0.19401895 0.97896177 0
-18.90307 11.865438 -1.3589956 -0.17591858 -0.26430383 0.94825953 0
-18.901466 11.866458 -1.3581649 0.091850743 0.15860549 0.98306036 0
-18.898626 11.866582 -1.3571776 0.059149317 -0.12154146 0.99082243 0.018942202
-18.895758 11.866494 -1.3564854 0.04382981 0.073917575 0.99630082 0
-18.892906 11.866531 -1.3561606 -0.35127175 0.7839734 0.51185334 0
-18.889429 11.866467 -1.3560364 -0.021433428 0.061483268 0.99787796 0
-18.885731 11.866056 -1.3560808 0.016181845 0.045584746 0.99882936 0
-18.883173 11.866397 -1.3563024 -0.085704148 0.0011248976 0.99632001 0.0017591737
-18.880505 11.866535 -1.357462 0.15721403 0.48264396 0.86159068 0
-18.878569 11.866951 -1.3586549 -0.050143294 0.025358936 0.99842006 0
-18.900864 11.869664 -1.3582233 -0.2126497 -0.43198293 0.87645352 0
-18.89863 11.869479 -1.3573661 -0.097926036 0.011547558 0.99512672 0.00087970588
-18.895557 11.869476 -1.3565468 0.29040548 0.04845006 0.95567638 0
-18.893234 11.869245 -1.3561293 -0.07734061 0.13752618 0.98747402 0
-18.890249 11.869349 -1.3560203 0.002619866 0.0042951708 0.99998736 0
-18.885519 11.869146 -1.3560389 -0.27031744 0.089043878 0.95864475 0
-18.882759 11.869164 -1.3561296 0.088280782 0.13600357 0.98676723 0
-18.880465 11.869458 -1.3568603 0.080352709 -0.048271585 0.99559689 0.00089482771
-18.878035 11.86955 -1.3582934 -0.049170535 0.076726183 0.99583888 0
-18.900854 11.872157 -1.3585548 0.046449903 -0.0032655115 0.99891531 0
-18.898422 11.872551 -1.3575625 0.038619537 -0.03515536 0.99863535 0.0018515568
-18.895416 11.872468 -1.3566709 0.058768671 0.017439738 0.99811929 0
-18.892925 11.872767 -1.3561798 0.35654771 0.39842305 0.84506381 0
-18.890175 11.872523 -1.3560379 0.62044936 -0.57350934 0.53491086 0
-18.882774 11.871947 -1.3560536 -0.15158662 -0.19900545 0.96820366 0
-18.880236 11.872368 -1.3564686 -0.026400194 0.083590209 0.99615043 0
-18.877562 11.872617 -1.3578078 -0.12216561 0.031147549 0.99202085 0
-18.875694 11.873194 -1.3588724 0.14194222 0.12922581 0.98140365 0.01053741
-18.900389 11.87473 -1.358724 0.17506388 -0.20722722 0.9625017 0
-18.898232 11.875516 -1.3578057 0.12841658 0.12371708 0.98397315 0
-18.895447 11.875511 -1.356897 -0.050732952 -0.086531729 0.99495643 0.00056256342
-18.892775 11.875514 -1.3563032 -0.04652416 -0.058344137 0.99721181 0
-18.89024 11.876076 -1.3560491 -0.013036783 -0.012229272 0.9998402 0
-18.882376 11.875349 -1.3560326 0.23271394 0.37737682 0.89634311 0
-18.879883 11.875107 -1.3561841 -0.080608465 -0.079090036 0.99360299 0.00025407667
-18.877508 11.875539 -1.3571161 -0.014694418 -0.01542179 0.99977309 0
-18.87532 11.875796 -1.3584794 0.035417806 0.23601945 0.97110265 0
-18.898148 11.878175 -1.3580927 -0.025484947 0.049910583 0.99842852 0
-18.895514 11.878548 -1.3571631 -0.033209424 0.17683852 0.98367947 0
-18.892614 11.878455 -1.3564512 -0.23875673 0.012802175 0.97099495 0
-18.890041 11.878734 -1.3561239 0.020735238 0.4803347 0.87684017 0
-18.879711 11.877865 -1.356077 0.23733507 0.37839478 0.89470077 0
-18.877281 11.878438 -1.3565975 -0.078072004 -0.041757356 0.99607283 0.0020783097
-18.87475 11.878643 -1.3580433 -0.30388257 -0.36478609 0.88010603 0.041381419
-18.872765 11.879542 -1.3589317 0.012025575 0.16081071 0.98691207 0
-18.897818 11.880862 -1.3583683 -0.076920889 0.013551645 0.99694508 0
-18.895502 11.881568 -1.3574651 -0.020464934 0.070526429 0.99729997 0
-18.892557 11.881454 -1.3566231 0.0059564202 -0.024924409 0.99967158 0
-18.890182 11.881291 -1.3561445 -0.029936969 0.052363906 0.99817926 0
-18.887562 11.882215 -1.3560277 -0.083710246 -0.043333318 0.99554747 0
-18.879324 11.880279 -1.3560395 -0.038981952 -0.04258921 0.9983319 0
-18.876875 11.881162 -1.3562399 -0.14168435 -0.098673798 0.98498172 0.0024270932
-18.874475 11.881451 -1.3573866 -0.13747337 -0.032738253 0.98996431 0
-18.872484 11.882022 -1.3585625 -0.045030609 0.063030854 0.99699515 0
-18.897274 11.883698 -1.3586832 0.069895327 0.34446016 0.93619537 0
-18.895222 11.88451 -1.3577551 -0.02337986 0.090162352 0.99565262 0.0067156893
-18.892521 11.884435 -1.3568736 -0.1244498 -0.052640256 0.99082857 0.0029392203
-18.889816 11.884556 -1.356286 -0.0021880406 0.13238253 0.99119633 0
-18.887444 11.885015 -1.3560439 -0.09527117 -0.078832567 0.99232495 0
-18.87665 11.88397 -1.35606 -0.0082976632 -0.063599646 0.99794102 0
-18.874369 11.884458 -1.3566672 -0.025603179 -0.045105465 0.99865407 0.0056294561
-18.871756 11.884591 -1.3581704 0.099347487 0.11574877 0.9882977 0
-18.869574 11.885939 -1.3589948 -0.014843612 -0.0024157474 0.99988693 0
-18.895105 11.886993 -1.358133 -0.0092818998 0.093432032 0.99558234 0.0020563027
-18.892471 11.887715 -1.3572499 0.060459025 0.1107339 0.9920094 0
-18.88957 11.887431 -1.3564873 0.36319086 0.47561261 0.8011772 0
-18.887251 11.888 -1.3561193 -0.084416933 0.0015601928 0.99642926 0
-18.884567 11.888983 -1.3560148 -0.050128765 0.013403227 0.99865288 0.0029947916
-18.876286 11.886994 -1.3560387 -0.63402176 -0.57385814 0.51836604 0
-18.874044 11.887268 -1.3562479 -0.021467695 0.15713605 0.98734361 0
-18.871504 11.887521 -1.3573791 0.0010215192 0.065378152 0.99786001 0
-18.869413 11.887912 -1.3585896 -0.035763174 -0.35400704 0.93455875 0.00099793496
-18.894455 11.890351 -1.3586197 0.013232714 -0.10080349 0.99481833 0.0062359152
-18.892323 11.890542 -1.3576008 0.11256448 0.11550099 0.98690867 0
-18.889465 11.890594 -1.3568271 0.063751005 0.069433525 0.99554747 0
-18.886677 11.890607 -1.3562502 0.035051286 -0.017503545 0.99923223 0.00017807713
-18.883934 11.890985 -1.3560895 0.022372222 0.16461825 0.98610359 0
-18.873928 11.890244 -1.3560948 -0.045122888 -0.017740304 0.99882394 0
-18.871469 11.890424 -1.3566561 0.056979124 -0.52424717 0.84965765 0
-18.868723 11.890602 -1.3580939 -0.050132431 -0.0066974382 0.99872017 0.0047374456
-18.866879 11.891647 -1.358876 -0.089393988 -0.037289917 0.99529803 0
-18.892019 11.893285 -1.3579992 -0.024274157 0.099218123 0.99476951 0
-18.889482 11.893414 -1.3571758 0.23522496 -0.7778641 0.58274919 0
-18.886528 11.893447 -1.3565282 0.097811058 0.34546486 0.93332046 0
-18.883953 11.893906 -1.3561434 -0.021297934 0.078871429 0.99665731 0
-18.881136 11.8943 -1.3560551 0.0056611672 0.082614101 0.99656558 0
-18.874115 11.893273 -1.3560693 -0.42221084 0.20250608 0.88358891 0
-18.871191 11.89339 -1.3563031 -0.04585338 -0.031010538 0.99846673 0.0014793053
-18.868458 11.893491 -1.3573618 -0.062083032 -0.0099061523 0.99802184 0
-18.866306 11.893826 -1.3585564 0.31934747 0.54222685 0.77717906 0
-18.891518 11.896063 -1.3584771 0.040732194 -0.014339956 0.99906719 0
-18.88938 11.896431 -1.357613 0.011875105 0.024603486 0.99962676 0.00010723335
-18.886543 11.896489 -1.3568896 -0.01115145 0.03570066 0.9993003 0.0024147232
-18.883677 11.896347 -1.3563471 -0.030562576 0.037023019 0.99884695 0
-18.880713 11.896723 -1.3561273 -0.081076272 0.039914865 0.99590838 0
-18.87743 11.897021 -1.3560365 -0.070064276 0.0043261871 0.99753314 0
-18.874397 11.896753 -1.3560543 -0.10253725 0.020471051 0.99451852 0
-18.871017 11.896205 -1.3561698 0.10575642 0.11142668 0.98812944 0
-18.868498 11.896507 -1.3566999 0.44773832 -0.19927672 0.87167603 0.0086458037
-18.865683 11.896539 -1.3580408 -0.12839678 0.0020146968 0.99172086 0
-18.863579 11.897678 -1.3589015 -0.015433606 0.11455925 0.9932965 0
-18.888924 11.899376 -1.3580371 -0.21124859 0.27052075 0.93925112 0
-18.886389 11.899503 -1.3572804 -0.0060360567 -0.095547184 0.99540663 0
-18.88341 11.899362 -1.3566412 -0.024778225 -0.023111485 0.99942577 0.00094225962
