# .PCD v0.7 - Point Cloud Data file format
VERSION 0.7
FIELDS x y z normal_x normal_y normal_z curvature
SIZE 4 4 4 4 4 4 4
TYPE F F F F F F F
COUNT 1 1 1 1 1 1 1
WIDTH 543
HEIGHT 1
VIEWPOINT 0 0 0 1 0 0 0
POINTS 543
DATA ascii
-0.025393181 0.0010860285 -0.0051157218 0.20432369 -0.018358681 -0.97873122 0.00079576269
-0.023319354 0.0012494174 -0.0046938364 0.18628977 -0.009865609 -0.9824453 0.00068021333
-0.020243755 0.0012525467 -0.0040201843 0.21753204 0.056039762 -0.97444308 0.00076767115
-0.017160065 0.001255821 -0.0033174651 0.22107401 0.092334837 -0.97087616 0.00053463475
-0.014387758 0.0012098586 -0.0026608363 0.21406306 0.13181032 -0.96788585 0.00055522524
-0.012428137 0.00029358425 -0.0023345426 0.22924468 0.15942647 -0.96022397 0.0012586595
-0.058702495 0.0051018447 -0.0035382677 -0.5929293 -0.69444305 -0.40765643 0.00031421386
-0.056604467 0.0036383965 -0.0040786434 -0.57506317 -0.70322156 -0.41806909 0.00062668405
-0.025515836 0.0044355062 -0.0050898129 0.25293398 0.047769923 -0.96630353 0.00056702935
-0.023329675 0.0043616141 -0.0045166695 0.25758296 0.08529219 -0.96248442 0.0008626146
-0.020259492 0.0043711211 -0.0037126062 0.27733099 0.15213844 -0.94865245 0.0024618497
-0.017179037 0.0043808892 -0.0028869906 0.27075192 0.21116675 -0.93920285 0.0016829489
-0.01513968 0.0038888308 -0.0024161667 0.27696812 0.25795564 -0.92560655 0.0046084798
-0.06161388 0.0077735889 -0.0035646684 -0.63952714 -0.66202074 -0.39081141 0.0002594924
-0.059995502 0.0066987509 -0.0042634001 -0.60808641 -0.67627352 -0.41579446 0.00048964971
-0.025699837 0.0072824736 -0.0049210079 0.31106231 0.11842086 -0.94298285 0.0011765617
-0.023348708 0.0071961647 -0.0041906373 0.30914032 0.16557278 -0.93649232 0.0014725411
-0.020285927 0.0072144456 -0.0031950679 0.31096682 0.27370879 -0.91015559 0.0055923546
-0.017762583 0.0066576949 -0.0025483742 0.31158659 0.39276072 -0.86524725 0.0051484825
-0.064583488 0.010927482 -0.0037430394 -0.67030603 -0.62243527 -0.40405962 0.00016693368
-0.06289576 0.0095198108 -0.0043227463 -0.65619791 -0.63995385 -0.3998293 0.00022721024
-0.027814809 0.011133832 -0.0051087989 0.42264301 0.1821093 -0.88781136 0.0037970259
-0.026188632 0.010249665 -0.0046460964 0.38744074 0.23219055 -0.89217556 0.0032821691
-0.023389379 0.010044472 -0.0034921733 0.3714501 0.38562414 -0.84458202 0.0076590902
-0.02116178 0.0094946427 -0.0027429268 0.41413477 0.44995108 -0.79122466 0.0069840751
-0.067492515 0.014123618 -0.0035746768 -0.71184301 -0.58643413 -0.3864899 0.00041506175
-0.065946534 0.012444948 -0.0037630268 -0.69124812 -0.61116463 -0.38555646 0.00012885114
-0.028407816 0.013608925 -0.0047057122 0.469331 0.3299163 -0.81907487 0.0067243078
-0.026299374 0.013249959 -0.0034791795 0.49213639 0.45663407 -0.74113911 0.0044638244
-0.024188127 0.012143743 -0.0027934816 0.42026076 0.51474506 -0.74727392 0.0038042439
-0.070109725 0.017234527 -0.0032901124 -0.74208516 -0.55499929 -0.37587941 0.00043436335
-0.068771161 0.015843078 -0.0038174384 -0.73132521 -0.56709468 -0.37890247 0.00055965426
-0.031446621 0.01690479 -0.004897316 0.54112387 0.40061441 -0.73938698 0.0064800642
-0.029412648 0.016207112 -0.0037314377 0.54697633 0.46875316 -0.69360465 0.00205554
-0.027231615 0.015369889 -0.0025793966 0.54214048 0.539437 -0.6442759 0.00083767046
-0.071172319 0.019170411 -0.003858357 -0.75959307 -0.53360659 -0.37186342 0.0003094956
-0.069596522 0.017906882 -0.0052487208 -0.74554121 -0.54668945 -0.38118112 0.00042073667
-0.034225676 0.019989155 -0.0050083851 0.57101029 0.49710482 -0.65332532 0.00068287359
-0.032154094 0.01910308 -0.0037958566 0.57240093 0.52934653 -0.62621844 0.0018490846
-0.030072587 0.018210946 -0.0025812243 0.56291884 0.57260042 -0.59602952 0.00071089983
-0.073368408 0.023051007 -0.0041256901 -0.81133384 -0.44542912 -0.37858999 0.0012652702
-0.072388902 0.021341644 -0.0043334817 -0.79250103 -0.49258611 -0.35958454 0.00045932402
-0.037057757 0.023383707 -0.0049330648 0.62079036 0.55400103 -0.55470914 0.00081273535
-0.035182644 0.022336517 -0.0038840557 0.60671467 0.5718416 -0.55217242 0.00082478032
-0.03326245 0.021223014 -0.0029497698 0.60037565 0.56377423 -0.56719285 0.0012138033
-0.03807871 0.025485862 -0.0040700231 0.65133369 0.56913531 -0.50184608 0.0027256298
-0.036284599 0.024436239 -0.0030168151 0.64028311 0.56175375 -0.52389914 0.00089450314
-0.04075145 0.028507996 -0.004114469 0.66902125 0.60535669 -0.43122369 0.0025725579
-0.039256029 0.027189758 -0.0036027462 0.66176164 0.60258138 -0.44605747 0.001553325
-0.043840334 0.031834193 -0.0040338887 0.68183774 0.64711165 -0.34109211 0.0018966472
-0.042076867 0.030197114 -0.0037323618 0.6696716 0.64035219 -0.3761504 0.002140251
-0.046764422 0.034805678 -0.0038113166 0.69518769 0.6695345 -0.26160589 0.0018074989
-0.045079742 0.033292919 -0.0034843937 0.67711282 0.68916559 -0.25800994 0.0013284064
-0.049639281 0.037458107 -0.0044833226 0.67765403 0.70858699 -0.19669643 0.0015525783
-0.048056278 0.036128119 -0.0034842149 0.66796196 0.72039914 -0.18668626 0.0011191075
-0.053265665 0.040531702 -0.0048815561 0.66639513 0.7297163 -0.15307383 0.001407434
-0.051300667 0.039056376 -0.0024632171 0.65639967 0.74272174 -0.13230228 0.00049606501
-0.055522688 0.042224482 -0.0049107922 0.65632939 0.74358839 -0.12770239 0.0004868744
-0.012759583 -0.018478595 0.00073847617 -0.13975973 -0.66220224 -0.73617613 0.0075327093
-0.011039415 -0.018475099 0.00065153674 -0.061830763 -0.56731653 -0.82117534 0.0045556687
-0.0081748441 -0.01847096 0.00054873666 -0.031339247 -0.49032062 -0.87097853 0.0024150554
-0.0050993552 -0.018687399 0.00059180404 -0.0091242045 -0.44366786 -0.89614481 0.002168766
-0.0024525379 -0.01875988 0.00061456696 0.0054510147 -0.4038341 -0.91481596 0.0017617132
0.00040932663 -0.018664466 0.00061474345 0.014972585 -0.36469185 -0.93100792 0.0012834641
0.0038436558 -0.018473499 0.00061188196 0.021666309 -0.32035413 -0.94705003 0.0010848813
0.006706459 -0.01847687 0.00069533428 0.036710151 -0.24251628 -0.9694525 0.0023346618
0.040486436 -0.018478435 0.00073422445 -0.019262472 -0.15291446 -0.98805165 0.00050524331
0.042775035 -0.018477773 0.00071745948 -0.0076953559 -0.15957746 -0.98715544 0.00058639894
0.045636576 -0.018477349 0.00070709432 -0.008190427 -0.16398083 -0.98642951 0.00049530284
0.049070172 -0.018619938 0.00069363858 -0.013846543 -0.16824917 -0.98564726 0.00041095054
0.051929496 -0.018761966 0.00066674803 -0.019990908 -0.17463456 -0.98443043 0.00041208186
0.054920077 -0.018958855 0.00063507352 -0.023351617 -0.1859172 -0.98228788 0.00042086563
0.057643518 -0.019044822 0.00058386172 -0.019561538 -0.19888793 -0.97982699 0.00039052009
0.060785919 -0.01904312 0.00054280739 -0.005928719 -0.21264389 -0.97711176 0.00034438644
0.063852958 -0.019002587 0.00055118976 0.022403896 -0.22268775 -0.97463232 0.00033999863
0.066591218 -0.01868837 0.00061656232 0.057193745 -0.23429477 -0.97048175 0.00028016415
0.068537712 -0.018477641 0.00071421708 0.074060023 -0.24276297 -0.96725446 0.00022463426
-0.024780495 -0.015614532 0.00069809402 -0.27221185 -0.78585035 -0.55528367 0.0072124344
-0.022821974 -0.015813285 0.00023016031 -0.17981954 -0.63284522 -0.75310814 0.0091670388
-0.020014392 -0.01620221 3.3959281e-05 -0.1261522 -0.63652277 -0.76087081 0.010169012
-0.01725206 -0.016516356 -1.7092098e-05 -0.087754801 -0.59588587 -0.79826003 0.011490746
-0.014446538 -0.016732085 -7.6467171e-05 -0.10796745 -0.52177727 -0.84622192 0.0046814051
-0.011300121 -0.016728112 -0.0001816994 -0.0041374071 -0.39944035 -0.91674978 0.0020450819
-0.0081571508 -0.016727218 -0.00020398409 0.0092892451 -0.35188913 -0.93599558 0.0012358447
-0.0053014881 -0.016729154 -0.00014855177 0.023135273 -0.31675011 -0.94822681 0.0011021078
-0.002445423 -0.016732203 -6.3456595e-05 0.035741448 -0.28313506 -0.95841384 0.0010198284
0.0006974634 -0.016736345 5.1749172e-05 0.041278925 -0.2454311 -0.96853477 0.00094616786
0.0038420151 -0.016740916 0.00017903303 0.045970917 -0.20640256 -0.97738665 0.00079688814
0.0067027262 -0.016746545 0.0003350242 0.055505835 -0.17485477 -0.98302847 0.00048811047
0.009565209 -0.016751697 0.00047764019 0.037841473 -0.15771452 -0.98675942 0.00066847785
0.012627045 -0.016579764 0.00059429719 0.029627467 -0.13405982 -0.99053025 0.00052767503
0.015864218 -0.016184762 0.00063209189 0.025433159 -0.1116218 -0.99342525 0.00044518278
0.018595835 -0.016098289 0.00067798211 0.019794496 -0.10627465 -0.99413979 0.00049008499
0.021376915 -0.015829585 0.0007083423 0.017091218 -0.098739147 -0.99496663 0.00036821695
0.024742087 -0.015616013 0.00074172462 0.014694486 -0.06539467 -0.9977513 0.00075664354
0.030998573 -0.015779283 0.00073251571 -0.012840382 -0.020796366 -0.99970132 0.00013466676
0.033766992 -0.016225658 0.00071094092 -0.015559987 -0.051482685 -0.99855262 0.00042763245
0.036847461 -0.016582184 0.00066404836 -0.018688407 -0.045922123 -0.99877024 0.00035931339
0.039902095 -0.01675592 0.00059709162 -0.018316492 -0.050986864 -0.9985314 0.00036565927
0.042760681 -0.016754655 0.00056224898 -0.014501533 -0.060617238 -0.99805576 0.00044122542
0.045618977 -0.016753472 0.00052929483 -0.012739385 -0.071333021 -0.9973712 0.00038084143
0.048762135 -0.016752012 0.0004886582 -0.017738825 -0.080821589 -0.99657071 0.00035235524
0.05190175 -0.016749579 0.00042188144 -0.025442082 -0.093155809 -0.99532646 0.0004353399
0.054751258 -0.016746221 0.00032891356 -0.032445617 -0.10475116 -0.99396908 0.00051592244
0.057597142 -0.016742155 0.00021670316 -0.031118907 -0.12024698 -0.99225616 0.00057814986
0.06073292 -0.016739579 0.00014564348 -0.017039806 -0.13299841 -0.99096978 0.00052885892
0.063874602 -0.016738776 0.00012369361 0.011518615 -0.14489698 -0.9893797 0.00051085971
0.066747874 -0.01674241 0.00022197934 0.045551103 -0.15436804 -0.98696285 0.0004839196
0.069638893 -0.01674995 0.00042814226 0.061328411 -0.16208743 -0.98486876 0.00033446352
0.072519541 -0.016332664 0.00055309781 0.064703822 -0.17565848 -0.98232251 0.00034296841
0.075321168 -0.015859434 0.00068461057 0.09586525 -0.16999835 -0.98077035 0.00044879678
-0.031459324 -0.012878001 7.0650829e-05 -0.26003107 -0.75587219 -0.60086697 0.01163855
-0.0290746 -0.013292418 -0.00044647907 -0.22473323 -0.71251184 -0.66469681 0.0095570516
-0.02633466 -0.013757979 -0.00066896179 -0.11182502 -0.64491105 -0.75603241 0.0080376454
-0.02324765 -0.013845297 -0.0010595606 -0.080810547 -0.49617898 -0.86445129 0.0027913728
-0.020101402 -0.013839258 -0.0012566164 -0.035661891 -0.42614529 -0.90395153 0.0018092555
-0.017248729 -0.01383719 -0.0013222889 -0.0038044322 -0.37116364 -0.92855972 0.0016464191
-0.014400218 -0.013837762 -0.0013002828 0.013125881 -0.32517129 -0.94556403 0.0015111021
-0.011268316 -0.01384014 -0.001217938 0.031210773 -0.30536336 -0.95172423 0.0016109679
-0.0081364643 -0.013844063 -0.0010846297 0.045885384 -0.26355124 -0.96355349 0.0013845043
-0.005288172 -0.013848567 -0.00093308964 0.058163051 -0.22929266 -0.97161824 0.0013092415
-0.0024381122 -0.013853661 -0.00076117076 0.066721156 -0.19773962 -0.97798127 0.0012985265
0.00069941836 -0.013860946 -0.00051606854 0.072160833 -0.16356643 -0.98388964 0.0012181351
0.0038402933 -0.013868188 -0.00027224328 0.075364329 -0.12865524 -0.98882151 0.00084051007
0.0066987528 -0.013874828 -4.9095601e-05 0.073405042 -0.10319621 -0.99194872 0.00070908008
0.0095598027 -0.013880946 0.00015637954 0.054899249 -0.087353729 -0.99466348 0.00078017829
0.012709469 -0.01388694 0.00035743462 0.051269338 -0.057952911 -0.99700195 0.00046859591
0.01585949 -0.013890586 0.00048023183 0.033981651 -0.039882947 -0.99862629 0.00042841671
0.018723467 -0.013892926 0.00055874907 0.022707511 -0.026629727 -0.99938744 0.00038832458
0.021587351 -0.013894517 0.00061174482 0.015727818 -0.020801043 -0.99965996 0.00029741178
0.024738764 -0.013896437 0.00067643169 0.018464737 -0.0090849213 -0.99978828 0.00050374388
0.027842281 -0.01394553 0.00072308327 0.0024047778 0.0047320807 -0.99998593 0.00040367813
0.030751957 -0.014183765 0.00071332604 -0.012056346 0.0044487119 -0.99991739 0.00053703907
0.033613671 -0.013897143 0.00070183724 -0.010508082 0.014329983 -0.99984211 0.00042860935
0.036757946 -0.013895446 0.0006458147 -0.018475024 0.016127247 -0.99969923 0.00050260918
0.039899882 -0.013893227 0.00057160226 -0.019187892 0.029146973 -0.99939096 0.00041249671
0.042754121 -0.013890846 0.0004914673 -0.018231316 0.029572878 -0.99939632 0.00056812551
0.045609266 -0.01388906 0.00043121539 -0.017538702 0.029872723 -0.99939984 0.00074271642
0.048749246 -0.013887144 0.00036732806 -0.020988965 0.029971818 -0.9993304 0.00086786086
0.051885109 -0.013884402 0.00027494389 -0.027167555 -0.0080874143 -0.99959815 0.0010961943
0.054731775 -0.013881137 0.00016625971 -0.038324371 -0.012467336 -0.99918759 0.0014461153
0.057574593 -0.013877326 3.8227765e-05 -0.042011149 -0.020494744 -0.99890691 0.001595606
0.06069937 -0.013873037 -0.0001053547 -0.031784937 -0.034355376 -0.99890411 0.0015979712
0.063835487 -0.013871605 -0.00015473645 -0.0054789889 -0.051687904 -0.99864829 0.0015007133
0.066701733 -0.013873511 -9.133853e-05 0.03005165 -0.069988728 -0.99709499 0.0012054172
0.069580019 -0.013877646 4.5052497e-05 0.046616502 -0.083682366 -0.9954015 0.0008792695
0.072755188 -0.01388345 0.00023845583 0.063344285 -0.085735582 -0.99430221 0.0006036805
0.075941615 -0.013890779 0.00048279134 0.097098716 -0.094095364 -0.99081677 0.00049454515
0.078047991 -0.013395359 0.00066943909 0.10943662 -0.083192013 -0.99050629 0.00061532488
-0.03805916 -0.0096921241 -0.00058968517 -0.35905921 -0.79747725 -0.48487788 0.0035368835
-0.035137624 -0.010744087 -0.00092739088 -0.32078123 -0.75098819 -0.57716215 0.0078866417
-0.032250814 -0.011366633 -0.0013774589 -0.20302083 -0.68273044 -0.70189869 0.012153354
-0.029312586 -0.011633043 -0.0018053195 -0.12326541 -0.53827739 -0.83370441 0.004791698
-0.026325699 -0.01182624 -0.0019502953 -0.070264615 -0.46060485 -0.88481981 0.0029999516
-0.023187656 -0.011822595 -0.0020927098 -0.035042576 -0.39433843 -0.91829687 0.0022679521
-0.02005817 -0.011822224 -0.0021068917 0.0043970593 -0.32592872 -0.94538414 0.0014356457
-0.017084045 -0.011626107 -0.0020765022 0.029314598 -0.27728882 -0.96033931 0.00088741124
-0.014278794 -0.011350786 -0.0020048791 0.042179782 -0.24161854 -0.96945417 0.00050665974
-0.011247285 -0.010973964 -0.0019029056 0.062625185 -0.19829981 -0.97813869 0.0005351603
-0.0080829058 -0.01074328 -0.0016928599 0.08840324 -0.14768288 -0.98507595 0.00090155407
-0.00527944 -0.010699785 -0.0014454867 0.10183902 -0.11196771 -0.98847967 0.00079530879
-0.0024339133 -0.010706211 -0.001159902 0.10579415 -0.077758856 -0.99134314 0.00062993128
0.00070048927 -0.010713718 -0.00082724181 0.10414699 -0.026358681 -0.99421257 0.0010836534
0.0038394944 -0.010721461 -0.00048590859 0.092747331 -0.028163379 -0.99529129 0.00041818025
0.0066971187 -0.010727744 -0.00020850962 0.092618868 0.011408314 -0.99563628 0.00085029198
0.0095581738 -0.010733757 5.8126869e-05 0.091084301 0.0046249484 -0.99583244 0.00033203696
0.01270804 -0.010739142 0.00029587862 0.064527765 0.031776063 -0.99740988 0.00048838358
0.015860116 -0.010743765 0.00049979542 0.045076311 0.036556922 -0.99831444 0.00036747963
0.018724941 -0.010745981 0.00059733144 0.028647492 0.040769532 -0.99875784 0.00023112434
0.021498134 -0.011010892 0.00066559995 0.026040452 0.048175316 -0.99849939 0.00027467025
0.024377877 -0.011645556 0.00070986198 0.024880398 0.045458082 -0.99865639 0.00070479774
0.027032176 -0.012180693 0.0007401898 0.010012571 0.027817201 -0.99956292 0.00025474466
0.034475673 -0.012180842 0.00074595655 -0.0099858856 0.045064751 -0.99893421 0.00028276912
0.036968432 -0.012098425 0.00072181667 -0.015927874 0.047762416 -0.99873173 0.00037967804
0.040013421 -0.011814842 0.00068123126 -0.02347823 0.1214379 -0.99232131 0.00085749145
0.04284009 -0.011534235 0.00064731273 -0.022449225 0.1240008 -0.99202818 0.00097748311
0.045625679 -0.011318339 0.00059719826 -0.020731524 0.12646985 -0.99175382 0.001032857
0.048849981 -0.011112665 0.00054598926 -0.012493554 0.14059101 -0.98998892 0.0011509054
0.051910389 -0.010743524 0.0004981393 -0.026082855 0.13913269 -0.98993015 0.0011202486
0.054760106 -0.010741379 0.00040281564 -0.055670664 0.13935833 -0.98867595 0.0011155785
0.057603542 -0.010738289 0.00026758364 -0.046873637 0.13192357 -0.99015099 0.0011038363
0.060727514 -0.010734591 0.00010576961 -0.041833457 0.13017763 -0.9906078 0.0012712778
0.063849859 -0.010731026 -5.1865587e-05 -0.02345277 0.12036224 -0.99245298 0.0017841936
0.066702217 -0.010730292 -8.7842811e-05 0.0059645767 0.10141367 -0.9948265 0.0023376558
0.069568567 -0.010731697 -2.9408373e-05 0.035012681 0.077702865 -0.99636161 0.002096666
0.072737262 -0.010735301 0.00012703193 0.059622467 0.058838587 -0.99648541 0.0017581839
0.075922109 -0.010740713 0.00036672689 0.087154798 0.054939695 -0.99467868 0.0014555146
0.078219429 -0.010830587 0.00061404263 0.11886712 0.030464802 -0.99244273 0.0014877489
-0.043704446 -0.0068464028 -0.00056512002 -0.44031149 -0.7934432 -0.42020664 0.0017613461
-0.041202605 -0.0078570172 -0.0011220009 -0.37811494 -0.77308506 -0.50928241 0.0064831651
-0.039003249 -0.0085573606 -0.001776892 -0.2886239 -0.76725358 -0.57272875 0.0063911481
-0.036546994 -0.0092607215 -0.0021914796 -0.2186681 -0.75289619 -0.6207509 0.01529729
-0.010329019 -0.0085785678 -0.0021774636 0.11436255 -0.066030584 -0.99124223 0.0010087736
-0.008158965 -0.0076234406 -0.0019876489 0.14012188 -0.029563287 -0.98969287 0.00040958088
-0.0052763964 -0.0075634299 -0.0016222326 0.12746821 -0.015106121 -0.99172753 0.00050938746
-0.0024330318 -0.0075693852 -0.0012401608 0.12797049 0.034009255 -0.99119473 0.0009283172
0.00070052058 -0.0075758649 -0.00082270254 0.12539056 0.056863032 -0.99047655 0.00092578708
0.0038397205 -0.0075819064 -0.00043503079 0.11784355 0.07483837 -0.99020809 0.00097504305
0.0066981381 -0.0075869318 -0.00011245999 0.10810686 0.082072653 -0.99074566 0.00075724744
0.0095603094 -0.0075915447 0.00018390501 0.09581054 0.08364702 -0.99187875 0.00044201984
0.012712546 -0.0075961575 0.00048135174 0.086602211 0.11215524 -0.98990971 0.00052746764
0.015685931 -0.0080639841 0.00065070274 0.051544406 0.10755354 -0.99286222 0.00049976021
0.018271208 -0.0086303931 0.0007112429 0.044350199 0.12421731 -0.99126345 0.00089255755
0.055368457 -0.008744739 0.00070194853 -0.037966661 0.37277895 -0.92714316 0.0080337198
0.057777584 -0.0084891347 0.00063829729 -0.055364612 0.33892557 -0.9391827 0.0084332135
0.060927868 -0.0082408423 0.00053462642 -0.05209402 0.31772617 -0.9467504 0.0071063256
0.06398347 -0.0079271561 0.00046977377 -0.039260678 0.30785719 -0.95062214 0.0072291763
0.066770583 -0.0078804735 0.00037750741 -0.016754936 0.29555255 -0.95517957 0.0078482898
0.069624916 -0.0078798458 0.00033783913 0.01810093 0.27688217 -0.96073335 0.0078326901
0.072684169 -0.007959635 0.00044424739 0.052867666 0.25326449 -0.96595138 0.0063713691
0.075721435 -0.0082657197 0.00059227343 0.08913853 0.25004187 -0.96412307 0.0067990632
0.077696286 -0.0087447837 0.00070500816 0.14349458 0.22889651 -0.96281654 0.0049598077
-0.049054056 -0.0038751587 0.00020824815 -0.50976259 -0.77913666 -0.3648124 9.7193275e-05
-0.047223553 -0.0046103457 -0.00080928067 -0.50097024 -0.77347881 -0.38827753 0.00063713134
-0.045154385 -0.0055720094 -0.0014845387 -0.47440654 -0.76155806 -0.44155157 0.0045567285
-0.0098160207 -0.0038576052 -0.0022193298 0.16161601 0.030084103 -0.98639506 0.00057607313
-0.0081157181 -0.0047129188 -0.0019622925 0.15616326 0.036223002 -0.98706681 0.00098111853
-0.0052781058 -0.0047169332 -0.0015192465 0.15849893 0.068366133 -0.98498952 0.00043769597
-0.0024346048 -0.0047208546 -0.0010863224 0.15503886 0.092292711 -0.9835878 0.00031340247
0.0006998824 -0.0047250707 -0.00062078692 0.15361841 0.13756356 -0.97850788 0.0012452594
0.0038406963 -0.0047289557 -0.00018988177 0.13538933 0.1517401 -0.97910404 0.0012285659
0.0067012291 -0.0047323117 0.00018090219 0.11557127 0.16105257 -0.98015577 0.001161464
0.0094356677 -0.0048653637 0.0005073701 0.10605366 0.17662723 -0.97854763 0.0016119241
0.011929125 -0.0055237385 0.00063975225 0.093239918 0.2353414 -0.96743 0.0027860226
-0.052580647 -0.001187159 -0.00040221366 -0.53107452 -0.76224542 -0.37005639 0.00021849878
-0.050473057 -0.0023779862 -0.00094175886 -0.52397442 -0.76936662 -0.36541173 0.00021250396
-0.010233184 -0.0016088856 -0.0020910972 0.20682682 0.11074134 -0.97209007 0.00038803977
-0.008121673 -0.0018683616 -0.0017069904 0.18711907 0.13149008 -0.97349721 0.00062961527
-0.0052835084 -0.0018696131 -0.0011976734 0.18456756 0.15707284 -0.97018701 0.0006658663
-0.002438365 -0.0018708247 -0.0007224658 0.17376998 0.22830586 -0.95795631 0.0036544718
0.00069844082 -0.0018722406 -0.00016473397 0.14654312 0.27434802 -0.95039904 0.0045830202
0.0037680659 -0.0019729554 0.0003191561 0.18710649 0.31969646 -0.92886245 0.0054628812
0.0064449911 -0.0026027826 0.00056308135 0.14687447 0.34235117 -0.92802131 0.0058964421
-0.057847939 0.0026973113 -0.00030377065 -0.59607011 -0.7258296 -0.34332457 0.00026953479
-0.056084469 0.0014954493 -0.0006814138 -0.5738079 -0.74038661 -0.35010308 0.00033450828
-0.053916533 -1.6908918e-05 -0.0009017915 -0.55012655 -0.75647891 -0.35369524 8.8710462e-05
-0.013230229 0.0026827976 -0.0021607534 0.28711835 0.27581874 -0.91732609 0.0058933622
-0.011056462 0.0014186748 -0.001830806 0.26159635 0.19574815 -0.94511908 0.0015950976
-0.0081337113 0.0012657286 -0.0011912063 0.22832006 0.23994274 -0.94355577 0.0014895424
-0.0052944231 0.00126886 -0.00054717122 0.22442034 0.34113151 -0.91283339 0.0078877583
-0.0025374419 0.0010084154 5.8349688e-06 0.22289978 0.40114358 -0.88848156 0.0086127911
0.0003341554 0.000376401 0.00039538182 0.21419589 0.4762035 -0.85284835 0.0086232768
0.0026990122 -0.00015730396 0.0007119223 0.2071038 0.46447292 -0.86103022 0.0033052238
-0.061059177 0.0052742441 0.00018108333 -0.63852042 -0.69742388 -0.32540995 0.00028918151
-0.059351407 0.0042767543 -0.0008995058 -0.62612224 -0.70034409 -0.34276697 0.00025262215
-0.057637863 0.0032544807 -0.001840736 -0.60147983 -0.72001797 -0.34611586 0.00029667767
-0.01400912 0.0046267472 -0.0019012593 0.33583692 0.31653038 -0.8871426 0.0044520306
-0.011272548 0.0044027423 -0.0010571604 0.32303172 0.45288351 -0.83099157 0.0072425241
-0.0083074998 0.0041120448 -0.00019327295 0.29110825 0.49627644 -0.81790316 0.0085861078
-0.0057852841 0.0034645647 0.00028532697 0.27127409 0.56744462 -0.77744263 0.0068432139
-0.06416548 0.0084139034 -7.5276243e-05 -0.67692566 -0.66399926 -0.31761101 0.0003705225
-0.062459424 0.0071291546 -0.00088096212 -0.65256774 -0.67232096 -0.34948501 0.00019701009
-0.016854061 0.0076221959 -0.0016566908 0.38084987 0.45054504 -0.80744195 0.0041275006
-0.014496673 0.0071612601 -0.0007012157 0.40257064 0.52865005 -0.74730593 0.0068115257
-0.011936786 0.0065308963 8.393079e-05 0.36260331 0.61048603 -0.70414883 0.0030515213
-0.06709861 0.011284463 0.00040546502 -0.70269918 -0.62919551 -0.3321549 0.00043913996
-0.065331042 0.0099846534 -0.00075658388 -0.68566781 -0.64171362 -0.34360352 0.00034671073
-0.021776689 0.011221789 -0.0018874661 0.51081592 0.53331882 -0.67426872 0.0036442708
-0.019858992 0.010338916 -0.001295032 0.43937805 0.56845111 -0.69556475 0.004302321
-0.017530855 0.0097550349 -0.00025174115 0.43748209 0.60171252 -0.66824496 0.0023536647
-0.015325634 0.0089976788 0.00047980691 0.37437028 0.64027601 -0.67074102 0.0022199708
-0.06814982 0.013338125 -0.0009704585 -0.72953206 -0.59761363 -0.33262718 0.00026640878
-0.025384381 0.01444871 -0.0018349643 0.52422768 0.54395258 -0.65521055 0.00046883797
-0.023154629 0.013337635 -0.0010110096 0.51369905 0.54896289 -0.65935814 0.0014188208
-0.0207374 0.012417505 1.7170561e-05 0.48016968 0.61554706 -0.62493116 0.0010923217
-0.07033506 0.016101416 -0.00078086113 -0.75182861 -0.57107008 -0.32959464 0.00021428151
-0.028234081 0.017296908 -0.0017809725 0.55100268 0.56419688 -0.61488044 0.00021837033
-0.026248882 0.016467959 -0.00072324777 0.55945235 0.58080548 -0.59133583 0.0013569396
-0.024285836 0.015506619 9.3100825e-05 0.5424667 0.61640555 -0.57076633 0.0009495478
-0.07133007 0.018061407 -0.0016515211 -0.75466543 -0.55119693 -0.35589606 0.00031271268
-0.031080978 0.020143591 -0.0017729556 0.58723021 0.61297095 -0.52860892 0.00099487731
-0.02925499 0.019241286 -0.00076622108 0.57234514 0.62877905 -0.52636296 0.00084651593
-0.027409749 0.018325988 6.9324626e-05 0.5644691 0.60524684 -0.56129402 0.00061693223
-0.034302678 0.023366667 -0.0018207884 0.62284452 0.60041189 -0.50156766 0.00048846047
-0.032291275 0.022014908 -0.00099470071 0.60780346 0.62577987 -0.48885027 0.0026569804
-0.030290363 0.021199418 0.00037117256 0.59023243 0.62662822 -0.50888389 0.001173546
-0.037335694 0.026400669 -0.0018532828 0.65328425 0.66904336 -0.3544018 0.0015661424
-0.035340317 0.025104849 -0.00077457784 0.62981653 0.65954912 -0.41027573 0.0027312415
-0.033319607 0.023853786 0.00010058726 0.6085304 0.67031676 -0.4246954 0.0021890458
-0.040189225 0.029252043 -0.0017730749 0.67075068 0.68858695 -0.27557501 0.0012079529
-0.038618136 0.028129881 -0.00081154506 0.64848912 0.70237845 -0.29347283 0.001413541
-0.043093652 0.032140736 -0.0012108341 0.65509969 0.72979778 -0.19554944 0.0015642965
-0.041671157 0.030907474 -0.0011850054 0.65568167 0.71948075 -0.22897384 0.00269356
-0.045825209 0.034663118 -0.00055840169 0.67146987 0.72390646 -0.15839095 0.00077552028
-0.044592064 0.033454537 -0.0014160033 0.67501211 0.7165851 -0.17568287 0.0012405956
0.031812649 -0.027822025 0.0037254586 -0.038309198 -0.57812285 -0.81504989 0.0044948286
0.033825897 -0.02781841 0.0036663397 -0.02266906 -0.54638869 -0.83722496 0.0041636447
0.03670302 -0.027814776 0.0036069856 -0.012271723 -0.5646677 -0.82522708 0.0055980701
0.039577045 -0.027809454 0.0035200936 -0.014233953 -0.58418584 -0.81149507 0.0072689345
0.042739604 -0.02780522 0.0034507804 -0.013158383 -0.5832808 -0.81216395 0.007417765
0.045907266 -0.027804745 0.0034430369 0.0074677849 -0.54316658 -0.83959168 0.0042849351
0.048792873 -0.027807821 0.0034932478 0.016252132 -0.56011069 -0.82825828 0.0057962313
0.051682379 -0.027812628 0.0035719557 0.038766608 -0.59290892 -0.80433589 0.0073065944
0.054290112 -0.027820267 0.0036968559 0.044165675 -0.64530784 -0.76264489 0.0066439682
0.0038543399 -0.024347307 0.0034230219 -0.12092401 -0.67390633 -0.72885358 0.017448857
0.0067336988 -0.024630604 0.0033327921 -0.063266337 -0.64650077 -0.76028556 0.0046227234
0.009754885 -0.024766462 0.003181658 -0.072983801 -0.61174804 -0.78767866 0.0069752601
0.012850998 -0.024966372 0.0030950808 -0.05699743 -0.54598308 -0.83585513 0.0057072728
0.015940644 -0.025192959 0.003081396 -0.042185288 -0.48851293 -0.87153625 0.0049197325
0.018893205 -0.025379898 0.0030656669 -0.033227928 -0.4445498 -0.89513761 0.0039713741
0.021693101 -0.025476562 0.0030035672 -0.03270638 -0.4538421 -0.89048165 0.0051936461
0.024570571 -0.025764624 0.00300372 -0.031895313 -0.43932489 -0.89776182 0.0035231027
0.027729411 -0.025758319 0.0028938006 -0.048118152 -0.41603202 -0.90807599 0.0024662369
0.030887578 -0.025752857 0.0027976141 -0.049731586 -0.39012137 -0.91941947 0.0021929056
0.033758469 -0.025748715 0.0027245309 -0.022568535 -0.37380987 -0.92723072 0.0019906433
0.036629491 -0.025745366 0.002665391 -0.018668916 -0.38057446 -0.9245618 0.0024977527
0.039700527 -0.025672995 0.0025821917 -0.014362742 -0.38000184 -0.92487431 0.0026704359
0.042842936 -0.025814651 0.0026198344 -0.0067409277 -0.37437508 -0.92725283 0.0025060305
0.045821991 -0.025740545 0.0025811496 -0.0005530818 -0.37434801 -0.92728812 0.0025867254
0.048697595 -0.025741043 0.0025896195 0.0071765091 -0.3739984 -0.9274016 0.0018195957
0.051630016 -0.025695812 0.0026082981 -0.0048029302 -0.40995952 -0.91209108 0.0029834765
0.054742083 -0.025744716 0.0026535636 0.051720176 -0.4478077 -0.89263272 0.0048945453
0.057859298 -0.025795836 0.0027337761 0.048503142 -0.48581231 -0.87271637 0.0046739914
0.060800374 -0.025753606 0.0028061743 0.027293157 -0.51308 -0.8579067 0.0052811624
0.063672073 -0.025463838 0.0027738854 0.060616646 -0.52402359 -0.84954393 0.007290055
0.066561639 -0.02526892 0.0028682307 0.085804507 -0.51535392 -0.85267109 0.0053474493
0.06963259 -0.025033662 0.0030944741 0.12237497 -0.55320668 -0.8240065 0.0057233558
0.07267493 -0.024687633 0.003322257 0.14434282 -0.60661298 -0.78178382 0.0064151618
0.075011313 -0.024352536 0.0035210594 0.17776795 -0.67458618 -0.71647203 0.0066919914
-0.010542454 -0.021460451 0.0032807237 -0.20337287 -0.77740341 -0.59521711 0.0057289554
-0.0080994945 -0.021692896 0.0027815544 -0.150308 -0.73137963 -0.66520023 0.0090054646
-0.0052778712 -0.022080664 0.0026958648 -0.12635982 -0.67477429 -0.72712642 0.0093500363
-0.0024183691 -0.022359727 0.0025867738 -0.078145929 -0.64999604 -0.75590897 0.0099582197
0.00068938162 -0.022572709 0.0024628246 -0.068454124 -0.55495453 -0.82905948 0.006672068
0.003849999 -0.022562416 0.0022587294 -0.039883211 -0.49294391 -0.86914647 0.0069715027
0.0067213746 -0.022556411 0.0021393129 -0.028431466 -0.40430522 -0.91418207 0.0016954135
0.0095917033 -0.022551946 0.0020505555 -0.020900099 -0.4258998 -0.90452892 0.0042196088
0.012748776 -0.022549128 0.0019949598 -0.011858133 -0.38255391 -0.92385709 0.0029231007
0.015906526 -0.022548683 0.001987438 -0.005425002 -0.34797779 -0.93748707 0.0019149216
0.018777244 -0.022548482 0.0019840274 -0.013024519 -0.32115427 -0.94693732 0.0012385084
0.021646604 -0.022546872 0.0019519625 -0.015260984 -0.30907217 -0.95091617 0.0011595855
0.024751114 -0.022503758 0.0018814916 -0.018568365 -0.25261977 -0.9673875 0.0012301491
0.027889771 -0.022585999 0.0018512125 -0.028904606 -0.26983821 -0.96247172 0.0003907448
0.030820888 -0.022537967 0.0017729492 -0.025141329 -0.24160175 -0.9700498 0.0011082221
0.033684876 -0.022534207 0.0016966888 -0.024186602 -0.24628259 -0.96889627 0.00086375879
0.03661295 -0.022485625 0.001606761 -0.022626117 -0.24995834 -0.96799219 0.00072408176
0.039749239 -0.022568014 0.001580996 -0.010719552 -0.25913742 -0.96578097 0.00049924717
0.042853124 -0.022527542 0.0015623304 -0.0039356737 -0.26038128 -0.96549791 0.0004757446
0.045720458 -0.022527177 0.0015549276 -0.0035712048 -0.26254836 -0.96491218 0.00051261846
0.04858635 -0.022526199 0.0015347584 -0.004361657 -0.26898754 -0.96313375 0.00053660682
0.051738102 -0.022524934 0.0015088026 -0.0058931592 -0.28085512 -0.95973206 0.00059206603
0.054889377 -0.022523617 0.00148187 0.0023023984 -0.29404452 -0.95578897 0.00069652154
0.057755869 -0.022523228 0.0014734229 -0.016509349 -0.29653746 -0.95487851 0.00065330404
0.060625523 -0.022524051 0.0014895829 0.013266071 -0.32944727 -0.94408071 0.00057690294
0.063682213 -0.022464287 0.0015237397 0.035460409 -0.3370319 -0.94082522 0.0005539048
0.066841356 -0.022599502 0.0017248283 0.067594126 -0.33715764 -0.93901849 0.00076863443
0.069873884 -0.022547256 0.0019577907 0.085192993 -0.33922121 -0.93684101 0.0010432363
0.072794139 -0.022562644 0.0022674722 0.10330661 -0.41373077 -0.9045189 0.0046460084
0.07572943 -0.022581354 0.002642927 0.13111132 -0.44610697 -0.88532388 0.0055706892
0.078545555 -0.022338295 0.0029678151 0.16845354 -0.48342916 -0.85902244 0.0053942394
0.08133091 -0.021879058 0.0032726054 0.20497985 -0.5487076 -0.81049573 0.007022534
0.083378494 -0.021474995 0.0035910949 0.21313752 -0.58571285 -0.78199285 0.0042661224
-0.019604802 -0.018719465 0.0031358569 -0.28040862 -0.83552349 -0.47251627 0.0028088924
-0.017267462 -0.018974621 0.0023373759 -0.19795537 -0.78481185 -0.58726841 0.010789177
-0.014140382 -0.019509885 0.0019571453 -0.17008743 -0.75617546 -0.63187736 0.0076025915
-0.01107141 -0.019953331 0.0017128617 -0.13282596 -0.68109727 -0.72004426 0.012816847
-0.0081939194 -0.019937659 0.0013597354 -0.079807349 -0.55341595 -0.82907277 0.004043051
-0.0054270658 -0.020086408 0.0012953028 -0.046560679 -0.49285945 -0.86886221 0.0023224857
-0.0024593286 -0.020219728 0.0012637698 -0.029129064 -0.44847918 -0.89331853 0.0019535006
0.00081644801 -0.020051561 0.0011616934 -0.015844697 -0.40261054 -0.91523421 0.0015889276
0.0038455343 -0.019926025 0.0010989786 -0.0084730033 -0.3599439 -0.93293548 0.001291532
0.0067106243 -0.019926053 0.0011004538 0.014682906 -0.3024964 -0.95303738 0.0016391966
0.0095750904 -0.019638099 0.0010647497 0.024537375 -0.26958194 -0.96266478 0.0011350297
0.012728201 -0.019641198 0.0011377169 0.0095825987 -0.24249615 -0.97010505 0.0005499465
0.015882153 -0.01964413 0.0012063012 0.014054134 -0.22258036 -0.97481304 0.00050412386
0.018749584 -0.019646039 0.0012510023 0.0079559619 -0.20761153 -0.97817904 0.00041825895
0.021615615 -0.019646019 0.0012510784 -1.104455e-05 -0.18984984 -0.98181313 0.00046506416
0.024767607 -0.019645454 0.0012386695 -0.0048335963 -0.17292398 -0.9849233 0.00049718842
0.027917802 -0.019643709 0.0011983665 -0.0090884846 -0.16479221 -0.9862864 0.00046838363
0.030779133 -0.019640828 0.001131359 -0.026369337 -0.16247056 -0.98636097 0.000569875
0.033639651 -0.019637968 0.0010649725 -0.027520591 -0.16723676 -0.98553258 0.00049564824
0.036785513 -0.019634997 0.00099578733 -0.016507706 -0.16414386 -0.98629826 0.00044581934
0.039854959 -0.019789524 0.00095705455 -0.0081453053 -0.17123263 -0.98519701 0.00048860686
0.042796928 -0.019919567 0.00095428224 -0.0046671284 -0.18786439 -0.98218387 0.00043945867
0.045660801 -0.019919464 0.00095191901 -0.006085177 -0.19032139 -0.98170292 0.00039643006
0.048551761 -0.019947354 0.00093511934 -0.011195397 -0.19317922 -0.98109967 0.00037364595
0.05175925 -0.020239349 0.00094891735 -0.014292677 -0.19907998 -0.97987902 0.00039092009
0.054679412 -0.020347729 0.00092391111 -0.014300832 -0.21021888 -0.97754973 0.00040978586
0.057685964 -0.020490702 0.00091992458 -0.0095977895 -0.22586732 -0.97411078 0.00037374086
0.060546104 -0.020489428 0.00089153484 0.0026790311 -0.23948166 -0.97089726 0.00033105977
0.063809313 -0.020424308 0.00091265934 0.030922461 -0.25386497 -0.96674526 0.00027554692
0.066961646 -0.02007268 0.0009883896 0.062923796 -0.26062402 -0.96338761 0.00019793512
0.069789365 -0.019687191 0.0010970589 0.080369212 -0.26505387 -0.96087837 0.00022265814
0.072642013 -0.019648978 0.0013175413 0.07675425 -0.25829127 -0.96301317 0.00026138112
0.075552523 -0.019660359 0.0015817282 0.10639014 -0.28423879 -0.95283234 0.00061734486
0.078659385 -0.019612305 0.0018943378 0.13667762 -0.33688211 -0.93157375 0.0020275761
0.081787236 -0.01969712 0.0024360393 0.18320599 -0.39267778 -0.90124351 0.0031785853
0.084707968 -0.01961828 0.0029290516 0.19491754 -0.4437196 -0.87471145 0.004172768
0.087726846 -0.01919366 0.0032309594 0.167888 -0.49475491 -0.85266119 0.0073886001
0.090160772 -0.01882069 0.0035026476 0.21643239 -0.54899448 -0.80731773 0.006327997
-0.028104277 -0.015701145 0.0032574728 -0.34029183 -0.85052872 -0.40100172 0.0010590375
-0.02585656 -0.016129721 0.0023192123 -0.29433584 -0.83433419 -0.46610382 0.0026799957
-0.023094259 -0.017002059 0.0020792803 -0.27032751 -0.80517524 -0.52784073 0.0086280527
-0.020477211 -0.017596761 0.0016213043 -0.23907328 -0.81482089 -0.52812016 0.0066425153
-0.017639184 -0.017917164 0.0010226339 -0.14569291 -0.6968922 -0.70222121 0.01768573
0.013292367 -0.017908014 0.00078832055 0.029959792 -0.13476272 -0.99042487 0.00057020999
0.015869811 -0.017622614 0.00081122969 0.021200797 -0.13707078 -0.99033433 0.00049994647
0.018877521 -0.017480886 0.00084803952 0.015591742 -0.13104194 -0.99125427 0.00048103373
0.021699267 -0.017203355 0.000857668 0.010912905 -0.12245189 -0.99241447 0.00035484965
0.024749517 -0.017052835 0.00088634901 0.010085064 -0.10057753 -0.99487805 0.00036900328
0.027897479 -0.016765218 0.00085108494 0.0012156476 -0.067766719 -0.99770045 0.00055544084
0.030664358 -0.017146312 0.00083405874 -0.026809158 -0.084305577 -0.99607921 0.00027174334
0.033391126 -0.017564638 0.00079265679 -0.022111274 -0.077446662 -0.99675125 0.00048681212
0.036194835 -0.017907131 0.00076556648 -0.020292699 -0.074149005 -0.99704069 0.00048042793
0.072813042 -0.017746948 0.00085331313 0.076160342 -0.19856919 -0.97712332 0.00031770868
0.075919084 -0.017108051 0.00096902973 0.099991314 -0.19295523 -0.97609943 0.00049509545
0.078931108 -0.016778788 0.0012189241 0.13060436 -0.18456116 -0.97410452 0.00064057787
0.081869088 -0.016793361 0.0016174861 0.12968594 -0.20203035 -0.97075498 0.0010751097
0.08480528 -0.01680656 0.001979254 0.13015684 -0.26289797 -0.95600408 0.0032378603
0.087750852 -0.016820626 0.0023645137 0.1272635 -0.28577876 -0.94980764 0.0034376048
0.090719216 -0.016838038 0.0028383357 0.16561528 -0.32101339 -0.93248165 0.0046539856
0.093512408 -0.016446542 0.0032553191 0.21488565 -0.36763662 -0.90480244 0.0056202873
0.09566965 -0.015904205 0.0035802268 0.30303401 -0.4259887 -0.85246933 0.0090841576
-0.034561377 -0.012959257 0.0030050396 -0.37476 -0.85177588 -0.36610499 0.00051452173
-0.032332107 -0.013537852 0.0021016046 -0.35456577 -0.83478338 -0.4212124 0.0018479532
-0.029581042 -0.014574506 0.0019981971 -0.33717293 -0.85046321 -0.4037658 0.00084239803
-0.027393373 -0.015059762 0.0012425079 -0.32960248 -0.76791066 -0.54924989 0.013723688
0.029036677 -0.012753494 0.00075000967 0.0094089676 0.014778731 -0.99984658 0.00057664968
0.030754823 -0.012753711 0.0007573769 -0.0017046271 0.041448254 -0.99913913 0.00021858793
0.079246625 -0.014139125 0.00090356357 0.13490841 -0.078832313 -0.98771715 0.00053689582
0.081798188 -0.013912985 0.001225811 0.13551277 -0.073409304 -0.98805231 0.00064929947
0.084724933 -0.013922704 0.0015506383 0.12533253 -0.075273238 -0.98925513 0.00076683034
0.087652944 -0.013931961 0.0018601378 0.11416779 -0.13281634 -0.98454332 0.0032993748
0.090586931 -0.013941601 0.0021791134 0.13090523 -0.14533915 -0.98068362 0.0030690045
0.093553185 -0.013955278 0.0026335379 0.18114142 -0.15324804 -0.97144365 0.0034962923
0.096514858 -0.013926103 0.0032638281 0.2712504 -0.19539426 -0.94246715 0.0045867013
0.098377891 -0.013121486 0.0036682233 0.51430613 -0.15466972 -0.84354401 0.015867198
-0.040757328 -0.0097090676 0.0023585267 -0.42601216 -0.82898051 -0.3623603 0.00035236898
-0.0380706 -0.010939217 0.0020465131 -0.40929419 -0.83335179 -0.37148768 0.00052903767
-0.03566844 -0.012020526 0.0019288354 -0.38506272 -0.84521723 -0.37058669 0.00050052651
0.022053199 -0.0094334139 0.00078735198 0.036711898 0.071371295 -0.99677402 0.00034493726
0.025006229 -0.010110687 0.0008401291 0.036544096 0.086553238 -0.9955768 0.00038691689
0.027960028 -0.010649872 0.00087091024 0.029258283 0.099437773 -0.99461353 0.0004335538
0.030764859 -0.010753016 0.00091139716 0.0062130676 0.097773254 -0.99518937 0.00050104008
0.033567797 -0.010650878 0.00091794156 -0.0072944853 0.12489615 -0.99214298 0.00044043013
0.036729127 -0.010427062 0.00090629305 -0.010088177 0.14026752 -0.99006224 0.00062620797
0.039866507 -0.010134554 0.00088447612 -0.016174488 0.15186206 -0.98826939 0.00081174978
0.042706389 -0.0098520312 0.00085998885 -0.020208891 0.16294196 -0.98642862 0.0010162462
0.045650586 -0.0096063977 0.00084884604 -0.020723373 0.16659002 -0.98580843 0.0011864655
0.04851092 -0.0094626676 0.00081962044 -0.014813663 0.25747156 -0.96617234 0.0087882429
0.079656243 -0.010641244 0.0008311728 0.15892743 0.042001382 -0.98639649 0.0014036588
0.08178544 -0.010758712 0.0011550768 0.14105301 0.052651308 -0.98860097 0.0012867586
0.084723584 -0.010767477 0.0015432383 0.12843524 0.058041852 -0.99001795 0.0010445587
0.087645888 -0.010773893 0.001823962 0.10417404 0.10963959 -0.98849732 0.0039133406
0.090568803 -0.010779934 0.0020887193 0.13073699 0.10181049 -0.98617566 0.0033616733
0.093525529 -0.010789298 0.0025000626 0.17343184 0.059457839 -0.98304945 0.0015412001
0.096533187 -0.01080351 0.0031246359 0.25684017 0.088101342 -0.96242994 0.0044280044
0.098365128 -0.011390891 0.0036095202 0.42980289 0.093280874 -0.89809138 0.0076371999
-0.046368539 -0.0066722506 0.0026571101 -0.49701285 -0.80026144 -0.33549944 0.0001399946
-0.044390667 -0.0076222718 0.0020841437 -0.47520146 -0.81362766 -0.33495319 0.00014803074
-0.042184841 -0.0086170621 0.0015550673 -0.42753509 -0.82854795 -0.36155504 0.0004345318
0.01618848 -0.0067745149 0.00082764472 0.078595534 0.13088539 -0.98827714 0.00084079674
0.018850787 -0.0073449253 0.0008970201 0.068498671 0.16595523 -0.98375136 0.0010224659
0.021604594 -0.007604185 0.0010007711 0.065018609 0.18886515 -0.97984827 0.0012006513
0.024762683 -0.0076063299 0.0011401102 0.063772693 0.20735328 -0.97618526 0.0020081261
0.027922906 -0.0076085506 0.0012839541 0.052805245 0.22347926 -0.97327727 0.0030896212
0.030794868 -0.0076099099 0.00137243 0.025066869 0.23519976 -0.97162378 0.0038351319
0.033664137 -0.0076103779 0.0014062258 0.013142356 0.26691392 -0.96363074 0.0037747787
0.03665911 -0.0076741567 0.0014133905 0.0061898306 0.28868523 -0.95740408 0.004286407
0.039792057 -0.0075497115 0.0014625695 -0.0040949713 0.32238403 -0.94660008 0.0045510004
0.042839762 -0.0076104207 0.0014177796 -0.0080135735 0.35388544 -0.93525445 0.0049910173
0.04570359 -0.0076098833 0.0013846203 -0.011825845 0.38149598 -0.92429483 0.0052299872
0.048629981 -0.0076529626 0.0013219679 -0.0025059171 0.38683143 -0.92214704 0.005145337
0.05175845 -0.007568235 0.0012519732 -0.02967325 0.39846936 -0.91670156 0.0051701167
0.054772515 -0.0074501252 0.0011585481 -0.073230572 0.40852249 -0.90980583 0.0068159425
0.057638705 -0.0071044662 0.0011131025 -0.059807956 0.43556288 -0.89816922 0.0077281208
0.060420904 -0.0068885321 0.0010275587 -0.060576521 0.43333486 -0.89919484 0.0086448062
0.063418247 -0.0066011539 0.00095191295 -0.055246808 0.58296621 -0.8106159 0.0043777237
0.066845424 -0.0064571598 0.00088656391 -0.029072853 0.41371495 -0.90994221 0.0094528496
0.069700994 -0.0064564655 0.00083325943 -0.0021622528 0.39422646 -0.91901076 0.0094099818
0.07276196 -0.0065524373 0.00087513472 0.042239126 0.37430704 -0.92634237 0.0084331129
0.07598234 -0.0069543519 0.00095322169 0.086723499 0.35471731 -0.93094289 0.0066546188
0.078969903 -0.0075589423 0.0011675353 0.16955899 0.25626835 -0.95161772 0.0040687188
0.081859462 -0.0076128617 0.0015642866 0.13948095 0.26419112 -0.95433128 0.0036270504
0.084801748 -0.0076190508 0.0019600231 0.10738464 0.30586091 -0.94600087 0.0085943481
0.087729 -0.0076235989 0.0022524355 0.092273213 0.2931008 -0.95161843 0.0071282992
0.090669759 -0.0076288301 0.0025917978 0.124258 0.29262507 -0.94811946 0.0077539883
0.093651727 -0.0076368744 0.0031097408 0.23883042 0.35281986 -0.90469784 0.0075669908
0.096174054 -0.008170886 0.0034675964 0.32703897 0.29801965 -0.89678854 0.0074476241
-0.050076392 -0.0040953211 0.002286013 -0.53095913 -0.78246278 -0.32532185 0.00011284929
-0.047726829 -0.0055145314 0.0019535169 -0.50869709 -0.79527324 -0.32979965 0.00019382962
0.010525081 -0.0037838197 0.00080610765 0.13910618 0.24069807 -0.96057993 0.00275204
0.013010534 -0.0044530598 0.00096578943 0.13871527 0.29210865 -0.94627196 0.0030665321
0.015882242 -0.0047414834 0.0012059195 0.1223032 0.31920463 -0.9397608 0.0034393447
0.018758168 -0.0047438117 0.001474621 0.097344078 0.33487368 -0.93722123 0.0044477037
0.021638345 -0.0047462643 0.0017618437 0.094787464 0.4520267 -0.88695383 0.0089597721
0.024647817 -0.0048122057 0.002009257 0.082244322 0.48247436 -0.87204033 0.0088140983
0.027802613 -0.0046901233 0.0023836985 0.1026462 0.5368517 -0.83740908 0.0084056174
0.03087586 -0.0047535952 0.0026148066 0.077625535 0.56332022 -0.82258403 0.0074118935
0.033747043 -0.0050409785 0.0025632263 0.020132927 0.58643562 -0.80974561 0.006379127
0.036634766 -0.0050425264 0.0027315572 0.03947448 0.59825099 -0.80033582 0.0061068069
0.039600849 -0.0051869238 0.0027838645 0.022985574 0.62533718 -0.78001606 0.0053135045
0.042859696 -0.0052951979 0.0028011471 0.019432731 0.6445564 -0.76430982 0.004354889
0.045848273 -0.0053316252 0.0028464065 0.0062173977 0.65945983 -0.75171411 0.00416758
0.048723862 -0.0053314962 0.0028389755 -0.014011389 0.66884649 -0.74326843 0.003624754
0.051594064 -0.00533095 0.0027839884 -0.031009771 0.67684358 -0.73547345 0.0035594637
0.054739848 -0.0053294357 0.0026352748 -0.042467259 0.6218918 -0.78195083 0.0043521412
0.057831682 -0.0050012292 0.0027269281 -0.060692944 0.66323984 -0.74594188 0.006314287
0.060754463 -0.0050397599 0.0024616809 -0.067528754 0.6449936 -0.76119852 0.0039158757
0.06376081 -0.0049507548 0.002335707 -0.054935262 0.68218696 -0.72911102 0.0051335888
0.066708155 -0.0047714221 0.0022704725 -0.057211701 0.65506679 -0.75340182 0.0059776204
0.069785886 -0.0046858396 0.0022186504 0.0021166396 0.62785351 -0.7783286 0.0087371562
0.072773635 -0.0047489698 0.0021402023 0.030550458 0.65002292 -0.75930029 0.0072991718
0.075669847 -0.0047503826 0.0022861811 0.10281679 0.5678007 -0.81671971 0.010016641
0.078563295 -0.0048953113 0.0024069345 0.097263709 0.55853552 -0.82375842 0.0097337924
0.081701003 -0.0050556916 0.0026570063 0.10400994 0.5747993 -0.81165743 0.0084912907
0.084738374 -0.0050742361 0.0030049502 0.096436128 0.55868405 -0.82375497 0.0072677671
0.087825835 -0.0053763436 0.0031760314 0.099690996 0.56991124 -0.81563652 0.0082129743
0.090693973 -0.005657204 0.0033515173 0.13422403 0.58859742 -0.79720569 0.0093014715
0.09288758 -0.0059161554 0.0035952076 0.22274163 0.60980904 -0.7606045 0.0085612061
-0.055499621 -0.00072982151 0.0035957738 -0.59470308 -0.76297069 -0.25338507 0.00023346698
-0.053408254 -0.0017520261 0.0022448476 -0.56030172 -0.76977587 -0.30578917 0.00010604281
-0.051476628 -0.0027365237 0.001318787 -0.54521245 -0.7729311 -0.324532 0.0001911907
0.0047040689 -0.00072981406 0.00092418934 0.20132262 0.35912955 -0.91131514 0.007670512
0.0069157095 -0.0013026551 0.0011296486 0.22190143 0.42495197 -0.87759644 0.0064349486
0.0095815286 -0.0018759561 0.0014309939 0.17025667 0.43558019 -0.88390183 0.006826953
0.012750324 -0.001877232 0.0020400847 0.16131815 0.53159481 -0.83149469 0.0098874448
0.015845284 -0.0020353529 0.0025333615 0.14849992 0.58411193 -0.79797304 0.005684562
0.018708052 -0.0023196379 0.0028382058 0.127377 0.62030232 -0.77395099 0.0055331727
0.021592319 -0.0026656385 0.0030866282 0.12042283 0.65533829 -0.74567425 0.0038348571
0.024396338 -0.0029375206 0.0033510819 0.10668829 0.68675393 -0.71901792 0.0025969241
0.026618449 -0.0030349344 0.0036103919 0.10895029 0.70626611 -0.69951278 0.0013074208
-0.058680657 0.0022583322 0.0024242026 -0.61230326 -0.73376775 -0.29439706 0.00014395636
-0.056350727 0.00051412755 0.0020462221 -0.58574814 -0.7537725 -0.29786927 0.00018953541
-0.0019989912 0.0025937513 0.0011083588 0.28149322 0.62626964 -0.72701299 0.0041062301
0.00095189584 0.0019212796 0.0016896811 0.27221698 0.55931169 -0.78298682 0.0063518165
0.0038275067 0.0011713423 0.00208713 0.25962609 0.60319364 -0.75415641 0.0044793831
0.0066295825 0.00061223755 0.0024957319 0.22831982 0.62313581 -0.74804533 0.004036305
0.0095038433 0.0002122205 0.0030200148 0.20380265 0.69763023 -0.68685991 0.0021243067
0.0122074 -0.00015377611 0.0034221679 0.17654285 0.71933156 -0.67185915 0.0017686186
-0.061600365 0.0050112233 0.0019487089 -0.64731604 -0.70413101 -0.29185867 0.00018198005
-0.059873983 0.0034802132 0.0019149429 -0.63261276 -0.71853131 -0.28898785 0.00013662473
-0.0077123954 0.0053839441 0.0012110169 0.33173943 0.66984957 -0.66426682 0.0015947009
-0.0051834746 0.0047387956 0.0018211489 0.31771988 0.65425938 -0.68629348 0.005409766
-0.0026224726 0.0041414592 0.0024360574 0.30534056 0.68259573 -0.66395044 0.0028610933
0.00028470065 0.0035880916 0.0031607968 0.28925151 0.70104063 -0.65182489 0.00206188
-0.064442888 0.0078782812 0.0017620868 -0.68385959 -0.66947579 -0.29006571 0.00013475103
-0.063007377 0.0064435457 0.0017561063 -0.67265648 -0.68200594 -0.28705588 0.00013207899
-0.013203038 0.0082961544 0.0011474907 0.39750668 0.66615909 -0.63104719 0.00074275484
-0.010851968 0.0076260339 0.0018590565 0.37264606 0.66768116 -0.64446628 0.0024974747
-0.0083815549 0.0069687883 0.0025741321 0.35644895 0.69974971 -0.61910778 0.0011097083
-0.0058393911 0.0063726562 0.0032939061 0.33511889 0.72020936 -0.60744864 0.00081547705
-0.067131937 0.010478102 0.0024407252 -0.71022457 -0.64554703 -0.28080246 0.00042394132
