# .PCD v0.7 - Point Cloud Data file format
VERSION 0.7
FIELDS x y z normal_x normal_y normal_z curvature
SIZE 4 4 4 4 4 4 4
TYPE F F F F F F F
COUNT 1 1 1 1 1 1 1
WIDTH 552
HEIGHT 1
VIEWPOINT 0 0 0 1 0 0 0
POINTS 552
DATA ascii
-0.041541621 0.011205709 0.0024792997 0.18208791 0.52231908 -0.83308274 0.0021652107
-0.038503811 0.011014708 0.0030117796 0.16275907 0.50371093 -0.84840131 0.0016377182
-0.035549294 0.010763254 0.0034573267 0.16179273 0.47023034 -0.86758661 0.0020497122
-0.032774411 0.010332128 0.0037071027 0.15218307 0.45277935 -0.87853926 0.0014336329
-0.030011959 0.0098885484 0.0039701685 0.14351793 0.43882704 -0.88703632 0.0011656056
0.015919195 0.0098888213 0.0039827917 -0.1342781 0.48967659 -0.86150229 0.0013187521
0.01866978 0.010204915 0.0036891333 -0.14542468 0.50578499 -0.8503136 0.0018971722
0.021399077 0.010575148 0.0034280082 -0.1541529 0.5249331 -0.8370676 0.002091062
0.024566699 0.010909752 0.0030558689 -0.16326964 0.53095496 -0.83152264 0.0032198904
0.027615711 0.011178175 0.0026481559 -0.16363046 0.58626509 -0.79342198 0.0027804822
0.030391565 0.011431579 0.0022268484 -0.18298879 0.59087324 -0.78573787 0.0020000269
0.033176698 0.011865636 0.0019555527 -0.17694208 0.67272729 -0.71842152 0.00077112811
0.036193676 0.012345917 0.001647996 -0.17182335 0.69772148 -0.6954577 0.0007104355
0.038449969 0.01252602 0.0012633044 -0.17273206 0.69346952 -0.69947386 0.0019085165
-0.070547722 0.013165563 0.0036347348 -0.27158689 0.9268387 -0.2592499 0.00037077168
-0.068646446 0.013363361 0.0025224646 -0.22248039 0.93001223 -0.29254022 0.000294194
-0.065537795 0.014035596 0.002544306 -0.17097718 0.93183422 -0.32008088 0.0012541569
-0.062175035 0.014527019 0.00225445 -0.10714607 0.90846145 -0.40400186 0.005736934
-0.059369534 0.014808099 0.002356481 0.0097479736 0.85400915 -0.52016658 0.0047631213
-0.056407847 0.014756718 0.0024544799 0.03198735 0.81300831 -0.58137274 0.0069727758
-0.053428974 0.014398561 0.0025940009 0.099290855 0.75253719 -0.6510216 0.0042104744
-0.050547361 0.014074563 0.0027840075 0.14425884 0.69410276 -0.70527345 0.0019113396
-0.047607169 0.013919706 0.0032095897 0.15676461 0.67169267 -0.72405368 0.0014238956
-0.044678152 0.013656626 0.0035716516 0.15974404 0.64449275 -0.74773717 0.0013109996
-0.041666765 0.013253632 0.0038397664 0.15529047 0.62198627 -0.76747507 0.0015175635
-0.039561 0.013180628 0.0041605374 0.13900453 0.61465544 -0.77645117 0.0012353391
0.028621752 0.013178967 0.0041023185 -0.1241058 0.68751001 -0.71549124 0.0011940795
0.030805523 0.013265583 0.0037791419 -0.14574318 0.70349884 -0.69559211 0.00097541633
0.033569135 0.013526248 0.0034533741 -0.15423162 0.69473344 -0.70253682 0.00071018579
0.036557518 0.013754486 0.0030198216 -0.15084362 0.71970898 -0.67769104 0.00053635903
0.039622463 0.014114024 0.0027474251 -0.15116732 0.74885005 -0.64526898 0.00090529601
0.042577453 0.014570957 0.0026114152 -0.14460383 0.76442707 -0.6282841 0.00078374182
0.045417037 0.014848216 0.0023377535 -0.13457498 0.79009563 -0.59802878 0.00069946778
0.048423816 0.015057549 0.0020121909 -0.1058898 0.82116258 -0.56078458 0.00080606225
0.051477801 0.015309885 0.0018818565 -0.092540301 0.84397918 -0.52833271 0.0011384428
0.054480989 0.015391305 0.0014726717 -0.083313324 0.8771016 -0.47302407 0.0026344175
0.056164239 0.015382439 0.0012104649 -0.020795064 0.88282639 -0.46923882 0.0045525781
0.045579046 0.016050428 0.0039538518 -0.11437524 0.85109288 -0.5124054 0.0036654023
0.048399299 0.01603213 0.0034333903 -0.074985161 0.84244615 -0.53353703 0.0011891192
0.051512275 0.016017787 0.0030252377 -0.050931029 0.87464976 -0.48207247 0.0024016935
0.054619342 0.016003361 0.0026148933 -0.060113307 0.89126396 -0.44948298 0.0017033968
0.057446696 0.015992412 0.0023030539 -0.035533071 0.89792752 -0.43870673 0.0041505476
0.059880394 0.016029816 0.0033674876 -0.027058236 0.91613209 -0.39996219 0.0020441664
-0.061903685 -0.015638653 0.0054952865 0.18220559 -0.95388538 -0.23854546 0.00042836386
-0.059289198 -0.015172475 0.0053584715 0.20208518 -0.94426465 -0.25985742 0.0010760105
-0.056522977 -0.014737087 0.0056387447 0.18689509 -0.94423366 -0.27109599 0.0012797103
-0.054235686 -0.014517644 0.0064789196 0.21913998 -0.92058825 -0.32325685 0.00098674255
0.046128571 -0.014520105 0.0065518608 -0.12858039 -0.94383132 -0.30438396 0.00044217388
0.04859712 -0.014477459 0.0052916547 -0.14660998 -0.94422895 -0.29485109 0.00048079854
0.051288363 -0.014906456 0.0057634376 -0.10928653 -0.97132343 -0.21115699 0.0014810911
0.054024771 -0.015038718 0.0048470264 -0.1140219 -0.9750905 -0.19025637 0.00082869211
0.058285601 -0.015679352 0.0066117933 -0.094388135 -0.97996473 -0.1753855 0.00024692508
0.060399663 -0.015624947 0.0051194513 -0.070322275 -0.98410892 -0.16304727 0.00033099178
-0.053236581 -0.013729031 0.0050760387 0.22441131 -0.90910518 -0.35095212 0.0013525862
-0.050519869 -0.0132854 0.0057289926 0.22876307 -0.89315444 -0.38722408 0.00069409003
-0.047472186 -0.012411693 0.0056414781 0.22561882 -0.87076855 -0.43687329 0.0006944614
-0.044632729 -0.011841461 0.0059143743 0.20718074 -0.86024475 -0.46589178 0.0012619656
-0.04182585 -0.011632949 0.006751745 0.18755545 -0.84445441 -0.50171673 0.0012761959
0.028221834 -0.011639751 0.0070006689 -0.15052204 -0.85289007 -0.49992153 0.0014131648
0.030782893 -0.011766083 0.0063271178 -0.16222487 -0.86657375 -0.47194606 0.0015483939
0.033774663 -0.012038694 0.0057249777 -0.16587685 -0.88003355 -0.44500083 0.0014553379
0.036613312 -0.012547048 0.0056106662 -0.17430647 -0.89036804 -0.4205496 0.00070162647
0.039384842 -0.013042058 0.0054993592 -0.16631787 -0.91293716 -0.37267163 0.00047114151
0.042278133 -0.013621866 0.0055809459 -0.15406001 -0.92452985 -0.34858286 0.00095741346
0.045384955 -0.01388781 0.0048994562 -0.14496931 -0.93598449 -0.32080683 0.0010055351
-0.043930952 -0.011000663 0.0046965396 0.23558755 -0.83583403 -0.49586296 0.0013274058
-0.041240174 -0.010580999 0.005171218 0.20867901 -0.82147896 -0.53068382 0.0012866606
-0.038441077 -0.010126822 0.0055737682 0.21685545 -0.75006694 -0.62479854 0.0074128015
-0.03563584 -0.0095564416 0.0057451762 0.22835296 -0.68552518 -0.69131035 0.0054236446
-0.032601465 -0.009139563 0.0061431285 0.19347438 -0.65224928 -0.73289728 0.0057269773
-0.029599443 -0.0089562442 0.0067549748 0.17528152 -0.59459019 -0.78469032 0.00811953
-0.027376443 -0.0087454468 0.0070602586 0.13171028 -0.68968564 -0.7120297 0.0054708193
0.010270603 -0.0087453872 0.0070573082 -0.11905263 -0.73909652 -0.66299528 0.0073462515
0.012482659 -0.0088352291 0.0067351451 -0.11966307 -0.72417498 -0.67915481 0.0070749326
0.015574615 -0.0090887696 0.0064408761 -0.14407407 -0.63909888 -0.75550997 0.0096407961
0.018629389 -0.0093029886 0.0060577178 -0.16328368 -0.6878677 -0.70723158 0.0069019827
0.021501591 -0.0095839081 0.0056809429 -0.19267124 -0.71350151 -0.6736418 0.0049084383
0.024293777 -0.010013274 0.0055116359 -0.19022781 -0.75526118 -0.62721121 0.0071616629
0.027394833 -0.010511108 0.0052546607 -0.16747302 -0.82636726 -0.53765225 0.0015225227
0.030489603 -0.010907486 0.0048027327 -0.18561558 -0.84157014 -0.507254 0.0017484543
0.032369908 -0.01098831 0.0042222878 -0.22752842 -0.76935637 -0.59692687 0.0038702087
-0.035054129 -0.0077557229 0.0044601699 0.23527965 -0.50677872 -0.82934844 0.0043312795
-0.032378871 -0.0072126351 0.0049352245 0.22245646 -0.47742921 -0.85004389 0.0018031002
-0.029426441 -0.0069188424 0.0055397348 0.19940883 -0.44297749 -0.87407494 0.001068211
-0.026451953 -0.0069936207 0.0061725341 0.15870544 -0.4764193 -0.8647759 0.0045295358
-0.023661602 -0.0068419268 0.006543125 0.12804867 -0.45665029 -0.88038284 0.0047550895
-0.020773279 -0.0064966232 0.0067611458 0.10224312 -0.42941856 -0.89729929 0.003207165
-0.017637564 -0.0062046163 0.0069666002 0.072875522 -0.43570086 -0.89713657 0.0036840828
-0.014536699 -0.0059456034 0.0070282165 0.039504472 -0.43859461 -0.8978163 0.0038817509
-0.011449526 -0.005849883 0.0070858561 0.01271534 -0.41709241 -0.90877515 0.0026969248
-0.0085533038 -0.005849761 0.0070776064 -0.010060548 -0.41756099 -0.90859312 0.0029879843
-0.0054636952 -0.0059458916 0.0070480742 -0.030998908 -0.42852557 -0.90299767 0.0040083178
-0.0024708707 -0.0061379843 0.006979974 -0.054312471 -0.43535843 -0.89861745 0.0049585844
0.00071426085 -0.0064257164 0.0068571195 -0.068776868 -0.42909259 -0.90063828 0.0050920029
0.0037045199 -0.0066162203 0.006693935 -0.087765917 -0.42404783 -0.90137702 0.0052683656
0.0065747956 -0.0068983943 0.0064996975 -0.10995229 -0.44710168 -0.88769954 0.0064406665
0.0093847578 -0.006992904 0.006132341 -0.13367538 -0.46011972 -0.87773615 0.0061808298
0.012549932 -0.0069838702 0.0055978587 -0.14746515 -0.48119748 -0.86411977 0.0091705872
0.015705304 -0.0069735674 0.0049902946 -0.17200387 -0.44420028 -0.87926149 0.0024044802
0.01839513 -0.0074356915 0.0046632169 -0.18773946 -0.47620633 -0.85905844 0.0035796175
0.020723199 -0.0079700984 0.0043834364 -0.19336456 -0.50288987 -0.842444 0.0055631008
-0.031508684 -0.005233184 0.0042071184 0.23648317 -0.39484224 -0.88779235 0.00015072858
-0.029122759 -0.0046260045 0.0045573739 0.21398222 -0.35622716 -0.90956795 0.00066736579
-0.026375428 -0.0040905019 0.0049483571 0.18877764 -0.33954132 -0.92145246 0.0007052166
-0.023457693 -0.003910007 0.0054153856 0.14386611 -0.32022303 -0.93635452 0.00065287668
-0.020652022 -0.0038105659 0.0057738256 0.11106852 -0.3312228 -0.93699265 0.00056338747
-0.017488612 -0.0038135466 0.0060796328 0.077154793 -0.32171518 -0.94368768 0.00057609874
-0.01431722 -0.0038154665 0.006278486 0.04424854 -0.31271395 -0.94881618 0.00051052356
-0.011428842 -0.0038162838 0.0063631991 0.015329219 -0.30636662 -0.95179015 0.00048525809
-0.0085377097 -0.0038163839 0.0063743182 -0.0086170379 -0.30361906 -0.95275456 0.00041661353
-0.0056454679 -0.0038158614 0.0063213091 -0.031121183 -0.3039723 -0.9521724 0.00043554755
-0.0024640753 -0.0038144402 0.0061773742 -0.052443355 -0.30603534 -0.95057464 0.00048950728
0.00071541243 -0.0038124281 0.0059728641 -0.069319226 -0.30823284 -0.94878203 0.00056890753
0.0036028947 -0.0038099424 0.0057184007 -0.092941344 -0.31183305 -0.94558024 0.0007110833
0.0064465078 -0.0038564578 0.0053938786 -0.11978395 -0.29175258 -0.94896382 0.0005608775
0.0093649281 -0.004091416 0.005043814 -0.15737008 -0.30199891 -0.94022936 0.0006768473
0.012328763 -0.0042708996 0.0045934897 -0.17651069 -0.3045629 -0.93599439 0.00052217563
0.014994113 -0.0050048982 0.0043560881 -0.17817073 -0.31414756 -0.93250549 0.00059549772
-0.025763735 -0.0020279675 0.0043683108 0.18859322 -0.25494683 -0.9483853 0.00088181032
-0.023390882 -0.00099696591 0.0045183143 0.17357138 -0.23513922 -0.95633805 0.00085867447
-0.020604514 -0.00063136505 0.0048138406 0.12825716 -0.22531493 -0.96580708 0.00090963382
-0.017449385 -0.00063220371 0.0051528709 0.095408991 -0.23845726 -0.96645504 0.00056132232
-0.0142856 -0.00063276273 0.0053790333 0.05082779 -0.24760982 -0.96752566 0.0008939507
-0.011403386 -0.00063300732 0.0054745199 0.016520549 -0.24359453 -0.9697364 0.00083944341
-0.0085180243 -0.00063302933 0.0054841302 -0.0085910242 -0.24248396 -0.97011739 0.00075431191
-0.0056315102 -0.00063293561 0.0054288059 -0.032053307 -0.24417485 -0.96920133 0.000726133
-0.0024565544 -0.00063256227 0.0052874116 -0.053251766 -0.24575053 -0.96786928 0.00069818157
0.00071657205 -0.00063202606 0.0050831083 -0.079939403 -0.2307681 -0.96971935 0.00034743783
0.0035983389 -0.00063140789 0.0048431177 -0.102833 -0.21064647 -0.97213858 0.0006769264
0.0064763557 -0.00074578502 0.0045422707 -0.13090113 -0.21198197 -0.96846712 0.00059297669
0.0091481209 -0.0017815833 0.0044238744 -0.14711903 -0.22473949 -0.96324879 0.0005410196
0.011077754 -0.0023562314 0.0042712232 -0.1553178 -0.25041527 -0.95559853 0.0001249151
-0.022300489 0.0010969935 0.0041954955 0.159071 -0.12030752 -0.97990948 0.0016392736
-0.020209013 0.0020113655 0.0043463092 0.14123698 -0.10674407 -0.98420411 0.0010845858
-0.017586853 0.0021853668 0.0046201218 0.098513842 -0.11575311 -0.98838067 0.00089701067
-0.014452275 0.0023120241 0.0048526088 0.058209676 -0.064118728 -0.99624318 0.0035367119
-0.01138902 0.0022507843 0.0049723824 0.0034572533 -0.12079918 -0.99267095 0.00067593396
-0.0085066669 0.002250762 0.004970517 -0.010269251 -0.066299699 -0.99774688 0.0034772514
-0.0056233741 0.0022505093 0.0049075959 -0.020640939 -0.12178463 -0.99234194 0.00062292727
-0.0024520943 0.002249958 0.0047613112 -0.05487394 -0.067848243 -0.99618548 0.0032318917
0.00071725959 0.0022491491 0.0045548603 -0.07783173 -0.11663447 -0.99012047 0.00087011262
0.0033655979 0.0020757096 0.0043503121 -0.11221208 -0.10893987 -0.9876945 0.0010299077
0.0056098257 0.0010970903 0.0042589894 -0.12513232 -0.13841493 -0.98243743 0.00056112057
-0.019713541 0.0052696872 0.0042508161 0.14296074 0.044275843 -0.98873752 0.0023444248
-0.017707132 0.0051277382 0.0044386145 0.092004023 0.044027001 -0.99478489 0.0022921886
-0.014548654 0.0051301587 0.0046689305 0.072435357 0.045288388 -0.99634433 0.0019566403
-0.011383658 0.0051314044 0.0047861561 -0.0023021372 0.043262154 -0.99906111 0.0019574282
-0.0085025551 0.0051313601 0.0047848979 -0.012257403 -0.0080859829 -0.99989223 0.0038706283
-0.0056205085 0.0051307292 0.0047237081 -0.015892474 0.040314 -0.99906069 0.0017689585
-0.0024505004 0.005129111 0.004573036 -0.064997792 0.043498397 -0.99693686 0.0016817478
0.00071748847 0.0051271729 0.0043833498 -0.073430069 0.050130013 -0.99603969 0.0022363772
0.0029719062 0.0054135886 0.004251116 -0.10984258 0.05428819 -0.99246532 0.0023428858
-0.025759054 0.0091553135 0.0042918166 0.13187917 0.31643495 -0.93940228 0.0023096451
-0.0232602 0.0085828472 0.0044546332 0.1263499 0.30748671 -0.9431265 0.0025848092
-0.020547001 0.0080581112 0.0046201861 0.12210935 0.27203971 -0.95450705 0.0031548566
-0.017489219 0.0080549372 0.0049205478 0.096074931 0.27155253 -0.95761621 0.0021459479
-0.014342822 0.0079741208 0.0051143356 0.041240133 0.29999986 -0.95304734 0.0033908349
-0.011395969 0.0080202017 0.0052156672 -0.0071910825 0.2679868 -0.96339577 0.0023728241
-0.0085118674 0.0080200722 0.0052050808 -0.0098676858 0.20152049 -0.97943461 0.0071352008
-0.0056269653 0.0080189006 0.0051368764 -0.010953453 0.27195191 -0.9622485 0.002509333
-0.0024540166 0.0080164531 0.004991428 -0.043006156 0.21086638 -0.9765684 0.007082338
0.00071690022 0.0080142776 0.0048617013 -0.047102649 0.28531432 -0.95727587 0.0023819709
0.0035975124 0.0080110934 0.0046752924 -0.079218015 0.28863266 -0.95415705 0.0035314192
0.0063804816 0.0083926776 0.0045469487 -0.1160085 0.31616274 -0.94158542 0.003542942
0.0092263948 0.0089026904 0.0044571366 -0.108609 0.34757236 -0.93134183 0.0031005756
0.011366301 0.0091555715 0.0043061813 -0.14498591 0.31983656 -0.93631393 0.002791893
-0.080006741 0.009747088 0.005069687 -0.42551425 0.86290663 -0.27263492 0.0014569487
-0.077661917 0.010895431 0.004855915 -0.40372059 0.88270211 -0.24051353 0.00094785786
-0.074664123 0.01225169 0.005295231 -0.34108996 0.91204149 -0.22767951 0.00045044339
-0.037266869 0.012607574 0.0042467555 0.15585819 0.6057567 -0.78023529 0.0017163253
-0.035311364 0.012448994 0.0044621238 0.14976203 0.54979551 -0.82176411 0.00057166535
-0.032447405 0.01204496 0.004728646 0.14210327 0.55104637 -0.82228625 0.0010609449
-0.029415037 0.011254451 0.0047903983 0.13579895 0.47726944 -0.86820078 0.0010398607
-0.026381141 0.010900351 0.0050383918 0.13122632 0.45667493 -0.87990206 0.0010231819
-0.023520797 0.010909684 0.005438365 0.11360669 0.43043843 -0.89544195 0.0013592492
-0.02065092 0.010917037 0.0057514589 0.094331384 0.45070061 -0.88767707 0.0015088114
-0.017487684 0.010924212 0.0060575092 0.075586922 0.43763477 -0.89597011 0.0014561786
-0.014317311 0.010929461 0.0062818807 0.05838865 0.44111851 -0.89554745 0.0013769766
-0.011428791 0.010931347 0.006361682 0.025977502 0.45041785 -0.8924399 0.0013612891
-0.0085382117 0.010932143 0.0063961176 0.014707286 0.45904773 -0.88828987 0.0014326576
-0.0056457147 0.010930843 0.0063385284 -0.02234563 0.49074614 -0.87101603 0.0022394343
-0.0024644632 0.01092823 0.006227117 -0.031375211 0.47341636 -0.88027984 0.0012225665
0.00071527029 0.010925974 0.0061292611 -0.048023481 0.47304639 -0.87972772 0.0012842161
0.0036043203 0.010922529 0.0059826123 -0.067209139 0.47957462 -0.87492341 0.0015028005
0.006490509 0.010917107 0.0057497974 -0.082618274 0.49536821 -0.86474538 0.0013475814
0.0093728025 0.010910617 0.0054719849 -0.092174537 0.47987035 -0.87248397 0.0011714248
0.012536976 0.01090154 0.0050840704 -0.11494533 0.5072251 -0.85411364 0.0010430979
0.015605709 0.01128046 0.0048745796 -0.13634957 0.51423895 -0.84673911 0.0017604167
0.01854449 0.011866744 0.0047968859 -0.12973842 0.54672158 -0.8272022 0.0020026814
0.021453455 0.012329948 0.0046210131 -0.13287023 0.62923706 -0.76577163 0.00098431972
0.024035353 0.012612343 0.0044213226 -0.13401689 0.64992279 -0.7480908 0.0007748151
-0.071626633 0.013372794 0.0058253026 -0.28334698 0.93408257 -0.21726546 0.00025102461
-0.068527617 0.014139998 0.0054074842 -0.23736466 0.94149816 -0.23924713 0.00027307402
-0.06564226 0.014832118 0.005401792 -0.20217054 0.94982523 -0.23866121 0.00040207227
-0.062762275 0.015410495 0.0054402966 -0.16118531 0.94763106 -0.27570766 0.00076920155
-0.060889438 0.015491471 0.0044320961 -0.13923655 0.92659205 -0.34934273 0.0045685177
-0.049938317 0.015488109 0.0043329932 0.11513501 0.72192127 -0.6823296 0.0021390647
-0.047421809 0.0153337 0.004629856 0.1156236 0.75844169 -0.64140278 0.0013855682
-0.044356775 0.015046984 0.0049125031 0.13292396 0.67522156 -0.72553915 0.0014703149
-0.041324098 0.014697852 0.005175069 0.1327572 0.65631866 -0.7427122 0.0015126782
-0.038476449 0.014420639 0.0054351548 0.14500713 0.68006307 -0.71867049 0.00084937533
-0.035611782 0.01440964 0.0059095034 0.12291837 0.64732909 -0.75223404 0.0011275767
-0.032452796 0.014066151 0.0061001265 0.13114701 0.61995983 -0.77359569 0.0016699152
-0.029348962 0.013646397 0.0062679211 0.12537816 0.5947789 -0.79405183 0.001616818
-0.026574295 0.013384023 0.0064933514 0.11303128 0.58153653 -0.80562961 0.0016237712
-0.023736505 0.013109045 0.0067048334 0.098573238 0.57488984 -0.81227154 0.0016215814
-0.020923026 0.012896226 0.0068604155 0.08036501 0.56448597 -0.82152116 0.0011430554
-0.017528968 0.012683755 0.0070337197 0.068454109 0.56171691 -0.82449269 0.0011899683
-0.015507525 0.012687653 0.0071765324 0.042967923 0.57126343 -0.81964129 0.0012129187
0.0018726222 0.012687489 0.0071706017 -0.029293466 0.59044611 -0.80654526 0.00085124699
0.0036099909 0.012684711 0.0070688687 -0.052860826 0.58587223 -0.80867755 0.00085420656
0.0066969907 0.012776415 0.0068912199 -0.0621324 0.59124529 -0.80409491 0.00080963096
0.0093977218 0.012967923 0.0068354504 -0.075546503 0.60289365 -0.79423666 0.00095634209
0.012534047 0.013126601 0.0065914784 -0.093888588 0.62105513 -0.77812308 0.0010911273
0.015621761 0.013340797 0.0063702492 -0.1044687 0.60506487 -0.78929263 0.00087767851
0.018566253 0.013747931 0.0062846066 -0.11805975 0.66592973 -0.73661351 0.0011120536
0.021522818 0.014105293 0.0061428966 -0.11546792 0.69113111 -0.71344584 0.0009811495
0.024476709 0.014228057 0.0058538187 -0.11599419 0.69095123 -0.71353471 0.0014945375
0.027358992 0.014399709 0.0055876579 -0.11160682 0.71611363 -0.68900311 0.001235729
0.030503076 0.014756682 0.0054256329 -0.12902895 0.73740166 -0.66301608 0.001166213
0.03350132 0.014978735 0.0050858818 -0.13118844 0.76634663 -0.62888986 0.00036033016
0.036318123 0.015248916 0.0048265029 -0.12932551 0.78453034 -0.60645443 0.000469914
0.039300445 0.015494191 0.0045126276 -0.12761125 0.79108804 -0.5982433 0.0011921145
-0.059330784 0.016110251 0.0056559639 -0.10617218 0.94210404 -0.3180685 0.0026716408
-0.056402408 0.016388334 0.0053431951 -0.042828262 0.92078161 -0.38772029 0.0055575701
-0.053398523 0.016592793 0.0054651732 0.016568642 0.88107294 -0.47269011 0.0068106186
-0.0505975 0.016736193 0.0059734257 0.027788626 0.83356637 -0.5517199 0.007514386
-0.04760303 0.016589761 0.0061277784 0.065831773 0.81468642 -0.57615298 0.0039721709
-0.044398613 0.01642728 0.0064412644 0.10833894 0.76851553 -0.63059217 0.0015592108
-0.041784082 0.016313961 0.0067432877 0.099134237 0.74491423 -0.6597538 0.0019633223
-0.038957369 0.016158555 0.0070304787 0.106433 0.74003768 -0.66409045 0.0018628926
0.031116551 0.016157124 0.0069897836 -0.11398943 0.78787994 -0.60518736 0.0014918222
0.033948045 0.016311727 0.006679723 -0.11072458 0.78224361 -0.61305374 0.00046163501
0.036565945 0.016423576 0.0063366909 -0.10379849 0.80247498 -0.58758825 0.00070775091
0.039566491 0.016613832 0.0060525881 -0.089055024 0.82727617 -0.55469215 0.00088362338
0.042477932 0.016650178 0.0055377185 -0.076324679 0.86407578 -0.49754149 0.0024574865
0.045580354 0.016998569 0.0055392059 -0.10260177 0.86552387 -0.49024612 0.0023534619
0.048590317 0.016960656 0.005220972 -0.038355112 0.90808463 -0.41702658 0.0059565115
0.051228195 0.016751153 0.004752242 -0.040751666 0.92738843 -0.37187389 0.0036746603
0.054300945 0.016653992 0.0047338624 -0.02177739 0.93869436 -0.34406179 0.0020938327
-0.059119534 -0.015743811 0.0083804987 0.15519151 -0.96486634 -0.2120104 0.00035029973
-0.056061968 -0.015305758 0.0082979565 0.16145127 -0.95813704 -0.23644665 0.0012701064
-0.053242106 -0.014918107 0.0084877536 0.20269123 -0.93168145 -0.3014729 0.00046389468
-0.050504457 -0.014610651 0.0092270812 0.19594781 -0.930188 -0.31041065 0.00037142713
0.040027693 -0.014622912 0.0095893508 -0.13325512 -0.94894248 -0.28592172 0.00058663543
0.042530239 -0.014579571 0.0083086211 -0.14011346 -0.94632226 -0.29127702 0.00037875
0.045244724 -0.015015603 0.008900946 -0.121731 -0.95389062 -0.27436185 0.00016289398
0.048595924 -0.015149628 0.0080026574 -0.084938891 -0.9730286 -0.21447788 0.0013221659
0.054820389 -0.015769605 0.0090882378 -0.085210301 -0.98100311 -0.17427598 0.00027284041
0.056959737 -0.015714595 0.0075789131 -0.098152757 -0.98029691 -0.1714181 0.00019203839
-0.050043594 -0.013980549 0.0077492883 0.21915446 -0.92181897 -0.31972048 0.00069224829
-0.047405798 -0.013752887 0.0086789075 0.19288692 -0.91483575 -0.3547819 0.0010411913
-0.044378296 -0.013088824 0.0086044855 0.18797518 -0.89817578 -0.39742362 0.00072612299
-0.041476388 -0.012508802 0.0086455364 0.17082925 -0.88808095 -0.42676637 0.00045038306
-0.038522191 -0.011975889 0.0086515686 0.14918087 -0.8807196 -0.44953099 0.00074279413
-0.035607371 -0.011924543 0.0094210198 0.13819054 -0.86508048 -0.48222315 0.00090731145
-0.032805972 -0.011719301 0.0099110743 0.14600977 -0.84285873 -0.51794809 0.0012380934
0.019067965 -0.011716936 0.009824439 -0.13500495 -0.87517726 -0.46458399 0.0010797747
0.021918641 -0.011870522 0.0093479808 -0.12049912 -0.88518798 -0.44935748 0.001320196
0.024552207 -0.011980774 0.0088251494 -0.12372842 -0.89445919 -0.4296906 0.00094504427
0.027401993 -0.012315581 0.0086554876 -0.130101 -0.90454215 -0.40605077 0.00056377664
0.030405218 -0.012740623 0.0085876286 -0.14390181 -0.90876466 -0.3917129 0.00043211508
0.033309881 -0.01319209 0.0085060941 -0.14595389 -0.92443413 -0.35230517 0.00046129661
0.036462814 -0.01377965 0.0087054456 -0.14837906 -0.93064088 -0.33450148 0.00070952054
0.039582513 -0.013982219 0.0078006405 -0.14577225 -0.93947124 -0.31007117 0.00070297637
-0.037535984 -0.011069268 0.0073324284 0.17531434 -0.82896763 -0.53110975 0.0010045806
-0.035259843 -0.010937783 0.0078478297 0.16571142 -0.84675407 -0.50551683 0.0010621817
-0.032252833 -0.010601598 0.0082173506 0.15904279 -0.83208227 -0.5313611 0.00064207159
-0.029409826 -0.010386345 0.0086374823 0.14177479 -0.77264643 -0.61880326 0.006770337
-0.026564339 -0.0098154116 0.0084523968 0.13139312 -0.76692742 -0.6281386 0.005570543
-0.023625962 -0.0096968617 0.0088064438 0.10168555 -0.73652643 -0.6687218 0.0041240412
-0.020508673 -0.009362774 0.0087555675 0.07807526 -0.71764231 -0.69202155 0.0046864985
-0.01732585 -0.0093705337 0.009107451 0.072392471 -0.7007606 -0.70971406 0.0054675522
-0.014505321 -0.0093323309 0.0092605148 0.033924673 -0.69590479 -0.71733224 0.0064579067
-0.011504844 -0.0090772994 0.0090176184 0.0087085022 -0.6936298 -0.72027904 0.0070246798
-0.008597007 -0.0090780696 0.0090533365 -0.0028645438 -0.69693452 -0.71712905 0.0071034823
-0.0055445852 -0.0092269052 0.0091974009 -0.019109884 -0.70725638 -0.70669889 0.0063462784
-0.0024901025 -0.0093739051 0.009256443 -0.045610696 -0.72206569 -0.69031924 0.0056226412
0.00071142393 -0.009368822 0.009027658 -0.060495142 -0.73883927 -0.67116082 0.0050525228
0.003618665 -0.0093626091 0.0087477984 -0.061217874 -0.75316858 -0.65497285 0.0054183714
0.0065873265 -0.0096086981 0.0087781847 -0.08746323 -0.77090776 -0.63091302 0.0047802371
0.0093316566 -0.0097454647 0.008518124 -0.1124275 -0.79425853 -0.59708744 0.0063181673
0.012332489 -0.010053552 0.0084509412 -0.11153816 -0.80765587 -0.57900882 0.0079646213
0.015349271 -0.010521065 0.00856419 -0.10993934 -0.8590731 -0.49990672 0.0009774653
0.018557094 -0.010830101 0.0082709631 -0.1295851 -0.86483032 -0.48505282 0.001279448
0.021600913 -0.011083088 0.0078627132 -0.14112143 -0.86167449 -0.48744416 0.0013079406
0.023315338 -0.011069 0.0073217889 -0.13083072 -0.83997124 -0.52662295 0.001139028
-0.023046216 -0.0081711607 0.0073111495 0.11134505 -0.51883376 -0.84759295 0.0059510907
-0.020315485 -0.0079112835 0.0074935397 0.094887026 -0.65005565 -0.75393909 0.0052703675
-0.017264364 -0.0075977324 0.0076311072 0.075452998 -0.49809426 -0.8638339 0.0043153735
-0.01430507 -0.0073544057 0.0076680603 0.03169582 -0.49344468 -0.86919945 0.0040078722
-0.011467442 -0.0073093772 0.0077107912 0.004220522 -0.48557371 -0.8741855 0.0035895745
-0.0085670408 -0.0073091779 0.0076990193 -0.0025826436 -0.48322666 -0.87549144 0.0036168266
-0.0057275156 -0.0073544197 0.0076694125 -0.021813253 -0.4976905 -0.86708039 0.0046224324
-0.0024765211 -0.0075979931 0.007645525 -0.052374732 -0.50852883 -0.85945058 0.005447132
0.00071334466 -0.0078863157 0.0075659323 -0.072168373 -0.5094105 -0.85749203 0.0064087617
0.0033634382 -0.0080076372 0.0074151596 -0.072861776 -0.51616532 -0.8533842 0.0085997367
0.0056389328 -0.0081697702 0.0072402796 -0.097264804 -0.52634358 -0.84469038 0.0085814018
-0.074647993 0.012695342 0.0074576577 -0.34056845 0.91550374 -0.21416354 0.0011161134
-0.07115823 0.013852626 0.007386758 -0.27085868 0.93890893 -0.21233343 0.00029027977
-0.068237431 0.0148539 0.008481387 -0.23921645 0.95094258 -0.19617239 0.00025152494
-0.064546086 0.015603624 0.007746174 -0.20354089 0.95912802 -0.19658205 0.00033156277
-0.034052826 0.015587106 0.0072579822 0.097811736 0.68143708 -0.72531128 0.0028179036
-0.032329731 0.015594029 0.0074624261 0.1024074 0.71153843 -0.69514441 0.0011745527
-0.029315934 0.015343082 0.0076589091 0.106233 0.68623632 -0.71957922 0.00090616703
-0.02642292 0.01511646 0.0078463713 0.10630839 0.66951132 -0.73515517 0.00085195567
-0.023628145 0.014792229 0.0079609947 0.093690768 0.66011268 -0.74530077 0.00087783119
-0.020411203 0.01433412 0.0079433713 0.07360135 0.60123754 -0.79567355 0.0012702128
-0.017364966 0.01412229 0.0080591878 0.062176947 0.59304059 -0.80276835 0.0011763576
-0.014332997 0.013923435 0.008100763 0.051605992 0.57920158 -0.81354922 0.0010462613
-0.011480655 0.01387728 0.0081733866 0.026802475 0.57017791 -0.8210839 0.00084060832
-0.0085784802 0.013878603 0.0082169157 0.00043920224 0.5931021 -0.80512714 0.0019223425
-0.0056748511 0.013878259 0.0082048886 -0.010631253 0.59428233 -0.80418617 0.0015190186
-0.0024806361 0.013876488 0.0081449328 -0.026943816 0.61288857 -0.78970975 0.0016600337
0.00066438667 0.01392423 0.0081249271 -0.027225563 0.63026237 -0.77590472 0.0019084576
0.0036157281 0.01416719 0.0081703905 -0.04692661 0.61072379 -0.79045188 0.00088152656
0.0064560976 0.014208312 0.0080175977 -0.05265623 0.61805701 -0.78436786 0.00086643588
0.0094187176 0.014451508 0.0079890843 -0.061727427 0.63085151 -0.77344424 0.0011564356
0.012321728 0.014800728 0.0080150524 -0.07812877 0.69923389 -0.71061099 0.0010587944
0.015425405 0.0150639 0.0079225339 -0.087212071 0.71623701 -0.69238609 0.00103705
0.018695988 0.015314219 0.0077592069 -0.095689192 0.73316526 -0.67328471 0.00095390494
0.021591101 0.01560007 0.0076410072 -0.091027007 0.75318712 -0.65147769 0.00088472647
0.023895642 0.015589818 0.0073383292 -0.079399318 0.7493239 -0.65742636 0.0012161107
-0.065682769 0.015663967 0.0095288595 -0.22251859 0.95722729 -0.18493626 0.00020265633
-0.061981559 0.01619496 0.0080665788 -0.19558991 0.96092546 -0.19587487 0.00034659504
-0.059451226 0.016797278 0.0086649051 -0.16955671 0.96469629 -0.20152342 0.00063631084
-0.055976678 0.017382532 0.0087701818 -0.11543817 0.96890384 -0.21885943 0.00098443718
-0.053346321 0.017670743 0.008686184 -0.088837102 0.96782523 -0.23541948 0.0018457987
-0.050455917 0.017964842 0.0087933624 -0.044192821 0.95063895 -0.30713615 0.0028761481
-0.04721529 0.017769173 0.0080228718 0.0059982752 0.91677308 -0.39936334 0.0081289345
-0.044532001 0.01800254 0.0088005261 0.034177337 0.88712722 -0.46025774 0.0059575792
-0.041396316 0.017782431 0.0087913685 0.079822399 0.84431809 -0.52986348 0.0050767181
-0.038377117 0.017275074 0.0084677627 0.10680721 0.79275984 -0.60010326 0.0048925257
-0.035403945 0.017045029 0.0085947169 0.084992319 0.76268744 -0.64115858 0.0012792054
-0.032536361 0.01700112 0.008911903 0.078222208 0.77377993 -0.62860644 0.0012878481
-0.029543497 0.016813351 0.0090904813 0.085308492 0.75599855 -0.64899057 0.0010101327
-0.026786724 0.016734077 0.0093760444 0.092471719 0.73796403 -0.66847444 0.00092473277
-0.023393769 0.016472176 0.0095718456 0.088838331 0.72390646 -0.68415433 0.00090887927
-0.020492608 0.016000103 0.0094163381 0.069749348 0.67383748 -0.73558003 0.00075209991
-0.017347503 0.015958728 0.0096268998 0.055346478 0.66661841 -0.74334162 0.00088450481
-0.014440548 0.015964247 0.0097869001 0.032995492 0.69976074 -0.71361494 0.0013752929
-0.011528815 0.015966564 0.009853919 0.015107863 0.69665956 -0.71724272 0.0015618915
-0.0087442193 0.015934039 0.009849946 0.0056036026 0.69848955 -0.71559834 0.00177496
-0.005696943 0.015667161 0.0096231364 -0.0014120414 0.70146763 -0.71269995 0.0015629296
-0.0022030075 0.015867565 0.009800286 -0.0064850966 0.71678805 -0.69726092 0.0019719147
0.0009604654 0.015837928 0.0097455736 -0.014792805 0.67792171 -0.73498529 0.00097371306
0.0036238667 0.015962189 0.0097270692 -0.033035439 0.68722826 -0.72569001 0.0012771038
0.0065352609 0.015956709 0.0095677488 -0.042105567 0.69984275 -0.7130549 0.0012002883
0.009444776 0.015951458 0.0094156377 -0.053664275 0.71003699 -0.70211661 0.0012711292
0.012359557 0.016305417 0.0095408605 -0.065567516 0.76630265 -0.63912529 0.0011884095
0.015427667 0.016509337 0.0094730128 -0.070683382 0.77708656 -0.62541199 0.00077095511
0.018705687 0.016624829 0.0092469221 -0.076708056 0.78855783 -0.61015779 0.00052544789
0.021659339 0.016815212 0.0091384687 -0.074829414 0.80479294 -0.5888198 0.00062080665
0.024550488 0.016802397 0.0087866941 -0.067135647 0.79732823 -0.59980047 0.0015585128
0.02754692 0.016991733 0.0086519392 -0.075561821 0.81111932 -0.57997906 0.0014455183
0.030249689 0.017240025 0.0085893376 -0.077285051 0.82676935 -0.55720687 0.0012715022
0.033277266 0.01740489 0.0083191572 -0.073734961 0.84628642 -0.52760053 0.0020029424
0.036556419 0.017678555 0.0082131904 -0.040030926 0.90321416 -0.42731917 0.0034112295
0.039356437 0.017770372 0.0080529889 -0.078148343 0.8978911 -0.43322548 0.0033487584
0.042505719 0.017935168 0.0080334442 -0.090919413 0.90096617 -0.42425653 0.0019072535
0.044866502 0.017950768 0.0084327599 -0.01532354 0.92714906 -0.37437916 0.001802824
0.051149465 0.017333508 0.0074718734 0.00069813058 0.94022065 -0.34056503 0.0015026621
-0.057104994 -0.015829965 0.010744377 0.13925603 -0.96746069 -0.21125215 0.00031187927
-0.052368559 -0.015227036 0.010205193 0.15610394 -0.94691443 -0.28104228 0.0014401597
-0.050498441 -0.015279795 0.011706217 0.16750625 -0.94703072 -0.27399719 0.00054585654
-0.047671553 -0.01477003 0.011458088 0.17083274 -0.9416911 -0.28988621 0.00074879645
-0.045038193 -0.014726882 0.012661292 0.13117985 -0.95486534 -0.26650351 0.0019180333
0.034144282 -0.014730826 0.012777869 -0.11361933 -0.95586431 -0.27095041 0.0004883121
0.036392745 -0.014688561 0.01152903 -0.13245399 -0.95551223 -0.26353797 0.00061515369
0.03925439 -0.015092543 0.011913974 -0.12311113 -0.959912 -0.25181851 0.00031794899
0.042489257 -0.015256074 0.011031264 -0.12221121 -0.95619112 -0.26601309 0.00020756845
0.051602103 -0.015858525 0.011527934 -0.085805655 -0.98733228 -0.13346259 0.00050743396
0.053209458 -0.015811622 0.010241075 -0.084103711 -0.98813814 -0.12848996 0.00022746106
-0.044568431 -0.014084443 0.010941733 0.15209906 -0.9363355 -0.31645158 0.0012481885
-0.041426729 -0.013816726 0.011691038 0.14281644 -0.92359215 -0.35578212 0.00091757969
-0.038587265 -0.013304425 0.011460787 0.12232478 -0.92094976 -0.36998415 0.00062475051
-0.035534009 -0.01304989 0.011832146 0.12595458 -0.9009586 -0.4152216 0.0004393183
-0.032538794 -0.012565114 0.011639314 0.12427416 -0.89017284 -0.43834713 0.00098096114
-0.029718831 -0.012217156 0.011630521 0.096062273 -0.88493919 -0.45569152 0.00065082969
-0.026390426 -0.012043263 0.012009202 0.077334449 -0.87171865 -0.48386562 0.00064309151
-0.023544103 -0.012007284 0.012393287 0.063935541 -0.86666465 -0.49477744 0.00071306946
-0.020392958 -0.01178697 0.012386187 0.055245809 -0.85895461 -0.50906271 0.0007661673
-0.017476434 -0.011796198 0.012723591 0.053006493 -0.85556138 -0.51498067 0.00058939599
-0.014554767 -0.011804819 0.013039191 0.043393753 -0.85512722 -0.51659882 0.00046561452
-0.012797655 -0.011808038 0.013156517 0.037628327 -0.88574922 -0.46263659 0.00052548089
-0.0025229442 -0.011807613 0.013141363 -0.025646778 -0.88431233 -0.46619081 0.0011290928
0.00070624147 -0.011803681 0.012997498 -0.029045874 -0.87745804 -0.47877309 0.00082492514
0.0036393879 -0.011796221 0.01272455 -0.042818721 -0.88007832 -0.47289392 0.00092745916
0.006568443 -0.0117876 0.012409147 -0.052311692 -0.88536787 -0.46193862 0.0008916817
0.0094918711 -0.01177665 0.012008765 -0.05287338 -0.89445406 -0.44402274 0.00077829225
0.012425723 -0.012076405 0.012240707 -0.062204964 -0.90321022 -0.42466658 0.00050681666
0.015336307 -0.012059482 0.011634903 -0.10382529 -0.90571457 -0.41097605 0.00064111955
0.018363521 -0.012452524 0.011725596 -0.11531973 -0.91324383 -0.39075175 0.00051650376
0.0213769 -0.012738157 0.011502015 -0.10335092 -0.92400408 -0.36815092 0.00043012784
0.024549102 -0.013262742 0.011840726 -0.11759393 -0.92412972 -0.36353251 0.00050922035
0.027620262 -0.013519667 0.011548644 -0.11044154 -0.94035888 -0.32175761 0.00069483812
0.030330714 -0.013887967 0.0116316 -0.12308814 -0.94245136 -0.31086135 0.00060944021
0.033423401 -0.014083362 0.010908374 -0.12805127 -0.95037872 -0.28351951 0.00077900547
-0.026427571 -0.011150461 0.010450698 0.090051197 -0.84530497 -0.52664053 0.0015104406
-0.023535172 -0.011162569 0.010915825 0.076519117 -0.85146219 -0.51880348 0.0008241433
-0.020317942 -0.01086856 0.010828533 0.063606679 -0.84250414 -0.53492141 0.00057386846
-0.017413206 -0.010878133 0.011205437 0.054151025 -0.84158522 -0.53740305 0.00054604589
-0.014389552 -0.010802372 0.011355489 0.041406158 -0.84434474 -0.53419811 0.00046531684
-0.011567836 -0.010586658 0.011217969 0.02810928 -0.8492372 -0.52726287 0.00042129069
-0.0086451909 -0.010586984 0.011230749 -0.008890776 -0.82065517 -0.57135469 0.0039480459
-0.0058583058 -0.010679235 0.011327398 -0.028756831 -0.82539046 -0.56382936 0.0038976679
-0.002508967 -0.010885325 0.011488322 -0.032618254 -0.86046094 -0.50847137 0.00055077299
0.00070848654 -0.010880089 0.011281489 -0.036889728 -0.86211067 -0.50537544 0.00078424253
0.0036303424 -0.010872829 0.010994645 -0.050619297 -0.86534637 -0.49861151 0.00087671925
0.0063582053 -0.011069059 0.01105823 -0.063739628 -0.8689881 -0.49071079 0.00085321692
0.0094701452 -0.011160078 0.010820021 -0.072325505 -0.87715209 -0.47473502 0.000768447
0.01208826 -0.011148829 0.010388075 -0.090708084 -0.85569614 -0.50946653 0.0010034051
-0.065421641 0.016030222 0.01169908 -0.20153265 0.96434808 -0.171515 0.00024735776
-0.062375784 0.016585596 0.010860293 -0.19825293 0.96563482 -0.1680627 0.00020620975
-0.058357336 0.017481044 0.011379852 -0.1591873 0.97374505 -0.16272688 0.00030551915
-0.057628632 0.017439723 0.010285391 -0.15917201 0.97374552 -0.16273901 0.00031316202
-0.053939834 0.01805551 0.011115029 -0.11132444 0.98156857 -0.15533808 6.4099477e-05
-0.047161907 0.018619141 0.010598723 0.010043125 0.95761794 -0.28786638 0.0067299376
-0.038393818 0.018614348 0.010479953 -0.027765367 0.88715976 -0.46062627 0.0056028902
-0.035501007 0.01862674 0.010787108 0.051030941 0.82439494 -0.56370997 0.0031584962
-0.032576121 0.018390529 0.010715683 0.056774534 0.80380881 -0.59217238 0.0013964493
-0.02964313 0.018032841 0.010534802 0.068666197 0.78244907 -0.61891711 0.0011853811
-0.026301064 0.017895959 0.010763655 0.077053219 0.76583713 -0.63840133 0.0010287233
-0.023402678 0.017729588 0.010922598 0.077510871 0.80365866 -0.59002095 0.0022839375
-0.020243391 0.017509386 0.011010139 0.06240366 0.78406477 -0.61753386 0.0015339778
-0.01741351 0.0174753 0.011211548 0.043388601 0.77932483 -0.62511623 0.0014428842
-0.014496902 0.017482089 0.011391077 0.025510123 0.7813307 -0.62359571 0.0015079195
-0.011574722 0.017484594 0.011457189 0.014245667 0.78533483 -0.61890727 0.0015921723
-0.008576585 0.017410483 0.011426414 0.01306869 0.78753078 -0.61613673 0.0018128523
-0.0057216287 0.017183125 0.011201342 0.0033261625 0.75208747 -0.65905493 0.0030052704
-0.0026328957 0.017314637 0.011371852 0.0055687595 0.74846953 -0.66314578 0.001762473
0.00061132899 0.017284773 0.0113161 -0.0061730323 0.75894469 -0.65112585 0.0021336551
0.0036331681 0.01748641 0.011503358 -0.017171739 0.79569942 -0.60544842 0.00046975928
0.0065567018 0.017482307 0.011395181 -0.028137149 0.80117607 -0.59776688 0.00045007205
0.0094773127 0.017475145 0.011204682 -0.042451132 0.81226307 -0.58174443 0.00076035294
0.012254262 0.01762086 0.011197958 -0.054396991 0.8206082 -0.56889641 0.00086994976
0.015321039 0.017764416 0.011137636 -0.058105469 0.83088398 -0.55340368 0.00074285571
0.018392429 0.017780391 0.010862082 -0.056310583 0.84037119 -0.53907818 0.00068005233
0.021737417 0.018045239 0.010852154 -0.055073082 0.85372412 -0.51780492 0.00090764742
0.024640296 0.018031945 0.010511556 -0.060564935 0.85832781 -0.50951469 0.00097673165
0.026667509 0.018021032 0.01023215 -0.065944456 0.87600982 -0.47776359 0.0018792258
0.030793149 0.018630505 0.01088032 -0.078069784 0.86743212 -0.49139252 0.0016265148
0.033398069 0.018616961 0.01054485 -0.040562585 0.87173212 -0.48830098 0.0020346292
0.036322542 0.018619828 0.010615673 -0.025548525 0.8983466 -0.43854392 0.003051176
0.038097691 0.018631667 0.010908796 -0.043614604 0.91244024 -0.40687907 0.0025649599
-0.049386207 0.018684059 0.012207552 -0.044371717 0.98156536 -0.18590491 0.001089118
-0.048420757 0.018652543 0.011426791 -0.052250031 0.96012592 -0.27464178 0.0040974095
-0.040919673 0.019282797 0.012516046 -0.059314221 0.95764583 -0.28177345 0.0053141536
-0.038552862 0.019272642 0.012272372 -0.048445825 0.92051834 -0.38768405 0.006553194
-0.035608806 0.019265473 0.012100192 0.084056981 0.91943485 -0.38415366 0.0072882315
-0.03242049 0.019093528 0.01198174 0.028687393 0.93039751 -0.36542779 0.0081433589
-0.02958807 0.018997645 0.012053152 0.029744083 0.89650905 -0.44202584 0.0052109291
-0.026408391 0.018954396 0.012298348 0.045774397 0.86775017 -0.49488834 0.0028584548
-0.023579177 0.01886192 0.012458832 0.048156135 0.84195149 -0.53739989 0.0027290604
-0.020399954 0.018697079 0.012530269 0.045735788 0.81592262 -0.57634938 0.0023621721
-0.017479034 0.018707355 0.012784817 0.040640153 0.80745697 -0.588525 0.0017415558
-0.014552061 0.018714465 0.012960895 0.028210709 0.80917507 -0.58688986 0.0017536859
-0.011620747 0.018718621 0.013063897 0.02007716 0.81450123 -0.57981449 0.0017783217
-0.0086877514 0.018722318 0.013155558 0.0075746276 0.81318676 -0.58195353 0.0016572379
-0.0057524005 0.018722937 0.013171073 0.010219047 0.83180863 -0.55496848 0.0046630949
0.0077519882 0.018723339 0.013180747 -0.023573283 0.8158499 -0.57778299 0.00051647483
0.0095116468 0.018719545 0.013086929 -0.025289003 0.82429737 -0.56559199 0.00097774691
0.012442167 0.018711941 0.012898632 -0.037852637 0.84025645 -0.5408662 0.0008476355
0.01536637 0.018699517 0.012590738 -0.049539961 0.84859699 -0.52671522 0.00075128401
0.018286183 0.018686518 0.012268277 -0.055878121 0.85218072 -0.52025533 0.00062287372
0.02165564 0.018833213 0.012266557 -0.045421403 0.86438811 -0.5007695 0.00074470986
0.024970088 0.018843902 0.012012044 -0.044358656 0.88333941 -0.46663019 0.0018161071
0.027424663 0.018755822 0.01156191 -0.05355965 0.88638246 -0.45984504 0.0014120729
0.029350124 0.018641576 0.011155023 -0.060374994 0.88359481 -0.46434373 0.0012956641
0.038703203 0.018641979 0.011164649 -0.043612644 0.91244018 -0.40687945 0.0025641613
-0.047285844 -0.015377347 0.014481886 0.13493183 -0.96147305 -0.23950547 0.0010883232
-0.044414848 -0.014975965 0.014206176 0.10964604 -0.97118449 -0.21160923 0.0013212548
-0.041406561 -0.014791863 0.014581361 0.098572657 -0.96682155 -0.2356685 0.0022005741
-0.038861856 -0.014831975 0.015766505 0.054663252 -0.96964365 -0.23833412 0.0018115351
0.028174732 -0.014839329 0.015983669 -0.055181585 -0.97656006 -0.20805138 0.0010415015
0.030464189 -0.014801134 0.014855175 -0.094577491 -0.97278535 -0.21152744 0.0010860325
0.033479232 -0.014982213 0.014386945 -0.12078243 -0.97271109 -0.19810276 0.00048798328
0.036643215 -0.015386383 0.014739075 -0.10859742 -0.9721539 -0.2076617 0.00029755055
0.038314171 -0.015344531 0.013548507 -0.12091579 -0.96131104 -0.24750838 0.00028307096
0.049405314 -0.016007856 0.015624716 -0.069908865 -0.98877901 -0.13201809 0.00063310412
0.050125696 -0.015952051 0.014093324 -0.069909684 -0.98877901 -0.132018 0.00063438015
-0.038381763 -0.014173046 0.013664356 0.12674497 -0.9293322 -0.34681031 0.00095087464
-0.035389882 -0.01411843 0.014564333 0.11240555 -0.93943316 -0.32377502 0.00052406586
-0.032451 -0.013887657 0.01475329 0.089979693 -0.93782151 -0.33525285 0.0009871443
-0.029319271 -0.013431213 0.014363646 0.06533017 -0.93294853 -0.35403255 0.0012078624
-0.026387434 -0.013319353 0.014565279 0.073951006 -0.90768069 -0.41309452 0.00067536969
-0.023305388 -0.013177831 0.014739853 0.058332518 -0.90787011 -0.41517374 0.00064712553
-0.020592147 -0.01280288 0.014290259 0.05080425 -0.90582168 -0.4206019 0.00072618679
-0.017549228 -0.012727617 0.014471556 0.045818821 -0.9054088 -0.42206115 0.00077149872
-0.014614997 -0.012735881 0.014753385 0.032410592 -0.90374666 -0.42683896 0.00081066455
-0.01157812 -0.01247692 0.014507885 0.03483085 -0.88732225 -0.45983255 0.00050677301
-0.0087185306 -0.012436046 0.01454682 0.0105687 -0.89103466 -0.45381218 0.00041536844
-0.0055666119 -0.012472208 0.014599 -0.013719697 -0.8956368 -0.44457445 0.00037781894
-0.0022445356 -0.012745556 0.015082185 -0.012601839 -0.91436642 -0.40469146 0.00077577081
0.00070373155 -0.01274275 0.014986227 -0.01690167 -0.91061616 -0.41290751 0.00032995336
0.003650221 -0.012737445 0.014804619 -0.022377696 -0.9173401 -0.397475 0.00047834529
0.0065930402 -0.012728721 0.014506671 -0.034013439 -0.9238717 -0.38118762 0.00041697244
0.0095312623 -0.012718788 0.014167466 -0.053730547 -0.92503196 -0.37607029 0.00056628819
0.012744774 -0.013203322 0.014900417 -0.059597135 -0.9297263 -0.36339673 0.00046880156
0.015432949 -0.013324506 0.014728117 -0.08003436 -0.93602777 -0.34270459 0.00021787141
0.018175663 -0.013514536 0.014534076 -0.099760763 -0.93385088 -0.34346795 0.0002535505
0.021453027 -0.013879006 0.014665685 -0.086887836 -0.95306617 -0.29002652 0.00081848755
0.024278173 -0.014212668 0.014881923 -0.095255576 -0.95687217 -0.27444863 0.00052927353
0.027160686 -0.014176222 0.013761976 -0.11001571 -0.94929075 -0.29452261 0.00077614305
-0.059210282 0.017556533 0.013379737 -0.17942333 0.97300529 -0.14514825 0.00028070784
-0.055700824 0.018148601 0.013498708 -0.12737961 0.98106718 -0.14588186 0.00021942738
-0.050739445 0.01874759 0.013782277 -0.075411811 0.98409361 -0.16085 0.0010043634
-0.043797359 0.019382901 0.014919384 -0.033437688 0.97502327 -0.21957126 0.0025940679
-0.042495139 0.019329913 0.013647138 -0.031334717 0.97482461 -0.22076054 0.0026719372
-0.032038171 0.019989271 0.015313766 -0.018234693 0.95919663 -0.28215149 0.0050321883
-0.029338054 0.019960584 0.014646103 0.0013806683 0.93533969 -0.35374802 0.0043483386
-0.026393631 0.01996118 0.014660015 0.017402695 0.90258765 -0.43015429 0.0024096288
-0.0232119 0.019728551 0.014371245 0.043042678 0.86217302 -0.50478214 0.0010415632
-0.020483188 0.019650094 0.014257946 0.043279056 0.84291267 -0.5363071 0.00067855837
-0.01754906 0.019658865 0.014464374 0.02883023 0.83693284 -0.5465458 0.00055640168
-0.0146119 0.019667296 0.014665033 0.02624277 0.8338213 -0.55141038 0.00044656196
-0.011671251 0.019674469 0.014833151 0.020227512 0.83763015 -0.54586309 0.00049332867
-0.0087280981 0.019680612 0.014978369 0.030240498 0.85623032 -0.51570839 0.002090954
-0.00568981 0.019449929 0.014501662 0.032321196 0.87167245 -0.48902208 0.0032798199
-0.0023935961 0.019010786 0.013674815 0.029671205 0.88975585 -0.45547137 0.0042839679
0.0007053524 0.019041218 0.01376489 0.030127069 0.89381164 -0.44742951 0.0091831265
0.0036449898 0.019041641 0.013775315 -0.050464466 0.89508551 -0.4430297 0.008828545
0.0064543001 0.01907496 0.013791999 -0.085470408 0.88075739 -0.46579093 0.0083990442
0.0095324786 0.019353688 0.014217819 -0.022618582 0.8489098 -0.52805346 0.0001616097
0.012472447 0.019350097 0.014131631 -0.032615453 0.85841787 -0.51191306 0.00026821485
0.015408921 0.019342398 0.013946786 -0.049539793 0.84859937 -0.52671152 0.00075453887
0.018335784 0.019327365 0.013585981 -0.055862747 0.85218841 -0.52024442 0.00062172284
0.020672956 0.019313991 0.013264868 -0.045411553 0.86438912 -0.5007686 0.00074643316
0.023903202 0.019314136 0.013268403 -0.03001889 0.88201904 -0.47025663 0.0016696256
0.02713621 0.019316405 0.013322695 -0.04586162 0.88962591 -0.45438161 0.0013599934
-0.044329502 -0.015476475 0.017302388 0.092167817 -0.97961533 -0.17849037 0.00080955704
-0.042400036 -0.015529105 0.018799854 0.092009775 -0.98295802 -0.15914689 0.00046856963
-0.037441775 -0.014854245 0.016424252 0.0680255 -0.97172379 -0.22610922 0.0029622528
-0.035442114 -0.014883879 0.01730022 0.055165324 -0.96762741 -0.24628045 0.002225901
-0.032550175 -0.014915997 0.018249227 0.074208185 -0.95685327 -0.28093576 0.0003521753
-0.030514866 -0.014936656 0.018859474 0.073950574 -0.95726997 -0.27958077 0.00044452271
0.021805912 -0.014937498 0.018884433 -0.082318701 -0.96738458 -0.23956342 0.00017238552
0.024422411 -0.014898307 0.017726453 -0.078650005 -0.96975321 -0.23106949 8.8691326e-05
0.026736349 -0.01486278 0.016676448 -0.057276919 -0.97681886 -0.20626257 0.00093747536
0.031627912 -0.015537948 0.019051624 -0.089201182 -0.98330414 -0.15860684 0.00034633378
0.033304222 -0.015484677 0.017535442 -0.082240701 -0.98590225 -0.1457161 0.00015806036
-0.029167885 -0.014265545 0.016506715 0.070334375 -0.94640636 -0.31522712 0.0016701327
-0.026544321 -0.01428586 0.017130895 0.063461207 -0.9589662 -0.27632672 0.00088123302
-0.023609329 -0.014301575 0.017613882 0.068676487 -0.95937622 -0.27364361 0.0010314757
-0.020498954 -0.014029069 0.017315099 0.052973766 -0.95219296 -0.30086946 0.0026891066
-0.017680679 -0.014006184 0.017627595 0.025046302 -0.95402992 -0.29866296 0.0024918821
-0.014727643 -0.014016767 0.017958896 0.0070847818 -0.95051038 -0.3106119 0.0027446863
-0.011944436 -0.013802538 0.017445542 0.025600778 -0.92269927 -0.38466954 0.00045524957
-0.0084839677 -0.013699971 0.017336387 0.008651251 -0.92941213 -0.36894202 0.00042226067
-0.0052251182 -0.01370045 0.01735157 0.0022715477 -0.93493009 -0.35482454 0.00032971628
-0.0022623336 -0.013700858 0.017364664 -0.010686453 -0.93444276 -0.35595298 0.00029810588
0.00070078077 -0.01369758 0.017259689 -0.013114408 -0.93694806 -0.34922248 0.00016648596
