# .PCD v0.7 - Point Cloud Data file format
VERSION 0.7
FIELDS x y z normal_x normal_y normal_z curvature
SIZE 4 4 4 4 4 4 4
TYPE F F F F F F F
COUNT 1 1 1 1 1 1 1
WIDTH 551
HEIGHT 1
VIEWPOINT 0 0 0 1 0 0 0
POINTS 551
DATA ascii
0.086922511 0.019737136 -0.0020680088 0.41601557 0.38033783 -0.8259989 0.008927444
0.089059599 0.018983666 -0.0012753771 0.45686811 0.38906676 -0.79993659 0.0077037113
-0.020422881 0.021745261 -0.0018091879 -0.35621947 0.76660341 -0.53425372 0.00068549317
-0.017862394 0.022420529 -0.002497436 -0.33694446 0.792 -0.50912136 0.00076019653
-0.015264325 0.02323674 -0.0028970698 -0.3314364 0.79170805 -0.51317471 0.0011661715
-0.012609657 0.024084423 -0.0032608188 -0.30734745 0.79366577 -0.52500683 0.0011070594
0.0791343 0.024177585 -0.0036400175 0.39571109 0.61958832 -0.6778813 0.0012179253
0.081241019 0.023147713 -0.0031964439 0.43255714 0.54595488 -0.71751493 0.0060714143
0.083824731 0.022369172 -0.0021975506 0.45585132 0.5244137 -0.71915913 0.0063430262
0.086242214 0.021592624 -0.0013518175 0.44741961 0.57555646 -0.68450743 0.0042239404
-0.014600776 0.024404962 -0.0015166795 -0.32868072 0.80735868 -0.49004158 0.0010148992
-0.011565633 0.025130808 -0.0022551306 -0.29812679 0.81674922 -0.49400511 0.0010120118
-0.0088458192 0.025855564 -0.0026372587 -0.28019482 0.82995868 -0.48234782 0.0016488531
-0.0060249069 0.026702698 -0.0027814098 -0.27166975 0.83457607 -0.47924766 0.001338794
-0.0036410983 0.02701807 -0.0035440938 -0.25089869 0.84469026 -0.47280893 0.0019400163
0.075451717 0.026683446 -0.0032118289 0.32409203 0.72090924 -0.61258 0.0013814188
0.078121677 0.025947683 -0.0024480894 0.38326967 0.70209563 -0.60013843 0.00064911973
0.080946088 0.024902571 -0.0017958765 0.42127031 0.65183395 -0.63058996 0.002228084
0.083040088 0.024321128 -0.0009506559 0.44000772 0.67300576 -0.594522 0.0011029785
-0.0050869496 0.027711779 -0.0014741337 -0.27271217 0.85903972 -0.43321916 0.0017187211
-0.0029590451 0.027912475 -0.002330692 -0.24223618 0.86717945 -0.43511078 0.0020630928
4.3798238e-05 0.028593406 -0.0025598272 -0.223783 0.8769474 -0.4253051 0.0016744724
0.0031691834 0.029348135 -0.0026031584 -0.22353226 0.88317114 -0.41236156 0.0010089746
0.0058149975 0.029789172 -0.0030886347 -0.22483505 0.87522757 -0.42828241 0.0010217461
0.066305146 0.029761985 -0.0034985607 0.20353033 0.76363766 -0.61272573 0.00047991786
0.069203384 0.029477544 -0.0027962415 0.23847528 0.79839468 -0.55289739 0.0013023994
0.072059035 0.028643895 -0.0026466586 0.28822413 0.77162677 -0.56702656 0.0025022088
0.074720383 0.028140638 -0.0019131964 0.33216456 0.74711341 -0.57575023 0.0013470004
0.076714277 0.027725819 -0.001244626 0.3625384 0.77647954 -0.51540804 0.0051736608
0.0065892958 0.030540913 -0.001765064 -0.22847538 0.87409347 -0.4286719 0.0010136134
0.0091342013 0.030764055 -0.0026711856 -0.18965963 0.89855826 -0.39575535 0.0012556552
0.012132084 0.03136088 -0.0027142614 -0.18476501 0.88575345 -0.42579657 0.0017431664
0.014973 0.031929303 -0.0027100989 -0.15335239 0.89511704 -0.41862699 0.0019092637
0.018150721 0.032389738 -0.0027814722 -0.13062519 0.87515944 -0.46586803 0.0014719912
0.02084654 0.032643784 -0.0030507958 -0.14875051 0.87251514 -0.46539301 0.0013702454
0.023287026 0.032677494 -0.0036987877 -0.10196561 0.85408199 -0.51004606 0.00046276071
0.029795069 0.03323203 -0.003864876 -0.05951767 0.83531773 -0.54653645 0.00057736982
0.041127503 0.03323153 -0.0038717007 0.040754907 0.8518067 -0.52226859 0.00050128531
0.048784837 0.032669917 -0.003802768 0.09032394 0.87766796 -0.47068092 0.0016740874
0.051107891 0.032610998 -0.0033154155 0.11316501 0.88204205 -0.45737904 0.0015208345
0.054008532 0.032459896 -0.0027922785 0.14333129 0.87113762 -0.46965456 0.00079833751
0.056894518 0.032102589 -0.002602085 0.13662322 0.87708133 -0.46050218 0.00087481679
0.060060099 0.031676419 -0.0024964553 0.13948233 0.86024058 -0.49043947 0.0016057867
0.06308388 0.031094071 -0.002600553 0.15740745 0.85734689 -0.49008071 0.0019476642
0.066042185 0.030803576 -0.0020917659 0.19018805 0.83843094 -0.51074654 0.0018584128
0.068700917 0.030561823 -0.0014562125 0.23581086 0.83232564 -0.50162464 0.0017567618
0.022239903 0.033376031 -0.001924268 -0.13313596 0.88838321 -0.43937466 0.00094721909
0.024190394 0.033318702 -0.0026969051 -0.091086932 0.86063766 -0.50100499 0.000361018
0.027240258 0.033526331 -0.0027750423 -0.089938127 0.85335594 -0.51351207 0.00052304473
0.029620368 0.033714574 -0.0028339159 -0.073340818 0.84100187 -0.53603828 0.00041576833
0.03297339 0.033862077 -0.0030253993 -0.024890115 0.85731304 -0.51419336 0.00067015475
0.036098693 0.033864576 -0.0029923297 0.0063660569 0.84001982 -0.5425185 0.0003906487
0.038955487 0.033879872 -0.0027896797 0.018499533 0.84872317 -0.52851367 0.00039863429
0.04229508 0.033643905 -0.0029114103 0.069649652 0.85369986 -0.51608676 0.00052597333
0.045222811 0.033610031 -0.002606181 0.088547766 0.87550324 -0.47502983 0.0014764287
0.047861874 0.033517245 -0.0022169694 0.095920764 0.88765293 -0.4504126 0.0010054233
0.050992072 0.033381194 -0.0018546856 0.10832502 0.89454329 -0.43365651 0.0014117644
0.052783091 0.033433665 -0.0011474406 0.12305492 0.89353126 -0.43180937 0.0012456544
-0.047638372 -0.024339385 0.0020617479 0.0066242586 -0.58040506 -0.81430095 0.0030953248
-0.04562217 -0.024336196 0.0020059529 0.082153201 -0.6111452 -0.78724355 0.002966308
-0.059475716 -0.021072619 0.0018202798 -0.25387701 -0.39177579 -0.88434052 0.00076008972
-0.056948546 -0.021631539 0.0015181736 -0.1688076 -0.44144216 -0.88126767 0.0007394217
-0.053983107 -0.022166405 0.001288367 -0.11804069 -0.46556535 -0.87710625 0.00045282443
-0.050917502 -0.022248898 0.001012675 -0.082584798 -0.47553638 -0.87581104 0.00032995714
-0.047839724 -0.022216953 0.00078554265 -0.054788031 -0.49542212 -0.86692286 0.00028916969
-0.044913065 -0.022259247 0.00071112579 -0.015578737 -0.52200985 -0.85279715 0.00086898304
-0.042092245 -0.022211533 0.00073928293 0.097454831 -0.60573858 -0.78967291 0.0045500812
-0.039144333 -0.021717686 0.00081806025 0.16450635 -0.69970828 -0.6952309 0.0060957037
-0.036250006 -0.021137435 0.0011987025 0.25965631 -0.73701763 -0.62400615 0.0037260747
-0.034131411 -0.020887386 0.0019448483 0.30482927 -0.75921077 -0.57504618 0.0045740311
-0.0621108 -0.018645212 0.0017368048 -0.35784632 -0.28411779 -0.88950723 0.0021499831
-0.059861276 -0.019128915 0.0011453056 -0.28055072 -0.3202906 -0.9048233 0.0013613445
-0.056892414 -0.019093312 0.00036304584 -0.20527864 -0.36084604 -0.90975314 0.0010735977
-0.053961743 -0.019067928 -0.00019541266 -0.16657382 -0.37561271 -0.91168439 0.00047123985
-0.051173877 -0.019438464 -0.00041272398 -0.12219693 -0.40850115 -0.90454113 0.00036170607
-0.048093494 -0.019736502 -0.00054857298 -0.062545203 -0.45321417 -0.88920462 0.00030704684
-0.044772372 -0.019903347 -0.00064018136 -0.029505823 -0.47282171 -0.88066399 0.00040379362
-0.041910913 -0.019899864 -0.00071364688 0.013092918 -0.50348479 -0.86390483 0.001341073
-0.038937446 -0.019935358 -0.00063453615 0.089331105 -0.56035519 -0.82342094 0.0035025489
-0.035789073 -0.019752987 -0.00020196405 0.17503411 -0.64485854 -0.74398971 0.0049481192
-0.032806329 -0.019307807 0.00043046055 0.27815792 -0.76351112 -0.58281976 0.0039959513
-0.030223934 -0.018533248 0.00063342694 0.2979733 -0.78939599 -0.53671771 0.0025676799
-0.027925735 -0.01813836 0.0014444748 0.349673 -0.81666416 -0.459117 0.0011557254
-0.062475998 -0.016272321 0.0013918201 -0.47688022 -0.1039751 -0.87279683 0.0068751522
-0.059737626 -0.016227767 0.00024844427 -0.33802319 -0.20476696 -0.9185918 0.0027229921
-0.057014111 -0.016437344 -0.0005387438 -0.26089185 -0.26968119 -0.92693442 0.0019851741
-0.054835159 -0.017136984 -0.0008147771 -0.16279368 -0.33526751 -0.92795151 0.00051586772
-0.029081153 -0.017338891 -0.00053299125 0.23756459 -0.72040057 -0.6516028 0.0029430252
-0.026765076 -0.016964223 0.00026848679 0.30874324 -0.80690217 -0.50357383 0.00293641
-0.023915578 -0.01594954 0.00044253655 0.31699586 -0.83299917 -0.45346013 0.001632352
-0.021367323 -0.015311104 0.0012469226 0.34698749 -0.83928221 -0.41857514 0.0010709633
-0.062294457 -0.013498894 0.0011837813 -0.58718503 0.11808094 -0.80079377 0.010049465
-0.059773367 -0.013426968 -0.00021260907 -0.43905732 -0.03379219 -0.89782333 0.0070591797
-0.0580662 -0.013712651 -0.00083310553 -0.37038434 -0.088619068 -0.92464161 0.0045059966
-0.020578669 -0.014336715 -7.8954967e-05 0.31993732 -0.84266669 -0.43307379 0.0020031231
-0.017993564 -0.01366412 0.00054379413 0.32387379 -0.8606289 -0.39296776 0.0015440976
-0.015304221 -0.01269184 0.00057950243 0.29953757 -0.87248784 -0.38605973 0.0010633008
-0.013154598 -0.012257534 0.0013896907 0.31426856 -0.8773753 -0.36255732 0.0015096074
-0.061838996 -0.011020968 0.0016197744 -0.65890592 0.30689785 -0.68677258 0.0053714542
-0.059814956 -0.010138089 0.0002130419 -0.58272636 0.21995611 -0.78233582 0.007895181
-0.013943998 -0.011623899 -0.00071015116 0.29018354 -0.84404063 -0.45098659 0.00069591869
-0.011744274 -0.011307601 0.00021302328 0.28912017 -0.88695627 -0.36016411 0.0016051754
-0.0088381898 -0.010519582 0.00069880672 0.29603779 -0.9045797 -0.3067528 0.0021341646
-0.0059004114 -0.0095121004 0.00046777073 0.28477675 -0.90818691 -0.30675501 0.0010450495
-0.0035715257 -0.0089191599 0.00083837751 0.27402982 -0.91598988 -0.29303601 0.0011674012
-0.059355829 -0.0073191905 0.0010810718 -0.64786339 0.38729259 -0.65595543 0.0010967101
-0.057563219 -0.0069689741 -0.00032694545 -0.5755412 0.30578029 -0.75845283 0.0027577009
-0.0022470709 -0.0082104383 -0.00017709192 0.27766424 -0.91292548 -0.29911467 0.0010929557
0.00015163468 -0.0077104392 0.00052018417 0.26669851 -0.91949326 -0.28879738 0.00087028346
0.003184218 -0.0067914519 0.00035468582 0.25254944 -0.9237833 -0.28782505 0.0010277377
0.0059517832 -0.0061269123 0.0005366737 0.23577049 -0.93443912 -0.26690015 0.00077772996
0.0077820197 -0.0059534712 0.0016678357 0.22479127 -0.93598258 -0.27093458 0.00081828644
-0.058800872 -0.0053812517 0.0017836774 -0.65866661 0.45420954 -0.5998767 0.00082236738
-0.056844078 -0.0043008002 0.00061166426 -0.61462265 0.41798389 -0.66897571 0.00071212754
-0.054864068 -0.0032538879 -0.00058813044 -0.61696905 0.42634782 -0.66149575 0.0011270941
0.0090948753 -0.0052637998 0.00022560684 0.23103486 -0.93116051 -0.28206903 0.00058145047
0.012180659 -0.0046281228 0.000562659 0.2060124 -0.9387868 -0.27611285 0.00047602251
0.015283952 -0.0039728265 0.00044651516 0.18837567 -0.94482243 -0.26800221 0.001404
0.018319614 -0.0034849243 0.00071115559 0.15982048 -0.95447499 -0.25186273 0.0012963654
0.020940172 -0.0030758698 0.000756016 0.1568938 -0.946648 -0.28149903 0.0010566869
-0.056126051 -0.0020499188 0.0015168274 -0.62761408 0.50709724 -0.59072232 0.00095618761
-0.054219164 -0.0011645211 0.00033378601 -0.6055069 0.48951453 -0.6274845 0.0016081022
-0.052163549 -0.00020823954 -0.0008865511 -0.55973125 0.48211858 -0.67399007 0.00064966117
0.021726878 -0.00249147 -0.00074619707 0.15689461 -0.946648 -0.28149888 0.0010564352
0.024269508 -0.0024180501 0.00029663928 0.15144883 -0.94864619 -0.27772957 0.00087801844
0.027028222 -0.0020240704 0.00043077115 0.13137443 -0.93702871 -0.32360154 0.0012010102
0.029949669 -0.001610795 0.0003754152 0.12649457 -0.9402138 -0.31622323 0.0014095122
0.033180211 -0.001192627 0.00034350995 0.10010162 -0.94125962 -0.32250571 0.0010741185
0.0358775 -0.0010143686 0.00065284315 0.093600407 -0.9486984 -0.30201054 0.0013706278
0.039345037 -0.00052941893 0.00021928409 0.093960717 -0.94057047 -0.326341 0.0016224206
0.042000536 -0.00046764198 0.0007551033 0.082774274 -0.94667476 -0.31137627 0.0012736297
0.044987343 -0.00021241186 0.00071299309 0.071188889 -0.95502859 -0.28784123 0.0033337432
0.047934342 -0.00021446217 0.0014989399 0.056754075 -0.97704327 -0.20534264 0.0018575522
0.049996983 -0.00021575717 0.0019964809 0.02407367 -0.95897609 -0.28246304 0.0043635424
-0.053217888 0.0011486381 0.0013106624 -0.60579455 0.54457283 -0.58004606 0.0011628503
-0.051357742 0.0021412987 0.00032986887 -0.60325044 0.56028837 -0.56759655 0.00054346735
-0.04934568 0.0032165092 -0.00058292504 -0.53306496 0.5444259 -0.64764351 0.00052604784
0.045410916 0.0003621073 -0.00075176521 0.074146345 -0.93501228 -0.3467772 0.0013083642
0.048034899 0.00036143209 -0.00023494312 0.09134382 -0.91701752 -0.38824645 0.00047867943
0.05141471 0.00057519483 -3.0319206e-05 0.085126154 -0.91777831 -0.38786143 0.00083073019
0.054095898 0.00064636907 0.00027452037 0.08008787 -0.91605461 -0.39297557 0.00093587843
0.057245988 0.00084384927 0.0004822053 0.070824564 -0.91273326 -0.40237036 0.0012842377
0.059934184 0.0010750885 0.00045006815 0.05217158 -0.90605199 -0.41993797 0.0014541959
0.063268654 0.0013282825 0.0004207138 0.066448055 -0.89453131 -0.4420388 0.0012667333
0.066135295 0.0015041764 0.00045365514 0.071903929 -0.87083322 -0.48629138 0.00065546774
0.06908191 0.0017329886 0.00051762909 0.085611776 -0.86935639 -0.48671371 0.00070618436
0.072052747 0.0020766491 0.00047953194 0.10310696 -0.86132103 -0.49748862 0.00090177334
0.074951902 0.0025138487 0.0004390385 0.12787613 -0.85264981 -0.50659257 0.00096524245
0.077969417 0.0027389363 0.00091469195 0.1585926 -0.83826166 -0.52169514 0.0011248633
0.081006736 0.0031314509 0.0014597508 0.19530553 -0.81787866 -0.54123026 0.001594279
0.083025903 0.0032301438 0.0020376528 0.21248221 -0.81432128 -0.54012233 0.0036225868
-0.050215334 0.0044382275 0.0014430964 -0.58707041 0.59290218 -0.55119443 0.00042845999
-0.048188437 0.0052234102 0.00023299921 -0.54331946 0.5831303 -0.60395616 0.0011353823
0.078269005 0.0037879017 -0.00051198062 0.19081953 -0.79346788 -0.57792443 0.0024419797
0.08106216 0.0042190608 -6.8775378e-05 0.22484033 -0.78604639 -0.5758279 0.0013739581
0.08411783 0.0047805645 0.00035935547 0.24122837 -0.73211247 -0.63704014 0.0037371258
0.086939983 0.0053117163 0.00080307573 0.26898807 -0.69200844 -0.6699028 0.002047631
0.089673124 0.0057124258 0.0014555771 0.29629031 -0.65811014 -0.69217277 0.0031850853
0.091613755 0.0061002863 0.0019054199 0.35893166 -0.62216628 -0.69575655 0.0026370278
-0.047046173 0.0070451992 0.0010174396 -0.54956919 0.62430006 -0.55517858 0.00064592395
-0.045039386 0.0080676675 0.00030260021 -0.53377694 0.61879796 -0.57634294 0.001052663
-0.043061711 0.0089250691 -0.00062077399 -0.51120526 0.61525893 -0.60010469 0.0014478398
0.087617002 0.0069995588 -0.00052339491 0.27735177 -0.53321713 -0.79922181 0.0046751988
0.090233415 0.0076641967 0.00012086099 0.37713993 -0.43658495 -0.81679797 0.0029650729
0.093014792 0.008040362 0.0011895518 0.41295764 -0.45668614 -0.78797442 0.0050336886
0.095041171 0.0089696087 0.0018231058 0.45824102 -0.43537202 -0.77489763 0.0040174569
-0.044268921 0.0096789263 0.0014058957 -0.53680348 0.6487909 -0.53936285 0.00056120451
-0.042021427 0.010661291 0.00041363668 -0.50495732 0.65943229 -0.55692655 0.0011234354
-0.039802343 0.011642807 -0.0003738692 -0.48666853 0.68494815 -0.54221743 0.00089403213
0.090750322 0.010064913 -0.00070730713 0.38109392 -0.25348976 -0.88910651 0.0037292945
0.092971466 0.01065457 0.00016070483 0.42753741 -0.20712535 -0.87994933 0.0023058683
0.095456712 0.01081666 0.0014948286 0.50161827 -0.21798062 -0.83717591 0.0023296732
-0.040728018 0.01270241 0.0018730098 -0.49679187 0.74686331 -0.44203281 0.0043969955
-0.038731229 0.013264499 0.0007366403 -0.47365329 0.72172147 -0.50474811 0.00096299802
-0.036198258 0.014284976 -0.0001600734 -0.46404934 0.71969253 -0.51643103 0.0013706763
-0.033909041 0.015197073 -0.0008556461 -0.43846264 0.7124663 -0.54785234 0.001010149
0.092968777 0.013633958 -0.00027043512 0.46476421 -0.055570927 -0.88368899 0.0021481859
0.095787853 0.013546634 0.0012890915 0.5193916 -0.002278185 -0.85453331 0.0029927683
-0.035636075 0.015676415 0.0012885244 -0.46226975 0.73971075 -0.48901403 0.0010038797
-0.03287936 0.016847908 0.00059281243 -0.43846968 0.76626694 -0.46965876 0.00055907294
-0.030543996 0.01775533 -4.3864828e-05 -0.4181537 0.76028997 -0.49709818 0.00086726365
0.091056719 0.017766695 -0.00080295559 0.39513391 0.2392147 -0.88693041 0.0067739217
0.093032286 0.016917938 1.4639925e-05 0.481435 0.22062957 -0.84825879 0.0046149949
0.095593601 0.016350398 0.0014061923 0.53808981 0.26182112 -0.80119228 0.0066546011
-0.029558426 0.01888055 0.00085357158 -0.41575596 0.78186995 -0.46457112 0.0014856422
-0.027017975 0.019897137 0.00037556002 -0.39209551 0.80095243 -0.45247796 0.0019285884
-0.02457845 0.020695332 -0.00039694668 -0.38947219 0.78389484 -0.48354965 0.0018969785
0.088230908 0.020911444 -0.00066547748 0.45752659 0.49819353 -0.73652744 0.0052175606
0.090253666 0.01998619 -7.7379867e-05 0.4392283 0.48122591 -0.75861722 0.0052921008
0.092739016 0.019462474 0.0010594195 0.48720098 0.49463341 -0.71970344 0.006942207
-0.023230582 0.021721333 0.00036165956 -0.38141325 0.80110449 -0.46125433 0.0011076244
-0.020981714 0.022667252 0.00020546187 -0.37331015 0.80962181 -0.45293725 0.0011827201
-0.018444622 0.023607261 -5.0531467e-05 -0.3416326 0.80608165 -0.48323852 0.00044430906
0.084838867 0.023489002 -0.00049413648 0.45471933 0.66334212 -0.59431267 0.00042380585
0.087152414 0.022750393 0.00051163184 0.45919439 0.66378832 -0.59036064 0.0050941831
0.089710437 0.021907594 0.0014134645 0.43488175 0.65535712 -0.61756366 0.0028879978
-0.01713833 0.024405483 0.00062974636 -0.32712188 0.81280166 -0.48202142 0.00053165527
-0.015111931 0.024944965 2.0476524e-05 -0.32867724 0.80736363 -0.49003607 0.0010115382
-0.011960495 0.025979761 -0.00021343585 -0.30681896 0.85205311 -0.42410815 0.00048981851
-0.0086244177 0.027017094 -0.00037971302 -0.28730369 0.85252303 -0.43664759 0.00075092673
0.078823984 0.027194284 -0.00060114916 0.37665302 0.74626666 -0.54883379 0.0029569273
0.081403524 0.026140604 2.0637177e-05 0.43391275 0.75206345 -0.49610507 0.0019821522
0.083936766 0.025090419 0.00077546481 0.46404913 0.71093392 -0.52842337 0.0021744533
0.08581429 0.024457548 0.0016053105 0.47755346 0.72218615 -0.5003897 0.0022477845
-0.0088352859 0.027263861 0.00056091789 -0.26973468 0.86312181 -0.42692384 0.00090694573
-0.0057734451 0.027992077 -1.0064803e-05 -0.25833833 0.88944978 -0.37701517 0.00058447535
-0.0029148706 0.028751373 -5.5384124e-05 -0.22933297 0.89474976 -0.383183 0.00057823979
-0.0004370613 0.029313557 -0.00020404812 -0.2302693 0.89728522 -0.37663677 0.00053033337
0.0026097428 0.030081201 -0.00011306163 -0.23158993 0.88906586 -0.39487734 0.00064393261
0.072594978 0.029926769 -0.00028956588 0.30079406 0.85029441 -0.43188229 0.001074554
0.075190172 0.029249843 0.00028086547 0.33221689 0.85043955 -0.4079026 0.00061667466
0.077930205 0.028184883 0.00040654931 0.3618179 0.80749321 -0.46587816 0.0025340014
0.080422699 0.027441882 0.0011372874 0.4320583 0.78317869 -0.44716537 0.0017017144
0.0051777754 0.030622914 -0.00055345055 -0.23772977 0.87779725 -0.41588041 0.0006641667
0.007742512 0.031172652 -0.00086136814 -0.19221121 0.89786363 -0.39610073 0.001128629
0.012036268 0.032066043 -0.00033538695 -0.1649919 0.914262 -0.3700037 0.00060512155
0.017443465 0.032887008 -0.00082474109 -0.15422487 0.90065497 -0.40624538 0.0010136833
0.057693627 0.03289941 -0.00065454002 0.13834044 0.87974304 -0.45487812 0.0006857118
0.059922967 0.032849085 0.00022030715 0.13903923 0.8872214 -0.43989345 0.00050700951
0.062910445 0.032368552 -9.6200965e-05 0.15408227 0.87586534 -0.45729485 0.00065644085
0.065818541 0.03191673 0.00024692575 0.17090623 0.87442994 -0.45405212 0.00089754327
0.06915056 0.031151626 0.0002129362 0.25516197 0.86017519 -0.44157785 0.0015219897
0.071635835 0.030717578 0.00084488187 0.30082887 0.85029721 -0.43185261 0.001035365
0.048888877 0.034070697 -0.00026219245 0.1067766 0.90136367 -0.41969296 0.0010015548
0.054038391 0.033503827 -0.00020191236 0.12758437 0.89458096 -0.42830747 0.0011181273
-0.059220415 -0.026813075 0.0048820563 -0.16850089 -0.52659768 -0.83324802 0.00027476717
-0.056878023 -0.027087472 0.0046484349 -0.12726955 -0.5541541 -0.82262731 0.00029755125
-0.054091923 -0.027585343 0.0046302602 -0.086128809 -0.57083559 -0.81653464 0.00029175365
-0.05094365 -0.027803022 0.0045437226 -0.012038684 -0.60841006 -0.79353154 0.0017393236
-0.048147365 -0.027704015 0.0045021605 0.10801013 -0.68529063 -0.72021568 0.0049987002
-0.045090206 -0.027028594 0.0046311524 0.24354933 -0.72396731 -0.64541072 0.0045322808
-0.065194063 -0.024115857 0.0048863571 -0.37730512 -0.37614751 -0.84625882 0.0037184951
-0.062784553 -0.024752427 0.0044903336 -0.24228182 -0.4414866 -0.86393809 0.0012334943
-0.059900414 -0.025024548 0.003939731 -0.19365862 -0.4782193 -0.85662287 0.00062791927
-0.056881111 -0.024965707 0.0033119326 -0.14699741 -0.50494534 -0.85054213 0.00054965209
-0.053874128 -0.025261004 0.0030548498 -0.096009418 -0.52765554 -0.84401524 0.00032249355
-0.05090367 -0.025543466 0.0029685558 -0.056623135 -0.54322553 -0.83767533 0.00053815986
-0.048087213 -0.025766071 0.0030285758 0.045116682 -0.61103791 -0.79031456 0.0024799658
-0.044999819 -0.025580108 0.0031251777 0.20099401 -0.673159 -0.71165884 0.005168057
-0.041970912 -0.024938285 0.0034456709 0.26652017 -0.7521283 -0.60271889 0.0041753277
-0.039178923 -0.024298161 0.0040814821 0.35097206 -0.7857306 -0.50935841 0.0018303207
-0.037252445 -0.023921307 0.0048542107 0.37783989 -0.80099475 -0.4643752 0.00035672428
-0.065889038 -0.022025473 0.0043798201 -0.47366694 -0.25035587 -0.84437042 0.010502274
-0.063042901 -0.022108629 0.0033302093 -0.30605647 -0.3537524 -0.88384873 0.0028472277
-0.060218077 -0.022374962 0.0026363106 -0.25256157 -0.38962093 -0.88566822 0.00076797605
-0.057395514 -0.023040444 0.00231722 -0.16079231 -0.46732959 -0.86933815 0.00050945336
-0.038538896 -0.023056965 0.0026202966 0.25555164 -0.76029581 -0.5971964 0.0041970634
-0.035892852 -0.022482704 0.0033988655 0.3595393 -0.81493342 -0.45454919 0.0008608296
-0.033166081 -0.021503739 0.0037096897 0.33429039 -0.82332242 -0.45868301 0.00087533501
-0.031158583 -0.021014433 0.004513287 0.39098084 -0.82968539 -0.39844218 0.00087740959
-0.066001818 -0.019251656 0.0038484214 -0.56058222 -0.10097496 -0.8219195 0.00811808
-0.063317195 -0.01947736 0.0024943827 -0.39653158 -0.21735887 -0.89191806 0.0050314898
-0.031876944 -0.020340692 0.0025162185 0.36359477 -0.82912534 -0.42467639 0.0012930006
-0.029777473 -0.019852757 0.00333915 0.38204631 -0.84282786 -0.37905392 0.0011144467
-0.026757309 -0.018597938 0.0034049326 0.3728781 -0.85345548 -0.36410949 0.0019605197
-0.024800269 -0.018122908 0.0044262195 0.38671434 -0.86576515 -0.31765178 0.0012347521
-0.065710083 -0.016474914 0.0036338456 -0.68654901 0.097134255 -0.72056597 0.011658659
-0.064033687 -0.01630519 0.0022375789 -0.60873586 0.004211063 -0.79336184 0.0085534984
-0.023647256 -0.017133184 0.003157665 0.37534955 -0.8668614 -0.32812214 0.0019428349
-0.020997321 -0.016063537 0.0034123855 0.36671731 -0.87515593 -0.31562725 0.0013508068
-0.018710764 -0.015214364 0.0038415776 0.35511804 -0.88585019 -0.29859743 0.0011507112
-0.065286405 -0.013592037 0.0042118318 -0.73258638 0.29116026 -0.6152584 0.002226261
-0.063890368 -0.013231997 0.0027286792 -0.66503602 0.21122338 -0.71631825 0.0064659859
-0.01738758 -0.01447175 0.0032082656 0.37394291 -0.88645566 -0.27269608 0.00087294693
-0.014822604 -0.013469149 0.0033666957 0.36351311 -0.89693421 -0.25172848 0.0011602343
-0.01207296 -0.012468765 0.0036272043 0.32885751 -0.91498083 -0.23380058 0.0007872603
-0.0095086824 -0.011783729 0.0048706913 0.32935342 -0.92180884 -0.20443763 0.0011403125
-0.06314487 -0.010273194 0.0034352415 -0.71996796 0.35944149 -0.59367329 0.0014676724
-0.010607373 -0.011720623 0.0026674354 0.32147208 -0.9127211 -0.25218242 0.0015802152
-0.0087634698 -0.011322427 0.0038679475 0.3271032 -0.92317289 -0.20187953 0.0010857119
-0.0060161748 -0.010299462 0.0033250237 0.30173919 -0.92992646 -0.21021487 0.0014219555
-0.0028485651 -0.0092925159 0.0033583874 0.27090761 -0.94218135 -0.19723962 0.00063841307
-0.0011218106 -0.0088685779 0.0037395442 0.27605218 -0.93607146 -0.21809499 0.00022055247
-0.062228497 -0.0075073652 0.00418681 -0.71435946 0.44509149 -0.53998542 0.0010203823
-0.060811605 -0.0068681566 0.0029367525 -0.69233972 0.39947334 -0.600905 0.0013379169
0.00060811033 -0.0082830815 0.0033096159 0.26844224 -0.93800294 -0.21929234 8.8882553e-05
0.0031975613 -0.007411561 0.0029040286 0.25389484 -0.93212712 -0.25821778 0.00039605811
0.0062269238 -0.006703916 0.0035763914 0.24373725 -0.93949139 -0.24072406 0.00020405004
0.0086640716 -0.0059721349 0.0028634006 0.23117685 -0.93698031 -0.26196435 0.00058124057
-0.061559144 -0.0054283394 0.0050717378 -0.70268214 0.48036379 -0.52486998 0.00038364271
-0.059763204 -0.0044199955 0.0037167263 -0.69111663 0.47463787 -0.5450474 0.00073491619
-0.058161285 -0.0032854886 0.002723563 -0.67094105 0.50688565 -0.54120702 0.00081917032
0.011832338 -0.0052551357 0.0030122483 0.21740988 -0.94376367 -0.24908425 0.0003874001
0.015281407 -0.0045346869 0.0029208744 0.18540518 -0.95123041 -0.24654727 0.00066168112
0.017046245 -0.0042584199 0.0039324546 0.17693985 -0.96035928 -0.2154122 0.00045333939
0.02019331 -0.003675479 0.0033424133 0.17554468 -0.96815586 -0.17848895 0.0011155852
0.023029739 -0.0030915174 0.0024733925 0.16441284 -0.96538901 -0.20246586 0.0025436799
-0.058776837 -0.0023394735 0.0044487305 -0.67710817 0.52750856 -0.51308799 0.00065439806
-0.057121802 -0.0012382036 0.0034562205 -0.67222816 0.5479548 -0.49785015 0.00039690852
-0.055428047 -0.00021665869 0.0023418749 -0.64353484 0.52452213 -0.55744022 0.0011972067
0.027375786 -0.0025210092 0.0030369046 0.11810214 -0.96237665 -0.24471034 0.002888036
0.031352259 -0.0019404399 0.002279141 0.10511381 -0.9491477 -0.29676542 0.00083272217
0.032574527 -0.0019470113 0.0032887342 0.1082246 -0.9540112 -0.27955347 0.00050820218
0.037105054 -0.0013661939 0.0023558224 0.092352487 -0.95069242 -0.29606584 0.0011676904
0.038649108 -0.0013726796 0.0036018724 0.082896762 -0.95907712 -0.27073824 0.00031243995
0.043427311 -0.00079144118 0.0023557926 0.092177309 -0.97541285 -0.20018248 0.0009142987
0.04494543 -0.0007945965 0.0031645903 0.082337953 -0.97677356 -0.19782291 0.0018425124
0.046557989 -0.00080118654 0.0048542107 0.060432948 -0.97825259 -0.19841798 0.0021366365
0.051464953 -0.000216485 0.0022772434 0.034473743 -0.9566896 -0.28906149 0.0037805063
0.053842667 -0.00021820236 0.002935376 0.07643076 -0.9251352 -0.37186456 0.00050082355
0.056785949 -0.00021955837 0.0034576142 0.057758272 -0.94379014 -0.32545987 0.00019361587
0.060034342 -0.00022110902 0.0040530497 0.046222117 -0.9373464 -0.34531894 0.00031639638
0.063255332 -0.0002219961 0.0043928465 0.05895431 -0.9339866 -0.35241085 0.0005896287
0.065907679 -0.00022295816 0.004761436 0.077791221 -0.93432248 -0.34783635 0.0011535012
-0.056057546 0.00074068154 0.0042570718 -0.66026717 0.58904791 -0.46590745 0.0010761659
-0.05434496 0.0017495969 0.0032546902 -0.62172198 0.59626687 -0.50786579 0.0011963046
0.06064678 0.0003582777 0.0021850946 0.061419059 -0.90957266 -0.41098082 0.0016715153
0.062984385 0.00035791518 0.0024650954 0.052873708 -0.91445249 -0.40122434 0.0016075502
0.065918691 0.00035738479 0.0028714561 0.077785283 -0.93432331 -0.3478353 0.0011537102
0.069234855 0.00052129384 0.0030583441 0.10346574 -0.94023597 -0.32442421 0.0022190155
0.072048649 0.00064424868 0.0034207129 0.092486292 -0.93815631 -0.3336302 0.002357654
0.075112097 0.00098963827 0.0034854822 0.11785771 -0.93906176 -0.32291266 0.0030111321
0.078113243 0.0014506668 0.0035098339 0.15887396 -0.90252137 -0.40026769 0.001881692
0.081035219 0.0020363596 0.0034677247 0.17299606 -0.88347334 -0.43537033 0.0018130535
0.083823174 0.00255606 0.0035061757 0.16631019 -0.87549424 -0.45370764 0.0030923041
0.086639285 0.0026649912 0.004385897 0.23370558 -0.85129631 -0.469762 0.0022662918
-0.053144131 0.0036254891 0.0040332712 -0.63812715 0.61197984 -0.46719858 0.00067331223
-0.051203582 0.0052067144 0.0034766006 -0.61519474 0.61598927 -0.49202904 0.00096787204
0.085179344 0.0032340628 0.0027885372 0.21744853 -0.84171444 -0.49419931 0.0028003298
0.087289527 0.003705774 0.0030148872 0.24012044 -0.81986481 -0.51977289 0.0021736675
0.090072878 0.0042533386 0.0034797802 0.27487907 -0.8120361 -0.51481915 0.0014708696
0.092917807 0.0052378196 0.0036303676 0.35877106 -0.73355281 -0.57722062 0.0042555691
0.095323801 0.0057453113 0.0044996031 0.43392923 -0.67755926 -0.59381717 0.0050749388
-0.050094984 0.0068979207 0.0042776251 -0.58856899 0.67794263 -0.44043198 0.0015833194
-0.048187274 0.0079557393 0.0034472113 -0.59159714 0.68752217 -0.42110103 0.0014766
-0.046263225 0.0089843459 0.0026313746 -0.55537236 0.70104545 -0.44732183 0.0027958166
0.093819797 0.0068721566 0.002384224 0.41995266 -0.51082659 -0.75013065 0.0049846298
0.096103683 0.0077050519 0.0032002586 0.49367136 -0.51921606 -0.69764125 0.0085607087
0.098244138 0.0083652101 0.0043187337 0.59232759 -0.46179986 -0.66021883 0.0047598728
-0.046739645 0.0098825432 0.0043905163 -0.56738681 0.71419585 -0.40987384 0.0024398605
-0.04495012 0.010582303 0.0033684284 -0.55109584 0.70527309 -0.4459632 0.0024148053
-0.042804483 0.011666168 0.0025479081 -0.52384478 0.73533899 -0.42995724 0.0045667388
0.096895866 0.010705169 0.0024322523 0.55345434 -0.21186288 -0.80548275 0.001992305
0.098892428 0.010738099 0.0039183414 0.61662614 -0.2608805 -0.74277425 0.0042925435
-0.041718699 0.012833792 0.0032086107 -0.52018988 0.75255901 -0.40380368 0.0033854819
-0.039265659 0.014281498 0.0028334344 -0.51291323 0.74911022 -0.4192301 0.0027328776
0.097448967 0.013576614 0.0023332797 0.61814642 0.063828081 -0.78346729 0.0092408061
0.099198595 0.0136169 0.0037379302 0.68521333 0.016122082 -0.72816396 0.0048826654
-0.038006585 0.015340877 0.0035634125 -0.50850421 0.74277127 -0.43556195 0.0034610319
-0.035928529 0.016352706 0.0028336253 -0.45737356 0.75436074 -0.47090274 0.000485581
-0.033041615 0.017901484 0.0027081901 -0.43846262 0.76626784 -0.46966386 0.00056135195
0.096882731 0.01709399 0.0026365602 0.62214214 0.3145569 -0.71693307 0.011188519
0.098696187 0.016422899 0.0038896352 0.69064665 0.30324557 -0.65654349 0.0068244506
-0.030158585 0.019335285 0.0026077414 -0.41577044 0.78186929 -0.46455941 0.0014759966
-0.027877068 0.020498339 0.0028979564 -0.40699989 0.81924534 -0.4039655 0.00067917537
0.093587741 0.020754442 0.003102954 0.48301399 0.70886725 -0.51400852 0.0022661593
0.095743172 0.019422296 0.0035332846 0.55069715 0.6194697 -0.55945498 0.0062721954
0.097887062 0.018252689 0.0043365741 0.60287547 0.59393257 -0.53271496 0.0087239109
-0.024395479 0.021913487 0.0024001235 -0.39456514 0.81167853 -0.4306927 0.0010902679
0.088090852 0.023954544 0.0029647434 0.45287758 0.76679331 -0.45489547 0.00088480837
0.090188071 0.022997063 0.0033756699 0.44028899 0.77928954 -0.44592986 0.0005428741
0.092694342 0.021887828 0.0038837874 0.48109388 0.73679572 -0.47505867 0.0015390127
0.084239595 0.026377864 0.0033976915 0.44853529 0.79741395 -0.40366712 0.0002728526
0.086686067 0.025056764 0.0035669631 0.44447944 0.77983898 -0.44078246 0.00088225753
0.076208726 0.029678229 0.0024767006 0.33593112 0.84875804 -0.40836272 0.0005807124
0.078475863 0.028804392 0.002293163 0.36576867 0.84412813 -0.39199615 0.0011610639
0.081131145 0.028014485 0.0034684176 0.41089109 0.82408005 -0.38994959 0.0011357424
0.082873471 0.027488973 0.004320153 0.44298244 0.80188572 -0.40093109 0.00032448629
0.074443154 0.030236859 0.0022315169 0.31939718 0.84827673 -0.42238835 0.00085992954
-0.062851906 -0.030068319 0.0077630114 -0.19187614 -0.56658649 -0.80135095 0.00034214475
-0.060012829 -0.030371424 0.0074319765 -0.13358043 -0.59052444 -0.79588765 0.00024687769
-0.056959126 -0.030712325 0.0072837286 -0.094016381 -0.61012405 -0.786708 0.0003237013
-0.053918228 -0.030706331 0.0069834152 -0.015163726 -0.65226352 -0.75784051 0.003033211
-0.050965067 -0.030575875 0.0068861349 0.12877229 -0.72270799 -0.67905146 0.0068395492
-0.048142694 -0.030089039 0.0073123695 0.2876727 -0.77373958 -0.56442147 0.0047291764
-0.068140924 -0.027380109 0.0077474006 -0.44154108 -0.40144181 -0.80242497 0.0047681686
-0.065783627 -0.02792526 0.0071727009 -0.29063448 -0.48707628 -0.82358253 0.0011939087
-0.06290973 -0.028070576 0.0064241337 -0.20754316 -0.52402836 -0.82602674 0.00056525308
-0.060019676 -0.028195702 0.0059222179 -0.15107673 -0.54865503 -0.82228553 0.00037345095
-0.057016268 -0.028602593 0.0057107834 -0.10893799 -0.5720852 -0.81292737 0.00028484274
-0.05410324 -0.028882485 0.0055701314 -0.06628219 -0.61041969 -0.78929996 0.0004744055
-0.051193267 -0.028970379 0.0054425579 0.038859129 -0.64921546 -0.75961131 0.0035121166
-0.047655527 -0.02881996 0.0058126561 0.17345628 -0.7381779 -0.65192509 0.0047401381
-0.044925004 -0.028184559 0.0063934093 0.33939365 -0.78416616 -0.51951462 0.0026668608
-0.042299684 -0.027284395 0.0068438677 0.37617674 -0.81107092 -0.44794533 0.0017007221
-0.040436942 -0.027010422 0.0080404961 0.43812391 -0.83260685 -0.33884102 0.0010533794
-0.068754904 -0.025156125 0.0070166346 -0.46773079 -0.34067667 -0.81557792 0.0045073447
-0.065887198 -0.025363743 0.0057796603 -0.31301025 -0.4277285 -0.84798169 0.0011348929
-0.063230015 -0.026067503 0.0052952357 -0.21845594 -0.47234043 -0.85391545 0.00058654911
-0.041225791 -0.026135229 0.0056141922 0.36722994 -0.81437868 -0.44936562 0.0012120053
-0.038899459 -0.025565863 0.0065829763 0.41658548 -0.82818037 -0.37493187 0.00089073228
-0.036323242 -0.024418268 0.0068093883 0.40444252 -0.83915085 -0.36366495 0.001413007
-0.069011584 -0.022272684 0.00649234 -0.62775785 -0.073344633 -0.77494556 0.014051014
-0.067235366 -0.022934854 0.0053189481 -0.45509571 -0.22553158 -0.86140776 0.010897881
-0.035026133 -0.023401745 0.0059228521 0.42129359 -0.84155041 -0.33808973 0.001076472
-0.032930501 -0.022585109 0.0063011535 0.41279197 -0.85283303 -0.31981009 0.0017954222
-0.030201012 -0.021345936 0.0065206252 0.42207444 -0.86227912 -0.27987149 0.0015535009
-0.068859443 -0.019474655 0.0065010432 -0.74837071 0.069146909 -0.65966648 0.0082966853
-0.028929451 -0.020495232 0.0057249153 0.41465163 -0.86411476 -0.28525358 0.0021734245
-0.02711579 -0.019786462 0.0064894939 0.42030448 -0.8784405 -0.2273467 0.0017919142
-0.024357434 -0.018515397 0.0068045193 0.41885182 -0.88323939 -0.21083447 0.00097622117
-0.068248518 -0.016326204 0.0068477932 -0.80101371 0.28948158 -0.52400142 0.0015643863
-0.067197077 -0.016235098 0.0053837281 -0.7572667 0.20853239 -0.61891961 0.0036447847
-0.02285479 -0.017604213 0.0058364654 0.39981738 -0.88121909 -0.25218862 0.00018351809
-0.021150257 -0.016936239 0.0065051103 0.39620933 -0.87598759 -0.2750707 0.00049377792
-0.018612476 -0.015678525 0.0059801722 0.37919694 -0.88705325 -0.26333693 0.00069609797
-0.067682676 -0.014177225 0.0072896071 -0.79673189 0.35150242 -0.49159366 0.00047484683
-0.066526122 -0.012983288 0.0062782308 -0.77718192 0.35772288 -0.51770902 0.00092937553
-0.016482046 -0.014707218 0.0058199549 0.38127673 -0.90122396 -0.20596954 0.00014265539
-0.014458137 -0.013842481 0.0059578503 0.3688072 -0.90520114 -0.21116875 0.00029968089
-0.011565009 -0.012688148 0.0061080987 0.35593277 -0.91376382 -0.19582507 0.00037734723
-0.065348573 -0.010188064 0.0065706503 -0.76686907 0.402343 -0.50003189 0.00075453363
-0.063916907 -0.008904825 0.0053777779 -0.74105465 0.44576722 -0.50212502 0.00068248424
-0.0060676099 -0.010672788 0.0066038752 0.31012997 -0.93419451 -0.17635202 0.00074104534
-0.0043122252 -0.010061811 0.0053624893 0.29272795 -0.93805844 -0.18535553 0.00088982569
-0.064827122 -0.0080820499 0.0076316828 -0.77609181 0.48162994 -0.40708002 0.00071264763
-0.063371882 -0.0069750221 0.0063367356 -0.75636148 0.48351252 -0.44060525 0.00075444946
-0.062193666 -0.0047757933 0.0068305861 -0.72674942 0.53772938 -0.42741364 0.0012739552
-0.060890753 -0.003587632 0.0060875742 -0.71924371 0.55331445 -0.42015681 0.00070938683
0.024060695 -0.0031210589 0.0057149315 0.15868293 -0.97428447 -0.15996718 0.00084506738
-0.059531305 -0.0015170863 0.0067020142 -0.70702106 0.5768711 -0.40907329 0.0010137127
-0.058186207 -0.00051489798 0.005800643 -0.68457556 0.59516704 -0.42087111 0.0012991475
0.047511745 -0.00080442009 0.0056819106 0.060432218 -0.97825259 -0.19841823 0.0021366368
0.067435488 -0.0002243924 0.0053177262 0.077859879 -0.95330381 -0.29180408 0.0015238215
0.069294453 -0.00022646948 0.0061150752 0.085441798 -0.95173812 -0.29477844 0.0012545175
0.071529984 -0.00022989092 0.0074257487 0.095768638 -0.97300017 -0.20999758 0.00018552032
-0.057033297 0.0013843287 0.0068306904 -0.68056548 0.63642263 -0.36303839 0.00028480164
-0.055296801 0.0026707244 0.005854168 -0.66536474 0.63901687 -0.38593665 0.0007642436
0.07561516 0.00035359873 0.0057862382 0.12225347 -0.94069773 -0.31645194 0.0027878531
0.077857822 0.00054559507 0.0064864838 0.12743373 -0.94782835 -0.29220212 0.0020650453
0.081229001 0.0010292374 0.0064038523 0.149482 -0.93115038 -0.33258691 0.0026652354
0.084323138 0.0016278429 0.0058944132 0.16975716 -0.91797978 -0.35846281 0.0023640229
0.086895801 0.0020092682 0.0063635325 0.19493014 -0.91255367 -0.35951081 0.0025742529
0.089627586 0.0024807272 0.0068328762 0.27996317 -0.86941743 -0.40710416 0.0011485304
-0.055465437 0.0032569808 0.0071897591 -0.66538906 0.63899374 -0.38593316 0.00075322838
-0.053762671 0.0046072858 0.0064669633 -0.66415811 0.63766843 -0.39022177 0.00071002357
-0.052080918 0.0058541265 0.0056046629 -0.64189583 0.67839998 -0.35741174 0.00099977478
0.090955988 0.0032494632 0.005746373 0.27999493 -0.86940527 -0.40710852 0.0011436153
0.093214333 0.0037501368 0.0064635109 0.33835265 -0.85827059 -0.38586143 0.0015223554
0.096122816 0.0051355744 0.0062125148 0.44913784 -0.7819643 -0.4322117 0.0056435019
0.098035716 0.0059636869 0.0067856098 0.55617559 -0.69681293 -0.45290223 0.011342064
-0.050816868 0.0074086878 0.0063476842 -0.61988813 0.68624192 -0.3805401 0.0009189049
-0.049079947 0.0090683885 0.0072432244 -0.58488369 0.7174058 -0.37847054 0.0013628531
0.099298388 0.0077436236 0.0061511742 0.64600575 -0.57678759 -0.49999276 0.0087410454
-0.047490899 0.0099152364 0.0059931958 -0.56469369 0.73182809 -0.3815085 0.0014102308
-0.044880215 0.011652035 0.0059539312 -0.54254055 0.76336443 -0.35060602 0.0021342663
0.10042728 0.010480743 0.0053678835 0.66343874 -0.30238011 -0.68440872 0.013631484
0.1008682 0.010784102 0.006044128 0.78354853 -0.23152401 -0.57658333 0.024805173
-0.041364565 0.01366881 0.0055498267 -0.52619702 0.76082414 -0.37982008 0.0023147422
0.10113527 0.013680323 0.0059420904 0.81909466 0.16868405 -0.54829717 0.022256449
0.10006166 0.016568299 0.0056754434 0.73830253 0.36153695 -0.56938601 0.015823701
0.10107853 0.016033236 0.0069804573 0.83994663 0.25078914 -0.48124269 0.01846901
0.096220136 0.020634789 0.0059856633 0.5847984 0.68963087 -0.42710677 0.0041019991
0.09823183 0.018893771 0.0059136432 0.64690369 0.62970513 -0.43010122 0.0040809461
0.090656482 0.023904093 0.0056985002 0.4402895 0.77928728 -0.44593331 0.00054152351
0.092731506 0.022950336 0.0059314454 0.47136566 0.76412022 -0.44038019 0.00092829787
0.095557489 0.021548774 0.0069584632 0.55466825 0.75483 -0.35010704 0.0023149734
0.087642819 0.025221992 0.0050928975 0.44162959 0.77851582 -0.44595563 0.00076974521
0.088819005 0.024648938 0.0051917518 0.44058856 0.78388166 -0.43750557 0.00056752947
-0.065623991 -0.033205576 0.010772152 -0.22430089 -0.60370773 -0.7650007 0.00037426635
-0.062752418 -0.033502307 0.010356852 -0.15925333 -0.62550271 -0.76379621 0.00030459277
-0.059871022 -0.033822604 0.010142605 -0.106791 -0.64429396 -0.7572853 0.00030540972
-0.056974214 -0.033848483 0.0098790713 -0.051714763 -0.66467017 -0.74534506 0.000539559
-0.054141544 -0.033746544 0.0098202275 0.14838673 -0.75605452 -0.63746601 0.0068372744
-0.051385697 -0.033215258 0.010209915 0.32781136 -0.79620385 -0.5085265 0.0038305689
-0.070737667 -0.030297093 0.010658998 -0.54526585 -0.40859276 -0.73194057 0.005930759
-0.068696119 -0.031123128 0.010277575 -0.34091902 -0.51949096 -0.7835198 0.0018907072
-0.065957226 -0.031180989 0.0093595581 -0.24658604 -0.55651432 -0.79340219 0.00084119779
-0.063035041 -0.031535402 0.0088861482 -0.17859477 -0.58548599 -0.79076552 0.00051053945
-0.059958186 -0.031849891 0.0085384855 -0.11862446 -0.60742897 -0.78546697 0.00030246118
-0.056981985 -0.032181878 0.0084333103 -0.068426229 -0.6438309 -0.76210213 0.00053437112
-0.053856984 -0.032268342 0.0082907584 0.044135846 -0.6919834 -0.72056305 0.0039163707
-0.050762203 -0.032145351 0.0088773584 0.20490335 -0.76927257 -0.60517299 0.0048850928
-0.048132159 -0.031447422 0.0095909555 0.36371335 -0.81594503 -0.44938436 0.0023883749
-0.045490403 -0.030260045 0.0097731436 0.41694567 -0.82290173 -0.38599113 0.0012561186
-0.071591258 -0.028229494 0.010157489 -0.62963825 -0.29775202 -0.71756488 0.014441309
-0.069348484 -0.028479282 0.0089380257 -0.4384954 -0.39451036 -0.80751669 0.0054657217
-0.066819288 -0.029211313 0.0083044777 -0.28536516 -0.5023241 -0.81623352 0.0019972627
-0.044252206 -0.029283166 0.0089359125 0.40733141 -0.83257049 -0.37537667 0.0011645809
-0.04213975 -0.028439451 0.0094085392 0.43184468 -0.83500403 -0.3409963 0.0017650069
-0.039587531 -0.027274467 0.0099240849 0.46242744 -0.83508158 -0.29799259 0.0012545061
-0.071511701 -0.02534391 0.0094031915 -0.71543515 -0.049792957 -0.69690269 0.017384391
-0.070178337 -0.026448201 0.0083662057 -0.61048794 -0.2399853 -0.75479227 0.019257491
-0.038475685 -0.026335943 0.0089145238 0.46170965 -0.84469575 -0.27076438 0.00059631554
-0.035714559 -0.025064714 0.0096151568 0.44887647 -0.85306633 -0.26605955 0.00078806211
-0.034140687 -0.024176639 0.0094156349 0.44894996 -0.85648423 -0.25471285 0.00045229122
-0.071363367 -0.02256953 0.0093890214 -0.79817927 0.027755635 -0.60178024 0.0044665635
-0.032659926 -0.02328597 0.009144173 0.45516297 -0.86093324 -0.22720155 0.0011848033
-0.030190354 -0.021980584 0.0092873434 0.4586767 -0.86775941 -0.1913358 0.00045651337
-0.071191259 -0.019782268 0.010008982 -0.84845042 0.21206897 -0.4849315 0.0037648291
-0.070232637 -0.018889502 0.008708138 -0.84160644 0.21633331 -0.49487218 0.0036488101
-0.027127819 -0.02037688 0.0093324864 0.44269738 -0.88014477 -0.17135991 0.00028647293
-0.025423232 -0.01953752 0.010126838 0.43450737 -0.8834098 -0.1754721 0.0003047176
-0.070511535 -0.016918782 0.010464289 -0.85100639 0.32712778 -0.41082305 0.00071992143
-0.069589376 -0.016314924 0.0091478443 -0.83746928 0.30011389 -0.45670211 0.0012502344
-0.068581395 -0.013222032 0.009755481 -0.829202 0.3894324 -0.40095687 0.00074404106
-0.067263462 -0.011883463 0.0083530629 -0.81102806 0.38835803 -0.43750599 0.00070014939
-0.067798793 -0.010776471 0.010585763 -0.82192165 0.43131185 -0.37204164 0.0012876114
-0.066682719 -0.010054484 0.0090081776 -0.79866201 0.42441049 -0.4266319 0.00043076513
-0.065465547 -0.0074141994 0.0097006094 -0.78431946 0.49237412 -0.37737358 0.00095201965
-0.064362861 -0.0066418452 0.0084365988 -0.77114344 0.48881918 -0.40791377 0.00079253252
-0.064748868 -0.0055144234 0.011084297 -0.76913023 0.54606652 -0.33203918 0.0005110167
-0.063152507 -0.0044045369 0.0092844702 -0.74769825 0.56084573 -0.35552692 0.00050705962
-0.061867792 -0.0023806053 0.01003754 -0.73644739 0.58453691 -0.34053159 0.00023994074
-0.060503844 -0.001167892 0.0091897752 -0.71346295 0.60202873 -0.35851359 0.00015588861
-0.058936138 0.00064091058 0.0092501873 -0.69676012 0.62932414 -0.34420416 0.0001622585
-0.057436965 0.0020994088 0.0089439638 -0.68801653 0.63789195 -0.34601599 0.00015247859
0.078342438 0.0003505093 0.008159765 0.12553494 -0.96221894 -0.24161074 0.00074054283
0.083022349 0.00093280198 0.0082766498 0.14354366 -0.93824255 -0.31479526 0.0012587475
0.091748558 0.002679978 0.0082241679 0.31188312 -0.87238508 -0.37639517 0.0018810192
-0.055977862 0.0035577458 0.008938157 -0.67923713 0.63842034 -0.36201718 0.0002904429
-0.055102509 0.0044326973 0.0089351917 -0.67286199 0.64523357 -0.36184296 0.00033093468
0.093511529 0.0032627773 0.0083005512 0.36611575 -0.85956508 -0.35652104 0.001600609
0.096008487 0.0041417074 0.009091937 0.42290404 -0.82894194 -0.36607027 0.0043332772
0.097772405 0.0050179851 0.00914953 0.44149408 -0.79809439 -0.41003457 0.0071749361
0.10005591 0.018431652 0.0089196051 0.69780087 0.5847894 -0.41363668 0.0097189546
-0.067514673 -0.036221143 0.013874688 -0.27001464 -0.67039245 -0.69113386 0.0011044127
-0.065707758 -0.036494922 0.013617818 -0.19960696 -0.67840928 -0.70704871 0.00054649269
-0.06282834 -0.036713239 0.013202245 -0.14005218 -0.69283152 -0.70736825 0.00030180742
-0.059824143 -0.036987234 0.013005563 -0.048119988 -0.72195387 -0.69026589 0.0021819591
-0.057008311 -0.036714926 0.012713377 0.14504924 -0.77032274 -0.62093765 0.007122431
-0.054355226 -0.036294296 0.013329574 0.33910447 -0.80533594 -0.48625335 0.004584725
-0.071518473 -0.03376865 0.013505655 -0.51788568 -0.51173902 -0.68550545 0.0050952649
-0.068965651 -0.034226172 0.012681301 -0.28306392 -0.60972905 -0.74034137 0.00063252501
-0.066177845 -0.034709845 0.012152924 -0.2124093 -0.63522428 -0.74254459 0.00071790221
-0.063226379 -0.035016917 0.011711323 -0.1444927 -0.64671338 -0.74892163 0.00028021532
-0.060312625 -0.035342533 0.011506253 -0.085060537 -0.67795122 -0.73016912 0.00048491757
-0.057158247 -0.035424173 0.011307206 0.056772098 -0.72436273 -0.68707758 0.0044250013
-0.053604569 -0.035186101 0.011991798 0.26286048 -0.80626154 -0.52994972 0.0076887878
-0.050954152 -0.034293674 0.012521544 0.38764712 -0.81937528 -0.42231968 0.0027289067
-0.04869777 -0.033356328 0.013034397 0.45293772 -0.82471657 -0.33865929 0.0018467684
-0.073940657 -0.030887652 0.013504454 -0.71989429 -0.32376242 -0.61394644 0.01280805
-0.072110631 -0.03152379 0.012286245 -0.56908053 -0.41989177 -0.70699239 0.0072386479
-0.069648728 -0.032359444 0.01149469 -0.30975077 -0.56763774 -0.76278561 0.00084337202
-0.047391299 -0.032369342 0.012289249 0.44110307 -0.83643353 -0.32528013 0.0016461718
-0.044960752 -0.031108443 0.012463723 0.45836839 -0.84014708 -0.28991601 0.0015292151
-0.043233123 -0.030251604 0.012829878 0.47920793 -0.83729923 -0.2632294 0.0016152231
-0.073846497 -0.028493285 0.012934872 -0.85147518 -0.052496456 -0.52176064 0.010413041
-0.072942093 -0.028602388 0.011604928 -0.78791267 -0.14734738 -0.59789824 0.011124961
-0.041745834 -0.029139787 0.012031664 0.49125582 -0.84199095 -0.22297744 0.0023178107
-0.039388102 -0.027883582 0.012599268 0.48112452 -0.85316986 -0.20154504 0.00080312783
-0.073927097 -0.025873337 0.013422416 -0.87510425 0.094955809 -0.47452706 0.0053374628
-0.073076785 -0.025485639 0.011830178 -0.86729991 0.044103488 -0.49582836 0.0030082015
-0.037804719 -0.026626628 0.011282542 0.47052377 -0.84708345 -0.24709712 0.00044817437
-0.036509916 -0.02609333 0.012163925 0.46710029 -0.85090017 -0.24038787 0.00041427225
-0.033706162 -0.024285536 0.01136116 0.46999404 -0.8530919 -0.22658285 0.0005610548
-0.072876565 -0.02228637 0.012398996 -0.89566743 0.17942639 -0.4069227 0.0019258786
-0.029601505 -0.021940138 0.011370816 0.46981835 -0.86550713 -0.17368998 0.00017825954
-0.072125413 -0.018982101 0.012686056 -0.89431202 0.28102615 -0.34818146 0.0005800309
-0.071093008 -0.01612271 0.01264418 -0.88303572 0.33655664 -0.32707423 0.0010343769
-0.070053011 -0.014898743 0.01126919 -0.85667509 0.3503733 -0.378611 0.0011626752
-0.069785401 -0.013180082 0.012554684 -0.86352348 0.39180171 -0.31751946 0.0008511006
-0.068547077 -0.010543122 0.0129148 -0.84016484 0.44023639 -0.3167254 0.00083384884
-0.067108281 -0.0090332879 0.01118336 -0.80680257 0.47651276 -0.34929258 0.00061211223
-0.066429362 -0.0072994335 0.012525448 -0.79594499 0.51522917 -0.31782147 0.00070118561
-0.063713916 -0.0037667113 0.012038209 -0.76072919 0.55658382 -0.33392423 0.00051764178
-0.067961857 -0.038838398 0.016836204 -0.26027074 -0.7512154 -0.60657614 0.00091220642
-0.066130571 -0.039105184 0.016493306 -0.19839571 -0.74663419 -0.63496178 0.00054505782
-0.063009076 -0.039650153 0.016321134 -0.10943355 -0.77962691 -0.61660868 0.0013250781
-0.059976745 -0.039685316 0.016043015 0.089646727 -0.8185432 -0.56740671 0.007334149
-0.057210099 -0.039148662 0.016315386 0.3414419 -0.82677442 -0.44705862 0.0053734882
