# .PCD v0.7 - Point Cloud Data file format
VERSION 0.7
FIELDS x y z normal_x normal_y normal_z curvature
SIZE 4 4 4 4 4 4 4
TYPE F F F F F F F
COUNT 1 1 1 1 1 1 1
WIDTH 546
HEIGHT 1
VIEWPOINT 0 0 0 1 0 0 0
POINTS 546
DATA ascii
0.0082641244 -0.014768653 -0.011962824 -0.17520647 -0.87856275 -0.44433111 0.007056294
0.011112039 -0.015109414 -0.012204908 -0.13684818 -0.91585535 -0.37746722 0.0045144064
0.013859618 -0.015368827 -0.01248594 -0.10757121 -0.93926167 -0.32590798 0.0016222973
0.017034147 -0.015571984 -0.012812255 -0.10375317 -0.94240022 -0.31798908 0.001805246
0.019962251 -0.015904477 -0.012021182 -0.031722188 -0.96133828 -0.27353695 0.00057344785
0.023077548 -0.016174797 -0.011265276 -0.0085609918 -0.98049051 -0.19637953 0.00062664074
0.025810948 -0.016186876 -0.010966162 0.01182356 -0.98423254 -0.17648382 0.00041702879
0.032168206 -0.01557266 -0.012794838 0.069952898 -0.98239928 -0.17319985 0.00064414163
0.034187064 -0.01562796 -0.011378778 0.080649145 -0.98501825 -0.15242948 0.00020199052
0.038445383 -0.015055479 -0.012179194 0.084715143 -0.98413026 -0.15591997 0.00022384747
0.043861069 -0.014515567 -0.012143342 0.092762962 -0.98095584 -0.17064774 0.00013867352
-0.00035261828 -0.011844807 -0.010953449 -0.40287134 -0.596201 -0.69443434 0.002111712
0.0023680143 -0.012679844 -0.011740587 -0.3646048 -0.62000263 -0.69473743 0.0026741368
0.0050061541 -0.013160157 -0.012661556 -0.35363239 -0.67828459 -0.64410728 0.0062967385
0.0073842076 -0.013753661 -0.01330364 -0.24316068 -0.762541 -0.59950334 0.0096910335
0.048322678 -0.013935271 -0.013253598 0.10472954 -0.97992206 -0.16965963 0.00013520614
0.052593738 -0.01338354 -0.013604907 0.11374751 -0.97861475 -0.17139012 9.5794741e-05
-0.0035009636 -0.0091292178 -0.011026592 -0.44557631 -0.45316309 -0.77207834 0.0010330359
-0.00094696321 -0.0097656036 -0.012054377 -0.42027441 -0.47960451 -0.77029151 0.0013269667
0.0017413115 -0.010576085 -0.013012733 -0.39995214 -0.51820421 -0.75597793 0.0015344896
-0.0060936967 -0.0059322901 -0.011075386 -0.48722231 -0.33278129 -0.80738527 0.00086051819
-0.0041011358 -0.006769171 -0.011878298 -0.46755835 -0.35606411 -0.80907822 0.0012985299
-0.0016409522 -0.0071310457 -0.013080148 -0.46163288 -0.36754695 -0.80734402 0.0010703625
-0.0066070789 -0.0036241601 -0.011393433 -0.50443435 -0.19218315 -0.84179074 0.0011952786
-0.0040633669 -0.0038771729 -0.012874495 -0.48659596 -0.20833175 -0.84842336 0.0017306242
-0.0024217805 -0.0050247414 -0.013503043 -0.48291069 -0.21299155 -0.84937149 0.0017759354
-0.0068551311 -0.00064693438 -0.011627343 -0.54329264 0.034041114 -0.83885294 0.0029851878
-0.0044732681 -0.00081804243 -0.013079488 -0.54188299 0.0012130496 -0.84045303 0.0027305931
-0.0065744417 0.0021381408 -0.011355222 -0.5059458 0.24634823 -0.82663864 0.0041271709
-0.0041358797 0.0023322534 -0.012796221 -0.52245605 0.2400174 -0.81818783 0.0029236658
-0.0024214722 0.0033383644 -0.013384758 -0.46416152 0.33290017 -0.82081151 0.0029881191
-0.0058532367 0.0040782369 -0.01092385 -0.48249459 0.41260386 -0.77262998 0.00016310668
-0.0038625682 0.0049987985 -0.011639989 -0.47719583 0.4282234 -0.76740408 0.00043599229
-0.0013813358 0.0055459039 -0.01280565 -0.46213257 0.42177817 -0.78008759 0.00034081496
0.00081536081 0.0065747919 -0.013491241 -0.4551878 0.45858237 -0.76322097 0.00021406873
-0.0029579075 0.0071546407 -0.010909406 -0.46541348 0.4832221 -0.74154341 0.00026978302
-0.00081435591 0.0080473013 -0.011622319 -0.44780469 0.50182861 -0.74002635 0.00030856906
0.0017665895 0.0084748054 -0.012893921 -0.43861035 0.48951641 -0.75365412 0.00031235255
0.00011913106 0.010052042 -0.010821509 -0.44400528 0.53805572 -0.71648824 0.00084130617
0.0024366491 0.010755862 -0.011677938 -0.43153107 0.55898267 -0.70803905 0.00073506217
0.0049123466 0.011477491 -0.01256254 -0.41080597 0.56558359 -0.71508998 0.00062304235
0.0071899183 0.012302939 -0.013165847 -0.38649493 0.6238898 -0.67925197 0.0004579424
0.0054802946 0.013419263 -0.011195191 -0.3925392 0.65096289 -0.64973855 0.00072596734
0.0082345977 0.014065892 -0.012103723 -0.35119909 0.70529509 -0.61580682 0.0010711076
0.010880869 0.014731568 -0.012841743 -0.29685971 0.75947225 -0.57885772 0.0027510608
0.012958641 0.015210812 -0.013385219 -0.31262165 0.74377674 -0.59081638 0.0035638055
0.0095336288 0.015846906 -0.010739295 -0.28981352 0.7757861 -0.56050348 0.003318581
0.011343012 0.016026724 -0.011390673 -0.28830326 0.78373718 -0.55012482 0.0024383392
0.014140324 0.01629794 -0.012240972 -0.20938523 0.86050308 -0.46442685 0.0063858246
0.016983848 0.01679809 -0.012478856 -0.18774594 0.88757086 -0.42067748 0.0030840277
0.019764194 0.017277775 -0.012313755 -0.18243563 0.90290558 -0.38920265 0.0014525114
0.022138361 0.017373072 -0.013295038 -0.18784234 0.88423753 -0.42759705 0.00054917822
-0.00022108667 -0.014666402 -0.0080047334 -0.2677429 -0.79667109 -0.54187536 0.0065192329
0.0019539958 -0.014908846 -0.0088461768 -0.24508964 -0.85175556 -0.46308047 0.0063327933
0.0049441396 -0.015251052 -0.0094222231 -0.20989108 -0.88204938 -0.42182291 0.0073011899
0.0080097988 -0.01561534 -0.009714759 -0.12309104 -0.93170339 -0.34172699 0.0015491283
0.010999164 -0.016120583 -0.008761242 -0.068743929 -0.97171378 -0.22593495 0.0016163851
0.014210598 -0.016254604 -0.0092878127 -0.060345583 -0.9774344 -0.20243631 0.00082725246
0.017162381 -0.016217012 -0.010219369 -0.055797692 -0.97385299 -0.22022054 0.0021343441
0.018773485 -0.016201438 -0.010605423 -0.040056754 -0.97407544 -0.22264872 0.0013912147
0.027481452 -0.016209917 -0.010395614 0.033077691 -0.98100781 -0.19112651 0.00045786981
0.028941885 -0.016262328 -0.0090962108 0.050341319 -0.98803455 -0.14578582 0.00049395557
0.035227127 -0.015723811 -0.0089240354 0.082331792 -0.98588437 -0.1457859 0.00013511541
-0.0058699856 -0.011570318 -0.0079504633 -0.43013576 -0.57679993 -0.69446754 0.00080002815
-0.0039035222 -0.012173576 -0.0086312946 -0.41973457 -0.57711726 -0.70054162 0.00083852431
-0.0012213532 -0.012959488 -0.0094753942 -0.36820716 -0.66273814 -0.65207487 0.0051258588
0.0014844406 -0.013863279 -0.010145965 -0.32773173 -0.69654602 -0.63829124 0.0041003996
-0.00915254 -0.0088402266 -0.0077909511 -0.47934613 -0.46485174 -0.74440587 0.0011774065
-0.0069019394 -0.0095820064 -0.0087372186 -0.45560288 -0.50194645 -0.7351706 0.0011290795
-0.0044080028 -0.010061934 -0.0099326568 -0.44211796 -0.48464462 -0.75475246 0.0014868885
-0.0024143392 -0.010767612 -0.010644881 -0.42937827 -0.4869746 -0.76058531 0.0013986478
-0.011706145 -0.0053771762 -0.0077254456 -0.51685882 -0.29605344 -0.8032493 0.00053010316
-0.0098165693 -0.0064828517 -0.0084698517 -0.51451832 -0.32775995 -0.79236633 0.0016482067
-0.0073517291 -0.0069599161 -0.0098433951 -0.49554259 -0.33907714 -0.79966509 0.0013699335
-0.011905518 -0.0035282339 -0.0080168415 -0.54352909 -0.1863102 -0.81845266 0.002646989
-0.010042983 -0.0037210591 -0.0092002982 -0.54098099 -0.15143114 -0.82728964 0.0010567812
-0.0081894146 -0.0039127488 -0.010354599 -0.52290493 -0.18318532 -0.83247435 0.001342677
-0.012177045 -0.00072621391 -0.0081138741 -0.53968787 0.018865097 -0.84165376 0.0026568801
-0.01003763 -0.00072160957 -0.009543119 -0.55123478 0.01772587 -0.83416188 0.0028745513
-0.0083902022 -0.0012613856 -0.010610348 -0.5282284 0.019593809 -0.8488763 0.0029784292
-0.01188261 0.0018246423 -0.0080224657 -0.51939732 0.27651969 -0.80855632 0.0044548018
-0.010044974 0.0022764716 -0.009073277 -0.53932488 0.25077307 -0.80389142 0.0052451193
-0.0080926558 0.0025737574 -0.010229656 -0.50991958 0.24537563 -0.82448334 0.0042393338
-0.0094608078 0.0046136891 -0.0082669267 -0.50521785 0.43373102 -0.74607795 0.00035284064
-0.007151139 0.0053801378 -0.0093447082 -0.49153358 0.44010857 -0.75146472 0.00043166996
-0.0047693243 0.0062574297 -0.010352833 -0.46623421 0.46875298 -0.75026417 0.00010239937
-0.006467198 0.0078211585 -0.0082331542 -0.47630405 0.50967324 -0.71649677 0.00040994876
-0.004091789 0.0083139362 -0.0094135124 -0.46929231 0.50642878 -0.72339106 0.00043293805
-0.0020508338 0.0089780809 -0.010222835 -0.45208868 0.52039725 -0.72443253 0.00074530538
-0.003561764 0.010352805 -0.0082601393 -0.45351607 0.55613548 -0.6964457 0.00050932151
-0.001047777 0.011273554 -0.0090891942 -0.42844242 0.57240313 -0.69913644 0.0004993786
0.0015433868 0.012114104 -0.010038479 -0.41348958 0.62992215 -0.65743774 0.00067812146
0.00014427491 0.013397994 -0.007926234 -0.38516638 0.67222869 -0.63226223 0.0023989929
0.0021268362 0.013841162 -0.0087009966 -0.38648853 0.70990634 -0.58877814 0.0022880994
0.0046960572 0.014597427 -0.0094560878 -0.36767751 0.70269907 -0.60912007 0.0023222866
0.0072356043 0.015182023 -0.010339571 -0.30943605 0.76820028 -0.56046194 0.0069533722
0.0055129826 0.015937245 -0.008260591 -0.31418607 0.79427481 -0.52001405 0.0033853094
0.0080476161 0.016253984 -0.0091057587 -0.29546613 0.82069784 -0.48903459 0.002837291
0.010664979 0.016804485 -0.009389597 -0.28646138 0.82669139 -0.484274 0.0025458953
0.013078733 0.016947905 -0.010360194 -0.19517983 0.88128746 -0.43039194 0.0033656233
0.017438879 0.017500719 -0.010131849 -0.18576759 0.90593088 -0.38049909 0.0014366803
-0.0057045696 -0.014786395 -0.00471255 -0.38565612 -0.72723407 -0.56780285 0.0041744099
-0.0038154824 -0.014913497 -0.0055396454 -0.28274155 -0.83456379 -0.47282186 0.0062820259
-0.0010515703 -0.015322577 -0.006240529 -0.25010014 -0.85801661 -0.44861725 0.0039218417
0.0021984037 -0.016046027 -0.0059607979 -0.13812543 -0.9446916 -0.29745454 0.0010562853
0.0047305459 -0.016234515 -0.006394444 -0.10333441 -0.95969921 -0.26134154 0.0010108842
0.0080033671 -0.016342895 -0.0070999665 -0.067146137 -0.96740776 -0.24415922 0.0013646209
0.0096315686 -0.01632254 -0.0076043587 -0.07154686 -0.96835494 -0.23910184 0.0012877403
0.01494995 -0.016984561 -0.0048475396 -0.036322396 -0.98664719 -0.15877022 7.4799507e-05
0.017120928 -0.016957499 -0.0054969918 -0.027828941 -0.98764515 -0.15421616 0.00014096938
0.020131642 -0.016946835 -0.0057529369 -0.018835926 -0.98813796 -0.15240943 6.6773529e-05
0.022335557 -0.016950594 -0.005662817 -0.0072838897 -0.98852748 -0.15086532 6.9479931e-05
-0.0093247378 -0.012062115 -0.0052351658 -0.45335782 -0.59393519 -0.6646108 0.0011207097
-0.0068632523 -0.012695783 -0.0062521319 -0.41248587 -0.63469827 -0.65346271 0.001806558
-0.0042985799 -0.013761954 -0.0068492629 -0.34844828 -0.73915732 -0.5763942 0.0047837724
-0.0024064071 -0.014134037 -0.0075980406 -0.35604542 -0.68907154 -0.63119888 0.0028497647
-0.012353803 -0.0093132444 -0.0053097126 -0.50659132 -0.47872189 -0.71707088 0.0011552768
-0.010212009 -0.0099128792 -0.0063485904 -0.49614725 -0.46018973 -0.73624945 0.0010523821
-0.0080190925 -0.010723545 -0.007248668 -0.47398359 -0.55425173 -0.6842109 0.0018775756
-0.014908952 -0.006265101 -0.0051426948 -0.54493171 -0.35788122 -0.75826806 0.0013694719
-0.012870376 -0.0068178447 -0.0063046948 -0.53091431 -0.35887942 -0.76768184 0.0020202186
-0.01085426 -0.0075739585 -0.0072897994 -0.49102551 -0.35591948 -0.79511964 0.0021589256
-0.015502381 -0.0036870919 -0.0055663167 -0.5565415 -0.19419627 -0.8078053 0.001561683
-0.013233951 -0.0038397314 -0.007076256 -0.56568199 -0.16455469 -0.80803818 0.001506916
-0.015830994 -0.00077350461 -0.0056754453 -0.5518235 0.025812944 -0.83356136 0.0036014863
-0.013515688 -0.00072913221 -0.00722297 -0.57540405 0.021346793 -0.81759065 0.0025307627
-0.015418014 0.0021594251 -0.0054444526 -0.51793081 0.30708951 -0.79840082 0.0044262931
-0.013107073 0.0024289226 -0.0069172205 -0.54129773 0.30763263 -0.78253371 0.0050864685
-0.014696498 0.0041272966 -0.0049738963 -0.53925848 0.42087483 -0.7294277 0.0011150114
-0.012675404 0.0049887979 -0.0058368659 -0.51762044 0.43656316 -0.73585445 0.00062051747
-0.01042351 0.0056882361 -0.0069607729 -0.501531 0.44592327 -0.74136293 0.00032230219
-0.012034352 0.0069714161 -0.0050149988 -0.50679666 0.50273174 -0.70029843 0.00031527795
-0.0097944168 0.0081704119 -0.0057323868 -0.48563465 0.52713925 -0.69734007 0.00028671394
-0.0075203283 0.0086785024 -0.0069303671 -0.47343433 0.51659155 -0.7134375 0.00029655112
-0.0086397948 0.010183962 -0.0049756351 -0.46210131 0.58845609 -0.66346198 0.00037794615
-0.0066339625 0.010863009 -0.0057636136 -0.46225289 0.58161724 -0.6693607 0.00051817979
-0.0043234983 0.011433242 -0.0068257041 -0.44057918 0.59324104 -0.67376184 0.00072300038
-0.002132101 0.01241037 -0.0073962193 -0.43504423 0.63018143 -0.64312345 0.0018219225
-0.0038012313 0.013137644 -0.0055308701 -0.41610321 0.65773624 -0.6278863 0.0007011157
-0.0010756012 0.014255872 -0.0060808328 -0.36251456 0.75759906 -0.54279536 0.0020440177
0.0016762335 0.015137088 -0.0068238094 -0.37743434 0.74943352 -0.54396015 0.0024927803
0.0022337576 0.016195551 -0.0054909396 -0.35576946 0.77881587 -0.5165984 0.0011442138
0.0047242809 0.016406992 -0.0066603068 -0.31390852 0.81966656 -0.47917452 0.002157876
0.0077398876 0.017090971 -0.006696796 -0.27992344 0.84746158 -0.45105618 0.001128711
-0.0096773012 -0.014721109 -0.0021596663 -0.34220627 -0.76382029 -0.54724163 0.0052422392
-0.0068190051 -0.015231103 -0.0031440267 -0.29782325 -0.84803587 -0.43833372 0.0083321445
-0.0041146101 -0.015818074 -0.0033814493 -0.23625427 -0.88833451 -0.39375836 0.0027823711
-0.0012895986 -0.016360991 -0.0032346267 -0.16805805 -0.93777287 -0.30387262 0.00092523999
0.0020338958 -0.016845144 -0.0028978209 -0.10617337 -0.95035458 -0.29249504 0.0015524516
0.0050746533 -0.017065551 -0.0029029581 -0.063238904 -0.97615546 -0.20765693 0.00040001638
0.0081042964 -0.017043956 -0.0034215669 -0.041502867 -0.97885042 -0.20032297 0.00025175052
0.011131101 -0.017029244 -0.0037746411 -0.031477168 -0.98406678 -0.17499043 7.3982905e-05
0.013590882 -0.017003076 -0.0044029835 -0.031357452 -0.98473871 -0.17119078 6.689861e-05
-0.01459068 -0.011558789 -0.0019862633 -0.48403943 -0.58585042 -0.64998853 0.00091249519
-0.012697819 -0.012340278 -0.0026460318 -0.4463014 -0.60079706 -0.6632179 0.00088031375
-0.010103132 -0.013227753 -0.0035371287 -0.40983859 -0.67092162 -0.6179778 0.0026294659
-0.0074992282 -0.014112252 -0.0042973664 -0.36299375 -0.74137706 -0.56444269 0.0034542717
-0.017927684 -0.00879288 -0.0016897004 -0.51546407 -0.48003832 -0.709831 0.0010455721
-0.015704688 -0.0096949106 -0.0026510349 -0.50243348 -0.51371181 -0.69545716 0.00082339975
-0.013276982 -0.010239913 -0.0040094727 -0.49479771 -0.50900984 -0.70433247 0.0022005981
-0.018664204 -0.0064459778 -0.0023444043 -0.55357581 -0.34345567 -0.75867778 0.001666793
-0.016356792 -0.0070470795 -0.0037471456 -0.55330068 -0.33362964 -0.76324946 0.00099499559
-0.020694051 -0.0032423709 -0.0018888591 -0.59075403 -0.18652831 -0.78499484 0.0011243213
-0.018990494 -0.003785616 -0.0030080932 -0.58544976 -0.21925247 -0.78049785 0.0015835818
-0.017129596 -0.0040081013 -0.0043229614 -0.56273586 -0.16872427 -0.8092345 0.0021820886
-0.020966876 -0.00074608601 -0.002001646 -0.58489299 0.020454753 -0.81085253 0.0043311473
-0.018973339 -0.00074129156 -0.0034785154 -0.58439696 0.016357236 -0.81130296 0.0042058872
-0.017276622 0.00064009189 -0.0046452563 -0.55989629 0.14494884 -0.81578547 0.010590551
-0.02069464 0.0014721057 -0.0018742662 -0.57756656 0.29008019 -0.76306641 0.0042299917
-0.018949006 0.0022544945 -0.0028781737 -0.57848597 0.29447001 -0.76068485 0.0041719456
-0.01698621 0.0026019192 -0.0041543427 -0.55447894 0.28588778 -0.78155059 0.0035415585
-0.01822887 0.0045203483 -0.0021515423 -0.5344159 0.45247513 -0.71390897 0.00085283915
-0.016072039 0.0051651364 -0.0033239396 -0.52777809 0.44172478 -0.7254858 0.00030909586
-0.013791702 0.0059693279 -0.0044435742 -0.51480401 0.46640298 -0.71933651 0.0005409845
-0.015375326 0.0073689939 -0.0022739498 -0.5173682 0.50339007 -0.6920467 0.00011322082
-0.012959289 0.0081862155 -0.0034462595 -0.49911296 0.52292085 -0.6909703 0.00037771143
-0.010853975 0.0090962546 -0.0043033143 -0.49683684 0.53499758 -0.68332326 0.00013186254
-0.012183932 0.010431779 -0.0021856064 -0.48216388 0.58811826 -0.64933413 0.00020072274
-0.0099156136 0.011168572 -0.0031907815 -0.46519086 0.60070139 -0.65019637 0.00058024173
-0.0074730767 0.012004778 -0.0041494886 -0.43784192 0.62011933 -0.65095806 0.00083454204
-0.0089048957 0.012972047 -0.0021792632 -0.44815612 0.65952498 -0.60347569 0.0011784293
-0.0066744657 0.013624488 -0.0030515036 -0.42002878 0.67322695 -0.60855675 0.00078933395
-0.0041457964 0.014702358 -0.0034216526 -0.32799816 0.79592568 -0.50884145 0.0036693662
-0.0019832198 0.015403655 -0.003975546 -0.32893074 0.80328429 -0.49652702 0.003004404
-0.0029462781 0.016166328 -0.0019754451 -0.27985203 0.87735629 -0.3897804 0.0023322043
-0.00073602144 0.016311385 -0.0030623856 -0.32796428 0.82748812 -0.45574424 0.0012097579
0.0014676191 0.016650744 -0.0038323086 -0.34509012 0.80012143 -0.49063072 0.0019339132
-0.014946143 -0.014434102 0.00093935616 -0.40967119 -0.69488466 -0.59102017 0.0044556763
-0.012846055 -0.014877691 0.0001295777 -0.34067872 -0.78168947 -0.52239794 0.007189122
-0.010095919 -0.015591176 -0.00027544517 -0.33357272 -0.80332023 -0.4933618 0.0053970637
-0.0069658672 -0.016373867 -0.00021295529 -0.18767001 -0.93219686 -0.30949786 0.0014611011
-0.0039637806 -0.01680365 -0.00029620342 -0.17266324 -0.93801779 -0.30051598 0.00089439104
-0.00099623576 -0.017179154 -0.00017581228 -0.098663881 -0.97642964 -0.19196506 0.001465236
0.0012180759 -0.017125325 -0.0014680754 -0.12503172 -0.95396209 -0.27262303 0.00038666581
-0.017905165 -0.012089482 0.0009436449 -0.48466161 -0.60723048 -0.62958252 0.00096449815
-0.015751459 -0.012597865 -0.00019889884 -0.46668467 -0.6109364 -0.63950151 0.0012708391
-0.013504853 -0.013492411 -0.001009373 -0.40674484 -0.67983037 -0.610237 0.0019101148
-0.020989571 -0.0090345619 0.00082220789 -0.56052119 -0.47488108 -0.67845696 0.00079638168
-0.019017864 -0.0098639987 -6.1884522e-05 -0.51981646 -0.50376624 -0.68993515 0.0016006031
-0.01702626 -0.010662084 -0.0009562308 -0.51198083 -0.54006201 -0.66798848 0.00085519749
-0.023604855 -0.0057821302 0.0010494757 -0.58386153 -0.33945158 -0.73748112 0.001519828
-0.021787677 -0.006749359 0.0001288373 -0.57759202 -0.36002377 -0.73264611 0.0020143236
-0.019666415 -0.0075439075 -0.0010724915 -0.5477373 -0.4028571 -0.73327351 0.0025925904
-0.024010245 -0.0036852083 0.00076323189 -0.60520059 -0.18600512 -0.77403766 0.0012849319
-0.022005476 -0.0038850049 -0.00073334388 -0.60111409 -0.17433675 -0.77991575 0.00098676176
-0.024345096 -0.00075455697 0.00059812237 -0.60246778 0.028837139 -0.79762208 0.0047108452
-0.022401087 -0.00074960687 -0.00092196278 -0.60253209 0.017257176 -0.79790801 0.0039434568
-0.023986336 0.0019800118 0.00084798783 -0.57921064 0.3061766 -0.75549382 0.0038880908
-0.021959122 0.0023823024 -0.00053584483 -0.59202039 0.28988171 -0.75198436 0.0042305882
-0.020157576 0.003416223 -0.0014241915 -0.57047355 0.32902753 -0.75252962 0.0031786559
-0.02153435 0.004730395 0.00049372297 -0.54425329 0.45730034 -0.70332402 0.00089749414
-0.01938054 0.0053056106 -0.00076674391 -0.5424189 0.44666332 -0.71152908 0.00081556092
-0.018591013 0.0077264551 0.00045572128 -0.51752359 0.53307527 -0.66932815 0.00024778745
-0.01629521 0.0085672308 -0.00063237175 -0.50705087 0.54761451 -0.66559583 0.00032351824
-0.014046787 0.0095209302 -0.0015575569 -0.49704626 0.55256498 -0.66904193 0.0003547557
-0.015472605 0.010680797 0.00055275019 -0.4992325 0.58771533 -0.63667697 0.00016730759
-0.013195072 0.01144754 -0.00049297232 -0.48242238 0.6128822 -0.62581468 0.00045642463
-0.010998457 0.01230291 -0.0013118219 -0.47338304 0.6222561 -0.62346274 0.00073877489
-0.012428987 0.01323502 0.00070231035 -0.45871469 0.65632552 -0.59901392 0.00093086594
-0.0099164573 0.014052219 -0.00022768881 -0.403072 0.70917058 -0.57845473 0.0017976324
-0.007003692 0.015207026 -0.00084681623 -0.33840832 0.81083202 -0.47752616 0.0067118579
-0.0051664738 0.015631286 -0.001422016 -0.31861073 0.84393299 -0.43158352 0.0051588188
-0.0085266614 0.015717713 0.0010373611 -0.31161603 0.82733053 -0.46735391 0.0081693856
-0.0067085093 0.016119478 0.00056506135 -0.30046695 0.84262508 -0.44688082 0.0061142887
-0.0039778827 0.016465629 -0.00032148417 -0.28305519 0.88249111 -0.37561843 0.0022778488
-0.0018335078 0.016760416 -0.00092709903 -0.28517208 0.87544656 -0.39021823 0.0019096588
-0.0071522435 -0.017333569 0.0035312194 -0.085657097 -0.98013949 -0.178856 0.00076679629
-0.017997857 -0.014755958 0.0036973851 -0.43901765 -0.72378778 -0.53234822 0.0055469982
-0.01579136 -0.015187174 0.0027146637 -0.37446359 -0.79964864 -0.46940282 0.0073258132
-0.013101374 -0.016109074 0.0027236398 -0.26783279 -0.88743943 -0.37512243 0.0051203128
-0.010146097 -0.016651647 0.0025312239 -0.18296079 -0.93322349 -0.30922365 0.0012875
-0.005743132 -0.01729867 0.0026935656 -0.1161017 -0.97256243 -0.20160027 0.0026283877
-0.0046205046 -0.017270671 0.0020212252 -0.08902508 -0.98241127 -0.16414228 0.00084350258
-0.021481678 -0.01204269 0.0036951574 -0.51680946 -0.57285249 -0.63619798 0.00055736298
-0.019125123 -0.012961258 0.0027015656 -0.47308981 -0.62630045 -0.6196239 0.0017841661
-0.016734514 -0.013712027 0.001605046 -0.46410301 -0.62805235 -0.62462676 0.000775914
-0.024287492 -0.0091703124 0.0036222469 -0.55798942 -0.47841686 -0.67805988 0.00093832426
-0.022181351 -0.0099850884 0.0025465684 -0.54925323 -0.48633406 -0.67955863 0.00057326781
-0.020089332 -0.010916008 0.0015994925 -0.52527547 -0.5238294 -0.67058808 0.00058068224
-0.026736941 -0.0061997715 0.0039046276 -0.60832745 -0.35502416 -0.70985597 0.0012277339
-0.024895858 -0.0067192512 0.0025781216 -0.60431153 -0.32909429 -0.7256062 0.0011837248
-0.023072731 -0.0077478914 0.0016272385 -0.56907386 -0.40473688 -0.71578133 0.0027275856
-0.027275883 -0.0037594123 0.0034729904 -0.63982439 -0.19712882 -0.74280882 0.0013240174
-0.025413439 -0.0039664805 0.0019719824 -0.63232696 -0.18231852 -0.75294262 0.0010009749
-0.027556449 -0.00076308043 0.0032195589 -0.65547037 0.033455729 -0.75447953 0.0051457514
-0.025734674 -0.00075820892 0.001736531 -0.65054911 0.024833838 -0.75905806 0.0044563022
-0.027166426 0.0021008044 0.003528676 -0.61286712 0.31166831 -0.72612447 0.0043057245
-0.025262766 0.0025441097 0.0021675192 -0.59595478 0.3205128 -0.7362808 0.0044934019
-0.026559703 0.0040145642 0.0040964801 -0.57190841 0.46076307 -0.67868865 0.00034558348
-0.024600983 0.0049616983 0.0031312071 -0.56056607 0.46010533 -0.68852651 0.00051360787
-0.022527397 0.0056766998 0.0019328585 -0.55700529 0.46052846 -0.69112849 0.00036450886
-0.023936104 0.0070144404 0.0041158618 -0.54777586 0.5222277 -0.65362054 0.00018505524
-0.021848526 0.007887193 0.0031232452 -0.52815109 0.53846735 -0.65658915 0.00027081452
-0.019550581 0.0088519501 0.0021370267 -0.5113796 0.55592096 -0.65531886 0.00022762195
-0.018517252 0.011025559 0.0032701306 -0.50211215 0.5906176 -0.63170749 0.00021977353
-0.016147479 0.011886573 0.0022246661 -0.48355615 0.62631088 -0.6114803 0.00077301892
-0.015526158 0.013507533 0.0033739302 -0.45022765 0.66777366 -0.59276754 0.0011450024
-0.013193919 0.014356133 0.0026066583 -0.42333138 0.73462468 -0.53020483 0.0028255933
-0.011147543 0.015001169 0.0018714787 -0.39259669 0.74010593 -0.54599553 0.0019479269
-0.012213928 0.015817521 0.0038775373 -0.38779035 0.75980091 -0.52184415 0.0014781894
-0.0099503798 0.01606141 0.002829521 -0.27636296 0.87947512 -0.3874881 0.0090615489
-0.0068641594 0.016677184 0.0027948283 -0.24945161 0.92060685 -0.30042809 0.0023843872
-0.0048999852 0.016868731 0.001942249 -0.24875937 0.92391086 -0.29070163 0.001334684
-0.012275956 -0.017476128 0.0069536734 -0.11965571 -0.96846884 -0.21851911 0.0012487561
-0.0099896407 -0.017411768 0.0054085925 -0.11562976 -0.97223181 -0.20345785 0.001102114
-0.0035010418 -0.018037619 0.0068455059 -0.041707031 -0.98825669 -0.14700083 0.00012405521
-0.00095850416 -0.018004883 0.0060833171 -0.03444 -0.98977798 -0.13839613 9.6983247e-05
0.0021451572 -0.017994119 0.0058330316 -0.038756158 -0.98967206 -0.13801162 0.00028658559
0.0046643838 -0.017943433 0.0046527851 -0.032386243 -0.9913078 -0.12751466 6.7389985e-05
-0.021392759 -0.014988685 0.0066542197 -0.41974699 -0.73865992 -0.52744085 0.0070385719
-0.018984262 -0.01548969 0.0057075918 -0.37534934 -0.81306076 -0.44502243 0.0056799455
-0.01598832 -0.016434643 0.0056470949 -0.24227612 -0.91782564 -0.31448102 0.0020209877
-0.013367348 -0.016836585 0.0051345173 -0.19762298 -0.93439597 -0.29639375 0.001085643
-0.02457808 -0.01231467 0.0064478051 -0.52042443 -0.57645339 -0.62996817 0.00064535142
-0.022340249 -0.013215432 0.0054867156 -0.48758769 -0.64467812 -0.58876848 0.0019075614
-0.020395875 -0.014002326 0.0046780426 -0.48283917 -0.64935541 -0.58754051 0.0014649492
-0.027381916 -0.0093719689 0.0064077247 -0.5725165 -0.4787181 -0.66562283 0.00078371406
-0.025365856 -0.010243318 0.0053439941 -0.55096239 -0.51181746 -0.65915364 0.00080171518
-0.02992712 -0.0063770274 0.0067518521 -0.61897182 -0.3564539 -0.69986743 0.0009762175
-0.028051633 -0.006841138 0.0053380206 -0.60394108 -0.3696866 -0.7061069 0.0016499854
-0.030545749 -0.0038225565 0.0062976871 -0.64388692 -0.20518498 -0.73709482 0.0015291276
-0.028852656 -0.0038669694 0.0048333127 -0.63482505 -0.19700737 -0.747118 0.0012554522
-0.03096493 -0.00076126191 0.0061497651 -0.64558756 0.037294094 -0.76277518 0.0054937359
-0.029266797 -0.00076785556 0.0046931785 -0.6380288 0.031006377 -0.76938796 0.0046829828
-0.030446138 0.0022702599 0.0064734221 -0.6259926 0.29697433 -0.72106826 0.0033740907
-0.028625254 0.0024717676 0.0049576703 -0.62183344 0.28207797 -0.73058558 0.0028414261
-0.029734679 0.0042260461 0.0070036966 -0.58899343 0.4610486 -0.66371751 0.00031153622
-0.027701497 0.0050773378 0.0058259517 -0.57411736 0.46537262 -0.6736598 0.00058344059
-0.025806352 0.0058224089 0.0047548674 -0.56574363 0.47223997 -0.6759612 0.00046657099
-0.027090501 0.007245332 0.006966494 -0.56098658 0.52706659 -0.63835317 0.0002454494
-0.024988387 0.0081368964 0.0059070531 -0.54680926 0.53183454 -0.64664644 8.7404995e-05
-0.022664558 0.0093361801 0.0050303787 -0.51653123 0.57358074 -0.63576776 6.3620144e-05
-0.024450373 0.0098879701 0.0070059318 -0.5281052 0.56875557 -0.63057292 0.00011492502
-0.021836482 0.01120694 0.0061052646 -0.49999917 0.61468816 -0.61004865 0.00018076773
-0.019784741 0.011851214 0.0050638244 -0.48104152 0.62109828 -0.61873734 0.00044448368
-0.020481393 0.01309253 0.0068679173 -0.45637438 0.66954798 -0.58602726 0.0008319419
-0.018525854 0.013837251 0.0061461963 -0.44256562 0.69949889 -0.56110328 0.0024532853
-0.016214736 0.014742591 0.0053760204 -0.41504171 0.7298339 -0.54321522 0.0021533356
-0.014198196 0.015278635 0.0045642871 -0.3882668 0.77779418 -0.49425188 0.0012865931
-0.015378428 0.015910916 0.0065348167 -0.39950201 0.75983864 -0.51287746 0.00087427604
-0.013309424 0.01623434 0.0056901481 -0.38144061 0.77819532 -0.49891382 0.0011903001
-0.011384877 0.016408278 0.0046624262 -0.24637188 0.89433151 -0.37345949 0.0059697628
-0.0074461168 0.016985012 0.0050230343 -0.21295005 0.92758143 -0.3069934 0.0025250344
-0.015459255 -0.017581668 0.0094872527 -0.1321166 -0.97170442 -0.19579513 0.0010068173
-0.013716386 -0.017520251 0.0080128722 -0.12517239 -0.97241235 -0.19684035 0.00091852079
-0.0094835302 -0.018161068 0.0097194482 -0.082503051 -0.9806394 -0.1775942 0.00029485271
-0.006909431 -0.018103354 0.008375736 -0.057756577 -0.98658955 -0.15266065 7.1624476e-05
-0.0049179932 -0.018066296 0.0075129289 -0.053044714 -0.98747349 -0.14860128 4.4977834e-05
-0.024822585 -0.015050573 0.0094710682 -0.41486108 -0.75548279 -0.5070858 0.0074042361
-0.022215039 -0.01580113 0.008713346 -0.34608832 -0.82611459 -0.44469929 0.005970791
-0.018948071 -0.016797964 0.0088644139 -0.22208565 -0.92133474 -0.31909284 0.0018812014
-0.01683145 -0.01694482 0.0078167636 -0.20200562 -0.93561447 -0.28951532 0.00094888691
-0.029723939 -0.011331367 0.009977879 -0.55700737 -0.53597969 -0.63440406 0.00020012868
-0.027693056 -0.012559213 0.0093245711 -0.53519976 -0.58028525 -0.61386496 0.00059295539
-0.025401093 -0.013473544 0.0082124639 -0.49353454 -0.63779163 -0.59130818 0.002460602
-0.030574005 -0.0093628783 0.0091564525 -0.58225352 -0.46682799 -0.66562176 0.00074467779
-0.028428145 -0.010381349 0.0080828983 -0.56454831 -0.49213305 -0.66263884 0.0010328761
-0.032962225 -0.0065055452 0.0095782764 -0.63532597 -0.35647756 -0.68504357 0.00074129051
-0.031248983 -0.0069690999 0.0082535371 -0.63286477 -0.36245781 -0.68418318 0.0011482799
-0.033661127 -0.0039123213 0.00919009 -0.65649348 -0.20943387 -0.72467494 0.0012948943
-0.031948186 -0.0040853322 0.0076633859 -0.67027569 -0.20270742 -0.71389097 0.0013489992
-0.035447724 -0.0010713735 0.010294737 -0.71169633 0.032097105 -0.70175362 0.0074927588
-0.033986058 -0.00079311931 0.008953549 -0.6739803 0.070319287 -0.73539501 0.0068477113
-0.03241086 -0.00083360914 0.0075162314 -0.6528917 0.034753699 -0.75665361 0.005619145
-0.033527426 0.0022625888 0.0093167908 -0.64104712 0.2974861 -0.70750314 0.003478972
-0.031784981 0.0025853852 0.0078536924 -0.66285044 0.29050604 -0.69009817 0.0028345627
-0.03271351 0.0044878656 0.0099280793 -0.60730255 0.46191761 -0.6463868 0.00028458671
-0.030870948 0.0052699056 0.0087733138 -0.59317803 0.46464589 -0.65745264 0.00059238257
-0.028823916 0.0061205048 0.0075697526 -0.56611532 0.51640487 -0.64252591 0.00012807749
-0.030084189 0.0072860448 0.0096483249 -0.57271874 0.52447003 -0.63001937 0.00026147533
-0.028132364 0.0082194135 0.0087019615 -0.56161267 0.53419197 -0.63184667 9.8426535e-05
-0.026190817 0.0091488482 0.0078132469 -0.53835541 0.56226873 -0.627716 0.00021168549
-0.027235702 0.01013421 0.0096437801 -0.54426306 0.57229352 -0.61339855 0.00015857427
-0.02510776 0.01122191 0.0088419877 -0.52904958 0.58887058 -0.61101389 0.0001442606
-0.022983637 0.012178624 0.007971935 -0.50587165 0.61226189 -0.60764229 0.00016228651
-0.023738489 0.013466914 0.0099853296 -0.47401893 0.68483829 -0.55344605 0.0009737268
-0.021675143 0.014065199 0.0090194866 -0.45512822 0.69077122 -0.56186599 0.0012387586
-0.019329619 0.015049152 0.0082621966 -0.40912032 0.76453739 -0.49809954 0.0016682671
-0.01868308 0.016106427 0.0093933605 -0.4047623 0.76175576 -0.50586134 0.0015594717
-0.016237672 0.016378049 0.0082783159 -0.41320488 0.76924962 -0.48735708 0.0014657294
-0.018397853 -0.017694138 0.012187354 -0.12995501 -0.97474635 -0.18160757 0.00057464535
-0.016921673 -0.017634938 0.010765912 -0.13092737 -0.9750194 -0.17942995 0.00060371932
-0.012667612 -0.018263953 0.012114581 -0.094285451 -0.9836669 -0.15332821 1.2395005e-05
-0.01092404 -0.018203558 0.010708394 -0.084920987 -0.98399669 -0.15664867 3.079238e-05
-0.02791445 -0.015176967 0.012284195 -0.4236629 -0.76298136 -0.48823079 0.0074873422
-0.025186807 -0.016068155 0.01160522 -0.39103314 -0.79579931 -0.46238145 0.0078471992
-0.022018015 -0.017017802 0.011983689 -0.23023257 -0.93120193 -0.28258801 0.0021952412
-0.020057928 -0.017058926 0.01064417 -0.2265906 -0.9269256 -0.29910818 0.0022655153
-0.032776069 -0.011701639 0.013017433 -0.58551538 -0.53897703 -0.60553735 0.00061814085
-0.0308652 -0.012535076 0.012068495 -0.55049926 -0.58147633 -0.59902906 0.0008790986
-0.0286537 -0.013651597 0.011192797 -0.49084243 -0.67730373 -0.5480268 0.0023280713
-0.035669222 -0.0085508851 0.013333352 -0.63608938 -0.44514036 -0.63027006 0.00054827629
-0.033613715 -0.0094279293 0.012000138 -0.60566372 -0.46103662 -0.64854962 0.00083945523
-0.031684704 -0.010405017 0.010916846 -0.59665531 -0.46920788 -0.65103483 0.00057502137
-0.036029428 -0.0065540439 0.012549752 -0.66335618 -0.3554019 -0.65851963 0.00079975493
-0.034367561 -0.0069952635 0.011153432 -0.64054477 -0.36318132 -0.67661047 0.0012775051
-0.036559545 -0.0038633805 0.011960981 -0.69632614 -0.21422106 -0.68501043 0.001112412
-0.034903575 -0.00478411 0.010662558 -0.6748814 -0.21440721 -0.70609111 0.0010399375
-0.038538136 -0.00079587335 0.013292136 -0.73236322 0.027027646 -0.68037754 0.006908745
-0.036822502 -0.00075893628 0.011689385 -0.71075922 0.061605357 -0.70073253 0.0080903871
-0.036421794 0.0022081484 0.012065208 -0.67861354 0.30397195 -0.66864389 0.003290585
-0.034778841 0.0030682771 0.010914581 -0.64210385 0.34850869 -0.68282092 0.0038697913
-0.035781816 0.0045140474 0.012909146 -0.62227124 0.46391511 -0.63052464 0.00022044464
-0.033980664 0.0053055501 0.011750521 -0.6216132 0.46480334 -0.63051951 0.00049029867
-0.032049969 0.0063499184 0.010680886 -0.59378922 0.49887753 -0.63129669 0.00029634993
-0.033125963 0.0073297499 0.01252621 -0.59120935 0.52468377 -0.61251801 0.00037279641
-0.031205077 0.0083194878 0.011566844 -0.57975662 0.53953058 -0.61056447 0.00030704364
-0.029183902 0.0092011215 0.010490568 -0.55939215 0.55272621 -0.61771685 0.00016650873
-0.030253924 0.010194942 0.012442987 -0.55540955 0.58064884 -0.59528738 0.00024222938
-0.028193623 0.01128477 0.011651779 -0.54250163 0.59499669 -0.59301847 8.0152357e-05
-0.026166949 0.012449415 0.011011612 -0.51377463 0.64013988 -0.57118869 0.00036006162
-0.027319547 0.013266695 0.012952494 -0.50670296 0.67092866 -0.54139346 0.0015190608
-0.024775743 0.014261547 0.011881026 -0.46367458 0.71679091 -0.52078474 0.00072759652
-0.022479828 0.015274531 0.011193242 -0.40266368 0.79351759 -0.45628038 0.0026201713
-0.02164248 0.016203107 0.012127098 -0.3966313 0.78943837 -0.46847695 0.00263572
-0.019229148 0.016653532 0.011391575 -0.41435826 0.77850622 -0.47141838 0.0029024896
-0.021386459 -0.017821964 0.01525596 -0.10671744 -0.98178184 -0.1572129 0.00071739749
-0.019884069 -0.017754966 0.013647707 -0.11603905 -0.97840822 -0.17103279 0.00080616929
-0.01560503 -0.018379988 0.014815729 -0.099727273 -0.98652118 -0.12973213 9.2461145e-05
-0.014422058 -0.018328445 0.01361558 -0.098089397 -0.98533362 -0.13962843 9.1302856e-05
-0.03297044 -0.014383662 0.015945228 -0.49951401 -0.66667497 -0.55319995 0.0047913394
-0.031016186 -0.015136035 0.015039833 -0.43764904 -0.75311512 -0.4912037 0.0062766303
-0.027979303 -0.016279351 0.014508707 -0.37117341 -0.83664995 -0.40279901 0.0053360402
-0.025015727 -0.017128605 0.014744218 -0.2157976 -0.93717057 -0.27412155 0.0022827559
-0.035851404 -0.011491406 0.015832515 -0.5901835 -0.53265661 -0.60659742 0.00066367153
-0.034033656 -0.012565316 0.015011592 -0.57443184 -0.57807904 -0.57952791 0.001422144
-0.031687271 -0.013740416 0.013939204 -0.54403114 -0.59019589 -0.59640491 0.00066375022
-0.03668439 -0.0095730796 0.015148159 -0.63653475 -0.45756423 -0.62085295 0.00081043399
-0.034753192 -0.010480454 0.013914483 -0.62392521 -0.46419084 -0.62868452 0.00060531043
-0.039046735 -0.0065464461 0.015654629 -0.67852753 -0.36376876 -0.63817918 0.00082168472
-0.037464887 -0.007049432 0.01426857 -0.66846859 -0.36785963 -0.64639699 0.0013814503
-0.039573796 -0.003858322 0.015063686 -0.70412314 -0.22302778 -0.67414325 0.0011359658
-0.037992589 -0.0045338944 0.013661386 -0.70246083 -0.21647568 -0.67800224 0.00096167991
-0.039896224 -0.00080078619 0.014821177 -0.73644537 0.02910232 -0.67587084 0.0068147834
-0.039430398 0.0022011683 0.01511875 -0.6882233 0.31682441 -0.65266442 0.0026822835
-0.03780932 0.0028446193 0.013767801 -0.68872106 0.29402515 -0.66273111 0.0027284373
-0.038938966 0.0042994888 0.015912931 -0.64738804 0.45785573 -0.60930854 0.0003202197
-0.037073549 0.0053378902 0.014796427 -0.6221143 0.46313673 -0.63125128 0.00051083486
-0.035121404 0.0063892873 0.013705077 -0.60939014 0.4999882 -0.61534995 0.0003622692
-0.036218997 0.0073763188 0.015591469 -0.60336655 0.52085859 -0.60386682 0.00033885107
-0.034216538 0.0083193891 0.014462514 -0.58630234 0.54705161 -0.59748149 0.0004068506
-0.033322822 0.010260274 0.015453624 -0.56683129 0.59078759 -0.57417107 0.00037940376
-0.03133839 0.011199737 0.014486929 -0.55914497 0.59408617 -0.57828927 0.00014560332
-0.029367093 0.012136218 0.013617875 -0.53672558 0.61957484 -0.57275879 0.00021395797
-0.030229237 0.013179267 0.015654689 -0.52123231 0.66835386 -0.53067893 0.00017298307
-0.027830597 0.014246548 0.014712133 -0.49738657 0.69305205 -0.52180988 0.001193534
-0.02551214 0.015458067 0.014113488 -0.41244945 0.79499727 -0.44481996 0.0072978511
-0.024835259 0.016207347 0.014968785 -0.39250171 0.81427634 -0.42766386 0.0053350865
-0.022222318 0.016768346 0.014541635 -0.39388669 0.82158595 -0.41212842 0.0043281913
-0.027888872 -0.017360177 0.018109761 -0.19648644 -0.95576894 -0.21885759 0.00041873407
-0.024408408 -0.017943975 0.018185131 -0.12445352 -0.9768424 -0.17404057 0.0024266113
-0.022892818 -0.017883474 0.01673256 -0.12303565 -0.97874886 -0.16405115 0.00070977741
-0.018040873 -0.018552827 0.018839153 -0.091346174 -0.98952836 -0.11175625 0.00012765275
-0.017130438 -0.018498952 0.017584996 -0.095963612 -0.98857474 -0.11623658 0.00015383611
-0.035679586 -0.014674044 0.018793069 -0.51896721 -0.67533767 -0.52401531 0.0040547261
-0.033669382 -0.015248148 0.017731881 -0.47815961 -0.74818295 -0.4599843 0.0057670819
-0.030755188 -0.016466625 0.017514937 -0.33016807 -0.8814705 -0.33763719 0.003451477
-0.027806539 -0.017010735 0.016619267 -0.24584396 -0.93048197 -0.27159542 0.0036554036
-0.038999483 -0.011580783 0.019102277 -0.62387234 -0.53917223 -0.56575304 0.00065820955
-0.036968533 -0.012515169 0.017878031 -0.60466218 -0.53317595 -0.59169841 0.00041459786
-0.035174843 -0.01365192 0.017147841 -0.57614356 -0.59172672 -0.56384224 0.001314296
-0.039581332 -0.0095806457 0.018134411 -0.65598673 -0.44855249 -0.60702717 0.00081277278
-0.037922204 -0.010365166 0.016995721 -0.62696815 -0.46387932 -0.6258809 0.00098410458
-0.042081866 -0.0064366236 0.018853955 -0.69199872 -0.35751507 -0.62715286 0.00062542298
-0.0405031 -0.0070796106 0.017491153 -0.67477417 -0.36089832 -0.64376402 0.00084824656
-0.042555794 -0.0039046078 0.018266646 -0.72905344 -0.21288984 -0.65050679 0.0014908873
-0.041016147 -0.0044548092 0.016792901 -0.71626842 -0.20668273 -0.66651464 0.0011835581
-0.042673979 -0.00081057253 0.017858218 -0.73962194 0.041083544 -0.67176747 0.0061767991
-0.042428885 0.0020704854 0.018381009 -0.71025062 0.32975426 -0.62193745 0.0033058354
-0.040860478 0.0027401536 0.017006023 -0.70466876 0.31878906 -0.63388914 0.0033915839
-0.041907065 0.0041315532 0.019077273 -0.67475557 0.45247194 -0.58307296 0.0003762639
-0.039997321 0.005283027 0.017853474 -0.65292317 0.46060362 -0.60127831 0.00080136565
-0.038242944 0.0064304592 0.016866775 -0.62254405 0.51561075 -0.58871418 0.00022084062
-0.039151933 0.0072278501 0.018580537 -0.64029413 0.50572395 -0.57815808 0.00012587864
-0.037344381 0.0083762063 0.017731903 -0.60598665 0.547773 -0.57682317 0.00036566291
-0.035325065 0.0093194367 0.016549738 -0.5820393 0.57496488 -0.57501787 0.0003281087
-0.036214374 0.010599843 0.018815609 -0.57808191 0.60616744 -0.54624397 0.00013361241
-0.03426807 0.011192735 0.017438874 -0.57570851 0.59726149 -0.55842495 0.00016958016
-0.032441456 0.012216357 0.016695859 -0.554721 0.62492526 -0.54932058 0.00018741735
-0.032943245 0.013230895 0.018450715 -0.54370356 0.65736353 -0.52178496 0.00026903197
-0.030923035 0.014254831 0.017721564 -0.50335503 0.70360601 -0.50156963 0.00074565562
-0.028391305 0.015304239 0.016721886 -0.39443284 0.83552206 -0.3825255 0.0094378684
-0.029962193 0.015760778 0.018809648 -0.36775479 0.82835835 -0.42258593 0.013972895
-0.028128054 0.016145566 0.017926281 -0.30314153 0.87473482 -0.37807974 0.0059032976
-0.024677452 0.016884262 0.017722094 -0.31936967 0.89252806 -0.31842831 0.004856097
-0.030407585 -0.017492216 0.021381667 -0.20031151 -0.96048123 -0.19326416 0.000434438
-0.027849063 -0.017866634 0.020990541 -0.18877546 -0.9636777 -0.18891564 0.00033579741
-0.025949225 -0.018018143 0.019965576 -0.18465196 -0.96409476 -0.19085322 0.00033212916
-0.018690962 -0.01863973 0.02086273 -0.087448075 -0.99035215 -0.10749572 9.4689698e-05
-0.038644254 -0.014588761 0.022005053 -0.56917512 -0.6603139 -0.48992369 0.0040831724
-0.036810759 -0.015244903 0.020971714 -0.45656645 -0.76210302 -0.45907098 0.007191746
-0.034057043 -0.016390309 0.02059144 -0.35181391 -0.87638605 -0.32889906 0.0072596679
-0.031763606 -0.016841942 0.019707905 -0.28649601 -0.91585112 -0.28131241 0.0037973777
-0.041577473 -0.011661622 0.022059353 -0.62090087 -0.56034154 -0.54817837 0.001084646
-0.039614543 -0.012688149 0.020861717 -0.59996212 -0.58690464 -0.54368043 0.0010923204
-0.037697222 -0.013738015 0.019829186 -0.59129256 -0.58305055 -0.55715805 0.00091706665
-0.042375922 -0.0097990315 0.021388268 -0.66610831 -0.44576249 -0.59799302 0.0007222984
-0.040884815 -0.010072676 0.019901374 -0.66652715 -0.44502679 -0.59807426 0.00062645925
-0.044642422 -0.0066806888 0.021944584 -0.71953809 -0.35415947 -0.59735757 0.00065612554
-0.043281417 -0.0070671337 0.020568859 -0.710989 -0.35635453 -0.60622281 0.0007710866
-0.045392223 -0.0038066718 0.02150319 -0.74677926 -0.19966973 -0.63439155 0.0020969915
-0.044114031 -0.0042454749 0.020151617 -0.73326159 -0.20127971 -0.64947206 0.0014832038
-0.045561172 -0.00090746104 0.021172302 -0.76831621 0.033697426 -0.63918281 0.0064652371
-0.04428925 -0.00081654137 0.01967565 -0.74957138 0.047500256 -0.66021699 0.0060857139
-0.045144871 0.0021456117 0.021723034 -0.73240137 0.31051859 -0.60594267 0.0018540481
-0.043766301 0.0026560375 0.02033524 -0.72192025 0.32598585 -0.61038047 0.0027213781
-0.04452879 0.004156766 0.022304537 -0.7008723 0.44254965 -0.55939955 0.00039946468
-0.042732179 0.0052796192 0.021020779 -0.69083661 0.45694193 -0.56031132 0.00046571379
-0.041185118 0.0058849826 0.01971836 -0.66818982 0.47002101 -0.57671696 0.00047996026
-0.041697893 0.0075188624 0.021752531 -0.64475095 0.53184974 -0.54902828 0.00026663244
-0.039981559 0.008403956 0.020646429 -0.62647235 0.54214513 -0.5600099 0.00048095977
-0.039005104 0.010394223 0.021626523 -0.60101634 0.59232992 -0.53658617 0.00026664493
-0.037132218 0.011489357 0.020803446 -0.58021224 0.61989957 -0.52827853 0.00042860574
-0.034943707 0.012285602 0.019356163 -0.55520856 0.63629824 -0.53560054 0.00037693133
-0.036128417 0.013076493 0.021633672 -0.54845136 0.6562869 -0.51815879 0.00058665161
-0.033986565 0.014186056 0.020798502 -0.50857288 0.71737224 -0.47616252 0.0015620262
-0.031772397 0.01521298 0.019847097 -0.50836587 0.72128904 -0.47043186 0.0013773751
-0.03278929 0.015870107 0.022040071 -0.50456637 0.7502932 -0.42716849 0.0012374345
-0.031045035 0.016164761 0.020877386 -0.31641898 0.89961994 -0.30093682 0.013605301
-0.027168114 0.01700238 0.020962792 -0.24456795 0.93720603 -0.24865933 0.0035086616
-0.026220165 0.016951425 0.019564958 -0.24106963 0.94083518 -0.23814821 0.0022468877
-0.032999992 -0.017649429 0.025277348 -0.19250989 -0.96700692 -0.16684595 0.00046360676
-0.032016534 -0.01758627 0.023712428 -0.18912354 -0.96625167 -0.17490013 0.00050372502
-0.028494954 -0.018178778 0.023822026 -0.17630747 -0.97115916 -0.16051613 0.00013346615
-0.039799824 -0.015126785 0.023986774 -0.5477066 -0.67963159 -0.48797369 0.0030546188
-0.037279289 -0.016333912 0.023895992 -0.40767395 -0.85494941 -0.32072321 0.0041707605
-0.034636714 -0.016983576 0.023334844 -0.26753125 -0.93546557 -0.23093572 0.0019212577
-0.04258455 -0.012556068 0.02402013 -0.63009131 -0.55776978 -0.54025728 0.0012872765
-0.040681686 -0.013645367 0.023033055 -0.54485816 -0.68902141 -0.47789016 0.0028807449
-0.04514074 -0.0096084885 0.024492437 -0.68776178 -0.45038182 -0.56933284 0.00056493049
-0.043703716 -0.010259778 0.023275303 -0.68284792 -0.453017 -0.57314432 0.00077484653
-0.047749594 -0.0058497516 0.025277378 -0.76134479 -0.31379002 -0.56735337 0.00054667384
-0.046006013 -0.0070377039 0.023804577 -0.71932465 -0.34112415 -0.60514987 0.00085662538
-0.047948804 -0.0036805754 0.024634166 -0.78463149 -0.17349204 -0.59519237 0.0022359199
-0.046604335 -0.0042929044 0.023166912 -0.77096552 -0.18002804 -0.61090261 0.0021870746
-0.047920261 -0.00069725083 0.024281578 -0.80393112 0.064637855 -0.59119928 0.0062526865
-0.046844646 -0.00061732566 0.02287717 -0.80237991 0.059558913 -0.59383434 0.006181756
-0.047701064 0.0015242151 0.02478029 -0.75481743 0.32536572 -0.56955057 0.0015974632
-0.046421919 0.0026144097 0.023715479 -0.75497383 0.3286851 -0.56743336 0.0015991271
-0.04532906 0.0051026652 0.024085516 -0.7015143 0.45077434 -0.55197847 0.00050669478
-0.043863505 0.0060709836 0.023056554 -0.68916339 0.46859595 -0.55269486 0.00057356089
-0.044787183 0.0071279528 0.025140258 -0.66930997 0.5072099 -0.54292011 0.00036298498
-0.042859755 0.0081671169 0.023771061 -0.65029663 0.53080398 -0.54347163 0.00060270209
-0.041061796 0.0094434442 0.02290106 -0.6278314 0.56309313 -0.53735828 0.00047602528
-0.042023327 0.010270791 0.0250044 -0.63011479 0.58413845 -0.511603 0.00036070668
-0.040082015 0.011339139 0.023931572 -0.61119598 0.60317403 -0.51246518 0.00025445884
-0.038128555 0.012378317 0.022916855 -0.57531011 0.63668519 -0.5134688 0.00036156765
-0.039163556 0.013018814 0.024877073 -0.58411646 0.63232744 -0.50889093 0.00021968252
-0.036909163 0.014129465 0.023883542 -0.50545502 0.71850139 -0.47777709 0.002473833
-0.035015114 0.015125033 0.023155553 -0.50090379 0.736628 -0.45439485 0.0023039852
-0.033994716 0.01613206 0.023981189 -0.49470893 0.75117052 -0.43704233 0.0012767647
-0.032265164 0.016489847 0.023006501 -0.29447299 0.90409881 -0.3096627 0.011375024
-0.028498754 0.017109005 0.023888307 -0.22885451 0.94627249 -0.22845992 0.0027981102
-0.033994518 -0.01771515 0.026906164 -0.16398777 -0.97739786 -0.13342208 0.00024947154
-0.029807162 -0.018276574 0.026169481 -0.16027589 -0.97807831 -0.13294564 0.00018591562
-0.042515818 -0.015101284 0.027140358 -0.49973619 -0.76243925 -0.41103539 0.0077653411
-0.040167417 -0.016037801 0.026367599 -0.40473041 -0.84633857 -0.34627208 0.0069001899
-0.036949523 -0.017120125 0.02683151 -0.2270613 -0.95703667 -0.18034412 0.00055532152
-0.04521089 -0.012622183 0.027351463 -0.65819228 -0.55215043 -0.51177418 0.00095857144
-0.043640189 -0.013484382 0.026246542 -0.60723317 -0.62430471 -0.49143821 0.0035404919
-0.047807176 -0.0096459119 0.027894935 -0.71210235 -0.46579045 -0.52530885 0.0008510304
-0.046516709 -0.01014835 0.026631465 -0.70234728 -0.46260971 -0.54101813 0.00093441503
-0.048555024 -0.0069221687 0.026987562 -0.7540344 -0.33294445 -0.56619799 0.0008997416
-0.047209088 -0.0079244925 0.025791066 -0.73602974 -0.34853742 -0.58032906 0.00082508283
-0.051017992 -0.0023297244 0.028335603 -0.82390553 -0.13862975 -0.54951018 0.0019577907
-0.049470298 -0.003799123 0.026726833 -0.77932763 -0.16906089 -0.60337949 0.001591711
-0.050996713 -0.00084400782 0.028131271 -0.79272783 0.037906356 -0.60839605 0.0082491999
-0.049641892 -0.00054262218 0.026475245 -0.78463638 0.063534699 -0.61669207 0.0043552262
-0.048996471 0.0023541297 0.026865346 -0.74863821 0.31706181 -0.58224779 0.0012987384
-0.048198666 0.0046714405 0.027446369 -0.7127884 0.43606213 -0.54934734 0.00067110796
-0.0467255 0.0057171378 0.026392864 -0.71057349 0.45348319 -0.53799456 0.00046354887
-0.045610942 0.0080950186 0.027133176 -0.67471069 0.52180415 -0.52200174 0.00055605418
-0.043878797 0.0091097681 0.025975442 -0.64484435 0.5574159 -0.52293718 0.00033647433
-0.042934787 0.011053987 0.027013602 -0.63056564 0.59385741 -0.49972028 0.00017134499
-0.041148949 0.012269712 0.026311805 -0.61154872 0.61243647 -0.50092876 0.00014277935
-0.041464269 0.013096851 0.027732046 -0.58115965 0.65875244 -0.47780609 0.0012235777
-0.039721973 0.014063203 0.026954832 -0.53635234 0.6944949 -0.47958627 0.0013027439
-0.037896112 0.014942161 0.026046032 -0.52248561 0.74415392 -0.41622555 0.0025691958
-0.036579493 0.016241172 0.027164837 -0.46058401 0.79087371 -0.40296528 0.0011156478
-0.034515705 0.016590489 0.025869878 -0.46670714 0.78782451 -0.4018918 0.0011477154
-0.035701796 -0.017845677 0.030140908 -0.16803612 -0.97790319 -0.12437508 0.00019190754
-0.034998842 -0.017783301 0.028595122 -0.16987936 -0.97648793 -0.13271165 0.00027902616
-0.031213246 -0.01843019 0.029857548 -0.15748966 -0.97988492 -0.12256678 0.00010323825
-0.045107778 -0.015018376 0.030289413 -0.56125051 -0.71711838 -0.41320592 0.0045437454
-0.042898763 -0.015933383 0.029467536 -0.4710041 -0.82755643 -0.30545923 0.012005931
-0.039830931 -0.016930109 0.029582234 -0.25523198 -0.9466688 -0.19665934 0.0026714653
