# .PCD v0.7 - Point Cloud Data file format
VERSION 0.7
FIELDS x y z normal_x normal_y normal_z curvature
SIZE 4 4 4 4 4 4 4
TYPE F F F F F F F
COUNT 1 1 1 1 1 1 1
WIDTH 547
HEIGHT 1
VIEWPOINT 0 0 0 1 0 0 0
POINTS 547
DATA ascii
-0.0068260855 0.018773034 -0.011683485 -0.91265881 0.10379899 -0.39532214 0.00015101935
-0.0066735442 0.021666158 -0.011069872 -0.90940362 0.15684722 -0.38520646 0.00014694959
-0.0060139303 0.024471883 -0.011307253 -0.90161896 0.22689672 -0.36824051 0.00063325238
-0.0051620523 0.027498985 -0.01115425 -0.88193679 0.32988635 -0.33669364 0.001368135
-0.0044463598 0.029516049 -0.010832475 -0.80376363 0.51895255 -0.29095057 0.0057130717
-0.0032715271 0.030630397 -0.012115021 -0.75808585 0.56752628 -0.32127821 0.0070084506
-0.0017714533 0.032397203 -0.010568854 -0.73033488 0.6498782 -0.2104028 0.0059209149
-0.0003682836 0.033085939 -0.012521592 -0.65724242 0.72097349 -0.2196124 0.0015273845
0.00054437108 0.0012308573 -0.007719114 -0.43505538 -0.83477128 -0.3374666 0.0018293876
0.0030602682 0.00032940111 -0.0081613958 -0.324709 -0.89498591 -0.30588263 0.0019794882
0.0060454654 -0.00044332002 -0.0077240015 -0.091862753 -0.96671569 -0.23879288 0.0039375322
0.0090685897 -0.00041599618 -0.0078732241 0.085789889 -0.98422825 -0.15470898 0.0018614118
0.011577178 -4.1934894e-05 -0.0081486823 0.11103123 -0.9897837 -0.089444883 0.00083037291
0.014062919 0.00051907147 -0.0090582045 0.16712622 -0.98270404 -0.079759076 0.0019348592
-0.0045057875 0.0047922428 -0.0076344381 -0.64561552 -0.64976281 -0.40123424 0.00082691782
-0.0026790248 0.0035013014 -0.0080671627 -0.55073112 -0.7368474 -0.39211124 0.00073597522
-0.00054155244 0.0023268729 -0.0088231685 -0.4829025 -0.80176467 -0.35210592 0.0015561905
-0.0076917359 0.0077807051 -0.0067338021 -0.72383076 -0.53615719 -0.4342863 0.0011679353
-0.0058703818 0.0066465586 -0.0082182735 -0.70813775 -0.55915284 -0.43114856 0.0006396611
-0.0081074573 0.0096054459 -0.0079200324 -0.84250057 -0.34592924 -0.41294762 0.007320161
-0.0069346908 0.0087227635 -0.0091110067 -0.7989164 -0.39979273 -0.44933093 0.0059221126
-0.0084810667 0.012491385 -0.0085217301 -0.9182173 -0.11969209 -0.37755892 0.0055368925
-0.008484168 0.01555844 -0.0084113926 -0.92309642 0.043194205 -0.38213515 0.0001821061
-0.0084195901 0.018510826 -0.0080105849 -0.91869533 0.10335539 -0.38120404 0.00013018552
-0.008031955 0.021427959 -0.0079692872 -0.91313583 0.16315348 -0.37358251 0.00029847052
-0.0076757153 0.024248617 -0.0073491903 -0.90091705 0.26093051 -0.34679061 0.00087205443
-0.006988592 0.024637533 -0.0088052619 -0.90229481 0.25883216 -0.34477532 0.0008628841
-0.0062926407 0.027395869 -0.0081577543 -0.878892 0.37333599 -0.29693261 0.0033112939
-0.0051467321 0.029777167 -0.008193803 -0.76868331 0.60581577 -0.20521495 0.0064410935
-0.0034580189 0.031387195 -0.009123859 -0.75032651 0.62296337 -0.22119382 0.0067315809
0.0043381797 -0.0011894361 -0.0039724829 -0.080786705 -0.97441411 -0.20973951 0.0048801033
0.0060263267 -0.0011882477 -0.0041248174 0.0051430594 -0.98248357 -0.18627831 0.001704786
-0.0022202055 0.0014383862 -0.0046619549 -0.49130893 -0.78263491 -0.38222793 0.00088992569
-9.7686891e-05 0.00055959052 -0.0052496255 -0.41024053 -0.84137422 -0.35184103 0.00098922034
0.0029323022 -0.00047619198 -0.0055668103 -0.2314145 -0.92287743 -0.30780599 0.0025133444
0.0096603185 -0.00061472808 -0.0057900124 0.13451062 -0.98290473 -0.12571849 0.0014795851
0.012465479 -5.5025565e-05 -0.0056328746 0.20044769 -0.97667551 -0.076978445 0.0013809247
-0.0052583595 0.0038254727 -0.0049593644 -0.60720551 -0.67539275 -0.4185046 0.0017194506
-0.0032385136 0.0025081146 -0.0054229894 -0.52123851 -0.75604486 -0.39586186 0.00083799654
-0.0081784017 0.0069309631 -0.0048297551 -0.71618026 -0.54589337 -0.43484062 0.0014587216
-0.006601322 0.0055523086 -0.0055597187 -0.64559704 -0.6324296 -0.42806229 0.0011053663
-0.0093725976 0.0093545951 -0.0052187047 -0.86059153 -0.27637291 -0.42778534 0.0056774998
-0.009680761 0.012558961 -0.0057187947 -0.91612184 -0.070801668 -0.39459848 0.001664601
-0.0096874218 0.015649453 -0.0055018039 -0.92496806 0.050601989 -0.37666103 0.00012477215
-0.0097081438 0.018479602 -0.0048246179 -0.92350012 0.10745446 -0.36824059 0.00012687265
-0.009135602 0.021552976 -0.005189389 -0.9171468 0.17856267 -0.35631037 0.00048872957
-0.0083623324 0.024566965 -0.0052431123 -0.90398943 0.27935824 -0.32366973 0.00083271851
-0.0077491594 0.026923506 -0.0045281025 -0.86171585 0.4209218 -0.28332067 0.0030775503
-0.0070170718 0.027694883 -0.0057355883 -0.86869794 0.39333755 -0.30108058 0.0025456641
-0.0054925322 0.030270142 -0.0049185604 -0.76588243 0.60816014 -0.20872314 0.0034113543
-0.0026715226 0.032454837 -0.0058009299 -0.73597014 0.65089405 -0.18623881 0.0043011596
0.00066353846 -0.0012081468 -0.0015778411 -0.26452717 -0.91103798 -0.31628352 0.0029416645
0.0031174272 -0.0015185846 -0.0021121046 -0.089880601 -0.96946907 -0.22814731 0.0041476735
0.0061800033 -0.0016322129 -0.0016964795 0.050442271 -0.97966564 -0.19419284 0.0032679271
0.0085821999 -0.0012037561 -0.0021392182 0.1600419 -0.97978711 -0.12001634 0.002228335
-0.0048574205 0.0014800101 -0.0014436962 -0.52428979 -0.74145144 -0.41877204 0.00087667204
-0.0026299851 0.00049115904 -0.0021167472 -0.44982475 -0.80776501 -0.38101622 0.0012963692
-0.00013590511 -0.00047359499 -0.0027177259 -0.31991073 -0.88076448 -0.34915769 0.0018759113
0.011783522 -0.0004495834 -0.0022178264 0.24389568 -0.9676168 -0.06505844 0.00067905965
0.014799643 0.00049199606 -0.0021263929 0.26021767 -0.96367651 -0.060118914 0.0004097652
-0.0076286974 0.0040726457 -0.0019255504 -0.63366038 -0.63947326 -0.4353717 0.0010903394
-0.0058020339 0.0027524505 -0.0024150666 -0.55824232 -0.7136904 -0.42309743 0.00089870184
-0.010664623 0.0075679538 -0.0013114484 -0.78339428 -0.45301312 -0.42552617 0.0042157033
-0.0092031024 0.0062753716 -0.0023234058 -0.74655014 -0.4855198 -0.45489937 0.0019754511
-0.010920614 0.0095355194 -0.0021430915 -0.86880869 -0.23860836 -0.4338634 0.0067122006
-0.010038668 0.0083903112 -0.0032195123 -0.84671104 -0.31598353 -0.42805937 0.0051684114
-0.010899385 0.012347452 -0.0027844524 -0.91407406 -0.049163278 -0.40255621 0.0016450864
-0.010909412 0.015461477 -0.002482608 -0.92354357 0.061949953 -0.37845656 0.00015753794
-0.010856297 0.018375551 -0.0019507157 -0.92496669 0.11812118 -0.36122572 0.00019684619
-0.010663586 0.021159589 -0.0013433592 -0.91851002 0.20329724 -0.33913067 0.00077459123
-0.01004946 0.021375336 -0.002874163 -0.91859692 0.20321652 -0.33894363 0.00075438712
-0.0094466954 0.024395185 -0.0022885976 -0.90015203 0.30171338 -0.31415823 0.0011287115
-0.0081798416 0.027416524 -0.0024739522 -0.84289449 0.4781985 -0.24668826 0.0036096696
-0.0023207003 -0.0013463243 0.0015039891 -0.35658577 -0.8573125 -0.37129754 0.0016581026
0.00036460347 -0.001890236 0.00069104694 -0.20064741 -0.93419421 -0.29499447 0.0042481255
0.0034941584 -0.0023687738 0.0011726106 -0.0017677724 -0.97642773 -0.2158373 0.0030940275
0.0065285442 -0.0019871946 0.00092676561 0.14277239 -0.97610563 -0.16381028 0.0021720759
0.0089019053 -0.0015140579 0.0010633199 0.2085733 -0.97171962 -0.11071627 0.001120194
-0.0076276879 0.0016175106 0.0017506955 -0.5781312 -0.67804754 -0.45388967 0.0013905595
-0.0055353404 0.00060078828 0.0010451237 -0.46889663 -0.77517098 -0.42337447 0.00055713707
-0.0033287914 -0.00033036713 0.00037132297 -0.4226217 -0.81403136 -0.39842671 0.0019673479
0.012043644 -0.00066205417 0.0014799861 0.27239051 -0.95892298 -0.079184569 0.00056612142
-0.010778746 0.0044714855 0.0021953909 -0.67710376 -0.5619387 -0.47513723 0.0014911367
-0.0087416861 0.00332561 0.00077509321 -0.60600907 -0.65704131 -0.44838554 0.0012996092
-0.0067254803 0.0021878525 -0.00023314077 -0.56268543 -0.70169282 -0.43704948 0.0030016955
-0.011461277 0.0067041088 0.0009888839 -0.8022716 -0.40930533 -0.43454501 0.0062212353
-0.0099514574 0.0052177105 4.478544e-05 -0.6877557 -0.56697291 -0.45335832 0.001542707
-0.012146046 0.0095807277 0.00050743483 -0.89956009 -0.14613879 -0.41162503 0.0019537674
-0.012218164 0.012368986 0.00034698565 -0.91891474 -0.0030421282 -0.39444458 0.0004581032
-0.012117909 0.015421474 0.00044296868 -0.92265654 0.074140705 -0.37842855 0.00022995472
-0.011930801 0.018521551 0.00084530655 -0.92202556 0.13626546 -0.36235437 0.00037201095
-0.01137441 0.021466242 0.00081052165 -0.91759521 0.22370411 -0.32859638 0.00078697584
-0.010886766 0.023687348 0.0011297045 -0.89756685 0.32733855 -0.2953355 0.0012409188
-0.010146786 0.024923138 0.00024117343 -0.89754409 0.32731017 -0.29543644 0.0011981267
-0.010207193 0.026164893 0.0021747379 -0.86872667 0.39591175 -0.29760367 0.0020767895
-0.0090168137 0.027451836 0.00045779627 -0.83696204 0.47729984 -0.26772991 0.0029952491
-0.0072830026 0.029413905 -0.00064661819 -0.83168203 0.50300211 -0.23514634 0.0025867333
-0.0067301583 0.030020218 -3.3495016e-05 -0.83168191 0.50300217 -0.23514685 0.002586606
-0.0052106618 -0.0014469703 0.0044888193 -0.42547828 -0.80293292 -0.41745299 0.00092381675
-0.0028583733 -0.0022069439 0.0039039208 -0.30301863 -0.87010586 -0.38871011 0.0021071283
0.00018432969 -0.0029049986 0.0037141545 -0.10636777 -0.94338077 -0.31419522 0.0040177237
0.0034949475 -0.0029689153 0.0037809582 0.079804517 -0.96728241 -0.24082336 0.0033646824
0.0063610794 -0.0025138487 0.0040634545 0.22407794 -0.96204001 -0.15578201 0.0013964637
0.009410169 -0.0016298199 0.0034870831 0.28916675 -0.95176369 -0.10260784 0.00073779357
0.010957783 -0.001256983 0.0046766428 0.30697334 -0.94704384 -0.094209403 0.00040798369
-0.010299496 0.0016131147 0.0051293103 -0.60410929 -0.65921867 -0.44775301 0.0013047315
-0.0084124487 0.00086457422 0.0039848508 -0.54611742 -0.70926678 -0.44575375 0.0020329119
-0.0062405705 -0.00034833141 0.0034943754 -0.47538728 -0.76848429 -0.42829755 0.0013741713
0.013796031 -0.00010150229 0.0032918779 0.3096213 -0.9479242 -0.074661456 0.00025120319
-0.011169951 0.0034161722 0.004131577 -0.66749221 -0.57674259 -0.47098005 0.0015060353
-0.0094706118 0.0023783986 0.0030043246 -0.59671915 -0.65774298 -0.45967436 0.0017717176
-0.013730828 0.0073549887 0.0046930434 -0.86387837 -0.27991667 -0.41876104 0.006015799
-0.012631832 0.0060203504 0.0036124932 -0.81466854 -0.34349078 -0.46725717 0.0044797794
-0.013706783 0.0096412646 0.0040773181 -0.91427147 -0.092880338 -0.3943108 0.0022352559
-0.013078483 0.0096166451 0.0026218863 -0.89484733 -0.12968144 -0.42711946 0.0027532275
-0.013699939 0.012504278 0.0039020563 -0.92684329 0.019935837 -0.37491876 0.00033139746
-0.013070209 0.012611941 0.0024027182 -0.92048216 0.010270682 -0.39064965 0.00037401632
-0.013719078 0.015384905 0.0043921499 -0.92600113 0.090705775 -0.36646202 0.00026283588
-0.013085485 0.015337434 0.0028074235 -0.92159843 0.080938734 -0.379612 0.00019317615
-0.013744555 0.017415289 0.0050445525 -0.923168 0.17342171 -0.34305355 0.00057849154
-0.012892682 0.018645545 0.0033775149 -0.92133546 0.16000599 -0.35431489 0.00064482656
-0.012490822 0.02141905 0.0039051129 -0.91549194 0.25053334 -0.31481361 0.0010737524
-0.011401264 0.024529265 0.0037010005 -0.89628524 0.33542368 -0.29010993 0.00071423739
-0.010560814 0.026567068 0.0042948751 -0.88963777 0.39317361 -0.23229112 0.0012164717
-0.0020005601 -0.0041741538 0.0079215197 -0.19476567 -0.90943068 -0.36742637 0.0032185218
0.00031541334 -0.0041696187 0.0076052127 0.010368982 -0.96056551 -0.27786064 0.0030634827
-0.0081594624 -0.0014718552 0.0075097354 -0.47926959 -0.7460658 -0.46226248 0.00085186132
-0.0057391184 -0.0024295631 0.0069306223 -0.40484861 -0.80367035 -0.43613255 0.00071376376
-0.0030660643 -0.0033628843 0.0066203466 -0.2443466 -0.88729304 -0.39115974 0.0023731873
0.00015632249 -0.0035660076 0.0056342697 -0.033181511 -0.95134598 -0.30633268 0.005716322
0.0034953 -0.0035779732 0.0065535223 0.14512791 -0.96190816 -0.23166928 0.0025740662
0.0063816113 -0.0030082176 0.0071358802 0.2570118 -0.95309854 -0.15983793 0.00070379314
0.0089738984 -0.0021382081 0.0067321537 0.3178457 -0.94115871 -0.11486632 0.00038368956
0.011583045 -0.0012788877 0.007481846 0.32999167 -0.93932009 -0.09371879 0.00018082984
-0.01111331 0.00097502151 0.0071387524 -0.60125852 -0.64596355 -0.4703396 0.0018589174
-0.0089580789 -0.0002912106 0.0064491956 -0.50091374 -0.7397483 -0.44928604 0.00071181165
0.012702277 -0.00068974053 0.0057366518 0.3305957 -0.93941694 -0.090566382 0.00029060643
-0.013670208 0.0037554228 0.0073619122 -0.75569224 -0.45354623 -0.47246689 0.0029940079
-0.012385773 0.0030194847 0.0063196113 -0.71335357 -0.51626891 -0.47391254 0.0022745079
-0.014472747 0.0064319456 0.0067906315 -0.85815144 -0.2585389 -0.44354677 0.005603034
-0.014658449 0.0096789505 0.0063000107 -0.91876763 -0.050799776 -0.39151683 0.00054594572
-0.01465526 0.012558682 0.0062217498 -0.92360622 0.02344133 -0.38262513 0.00025689992
-0.014679838 0.015457688 0.0068205418 -0.92842758 0.10384952 -0.35670364 0.00038765543
-0.014266117 0.018408269 0.0068902103 -0.92202461 0.19058681 -0.3369678 0.00052628008
-0.013589574 0.021233479 0.0069831936 -0.91239905 0.26727167 -0.30999008 0.0010382145
-0.01290546 0.022039507 0.0056580631 -0.91020632 0.2745229 -0.31009948 0.00080954144
-0.013274189 0.023003507 0.0078061847 -0.86781466 0.41260538 -0.2768656 0.002205289
-0.012192667 0.02467943 0.0066505214 -0.88162136 0.39582387 -0.25703552 0.0026634932
-0.0055636377 -0.004376566 0.010441077 -0.30411139 -0.85445058 -0.42122501 0.0013753322
-0.002895338 -0.0047834897 0.0098539153 -0.12020899 -0.93162072 -0.34297618 0.0047405222
7.4780546e-06 -0.0049307426 0.010008941 0.068793073 -0.95381391 -0.29241523 0.0044670654
0.0033013267 -0.0042970255 0.0097259963 0.22725993 -0.95267051 -0.20192038 0.0015862121
-0.010932475 -0.0015351935 0.010483799 -0.53518647 -0.69346863 -0.48236567 0.00088220916
-0.0087060127 -0.0025767097 0.0099030724 -0.45335749 -0.76342863 -0.46004745 0.0013240273
-0.006269394 -0.003418779 0.0091626225 -0.33608037 -0.83331794 -0.43889788 0.0011995484
0.0062534837 -0.0034750062 0.0097966669 0.30176896 -0.93887079 -0.16570182 0.00078490877
0.0091547519 -0.0024586464 0.0097271306 0.3535156 -0.92630941 -0.13029802 0.00040019359
0.012227099 -0.0013053969 0.010875556 0.38359955 -0.91788191 -0.10170626 0.00039362648
-0.013756244 0.0012185269 0.010298544 -0.67730087 -0.55917484 -0.47810781 0.003391803
-0.011907522 4.4500339e-05 0.0094323969 -0.59302026 -0.64342165 -0.4840821 0.0024657338
-0.016317045 0.0045185583 0.011235896 -0.81221509 -0.34696624 -0.4689573 0.0062508993
-0.014778085 0.0031940544 0.0096810991 -0.78993195 -0.38760394 -0.47515333 0.0029762082
-0.016290965 0.0062608076 0.010646609 -0.89139855 -0.15300465 -0.42661244 0.0034224989
-0.01554714 0.0060539013 0.0091237212 -0.87315226 -0.19105123 -0.44844672 0.0034324697
-0.0162652 0.0094521288 0.010064431 -0.92595816 -0.022986544 -0.37692589 0.00048320563
-0.015618643 0.0094272792 0.0085418699 -0.91603684 -0.043889415 -0.39868557 0.00057046924
-0.016271969 0.012652431 0.010217437 -0.93208635 0.056706745 -0.35777009 0.00046568955
-0.015620107 0.012613924 0.0085759899 -0.92593718 0.041286919 -0.37541419 0.00031877516
-0.016302755 0.014997719 0.010912997 -0.93022627 0.14870577 -0.33550808 0.00055598299
-0.015653929 0.015533995 0.0093633262 -0.92960054 0.12662467 -0.34613439 0.00056745816
-0.015346583 0.018372057 0.0099272365 -0.92252845 0.2109704 -0.3231605 0.00065553462
-0.014418617 0.021260792 0.0095518762 -0.90400749 0.31848344 -0.28519958 0.0013799676
-0.013534183 0.023666171 0.0095612826 -0.87263352 0.41457304 -0.25814706 0.0019659132
-0.012758669 0.025116336 0.0095262257 -0.87263364 0.41457063 -0.25815055 0.0019694373
-0.01159017 0.026554275 0.0092988042 -0.87376463 0.42292759 -0.2401408 0.001445289
-0.0084700454 -0.0045744525 0.013149963 -0.38319182 -0.80928433 -0.44522241 0.0010636507
-0.0058615454 -0.0054142163 0.012807463 -0.25955999 -0.87566555 -0.40723267 0.0031514992
-0.0031839064 -0.0058263382 0.012515492 -0.071444713 -0.93439674 -0.34899628 0.0023147641
0.00027652783 -0.0057091457 0.012964173 0.14822303 -0.94898325 -0.27831778 0.0024941119
0.0033968803 -0.0050286083 0.013090369 0.26233172 -0.93994921 -0.21835183 0.0010747636
0.0055397437 -0.0042405459 0.012559551 0.33451441 -0.92627519 -0.17353499 0.00059888168
-0.01368898 -0.0015222186 0.013619038 -0.60552812 -0.62807506 -0.48873046 0.0010615709
-0.011748878 -0.0025282404 0.012900348 -0.51128709 -0.70631295 -0.48959935 0.0019936375
-0.0094974954 -0.0035050507 0.012156318 -0.42742014 -0.77097052 -0.47214037 0.0017517911
0.0072968532 -0.0036620158 0.013010341 0.33579567 -0.9267652 -0.16836746 0.00061024015
0.009340154 -0.002781983 0.012759837 0.38223416 -0.91453135 -0.13239859 0.00064702227
0.011073716 -0.0018935457 0.011527481 0.3721891 -0.92125076 -0.11301442 0.0005912924
-0.016438946 0.001308237 0.013990226 -0.74339485 -0.46404389 -0.48169228 0.0040073842
-0.01473717 0.00032426568 0.012668299 -0.66463149 -0.56600165 -0.4877573 0.0044340785
-0.012834227 -0.0007279024 0.011599245 -0.5854153 -0.64642876 -0.48930451 0.0030121037
-0.016882552 0.0034112283 0.013180907 -0.82729441 -0.32051733 -0.46135953 0.0042680991
-0.015758006 0.0024793267 0.011786166 -0.77217209 -0.39665964 -0.49639845 0.01166652
-0.01726792 0.0062813149 0.012888438 -0.90239424 -0.1275088 -0.41161406 0.0020009684
-0.017249769 0.0094917975 0.012494662 -0.92974067 -0.0029590712 -0.3682031 0.00031265867
-0.017265528 0.012713866 0.01283471 -0.93600547 0.072952285 -0.34434256 0.00046329998
-0.016799822 0.015883869 0.012700451 -0.93309772 0.16264664 -0.32074085 0.00051127223
-0.01639718 0.018277206 0.013046543 -0.92437065 0.25283688 -0.28567883 0.0012197439
-0.015765775 0.019405108 0.011967036 -0.92676359 0.24897693 -0.2812824 0.0012066638
-0.015305853 0.021376261 0.012584769 -0.90690827 0.32164082 -0.27214804 0.00056685379
-0.01402778 0.023991875 0.012287858 -0.87788975 0.41044781 -0.24666189 0.0013957118
-0.0056473906 -0.007247969 0.016660612 -0.13348851 -0.91257566 -0.3865056 0.0033266605
-0.0026965099 -0.0072466512 0.016597293 0.095975839 -0.9443624 -0.31459224 0.0038776314
-0.011551909 -0.0047194255 0.016058985 -0.45288816 -0.74441385 -0.49065301 0.0009344375
-0.0089516956 -0.0058438457 0.015819505 -0.34369716 -0.81585962 -0.46502191 0.0018099109
-0.0061643408 -0.0064627076 0.015236956 -0.18614949 -0.89282542 -0.41013548 0.0030918564
-0.0026721945 -0.0066215568 0.01478281 0.031691723 -0.94123566 -0.33626056 0.0042675324
0.00064818375 -0.0064477702 0.01591349 0.2212899 -0.94237036 -0.25093612 0.001097013
0.003494408 -0.005709107 0.016336635 0.30320293 -0.92841601 -0.2147361 0.00092485186
0.0061414586 -0.0045778672 0.015561099 0.36201939 -0.91586316 -0.17359881 0.00030196464
-0.016573396 -0.0013534531 0.017028067 -0.65350962 -0.58352089 -0.48210838 0.0011499047
-0.014648976 -0.0024128738 0.01594229 -0.58201981 -0.63842273 -0.50365609 0.0023999847
-0.012523919 -0.0035432833 0.015171739 -0.50177813 -0.71833068 -0.48189181 0.0019913451
0.0092275217 -0.0032536942 0.015462886 0.39927936 -0.90511012 -0.14612214 0.00054201408
0.011726156 -0.0019282508 0.015334788 0.40390787 -0.90576673 -0.12823808 0.00034066569
-0.017216856 0.00051869766 0.016033251 -0.75522959 -0.45013574 -0.47645158 0.004706474
-0.015697343 -0.00055384682 0.014929655 -0.62274206 -0.59581846 -0.50714171 0.0013541317
-0.018229084 0.0033657369 0.015848968 -0.86628282 -0.21077396 -0.45291105 0.0020938281
-0.018591166 0.0063101216 0.01603394 -0.91826266 -0.057784293 -0.39173293 0.00063091714
-0.018585235 0.00925304 0.01591178 -0.93346262 0.027667329 -0.35760599 0.00047120234
-0.018439958 0.012197612 0.01595515 -0.93649155 0.099193655 -0.33636928 0.00051654701
-0.017918205 0.015506042 0.015814167 -0.93482858 0.18238252 -0.30468354 0.00040140873
-0.017093057 0.018460998 0.015469912 -0.92328376 0.27395865 -0.26924664 0.00071322557
-0.016527914 0.020737853 0.016000364 -0.91247606 0.30870667 -0.26849118 0.00085169979
-0.015719494 0.02218508 0.015446228 -0.90497166 0.33712906 -0.2595579 0.00029893967
-0.011056941 -0.0073146853 0.019864161 -0.36842981 -0.79467928 -0.48243579 0.0021443677
-0.0088105984 -0.0077450615 0.019143924 -0.23320232 -0.86493391 -0.44441652 0.0025316181
-0.0059376252 -0.0081335232 0.018840291 -0.072009742 -0.91671723 -0.39299372 0.005045414
-0.0028755912 -0.008034274 0.018833321 0.134598 -0.93866569 -0.3174746 0.0024674295
5.7702418e-05 -0.0074116574 0.018817954 0.2537806 -0.92991757 -0.2661742 0.00099895161
-0.014543446 -0.004879063 0.019155167 -0.50160742 -0.70401615 -0.5027439 0.001809538
-0.012042195 -0.0060590212 0.018607996 -0.39743808 -0.77868223 -0.48548633 0.0008147108
-0.0098107811 -0.0066818851 0.017872158 -0.29268032 -0.83938181 -0.45801365 0.0016057659
0.0017200052 -0.0066820192 0.017878834 0.25543475 -0.9352181 -0.24519412 0.0012424379
0.0034946378 -0.0063506556 0.019127611 0.34843415 -0.90895891 -0.22888291 0.00069102843
0.0064554075 -0.0050395322 0.018680975 0.40032187 -0.89975137 -0.1737524 0.00056051032
0.0082402118 -0.0043382305 0.019380663 0.40032277 -0.89975119 -0.17375109 0.0005602662
-0.017309366 -0.0023094839 0.019135367 -0.66943544 -0.54834491 -0.50117254 0.0032767002
-0.015642272 -0.0033362689 0.018271618 -0.56041861 -0.665245 -0.49333572 0.0011506126
0.0097132791 -0.0034404206 0.018688876 0.42460823 -0.89256907 -0.15175089 0.00021620392
-0.019659856 0.0010002201 0.01969466 -0.83382505 -0.31449008 -0.45368686 0.0059627714
-0.018574057 0.00014190678 0.018441617 -0.80095518 -0.36456224 -0.47493717 0.0041741338
-0.019733068 0.0035717678 0.019185089 -0.91251761 -0.1015159 -0.39624006 0.0016963482
-0.018960359 0.0027785643 0.017555628 -0.8770687 -0.15982115 -0.45299864 0.003144976
-0.019938953 0.006340371 0.019338958 -0.92687136 -0.019881582 -0.37485239 0.00033984648
-0.019795081 0.0090468898 0.01901339 -0.93483853 0.050343052 -0.35148621 0.00042024427
-0.019648563 0.012276433 0.019472208 -0.93773496 0.1235754 -0.32462624 0.00059076882
-0.018964594 0.012826366 0.017641269 -0.93996781 0.11980492 -0.31954232 0.00050794129
-0.018934855 0.015428232 0.01903259 -0.93288857 0.21040827 -0.29231361 0.00051138143
-0.017994657 0.018430192 0.018543854 -0.92024165 0.29437032 -0.25787878 0.0010797048
-0.017253017 0.020759694 0.018974029 -0.91733438 0.30033228 -0.26133928 0.0010810904
-0.01407098 -0.0076102209 0.022576716 -0.43666646 -0.73529208 -0.51833183 0.0014619844
-0.011614788 -0.00826988 0.021779269 -0.34484258 -0.79030246 -0.50646371 0.0016435293
-0.0085872933 -0.0092974361 0.021933515 -0.15263648 -0.87119329 -0.46660945 0.0027650408
-0.0054504559 -0.0094406977 0.02170996 0.049103044 -0.91453969 -0.4015047 0.0044429596
-0.0025447612 -0.0089948494 0.02175964 0.19540428 -0.91787583 -0.345429 0.0023640371
0.00058646128 -0.0081006791 0.021778729 0.319536 -0.91383737 -0.25059521 0.00050169695
0.0028979774 -0.0073629175 0.022179756 0.38125458 -0.89409989 -0.23501118 0.00079058192
-0.017299512 -0.0050875815 0.022386461 -0.57552999 -0.62602568 -0.52617204 0.001522098
-0.015143313 -0.0061017149 0.021432102 -0.47492531 -0.7153905 -0.51250601 0.00092941953
-0.013158919 -0.0067333537 0.020507637 -0.39374095 -0.76517522 -0.50938678 0.00079862092
0.0040913755 -0.0067573492 0.021736577 0.39709449 -0.89294845 -0.21203518 0.00079191249
0.0064772107 -0.00568863 0.021991219 0.4181833 -0.88762456 -0.19299047 0.00028778339
0.0085709505 -0.0046822312 0.022509802 0.41582909 -0.89054239 -0.18444638 0.00018998513
-0.019803535 -0.0023357463 0.022526003 -0.75437164 -0.43574235 -0.49097049 0.0035158191
-0.018487642 -0.0028166608 0.021244328 -0.67642611 -0.53290486 -0.50838971 0.004170185
-0.020515354 0.00024902506 0.021845464 -0.86482978 -0.24178869 -0.44000882 0.0052795731
-0.020674102 0.003247295 0.021404054 -0.91886097 -0.056087486 -0.39057493 0.00034865114
-0.020963417 0.0063635032 0.021871652 -0.93009603 0.007797908 -0.36723372 0.00045659961
-0.020727545 0.0095656943 0.021630902 -0.93680674 0.080174938 -0.34053636 0.00049983937
-0.020544745 0.012075987 0.022004984 -0.93910468 0.15294108 -0.30771968 0.00051667215
-0.019866487 0.015111348 0.021802563 -0.92882866 0.22914226 -0.29115483 0.00039556745
-0.019209821 0.018319506 0.022598807 -0.9162271 0.31293845 -0.25019485 0.00084481051
-0.018853549 0.018278591 0.021421168 -0.91622663 0.31293744 -0.2501978 0.0008508591
-0.01767185 0.020967286 0.021622855 -0.9159866 0.30985776 -0.25486606 0.0007638883
-0.013362879 -0.0104548 0.02610353 -0.35717198 -0.75916886 -0.54414231 0.0012950363
-0.011401445 -0.010703519 0.02541893 -0.24840191 -0.82364911 -0.50980258 0.0021880013
-0.0084309094 -0.010981904 0.024953987 -0.098869286 -0.87984437 -0.4648641 0.0035681785
-0.0056198989 -0.010801835 0.02479966 0.12207028 -0.90213233 -0.41383106 0.0029384191
-0.0030012359 -0.010562964 0.025654152 0.2812869 -0.894364 -0.34783721 0.0015354464
-0.017019562 -0.0078058713 0.025398254 -0.51594269 -0.65572017 -0.55121166 0.00069902308
-0.01458109 -0.0088274237 0.024650067 -0.41681981 -0.72663921 -0.54612887 0.0019892296
-0.011744166 -0.0096257031 0.023954 -0.28343296 -0.80106258 -0.52722335 0.0015461958
-0.0020205532 -0.0096815601 0.024124946 0.25977844 -0.90789407 -0.32900378 0.001617464
0.0004056287 -0.0091369376 0.024956845 0.34046006 -0.8963353 -0.28402472 0.0010708285
0.0032943827 -0.0079228375 0.025025059 0.42344069 -0.87613374 -0.23040774 0.00083119399
-0.019809691 -0.0050908127 0.025269259 -0.63592732 -0.55623955 -0.53497106 0.0010442034
-0.017940283 -0.0062659238 0.02448253 -0.53919119 -0.64807087 -0.53784478 0.0011734756
0.0063469103 -0.0063708457 0.025005978 0.43949375 -0.87351435 -0.20932736 0.00021586589
-0.022402832 -0.0014256791 0.026273165 -0.83816111 -0.26536852 -0.47651395 0.0066556288
-0.020988636 -0.0027859639 0.024738841 -0.81233895 -0.34004578 -0.47378725 0.0035899768
-0.022377767 0.00038247253 0.025825366 -0.90538639 -0.12646633 -0.40531677 0.0028914227
-0.021688532 0.00038868922 0.024223689 -0.88405138 -0.16556887 -0.43708128 0.0031071373
-0.022351615 0.0033898428 0.025358181 -0.92958242 -0.012921223 -0.36838788 0.00029253698
-0.021658652 0.0033854498 0.023677181 -0.92142576 -0.038438618 -0.38664854 0.0004814569
-0.022361636 0.0063971444 0.025537189 -0.93874788 0.050024491 -0.34095436 0.00040711559
-0.021657066 0.0063798497 0.023648169 -0.9322471 0.025137933 -0.36094791 0.00036938125
-0.022391876 0.0085088797 0.026077423 -0.9439773 0.11679605 -0.30865103 0.00033586883
-0.021695219 0.0093853697 0.024345998 -0.93843347 0.094358139 -0.33232385 0.00030905721
-0.021426056 0.01239532 0.024905533 -0.93845505 0.18180396 -0.29368258 0.00047664947
-0.020722998 0.015297065 0.024860114 -0.93052143 0.25478089 -0.26309046 0.00063882681
-0.019691002 0.017977564 0.024243388 -0.91685224 0.30823416 -0.25371978 0.00072479149
-0.016944956 -0.01068107 0.028839309 -0.44978958 -0.68576711 -0.57220006 0.0012604762
-0.014519921 -0.011272877 0.027989395 -0.35613188 -0.75848842 -0.54577047 0.0015502013
-0.011613904 -0.012195706 0.027855627 -0.18442985 -0.8340199 -0.51999652 0.0016942876
-0.0086997412 -0.012533475 0.027777098 -0.0058139144 -0.88851064 -0.4588193 0.0034030043
-0.0056254608 -0.012206106 0.027844656 0.19270454 -0.88353926 -0.42687619 0.0023540582
-0.0026184404 -0.011380278 0.027992468 0.33830449 -0.87519795 -0.34580144 0.00088698562
-0.00013513397 -0.010516496 0.028360549 0.39547858 -0.86398506 -0.3116515 0.0010545296
-0.019896658 -0.0078944936 0.028326336 -0.58673519 -0.59399348 -0.55037582 0.0017586483
-0.017836142 -0.0090249721 0.027633343 -0.48254448 -0.67678857 -0.5559749 0.0011029554
-0.015496027 -0.0098691992 0.026734967 -0.39983872 -0.72865093 -0.55605465 0.0010991822
0.00095789973 -0.0097724423 0.027652714 0.3783842 -0.87807292 -0.29293916 0.0011179039
0.0034940992 -0.0085683148 0.027824715 0.4374207 -0.86596447 -0.24242254 0.00038175023
0.0056105456 -0.0074854153 0.028061334 0.45751479 -0.8611275 -0.2216748 0.00034249743
-0.022527702 -0.0047716233 0.028504033 -0.77089202 -0.40622169 -0.49062157 0.0064895707
-0.021029025 -0.0059061931 0.027614683 -0.71310711 -0.47554794 -0.51510429 0.0018802746
0.0068124845 -0.0065624896 0.027188126 0.46040288 -0.8646332 -0.20109357 0.00023764191
-0.022830825 -0.0027820654 0.027912907 -0.85624772 -0.2474692 -0.45343012 0.004710448
-0.021826135 -0.0038407403 0.026740614 -0.78255665 -0.34441 -0.51863933 0.0035947671
-0.023386596 0.00050789386 0.028231505 -0.9296025 -0.053426418 -0.36467075 0.00044675684
-0.023414493 0.0033972752 0.028131399 -0.93763494 0.0088271908 -0.34750938 0.00030610411
-0.02307966 0.0064158421 0.027575217 -0.94606394 0.071257181 -0.31604663 0.00047480897
-0.02278625 0.0094366372 0.027716674 -0.94816095 0.14396226 -0.28331205 0.00054218946
-0.022514079 0.011865819 0.028260652 -0.94319856 0.19456363 -0.26929799 0.00056136376
-0.021842897 0.013348337 0.027047191 -0.93496931 0.25316694 -0.24847324 0.00089736906
-0.021592589 0.015183788 0.027989399 -0.92945057 0.27718583 -0.24349493 0.00033247328
-0.020332869 0.017871421 0.027011145 -0.93002242 0.27687272 -0.24166028 0.0003197437
-0.016923241 -0.013048779 0.031814817 -0.39726996 -0.71731168 -0.57239896 0.0014527581
-0.014711011 -0.013783738 0.031517338 -0.28144276 -0.76929665 -0.57356131 0.0016606333
-0.0117172 -0.014240663 0.031020947 -0.12571402 -0.83042526 -0.54276127 0.0030312398
-0.0087528266 -0.014185585 0.030687958 0.05137556 -0.86041749 -0.50699347 0.0042197658
-0.0058632833 -0.013865069 0.031174656 0.27576631 -0.8631497 -0.42299592 0.0018001883
-0.0032112231 -0.01325435 0.031882964 0.381248 -0.85346305 -0.35531792 0.00097672502
-0.02015063 -0.010853205 0.03175592 -0.53609151 -0.61318392 -0.58018219 0.0021163821
-0.01791122 -0.011636643 0.030757025 -0.40626231 -0.7061885 -0.57986969 0.0010231361
-0.014949825 -0.012612903 0.030075163 -0.30714551 -0.76303488 -0.5687173 0.0011470483
-0.012881692 -0.01297481 0.029541854 -0.1715273 -0.81568676 -0.55247951 0.0015817832
-0.0050018127 -0.01298378 0.029817387 0.23747982 -0.8757025 -0.42041454 0.0024020202
-0.0023236633 -0.012314206 0.030581307 0.3405726 -0.86557364 -0.36714116 0.00087200623
0.00030096481 -0.011194963 0.03091735 0.43256342 -0.84677833 -0.30960512 0.00080742949
-0.022909431 -0.0077642114 0.031692617 -0.73238629 -0.46738657 -0.4951365 0.0055374191
-0.021027647 -0.0089587327 0.0306556 -0.61144012 -0.56396878 -0.55504972 0.0026992366
-0.01895567 -0.0099471025 0.029726986 -0.5336026 -0.63118553 -0.56291479 0.0017765245
0.0034944408 -0.0093632881 0.030647561 0.46497586 -0.85016584 -0.24701311 0.00071145658
0.0053151459 -0.0081320964 0.029964063 0.47079447 -0.84999472 -0.23635051 0.00054443598
-0.023402933 -0.0056707198 0.030755717 -0.78746343 -0.38277513 -0.48309892 0.0049149692
-0.021989832 -0.0069135237 0.029734764 -0.66827512 -0.53670561 -0.51512665 0.0022235371
-0.024179282 -0.0026781899 0.030836411 -0.90986764 -0.12179606 -0.39661902 0.0012096433
-0.024381937 0.00016104372 0.03083919 -0.93117416 -0.034876123 -0.36290267 0.00066660286
-0.024506088 0.0034054741 0.031224892 -0.94719762 0.046190307 -0.31730619 0.00050318352
-0.02408896 0.0062148334 0.030592777 -0.94927293 0.10678119 -0.29576802 0.0004206523
-0.023614353 0.0094805434 0.030535243 -0.94821191 0.17119911 -0.26755378 0.00058227318
-0.023025289 0.012527306 0.030866727 -0.94096589 0.25704011 -0.220258 0.00042546881
-0.022696203 0.014369328 0.03151435 -0.94096565 0.2570326 -0.22026759 0.00043289902
-0.021706905 0.016153757 0.030107249 -0.92948943 0.2942729 -0.22237994 0.00030932153
-0.014598837 -0.016211208 0.034762386 -0.22063842 -0.79515529 -0.56484234 0.001641302
-0.011829969 -0.016507462 0.034492269 -0.049729612 -0.84220284 -0.53686243 0.002518526
-0.0089975484 -0.016434949 0.034597855 0.13262153 -0.86225063 -0.48881021 0.0021576029
-0.0069372258 -0.016220164 0.034991536 0.30246061 -0.84839201 -0.43445209 0.0018207132
-0.020117877 -0.013553461 0.034753479 -0.49849576 -0.65038598 -0.5731492 0.0010218436
-0.0178193 -0.014158102 0.033787195 -0.38524264 -0.72467589 -0.57134318 0.0021602386
-0.015007686 -0.015090602 0.033462487 -0.24614635 -0.77753007 -0.57866991 0.0011247796
-0.011781624 -0.015531557 0.033004668 -0.088796034 -0.83661276 -0.54055011 0.0024106137
-0.0085222591 -0.015429549 0.032996327 0.095999755 -0.85009325 -0.51780844 0.0020397832
-0.0056276969 -0.01505547 0.033638846 0.30200657 -0.85064542 -0.43034223 0.001992878
-0.0026289891 -0.01391617 0.033991676 0.40439504 -0.83172226 -0.38039801 0.0013400571
-0.00079570338 -0.013132434 0.034385774 0.44957462 -0.82478249 -0.3429527 0.0004873389
-0.022867722 -0.010861959 0.034577493 -0.62081701 -0.55475992 -0.55392033 0.00092297926
-0.021068461 -0.011646574 0.033531602 -0.55712396 -0.61623365 -0.55665869 0.0021737635
-0.019095812 -0.012464996 0.032636676 -0.50444335 -0.65067112 -0.56759489 0.001193076
0.00060939416 -0.01206376 0.033785049 0.47033626 -0.82210195 -0.32083049 0.0011934569
0.0030864845 -0.010560291 0.033685878 0.50007707 -0.82374239 -0.26715437 0.0005386094
-0.025356255 -0.0070196795 0.035171721 -0.87682456 -0.19225289 -0.4407011 0.0045565818
-0.02384254 -0.0086241663 0.033755854 -0.73309976 -0.42959106 -0.52727252 0.0059094252
0.0047170823 -0.0094316415 0.033418152 0.49594009 -0.8300575 -0.25504509 0.00074691814
0.0056307046 -0.0084959306 0.032609824 0.48060074 -0.84286362 -0.24208248 0.00044075097
-0.025304684 -0.0054717581 0.0343288 -0.88175488 -0.17779519 -0.43691793 0.0045053735
-0.024486559 -0.0062431614 0.032937441 -0.84799558 -0.23992755 -0.47258681 0.0035742458
-0.025525194 -0.0024824007 0.034169588 -0.93323493 -0.07023593 -0.3523342 0.00082200958
-0.025510231 0.0001210185 0.03392544 -0.94275713 -0.013280559 -0.33321545 0.00060273131
-0.025254967 0.0034115924 0.033516143 -0.9507733 0.06906382 -0.30209309 0.000547036
-0.025318505 0.0058663827 0.034554694 -0.95231843 0.14563487 -0.26810464 0.00058595726
-0.024599466 0.007379171 0.032784332 -0.9548465 0.13998248 -0.26205561 0.00059707474
-0.024402276 0.0095281024 0.033569984 -0.94914043 0.19129477 -0.25007781 0.00029819357
-0.023751169 0.012595791 0.033951331 -0.94191104 0.23747613 -0.23750521 0.00058633857
-0.022819784 0.015038762 0.033722255 -0.93727666 0.26797539 -0.22293873 0.00029678931
-0.019811252 -0.016487055 0.037872035 -0.4347001 -0.68587047 -0.5836243 0.0012712769
-0.017464114 -0.017016476 0.037151873 -0.32640636 -0.72896379 -0.60172302 0.0010465371
-0.014787668 -0.017557975 0.036691662 -0.20212364 -0.78599584 -0.5842573 0.0012407457
-0.011912761 -0.01814986 0.037040379 -0.0082338117 -0.83139443 -0.55562174 0.0018628358
-0.008779766 -0.017763495 0.03687226 0.16263248 -0.84976971 -0.50144011 0.0023777515
-0.0057978299 -0.016859433 0.036884956 0.31599537 -0.828655 -0.4620364 0.0016845211
-0.0036047469 -0.016331095 0.037832368 0.41492772 -0.80537593 -0.42332557 0.001100817
-0.022816693 -0.013639772 0.037334658 -0.58045661 -0.5860061 -0.56539112 0.0019964555
-0.020715982 -0.014786413 0.036696952 -0.46715185 -0.66671711 -0.58073866 0.0014401526
-0.018014837 -0.01563349 0.035704874 -0.34186327 -0.72628617 -0.59635383 0.0011883111
-0.0044943611 -0.015632283 0.035673294 0.38789171 -0.83031583 -0.4001447 0.0007143754
-0.0025265622 -0.015122918 0.036672235 0.45700762 -0.80589998 -0.37638977 0.0010742354
-2.4931971e-05 -0.013649197 0.036735874 0.51592112 -0.78944498 -0.33256882 0.00085693737
-0.02550395 -0.010460358 0.037585799 -0.77573729 -0.40580806 -0.48327172 0.0071716667
-0.02396749 -0.011604613 0.036614113 -0.68587989 -0.48654452 -0.54114985 0.0024360465
0.0013409876 -0.012577903 0.036251027 0.52618384 -0.79841793 -0.29267636 0.00089268776
0.0032302816 -0.011456359 0.03697826 0.52493614 -0.80131018 -0.28695643 0.00089028355
-0.025798541 -0.0084208995 0.036801793 -0.84869492 -0.28297961 -0.44681019 0.0037099456
-0.024772851 -0.0094875954 0.03567991 -0.76552975 -0.38368165 -0.51648098 0.0022752215
-0.026343994 -0.0053814938 0.036920343 -0.92642552 -0.10028732 -0.36287498 0.00045179849
-0.026520833 -0.0030045612 0.036934383 -0.9409039 -0.043209627 -0.33590612 0.00093286415
-0.026525777 0.00060265407 0.037010971 -0.95015317 0.041633375 -0.30899125 0.00033279174
-0.026149359 0.0032133353 0.036392979 -0.95439845 0.09859249 -0.28178552 0.00039642921
-0.025825813 0.0064984364 0.036796782 -0.9533385 0.16236411 -0.2545262 0.00039769715
-0.025495674 0.0089733936 0.037450545 -0.95248854 0.2053169 -0.2249677 0.00040704117
-0.02479222 0.010489542 0.03600337 -0.94103539 0.22571793 -0.25199947 0.00060924591
-0.024512555 0.012034897 0.036462653 -0.94336021 0.24371773 -0.22510728 0.00043035028
-0.017382232 -0.01977456 0.040554013 -0.25856847 -0.75327861 -0.60474265 0.0016610511
-0.014496258 -0.020145316 0.040171947 -0.11232071 -0.80011404 -0.58923811 0.0020628772
-0.011700196 -0.020139249 0.04004151 0.043350149 -0.81712353 -0.57483035 0.0021937357
-0.0090301093 -0.019927787 0.040352747 0.22988933 -0.82513082 -0.51605237 0.0017997054
-0.0067557613 -0.019554298 0.040832806 0.37079093 -0.79622233 -0.47806287 0.001530639
-0.023054263 -0.01659748 0.040677812 -0.55952364 -0.58326238 -0.5888449 0.0012724558
-0.020689186 -0.017724423 0.039965484 -0.41161308 -0.69075537 -0.59450114 0.0014237168
-0.017801778 -0.018488815 0.039179575 -0.28205413 -0.75057471 -0.59756434 0.0012260278
-0.015364535 -0.018834654 0.038608883 -0.15093265 -0.79915184 -0.58187246 0.0017196619
-0.0085666645 -0.018841751 0.03876913 0.19060504 -0.8340354 -0.51774001 0.001747583
-0.0057439501 -0.018373873 0.039643224 0.33750796 -0.80911893 -0.48105609 0.0014492024
-0.0029562027 -0.017102262 0.040097021 0.49789542 -0.77403295 -0.39111781 0.00073249982
-0.025911493 -0.013550228 0.040859476 -0.75390315 -0.44371578 -0.48450628 0.0086282734
-0.023916969 -0.014725555 0.039637528 -0.63831651 -0.53000516 -0.55825323 0.001533635
-0.021860959 -0.015746143 0.038688872 -0.54458451 -0.60897446 -0.57669568 0.00084661233
-0.0017647087 -0.01575448 0.038909961 0.50739145 -0.77494091 -0.37685606 0.0010053297
0.00039555319 -0.01460663 0.039678212 0.57014602 -0.75904489 -0.31429961 0.00086634367
0.0022537559 -0.013314929 0.03999329 0.57685971 -0.7564413 -0.30826834 0.0008149803
-0.026256841 -0.01144807 0.039752517 -0.80593914 -0.37088504 -0.46141779 0.0057953661
-0.024957698 -0.012656506 0.038766924 -0.68575394 -0.51276118 -0.51654375 0.0042585228
0.0031840221 -0.012377772 0.039763469 0.56386322 -0.77551413 -0.28396505 0.00074125553
-0.027163997 -0.0082152896 0.039936516 -0.91546869 -0.14979018 -0.37347037 0.0013946291
-0.027376033 -0.0057461751 0.039809775 -0.93696856 -0.075516798 -0.34115562 0.00052609033
-0.027495563 -0.0027705627 0.039747261 -0.94989657 -0.0013718411 -0.31256127 0.00035729606
-0.027525727 0.00032711471 0.04021075 -0.95624536 0.065752983 -0.28508145 0.00051014725
-0.027078081 0.0033231522 0.039670572 -0.95609552 0.13244413 -0.26141882 0.00036069285
-0.026564162 0.0065248241 0.039712477 -0.95343173 0.19034649 -0.23395772 0.00070753734
-0.025943805 0.0093138553 0.039705191 -0.95354199 0.20976086 -0.21623629 0.00032393317
-0.01748924 -0.022366805 0.043767728 -0.22539923 -0.75841814 -0.61155295 0.0018959462
-0.014614809 -0.022477549 0.043313619 -0.0575766 -0.80014974 -0.59703052 0.0016601782
-0.011495627 -0.022483284 0.04342458 0.096942067 -0.81584489 -0.57008719 0.00162082
-0.0090054721 -0.022186529 0.043736938 0.28008664 -0.80602163 -0.52142173 0.0019701798
-0.023251966 -0.019308772 0.043670777 -0.5270505 -0.62033594 -0.58086246 0.0014369265
-0.020647237 -0.02039359 0.042973455 -0.36388469 -0.70179296 -0.61243337 0.0010326025
-0.017846724 -0.021022173 0.042270873 -0.26051509 -0.7553277 -0.60134178 0.0024582266
-0.014564246 -0.021474322 0.041973416 -0.07824862 -0.80560815 -0.58725858 0.0015345998
-0.011450397 -0.021474389 0.041974768 0.072238639 -0.80567735 -0.58793318 0.0014302763
-0.0086585693 -0.021183694 0.042391088 0.21638304 -0.81317747 -0.54029691 0.0016275104
-0.005967489 -0.020375501 0.04286975 0.37060317 -0.79283953 -0.48379621 0.001662025
-0.0033802292 -0.019268598 0.043706432 0.5188036 -0.75771147 -0.39587393 0.00049855548
-0.025569595 -0.017188031 0.043766271 -0.62023002 -0.54224139 -0.5668236 0.0011464963
-0.02388902 -0.017618045 0.042532064 -0.55373555 -0.60413176 -0.57306343 0.0027026699
-0.021830594 -0.01877768 0.042008393 -0.50284684 -0.63328052 -0.58830327 0.00067173131
-0.0045970795 -0.018973377 0.041743252 0.44224218 -0.78760308 -0.42907253 0.0018017875
-0.0025062021 -0.018074133 0.042550851 0.53248459 -0.75068641 -0.39106274 0.00085744495
-0.00037583569 -0.016789978 0.043182179 0.58265227 -0.73360032 -0.3497811 0.00086535688
-0.02669562 -0.014658529 0.042931091 -0.71616811 -0.44632214 -0.53656298 0.0033509308
-0.0251374 -0.01555137 0.041768018 -0.68543601 -0.48778957 -0.54059124 0.0038693848
0.00089677563 -0.015477059 0.042567752 0.59010696 -0.73345667 -0.33736491 0.0006878209
0.0024545609 -0.014023997 0.042599194 0.57902873 -0.74877614 -0.3225835 0.00083241548
-0.028400201 -0.010632437 0.044037972 -0.90237135 -0.19013211 -0.38675025 0.002005704
-0.02748213 -0.011787228 0.042272776 -0.86752087 -0.25388798 -0.42772469 0.002328129
-0.028342858 -0.0084250383 0.043174129 -0.93798882 -0.092474692 -0.334104 0.00036048138
-0.027615014 -0.0096335821 0.041582558 -0.90536159 -0.1739682 -0.38736987 0.003456115
-0.028294265 -0.0052919523 0.042442229 -0.94585824 -0.050623734 -0.32060805 0.00031951253
-0.028278489 -0.0024845223 0.042204615 -0.95650846 0.03343264 -0.28978232 0.00073912821
-0.028328527 0.00031666004 0.042958293 -0.9579556 0.091979861 -0.27177349 0.00046100654
-0.02839883 0.0021878525 0.044017319 -0.96129012 0.14599751 -0.23367953 0.00069424731
-0.027664542 0.0040578539 0.042343579 -0.95806944 0.15947138 -0.23805851 0.00054763048
-0.027224723 0.0067094197 0.042767894 -0.95443541 0.20832534 -0.21366715 0.00030809722
-0.026205042 0.0098717604 0.042250797 -0.95204663 0.22409733 -0.20829684 0.0001570262
-0.014758226 -0.025505058 0.047117118 -0.027664432 -0.78117478 -0.62369913 0.0016421797
-0.012560192 -0.025513526 0.047264893 0.15743199 -0.78357071 -0.60102582 0.0019513444
-0.022796504 -0.022593068 0.046786081 -0.46148503 -0.63672018 -0.61775315 0.0010062427
-0.020592095 -0.023109889 0.046003487 -0.35054713 -0.69169158 -0.6314106 0.0010437639
-0.017952796 -0.023967473 0.045825072 -0.20944951 -0.74853164 -0.62915134 0.0017565505
-0.014694551 -0.024154769 0.045429576 -0.039717954 -0.78026295 -0.62418926 0.001496602
-0.011566637 -0.024169683 0.045701433 0.13504635 -0.79291189 -0.59418285 0.0023252151
-0.0087417811 -0.023382831 0.045653142 0.31581196 -0.78362507 -0.53497148 0.0024617591
-0.0064788605 -0.022706445 0.046236016 0.43955621 -0.75692737 -0.48358169 0.0014739587
-0.025831556 -0.019596789 0.046358857 -0.59094954 -0.58013314 -0.56055689 0.0013443667
-0.023777854 -0.020734278 0.045601241 -0.46680236 -0.63765806 -0.61277044 0.00080609572
-0.021552209 -0.021397235 0.044634424 -0.37548038 -0.69269252 -0.6157853 0.0013289552
-0.0053862412 -0.021424996 0.04519818 0.41131601 -0.77475309 -0.48018405 0.0014882225
-0.0029417947 -0.020208009 0.045979951 0.56071961 -0.72674471 -0.39678174 0.00064642238
-0.00091185141 -0.019211899 0.047132466 0.61464107 -0.69997269 -0.36366814 0.0013027275
-0.028599437 -0.016061347 0.047039125 -0.80633879 -0.32247859 -0.49580774 0.0078649716
-0.026902661 -0.017672794 0.045776561 -0.74083215 -0.43584603 -0.51108307 0.001871043
-0.0015160884 -0.018478673 0.044715736 0.56686366 -0.7279861 -0.38561887 0.0011191287
4.1412655e-05 -0.017745873 0.045919672 0.61117047 -0.71476722 -0.33996838 0.001189274
-0.028525937 -0.014450636 0.045931902 -0.88023746 -0.22952366 -0.41533232 0.0036004276
-0.027680408 -0.01551424 0.044992115 -0.81753916 -0.29516402 -0.49447748 0.0055340896
0.0016126945 -0.015997898 0.045358095 0.61543792 -0.71147251 -0.33918005 0.00099548663
-0.028913785 -0.011857808 0.045855585 -0.91791928 -0.15631875 -0.36467612 0.00055807678
-0.029115807 -0.0084735341 0.045370981 -0.94424504 -0.068232439 -0.32209557 0.00016405419
-0.029080391 -0.0053295447 0.044847693 -0.95310301 -0.019126268 -0.30204102 0.0002294619
-0.029079374 -0.0025101001 0.044832703 -0.96007484 0.051546179 -0.27495322 0.0004572625
-0.02916187 0.00030490593 0.046051435 -0.96365964 0.11861604 -0.23935419 0.0006140765
-0.02848953 0.0034428132 0.045383476 -0.95860195 0.17436959 -0.22511698 0.00020653955
-0.027879462 0.0062668514 0.045645643 -0.95606297 0.19561696 -0.21835183 0.00054509309
-0.023099046 -0.025460444 0.050022598 -0.4249301 -0.64981681 -0.6302163 0.001047219
-0.020385437 -0.026165832 0.049304876 -0.32367057 -0.69730097 -0.63953793 0.0010651341
-0.017664373 -0.026550541 0.048806809 -0.16220896 -0.75176787 -0.63916606 0.00094954378
-0.014822284 -0.02686627 0.048815887 0.042038716 -0.7892949 -0.61257356 0.0015499244
-0.011665586 -0.026552904 0.048852008 0.1913341 -0.77865154 -0.59757268 0.0025340684
-0.0088703204 -0.025984347 0.049346853 0.33902773 -0.74286175 -0.57724923 0.0024649496
-0.0063196304 -0.025037553 0.050009105 0.48724231 -0.72688913 -0.48397014 0.0012306691
-0.026037978 -0.022914376 0.049758546 -0.5839057 -0.56672359 -0.58127314 0.0033711926
-0.02369524 -0.023738921 0.048652127 -0.42547765 -0.65523183 -0.62421149 0.00093304837
-0.020990768 -0.024713621 0.047974505 -0.33961111 -0.69879538 -0.6295628 0.0017482629
-0.0082150493 -0.024744492 0.047989968 0.35781708 -0.76876932 -0.53005725 0.0032021338
-0.0055340757 -0.023635013 0.04862722 0.49163848 -0.74661684 -0.44816834 0.00092830841
-0.00361756 -0.022625446 0.04926813 0.58206987 -0.70927322 -0.39765069 0.00092713942
-0.028778542 -0.01932716 0.049736921 -0.75939697 -0.44420993 -0.47538814 0.0054287687
-0.026961699 -0.020728108 0.048651673 -0.68299067 -0.49491504 -0.53719914 0.0021500417
-0.024851676 -0.021748479 0.047515962 -0.54589957 -0.57130837 -0.61286253 0.0011898702
-0.0023457464 -0.02125214 0.04864233 0.61021674 -0.68949866 -0.390163 0.00188521
-0.00061322842 -0.01992825 0.049030747 0.63375062 -0.68640232 -0.35666773 0.0012595613
-0.029046442 -0.017399795 0.04900806 -0.83399546 -0.33092079 -0.44152352 0.0040865489
-0.028028104 -0.018616717 0.04792944 -0.69022608 -0.48662224 -0.53552473 0.0025283706
0.00065092556 -0.018348079 0.049040917 0.63319069 -0.68787605 -0.35481849 0.0011172951
-0.029619601 -0.014413863 0.048805334 -0.92268217 -0.164662 -0.34863168 0.00057149696
-0.02997506 -0.011705663 0.04873582 -0.93507606 -0.11948524 -0.33370051 0.00032373643
-0.03021023 -0.0083093811 0.048701253 -0.95156312 -0.044177547 -0.30426303 0.00041407399
-0.029885996 -0.0053698136 0.047444794 -0.96213132 0.01271962 -0.27228922 0.00049509178
-0.029916525 -0.0025396864 0.047887292 -0.96913618 0.061225805 -0.23880202 0.00086580752
-0.03000826 -0.00034001516 0.049216989 -0.9694857 0.1090091 -0.21957797 0.00061585504
-0.029091261 0.0032381709 0.048109546 -0.96212953 0.1642981 -0.21751527 0.0003296037
-0.022943046 -0.028389756 0.052993376 -0.37550679 -0.67574221 -0.63432413 0.00038269229
-0.020533741 -0.028886577 0.052321937 -0.27495897 -0.7094118 -0.64894724 0.0019000224
-0.01762725 -0.02935393 0.052011762 -0.1371839 -0.74144983 -0.65683544 0.00097122666
-0.014785621 -0.029185686 0.051591467 0.051140625 -0.74947488 -0.66005456 0.0015759213
-0.011877963 -0.029118609 0.052071664 0.23520786 -0.76142162 -0.60408145 0.0020529449
-0.0091326945 -0.028584104 0.05270509 0.39264265 -0.72134697 -0.5705176 0.0020594439
-0.026211774 -0.025608303 0.052619454 -0.54232645 -0.59861326 -0.58952874 0.0010354444
-0.023936687 -0.026549496 0.051776942 -0.45839706 -0.63108671 -0.62578088 0.0013875738
-0.020883376 -0.02744507 0.050925922 -0.28673911 -0.7061004 -0.64745879 0.0014861154
-0.010767883 -0.027603816 0.050559554 0.20560431 -0.76589954 -0.60920012 0.0021295741
-0.0082812328 -0.027194276 0.051406037 0.39292455 -0.75272435 -0.52821988 0.0019153284
-0.0058116554 -0.02607746 0.052053858 0.49539179 -0.71608776 -0.49173704 0.0010913356
-0.0041455082 -0.025186982 0.052678738 0.61780667 -0.66332 -0.42228118 0.0026585944
-0.028490614 -0.023113649 0.052589092 -0.71939451 -0.44451752 -0.53373736 0.007695043
-0.027001452 -0.023860391 0.051670309 -0.62275302 -0.55320257 -0.55330431 0.0030037502
-0.025018701 -0.024423998 0.050367329 -0.54018873 -0.60147935 -0.5885734 0.00093129254
