# .PCD v0.7 - Point Cloud Data file format
VERSION 0.7
FIELDS x y z normal_x normal_y normal_z curvature
SIZE 4 4 4 4 4 4 4
TYPE F F F F F F F
COUNT 1 1 1 1 1 1 1
WIDTH 547
HEIGHT 1
VIEWPOINT 0 0 0 1 0 0 0
POINTS 547
DATA ascii
-0.023030458 0.060051709 -0.053397812 -0.67607582 -0.0097892387 -0.73676705 0.0062561473
-0.012678736 0.059542906 -0.053497009 0.7751447 -0.15376355 -0.61278671 0.030141151
-0.012261691 0.061693687 -0.050856344 0.89662379 -0.17377004 -0.40727094 0.010340777
-0.023042042 0.063041955 -0.053195551 -0.6858201 -0.026681632 -0.72728187 0.0081795547
-0.012190777 0.062033206 -0.05333259 0.82387912 -0.19615543 -0.53173882 0.022676622
-0.02306922 0.065095335 -0.052721046 -0.74189693 -0.016194044 -0.67031831 0.0040328768
-0.011701268 0.066244148 -0.053209148 0.75368643 -0.13932866 -0.64229614 0.0055965311
-0.011200052 0.069145367 -0.053523086 0.81556201 0.048276134 -0.57665241 0.0311544
-0.012686012 0.072645307 -0.053254001 0.65760237 0.35454011 -0.6647259 0.031608824
-0.011204965 0.071644187 -0.053334348 0.82203782 0.080385514 -0.56373048 0.03036242
-0.025343992 0.013674609 -0.04791975 -0.19999382 -0.51818246 -0.83155841 0.0051461179
-0.023343025 0.013673943 -0.047938738 0.04776806 -0.51461869 -0.85608751 0.0062035942
-0.028535748 0.016089566 -0.048233859 -0.37109199 -0.46711406 -0.80255544 0.0014541524
-0.026004042 0.015425395 -0.048766173 -0.20666322 -0.47546971 -0.85511333 0.0037256773
-0.023039514 0.015385139 -0.048882164 0.090602703 -0.45815024 -0.88424516 0.0022994399
-0.020203486 0.015620489 -0.04841245 0.226597 -0.46237463 -0.85724187 0.00048570088
-0.017777165 0.016356507 -0.048041496 0.30467385 -0.44446048 -0.84239465 0.00014959776
-0.031387426 0.018942185 -0.048268747 -0.4798615 -0.41500777 -0.77298212 0.00072697474
-0.028997587 0.018359367 -0.049258024 -0.36469305 -0.42755198 -0.82716274 0.0012965695
-0.026097557 0.018069977 -0.050125591 -0.1822857 -0.44895771 -0.87476224 0.0039184834
-0.022882022 0.017956031 -0.050202779 0.099415414 -0.45724469 -0.88376683 0.0028244129
-0.02000479 0.018336069 -0.049749982 0.23519628 -0.43099734 -0.87116241 0.00046382422
-0.017058263 0.018381093 -0.048802573 0.30772319 -0.42009193 -0.85371494 0.00016674894
-0.014669012 0.018993331 -0.048196644 0.34775206 -0.41368306 -0.84138864 0.00019881423
-0.034027588 0.022263004 -0.048098177 -0.60876942 -0.33334342 -0.71991807 0.0021133134
-0.031964868 0.021393612 -0.049089205 -0.51296258 -0.34981585 -0.78389937 0.00077135279
-0.029336432 0.020877948 -0.0502913 -0.37828419 -0.37669384 -0.84557843 0.0010701963
-0.019285683 0.020349473 -0.050502695 0.23644659 -0.41059604 -0.88062698 0.00043338348
-0.016898245 0.021164827 -0.050057232 0.30787671 -0.39614233 -0.86503363 0.00012943706
-0.014057791 0.021361055 -0.04903378 0.37809828 -0.37341678 -0.84711367 0.00059457531
-0.011779884 0.021717425 -0.048176922 0.46057391 -0.3596575 -0.81149137 0.0021704007
-0.034488231 0.024537966 -0.048608609 -0.62120324 -0.29110506 -0.72757435 0.0014201846
-0.03226696 0.024077665 -0.050053187 -0.50031394 -0.31119063 -0.80798912 0.0014088562
-0.015910881 0.023180287 -0.050565474 0.32636094 -0.35614619 -0.87558466 0.00035317577
-0.013840875 0.024103638 -0.050085261 0.37642616 -0.34829804 -0.8584823 0.00048002793
-0.011145797 0.024425585 -0.048802484 0.52832025 -0.28165904 -0.80096561 0.0062210639
-0.034906246 0.027388344 -0.04922381 -0.65145612 -0.20077528 -0.73163813 0.0017176466
-0.032958545 0.02657417 -0.050545909 -0.58421183 -0.23833257 -0.77581841 0.0010947952
-0.012964464 0.0263895 -0.050584923 0.43580884 -0.29205 -0.85133862 0.0013518638
-0.011019132 0.027275451 -0.049488038 0.67435628 -0.19216304 -0.71296352 0.0065682931
-0.0093478374 0.028428208 -0.047841944 0.76357275 -0.1169816 -0.635037 0.0023241588
-0.036841229 0.030671202 -0.047931187 -0.78251463 -0.041599736 -0.62124091 0.0050320458
-0.035261579 0.030214718 -0.049649552 -0.70725179 -0.13667715 -0.69362402 0.005683247
-0.010645786 0.030198939 -0.049781978 0.70589316 -0.10790135 -0.70005155 0.0065254741
-0.0093435049 0.030411797 -0.048049979 0.81310129 -0.057293173 -0.57929599 0.0034211266
-0.035402659 0.033213943 -0.049696159 -0.78819728 0.076742202 -0.61061907 0.0068599246
-0.010302792 0.033264026 -0.049740702 0.82489663 -0.047406681 -0.56329232 0.0028771521
-0.0093421321 0.033404883 -0.048115849 0.86002403 0.0044528358 -0.51023412 0.0026017234
-0.034873627 0.036189921 -0.049712032 -0.77667147 0.16957314 -0.60665166 0.0060346117
-0.010301888 0.036246531 -0.049773198 0.87557667 0.03760729 -0.4816131 0.0038746253
-0.0093458872 0.035920061 -0.047935568 0.90652335 0.075843811 -0.4152869 0.0039916858
-0.034003101 0.038803387 -0.049703289 -0.75566345 0.23678032 -0.6106618 0.0064082285
-0.033156395 0.040186498 -0.050157107 -0.67237175 0.25035518 -0.69659066 0.0016657717
-0.010338892 0.039192695 -0.049438529 0.89737427 0.10364597 -0.42892537 0.0034626008
-0.032422349 0.041774202 -0.050023519 -0.66424197 0.32478032 -0.67327583 0.001626372
-0.010808702 0.0422571 -0.049403884 0.91839826 0.17026207 -0.357149 0.0026372555
-0.030655228 0.044386718 -0.050366543 -0.60447305 0.33538333 -0.72258586 0.0026301811
-0.030132754 0.044843521 -0.050707363 -0.58686435 0.35132465 -0.7294938 0.0026631157
-0.011460464 0.045214441 -0.04924177 0.89688998 0.21936753 -0.38401324 0.004065
-0.012132979 0.047967158 -0.049542621 0.91856545 0.15245727 -0.3646839 0.0053852168
-0.02566307 0.050296675 -0.050754152 -0.5553264 0.24183224 -0.79569447 0.014854787
-0.012329719 0.050845649 -0.048480839 0.94992501 0.10325868 -0.29492399 0.013597573
-0.027712105 0.010588005 -0.044957452 -0.37438679 -0.55360621 -0.74387807 0.00084127404
-0.025578896 0.010115195 -0.045372609 -0.19622464 -0.57238472 -0.79616058 0.0030552181
-0.022728469 0.0099862535 -0.045490727 0.042923879 -0.55928785 -0.82786149 0.0034549094
-0.019977681 0.010401926 -0.045153365 0.21715568 -0.53677726 -0.81529975 0.00045425023
-0.017978784 0.010760169 -0.0448054 0.28032994 -0.5241003 -0.80419767 0.00024027216
-0.030748138 0.013366377 -0.04522448 -0.4600364 -0.49985036 -0.73383653 0.00068913086
-0.028760247 0.012524572 -0.045811277 -0.37843484 -0.5383386 -0.75297982 0.0017819559
-0.026113607 0.012408174 -0.046837717 -0.22014917 -0.53543413 -0.81538004 0.0037586098
-0.02310501 0.012250734 -0.04701414 0.082546175 -0.55012316 -0.83099377 0.0031681722
-0.020071603 0.01241651 -0.046483874 0.21679725 -0.51058596 -0.83204621 0.00038056454
-0.017068092 0.012628517 -0.045675777 0.28830087 -0.49602959 -0.8190465 0.00031130025
-0.014771378 0.01332093 -0.045244023 0.33315694 -0.48150563 -0.81065333 0.0003334409
-0.033588745 0.016045216 -0.044967405 -0.57392955 -0.46947956 -0.67096484 0.00061545154
-0.031800158 0.015485368 -0.045936108 -0.50658292 -0.46460703 -0.72630167 0.00086822401
-0.029397916 0.015077885 -0.047175188 -0.37475127 -0.4977501 -0.78218055 0.001225954
-0.027365442 0.014186281 -0.047597729 -0.28632167 -0.52958286 -0.79847467 0.004476706
-0.019448504 0.014357225 -0.047483578 0.22095279 -0.48778579 -0.84453833 0.00042707333
-0.016931063 0.015187429 -0.047112562 0.29923537 -0.45943475 -0.83628821 0.00032908542
-0.014127754 0.015401756 -0.046128441 0.3475467 -0.44426128 -0.82573801 0.00027065491
-0.011798557 0.015749589 -0.04530789 0.42470175 -0.42328697 -0.80028528 0.0010827156
-0.034376543 0.01831861 -0.045750014 -0.59923816 -0.41605821 -0.6839658 0.0013331543
-0.032458067 0.018183319 -0.047150224 -0.50587291 -0.42232132 -0.75215513 0.00092084002
-0.013698258 0.018035222 -0.047310129 0.34970027 -0.41574061 -0.83956498 0.00017518608
-0.011087331 0.018326815 -0.04623929 0.49055845 -0.40066579 -0.77383423 0.0039353669
-0.009188503 0.018664405 -0.04512506 0.67019695 -0.30754414 -0.67546481 0.0065735118
-0.036686163 0.021721845 -0.045252278 -0.73043394 -0.29997665 -0.61357981 0.0023028178
-0.03515641 0.0211557 -0.046591554 -0.66405904 -0.34690043 -0.66233349 0.0015649637
-0.033367928 0.020189393 -0.047617964 -0.58546072 -0.3496649 -0.73141658 0.0011806397
-0.010494923 0.021187346 -0.047178578 0.52507204 -0.31271178 -0.79152423 0.0070731142
-0.0089443754 0.021208823 -0.045729868 0.74403745 -0.20070484 -0.63728011 0.0081166653
-0.037069209 0.024115976 -0.045808837 -0.73848778 -0.26798427 -0.61872476 0.0024741304
-0.035902057 0.024350956 -0.047257759 -0.73373926 -0.25686166 -0.62900609 0.0026953167
-0.0098544313 0.023445822 -0.047545277 0.70118034 -0.17755419 -0.69052207 0.012675587
-0.0087045981 0.024325412 -0.046173252 0.81801301 -0.12355557 -0.56177282 0.0038041912
-0.037206311 0.027257627 -0.046697773 -0.77607852 -0.18622027 -0.60251492 0.002814603
-0.03638282 0.026453074 -0.047475703 -0.71580768 -0.18087786 -0.67446464 0.0031116446
-0.0085553825 0.027165186 -0.046397708 0.82385349 -0.10957734 -0.55610996 0.0032250835
-0.037382688 0.029486971 -0.046420578 -0.78605264 -0.11689717 -0.60700607 0.0021504639
-0.008375803 0.030218048 -0.046256829 0.89920998 0.015171718 -0.43725407 0.0025094701
-0.036894038 0.032218616 -0.047359817 -0.83631611 0.069004722 -0.5438875 0.0045299884
-0.036374751 0.034703542 -0.047564231 -0.80962592 0.12958352 -0.5724631 0.0033800837
-0.0084391208 0.033128344 -0.046226367 0.92280006 0.060625948 -0.38047937 0.0018191092
-0.035891458 0.036222558 -0.047373883 -0.81504458 0.17376404 -0.55272812 0.0030943716
-0.0087523935 0.036326118 -0.046260186 0.93738508 0.123855 -0.32552916 0.0014220132
-0.0098515758 0.040696625 -0.047674321 0.93292415 0.2065576 -0.29493478 0.0019537106
-0.0091897482 0.038950928 -0.046378907 0.94771981 0.16861615 -0.27091652 0.0010756057
-0.01003945 0.042385191 -0.046722084 0.94255519 0.20689286 -0.26226905 0.00094529596
-0.0093945526 0.040915448 -0.045598947 0.94467342 0.19826645 -0.26130947 0.00097847276
-0.010790351 0.045136496 -0.046773836 0.94564044 0.2586683 -0.1971164 0.0024087916
-0.011697205 0.048420463 -0.047246307 0.95213318 0.18157247 -0.24591428 0.0076455441
-0.012199497 0.051598795 -0.047186404 0.96095443 0.12646662 -0.24611522 0.0087735141
-0.027911974 0.0071137007 -0.042023495 -0.39812025 -0.61153299 -0.68375993 0.00081292057
-0.025649851 0.0067628771 -0.042705506 -0.24085164 -0.62873882 -0.73937672 0.0028626858
-0.022870081 0.0065053008 -0.042933002 -0.0084676053 -0.629188 -0.77720696 0.0044970233
-0.020001393 0.0067642406 -0.042633981 0.20328222 -0.57932526 -0.78934056 0.00044650579
-0.017501213 0.0071117198 -0.042137027 0.27697283 -0.56918192 -0.77415627 0.00014803738
-0.031096153 0.0099799167 -0.042426392 -0.49418479 -0.5628649 -0.66254389 0.001514888
-0.028859664 0.0091463644 -0.043204218 -0.39679071 -0.58974296 -0.70339197 0.0018678197
-0.026146667 0.008619952 -0.044060551 -0.1983836 -0.60705513 -0.76949847 0.0025388065
-0.022786479 0.0084999381 -0.044442035 0.032564089 -0.60161662 -0.79812092 0.0033959558
-0.019566182 0.0089016668 -0.04404816 0.21044303 -0.5599879 -0.80132848 0.00063928316
-0.016799502 0.0090775946 -0.043272257 0.2736463 -0.5516271 -0.78792471 0.00016579594
-0.01399921 0.0095219184 -0.042509373 0.3303394 -0.53363925 -0.77852744 0.0002895903
-0.011839014 0.010160494 -0.041979097 0.39505115 -0.51177871 -0.76290047 0.0005222474
-0.034153726 0.013028315 -0.04224804 -0.6145426 -0.49332589 -0.61560291 0.0005445811
-0.031952579 0.012063352 -0.043365363 -0.50378436 -0.53001624 -0.6821174 0.00060523569
-0.029780813 0.01111228 -0.044228196 -0.47778544 -0.5350666 -0.6967243 0.00050368567
-0.016042873 0.011087758 -0.044353433 0.29281518 -0.51401705 -0.80625415 0.00040039653
-0.01358656 0.011877639 -0.043843016 0.3471328 -0.4858112 -0.80217594 0.00015348455
-0.010819517 0.012181679 -0.042756647 0.44656509 -0.45808643 -0.76859379 0.001768409
-0.0087578446 0.012967234 -0.042047292 0.60352641 -0.39885011 -0.69041604 0.0078644948
-0.036891241 0.016425166 -0.041896008 -0.75147319 -0.37771276 -0.54094464 0.0044182567
-0.034839094 0.015225217 -0.043242946 -0.64962363 -0.44606343 -0.61564314 0.00095316628
-0.032806139 0.014139314 -0.044266842 -0.55784124 -0.49929228 -0.66296327 0.00074873876
-0.012941821 0.013787429 -0.044709764 0.34862202 -0.48188809 -0.80389464 0.000143691
-0.010709816 0.014610509 -0.044128686 0.41132522 -0.44659448 -0.79458475 0.00089662714
-0.0085571213 0.015245399 -0.042972695 0.62238711 -0.33165586 -0.70897013 0.0054370193
-0.037158061 0.018412225 -0.042820726 -0.7549724 -0.34966338 -0.55475414 0.0031094144
-0.03576199 0.017693918 -0.044061583 -0.71378303 -0.37768206 -0.58980513 0.0027360022
-0.0080380365 0.018055292 -0.043402709 0.73905927 -0.25672108 -0.6228047 0.0080098771
-0.037600629 0.021083336 -0.043584943 -0.77394038 -0.31332624 -0.55031163 0.0028770296
-0.0074702846 0.021103986 -0.043345053 0.87407595 -0.098064102 -0.47578835 0.0015134931
-0.03816646 0.023767475 -0.043622315 -0.80014747 -0.25127107 -0.54463452 0.0013432122
-0.0072704451 0.02405205 -0.04350137 0.89361221 -0.057842221 -0.44509715 0.0023848712
-0.0071616345 0.027227402 -0.043544903 0.92152804 0.0012613029 -0.38830978 0.0016864092
-0.0071658427 0.03028377 -0.043257691 0.94980949 0.05644941 -0.30769363 0.0023324557
-0.0074746115 0.033401221 -0.043280527 0.95865792 0.10281147 -0.26533884 0.0012844084
-0.0080198329 0.036168434 -0.043637794 0.95912135 0.17509528 -0.22232395 0.0021841212
-0.0087545179 0.03923304 -0.043986946 0.9635098 0.20744264 -0.16916399 0.00076733949
-0.009416108 0.041528877 -0.044564001 0.9533506 0.25650704 -0.15914379 0.0015856002
-0.010699101 0.04592444 -0.043635838 0.94954252 0.27410802 -0.15242629 0.00087199209
-0.011445443 0.048142429 -0.044097386 0.9613623 0.23322472 -0.14624915 0.0022006663
-0.022585757 0.0017118407 -0.038824029 -0.079867557 -0.68923599 -0.7201215 0.0078087705
-0.021307562 0.001711945 -0.038799845 0.13351141 -0.66123056 -0.73820645 0.0017779472
-0.02819976 0.0042683138 -0.039051645 -0.41983858 -0.65620464 -0.6270017 0.00066469569
-0.025864758 0.0038754032 -0.039932385 -0.31245697 -0.68324971 -0.65995497 0.0014454415
-0.023010753 0.0034879912 -0.04039447 -0.088274732 -0.64485639 -0.75918901 0.0048375777
-0.02000317 0.0035272925 -0.040083051 0.16470419 -0.63643324 -0.75354183 0.00080160587
-0.017208584 0.0039050886 -0.039533429 0.26771644 -0.60815811 -0.74730957 0.00018966431
-0.014903685 0.0042690365 -0.038982637 0.30221447 -0.59791929 -0.74240083 0.00043144831
-0.031108582 0.0067543858 -0.039474793 -0.48863712 -0.6168462 -0.61703688 0.00057872123
-0.029028101 0.0060852598 -0.040333547 -0.43315789 -0.64345038 -0.63114643 0.00096663844
-0.026633201 0.0054672854 -0.04113511 -0.28663677 -0.65744406 -0.69685483 0.0031325549
-0.019645255 0.005386421 -0.04150112 0.17780477 -0.61121809 -0.77123153 0.00077447732
-0.016636528 0.0059257299 -0.040929813 0.27008665 -0.58314586 -0.76615548 0.00025867493
-0.013907548 0.0061180503 -0.040000677 0.32401785 -0.57694834 -0.74976194 0.00024779723
-0.011205413 0.006858164 -0.039276846 0.39380479 -0.55132645 -0.73549777 0.00024007761
-0.034100734 0.0098263435 -0.03950664 -0.61777598 -0.53076333 -0.58020967 0.00069537153
-0.032101445 0.0089623239 -0.040661849 -0.51905519 -0.56922746 -0.63762212 0.00073693984
-0.030158583 0.0079724221 -0.041386753 -0.48479751 -0.58923984 -0.64634949 0.00051178638
-0.01339385 0.0082336413 -0.041358545 0.32518074 -0.54806775 -0.7706356 0.0002255882
-0.010671734 0.0089910347 -0.040580742 0.42975116 -0.50990003 -0.74519527 0.0016276609
-0.0083115092 0.0094799139 -0.039482784 0.5361703 -0.48340133 -0.69198596 0.0025960358
-0.036740929 0.013081488 -0.039339587 -0.72607988 -0.45347816 -0.51688057 0.0032623399
-0.035082392 0.011992112 -0.040396616 -0.67526042 -0.49304584 -0.54857016 0.00069829146
-0.033197254 0.01101896 -0.041533396 -0.56543207 -0.53437114 -0.62827867 0.00035662676
-0.0096506197 0.01102159 -0.04143896 0.512321 -0.45589089 -0.72779858 0.001745987
-0.0075821788 0.012053805 -0.040359885 0.68671238 -0.29022846 -0.6664784 0.0071307626
-0.0059536789 0.013483676 -0.038789712 0.83192915 -0.17146417 -0.52772534 0.0035969727
-0.037296891 0.015218662 -0.040246911 -0.82055008 -0.36228141 -0.44209692 0.0086056758
-0.036015183 0.01451119 -0.041469328 -0.74920768 -0.41514197 -0.51608628 0.0039698132
-0.0069137374 0.014976073 -0.040819652 0.82547343 -0.19704887 -0.52892846 0.0031584038
-0.0060196295 0.015434232 -0.039374974 0.85966736 -0.12830752 -0.49447876 0.0037767072
-0.038099401 0.018080108 -0.040622696 -0.85470176 -0.31035796 -0.41612843 0.0040361765
-0.0069370894 0.017453805 -0.04159832 0.83689874 -0.1598054 -0.52350998 0.0036897366
-0.0060839253 0.018433131 -0.040060185 0.90497136 -0.058040094 -0.42149517 0.001344096
-0.038470387 0.020263407 -0.041308425 -0.86519289 -0.26863921 -0.42340794 0.0033631963
-0.0059372215 0.021345783 -0.040101975 0.92054403 -0.046939615 -0.38780841 0.0024133297
-0.0061829928 0.024357032 -0.040903322 0.94747126 0.017553665 -0.31935883 0.0019284741
-0.0062371735 0.027226426 -0.040629622 0.96710408 0.064191259 -0.24614872 0.0024650597
-0.0064562885 0.031085793 -0.039496727 0.97318023 0.10578703 -0.2042779 0.0011186555
-0.0064413901 0.029722083 -0.040641271 0.97412461 0.087005451 -0.2085934 0.00086277269
-0.0069492059 0.03302402 -0.040752135 0.97013688 0.1239296 -0.20850867 0.0010590584
-0.0074525336 0.035281289 -0.041131817 0.96320683 0.17139064 -0.20702118 0.0015363768
-0.0084674917 0.038828697 -0.041272841 0.96481669 0.20532554 -0.16422588 0.00059757015
-0.021459185 -0.001370539 -0.035813235 0.045091692 -0.72079712 -0.69167793 0.004459179
-0.020686187 -0.0013705688 -0.035801984 0.075260058 -0.69461328 -0.71543568 0.0050857449
-0.028005047 0.0015930524 -0.036248453 -0.44039321 -0.68841946 -0.57630932 0.00080255372
-0.025712889 0.00085375365 -0.036779765 -0.33336106 -0.69703543 -0.6348322 0.0015619404
-0.023035165 0.00036521442 -0.037367512 -0.18248029 -0.71353036 -0.67644316 0.0039448738
-0.020060759 0.00039496738 -0.037332915 0.15086553 -0.66526258 -0.73120815 0.001750036
-0.017119389 0.00080421753 -0.036864638 0.2574141 -0.6388008 -0.72503203 0.00022474828
-0.014309486 0.0013782037 -0.036290113 0.31164908 -0.62224263 -0.71811485 0.00021065955
-0.031036129 0.0039516892 -0.03647149 -0.51191884 -0.65256053 -0.55866259 0.00061014527
-0.028888339 0.0031929184 -0.037438247 -0.41470921 -0.67385757 -0.61150002 0.0006620959
-0.026266545 0.0024824934 -0.038285349 -0.29783031 -0.69216615 -0.65742159 0.0010913115
-0.01875562 0.0022245748 -0.038640402 0.20404537 -0.63741428 -0.74301308 0.0010821153
-0.016722187 0.0025811912 -0.03825777 0.25451076 -0.6271469 -0.73614615 0.00030805395
-0.013850674 0.0031824382 -0.037602141 0.31816205 -0.60809702 -0.72731763 0.00033765665
-0.011125986 0.0035214182 -0.036580216 0.37267709 -0.59068412 -0.71568424 0.0002525709
-0.0088215563 0.0043002842 -0.035981931 0.44190753 -0.5451231 -0.71243149 0.0010987463
-0.034110475 0.0070376424 -0.036649384 -0.65223849 -0.56226552 -0.50837243 0.0017563411
-0.032079164 0.0058890283 -0.037644457 -0.53516495 -0.62753934 -0.56550235 0.00072497735
-0.02977252 0.0047860024 -0.038521282 -0.44289428 -0.65351367 -0.61381149 0.00087983062
-0.012871458 0.0047862111 -0.038503833 0.33130208 -0.59147698 -0.73511493 0.00024294561
-0.010579051 0.005561416 -0.037955821 0.37677699 -0.57358485 -0.72735101 0.00016809396
-0.0079619158 0.0062768217 -0.036996674 0.51584911 -0.47154886 -0.71522117 0.0028584851
-0.0059864637 0.0071350737 -0.035991259 0.64227319 -0.40117502 -0.65310317 0.0071611786
-0.036886886 0.010220054 -0.036291189 -0.69855553 -0.52048582 -0.49103436 0.0007064055
-0.03509108 0.0090031521 -0.037510615 -0.69032007 -0.52666348 -0.49606833 0.00087077142
-0.033084393 0.0078548519 -0.038732581 -0.5802207 -0.57768601 -0.57412791 0.00055135688
-0.007108504 0.0087431287 -0.038022883 0.62108016 -0.38096532 -0.68492693 0.0057419636
-0.0056107556 0.0093284594 -0.036653955 0.76589501 -0.2678495 -0.58451813 0.0090205511
-0.037298564 0.012128232 -0.037427511 -0.74496883 -0.46475506 -0.47856471 0.0028038102
-0.03619425 0.011194113 -0.038297333 -0.7164256 -0.46278822 -0.52207416 0.0035054327
-0.006467436 0.010928693 -0.038640402 0.72095627 -0.27199346 -0.63737082 0.0038549977
-0.0054256786 0.01217161 -0.037373133 0.83705097 -0.18381527 -0.51532286 0.002966742
-0.038108297 0.014881246 -0.037924569 -0.84165835 -0.34741059 -0.41342112 0.0060233511
-0.0049745459 0.015414812 -0.037117913 0.91874152 -0.045068782 -0.39227915 0.0013175533
-0.038738731 0.018616121 -0.038484477 -0.87434071 -0.3025302 -0.37947839 0.0022928722
-0.0049090078 0.018195797 -0.037223253 0.93553805 -0.0077744694 -0.35314032 0.0016425324
-0.0048607239 0.021000631 -0.036964498 0.96130437 0.038629755 -0.2727668 0.0020389163
-0.0052270256 0.023971636 -0.037437145 0.97099239 0.088235952 -0.22223464 0.0011264726
-0.0055835545 0.026878756 -0.037473649 0.97462749 0.085858859 -0.20671125 0.0010373994
-0.0059735263 0.02921892 -0.037095569 0.9764477 0.10331327 -0.18941055 0.00046798238
-0.025651105 -0.0018635839 -0.033605967 -0.39455959 -0.72299325 -0.56710094 0.00072679733
-0.022762451 -0.0025170762 -0.034278464 -0.20137264 -0.73633468 -0.64595693 0.0024614988
-0.019789513 -0.0028321734 -0.034145437 0.054983798 -0.73682165 -0.67384762 0.0051293229
-0.017126337 -0.0022751903 -0.034025777 0.2243076 -0.67294306 -0.70486438 0.00030408343
-0.014385983 -0.0018643886 -0.033431362 0.29341391 -0.65296149 -0.69824743 0.00031781261
-0.012255984 -0.0013818489 -0.032916658 0.33347118 -0.64696336 -0.68573707 0.00019951435
-0.031093877 0.0015599625 -0.033396982 -0.55094332 -0.66341412 -0.50630331 0.00088033383
-0.028963527 0.00056386739 -0.034195121 -0.45847854 -0.69523513 -0.55357522 0.00093832047
-0.026245721 -0.0005129138 -0.034874968 -0.37144244 -0.71950775 -0.58680415 0.0014992155
-0.024042875 -0.00085507799 -0.035721503 -0.19299532 -0.72341675 -0.66288841 0.0047727078
-0.016832748 -0.00068384409 -0.035425469 0.22751687 -0.66061598 -0.71541786 0.00037615665
-0.013839548 -3.9606355e-05 -0.034855176 0.2958191 -0.63718057 -0.7116825 0.00021485593
-0.011042823 0.00057992619 -0.034044869 0.35392949 -0.61602259 -0.70374012 0.00014053725
-0.008404538 0.0013699103 -0.033319693 0.4285816 -0.58256543 -0.6906051 0.00060288666
-0.033672683 0.0041522435 -0.033586781 -0.64913654 -0.615264 -0.44729394 0.0013136815
-0.031972602 0.0031834166 -0.034481458 -0.58920562 -0.65079319 -0.47885802 0.000949535
-0.029998019 0.0022414355 -0.035400532 -0.53549647 -0.65914446 -0.52798873 0.00080391037
-0.010190116 0.0025646342 -0.035283267 0.38352722 -0.58757693 -0.71250278 0.00025219735
-0.0077407197 0.0032064891 -0.034454472 0.46899724 -0.5405497 -0.69846088 0.0026899914
-0.0056123594 0.0037497948 -0.033468012 0.56518906 -0.48352718 -0.66840315 0.004188139
-0.034932688 0.0061134337 -0.034323994 -0.70710415 -0.57747096 -0.40808207 0.0012975443
-0.033182114 0.0049946606 -0.035390906 -0.61616921 -0.61447144 -0.4927071 0.00086258887
-0.0068532312 0.0051662382 -0.035428815 0.53256637 -0.52394551 -0.66472119 0.004074866
-0.0050118412 0.0061404663 -0.034240086 0.6977303 -0.3514826 -0.62420547 0.0087857228
-0.036904063 0.0089724679 -0.034453768 -0.7432853 -0.53083915 -0.40710771 0.00091977045
-0.035941102 0.0081793731 -0.035324104 -0.70463645 -0.55867797 -0.4374544 0.001739342
-0.0043862141 0.0091010751 -0.034518771 0.87616152 -0.14614768 -0.45932764 0.0018177294
-0.0034257565 0.010568525 -0.032808416 0.89663267 -0.08501678 -0.43453658 0.0021687872
-0.0041901898 0.012324488 -0.034845416 0.91289312 -0.078063153 -0.40066478 0.0013220346
-0.0034249406 0.012382247 -0.032965031 0.92821336 -0.019230699 -0.37155095 0.0015305156
-0.0040071029 0.015250026 -0.034642495 0.94636792 0.00014743011 -0.32309115 0.0026488118
-0.0034250338 0.014980103 -0.032947212 0.95103204 0.0336871 -0.30725116 0.0010843094
-0.0039367704 0.018302843 -0.034127537 0.96573836 0.076082833 -0.24811448 0.0027274478
-0.0043032812 0.021018701 -0.034516092 0.98186702 0.11771885 -0.14859149 0.0031449848
-0.0047134981 0.023999453 -0.034099869 0.98091918 0.15971787 -0.11085044 0.00076405139
-0.025278401 -0.0046620192 -0.030135728 -0.43173304 -0.73795718 -0.51867706 0.00091114576
-0.022771761 -0.0052425414 -0.031016951 -0.28954595 -0.76160312 -0.57976174 0.0023798174
-0.019864578 -0.0055627991 -0.031258538 -0.019187266 -0.74768913 -0.66377169 0.0046954532
-0.016962444 -0.0053300951 -0.030890958 0.1910457 -0.71868122 -0.6685797 0.00064346934
-0.014223579 -0.0048128422 -0.030449145 0.27118888 -0.68966746 -0.67142791 0.00029192789
-0.012336912 -0.0045332806 -0.029956184 0.33040062 -0.66646063 -0.66833061 0.00032304422
-0.028561028 -0.0020862212 -0.030968102 -0.49884185 -0.71256149 -0.49336907 0.0010740099
-0.026125139 -0.0031974353 -0.031492081 -0.42902189 -0.73494196 -0.52516717 0.00073629635
-0.023616768 -0.0038819006 -0.032265496 -0.26367754 -0.74436569 -0.61350948 0.0048978161
-0.016729591 -0.0038363514 -0.032362074 0.20715724 -0.69762474 -0.68586117 0.00035828614
-0.013871975 -0.0032716198 -0.03185736 0.27566934 -0.67009252 -0.68918973 0.00023163631
-0.011073441 -0.0025845664 -0.031220516 0.33274639 -0.64662486 -0.68640816 0.00022086203
-0.0084239263 -0.0019147256 -0.030407555 0.4069761 -0.62275457 -0.66824186 0.00013855462
-0.031808622 0.00061541609 -0.031064853 -0.60241479 -0.664011 -0.44292852 0.0010737519
-0.029566562 -0.00065664481 -0.032005988 -0.50357181 -0.71638578 -0.48291507 0.0016722785
-0.010059568 -0.00073374528 -0.03239356 0.3636955 -0.61921602 -0.69591457 8.4637359e-05
-0.0076386812 7.5431541e-05 -0.03174375 0.421276 -0.59668279 -0.68300527 0.00070130522
-0.0051617599 0.0007433081 -0.030742314 0.54133332 -0.5261969 -0.65580112 0.0032236418
-0.003440788 0.0017466052 -0.029921494 0.73317605 -0.36568534 -0.57334727 0.0024110298
-0.034394294 0.003447589 -0.031319275 -0.67142075 -0.62138033 -0.4038325 0.00070584193
-0.032917812 0.0024314374 -0.032200854 -0.65094715 -0.62821525 -0.42616132 0.0020664905
-0.0046330066 0.0030394648 -0.032048501 0.63129675 -0.42533973 -0.64849871 0.012505961
-0.0032415185 0.0035077627 -0.030515928 0.80991757 -0.24975452 -0.5307129 0.0079054236
-0.036760803 0.0072067035 -0.031896763 -0.73533159 -0.55947983 -0.38245231 0.00043523597
-0.035854839 0.0054932102 -0.031534038 -0.72589225 -0.5707497 -0.38382971 0.00057412928
-0.0039473395 0.0053763241 -0.032503568 0.80370319 -0.21823351 -0.55356598 0.0063101137
-0.0030167368 0.0063350606 -0.031035043 0.86417806 -0.12861574 -0.48647124 0.0060851611
-0.0028805402 0.0092283655 -0.031249657 0.92848039 -0.042066582 -0.36899129 0.0019497221
-0.0027388767 0.012181707 -0.030972486 0.95246875 0.039178479 -0.3021065 0.0010389501
-0.002999376 0.015482266 -0.031124599 0.96743751 0.084129468 -0.23871937 0.001052661
-0.0034322399 0.018160466 -0.03156314 0.97481728 0.13463303 -0.17777833 0.002202854
-0.00395557 0.021303706 -0.031238951 0.97555792 0.18094184 -0.12468632 0.00097851409
-0.022493433 -0.0078957994 -0.027546661 -0.34557831 -0.78813124 -0.50933772 0.0025813505
-0.020017307 -0.0082386322 -0.02796109 -0.077012047 -0.78551024 -0.61403811 0.007270711
-0.017003044 -0.0081781596 -0.027697476 0.14770494 -0.75980651 -0.63314879 0.0013611022
-0.014433447 -0.0079036597 -0.027152298 0.25409824 -0.73280203 -0.63121736 0.0002189223
-0.028070811 -0.004694243 -0.02745866 -0.51352429 -0.7296012 -0.45163587 0.00061995885
-0.025853734 -0.005724784 -0.028071821 -0.46398288 -0.75615555 -0.46146357 0.00048669605
-0.023306016 -0.0066456087 -0.028857294 -0.31608623 -0.77454615 -0.5478757 0.0040953555
-0.019952111 -0.0071605388 -0.029368667 -0.032395892 -0.76524562 -0.64292276 0.0049001938
-0.016554032 -0.0068019908 -0.029138789 0.16717614 -0.7395215 -0.65204287 0.00092090305
-0.013842585 -0.0063609388 -0.028644113 0.25817436 -0.71899223 -0.64528757 0.00014623595
-0.01117027 -0.0056789014 -0.028200092 0.31773081 -0.69785935 -0.64190298 0.00033820159
-0.0084317895 -0.0049458705 -0.027446624 0.39982072 -0.65778804 -0.63832462 0.00018326339
-0.031125298 -0.0017506303 -0.028284742 -0.61528689 -0.67425942 -0.40840691 0.00085997733
-0.029150879 -0.0032555507 -0.028470801 -0.54168421 -0.71465719 -0.44254187 0.0016725855
-0.0270092 -0.0040131556 -0.029649638 -0.46307132 -0.73889464 -0.48948923 0.0017244259
-0.010122837 -0.0038838768 -0.0294917 0.34564537 -0.65900111 -0.66801715 0.00025878602
-0.0076003438 -0.0031564832 -0.028718252 0.4103294 -0.63692367 -0.65265465 0.00036488072
-0.005051062 -0.0023012497 -0.027841879 0.49616182 -0.59026468 -0.63671893 0.0016353583
-0.0029293308 -0.0014054375 -0.026874237 0.7193473 -0.44846657 -0.53048784 0.0058994074
-0.03402476 0.0011394527 -0.028167186 -0.70610982 -0.62970281 -0.32385683 0.0012748668
-0.032398276 -0.00034848507 -0.0286538 -0.65387261 -0.65185517 -0.38410363 0.00159342
-0.0041802009 -0.00050569139 -0.028874127 0.59525198 -0.49367693 -0.63400167 0.010936403
-0.0025735893 0.00061386265 -0.027973754 0.75747836 -0.38229373 -0.52922398 0.010383755
-0.035132788 0.0030092164 -0.028953526 -0.70442581 -0.61417091 -0.35577875 0.00052159891
-0.0020819274 0.0033297744 -0.028295239 0.8910802 -0.12695113 -0.43572861 0.0012870157
-0.0017669839 0.0060638753 -0.028182067 0.9253751 -0.039768606 -0.37696069 0.0015912422
-0.0016623992 0.0091682579 -0.028009009 0.94518429 0.03574897 -0.32457447 0.0017459692
-0.002022455 0.012486548 -0.028323263 0.96172124 0.096171357 -0.25659946 0.001983481
-0.0023102686 0.014712805 -0.028354215 0.97022074 0.16345577 -0.17875661 0.0018336972
-0.0029212437 0.017489998 -0.028945131 0.97311097 0.1723132 -0.15285049 0.001114585
-0.0034510214 0.020161327 -0.027956091 0.96987873 0.204771 -0.13192432 0.00051367382
-0.0044899574 0.023746017 -0.029607169 0.9750604 0.18593244 -0.12118706 0.00080751884
-0.02153001 -0.010445897 -0.023956142 -0.25069764 -0.83284622 -0.49347532 0.0047849128
-0.019789364 -0.010664919 -0.0246059 -0.15587553 -0.84186667 -0.51668483 0.0062865396
-0.017112618 -0.010671515 -0.024558371 0.090399466 -0.81823426 -0.56773281 0.0024756608
-0.01462001 -0.010441704 -0.024117423 0.22038405 -0.77492905 -0.59238154 0.00062652904
-0.02549403 -0.0078922007 -0.024785383 -0.47337607 -0.76906037 -0.42948949 0.00080162199
-0.022951165 -0.0089886785 -0.025322115 -0.36607188 -0.78892469 -0.49354759 0.0016118622
-0.019980701 -0.0095724426 -0.026156697 -0.10115018 -0.82057828 -0.56251222 0.0055662855
-0.016784614 -0.009486394 -0.026030563 0.12085406 -0.78268659 -0.61057025 0.0013909478
-0.01365702 -0.0090973265 -0.025419142 0.24363309 -0.7504555 -0.61437726 0.00034726915
-0.011048691 -0.0084391031 -0.025042573 0.31635347 -0.71745354 -0.62062949 0.00029903761
-0.0082439221 -0.0076370183 -0.024402253 0.38165402 -0.69456184 -0.60985571 0.00024331879
-0.028641777 -0.0055045374 -0.025185768 -0.55148923 -0.74156576 -0.38202059 0.00077137747
-0.026420206 -0.0066957492 -0.025867872 -0.48127851 -0.76759738 -0.4232792 0.0012791653
-0.010411234 -0.0070396308 -0.026350694 0.31712216 -0.70700794 -0.63211811 0.0003435461
-0.0077443961 -0.0060894415 -0.025800418 0.39527389 -0.67296469 -0.62520164 0.00036245081
-0.005083194 -0.0053096283 -0.024816321 0.45435619 -0.64165771 -0.61792862 0.00080671901
-0.0029407418 -0.0046035992 -0.023952179 0.58251309 -0.56248128 -0.58676517 0.0044647702
-0.031779844 -0.0026468644 -0.025387838 -0.71486568 -0.63756436 -0.28719094 0.0008698373
-0.030130051 -0.0037844675 -0.026259504 -0.62826669 -0.69385302 -0.35192168 0.00064502435
-0.0042095613 -0.0035672253 -0.025978943 0.48867372 -0.61906856 -0.61477804 0.00088863901
-0.0020690686 -0.0025453074 -0.024993155 0.6674397 -0.44873914 -0.59427053 0.010614791
-0.034257926 0.00028190762 -0.025502604 -0.72594118 -0.62708992 -0.28243154 0.00074835663
-0.03303545 -0.00087973941 -0.026251189 -0.71043503 -0.64471477 -0.28217867 0.00095447281
-0.0011957092 0.00028955657 -0.025549835 0.84958065 -0.2313235 -0.47402763 0.0022983253
-0.00028498191 0.00070763659 -0.02390516 0.85435748 -0.18500516 -0.48564011 0.0045924373
-0.00096951518 0.0031218403 -0.025893165 0.90767628 -0.080490693 -0.41187993 0.0018771447
-0.00028599147 0.0030949865 -0.024292858 0.92685223 -0.028183147 -0.37436688 0.0011674889
-0.00081865117 0.0062567946 -0.025810646 0.94465095 0.01515513 -0.32772693 0.0020480165
-0.00028576236 0.0062810634 -0.024204992 0.94942862 0.04201011 -0.31115985 0.0010347024
-0.00096909329 0.0095469737 -0.025581922 0.96410972 0.096977361 -0.24715947 0.0018846412
-0.0011956496 0.011981645 -0.025036732 0.96504152 0.17643297 -0.19382025 0.0016380282
-0.0020083813 0.015387376 -0.025524952 0.96617717 0.2095515 -0.15029974 0.00057812803
-0.0026711728 0.017918073 -0.025111027 0.96580923 0.23957935 -0.099067032 0.0017679445
-0.022693951 -0.010884674 -0.022018926 -0.41047555 -0.81433403 -0.41032913 0.0010404363
-0.019974213 -0.011937445 -0.022297101 -0.21200193 -0.85093445 -0.48058897 0.0058842245
-0.016995352 -0.012087058 -0.022395922 0.041305725 -0.83073914 -0.55512726 0.0029897671
-0.013869103 -0.011599973 -0.02228665 0.19814335 -0.78976703 -0.58052319 0.00080792559
-0.011098891 -0.011070762 -0.021852905 0.28160346 -0.75317067 -0.59450257 0.00046711182
-0.0089654122 -0.010649346 -0.021279208 0.34844005 -0.72818494 -0.59020019 0.00014991904
-0.027946325 -0.0077287741 -0.02165659 -0.59590966 -0.73688948 -0.31919512 0.0012448377
-0.02600481 -0.0087547041 -0.022402512 -0.50439745 -0.7735495 -0.38367236 0.00058858411
-0.023843797 -0.0098071247 -0.022933543 -0.42379662 -0.80926162 -0.40680715 0.0015032787
-0.010695251 -0.00977985 -0.023268871 0.29196727 -0.73736674 -0.60913497 0.00043479598
-0.0078816181 -0.0090703946 -0.022529207 0.36143768 -0.71088314 -0.60333073 0.00022325118
-0.0051102387 -0.0080186222 -0.021869404 0.4339568 -0.67535466 -0.59630322 0.00021226081
-0.0029521342 -0.0073124059 -0.021034919 0.49683103 -0.64407808 -0.58165479 0.0006876018
-0.030829418 -0.0047965283 -0.022663834 -0.65591323 -0.69744503 -0.28870106 0.00045198901
-0.029432604 -0.0060651693 -0.022679428 -0.62308389 -0.72127813 -0.30252981 0.00071554974
-0.0042210952 -0.0063705016 -0.023081524 0.46719238 -0.64461333 -0.60514867 0.0011053409
-0.0019565076 -0.0056178495 -0.022045774 0.56687218 -0.57644707 -0.5885275 0.0059571178
-0.00027742516 -0.0049057715 -0.021002628 0.69944263 -0.45916721 -0.54767275 0.0088155698
-0.033889227 -0.0014238851 -0.022150181 -0.71867901 -0.64187872 -0.26738009 0.00061320129
-0.032329131 -0.0031972928 -0.022792868 -0.71158814 -0.64891362 -0.26935741 0.00074806751
-0.0011191042 -0.0035487609 -0.023168169 0.68875098 -0.41933089 -0.59142518 0.013113694
0.00010215677 -0.0026076231 -0.021871669 0.81843054 -0.2962743 -0.49233419 0.010191779
-0.034322575 -0.00035532285 -0.023390733 -0.73411131 -0.6260345 -0.26298559 0.00030113786
0.0003870232 4.3428503e-05 -0.022194715 0.91127443 -0.11056473 -0.39667904 0.0034163641
0.00052027032 0.0031106826 -0.022155566 0.94363779 0.027339047 -0.32984871 0.0011223481
0.00038731471 0.0060465946 -0.022018749 0.95404524 0.12075289 -0.27425611 0.0012412757
-0.00012822263 0.0090120221 -0.022382231 0.96322942 0.16791511 -0.20974645 0.00076052418
-0.00081414543 0.012441238 -0.022349013 0.96132964 0.23405521 -0.14513245 0.0015623647
-0.00027843099 0.010865833 -0.021388941 0.96092522 0.21228141 -0.1776493 0.0011493711
-0.0015256573 0.014943799 -0.021980586 0.95095694 0.29330772 -0.098241642 0.0010154529
-0.021823412 -0.013294537 -0.018024616 -0.45189923 -0.81721669 -0.35769242 0.0011946569
-0.019778119 -0.013805429 -0.018860251 -0.30289772 -0.85443634 -0.42212734 0.0039058195
-0.016934633 -0.014336398 -0.019065179 -0.07255666 -0.86134613 -0.50281036 0.0052293381
-0.01398295 -0.014162399 -0.018916285 0.14118493 -0.81496578 -0.5620476 0.001669646
-0.011278522 -0.013669068 -0.01855506 0.26000962 -0.77582181 -0.57488739 0.00046488325
-0.0091604367 -0.013294447 -0.018027656 0.33652964 -0.74939746 -0.57022041 0.00030988039
-0.025225868 -0.010902567 -0.01882528 -0.50971836 -0.78885061 -0.34336853 0.00048441577
-0.022958066 -0.011994053 -0.019510405 -0.42137101 -0.82137448 -0.38443518 0.00069106609
-0.019778054 -0.013003154 -0.020391028 -0.24988079 -0.84594315 -0.47110486 0.0036888784
-0.016872911 -0.013207596 -0.020696707 -0.0021178506 -0.84599936 -0.53317964 0.0037700429
-0.013937796 -0.013039012 -0.020391164 0.16966935 -0.78863752 -0.59098494 0.00086972496
-0.010784288 -0.012370944 -0.0200519 0.26346397 -0.76569289 -0.58677179 0.00034234065
-0.0079934681 -0.011707749 -0.019368691 0.33836797 -0.73906225 -0.58248955 0.00027832785
-0.0054363874 -0.010962125 -0.01860654 0.4246043 -0.70236999 -0.57130343 0.00016084203
-0.028854847 -0.0079767518 -0.01898583 -0.62698239 -0.72968328 -0.27286509 0.00091556733
-0.026483826 -0.0096634794 -0.019660778 -0.55389911 -0.76954889 -0.31778961 0.0012367449
-0.0067017102 -0.0099967308 -0.020643018 0.3862921 -0.70260406 -0.59760016 0.00056595204
-0.0044659916 -0.0094501209 -0.019709829 0.4291015 -0.69556141 -0.57625186 0.00022666088
-0.0020457078 -0.0083431732 -0.019092927 0.51360166 -0.63929129 -0.57229364 0.0013936742
-9.0702437e-05 -0.007542599 -0.018259905 0.61717325 -0.57317251 -0.53904581 0.0030285779
-0.031172669 -0.0057363529 -0.019129373 -0.67445081 -0.69687319 -0.24389336 0.00035443361
-0.030030584 -0.0065251924 -0.020104803 -0.65909928 -0.71262592 -0.24031729 0.00053961249
-0.0009898385 -0.0066150911 -0.020075304 0.54864746 -0.60523295 -0.5767833 0.00086662848
0.00053439103 -0.0057358723 -0.019099895 0.76221281 -0.39206535 -0.5150888 0.010818072
-0.032460034 -0.004114856 -0.019882225 -0.71340227 -0.65518302 -0.24858065 0.00087418454
0.001375908 -0.0028323773 -0.019190624 0.89740056 -0.14789979 -0.41568971 0.0024493888
0.0016082823 0.00017645676 -0.019207764 0.93594003 -0.017414836 -0.35172862 0.0018084674
0.0015551914 0.0029172022 -0.019118596 0.9489274 0.07815519 -0.3056609 0.001377724
0.0010705506 0.0063541415 -0.019278992 0.95774668 0.15499575 -0.24227569 0.001107172
0.0004799813 0.0093111591 -0.019168817 0.95347333 0.2356555 -0.18802968 0.0013136332
-0.00081039593 0.013600613 -0.019468866 0.94379622 0.31219539 -0.10854785 0.00046372879
-9.3038194e-05 0.011459793 -0.019191973 0.94749552 0.28655037 -0.14191927 0.00096209347
-0.0013473593 0.015228066 -0.019014977 0.94203573 0.31951937 -0.10235234 0.00033363252
-0.0024215663 0.017900955 -0.01936134 0.94374019 0.31999207 -0.083423555 0.00035083515
-0.016266499 -0.016641021 -0.01521422 -0.16788188 -0.88578856 -0.43265948 0.0078139212
-0.013821769 -0.016637161 -0.015309738 0.081419259 -0.85825372 -0.50672621 0.0052394574
-0.012206375 -0.016654942 -0.014869355 0.16497117 -0.83079207 -0.53157222 0.0025132487
-0.022681199 -0.013576463 -0.016019229 -0.48252404 -0.81681269 -0.316208 0.0010963535
-0.019919161 -0.014981506 -0.0161133 -0.35057786 -0.85572094 -0.38057423 0.0022984792
-0.017028185 -0.015774416 -0.01660064 -0.13892914 -0.87202525 -0.46932998 0.0059397579
-0.0138939 -0.015652096 -0.016771743 0.10922483 -0.82127666 -0.55997735 0.0021059182
-0.010777846 -0.015181547 -0.01628767 0.25566337 -0.78600109 -0.56288409 0.00055150792
-0.0080134161 -0.014183026 -0.016142458 0.34091586 -0.75065678 -0.56594241 0.00036886768
-0.0055947071 -0.013560919 -0.01539692 0.40404671 -0.73008889 -0.55110484 0.00021933258
-0.025840444 -0.011460926 -0.016159002 -0.56389374 -0.78018272 -0.27081147 0.00097452349
-0.023872679 -0.012618149 -0.016670249 -0.50814205 -0.80796522 -0.29830173 0.00068181724
-0.0070135538 -0.012775015 -0.017406233 0.36076221 -0.74056864 -0.56692928 0.00050404604
-0.0046190764 -0.01203097 -0.016654337 0.42257336 -0.71321207 -0.55924976 0.00037092541
-0.0021803556 -0.011201808 -0.015751652 0.47118255 -0.68091697 -0.56065953 0.00044696056
-0.030614967 -0.0074113645 -0.015605353 -0.69166535 -0.6920737 -0.20647757 0.00032595202
-0.028747024 -0.0090243816 -0.016199995 -0.6540966 -0.71689463 -0.2412874 0.0013824502
-0.02727537 -0.01008663 -0.017007969 -0.61511612 -0.74632561 -0.2542249 0.00071787642
-0.0014069956 -0.0096682142 -0.016949689 0.48426488 -0.67304605 -0.5590139 0.0002533384
0.00081897806 -0.0085856244 -0.016035125 0.60342354 -0.58254588 -0.54453671 0.0028629131
-0.032111838 -0.0052207448 -0.017345361 -0.70146149 -0.68052733 -0.21174122 0.0003600397
0.0020326925 -0.0059069283 -0.016581288 0.83901125 -0.28673404 -0.46243241 0.0036815705
0.0029949788 -0.0049800463 -0.014991127 0.8688935 -0.22386897 -0.44148237 0.0058623147
0.0023579523 -0.002988128 -0.016879134 0.90899575 -0.094092511 -0.40604603 0.0030675754
0.0029912274 -0.0028063357 -0.015351318 0.93090123 -0.032316029 -0.3638387 0.0013131684
0.0024351198 0.00017661881 -0.016864 0.94828814 0.033705257 -0.31561619 0.0017885613
0.002992888 0.00017684884 -0.015191917 0.95125252 0.059302595 -0.30265811 0.00098548445
0.002305747 0.0034236251 -0.016256459 0.95861852 0.12503102 -0.25576916 0.00083542324
0.0017174268 0.0063956138 -0.01652093 0.95357043 0.20688522 -0.2188652 0.0011322118
0.00099703576 0.0091925915 -0.016391171 0.94510275 0.29662198 -0.13709913 0.0013695906
5.2368268e-06 0.012072529 -0.016533516 0.94219607 0.31329527 -0.11879663 0.00038426818
-0.00080723222 0.014219831 -0.017038755 0.94221908 0.32054716 -0.097327381 0.00031813781
-0.019086022 -0.016743157 -0.012683012 -0.3862164 -0.85710621 -0.34088981 0.0013446618
-0.016779974 -0.017437324 -0.013164395 -0.25896156 -0.88841558 -0.37902069 0.0042204824
-0.013884868 -0.017813019 -0.013210047 0.024008742 -0.87459153 -0.48426569 0.001719155
-0.010931474 -0.017415008 -0.013123023 0.21066833 -0.83403504 -0.50990617 0.0021574085
-0.0081345793 -0.016909953 -0.012418735 0.32383242 -0.78326118 -0.5306924 0.00035467042
-0.024845783 -0.013485331 -0.012162022 -0.56868601 -0.78458881 -0.24701528 0.00043863038
-0.022655053 -0.014533622 -0.013447986 -0.49349397 -0.82051885 -0.28846571 0.00048534325
-0.020201761 -0.015953066 -0.013360934 -0.4087393 -0.85590142 -0.31680423 0.0017614311
-0.0097704306 -0.016126376 -0.014500849 0.26385573 -0.79014421 -0.55321991 0.00047924614
-0.0076321308 -0.015759423 -0.01376928 0.34061998 -0.76939344 -0.54038113 0.00036388234
-0.0049495334 -0.014802318 -0.013239318 0.4000001 -0.74052805 -0.54001689 0.00029507279
-0.0023706378 -0.01381347 -0.0125723 0.45275691 -0.70793426 -0.54207027 0.00022525896
-0.027836824 -0.011020217 -0.012390785 -0.63972634 -0.73866159 -0.21243626 0.00026210761
-0.025843574 -0.012235556 -0.013780652 -0.58510721 -0.77423972 -0.24125215 0.0010057627
-0.0035197837 -0.012858007 -0.014750056 0.43302587 -0.7092675 -0.55626261 0.00016585118
-0.0015736986 -0.012390772 -0.013745755 0.4655554 -0.70007849 -0.54143173 0.00022038943
0.00067506731 -0.011408214 -0.012900971 0.54534447 -0.63967973 -0.54167265 0.0014863688
-0.029184137 -0.0096476562 -0.012672 -0.66158575 -0.72084379 -0.20661166 0.00088686397
0.0019683661 -0.0094733182 -0.013816615 0.66989392 -0.51170135 -0.53796279 0.0093268305
0.0032359771 -0.0086089838 -0.012820597 0.79098976 -0.3797881 -0.47968343 0.009944438
-0.031266481 -0.0068952627 -0.0140756 -0.6916737 -0.69207114 -0.20645837 0.0003308304
0.0036434494 -0.0059455074 -0.013205571 0.90332705 -0.14820647 -0.4025358 0.0054323697
0.0038328683 -0.0028221579 -0.01311592 0.94220573 0.025449736 -0.33406675 0.00098118768
0.0036507184 -5.0859526e-06 -0.013127543 0.95332617 0.10631264 -0.28260708 0.00082509016
0.0031494806 0.0029021362 -0.013271205 0.9509483 0.17198102 -0.25713781 0.00071375316
0.0023545725 0.0061649992 -0.013779347 0.94761515 0.23991828 -0.21086659 0.00063758658
0.003026071 0.0050966395 -0.012005411 0.94162339 0.27571309 -0.19320367 0.0018857637
0.0014860351 0.0090015931 -0.01345524 0.93447483 0.32842198 -0.1374618 0.00065377046
1.4409423e-05 0.012700382 -0.013641261 0.93681729 0.33418471 -0.10341101 0.00014998906
-0.01399018 -0.019611374 -0.009711938 -0.15202624 -0.90870273 -0.38877687 0.006396444
-0.011249345 -0.01976547 -0.0093626305 0.13982795 -0.87326145 -0.46675751 0.0032000276
-0.021677935 -0.016307715 -0.0098572895 -0.51655418 -0.81812418 -0.25267485 0.00075953529
-0.02001291 -0.017116837 -0.010235932 -0.44106451 -0.85022122 -0.28737766 0.00098572229
-0.016965942 -0.018553833 -0.010155511 -0.30862936 -0.8862654 -0.34537157 0.0030067929
-0.013951238 -0.019002767 -0.011005728 -0.075414859 -0.89799863 -0.43348706 0.0068514738
-0.010720338 -0.018789828 -0.010871674 0.17703566 -0.84715402 -0.50098741 0.002063032
-0.0079336753 -0.018211754 -0.010317435 0.29713571 -0.80715233 -0.51011318 0.0004046672
-0.0050078579 -0.017061515 -0.010103185 0.37737927 -0.76557058 -0.52104372 0.00019686462
-0.0028148056 -0.016515974 -0.0092259273 0.42445815 -0.74151433 -0.51960742 0.00031362646
-0.025271405 -0.013848159 -0.0094680861 -0.59797043 -0.77924591 -0.1876357 0.00031850688
-0.023197114 -0.015091902 -0.010574463 -0.54060334 -0.80853385 -0.2324245 0.0010233336
-0.0037200716 -0.015520124 -0.011334442 0.41084811 -0.73418576 -0.54053235 0.00016410422
-0.0017242548 -0.014946125 -0.010500563 0.43379793 -0.72716749 -0.5320214 0.00014929696
0.00045184512 -0.014063766 -0.0097555928 0.48213387 -0.69896698 -0.52819699 0.00017044615
-0.02655692 -0.012429122 -0.01095469 -0.60680205 -0.76890552 -0.20143396 0.00074578053
0.0016907854 -0.012437847 -0.010659314 0.53135693 -0.66037589 -0.53062552 0.00049658184
0.0037239008 -0.011106268 -0.0099690873 0.65941864 -0.53669333 -0.52642882 0.0043633995
0.0045333505 -0.0085644573 -0.010397756 0.87785721 -0.20972157 -0.4305619 0.0043884153
0.0049685873 -0.0058644805 -0.010089489 0.9236514 -0.034729119 -0.38165689 0.0021395783
0.0048763929 -0.0031184554 -0.010131696 0.94486833 0.068700738 -0.3201625 0.0014544523
0.0044165021 0.00017651264 -0.010309562 0.95093387 0.15312569 -0.26884443 0.00084278232
0.0038680676 0.0031956988 -0.010263376 0.94767207 0.23296118 -0.21828131 0.0014681976
0.002486119 0.0072958423 -0.011267208 0.93513739 0.30920583 -0.17294455 0.0015979337
0.0032287072 0.005666594 -0.010171575 0.9383958 0.29555354 -0.17905699 0.0012882183
0.0019513015 0.0089703603 -0.0096969232 0.9201591 0.37502959 -0.11251642 0.0011833936
0.00084127858 0.011119719 -0.011636101 0.92912823 0.35667944 -0.09747 0.00053942733
-0.016390033 -0.019842412 -0.0071449317 -0.34851989 -0.88130778 -0.31910887 0.0014933291
-0.013931257 -0.020509697 -0.0075801332 -0.20549475 -0.91592783 -0.34474358 0.0038872496
-0.010969772 -0.020874925 -0.007154854 0.039017957 -0.90302128 -0.4278203 0.0032348793
-0.0081102457 -0.020199442 -0.0071612336 0.25777435 -0.83950984 -0.47830492 0.00087022234
-0.0059189014 -0.019911204 -0.0062731802 0.34699452 -0.80047381 -0.48870915 0.00022972662
-0.022063909 -0.016673539 -0.0075715706 -0.55275011 -0.80595994 -0.21188647 0.00052753626
-0.019671375 -0.018285684 -0.007020738 -0.46934128 -0.84809756 -0.24586438 0.0012453418
-0.017644554 -0.01915874 -0.0075823888 -0.38007203 -0.87966251 -0.28590038 0.0017506235
-0.0071370285 -0.019122753 -0.0083720461 0.28263512 -0.81867856 -0.49988282 0.00079328212
-0.0047721793 -0.018608388 -0.0075470693 0.36334267 -0.7870295 -0.49856457 0.00017060731
-0.001900061 -0.017342653 -0.0072686598 0.42817158 -0.74660331 -0.50916845 0.00029941992
0.000203887 -0.016662916 -0.0064399168 0.47010416 -0.72006571 -0.51039934 0.00027176636
-0.025394425 -0.014193546 -0.0073385909 -0.59802747 -0.78114945 -0.17935658 0.00032407808
-0.023741912 -0.015583102 -0.007180579 -0.598566 -0.78175986 -0.17484327 0.00034096971
-0.00079618394 -0.015807528 -0.0085511729 0.44023541 -0.7331056 -0.51840997 0.00022271553
0.0014775582 -0.015050951 -0.0074695218 0.48963907 -0.70535618 -0.51256818 0.00022964478
0.0034488561 -0.014027273 -0.0068544522 0.57445747 -0.63214803 -0.519988 0.003071113
-0.026809635 -0.013108123 -0.0067439303 -0.60743731 -0.77592403 -0.17018193 0.00016734791
0.004544015 -0.012157703 -0.0077169556 0.70931917 -0.4866662 -0.50992376 0.012334422
0.0058520008 -0.011176813 -0.0065371543 0.83147043 -0.32630572 -0.449646 0.0090485187
0.0052665342 -0.009468805 -0.0085645095 0.89221501 -0.19311641 -0.40823802 0.0040567196
0.0061236164 -0.008677762 -0.0068628229 0.91453415 -0.1207325 -0.38607121 0.0042714113
0.0060941167 -0.0057560988 -0.0071143918 0.9395777 0.032946791 -0.34074679 0.0014131824
0.0052678799 -0.0020283209 -0.0084784059 0.94976175 0.11156202 -0.29241514 0.00083205913
0.0058470787 -0.0025899522 -0.0068279672 0.94910997 0.13855822 -0.28282839 0.00029854805
0.0051928358 0.00036117714 -0.0074014291 0.94892031 0.18526137 -0.25539872 0.000955995
