# .PCD v0.7 - Point Cloud Data file format
VERSION 0.7
FIELDS x y z normal_x normal_y normal_z curvature
SIZE 4 4 4 4 4 4 4
TYPE F F F F F F F
COUNT 1 1 1 1 1 1 1
WIDTH 559
HEIGHT 1
VIEWPOINT 0 0 0 1 0 0 0
POINTS 559
DATA ascii
-0.025850751 0.003813873 0.011631756 -0.1249857 0.15341602 -0.98022556 0.0030283991
-0.022948481 0.0038585397 0.011219219 -0.16716158 0.24041308 -0.95616871 0.0030592228
-0.020002231 0.0038542268 0.010795382 -0.16077279 0.30861226 -0.93750238 0.0017626421
-0.017059188 0.0038492763 0.010317525 -0.16247158 0.34980321 -0.92262703 0.001109482
-0.01416888 0.0038923454 0.0097844526 -0.19245207 0.38024536 -0.90464115 0.00052971352
-0.011156881 0.0044586323 0.0094163399 -0.17971972 0.43807602 -0.88078952 0.00061151606
-0.0085642254 0.0050011426 0.0091404766 -0.18606566 0.51386583 -0.83744937 0.00056209078
-0.024749756 0.005624339 0.011992365 -0.10302588 0.28405556 -0.95325661 0.0010449317
-0.02273237 0.0057896865 0.011846943 -0.1054397 0.33959916 -0.9346416 0.0005484515
-0.019961525 0.0061636567 0.011665642 -0.11455167 0.37965825 -0.91800737 0.00044158072
-0.017051991 0.0065648253 0.011450919 -0.11136609 0.43185019 -0.89504355 0.001080204
-0.013928204 0.0068234704 0.011155894 -0.13134867 0.46358198 -0.87626439 0.0010075534
-0.010711702 0.0067288019 0.010594831 -0.13919082 0.50948828 -0.84914517 0.00080966717
-0.0077112699 0.0067647202 0.01005847 -0.16054422 0.53376538 -0.83025306 0.0007898144
-0.0048855334 0.0071476377 0.0097378232 -0.16195957 0.57109278 -0.80474967 0.00099405053
-0.0019760109 0.0075482917 0.0094474172 -0.15279639 0.60846782 -0.77872986 0.0012532924
0.00046180817 0.0079150088 0.0092468858 -0.12169375 0.70194411 -0.70175844 0.00435514
0.02437485 0.0079271039 0.0098663568 0.076265581 0.98268193 -0.16887835 0.0008946578
-0.012441132 0.0085539361 0.011956125 -0.084379539 0.56339389 -0.82186824 0.0011522931
-0.010677272 0.0085495552 0.011746317 -0.11068079 0.57515264 -0.81052399 0.00086562015
-0.0076375697 0.0089182062 0.01154717 -0.11893315 0.62228119 -0.77370596 0.001553436
-0.0048124171 0.0091252588 0.011272486 -0.11398027 0.67671531 -0.72736847 0.0028120135
-0.001780197 0.0092555759 0.010929113 -0.086375386 0.7383877 -0.66882205 0.0041267974
0.00094308832 0.0093053859 0.010581134 -0.039203811 0.7857753 -0.61726826 0.0051798737
0.0039601438 0.0090994611 0.010090286 -0.041167356 0.81590945 -0.57671237 0.0071379598
0.006883123 0.0094015514 0.010559496 0.039366264 0.90744132 -0.41833076 0.0039624716
0.0099669024 0.0093797129 0.010761366 0.042954184 0.92796487 -0.37018383 0.0017961859
0.013311057 0.0091101909 0.01061148 0.070128419 0.95093149 -0.30134907 0.0017475332
0.016310565 0.0088578518 0.010486684 0.084247045 0.97010225 -0.22760482 0.00096972741
0.01913137 0.0085133128 0.010006094 0.085815914 0.9781273 -0.18947998 0.0015315498
0.020933054 0.0085394075 0.011259019 0.09967801 0.9823916 -0.15802251 0.00068373285
-0.076419041 0.02601197 0.011866081 -0.10030341 -0.35516331 -0.92940748 0.028964013
-0.073796764 0.025624163 0.011711199 -0.017048057 -0.22878331 -0.97332817 0.026402825
-0.071307525 0.024960291 0.011918426 0.11218344 -0.05671316 -0.99206775 0.015816798
-0.084972121 0.029018238 0.011256576 -0.1824698 -0.74569076 -0.64081991 0.0024350558
-0.082700633 0.028515527 0.011145739 -0.1262486 -0.71013343 -0.69265568 0.0055682049
-0.079751551 0.028056663 0.01104806 -0.053419419 -0.56788641 -0.82137167 0.022937506
-0.076792449 0.027872249 0.010940869 0.034717035 -0.26575792 -0.96341449 0.026582358
-0.074017696 0.027726328 0.011433908 0.21652441 0.040305629 -0.97544485 0.032257069
-0.072202757 0.027008958 0.01188007 0.094860993 -0.024296103 -0.99519402 0.017547917
-0.087854147 0.031530462 0.0095859319 -0.15032209 -0.77307785 -0.61624163 0.0021370423
-0.085503876 0.030319978 0.0097897891 -0.16841826 -0.75982821 -0.62793022 0.0026998606
-0.083052084 0.029989729 0.0096820453 -0.074732453 -0.72093463 -0.68896174 0.0061252513
-0.079713605 0.030359795 0.0095209461 0.37486351 -0.39347744 -0.83943605 0.05574077
-0.07708203 0.030673698 0.010722122 0.47422862 -0.026098592 -0.88001478 0.028491279
-0.074898198 0.029825479 0.011653583 0.31523123 0.2774384 -0.90755564 0.04676402
-0.07913921 0.033842076 0.010071369 0.67444557 0.20311137 -0.70983732 0.013429059
-0.077806607 0.033043511 0.01118006 0.61633426 0.40664831 -0.67436582 0.021674655
-0.080204986 0.036653787 0.010438859 0.80758613 0.38560495 -0.44622126 0.0038883744
-0.082030721 0.040159632 0.010241145 0.85724586 0.37820122 -0.34941849 0.0021551664
-0.080853023 0.03866154 0.011132866 0.81088543 0.4239333 -0.40341714 0.0022146008
-0.083576493 0.042654544 0.010078177 0.86109078 0.37406006 -0.34438601 0.0015521685
0.0039724326 -0.025043985 0.013398867 -0.39305529 -0.82139468 -0.4133015 0.0016773856
0.0066137435 -0.0257774 0.012839884 -0.33436108 -0.86773962 -0.36773717 0.0029056971
0.0098452438 -0.02666679 0.012993813 -0.32675296 -0.86706227 -0.37607911 0.0022683716
-0.0039769546 -0.022032261 0.014368847 -0.41065043 -0.76704681 -0.49295595 0.0036793104
-0.0017729965 -0.022634124 0.013679843 -0.36184219 -0.7844947 -0.50362498 0.0039120009
0.0009360736 -0.023641028 0.013160432 -0.37001935 -0.82162696 -0.43360674 0.0019319747
0.0030892224 -0.024289265 0.01245518 -0.3909156 -0.81559807 -0.42659667 0.0016133186
-0.0095789386 -0.019094348 0.014564782 -0.39744905 -0.66808408 -0.62904513 0.00096483732
-0.0075865658 -0.019657025 0.013910161 -0.41061214 -0.67012918 -0.61832404 0.00092947629
-0.0050266851 -0.020547407 0.013233889 -0.4063338 -0.71223599 -0.57237464 0.00092025375
-0.0028750813 -0.021160409 0.012453377 -0.38955674 -0.71257472 -0.58350909 0.0031651724
-0.013181915 -0.016508169 0.014343612 -0.41425702 -0.61535078 -0.67062247 0.0011106938
-0.010700811 -0.01723446 0.013488643 -0.41905043 -0.61595458 -0.66708076 0.0014557043
-0.0081197964 -0.018017642 0.01260058 -0.41387132 -0.62051237 -0.6660893 0.00018076497
-0.018726941 -0.013207228 0.014822826 -0.40770715 -0.56049019 -0.72085059 0.0012249789
-0.016392093 -0.013985779 0.014137531 -0.4137848 -0.55897987 -0.71855658 0.00090569892
-0.013793112 -0.014531118 0.013078414 -0.41605073 -0.54201871 -0.73014897 0.00048674422
-0.011673803 -0.015292283 0.012410492 -0.42647663 -0.57933068 -0.69461763 0.00052775722
-0.022406451 -0.010403407 0.01470302 -0.38565212 -0.5396471 -0.74836719 0.00084879057
-0.019910496 -0.011252026 0.014037918 -0.39157718 -0.53001624 -0.75216365 0.00087730348
-0.017293166 -0.01157849 0.012883686 -0.40681326 -0.48096156 -0.77664602 0.0007786341
-0.015188304 -0.01235579 0.01227657 -0.41408831 -0.48341936 -0.77125645 0.00074155856
-0.025558904 -0.0077646095 0.014564686 -0.365199 -0.47104764 -0.80295944 0.0014265039
-0.023045193 -0.0084238909 0.013815645 -0.36971676 -0.4623808 -0.80592406 0.001152603
-0.020344216 -0.0087010926 0.012709679 -0.38188463 -0.41330943 -0.82664353 0.0010036211
-0.018314511 -0.0096183727 0.012245059 -0.40829852 -0.46196118 -0.78732729 0.00070780446
-0.030818995 -0.0037713801 0.014853358 -0.32769719 -0.42607138 -0.84325427 0.0009000671
-0.028773028 -0.0046994169 0.014435744 -0.33863902 -0.39997014 -0.85167336 0.0010804605
-0.026020531 -0.0052341805 0.013560778 -0.34750596 -0.38575003 -0.8546558 0.0007371027
-0.023332834 -0.0055735968 0.012592882 -0.36109084 -0.34595028 -0.86598599 0.00063008384
-0.0212419 -0.0066852272 0.012156785 -0.37391469 -0.36234173 -0.85375428 0.00022218344
-0.034205694 -0.00096986105 0.014794663 -0.28014508 -0.36144659 -0.88931161 0.00017320042
-0.031828284 -0.0018673331 0.014366619 -0.31023467 -0.36921829 -0.87603211 0.00042285197
-0.028951287 -0.0019988441 0.013420276 -0.30970946 -0.31078073 -0.89860749 0.00070341176
-0.026202206 -0.002243228 0.012519471 -0.33306116 -0.29407647 -0.89587343 0.00066596846
-0.024167012 -0.003166989 0.012049168 -0.31971237 -0.26211718 -0.91053754 0.0012859799
-0.037359454 0.0016668999 0.014705159 -0.2690407 -0.35607219 -0.89489096 0.00087924127
-0.034848113 0.00099312642 0.014234887 -0.27339625 -0.33508876 -0.90164852 0.00042634786
-0.031887259 0.0009406996 0.013372896 -0.2564337 -0.27923208 -0.92534924 0.0024138589
-0.028992452 0.00086106546 0.012540045 -0.27296486 -0.20633161 -0.93963683 0.0017540468
-0.026906103 -4.0809682e-05 0.012106816 -0.27001819 -0.16958807 -0.94780272 0.0040616528
-0.04291717 0.0050764754 0.014927402 -0.21267082 -0.35759452 -0.90933889 0.00029978185
-0.040586036 0.0044039856 0.014602367 -0.22133528 -0.32868102 -0.91813916 0.0011562236
-0.037828438 0.0038873716 0.014079718 -0.20692548 -0.27001911 -0.94035709 0.0021662286
-0.03482211 0.0038795318 0.013319425 -0.19734161 -0.20995945 -0.95758724 0.0053098761
-0.031832885 0.003872822 0.012654588 -0.20077406 -0.085183188 -0.975927 0.0072485073
-0.029175416 0.0040226523 0.012201774 -0.13458635 0.076543517 -0.98794115 0.0062957671
-0.027096782 0.0050388277 0.012034684 -0.14107956 0.14723709 -0.97898817 0.0026818102
-0.048524562 0.0080265244 0.01495862 -0.16994952 -0.35484162 -0.91935009 0.00038316255
-0.046464175 0.0075934823 0.014748335 -0.15947129 -0.34396148 -0.9253428 0.0012437728
-0.043672644 0.0069393832 0.014408449 -0.19172285 -0.31018132 -0.93114442 0.00087585446
-0.040749587 0.0068273172 0.013840951 -0.13735504 -0.19677801 -0.97077906 0.0058933613
-0.037761763 0.0068189497 0.013328806 -0.12171873 -0.11534237 -0.98584008 0.0083872322
-0.034797061 0.0068140146 0.013017081 -0.10950483 0.038468335 -0.99324161 0.0058881994
-0.031847518 0.0068113529 0.012851534 -0.10564227 0.14938553 -0.98311937 0.0042197807
-0.028899789 0.006808511 0.012680234 -0.075934738 0.22331899 -0.97178316 0.0023861018
-0.026001323 0.0068540853 0.012480323 -0.082868181 0.29798013 -0.95096827 0.0015372672
-0.023111399 0.0071944841 0.012386175 -0.067382015 0.35132211 -0.9338268 0.00056961784
-0.020182375 0.0076012393 0.012284577 -0.082696885 0.39034238 -0.91694832 0.00061934895
-0.01743203 0.0079722134 0.012176409 -0.08371488 0.45487133 -0.88661373 0.0012912704
-0.05529771 0.010826438 0.014871411 -0.13831884 -0.41679052 -0.89841729 0.00071029487
-0.052660991 0.010340131 0.014690915 -0.11245861 -0.35640067 -0.92754066 0.0015282511
-0.049643155 0.0099306069 0.014422879 -0.11352339 -0.26392117 -0.95784032 0.0029213848
-0.046657693 0.0097748032 0.014058035 -0.10351848 -0.17360604 -0.97935939 0.0060547548
-0.043680388 0.009767402 0.013729094 -0.070639238 -0.1011055 -0.9923647 0.0096246535
-0.04072725 0.0097648688 0.013608918 -0.054682687 0.089475244 -0.99448675 0.0074426839
-0.037783563 0.0097642522 0.013577513 -0.03411537 0.17475829 -0.98402011 0.0040685292
-0.034843519 0.0097645167 0.01358485 -0.018620782 0.23384762 -0.97209489 0.0014747307
-0.031901367 0.0097641181 0.013565699 -0.0096126636 0.28398699 -0.95877993 0.00097172486
-0.028958216 0.0097632995 0.013528222 -0.014703531 0.3235943 -0.94608164 0.0010181952
-0.026015542 0.009762519 0.013490735 -0.021768698 0.36655405 -0.93014205 0.0010849343
-0.023071524 0.0097609544 0.01342041 -0.033525568 0.39237979 -0.91919208 0.00088702032
-0.020125218 0.0097578578 0.013284314 -0.043077569 0.43934229 -0.89728624 0.0010154601
-0.016935542 0.009794225 0.013103664 -0.041816432 0.50700498 -0.86092824 0.0014582418
-0.013762609 0.0097483397 0.012868658 -0.066280194 0.54862726 -0.83343571 0.001060467
-0.010706717 0.010039451 0.0127762 -0.063031696 0.60007465 -0.79745692 0.0016552142
-0.007854946 0.010374605 0.012774142 -0.064801134 0.65274817 -0.75479847 0.0029174127
-0.0048344443 0.010623806 0.012688786 -0.047877036 0.78498083 -0.61766726 0.0039424701
-0.0021191486 0.01069698 0.01267774 -0.017042831 0.83140159 -0.55541056 0.0031501229
0.0012864588 0.010752409 0.012796048 0.013257673 0.87785697 -0.47873929 0.0026035968
0.0039714384 0.010629337 0.012896705 0.069214948 0.90701121 -0.41537929 0.0025586239
0.006692159 0.010569219 0.013421565 0.11919519 0.94588858 -0.30180657 0.00091202615
0.010147763 0.01025287 0.01351645 0.089360319 0.95224071 -0.29198018 0.0014081089
0.01308244 0.0098552741 0.013279513 0.11814094 0.96615744 -0.22930875 0.0011784966
0.01632108 0.0094703278 0.013563052 0.10679428 0.97516567 -0.19402799 0.00071095035
0.018388331 0.0091788387 0.013713166 0.11414929 0.97722155 -0.17890757 0.00085418741
0.021609437 0.008583664 0.013383716 0.10811955 0.98100591 -0.16105157 0.00051319494
-0.064144768 0.013922936 0.014869884 -0.21909954 -0.47128388 -0.85433424 0.0019155705
-0.061917644 0.01341776 0.014681172 -0.14551482 -0.42098126 -0.89532125 0.0014798265
-0.05896084 0.012996431 0.014481073 -0.10603228 -0.36212686 -0.9260785 0.0013158058
-0.056101259 0.012723841 0.014240015 -0.073914237 -0.29216051 -0.95350873 0.0032824511
-0.053114068 0.012713658 0.013895709 -0.021672657 -0.24509612 -0.96925646 0.0074751116
-0.050028574 0.012776322 0.013793005 -0.0050573619 -0.10446474 -0.99451572 0.0092221908
-0.046821095 0.012649084 0.013822481 -0.01211761 -0.014843941 -0.99981636 0.011270336
-0.0437086 0.012717854 0.01400895 0.0239603 0.16246901 -0.98642272 0.0036763402
-0.040781163 0.012722942 0.014177267 0.031810217 0.22277482 -0.97435075 0.0013633248
-0.037848357 0.012726992 0.014310077 0.033980545 0.2676895 -0.96290582 0.00080139277
-0.034914475 0.012731256 0.014450863 0.032111965 0.30663496 -0.95128536 0.00074469513
-0.032048255 0.012630049 0.01449272 0.019113224 0.35433859 -0.93492186 0.00083324342
-0.029027555 0.012439011 0.014534719 0.024935467 0.40683007 -0.91316348 0.0020031007
-0.026079029 0.012143368 0.014507938 0.027320754 0.45200735 -0.89159572 0.0019366818
-0.023135282 0.012144894 0.0145605 0.014894127 0.50340992 -0.86391932 0.0020945196
-0.020068262 0.01202573 0.014514679 -0.00067734916 0.54859096 -0.83609056 0.0018635334
-0.016645528 0.01184589 0.014410952 -0.0075172707 0.60142899 -0.79889095 0.0020638511
-0.013698124 0.011844805 0.014371891 -0.0075442973 0.66452545 -0.74722755 0.0032051252
-0.010749658 0.011842306 0.014281252 -0.00023526639 0.69013321 -0.72368228 0.0046541719
-0.0078046555 0.011842737 0.01429446 0.0059052547 0.76222038 -0.64729071 0.004574188
-0.0049911146 0.011811408 0.014342057 0.0128734 0.81364149 -0.58122432 0.0032935757
-0.0019118441 0.011541479 0.014057457 0.042761628 0.86338133 -0.50273657 0.0027541497
0.0010312652 0.011551141 0.01441114 0.069215178 0.89548647 -0.43967414 0.0020892522
0.002799225 0.011563807 0.01487413 0.10030486 0.94683754 -0.3056756 0.0012368532
-0.069746301 0.016871601 0.014859438 -0.28975159 -0.4965294 -0.8182314 0.0013990966
-0.067729376 0.016272509 0.014619503 -0.22596319 -0.45216975 -0.86283433 0.0020596413
-0.064883955 0.015717097 0.014218623 -0.19269897 -0.41058901 -0.89122599 0.00072603789
-0.061930474 0.015653279 0.013812385 -0.071273327 -0.31285742 -0.94712216 0.0032942388
-0.058948193 0.015642606 0.01351648 -0.021076316 -0.23348887 -0.97213101 0.006884078
-0.055999629 0.015640667 0.013453543 0.03603797 -0.12439647 -0.99157798 0.0094758952
-0.053085316 0.015648555 0.013663061 0.056691222 0.068259284 -0.9960556 0.0077966214
-0.049891215 0.015661746 0.014021808 0.081411712 0.14867146 -0.98552972 0.0035885647
-0.046693068 0.015675206 0.014389006 0.12897778 0.24864569 -0.95996875 0.0010068638
-0.04385595 0.015524568 0.014668372 0.089714445 0.26002395 -0.96142536 0.0010692579
-0.040983599 0.014951253 0.014756136 0.077340797 0.31565297 -0.94571751 0.0013241775
-0.038153142 0.01468224 0.014897075 0.075294606 0.37322265 -0.92468131 0.0018698319
-0.036138106 0.014516591 0.014983088 0.085392535 0.4210211 -0.90302235 0.0014163003
-0.073055573 0.019418368 0.014661049 -0.35997176 -0.48876172 -0.79469007 0.0020977105
-0.070682324 0.018744953 0.014178077 -0.28739476 -0.45981687 -0.84022176 0.00090531987
-0.067772955 0.018583685 0.013540944 -0.1316826 -0.35884386 -0.92406213 0.0045545776
-0.064763226 0.018563824 0.013074832 -0.059810366 -0.2806541 -0.95794362 0.0085115274
-0.061814237 0.018560719 0.012994606 0.024253365 -0.16190048 -0.98650897 0.010695171
-0.058906782 0.018570416 0.013212916 0.110893 0.083578572 -0.9903118 0.012076939
-0.056026533 0.018589919 0.013663746 0.13498974 0.15806662 -0.97815782 0.0050770701
-0.052959636 0.018675495 0.014184738 0.14209595 0.21561731 -0.96608382 0.0018686198
-0.049944289 0.018373648 0.014593754 0.14399448 0.26189041 -0.95429498 0.0014509248
-0.047231801 0.017656669 0.014825845 0.13852705 0.32812703 -0.93442118 0.0019133611
-0.076321654 0.02221157 0.014435284 -0.39640975 -0.51227051 -0.76186496 0.0015956018
-0.073806457 0.021726182 0.01367146 -0.32046837 -0.47457775 -0.8198024 0.0018043072
-0.070935473 0.021790233 0.012785858 -0.11513813 -0.30414876 -0.94564086 0.010398951
-0.067801155 0.021829717 0.012388565 0.02461868 -0.16537987 -0.98592269 0.01643247
-0.064696535 0.021773314 0.012628221 0.13169567 0.083069794 -0.98780346 0.018654019
-0.061831053 0.021503938 0.013114739 0.17008278 0.14788152 -0.9742704 0.00607268
-0.058973148 0.021533264 0.013704203 0.18599068 0.23951283 -0.95291197 0.003570128
-0.05602685 0.021543626 0.014370922 0.21622926 0.31100297 -0.92548478 0.0012705858
-0.053215411 0.020797379 0.014726929 0.18491928 0.35884207 -0.91489732 0.0025176769
-0.081824668 0.025683274 0.014263561 -0.26895308 -0.68488705 -0.67719567 0.0013401246
-0.079810441 0.025116762 0.013737218 -0.30357331 -0.64302266 -0.70311099 0.0027255481
-0.077107899 0.024542674 0.013118351 -0.26376683 -0.56852776 -0.77923244 0.0040339567
-0.074287936 0.024179842 0.012479321 -0.11072277 -0.40070179 -0.90949363 0.011446342
-0.070774101 0.024971014 0.012103279 0.085337944 -0.056257106 -0.9947626 0.014016017
-0.067912474 0.024997069 0.012553018 0.17726102 0.1727843 -0.96887773 0.013903031
-0.064805865 0.025043858 0.01336587 0.20398194 0.30181265 -0.93128973 0.0044616736
-0.061940242 0.02448507 0.013885144 0.22696932 0.34234357 -0.91174877 0.0021265799
-0.059308778 0.024191255 0.014489418 0.23985876 0.37974203 -0.89345604 0.0024223081
-0.057160661 0.023554757 0.01483503 0.24500966 0.43343538 -0.86723936 0.0019912727
-0.08456789 0.028494246 0.012195438 -0.21031514 -0.74409848 -0.63410169 0.0012030515
-0.082760043 0.027186917 0.012870753 -0.22233252 -0.7129488 -0.66503561 0.0017744484
-0.080197662 0.026744291 0.012343399 -0.21235944 -0.66967988 -0.71164054 0.0047996156
-0.073029973 0.028882531 0.012155573 0.34244537 0.27823135 -0.89739537 0.01191956
-0.070829727 0.028054886 0.01278607 0.33640715 0.29537812 -0.89419347 0.010090111
-0.067877516 0.027964899 0.013783956 0.24881256 0.42563814 -0.87001401 0.0039659636
-0.065145411 0.027570881 0.014412155 0.2518144 0.46182919 -0.85047245 0.0017328195
-0.062387351 0.026628122 0.014726248 0.26851118 0.48719138 -0.83099121 0.0014656999
-0.075776041 0.031720474 0.012213647 0.47122845 0.37730789 -0.79723436 0.018010903
-0.073777184 0.031060122 0.01307209 0.44713485 0.45763963 -0.7685287 0.0030566712
-0.071136497 0.030551601 0.014140392 0.3596935 0.55779117 -0.74799043 0.0028875205
-0.068696544 0.029987102 0.014747597 0.2899909 0.5874517 -0.75551695 0.0019332109
-0.076608643 0.034053423 0.013310781 0.61757511 0.57372063 -0.53800154 0.0031112479
-0.07443592 0.033082709 0.014306366 0.4321596 0.6244899 -0.65057701 0.0059216032
-0.079059392 0.037114754 0.013282232 0.72931212 0.51933461 -0.44541591 0.0060256012
-0.077855371 0.036098879 0.014025901 0.67985928 0.57033163 -0.4609915 0.0062646824
-0.080401689 0.039160311 0.013464317 0.79695404 0.44737372 -0.4058584 0.0031166291
0.0022094052 -0.025030985 0.015360475 -0.36839569 -0.83394653 -0.41087452 0.0016487787
-0.0072778389 -0.022167563 0.017256251 -0.37702954 -0.80661917 -0.45520797 0.0019779345
-0.004889844 -0.02265171 0.016217712 -0.37577406 -0.81328374 -0.44425616 0.0017899511
-0.0022840309 -0.023643401 0.0159437 -0.35986632 -0.82678366 -0.43234828 0.0019379579
0.00013811863 -0.024486534 0.016243875 -0.36005938 -0.8357361 -0.41461116 0.0013752495
-0.013062286 -0.019355893 0.017369226 -0.39943713 -0.72757238 -0.55775303 0.0011456229
-0.010693223 -0.019920116 0.016431389 -0.39864129 -0.72982311 -0.55537677 0.0013187391
-0.0081156557 -0.021095376 0.016168831 -0.39110705 -0.77424657 -0.49757159 0.0010805033
-0.0060535632 -0.02147983 0.015175402 -0.38568014 -0.78769785 -0.48039865 0.0025109991
-0.018857557 -0.016251646 0.017648786 -0.39975417 -0.65200603 -0.64427072 0.00071017572
-0.01651023 -0.016896253 0.016839534 -0.40892369 -0.6753453 -0.61375087 0.0016680382
-0.014004438 -0.017767347 0.016146155 -0.41139328 -0.69334114 -0.59163636 0.00089145591
-0.011668006 -0.018538073 0.015413344 -0.40518636 -0.68756592 -0.60255879 0.0029299804
-0.022343986 -0.013692212 0.017369006 -0.405727 -0.62127894 -0.67037165 0.00075169088
-0.019692551 -0.014437752 0.016495781 -0.41369244 -0.61473614 -0.67153412 0.0010892329
-0.017215949 -0.015225193 0.015685037 -0.39974353 -0.63612753 -0.65995973 0.00061964226
-0.027911078 -0.010466897 0.017703973 -0.37665227 -0.60077685 -0.70512426 0.00036788016
-0.025468241 -0.011210764 0.017001657 -0.38638076 -0.59715134 -0.70293683 0.00039076657
-0.022937153 -0.011715675 0.01601848 -0.39296547 -0.5607686 -0.72877747 0.00052189262
-0.020617407 -0.012432671 0.01527966 -0.39798257 -0.58695918 -0.70504528 0.00038663598
-0.034008376 -0.0067597628 0.017881095 -0.35575351 -0.56100774 -0.74746895 0.00084721314
-0.031670857 -0.0075435429 0.017317982 -0.35680959 -0.55120361 -0.75422907 0.0007059183
-0.028996356 -0.0082979873 0.016581744 -0.3729645 -0.52417648 -0.76559544 0.0012509052
-0.026387602 -0.0088582858 0.015659783 -0.38454029 -0.49793947 -0.77729338 0.0013079044
-0.024350211 -0.009675608 0.015176624 -0.39475784 -0.54394728 -0.74046445 0.00044027172
-0.037649136 -0.0039873873 0.017642647 -0.32474285 -0.5269776 -0.78538948 0.00087410567
-0.034984387 -0.0047738119 0.017017987 -0.33075112 -0.50103897 -0.7997272 0.00074290909
-0.032132611 -0.005011132 0.015968341 -0.34563559 -0.44885063 -0.82405645 0.00066335109
-0.029411815 -0.0060707713 0.015346037 -0.35964149 -0.42501548 -0.83067435 0.00096090278
-0.043207247 -0.00082241779 0.017840192 -0.29160285 -0.52004957 -0.80281764 0.0013527944
-0.040847648 -0.0014948768 0.017369436 -0.2991167 -0.48566967 -0.82137334 0.0010217491
-0.038056687 -0.002007558 0.016656661 -0.30958089 -0.46035901 -0.83200318 0.00055812049
-0.035157561 -0.0022016601 0.015694462 -0.31773719 -0.41348922 -0.85327005 0.00044288195
-0.033016868 -0.0029872111 0.015307397 -0.30253908 -0.39048475 -0.86947787 0.00089598336
-0.048858393 0.002146631 0.017940611 -0.27842486 -0.52200782 -0.80621797 0.0012169331
-0.046764612 0.0017124169 0.017543549 -0.24953724 -0.49763671 -0.83071589 0.00109719
-0.04397222 0.0010043302 0.017087014 -0.26648784 -0.449909 -0.85238844 0.00065931428
-0.040973227 0.00095145032 0.016192488 -0.2763626 -0.40930876 -0.86953437 0.00032681346
-0.03824693 0.00054304174 0.015473418 -0.28686374 -0.38602734 -0.87675089 0.00049590354
-0.036148261 -0.00023229455 0.015103102 -0.27945507 -0.35333046 -0.89278358 0.00082807965
-0.055087402 0.0051150694 0.017892286 -0.2546927 -0.56535697 -0.78454012 0.0016398234
-0.052818894 0.0046653734 0.017543094 -0.22447452 -0.51724559 -0.82587421 0.0013402364
-0.049878161 0.0040221894 0.017147964 -0.22783628 -0.46637067 -0.85474503 0.00073174667
-0.046913464 0.003911505 0.016423536 -0.21755354 -0.43735889 -0.87257528 0.00069247093
-0.043960009 0.0038016215 0.015722053 -0.23256098 -0.40303075 -0.88514495 0.00045054819
-0.041239586 0.0031327396 0.015271336 -0.25930223 -0.35957393 -0.89636433 0.00062352425
-0.060998853 0.0080801463 0.017704487 -0.27889663 -0.60398203 -0.7466073 0.0021916188
-0.05866896 0.0074807429 0.017399084 -0.23408516 -0.55769497 -0.79635447 0.0019081987
-0.055812445 0.0069293706 0.016979527 -0.22211944 -0.49672511 -0.83900368 0.0011023423
-0.052818649 0.0068687955 0.016315214 -0.18937393 -0.44626576 -0.87463385 0.00043868477
-0.049841508 0.0068097152 0.015723526 -0.18403724 -0.42124423 -0.88807863 0.00056959264
-0.047010221 0.0062629739 0.015369458 -0.2058927 -0.37376553 -0.90438241 0.00072414766
-0.044705775 0.0056689829 0.015110478 -0.21268718 -0.35759678 -0.90933424 0.00029801214
-0.066945136 0.011049598 0.017778248 -0.37940308 -0.62527162 -0.68197417 0.0022956091
-0.0645511 0.010363122 0.017238397 -0.30969992 -0.59645849 -0.74048853 0.0020275374
-0.061691616 0.0098842792 0.016648749 -0.23759589 -0.53635967 -0.80985588 0.0013859386
-0.058689546 0.0098191835 0.015971825 -0.18213606 -0.48101145 -0.85758644 0.00072544412
-0.055797543 0.0095438892 0.015550926 -0.1696039 -0.44394064 -0.87985867 0.00076591806
-0.052933499 0.0089780157 0.015314942 -0.16411531 -0.4004381 -0.90150738 0.00078531122
-0.05060355 0.0086190021 0.015080467 -0.15944499 -0.37247226 -0.91424382 0.00043160067
0.0078164944 0.010981767 0.015173599 0.12344797 0.95140165 -0.28212669 0.0014170439
0.0096124774 0.011020779 0.016671553 0.13236961 0.96085292 -0.24339235 0.00060131511
0.012551437 0.010405838 0.015750453 0.13068318 0.96462852 -0.22894049 0.00075701787
0.015812259 0.0098232916 0.016109824 0.13929221 0.97124952 -0.19305936 0.00033629875
-0.070221081 0.013633764 0.017380297 -0.42026338 -0.58111799 -0.69690788 0.0018523742
-0.067702986 0.012826363 0.016730376 -0.3428717 -0.55692273 -0.75648934 0.0016697333
-0.065000772 0.012686417 0.015814248 -0.25531417 -0.50999188 -0.82141525 0.0010286839
-0.062213089 0.012061913 0.01542617 -0.19165313 -0.46257243 -0.86561871 0.0015257857
-0.059640929 0.011689245 0.015146267 -0.14965597 -0.41037187 -0.89955437 0.0011582668
-0.031127747 0.013928547 0.015041873 0.058222365 0.43201756 -0.89998388 0.0034222703
-0.029073376 0.01393369 0.015199918 0.070532031 0.44630229 -0.89209837 0.0021383208
-0.026125856 0.01364054 0.015258435 0.065414585 0.49330887 -0.86739105 0.0019696874
-0.022892337 0.013648218 0.015498405 0.050578773 0.53577042 -0.84284741 0.0019477095
-0.019509472 0.013445071 0.01553363 0.040295362 0.58407861 -0.81069624 0.0020583686
-0.016694181 0.013355776 0.015580056 0.043640424 0.63819456 -0.76863724 0.0026194227
-0.013746823 0.01336162 0.015763221 0.05371144 0.76412404 -0.64282924 0.0034689098
-0.01080322 0.013374072 0.016157746 0.080771916 0.81357116 -0.57582808 0.0029613462
-0.0079385825 0.013343413 0.016524041 0.091067187 0.86361533 -0.49585828 0.0026246908
-0.0047864742 0.013008647 0.016520994 0.083669893 0.90252995 -0.42242041 0.0018570495
-0.0019293739 0.01248264 0.016021689 0.10537526 0.91446167 -0.39071202 0.0021571154
0.00077145512 0.012371733 0.016570032 0.12574929 0.93700695 -0.32589141 0.0015668321
0.003899398 0.011855833 0.016261654 0.1388153 0.95412618 -0.26528013 0.00098644942
0.0063563557 0.011617277 0.016830215 0.12865844 0.95845264 -0.25458902 0.00091719074
-0.075571038 0.016989902 0.017888516 -0.50589442 -0.56200391 -0.65438706 0.0027808575
-0.073398702 0.016095322 0.01718335 -0.46134892 -0.58133006 -0.67023325 0.0022533
-0.071018353 0.015765442 0.016128073 -0.37077531 -0.54931056 -0.74885488 0.0022972233
-0.068353049 0.014965288 0.01555245 -0.28548104 -0.48568341 -0.82620353 0.001699637
-0.066248536 0.014521613 0.015131295 -0.25153348 -0.51365936 -0.82029563 0.00086013781
-0.043231942 0.016882027 0.015126398 0.12934241 0.30052593 -0.9449628 0.0013108855
-0.040748566 0.016388193 0.015267937 0.12388576 0.35916775 -0.92501402 0.0019091892
-0.037852351 0.016108241 0.01546751 0.11906578 0.40966973 -0.90443021 0.001747422
-0.034963988 0.015770962 0.015655367 0.08239495 0.44865298 -0.88989973 0.0026870568
-0.032082692 0.015733421 0.015970083 0.10636797 0.50960594 -0.85380763 0.0015511146
-0.029027432 0.015816675 0.016444366 0.10899547 0.58136272 -0.80631101 0.0032585524
-0.0258631 0.015649587 0.016672624 0.09578383 0.63536257 -0.76625049 0.0013906775
-0.02267557 0.015472267 0.016935866 0.097190015 0.66318214 -0.74212092 0.0036072952
-0.019715995 0.015177906 0.016998347 0.098141544 0.69238061 -0.71482682 0.0033887748
-0.016758285 0.014885659 0.017124048 0.10576488 0.74306703 -0.66080648 0.0035636122
-0.014001532 0.014696761 0.017382324 0.11467224 0.78782177 -0.60513395 0.0026698802
-0.011740764 0.014611877 0.017798662 0.11199447 0.81417799 -0.56971174 0.0041501038
-0.078544587 0.019959867 0.017915815 -0.52342683 -0.57823133 -0.6258378 0.0035688775
-0.076606333 0.018969657 0.017008053 -0.54280901 -0.55370855 -0.63147861 0.0020729899
-0.074236721 0.01848549 0.015838958 -0.40059793 -0.51287544 -0.7592628 0.00084783486
-0.071971036 0.017673427 0.01523917 -0.36416098 -0.53878337 -0.7596705 0.001477093
-0.04899076 0.019687202 0.015169293 0.18713506 0.3153685 -0.93033499 0.0018330964
-0.046645429 0.018974774 0.015386296 0.18305048 0.37570515 -0.90848124 0.0018752841
-0.043887429 0.018680919 0.015771881 0.14609371 0.40734681 -0.90151274 0.0023443056
-0.040982764 0.018703811 0.016301289 0.15347706 0.4487974 -0.88035542 0.0013190799
-0.03807465 0.018728334 0.016869256 0.17076911 0.52903211 -0.83124185 0.0024378831
-0.035138555 0.018367086 0.017185837 0.15117462 0.58580524 -0.79622763 0.0022705754
-0.032094862 0.017911807 0.017441301 0.15002398 0.62849593 -0.76320744 0.0023074527
-0.028958414 0.017581541 0.017836474 0.13006254 0.62759387 -0.76759988 0.0017229585
-0.079327554 0.02219139 0.016393874 -0.46061945 -0.60546076 -0.64903545 0.003973987
-0.07732857 0.021130154 0.015813783 -0.46008757 -0.58371115 -0.66902965 0.005548954
-0.054738786 0.022783071 0.015117824 0.28538084 0.41949865 -0.86172998 0.0024687138
-0.052476805 0.022131201 0.01544722 0.22759138 0.40709218 -0.88457799 0.0021978321
-0.049808364 0.021640738 0.015869256 0.21711779 0.43885872 -0.87193054 0.0011439791
-0.046934929 0.021678476 0.016630009 0.22796457 0.50817156 -0.83053827 0.0016423161
-0.044188082 0.021394134 0.017195122 0.21576251 0.53485751 -0.81692964 0.0022503464
-0.041341022 0.02089371 0.017572561 0.19896699 0.58636504 -0.78523129 0.0025545431
-0.039054058 0.020551488 0.017869934 0.1962337 0.62142324 -0.75850213 0.0012434559
-0.08025296 0.023632634 0.015551586 -0.39074138 -0.64305246 -0.65863848 0.0019548419
-0.05825435 0.025335483 0.015372556 0.25617167 0.43957853 -0.86089879 0.0018749584
-0.055664465 0.024643051 0.015823886 0.26923028 0.47102132 -0.84003216 0.0013297907
-0.052873082 0.024647051 0.01677211 0.27578092 0.51378065 -0.81238806 0.0028311973
-0.050160401 0.024195574 0.017323392 0.25790763 0.56542248 -0.78344184 0.0018991968
-0.047524992 0.023629477 0.01769476 0.24419883 0.60364914 -0.75892985 0.0019382891
-0.064349078 0.028546039 0.015258163 0.2690067 0.55525953 -0.78697038 0.0037470446
-0.061708536 0.027990056 0.015793098 0.27993131 0.52372038 -0.80458391 0.0012878785
-0.058880806 0.027498301 0.016522586 0.30338877 0.53642213 -0.78753197 0.001132073
-0.056106202 0.027044199 0.017239932 0.30010173 0.60360599 -0.73864651 0.0018964041
-0.053873379 0.026477188 0.017677858 0.27800009 0.57329136 -0.77074826 0.0019206547
-0.070606031 0.03174784 0.015316451 0.35654721 0.59086281 -0.72370934 0.0035656134
-0.06778381 0.031038366 0.015949303 0.30126324 0.61776811 -0.72636282 0.0015057772
-0.064957969 0.030335989 0.016467396 0.28880045 0.65212065 -0.7009514 0.0021552297
-0.061959889 0.029917354 0.017237868 0.28993902 0.63034266 -0.72014135 0.0016710346
-0.059806723 0.029443875 0.017667949 0.30555326 0.65914083 -0.68714672 0.00083903404
-0.075770453 0.035213731 0.015593618 0.60097075 0.63895315 -0.48018017 0.0027538468
-0.073673949 0.034241006 0.016251203 0.44225293 0.7262879 -0.52623022 0.0026858279
-0.070849568 0.033182032 0.016764615 0.33676657 0.7362718 -0.58693451 0.0051847626
-0.068031363 0.032561306 0.017401861 0.28632635 0.71983379 -0.63234216 0.0015429112
-0.07876081 0.038185127 0.015798748 0.69529438 0.58236623 -0.42120683 0.0058934409
-0.076703601 0.036445733 0.016209513 0.60109389 0.6387862 -0.48024818 0.0027019212
-0.074287087 0.03535055 0.01731672 0.44487876 0.74086672 -0.50318915 0.0034276214
-0.0081062848 -0.022443289 0.018912176 -0.37481442 -0.79583019 -0.4755716 0.0022832125
-0.0049224813 -0.023406714 0.01833415 -0.34878403 -0.85016239 -0.39442825 0.0007037847
-0.016526595 -0.019319359 0.020139897 -0.3880761 -0.79458159 -0.46694431 0.0021140422
-0.013926075 -0.020098858 0.019315796 -0.39518219 -0.78674275 -0.47420123 0.0020610541
-0.011050853 -0.021222772 0.018856052 -0.40661877 -0.78683656 -0.46427286 0.0016509835
-0.022662792 -0.016242944 0.020331537 -0.40409032 -0.72110182 -0.56278163 0.00099541724
-0.019745748 -0.017118981 0.019371334 -0.39947426 -0.72922528 -0.55556351 0.0019871935
-0.017095465 -0.018210106 0.018857582 -0.40890628 -0.73707986 -0.53806037 0.0019399985
-0.028330933 -0.012958888 0.020290935 -0.39294404 -0.67723703 -0.62204903 0.00066096004
-0.025624342 -0.01405044 0.019744013 -0.40427175 -0.68092209 -0.61066312 0.0013393858
-0.022923488 -0.014922764 0.018950431 -0.40456688 -0.6782192 -0.61346912 0.0020598834
-0.020667538 -0.015677482 0.018241093 -0.40790397 -0.67278057 -0.61723638 0.0022118359
-0.034073796 -0.0099305781 0.020583093 -0.3895151 -0.64141876 -0.66095376 0.00093343481
-0.031545676 -0.010628419 0.019818895 -0.38678673 -0.645908 -0.65817851 0.0011205539
-0.028987311 -0.011326945 0.019019458 -0.39106303 -0.6390183 -0.66236341 0.0013773636
-0.026324663 -0.012372001 0.018434929 -0.39390731 -0.64854699 -0.65132463 0.00076223351
-0.039607432 -0.0067962557 0.02068454 -0.3806127 -0.60791981 -0.6968267 0.0012999995
-0.037558191 -0.0073867324 0.02017507 -0.37157422 -0.63943052 -0.67309821 0.00099621969
-0.03473952 -0.0080235936 0.019242205 -0.37414446 -0.58098561 -0.72282201 0.00049821479
-0.032202065 -0.0087750955 0.018529765 -0.37652105 -0.61102223 -0.69633603 0.00057855801
-0.043423597 -0.0041388753 0.020342298 -0.35721317 -0.61681652 -0.7013815 0.0016371673
-0.040682703 -0.0049418537 0.019694207 -0.35696483 -0.58551639 -0.72783697 0.0014150112
-0.037925567 -0.0053717881 0.018735882 -0.35963997 -0.53773957 -0.76255834 0.00050246168
-0.035517987 -0.0061695948 0.018185765 -0.35743383 -0.56572729 -0.74309736 0.00088856486
-0.049233824 -0.0010214973 0.020402914 -0.33535472 -0.63198936 -0.69866067 0.0020428314
-0.046607736 -0.0018669994 0.01994383 -0.33161408 -0.60768658 -0.7216295 0.0011406839
-0.04390315 -0.0021553445 0.018992303 -0.30833143 -0.53921282 -0.78369719 0.00056464423
-0.041323893 -0.0027540629 0.018323425 -0.32360581 -0.50714475 -0.7988013 0.0010715467
-0.055213511 0.0019640499 0.020478776 -0.35047072 -0.65615809 -0.6683014 0.0017976803
-0.052628186 0.0012117869 0.019960579 -0.3382538 -0.61738843 -0.71022242 0.001776298
-0.049992952 0.00093557127 0.019129999 -0.2917324 -0.57317054 -0.76574647 0.0015055465
-0.047275115 0.00041214959 0.018502964 -0.28836069 -0.51686555 -0.80603856 0.0010506692
-0.045323957 -0.00022825634 0.01821366 -0.30447552 -0.53647339 -0.78707755 0.00041423936
-0.060932931 0.0049991272 0.020458274 -0.36785105 -0.67528319 -0.63927948 0.0021762988
-0.05851987 0.0042095911 0.0199921 -0.3446593 -0.65876848 -0.66875553 0.0018962303
-0.056049857 0.0039098845 0.019154675 -0.30336872 -0.60662109 -0.73483211 0.0020741608
-0.053229813 0.003248319 0.018577946 -0.26901197 -0.540721 -0.79702789 0.0013004093
-0.050965134 0.0027423422 0.018183872 -0.25501001 -0.51991403 -0.81526643 0.0008255362
-0.066466391 0.0081353029 0.020528913 -0.42277673 -0.68619561 -0.59194213 0.001159086
-0.064603508 0.0074291038 0.020038791 -0.39945424 -0.69298828 -0.60016966 0.0016289736
-0.062071163 0.0068889447 0.019199764 -0.3151806 -0.65580285 -0.68599111 0.0018402884
-0.059313484 0.0061513293 0.018609481 -0.29138231 -0.62759691 -0.72195464 0.0018044682
-0.057199538 0.0057125688 0.018154025 -0.28051987 -0.60268641 -0.74704593 0.00089951808
-0.070027642 0.010669484 0.020391367 -0.5140416 -0.66843414 -0.53754711 0.0021394859
-0.067911625 0.010039956 0.019414134 -0.41768679 -0.67154109 -0.61202145 0.0020352385
-0.0653634 0.009110909 0.018721199 -0.34455246 -0.6345315 -0.69184774 0.0012055633
-0.063121065 0.0086801937 0.018018782 -0.32189921 -0.60205585 -0.73069125 0.0029463079
-0.073473684 0.013558203 0.019966556 -0.54924285 -0.68030798 -0.48529717 0.0037367709
-0.071134523 0.012551727 0.019100767 -0.47902426 -0.67333078 -0.56317091 0.0028355848
-0.068803564 0.01165682 0.018277094 -0.42573535 -0.62646741 -0.65290731 0.0026991498
-0.0067022024 0.014030277 0.018167734 0.15145214 0.89683735 -0.41562599 0.0035239649
-0.0049318802 0.014056755 0.018981999 0.15910809 0.93088305 -0.3288486 0.0015067604
-0.0022126781 0.01363481 0.019069089 0.15733817 0.94382006 -0.29060018 0.0010192085
0.0010170952 0.013179358 0.019464046 0.15586324 0.95465982 -0.25363591 0.0012629644
0.0039951438 0.012581519 0.019395068 0.13993841 0.9616335 -0.23596227 0.00087587646
0.0071697761 0.011878678 0.019121528 0.1488875 0.9575004 -0.24703342 0.00035227588
-0.076284438 0.016133979 0.019741595 -0.60310835 -0.65206397 -0.45942667 0.0031051608
-0.07446377 0.01530491 0.018759212 -0.49083027 -0.6402539 -0.59089822 0.0032599105
-0.024517495 0.016995519 0.018032432 0.13043407 0.66380072 -0.73644787 0.0018732573
-0.02275759 0.017011454 0.01844039 0.13886042 0.71140295 -0.68892932 0.0027465438
-0.01980491 0.016730176 0.018848771 0.16457851 0.81514251 -0.55538881 0.0024670467
-0.016933031 0.016406832 0.019276494 0.17441678 0.84927434 -0.49830902 0.0022640759
-0.013873617 0.015857199 0.019368069 0.17618096 0.86022151 -0.47851783 0.0027181522
-0.010894623 0.015260184 0.019331884 0.17754228 0.89012372 -0.41971239 0.0013390023
-0.008148239 0.014901033 0.019724935 0.17067248 0.9146263 -0.36651009 0.0010511556
-0.0055531086 0.014703332 0.020500749 0.19706835 0.9401176 -0.27810585 0.0018648647
-0.07872083 0.019410133 0.018911391 -0.54471624 -0.58197606 -0.60381126 0.0017697724
-0.077516451 0.01806771 0.018829025 -0.54957187 -0.57205725 -0.6088689 0.0015082862
-0.036404517 0.019969687 0.018131733 0.15661769 0.62082487 -0.76814544 0.0044864821
-0.034430139 0.019764356 0.018515807 0.1918471 0.68994576 -0.6979754 0.0018310744
-0.031551629 0.019371415 0.01891903 0.18881921 0.72297454 -0.6645714 0.0017105888
-0.028710611 0.019064318 0.019400455 0.19988534 0.71755016 -0.66720879 0.0027902939
-0.025888748 0.018440334 0.019409033 0.1637686 0.78709346 -0.59469628 0.0034420248
-0.022982184 0.01810918 0.019817198 0.19618542 0.80208659 -0.56406415 0.0027124987
-0.020075362 0.017781785 0.020330742 0.19746809 0.83188951 -0.51861936 0.0015275222
-0.079189926 0.020567194 0.018204987 -0.5232172 -0.57826602 -0.62598097 0.0035955899
-0.043475002 0.022784317 0.018401464 0.2501359 0.65180981 -0.71594411 0.0020563665
-0.040707242 0.022317022 0.018930146 0.24754591 0.61828834 -0.74594945 0.0018389343
-0.037803203 0.021736275 0.019361997 0.22143276 0.65961313 -0.71824658 0.0011507373
-0.03492187 0.02128219 0.019875335 0.2343684 0.71204835 -0.66185993 0.0019468948
-0.03207409 0.020839579 0.020375308 0.22203805 0.74019045 -0.63467884 0.0015892485
-0.030064482 0.020693511 0.020900548 0.22579554 0.77989119 -0.58376896 0.0016668055
-0.049645718 0.025640808 0.018603554 0.28247666 0.67703152 -0.67958456 0.0019987824
-0.046808671 0.025055004 0.019222992 0.28176436 0.69647205 -0.65995109 0.001297995
-0.043966383 0.024305694 0.019643785 0.26986155 0.70476019 -0.65611571 0.0025217733
-0.040998042 0.023878563 0.020389438 0.2622585 0.71026474 -0.65325677 0.0015684601
-0.057781551 0.028876066 0.018062174 0.30843535 0.61921471 -0.72210854 0.0021530779
-0.055693999 0.028526584 0.018780334 0.32126486 0.66953987 -0.66970533 0.00070107874
-0.052887481 0.027769944 0.019352591 0.30299264 0.66865945 -0.67903602 0.0015489768
-0.049950186 0.027024392 0.019914303 0.30098018 0.70055079 -0.64702362 0.0015119404
-0.047662809 0.02665215 0.020599872 0.29864365 0.71998316 -0.62644732 0.0010774375
-0.064349525 0.031862881 0.018299052 0.28468415 0.70596218 -0.64851552 0.0016208844
-0.061804619 0.031506002 0.019064035 0.29220417 0.75680035 -0.58469647 0.0010850665
-0.058927048 0.030612394 0.019442782 0.3137055 0.73302335 -0.60354418 0.0026830337
-0.056137178 0.029902659 0.020080531 0.32981068 0.7242474 -0.60554981 0.0013092066
-0.053978909 0.029662728 0.020964652 0.33352855 0.7271902 -0.59996092 0.0013062779
-0.070611715 0.034695975 0.019065874 0.32832468 0.82404423 -0.4616861 0.0024284788
-0.067884989 0.033928111 0.019397834 0.26716495 0.82935989 -0.49069858 0.0012009352
-0.065090075 0.033106461 0.019567568 0.27685693 0.78952909 -0.54771709 0.0018304422
-0.062618449 0.032726046 0.020347547 0.29172334 0.78663206 -0.54415762 0.0010458499
-0.073912583 0.035751935 0.018627435 0.45143715 0.74932659 -0.48447314 0.0037289595
-0.071791805 0.035581674 0.020227393 0.32831594 0.82405269 -0.46167722 0.0024318846
-0.019208651 -0.018945586 0.02200561 -0.37614852 -0.79447502 -0.47678271 0.0015326432
-0.017244961 -0.019678257 0.021614686 -0.38173115 -0.78503686 -0.48785073 0.0024395061
-0.015168332 -0.02059707 0.022104919 -0.39001304 -0.81686521 -0.42499542 0.00078446278
-0.025656346 -0.016155284 0.022669269 -0.40254727 -0.77347642 -0.48958138 0.0011939897
-0.023019716 -0.017224519 0.02222717 -0.40774521 -0.76383525 -0.50029939 0.00072892633
-0.020681404 -0.018027864 0.021500573 -0.40557268 -0.76222599 -0.504502 0.0007470884
-0.031669244 -0.013160166 0.022849819 -0.39906442 -0.74414814 -0.5357154 0.00088055665
-0.028958067 -0.014129319 0.022212807 -0.40652624 -0.74519038 -0.5286091 0.0022725377
-0.026679236 -0.015042209 0.021714032 -0.40624166 -0.75034839 -0.52148342 0.002305977
-0.0375087 -0.010207898 0.023191705 -0.4111307 -0.71491027 -0.56557477 0.00088041852
-0.034969896 -0.011017672 0.022436894 -0.40953556 -0.73474926 -0.54076266 0.00065942411
-0.032518975 -0.011857021 0.021742884 -0.38715744 -0.70941263 -0.58893359 0.0018443842
-0.043339137 -0.0070719901 0.023387169 -0.40766916 -0.70857358 -0.5759595 0.00095148094
-0.040875204 -0.0077541848 0.02252583 -0.38406825 -0.70626378 -0.59471256 0.0016896564
-0.038196109 -0.0087730298 0.02192303 -0.40181428 -0.70840114 -0.58026981 0.00071360922
-0.036052123 -0.0091921249 0.021032512 -0.36293116 -0.64453769 -0.67294288 0.0012745918
-0.049086317 -0.0040285788 0.023556372 -0.39847091 -0.71652764 -0.57254606 0.0011293881
-0.046800848 -0.0045354562 0.022668483 -0.39082688 -0.69308156 -0.60571635 0.0012431266
-0.044115346 -0.0055042068 0.022065448 -0.38288185 -0.6985085 -0.60455543 0.0011799604
-0.04176233 -0.0062066913 0.021352783 -0.39063689 -0.67705828 -0.62369454 0.00092008204
-0.054896761 -0.00082242524 0.023553133 -0.4244121 -0.72462893 -0.542943 0.00062033662
-0.052795935 -0.0014232454 0.022854252 -0.39501131 -0.72289151 -0.56691617 0.0013489027
-0.05002322 -0.0022881289 0.022097925 -0.3615095 -0.66778523 -0.65067172 0.00095576368
-0.047614124 -0.0030667898 0.021526344 -0.35704598 -0.67693686 -0.64364171 0.0014506265
-0.058675598 0.0018448018 0.022828331 -0.41332251 -0.73587519 -0.53633213 0.0012099959
-0.056012526 0.00076359324 0.022307277 -0.4011226 -0.71695697 -0.57015198 0.0016057885
-0.053350117 -2.4545065e-05 0.021529162 -0.36696151 -0.68141061 -0.63326049 0.0014350135
-0.06434156 0.0049434872 0.023184562 -0.46492827 -0.74051279 -0.48526537 0.0011273461
-0.061912756 0.0040110238 0.022404471 -0.42568791 -0.74306244 -0.51637965 0.0012576459
-0.059461597 0.0031118798 0.021730866 -0.39603618 -0.70788372 -0.5848555 0.0025724622
-0.067689434 0.007573646 0.022503175 -0.52116042 -0.72312933 -0.45329434 0.0018184027
-0.065270968 0.006188808 0.022146558 -0.45188105 -0.73813748 -0.50095552 0.0023749429
-0.072880276 0.011191933 0.023245782 -0.58344328 -0.70395964 -0.40501219 0.0014168303
-0.071001135 0.010070962 0.022445465 -0.54274571 -0.71354717 -0.44303218 0.0013704015
-0.068816088 0.0089533813 0.021564484 -0.53404194 -0.7075755 -0.46274847 0.0023041717
-0.075858094 0.014190569 0.023093492 -0.59279382 -0.68333936 -0.42619568 0.0010123651
-0.073822722 0.01253469 0.022192895 -0.58269024 -0.69750351 -0.41708621 0.0010183007
-0.0013829726 0.01414887 0.021812269 0.20039117 0.95423353 -0.22199513 0.00048437956
0.0016092919 0.013580292 0.02278164 0.18967606 0.9570567 -0.21923856 0.00037439511
-0.015727207 0.017114207 0.021071494 0.20423089 0.86656225 -0.45536762 0.0015791022
-0.013769004 0.017054332 0.022091245 0.22026341 0.91388232 -0.34103256 0.0015403167
-0.011066118 0.016478445 0.022321599 0.23353527 0.92893201 -0.28730926 0.0018348764
-0.0079812584 0.015721971 0.022250241 0.21624969 0.93863142 -0.26871368 0.0015182698
-0.0049848743 0.015063569 0.022278361 0.19435389 0.95274192 -0.23347253 0.00058054348
-0.0031956243 0.014792114 0.02312395 0.21229081 0.95208001 -0.220173 0.00040128012
-0.025668677 0.019958299 0.021632036 0.23442475 0.84268492 -0.48469272 0.0015021915
-0.022972357 0.019563461 0.022360491 0.23486054 0.87277007 -0.42791688 0.0021479274
-0.020038683 0.018863568 0.022562439 0.2472425 0.87815088 -0.40953904 0.0014903821
-0.017113861 0.018035535 0.022471134 0.2440872 0.89977235 -0.36170593 0.0015026557
-0.014916484 0.017805889 0.023396343 0.2571173 0.91543317 -0.30963334 0.0012867161
-0.036962081 0.023099162 0.021188527 0.26225361 0.72683007 -0.63477647 0.0015053179
-0.034683675 0.022775354 0.02186434 0.26227018 0.80313027 -0.53497303 0.0019314552
-0.031966429 0.022202251 0.022369348 0.26927915 0.82612014 -0.49498919 0.0017251289
-0.029019658 0.021313511 0.022388661 0.25643286 0.83227032 -0.49149588 0.0017727212
-0.026283525 0.020976929 0.023281813 0.25342953 0.854361 -0.45369688 0.0011559266
-0.043664578 0.025894199 0.021686908 0.30680296 0.76609218 -0.56477851 0.00066326541
-0.040962353 0.025321472 0.022395628 0.3070378 0.79685956 -0.52032924 0.0015967754
-0.038135987 0.024409566 0.022531418 0.27788666 0.80996871 -0.51645881 0.0022749901
-0.035512201 0.023925221 0.023207653 0.28614527 0.82054776 -0.49479514 0.001489018
-0.051941749 0.029095411 0.021432087 0.34126043 0.79291469 -0.50480461 0.0017600417
-0.049783964 0.028632201 0.022096667 0.32534495 0.7900998 -0.51951224 0.0014147533
-0.046953291 0.027657045 0.022347245 0.3108865 0.79970747 -0.51363158 0.0020592373
-0.044244591 0.027020492 0.022988256 0.30751479 0.79423517 -0.52404684 0.0011901866
-0.042317167 0.026856259 0.024008632 0.30835325 0.86795872 -0.38931456 0.0022203713
-0.058370646 0.031982087 0.021635126 0.32630613 0.81759292 -0.47441143 0.001123927
-0.055857792 0.031338122 0.022321757 0.34250212 0.79708892 -0.49733433 0.0021032454
-0.053027473 0.030320941 0.022588665 0.34143269 0.79577059 -0.50017273 0.001802778
-0.050673887 0.029826069 0.023425093 0.33267081 0.82984418 -0.44798303 0.00026951754
-0.067545019 0.035102919 0.021738648 0.26998815 0.8521955 -0.4481844 0.0012439529
-0.064932153 0.034607317 0.022292932 0.28308892 0.85705698 -0.43048099 0.0022118217
-0.061858904 0.033680327 0.022410739 0.28108922 0.85078269 -0.44402447 0.0011087758
-0.059240885 0.033017099 0.022889346 0.32258463 0.84767371 -0.42117512 0.00235541
-0.070526689 0.035695411 0.021659747 0.31004059 0.82277882 -0.47635049 0.0026042098
-0.027943198 -0.016100451 0.025047302 -0.42086211 -0.79235917 -0.44163579 0.0024760868
-0.026094113 -0.016781017 0.024390444 -0.41488093 -0.76822579 -0.48754784 0.0011674248
-0.034527816 -0.013241073 0.025507258 -0.40202776 -0.81892091 -0.40956336 0.0025842388
-0.031930812 -0.014238155 0.024943806 -0.40818349 -0.804456 -0.43155175 0.0020623147
-0.029704362 -0.015073325 0.02434366 -0.42085895 -0.79235601 -0.44164413 0.0024751436
-0.040447481 -0.010259899 0.025755711 -0.42293641 -0.77703804 -0.4661938 0.00078450289
-0.037908871 -0.011320532 0.025222575 -0.4165324 -0.79016948 -0.44959208 0.0031767969
-0.035734855 -0.012065203 0.024453253 -0.42876503 -0.77485436 -0.46450114 0.0033956042
-0.046242353 -0.0072695911 0.026065698 -0.42630008 -0.77046722 -0.47397092 0.00066415389
-0.043983836 -0.0081124026 0.025411185 -0.42923844 -0.75975347 -0.48839441 0.0011243123
-0.041536819 -0.0090173017 0.024662232 -0.42062992 -0.7642107 -0.48892996 0.0008556617
-0.052023735 -0.0039949347 0.025971487 -0.44014022 -0.7747227 -0.45396179 0.00076205179
-0.049852751 -0.0049568149 0.025580121 -0.41689098 -0.78073972 -0.46545407 0.00077522243
-0.047305442 -0.0059032822 0.024834659 -0.42340606 -0.74726045 -0.51218086 0.0014351375
-0.057620045 -0.00082239544 0.026027113 -0.45843133 -0.76969385 -0.44431087 0.0012593607
-0.055731457 -0.0015362126 0.025420327 -0.44057456 -0.7711482 -0.4595916 0.001233275
-0.053219225 -0.002858995 0.025229637 -0.43030468 -0.76507562 -0.47905859 0.0015531704
-0.051363192 -0.0032301699 0.024184465 -0.3999007 -0.7619409 -0.50943655 0.00151952
