# .PCD v0.7 - Point Cloud Data file format
VERSION 0.7
FIELDS x y z normal_x normal_y normal_z curvature
SIZE 4 4 4 4 4 4 4
TYPE F F F F F F F
COUNT 1 1 1 1 1 1 1
WIDTH 546
HEIGHT 1
VIEWPOINT 0 0 0 1 0 0 0
POINTS 546
DATA ascii
0.021193448 0.020197259 -0.034401037 -0.46231568 0.45498899 -0.7610842 0.0014956978
0.02322023 0.021033071 -0.035053384 -0.42913529 0.48828441 -0.75988233 0.0016695102
0.025925543 0.021558424 -0.036095753 -0.39496759 0.48571026 -0.77979875 0.00086216372
0.028397914 0.022350794 -0.036716893 -0.35720053 0.58132041 -0.73107749 0.00064777158
0.024322592 0.022804977 -0.034388579 -0.39155036 0.5526731 -0.73569065 0.0010152718
0.026470955 0.023652613 -0.034758776 -0.3614583 0.62922186 -0.68806094 0.001693805
0.029264487 0.024224179 -0.035588909 -0.32331279 0.66391104 -0.6743077 0.0034401945
0.032015245 0.024710536 -0.036398858 -0.29856789 0.71736246 -0.62948257 0.0059364541
0.035368793 0.025567049 -0.036884259 -0.2518501 0.78294814 -0.56882668 0.0068155332
0.057873979 0.025781648 -0.03676907 0.17399715 0.95731539 -0.23080772 0.00029374333
0.030590769 0.02594305 -0.034238406 -0.26292706 0.7711702 -0.57979822 0.0020709583
0.032471441 0.025972208 -0.0349494 -0.22797681 0.80905491 -0.54171658 0.0043384014
0.03506187 0.026394535 -0.035324775 -0.1690203 0.85720664 -0.48644513 0.0029829217
0.038100313 0.026677644 -0.035887934 -0.18353303 0.8695296 -0.45851281 0.0026352764
0.041159205 0.027165117 -0.035469249 -0.099473178 0.92375284 -0.36984548 0.0030885313
0.043979343 0.027226338 -0.035846353 -0.046625532 0.94834995 -0.31378081 0.0011322404
0.047092561 0.027396856 -0.035878927 -0.00056067924 0.95711875 -0.2896952 0.0023283262
0.049752705 0.027431358 -0.035369217 0.053135 0.96530634 -0.25565666 0.00094158354
0.053039804 0.02686326 -0.036091685 0.13821462 0.96329105 -0.23014551 0.00060949463
0.055937562 0.026364522 -0.035777189 0.15330592 0.96406209 -0.21698289 0.00030209144
0.032355107 -0.0018909494 -0.031677961 -0.22809611 -0.79292083 -0.56502104 0.0040473365
0.035327341 -0.0021311366 -0.032526352 -0.18536352 -0.86098224 -0.47365603 0.0070717419
0.038064204 -0.0024518073 -0.032862134 -0.14217086 -0.91668385 -0.3734678 0.0058352221
0.041152466 -0.0027558496 -0.032943606 -0.076871015 -0.95351613 -0.29137224 0.0028110549
0.043983828 -0.0027524433 -0.033380609 -0.044095729 -0.97216165 -0.23012449 0.0006312966
0.046534657 -0.002748122 -0.03393282 -0.034790657 -0.97599715 -0.21498631 0.00082104263
0.056326881 -0.0027557663 -0.032955624 0.034020975 -0.98464507 -0.17122118 0.00034677942
0.024228858 0.0014342912 -0.031504624 -0.33230561 -0.64827144 -0.68506736 0.0004706831
0.02652796 0.0008496698 -0.032048404 -0.32702526 -0.64235163 -0.69313693 0.00026910406
0.029262759 0.00020184834 -0.032659993 -0.29616839 -0.69807249 -0.65190423 0.00049130246
0.031861879 -0.00058038346 -0.033056654 -0.27781925 -0.74560308 -0.60571653 0.0018599679
0.03457848 -0.0010335646 -0.033778526 -0.26789919 -0.73607409 -0.62163091 0.0025248146
0.020373242 0.0040242146 -0.031812847 -0.3922545 -0.57505053 -0.71795076 0.00053300511
0.023141194 0.0033029097 -0.032600194 -0.35592863 -0.59178525 -0.7232601 0.00018391789
0.025971692 0.0026732523 -0.03342222 -0.32917383 -0.60839653 -0.7221483 0.00024748885
0.028269719 0.0019502961 -0.033853732 -0.32624948 -0.64139795 -0.69438463 0.00029531037
0.015390652 0.0075623393 -0.031444438 -0.45387661 -0.46013471 -0.7630676 0.00035475544
0.017444238 0.0067146253 -0.032106686 -0.43892533 -0.47293121 -0.76398987 0.00069620484
0.019883908 0.0060985638 -0.03308636 -0.42533511 -0.47330967 -0.77140653 0.00065429084
0.022264387 0.0053810235 -0.033870663 -0.38237983 -0.53657562 -0.75224483 0.00063109747
0.01454522 0.0094628278 -0.031887561 -0.47953287 -0.33097294 -0.8127147 0.0018819985
0.017200943 0.0091747446 -0.033309773 -0.4600006 -0.35658497 -0.81317079 0.0019247046
0.019128989 0.0082140658 -0.033936687 -0.43410593 -0.38890797 -0.81259006 0.0022694438
0.012417208 0.012205038 -0.031341761 -0.54228997 -0.038664151 -0.83930129 0.0095424782
0.0142181 0.012172558 -0.032449298 -0.52525961 -0.077117629 -0.84744036 0.0056871707
0.016377566 0.011985763 -0.03373196 -0.54203236 -0.068102077 -0.83759362 0.004955892
0.012420911 0.014048347 -0.031212425 -0.55300939 0.19194677 -0.81076324 0.0020049773
0.014374162 0.015211357 -0.03219524 -0.52154428 0.19388925 -0.83090228 0.0027373882
0.016636169 0.015378383 -0.033601992 -0.54113412 0.17415373 -0.82270545 0.0023087899
0.015033554 0.017951591 -0.031635325 -0.50772095 0.36465576 -0.7805419 0.00072533352
0.017365333 0.01839865 -0.032946929 -0.50419062 0.3657684 -0.78230762 0.0011769262
0.01948281 0.019356351 -0.03380841 -0.4678688 0.41362521 -0.78103328 0.00023337844
0.017456412 0.020787554 -0.031757586 -0.47479284 0.47815222 -0.73887902 0.0012401937
0.019959485 0.02139312 -0.032913171 -0.46226314 0.46077102 -0.75762975 0.00084292574
0.022092985 0.021966556 -0.033822902 -0.43377534 0.49222124 -0.75469011 0.0018970089
0.020591088 0.023318203 -0.031785794 -0.41740331 0.59608614 -0.68589783 0.0014501996
0.023194486 0.024107059 -0.032581516 -0.3681511 0.65894526 -0.65593898 0.0025646088
0.025980327 0.024896696 -0.033348121 -0.33946821 0.71034491 -0.61658043 0.0050993934
0.028265938 0.025442032 -0.033908866 -0.26083446 0.72476667 -0.63771361 0.0040702499
0.026565846 0.026222959 -0.031908177 -0.26019228 0.80173463 -0.53807205 0.0040836958
0.029255647 0.026485883 -0.032686532 -0.21971986 0.85357422 -0.47237095 0.003746772
0.032081943 0.027008492 -0.032788977 -0.17997216 0.88062406 -0.4383049 0.0020943147
0.035131723 0.027564486 -0.032709699 -0.1408249 0.9165076 -0.37440908 0.0012318442
0.038168956 0.027891461 -0.032799285 -0.075787686 0.94860971 -0.30723903 0.0012660468
0.041202459 0.028153101 -0.032447197 -0.044911508 0.95555663 -0.29136649 0.00075998623
0.044083904 0.028152682 -0.032453306 -0.0234903 0.97121882 -0.23702747 0.0011855904
0.046704438 0.028153421 -0.032442562 0.0052452092 0.96389031 -0.26624793 0.0011929936
0.051576365 0.027572775 -0.033279993 0.085279375 0.96614969 -0.24347936 0.0010816456
0.024156444 -0.0017340234 -0.02818582 -0.27327526 -0.76998484 -0.57657951 0.0017034243
0.026279988 -0.0020190687 -0.028859418 -0.24961387 -0.78709155 -0.56407428 0.0034550522
0.029151302 -0.0023100907 -0.029682323 -0.18309774 -0.84408557 -0.50397885 0.0072840801
0.032088418 -0.0028875358 -0.029694447 -0.14961584 -0.9018622 -0.40528974 0.0063212244
0.034931503 -0.0031094719 -0.029921351 -0.084534638 -0.94227761 -0.32398576 0.0044224788
0.038035288 -0.0033073677 -0.02984659 -0.043204218 -0.97035074 -0.23780863 0.0021448284
0.041153245 -0.0033031534 -0.030309226 -0.059045661 -0.97305447 -0.22288737 0.0015509761
0.044286743 -0.0033008484 -0.030562526 -0.034608562 -0.97954303 -0.19823633 0.00073075178
0.04715018 -0.0032983422 -0.030838002 -0.024416974 -0.98038018 -0.19559795 0.00031781319
0.049794003 -0.0032993313 -0.030729651 -0.0046237004 -0.98089594 -0.19447802 0.00063481939
0.018322445 0.0014423528 -0.028408563 -0.37975925 -0.64260525 -0.66546327 0.00051080791
0.020382974 0.00085330382 -0.028955787 -0.35815227 -0.65347481 -0.66685647 0.0002780912
0.023277223 0.00011871476 -0.029712711 -0.32641175 -0.6843282 -0.65203547 0.00020914778
0.025975062 -0.00057126163 -0.030338272 -0.30222854 -0.71917599 -0.6256547 0.0010074554
0.028082289 -0.0010627895 -0.030822834 -0.26651731 -0.72703254 -0.63276547 0.002303279
0.014748811 0.0042288592 -0.028789207 -0.43790457 -0.53899556 -0.71952993 0.0003057268
0.017167151 0.0033735237 -0.029482361 -0.39134023 -0.60522586 -0.69322044 0.00016251812
0.019793244 0.0026745608 -0.030329861 -0.37517881 -0.61846608 -0.69046408 0.00034256824
0.022158794 0.0019617402 -0.03092364 -0.3516286 -0.63307065 -0.68962216 0.0003660873
0.011637609 0.0070215696 -0.028804053 -0.47131687 -0.47159615 -0.74529022 0.000833111
0.014197662 0.0063419705 -0.029945157 -0.44656456 -0.4869726 -0.75062495 0.00074602349
0.016467508 0.0054698559 -0.030760488 -0.41784126 -0.54715061 -0.72528267 0.00036441971
0.0089916596 0.0098392349 -0.028581696 -0.53062528 -0.2812852 -0.79957205 0.003431994
0.011143136 0.0093503166 -0.029740989 -0.53800672 -0.30971995 -0.78397858 0.003146135
0.013258747 0.0088007972 -0.0308198 -0.50231546 -0.31646368 -0.80469251 0.0019917425
0.0087890849 0.012280057 -0.028785463 -0.60494888 -0.004590136 -0.79625106 0.0060286862
0.010866199 0.012236022 -0.03028699 -0.57324398 -0.052915536 -0.81767434 0.0074551157
0.0091248751 0.014998857 -0.028535834 -0.58739173 0.23900311 -0.77320659 0.0012800549
0.011102125 0.015450285 -0.029867586 -0.57084411 0.22148545 -0.79062068 0.0017714173
0.01308396 0.016290028 -0.031009464 -0.55102628 0.22063698 -0.80479151 0.002338713
0.011520447 0.018179102 -0.029084872 -0.5527966 0.36143094 -0.75085527 0.00073472061
0.013681168 0.018503528 -0.030451981 -0.53300697 0.35124582 -0.76975977 0.00047326536
0.012287098 0.020383876 -0.028492503 -0.51597393 0.46444613 -0.71976435 0.0007272262
0.0144195 0.021127554 -0.029516552 -0.49854556 0.46328148 -0.73268181 0.001338935
0.016736453 0.021876583 -0.030607207 -0.45052174 0.53086901 -0.71778005 0.0017579946
0.015400534 0.023122223 -0.028720504 -0.46718577 0.6023922 -0.6471948 0.0024571212
0.017305974 0.023924738 -0.02922415 -0.43457866 0.60448182 -0.66763997 0.0016578904
0.019873872 0.024732465 -0.03003251 -0.3810837 0.6989345 -0.60519904 0.0030652951
0.022301499 0.025510339 -0.030711552 -0.3241359 0.75788862 -0.56616312 0.0026221201
0.020945154 0.026285263 -0.028873429 -0.32178271 0.76963687 -0.55146623 0.0044839014
0.023435336 0.026617823 -0.02957744 -0.26101905 0.83681166 -0.48126429 0.0044852332
0.026219402 0.02718344 -0.029835062 -0.21811903 0.87505573 -0.43208969 0.0016914287
0.029082656 0.027816784 -0.029686285 -0.15314516 0.9221096 -0.35533145 0.0008874429
0.031959202 0.02814641 -0.030002655 -0.12920639 0.93195313 -0.33877596 0.00079891278
0.034800999 0.028274775 -0.030683545 -0.10018539 0.94004625 -0.32600012 0.00092440669
0.035517234 0.028957579 -0.028456254 -0.073662758 0.95122993 -0.29955873 0.0012195676
0.038122483 0.028926641 -0.028896373 -0.020455053 0.97334731 -0.22842209 0.0013813369
0.040243976 0.028931545 -0.028826704 -0.023128835 0.97364199 -0.22690596 0.0013192906
0.018049425 -0.0013485341 -0.025454899 -0.35054636 -0.68848485 -0.63490617 0.00048848079
0.02040169 -0.0018635984 -0.026110709 -0.31476328 -0.72019315 -0.61826044 0.0010181095
0.023178514 -0.0025398107 -0.026696911 -0.28851733 -0.7659902 -0.57447082 0.0018959482
0.02597235 -0.0032173712 -0.026883099 -0.20240426 -0.86607605 -0.45710483 0.0051658479
0.029152241 -0.0036240071 -0.026945049 -0.11931833 -0.91310537 -0.38987401 0.0050960188
0.032224759 -0.0038690949 -0.026544463 -0.055538885 -0.96170598 -0.26839709 0.0035880036
0.035124473 -0.0038660774 -0.026833987 -0.067082219 -0.97295469 -0.22104098 0.0035804166
0.038311481 -0.0038660001 -0.02684111 -0.011473206 -0.98400873 -0.17775023 0.00079540035
0.041291088 -0.0038720304 -0.026263028 -0.026861791 -0.97982496 -0.19804411 0.00045964774
0.014485901 0.00096069253 -0.025744863 -0.40267509 -0.63472831 -0.65952462 0.00041485098
0.017066782 0.00038286299 -0.026692942 -0.37925428 -0.63984489 -0.66840458 0.00015218621
0.019991945 -0.00039137714 -0.027522409 -0.33843324 -0.67333806 -0.65732706 0.00034319045
0.022321345 -0.001205889 -0.027840307 -0.30953738 -0.73430854 -0.60413378 0.0013643558
0.0092096897 0.004470537 -0.025459465 -0.46514517 -0.54231685 -0.6996659 0.00068564503
0.011479475 0.0036147553 -0.026219077 -0.44471559 -0.57610357 -0.68580806 0.00027970562
0.013926484 0.0029107598 -0.027172333 -0.42489305 -0.59552038 -0.68177813 0.00031086264
0.016096367 0.0021064342 -0.027788823 -0.39766815 -0.60805357 -0.68711782 0.00018601403
0.0061896495 0.0073141404 -0.025421565 -0.49529722 -0.45871261 -0.73774213 0.00093595416
0.0082837511 0.0064127501 -0.026262153 -0.47935152 -0.47533587 -0.73775196 0.0012325674
0.010780096 0.0058127018 -0.027474472 -0.46536854 -0.49174136 -0.73594999 0.00098649552
0.0053842328 0.0094355997 -0.025896529 -0.55400401 -0.22307876 -0.80206943 0.0070917783
0.0077376715 0.0089309849 -0.027283654 -0.52677619 -0.30718344 -0.79255611 0.004460746
0.0098610809 0.0077976533 -0.028142398 -0.48772737 -0.44610098 -0.7504105 0.00044731676
0.0051911492 0.012281751 -0.026133951 -0.58308208 0.0060116337 -0.81239098 0.0061777323
0.0072207851 0.012313608 -0.027644034 -0.5891152 0.012862282 -0.80794662 0.005031066
0.0056166244 0.015156106 -0.025766706 -0.58393025 0.25107816 -0.77200079 0.00087196409
0.0076122996 0.015316233 -0.027257863 -0.5937193 0.2227879 -0.77321601 0.0007371942
0.0061892075 0.017175017 -0.02545551 -0.58115989 0.31890631 -0.74870014 0.00064824225
0.0081389658 0.018089049 -0.02655454 -0.57398349 0.35127279 -0.7396962 0.00087484246
0.010200447 0.018869113 -0.027770201 -0.56262398 0.35490274 -0.74665815 0.00054441614
0.0088483207 0.020625245 -0.025751989 -0.54852325 0.45858207 -0.69915998 0.0011930728
0.011074838 0.021473939 -0.026865222 -0.52177811 0.49925166 -0.6917336 0.0014235191
0.013227571 0.022471311 -0.027723636 -0.47472945 0.57731766 -0.66433144 0.0013217506
0.011984154 0.023700871 -0.025787771 -0.46138844 0.62472755 -0.62994933 0.005520083
0.014141863 0.024295859 -0.026757689 -0.42540684 0.67877209 -0.59857953 0.0028155625
0.016302725 0.024975657 -0.02758527 -0.4230426 0.63779002 -0.64362943 0.000846643
0.014982866 0.02596751 -0.025498902 -0.36790213 0.75110716 -0.5481661 0.0054956661
0.017293841 0.026212182 -0.026552919 -0.30711651 0.79143548 -0.52849728 0.0061816121
0.02022705 0.026985684 -0.026870722 -0.27513558 0.86403984 -0.42158705 0.0029622735
0.023056921 0.027778635 -0.026756778 -0.22542441 0.89808482 -0.37766057 0.00096403499
0.025885884 0.028334623 -0.0267419 -0.16533785 0.9320268 -0.32247385 0.00071432861
0.028432712 0.028488465 -0.027586129 -0.1629253 0.92907804 -0.33206806 0.0010795916
0.029881462 0.029140886 -0.025848439 -0.08977513 0.97084183 -0.22227582 0.0012441854
0.032180127 0.02905158 -0.02711897 -0.091272488 0.96604311 -0.24172319 0.00091100787
0.033976257 0.028997546 -0.027887693 -0.086760335 0.96385133 -0.2519193 0.0010435085
0.041769475 0.029073827 -0.026802447 -0.0087957922 0.97934425 -0.20200852 0.00049168908
0.023402154 -0.0044468874 -0.022604108 -0.084342211 -0.95202464 -0.29416925 0.0043350277
0.02631107 -0.0044386545 -0.023306888 -0.032998916 -0.97495872 -0.21992411 0.001304702
0.029247757 -0.0044368291 -0.023462702 -0.038506657 -0.98060858 -0.19215624 0.0013452653
0.032203645 -0.0044383043 -0.023336336 0.0050478191 -0.98817682 -0.15323509 0.00044659534
0.034387093 -0.0044441205 -0.022839254 -0.0058908723 -0.98651063 -0.16359122 0.00054675178
0.014420152 -0.0017235274 -0.022922989 -0.36659247 -0.70008934 -0.61276829 0.00072711386
0.01717961 -0.0025127628 -0.023617249 -0.34254307 -0.73987383 -0.57900858 0.0016525218
0.019970961 -0.0033251932 -0.024058539 -0.23376288 -0.82852739 -0.50881958 0.0057908203
0.022758193 -0.0037557483 -0.024615491 -0.19008234 -0.86375886 -0.4666791 0.0071241073
0.024867021 -0.0038842019 -0.025094396 -0.20022903 -0.86959487 -0.45134598 0.0056848493
0.0090187993 0.001242829 -0.022527432 -0.44751206 -0.60218126 -0.66114342 0.00011543611
0.01144788 0.00052726176 -0.023432598 -0.412651 -0.63200682 -0.65596223 0.00023952952
0.013932964 -0.00015093526 -0.024343189 -0.39431781 -0.64889079 -0.65073359 0.00048763139
0.015802078 -0.00068343198 -0.024961179 -0.38011855 -0.6725955 -0.63492131 0.0011334673
0.0056872885 0.0041392827 -0.02278284 -0.46787763 -0.55062723 -0.69130331 0.0004282005
0.0080845915 0.0033270007 -0.023728266 -0.46206385 -0.56352949 -0.68478578 0.00018287948
0.010533529 0.0024018185 -0.024566026 -0.43197471 -0.60447377 -0.66933501 7.4335381e-05
0.0029282449 0.0065929061 -0.022716137 -0.5300197 -0.44435281 -0.72223938 0.0017324472
0.0050930358 0.006223199 -0.023982041 -0.50756675 -0.47096843 -0.72150171 0.0017202582
0.0070859711 0.0055436017 -0.024898222 -0.49475539 -0.47507837 -0.72767961 0.0014706005
0.00032175146 0.010049522 -0.022433933 -0.56255591 -0.20671506 -0.80049968 0.0073796036
0.0022343714 0.0092572607 -0.023572806 -0.58572817 -0.23596469 -0.77539879 0.0058240141
0.0043958612 0.0084593222 -0.024782209 -0.52884114 -0.31701899 -0.78729028 0.0038350604
0.00032160431 0.01193233 -0.022320559 -0.61581528 0.10957165 -0.7802344 0.0035941571
0.0022579888 0.012346031 -0.023847893 -0.62277108 0.12138719 -0.77293032 0.0030993312
0.0040600803 0.013456168 -0.025063341 -0.59546709 0.12847431 -0.79304057 0.0048471917
0.0023830254 0.015164461 -0.023207758 -0.62143296 0.26016888 -0.73900825 0.00076253567
0.0043833843 0.015551537 -0.024676254 -0.60560441 0.25602302 -0.75345576 0.00078223913
0.0031657694 0.017768877 -0.02275542 -0.59215939 0.37986431 -0.71066886 0.00055358285
0.0050612027 0.018383045 -0.023970898 -0.5790832 0.37268335 -0.7250998 0.00071240979
0.0069080396 0.019421749 -0.024900978 -0.58004928 0.37706116 -0.72205788 0.00068064663
0.0056098811 0.020999836 -0.022833817 -0.56884086 0.48121247 -0.66697425 0.00075707835
0.0076752123 0.02150475 -0.02419059 -0.54228562 0.48655969 -0.68497151 0.001190567
0.0085200761 0.023560038 -0.023159835 -0.50394297 0.59898049 -0.62230521 0.0016296771
0.010967961 0.024602287 -0.024130538 -0.45744237 0.69101107 -0.55968767 0.0072164079
0.013135934 0.025472136 -0.024884051 -0.43403217 0.68399435 -0.58631712 0.002547086
0.012122451 0.026130671 -0.022887703 -0.41327325 0.79269469 -0.44815218 0.0062540728
0.014244822 0.026567971 -0.023610521 -0.37372738 0.80703211 -0.45719466 0.0058153528
0.017058942 0.027336873 -0.023835657 -0.26403397 0.90175372 -0.34223717 0.00065036473
0.019889874 0.028052703 -0.023935992 -0.23736705 0.91332901 -0.33088827 0.00032961398
0.023045275 0.028630124 -0.024243549 -0.18239398 0.93695766 -0.29806519 0.00068708591
0.021264199 0.028844202 -0.022429919 -0.19800626 0.94354075 -0.26556414 0.00072410097
0.021778911 0.028813938 -0.022868639 -0.19067347 0.93420744 -0.3014966 0.00078442553
0.026293941 0.029301461 -0.023564046 -0.11897974 0.96690655 -0.22568908 0.0010982817
0.028345332 0.029204948 -0.024937099 -0.085003793 0.97261608 -0.21631524 0.0012810152
0.03304825 0.02989109 -0.02280819 -0.069283552 0.98052603 -0.18376237 0.00031351237
0.034141224 0.029908733 -0.022561735 -0.045391541 0.98382503 -0.17328557 6.7206172e-05
0.014646254 -0.0044823717 -0.019575117 -0.23522113 -0.83171928 -0.50290555 0.0080805346
0.017410478 -0.00465413 -0.02031114 -0.11525476 -0.92494202 -0.36221358 0.0075073973
0.020130794 -0.0047660116 -0.020541852 -0.10702243 -0.94816554 -0.29921284 0.0069089406
0.023071988 -0.004938121 -0.020203669 -0.018328134 -0.98175901 -0.18924405 0.00071688805
0.026261613 -0.0050208829 -0.019743638 -0.0041667116 -0.98603779 -0.16646941 0.0004401106
0.027906414 -0.0050255861 -0.019381857 -0.0097529432 -0.98640126 -0.16406524 0.00042425652
0.035276525 -0.0044560637 -0.021821445 0.014571402 -0.99104673 -0.13271792 9.6664422e-05
0.0088983793 -0.0015755459 -0.019731699 -0.40704605 -0.6534251 -0.63823903 0.00033448913
0.01123519 -0.0021342938 -0.020580992 -0.37569913 -0.69183654 -0.61661363 0.00083309459
0.013791495 -0.0031197462 -0.020972967 -0.32782438 -0.76365578 -0.55620241 0.0028374344
0.016570767 -0.0038132425 -0.021582425 -0.24848427 -0.83564562 -0.489849 0.0088815186
0.0054718144 0.00092394114 -0.01986968 -0.43161416 -0.59991562 -0.67365462 0.00013841192
0.0079519693 0.00021059718 -0.020835085 -0.42651841 -0.61401296 -0.66413105 0.00026132024
0.010406587 -0.00055745756 -0.021714179 -0.39475891 -0.65342677 -0.64590943 0.0002880668
0.0001375163 0.0045306282 -0.019438382 -0.49053824 -0.50607055 -0.70941162 0.00069257861
0.0024574995 0.0036618693 -0.020261511 -0.45894158 -0.54012388 -0.70543522 0.00048156769
0.0048976415 0.0029412 -0.021222271 -0.44358608 -0.57881981 -0.68425077 0.00021371323
0.0069517186 0.0021759321 -0.021943038 -0.44699198 -0.59085387 -0.67163223 0.00013351874
-0.0023868363 0.0074160048 -0.019401407 -0.57223082 -0.37206748 -0.73083347 0.0013889672
-0.00058176089 0.0064512631 -0.020161025 -0.5473581 -0.40871173 -0.73031086 0.0018379516
0.0015649395 0.0060357824 -0.021408677 -0.52158761 -0.41785657 -0.74386984 0.0018237651
-0.002816841 0.0094639324 -0.019743789 -0.62599891 -0.16487209 -0.76219589 0.0079967892
-0.00087749213 0.0091801807 -0.021216197 -0.63508421 -0.14501244 -0.75870907 0.0053762384
0.0008587325 0.0079090241 -0.022030896 -0.56222725 -0.31131178 -0.76614982 0.0065557715
-0.0027287127 0.012177734 -0.019699348 -0.66000885 0.11643744 -0.74217957 0.0024550078
-0.00096302293 0.012284152 -0.021205554 -0.64638782 0.12681466 -0.7523967 0.0023451156
-0.0023868475 0.014448294 -0.019399976 -0.63920796 0.28603762 -0.71385968 0.00098907109
-0.00072350819 0.01517238 -0.020553643 -0.63870645 0.26978594 -0.72060353 0.0011203084
0.0010379264 0.015890351 -0.021814486 -0.62372196 0.26463434 -0.73548591 0.00082846737
-7.4830838e-05 0.01797103 -0.01982916 -0.61461157 0.38532177 -0.68831664 0.00082284433
0.0018881019 0.018506799 -0.021246046 -0.59799063 0.38987169 -0.70029092 0.00078532746
0.0024543693 0.020998055 -0.020118259 -0.58188415 0.51041394 -0.63315743 0.0010938611
0.0045782328 0.021772752 -0.021360759 -0.57841951 0.47952256 -0.65991586 0.00075331924
0.0035646269 0.023113454 -0.019208854 -0.50009018 0.66190046 -0.55838835 0.0034245152
0.0053447234 0.023695784 -0.020290378 -0.52118456 0.64384425 -0.56020641 0.0033430753
0.0078306571 0.02488286 -0.02105796 -0.41964042 0.78615195 -0.45372576 0.0021820939
0.0099960314 0.025645884 -0.022044098 -0.39435992 0.81379706 -0.42686599 0.0043150699
0.0092407614 0.026341798 -0.019508725 -0.38244218 0.83038658 -0.40521115 0.0043840427
0.011177331 0.026686756 -0.020471497 -0.3534075 0.8597191 -0.36876318 0.0021054787
0.013919672 0.027524814 -0.020718997 -0.27685842 0.91451395 -0.29498088 0.0003886167
0.017102851 0.028332647 -0.020918729 -0.23031293 0.93480098 -0.27037594 0.00066437287
0.019724337 0.028954012 -0.020838207 -0.2016602 0.94534677 -0.25622779 0.00058426993
0.023220362 0.029483493 -0.020974383 -0.12139779 0.96598959 -0.22831278 0.00132393
0.029207364 0.030083712 -0.020117775 -0.07860972 0.98086083 -0.17813635 0.00039030754
0.031534936 0.02998421 -0.021507448 -0.058061119 0.9838832 -0.16912358 3.468998e-05
0.0090277242 -0.0045176158 -0.016567048 -0.32276121 -0.76345485 -0.55943006 0.0055311276
0.011186668 -0.004780598 -0.017341238 -0.22428952 -0.85344267 -0.47045711 0.010299688
0.014106499 -0.0051749051 -0.017603779 -0.17552866 -0.90493584 -0.38766074 0.0040631052
0.016937708 -0.0054420354 -0.017271951 -0.031506445 -0.96614945 -0.25605208 0.0018570477
0.019930227 -0.0056099147 -0.016352987 0.003319168 -0.98645061 -0.1640251 0.00088268076
0.028773855 -0.0050364044 -0.018550998 0.0032081604 -0.98918724 -0.1466227 0.00012972564
0.0033097174 -0.0012501306 -0.016512355 -0.40934461 -0.63758928 -0.65262312 0.00013966316
0.0054335035 -0.0019843117 -0.017121 -0.41109782 -0.6392324 -0.64990819 0.00013195055
0.0080175903 -0.0028550313 -0.017828682 -0.37977207 -0.687711 -0.61873001 0.00098874921
0.010853337 -0.0036503449 -0.018657805 -0.3183876 -0.73528588 -0.59831768 0.0030942946
-0.00012158975 0.0012550927 -0.01663835 -0.44869125 -0.58248937 -0.67777753 0.00033149862
0.0023471788 0.00048361626 -0.017501505 -0.42031747 -0.6165455 -0.66573632 0.00010620657
0.0048791762 -0.00020365091 -0.018474929 -0.42144135 -0.61333704 -0.66798562 0.00020348976
-0.0031334059 0.0040123994 -0.016788317 -0.51332378 -0.49157843 -0.70345527 0.0010937244
-0.00083339959 0.0032857442 -0.017819906 -0.47587487 -0.53184032 -0.70049196 0.00046228082
0.0014606258 0.0024309899 -0.018635035 -0.43637216 -0.58098608 -0.68704766 8.5317857e-05
-0.0058133481 0.00705584 -0.016537352 -0.58157742 -0.32187912 -0.74710214 0.0026798728
-0.0037585823 0.0063570933 -0.017761199 -0.58657306 -0.3332409 -0.73816156 0.0019433253
-0.0017141551 0.0056649097 -0.018841399 -0.54085356 -0.40543148 -0.73695505 0.0016259763
-0.0061852755 0.0094445823 -0.016826844 -0.63550109 -0.079457507 -0.76800054 0.0050161998
-0.0044101747 0.0092160106 -0.018328652 -0.6348567 -0.090727359 -0.76728451 0.0045928503
-0.0060835043 0.012226222 -0.016683279 -0.65748423 0.1431257 -0.73974967 0.0017367224
-0.0043382486 0.012375459 -0.018221337 -0.65373212 0.12453498 -0.74640828 0.0014892899
-0.0056784069 0.014275441 -0.01645655 -0.65758049 0.28332365 -0.69807988 0.00068531628
-0.0038027642 0.015328389 -0.017733868 -0.63769978 0.2859745 -0.71523261 0.00089775573
-0.0018489929 0.016630294 -0.018927401 -0.62578052 0.36272657 -0.6905275 0.00040253249
-0.0030223439 0.018119052 -0.017034242 -0.62597972 0.41940889 -0.65745384 0.00081813399
-0.0013104575 0.018470932 -0.018418252 -0.62725842 0.37951937 -0.68008232 0.00077326602
-0.0024104966 0.01999932 -0.016372001 -0.6178264 0.47641659 -0.62555403 0.0018621422
-0.00050058682 0.020900335 -0.01745642 -0.59719145 0.51077193 -0.6184451 0.0015761862
0.0014008125 0.022082375 -0.018229883 -0.56540203 0.59752107 -0.56858516 0.0030512847
0.002524714 0.023829181 -0.017390477 -0.52145278 0.66581178 -0.53364927 0.0026391838
0.0048978976 0.025046621 -0.018045457 -0.46537811 0.77409947 -0.42917734 0.0037679989
0.0060238931 0.025939154 -0.017250678 -0.42502314 0.8299976 -0.36119145 0.0045831543
0.0079810191 0.026519759 -0.017634479 -0.32468331 0.89782405 -0.29747733 0.0015791304
0.010999998 0.027548932 -0.017585244 -0.27925497 0.92907107 -0.24257714 0.00038751197
0.0141633 0.02844242 -0.017760649 -0.26111642 0.9350695 -0.23971507 0.00034375946
0.017406128 0.029140357 -0.018137163 -0.20592126 0.95650434 -0.20662987 0.0006970244
0.020403581 0.029703904 -0.017838877 -0.1766856 0.96150142 -0.21046893 0.00055816263
0.027404848 0.03018062 -0.018764352 -0.089899898 0.97905332 -0.18268166 0.0002799955
0.0036036978 -0.0045570042 -0.013205891 -0.36625931 -0.72154456 -0.58756077 0.00068339717
0.0054919119 -0.0049474882 -0.013924816 -0.3212485 -0.77498496 -0.54424042 0.0045800162
0.0082249185 -0.0053104842 -0.01485545 -0.27322051 -0.81378603 -0.51293552 0.0039971159
0.011253553 -0.0059083859 -0.014652878 -0.085737474 -0.93866807 -0.33399293 0.0055614556
0.013823755 -0.0060984893 -0.01414154 -0.0086084809 -0.97448534 -0.224286 0.0024726326
0.016226295 -0.0062021073 -0.01332526 0.024928883 -0.98446316 -0.1738127 0.0012098032
0.021585416 -0.0056158807 -0.015936052 0.01443483 -0.98898995 -0.14727761 0.00043467779
0.022704028 -0.0056234505 -0.015407866 0.0051840306 -0.98920947 -0.14641659 0.00024048294
-0.00030638091 -0.0016032918 -0.013853079 -0.42227891 -0.64191788 -0.64001703 0.00017009705
0.0023042001 -0.0024701478 -0.014631961 -0.40215051 -0.65708816 -0.63758135 0.00022468017
0.0049344799 -0.0034404565 -0.015289913 -0.37784964 -0.68980139 -0.61757892 0.00059687131
0.0068588317 -0.003979763 -0.015917217 -0.36957783 -0.6915493 -0.62062204 0.00065751927
-0.0034033051 0.00077918731 -0.014048256 -0.45707026 -0.5866884 -0.66849345 0.00037487343
-0.00094517786 0.00016454747 -0.015133263 -0.4396272 -0.60001832 -0.66836071 0.00045337665
0.0010405891 -0.00052557373 -0.015772637 -0.42421958 -0.624502 -0.65577048 0.00038873899
-0.0084721772 0.0047749677 -0.013294911 -0.55674225 -0.43740392 -0.70619804 0.00051448256
-0.0065374644 0.0038072465 -0.014100261 -0.53772509 -0.46118215 -0.70580637 0.00097563694
-0.0042416612 0.0029332768 -0.01518842 -0.5022859 -0.51888967 -0.69170976 0.0010712589
-0.0018672096 0.0020195046 -0.016128546 -0.45852724 -0.5514496 -0.69689029 0.00051379239
-0.0089173028 0.0066420073 -0.013836027 -0.63817054 -0.26978701 -0.72107786 0.0036332943
-0.006973247 0.00626346 -0.015225544 -0.61768377 -0.27803913 -0.73563647 0.0025784001
-0.0051380424 0.0052903988 -0.016149467 -0.56357294 -0.36729777 -0.73991746 0.0025368049
-0.0092282733 0.0092994347 -0.014053502 -0.68849391 -0.030636212 -0.72459471 0.0038159217
-0.0075396141 0.0092860498 -0.015599261 -0.68141407 -0.045292698 -0.73049527 0.003706933
-0.0089672869 0.01220611 -0.013934977 -0.69696259 0.16287269 -0.69836634 0.0013214826
-0.0074185161 0.012526331 -0.015359056 -0.68502349 0.1457119 -0.71380025 0.0012163812
-0.0086030466 0.014507977 -0.013581535 -0.67687863 0.31955546 -0.66311353 0.0010504675
-0.0068188207 0.015343507 -0.014925044 -0.66139752 0.30290225 -0.68615121 0.0010307267
-0.0051402217 0.01647214 -0.015997237 -0.64290839 0.33640209 -0.68811512 0.001334518
-0.0063436991 0.017958999 -0.013979109 -0.6396094 0.42004254 -0.64378875 0.0017235687
-0.0045316247 0.018629856 -0.015298102 -0.6296401 0.44221893 -0.63874549 0.0020150631
-0.0034341319 0.020951293 -0.01450644 -0.60704195 0.54744875 -0.57602078 0.0015634812
-0.0012562508 0.022077141 -0.015706023 -0.55543458 0.58814335 -0.58786035 0.0033311814
-0.002432785 0.022875974 -0.013518428 -0.55424339 0.6585077 -0.50909901 0.0035063704
-0.00070013851 0.023630474 -0.014380369 -0.50322777 0.7223863 -0.47425717 0.0061031235
0.001902082 0.024887383 -0.014952708 -0.44370493 0.81848145 -0.36498493 0.0035040323
0.0036037248 0.026186878 -0.01320163 -0.36163712 0.89614135 -0.25719514 0.0037938557
0.0052344711 0.026367214 -0.014728392 -0.32838461 0.91118097 -0.24882284 0.00091119838
0.0081904763 0.027417049 -0.014559513 -0.2984843 0.93011409 -0.21399724 0.000156348
0.011247952 0.02827353 -0.014848645 -0.25599641 0.94962025 -0.18079612 0.00024809485
0.01342247 0.028788919 -0.015313542 -0.24622746 0.95156014 -0.18413387 0.00025435971
0.014271222 0.029127622 -0.014349988 -0.22159877 0.9589327 -0.17703673 0.00077255035
0.016127251 0.029285068 -0.016039645 -0.20099668 0.96222889 -0.1836192 0.00048674498
0.01891993 0.029938633 -0.01449958 -0.18986511 0.96432298 -0.18447888 0.00033725044
-0.00010797102 -0.0047249291 -0.010662442 -0.37593675 -0.72795153 -0.57337439 0.0022437349
0.0023667086 -0.0053026406 -0.011519769 -0.36955675 -0.73917687 -0.56306791 0.001789651
0.0050699771 -0.0062289946 -0.011667093 -0.19601348 -0.85453647 -0.48098457 0.0088772168
0.007894895 -0.0065303333 -0.01193057 -0.092101075 -0.92869884 -0.35921559 0.0074009281
0.011064883 -0.0067876587 -0.011155393 0.0015829511 -0.9725343 -0.23275387 0.003000204
0.013287596 -0.0067971181 -0.010596579 0.043953296 -0.98124909 -0.18766576 0.00044575453
0.017917559 -0.0062192483 -0.012227591 0.043640174 -0.98880482 -0.14269081 0.00044375518
0.019085832 -0.0062440988 -0.010637408 0.043640148 -0.98880482 -0.1426909 0.00044399363
-0.0057719527 -0.0012737266 -0.010467833 -0.45233956 -0.6136446 -0.64717013 0.00028157065
-0.0035267035 -0.0020158878 -0.011250082 -0.42961997 -0.63915187 -0.6378963 0.00016818699
-0.00096879434 -0.0030211937 -0.011945197 -0.41309431 -0.66717607 -0.61986226 0.00018914709
0.0014997143 -0.0038305623 -0.01265587 -0.39483774 -0.69114912 -0.60532314 0.00028841555
-0.0087145036 0.001304378 -0.010666307 -0.48805803 -0.55237424 -0.6757825 0.0003880306
-0.0067347037 0.00050829956 -0.011442423 -0.47364777 -0.57098472 -0.67054778 0.00081059063
-0.0044123689 -0.00021218183 -0.01244588 -0.45383632 -0.59802824 -0.66060191 0.00052856054
-0.011856033 0.0042536655 -0.010268992 -0.56277698 -0.41230592 -0.71643966 0.00126723
-0.0096346578 0.0034859823 -0.011542392 -0.56753147 -0.42058372 -0.70782584 0.0010721319
-0.0073881401 0.0025827936 -0.012606823 -0.52120781 -0.4988071 -0.69248384 0.0015108775
-0.012272564 0.0064562857 -0.010854261 -0.63415331 -0.20575532 -0.74532831 0.005087541
-0.010531814 0.0061332784 -0.01225356 -0.63637888 -0.21890534 -0.73966366 0.0038983675
-0.012388266 0.0092150085 -0.010943485 -0.68997175 0.022496246 -0.72348666 0.0023808428
-0.010968762 0.009185655 -0.012349683 -0.68306237 0.0011414174 -0.7303592 0.0022431859
-0.01206049 0.0120335 -0.010820743 -0.70417821 0.18372111 -0.68584228 0.0011874413
-0.010586471 0.012323963 -0.012264848 -0.69911104 0.16157639 -0.69651765 0.00083697581
-0.011853493 0.014201576 -0.010353958 -0.70528853 0.30874389 -0.63815761 0.00094593049
-0.0099757919 0.015302497 -0.011791945 -0.67731172 0.33172664 -0.65666294 0.0016359289
-0.0091085983 0.017854184 -0.011148413 -0.6523056 0.45454395 -0.60653704 0.0016558388
-0.0074334228 0.018697517 -0.01230251 -0.64014101 0.44842225 -0.62380844 0.0016175805
-0.0064966744 0.020977719 -0.011201218 -0.59160489 0.60201371 -0.53626776 0.003072999
-0.0046432214 0.0218405 -0.01231296 -0.59622008 0.61003608 -0.52189809 0.0031349871
-0.0033843918 0.023413597 -0.011705809 -0.51929557 0.74030954 -0.42693546 0.0050235963
-0.00095127616 0.024775965 -0.01183171 -0.41281196 0.85183537 -0.32243267 0.0017670124
0.001408698 0.025721878 -0.011798775 -0.35641608 0.89434171 -0.27040797 0.002103647
0.0027867211 0.026278896 -0.011697521 -0.32455274 0.92047042 -0.21771479 0.0007994583
0.0052698497 0.027127262 -0.011351882 -0.29713032 0.93770272 -0.18007542 0.00015765634
0.0082886778 0.027903883 -0.012125989 -0.28842121 0.94082057 -0.1779605 0.00013774171
0.0099504739 0.028487036 -0.011632597 -0.26824301 0.94980425 -0.16098882 6.1341932e-05
0.012407267 0.028980317 -0.012485867 -0.25549909 0.94958133 -0.18170163 0.00023407475
0.015135852 0.029487306 -0.013108319 -0.20998354 0.96579415 -0.15214704 0.00034454287
0.00030193944 -0.0074111577 -0.0072135683 -0.26750562 -0.81581336 -0.51272744 0.0058818855
0.0022471156 -0.0073959166 -0.0080501689 -0.14604528 -0.88970172 -0.43255252 0.0050351075
0.0052960925 -0.00738174 -0.0088279424 -0.080012955 -0.94024706 -0.33095843 0.006878417
0.0080687031 -0.0073804883 -0.0088965409 0.0084126471 -0.97072417 -0.24004997 0.0019101592
0.010582948 -0.0073950645 -0.0080967303 0.041068032 -0.98349071 -0.17623742 0.00077386817
-0.0034292648 -0.0051346272 -0.0079886885 -0.38859954 -0.71023488 -0.58698964 0.0010247763
-0.00088907499 -0.0058583329 -0.0087698204 -0.35138038 -0.73704004 -0.57732463 0.0018395951
0.0018549683 -0.0065378807 -0.0095671862 -0.25868481 -0.82889003 -0.49600753 0.0058346526
0.014705935 -0.0068163825 -0.0094576739 0.055464592 -0.98202914 -0.18039508 0.00067255821
-0.0092211617 -0.0016321181 -0.0077364016 -0.45826411 -0.60419846 -0.65187281 0.00031120121
-0.006819631 -0.0024850643 -0.008563567 -0.44430357 -0.6185571 -0.64805979 0.00011892633
-0.0042326534 -0.0034605758 -0.0092835091 -0.411484 -0.67045999 -0.61738503 0.00015161661
-0.011924715 0.00093946094 -0.0079846941 -0.51330489 -0.52208817 -0.68113285 0.00065646495
-0.0098028602 0.00025703711 -0.0090006739 -0.48187268 -0.56098604 -0.67312211 0.00055490708
-0.007813138 -0.00053867698 -0.0097275134 -0.48221651 -0.57340002 -0.66232896 0.00035968062
-0.014943483 0.0038335361 -0.0075058993 -0.61486906 -0.34480214 -0.70925832 0.0012812479
-0.013014973 0.0031578746 -0.0086594522 -0.59170318 -0.39711109 -0.70156264 0.0019061881
-0.010947398 0.0024129597 -0.0098170005 -0.52359068 -0.45943671 -0.71747524 0.0022133098
-0.015255283 0.0062177675 -0.0080993827 -0.65933156 -0.1377244 -0.73913056 0.0059895241
-0.01357521 0.0059563741 -0.0095089711 -0.68292099 -0.15579881 -0.71368456 0.0044579576
-0.015257875 0.0092758369 -0.0080326833 -0.71623939 0.07895235 -0.69337404 0.0019685775
-0.013817278 0.0092450092 -0.0095097804 -0.71656871 0.052139085 -0.69556504 0.0018520652
-0.014934969 0.01211824 -0.0077374279 -0.72112018 0.21603282 -0.65826702 0.0008985048
-0.013438971 0.012409347 -0.0092457319 -0.71586156 0.18495025 -0.67330199 0.00082162302
-0.012938456 0.015290218 -0.0085829478 -0.70265245 0.33928105 -0.62543422 0.0017404911
-0.011315237 0.016154902 -0.0098492857 -0.69170189 0.33995935 -0.63716251 0.0014336802
-0.0119238 0.017834779 -0.0080154538 -0.66570401 0.47180969 -0.57812959 0.0020114358
-0.01026491 0.018496796 -0.0093362108 -0.64600873 0.49463803 -0.58138287 0.0016899739
-0.0093997614 0.020686638 -0.008098647 -0.61492741 0.5924595 -0.52043843 0.00088572613
-0.0073982971 0.021950575 -0.0089295823 -0.58176112 0.66955113 -0.46179575 0.0026823631
-0.0062217722 0.023290377 -0.0083578881 -0.50515592 0.774867 -0.37999803 0.0058631049
-0.0040680682 0.024155462 -0.0091687031 -0.4779242 0.80767083 -0.34533513 0.0059891478
-0.001637849 0.025345759 -0.0088162627 -0.35322341 0.91088259 -0.21336846 0.002120266
2.6502647e-05 0.025892856 -0.0089433249 -0.3332949 0.92436874 -0.18562587 0.00053863251
0.0025231158 0.026738606 -0.0087200906 -0.29906586 0.9398883 -0.16483197 0.00017001343
0.0052947458 0.027554529 -0.0089740213 -0.29925042 0.94000989 -0.16380018 0.00014080938
0.0072372993 0.028120508 -0.0087975021 -0.29070094 0.942397 -0.16547164 9.3837923e-05
-0.0034114858 -0.0076656602 -0.0047796611 -0.28905395 -0.80456138 -0.5187763 0.0044790264
-0.00094104931 -0.0077443225 -0.0059706289 -0.26165614 -0.84231567 -0.47121158 0.0060067838
0.0020316755 -0.0082247583 -0.0055462867 -0.057032637 -0.94736689 -0.31502911 0.0044539082
0.0053213248 -0.0079834219 -0.0064210529 -0.0057696826 -0.97428173 -0.22525935 0.0045363037
0.0078475494 -0.0080018844 -0.0054757278 0.038657177 -0.98173827 -0.1862675 0.0012646498
0.012001245 -0.0074158218 -0.0069582518 0.051544264 -0.9828741 -0.1769228 0.00085586694
-0.0090829795 -0.0047969017 -0.0046843123 -0.41886833 -0.66157645 -0.62198544 0.00039713865
-0.0068228161 -0.0054734331 -0.0053990167 -0.38968834 -0.69877017 -0.59988594 0.00045219221
-0.0042708823 -0.0062811244 -0.0060734805 -0.36294314 -0.73017246 -0.57889587 0.0011453213
-0.0019276347 -0.0068606194 -0.0068446752 -0.26165688 -0.84231544 -0.4712117 0.0060086255
-0.012445285 -0.0020099273 -0.0051445402 -0.46973673 -0.59248471 -0.6544534 0.00053896627
-0.0099318037 -0.0030700183 -0.0058688214 -0.43257096 -0.6346662 -0.64037579 0.00028868759
-0.0076158298 -0.0038533742 -0.0066514015 -0.41313097 -0.65849841 -0.629049 0.00035757953
-0.015557525 0.00075665582 -0.0050357357 -0.53747439 -0.49232265 -0.68464571 0.00085892959
-0.013229446 0.00010449067 -0.0063489452 -0.52821106 -0.4971942 -0.68832481 0.00053817342
-0.017932124 0.003494625 -0.0047593834 -0.64924097 -0.32373118 -0.68824726 0.0039023997
-0.016114321 0.0030074737 -0.0060567483 -0.63496655 -0.34592235 -0.69076431 0.0022235943
-0.014180745 0.0020549842 -0.0070412215 -0.58065057 -0.41191798 -0.7022596 0.0018886118
-0.018158384 0.0062567075 -0.005279378 -0.72750765 -0.061590977 -0.68332946 0.0056264861
-0.016699091 0.0062362636 -0.0067586629 -0.70864719 -0.088636249 -0.69997334 0.0049287435
-0.018085845 0.009210268 -0.0049707349 -0.73183507 0.13145378 -0.66868329 0.00056377728
-0.016711403 0.0093086641 -0.0064591523 -0.72814381 0.10856348 -0.67677212 0.00089217746
-0.017788451 0.011908638 -0.0045863064 -0.73130012 0.24032073 -0.63831514 0.00084789109
-0.016290516 0.012354024 -0.0061475178 -0.72964489 0.2453306 -0.63830334 0.0013981874
-0.015729029 0.01518719 -0.0054398552 -0.70486152 0.36531559 -0.6080417 0.0016215056
-0.01400569 0.016363073 -0.0067392243 -0.70255381 0.39521757 -0.59179491 0.002105877
-0.015007465 0.017370025 -0.0047664801 -0.66659284 0.51583302 -0.53811741 0.0012243884
-0.013292714 0.018444862 -0.0058477344 -0.65273416 0.52339989 -0.54771405 0.0029249294
-0.012072618 0.020401977 -0.0051339688 -0.58701003 0.65222597 -0.47960454 0.0024230294
-0.010009372 0.021764815 -0.0058005778 -0.55206311 0.72677577 -0.40868476 0.00086718204
-0.0080534136 0.022664303 -0.007047778 -0.55850106 0.71318358 -0.42361048 0.0013630053
-0.0086629754 0.023348073 -0.0046729501 -0.45674506 0.8302983 -0.31935656 0.0078939442
-0.0070552276 0.023753146 -0.0058107981 -0.42689973 0.85577214 -0.2922512 0.003659405
-0.0037472779 0.025095755 -0.0059450548 -0.36807823 0.91146433 -0.18371476 0.00075736846
-0.0010978952 0.026091715 -0.0056222733 -0.32526493 0.93297035 -0.15417221 0.00058740267
0.0016986076 0.026933739 -0.0055701938 -0.30003804 0.94309026 -0.14338021 9.8015291e-05
0.0047613494 0.027702266 -0.0066577848 -0.29094535 0.94607633 -0.1424444 8.7227934e-05
-0.0090142069 -0.007514311 -0.0015534069 -0.35974431 -0.72956955 -0.5816462 0.00079012616
-0.0068975883 -0.007978823 -0.0022426853 -0.29096463 -0.80015999 -0.5244841 0.0046226708
-0.0040922752 -0.0086190579 -0.0027241763 -0.18657838 -0.88524997 -0.42605278 0.0076350542
-0.00082822051 -0.0088937758 -0.0030220477 -0.050302476 -0.94029385 -0.33662617 0.004167832
0.0019842815 -0.0090797031 -0.0022279434 0.025103424 -0.97507507 -0.22045043 0.0025200245
0.0050769676 -0.0086106164 -0.0030905763 0.063338898 -0.97577506 -0.20940699 0.001297667
0.0092852209 -0.0080425348 -0.0033934768 0.073750041 -0.98251134 -0.17097488 0.00049189595
-0.014385293 -0.0046974029 -0.0012213048 -0.42650312 -0.65444577 -0.62433642 0.00048606042
-0.012364053 -0.005252298 -0.0020020017 -0.40688381 -0.67843783 -0.61169243 0.00018941936
-0.0099130077 -0.0059449505 -0.0028492063 -0.38061544 -0.711842 -0.59026515 0.00011829742
-0.0074721808 -0.0067299092 -0.0035115285 -0.35716972 -0.72640908 -0.58716232 0.00099130906
-0.017950781 -0.001497075 -0.0014594952 -0.53383029 -0.53053647 -0.65844995 0.0005811989
-0.015731104 -0.0024562296 -0.002333818 -0.49421924 -0.56743944 -0.65860444 0.00052390358
-0.013186221 -0.0033383192 -0.0033786763 -0.43788353 -0.63903958 -0.6323657 0.00015818984
-0.020586953 0.0015126863 -0.0014005955 -0.5890283 -0.42378196 -0.68808031 0.00098191143
-0.018663134 0.00051731849 -0.0023628557 -0.57906413 -0.4308185 -0.69215614 0.00048540698
-0.016548198 -0.00017781323 -0.0035948902 -0.5539915 -0.47114441 -0.68637919 0.00062597159
-0.021042764 0.0033326566 -0.0018372135 -0.67913479 -0.23568957 -0.69514483 0.007112063
-0.019262444 0.0030171759 -0.0033418406 -0.64755994 -0.28306508 -0.70748866 0.00600628
-0.021083329 0.006217421 -0.0020974986 -0.72645843 0.019176457 -0.68694276 0.0029460501
-0.019632231 0.00627877 -0.003682008 -0.7404539 -0.013273518 -0.67197609 0.0036208795
-0.020815149 0.0092791412 -0.001856816 -0.75214469 0.1580873 -0.63975525 0.00048113559
-0.019510064 0.0095146764 -0.0033007395 -0.74337959 0.14090155 -0.65386051 0.0003899096
-0.020585399 0.01167053 -0.0014319075 -0.74512744 0.27676615 -0.60678303 0.00099947269
-0.019206014 0.012291301 -0.002801843 -0.72534472 0.27489662 -0.6311155 0.0012288436
-0.018351756 0.014957577 -0.0024096267 -0.72616315 0.38838333 -0.56731433 0.0015768957
-0.016928859 0.016018678 -0.0034360839 -0.70205534 0.39832756 -0.59029949 0.0018859868
-0.017771844 0.017320836 -0.0012448188 -0.67131507 0.54829043 -0.49871197 0.0020066472
-0.015916899 0.018284269 -0.002694279 -0.68383288 0.544972 -0.48515779 0.0019110588
-0.014302085 0.01947535 -0.0035888012 -0.65525103 0.57893157 -0.48526725 0.0016773508
-0.014647202 0.020400854 -0.0017890092 -0.56946075 0.70323825 -0.42564118 0.0063755969
-0.012878128 0.021246966 -0.0027614562 -0.55574322 0.72364372 -0.40925437 0.0044261618
-0.010930619 0.022278467 -0.0036763605 -0.51780421 0.78751808 -0.33420655 0.0047882753
-0.010104082 0.023010921 -0.0030902456 -0.50060016 0.82292438 -0.26869121 0.00506069
-0.0073037082 0.02430469 -0.002560785 -0.37642413 0.90717137 -0.18800224 0.0017299452
-0.0047508022 0.025065901 -0.0040175673 -0.37245193 0.90749753 -0.19423637 0.001619032
0.00029638223 0.026814403 -0.0029445346 -0.30220369 0.94386685 -0.13337296 6.6688975e-05
-0.012448191 -0.0078776339 0.001069136 -0.37882173 -0.71566612 -0.58678454 0.0003519282
-0.0098755965 -0.0085254656 0.00032843649 -0.34921354 -0.75309235 -0.55758578 0.00049068668
-0.0069466 -0.0094027221 -3.1005591e-05 -0.18492801 -0.87071145 -0.4557009 0.0058623613
-0.0036709486 -0.0098077888 1.8352643e-05 -0.068227604 -0.93109053 -0.35835096 0.0043625096
-0.0008404376 -0.0098143816 0.0003000088 0.056535505 -0.96548337 -0.25425515 0.0034165776
0.0019888487 -0.0095278826 0.0001307223 0.078649342 -0.97604775 -0.2028425 0.00089858635
0.0039775176 -0.009254707 0.00061162747 0.089743562 -0.97541684 -0.20126641 0.0006527144
-0.018177669 -0.0047302749 0.0015849415 -0.48323277 -0.60957247 -0.62841666 0.00067967613
-0.015639026 -0.0056108739 0.00063232146 -0.42859602 -0.66793251 -0.60841739 0.00019346651
-0.013053224 -0.0064544473 -0.00022006035 -0.39410603 -0.70191944 -0.59328705 0.00018207743
-0.011005246 -0.0069604125 -0.00094637834 -0.39081582 -0.71525085 -0.57937825 0.00041826002
-0.021097686 -0.0016982681 0.0012677107 -0.56261176 -0.49553332 -0.66175121 0.00032830713
-0.018976439 -0.0027339892 0.00040102378 -0.5283531 -0.53502154 -0.65923822 0.00038437755
-0.016602967 -0.0037871413 -0.00048766099 -0.46284625 -0.61599237 -0.63743764 0.00042878313
-0.023565568 0.0012358674 0.001400942 -0.64076316 -0.36874217 -0.6733883 0.0020516834
-0.021755457 0.00040904386 0.00033513829 -0.61779362 -0.38854328 -0.68364114 0.0013350355
-0.019913241 -0.00032283505 -0.00073754601 -0.58150667 -0.43789792 -0.68563503 0.0015648627
-0.023973577 0.0032689804 0.0010779984 -0.70593309 -0.15062572 -0.69207674 0.0081984187
-0.022477143 0.0030708308 -0.00036309287 -0.69143271 -0.1421303 -0.70832169 0.005442265
-0.02383193 0.0063441116 0.0010852553 -0.75770199 0.086229928 -0.64687866 0.0013958686
-0.022551097 0.0064322976 -0.00040406175 -0.73972565 0.057077438 -0.67048347 0.0015699884
-0.02356641 0.0091886614 0.0014160369 -0.76435596 0.19533333 -0.61449552 0.00043154656
-0.02228304 0.0095132329 -3.2853335e-05 -0.75805402 0.17939039 -0.6270352 0.00065696042
-0.021809395 0.012284229 0.00037730671 -0.74519587 0.27679944 -0.60668385 0.00087568635
-0.021099575 0.014796205 0.00092676841 -0.71882182 0.4150272 -0.55771643 0.0013459065
-0.019618716 0.015544172 -0.00039825775 -0.73576909 0.42018795 -0.53111762 0.0023635805
-0.018746849 0.017883025 0.00069484115 -0.6838212 0.54689115 -0.48300982 0.0024051312
-0.01686766 0.019241635 -0.00035284087 -0.62351412 0.66597265 -0.40952471 0.0021622374
-0.015460419 0.020896347 0.00034013391 -0.55726039 0.73813879 -0.38027871 0.0028180222
-0.013298091 0.022185737 6.669201e-05 -0.46109074 0.85791725 -0.22665682 0.0026978017
-0.011597748 0.023032079 1.5670434e-05 -0.46168619 0.86029768 -0.21618018 0.0023736607
-0.0097237723 0.023816483 0.00055995956 -0.41624862 0.88971466 -0.18746969 0.0021387835
-0.0062084561 0.024975145 -0.00066300295 -0.35741669 0.92165071 -0.15104049 0.00015933797
-0.0036585527 0.025793688 -0.0011696871 -0.3387717 0.93018764 -0.14136744 0.00033851431
-0.012297389 -0.010483892 0.0044621974 -0.28926113 -0.80481905 -0.51826084 0.0033643041
-0.0099904398 -0.010750322 0.0036782976 -0.16965641 -0.8539542 -0.49191359 0.0065102996
-0.006835443 -0.01073028 0.0028797537 -0.065564722 -0.92426533 -0.37607837 0.0077405577
-0.0039156219 -0.010660976 0.0029515568 0.069568031 -0.96435159 -0.25531617 0.0040402655
-0.0014209412 -0.010445898 0.0029257983 0.09608978 -0.97606891 -0.19507989 0.00091057381
-0.017725464 -0.0076214951 0.0043280665 -0.4324165 -0.67048913 -0.60287666 0.00042049738
-0.015518663 -0.0082868934 0.0036004987 -0.39212972 -0.70864296 -0.58656585 0.00047096401
-0.01300612 -0.0092043839 0.00313076 -0.35385787 -0.7507205 -0.55785602 0.00057771022
-0.01041272 -0.0097487718 0.0023557842 -0.26966876 -0.79804909 -0.53888446 0.0025371206
0.0017142566 -0.0098746773 0.0028731916 0.10609684 -0.97722077 -0.18380162 0.00089856383
-0.021254417 -0.0051445449 0.0043823961 -0.48490572 -0.6152789 -0.62152904 0.00040490483
-0.018836647 -0.0059419377 0.0033166166 -0.45108342 -0.65462899 -0.60661733 0.00027562279
-0.016334772 -0.0067895679 0.0024057515 -0.41665608 -0.67549247 -0.60836476 0.000444273
-0.024289872 -0.0019025225 0.0041234344 -0.5826779 -0.46719581 -0.66499209 0.00055567821
-0.022101529 -0.0029642642 0.0031416938 -0.5510841 -0.5151307 -0.65646523 0.00047251579
-0.020010136 -0.0039796242 0.0022787489 -0.5035845 -0.5857861 -0.63502544 0.00022848985
-0.02674178 0.0010989183 0.0044909362 -0.67745876 -0.28995034 -0.67600185 0.0038404725
-0.024906758 0.00030888198 0.0031912997 -0.66814476 -0.34609008 -0.65863818 0.0025490299
-0.023032077 -0.0004694215 0.0020323489 -0.60287327 -0.41128427 -0.6836586 0.0018976185
-0.026870016 0.0032425649 0.0042550173 -0.75661856 -0.035005458 -0.65291882 0.0046715117
-0.02543287 0.0031882357 0.0026561785 -0.73837394 -0.060858186 -0.67163992 0.0042406768
-0.026689265 0.0059127109 0.004413832 -0.77020305 0.13308333 -0.62375963 0.00061301817
-0.02531933 0.0061894981 0.0028161202 -0.75992322 0.10685715 -0.64116943 0.00061154249
-0.026618019 0.0078255776 0.0048006121 -0.77751279 0.16744933 -0.60616386 0.00068872701
