# .PCD v0.7 - Point Cloud Data file format
VERSION 0.7
FIELDS x y z normal_x normal_y normal_z curvature
SIZE 4 4 4 4 4 4 4
TYPE F F F F F F F
COUNT 1 1 1 1 1 1 1
WIDTH 545
HEIGHT 1
VIEWPOINT 0 0 0 1 0 0 0
POINTS 545
DATA ascii
0.030069454 -0.032463778 -0.057232652 0.17737427 -0.92964631 -0.32294911 0.0029115775
0.033168338 -0.031495526 -0.056995444 0.37329096 -0.886953 -0.27197105 0.0016295055
0.035015132 -0.030507883 -0.057016909 0.51500309 -0.82834947 -0.22047471 0.0015364408
0.01614318 -0.02776305 -0.056260835 -0.62679631 -0.63428903 -0.45255244 0.0022075255
0.017997986 -0.028677568 -0.057258662 -0.56309742 -0.68514115 -0.46206376 0.0016619237
0.020082226 -0.029746544 -0.058039345 -0.46336579 -0.75692648 -0.46081918 0.0013428505
0.036186971 -0.029597079 -0.057715826 0.56242543 -0.78941542 -0.24596944 0.002905743
0.013358163 -0.024664564 -0.055725127 -0.76817578 -0.44009733 -0.46499494 0.0033576959
0.015098356 -0.025827702 -0.057153426 -0.72994697 -0.4659459 -0.50007176 0.0022549201
0.016888354 -0.026803609 -0.058455538 -0.60421842 -0.6234473 -0.49621934 0.001021459
0.01314223 -0.022700135 -0.056424648 -0.86821294 -0.18833092 -0.45906174 0.0060292333
0.014061745 -0.023113158 -0.057885084 -0.83740234 -0.22050609 -0.50013435 0.0051398873
0.013088349 -0.019927099 -0.056598783 -0.90055358 0.014285464 -0.43451017 0.001372817
0.013790147 -0.019865261 -0.058017507 -0.88572586 -0.0077127339 -0.46414468 0.0014303975
0.013218259 -0.017221984 -0.05635019 -0.8990525 0.12209011 -0.42047429 0.00030450066
0.014016202 -0.016807061 -0.057914928 -0.8923772 0.11342747 -0.43680322 0.00027018474
0.013353046 -0.015012836 -0.055921644 -0.89034361 0.20191801 -0.40806544 0.00049607269
0.014240585 -0.013862443 -0.057282463 -0.88285774 0.19521831 -0.42714414 0.00039690005
0.015091129 -0.010857983 -0.057255518 -0.8531422 0.32142112 -0.41089752 0.0009997735
0.016038546 -0.0082257977 -0.056924947 -0.798011 0.47833863 -0.36656585 0.0040282886
0.017094821 -0.0070352256 -0.057715435 -0.78539073 0.50640506 -0.35597095 0.0030339975
0.018383196 -0.0051862667 -0.057144403 -0.62898767 0.71952426 -0.29437959 0.010077117
0.020762615 -0.0038321039 -0.057256039 -0.4026584 0.89434558 -0.19496724 0.0021593014
0.022615584 -0.0033946245 -0.058501035 -0.32897884 0.92854774 -0.1719653 0.0059921145
0.023908269 -0.0029020032 -0.05727496 -0.21114273 0.96987313 -0.121511 0.00063213112
0.027132604 -0.0024084446 -0.056923218 -0.12482165 0.9849242 -0.119766 0.0012185571
0.029600348 -0.0024084446 -0.056918424 -0.048143201 0.99428958 -0.095238462 0.00079469086
0.024613332 -0.033749249 -0.053445853 -0.16516969 -0.9317435 -0.32337764 0.0040004342
0.026948767 -0.033760797 -0.054197315 0.0026652622 -0.95476484 -0.29735002 0.002903878
0.029078726 -0.033732846 -0.053652421 0.15581407 -0.95626831 -0.24753369 0.0060461489
0.018597808 -0.031120524 -0.053864799 -0.50465059 -0.76732862 -0.39564458 0.001134367
0.020993307 -0.03224235 -0.054111984 -0.38451716 -0.84372032 -0.37454319 0.0017254739
0.02379398 -0.033021681 -0.054804783 -0.23467378 -0.90697944 -0.34973776 0.002330218
0.030506937 -0.03316417 -0.054565698 0.23350036 -0.93729347 -0.25876349 0.0037022592
0.032840103 -0.032272391 -0.054546099 0.37821272 -0.89973599 -0.21778509 0.001002435
0.035152078 -0.030872649 -0.055377334 0.48211116 -0.85252452 -0.20191798 0.0024912807
0.013435051 -0.027322358 -0.052771747 -0.69094491 -0.57899308 -0.4328534 0.0006217687
0.01535891 -0.028519558 -0.053994805 -0.62384397 -0.66040564 -0.41795105 0.0018500496
0.017415468 -0.029870754 -0.054661222 -0.55284411 -0.7265203 -0.40808296 0.00037380771
0.037998106 -0.028984828 -0.054007605 0.57572949 -0.79043955 -0.20914346 0.0024496752
0.012791187 -0.025449866 -0.053990602 -0.8125934 -0.39301917 -0.43038106 0.0032445004
0.014161495 -0.026700824 -0.054791413 -0.69183123 -0.57837629 -0.43226209 0.00068618718
0.012012377 -0.02289585 -0.054157782 -0.88722354 -0.14115877 -0.43921354 0.0029810558
0.011908365 -0.019785292 -0.05414395 -0.89922434 0.038670845 -0.43577537 0.00078449713
0.012292949 -0.016720114 -0.054216105 -0.90086794 0.13070984 -0.41394678 0.00029514186
0.012844967 -0.013740548 -0.054210514 -0.88762027 0.21118896 -0.40930369 0.00062671583
0.01385613 -0.012301182 -0.055603713 -0.87978244 0.25578225 -0.40069738 0.0012291844
0.013275625 -0.011071907 -0.053429343 -0.86436766 0.34889898 -0.36212987 0.0010407849
0.014149576 -0.010291752 -0.054752111 -0.86398798 0.32352033 -0.38582292 0.00086299394
0.015149731 -0.0076598926 -0.054200917 -0.8007412 0.49673504 -0.33476532 0.0033413772
0.016229097 -0.005715163 -0.053687979 -0.62830079 0.72936815 -0.27066615 0.010234036
0.017759394 -0.0047837328 -0.054437868 -0.57135475 0.78054059 -0.25359437 0.007819768
0.020594209 -0.0033946245 -0.054300666 -0.34013507 0.92458254 -0.17162523 0.0024014388
0.022117211 -0.0028972386 -0.053614333 -0.22741136 0.96844035 -0.10201675 0.00051192864
0.024301425 -0.0025675702 -0.054627638 -0.19070198 0.97641408 -0.10123334 0.00031879742
0.025729902 -0.0024050681 -0.05563128 -0.12386802 0.98745948 -0.097880103 0.0010557459
0.02156275 -0.033653736 -0.051048301 -0.33012846 -0.89175409 -0.30949938 0.00058558793
0.023985567 -0.034301575 -0.051221125 -0.1893305 -0.94453287 -0.26834998 0.0026881725
0.027033994 -0.034460705 -0.051833186 -0.0058104265 -0.95597637 -0.29338622 0.0025894775
0.029786346 -0.034048662 -0.051778693 0.28236589 -0.94354743 -0.17316982 0.0032798962
0.032067161 -0.033501986 -0.050240308 0.33859411 -0.92603225 -0.16678792 0.0024197672
0.015986092 -0.03072777 -0.050952848 -0.56542587 -0.74408698 -0.35584852 0.00096163433
0.018140918 -0.031954661 -0.051376034 -0.48044109 -0.80967522 -0.33704928 0.0013758281
0.020206377 -0.032879535 -0.051811427 -0.37238166 -0.86652267 -0.33237088 0.0010755048
0.033025373 -0.032954823 -0.05083105 0.35044789 -0.9168309 -0.19133055 0.0031511865
0.035382275 -0.031322096 -0.052609921 0.52089572 -0.83725011 -0.16637295 0.00085701607
0.012926636 -0.027995778 -0.050907407 -0.69959271 -0.59105545 -0.40152651 0.0014033407
0.014670139 -0.029408094 -0.051419791 -0.594993 -0.71145648 -0.37391573 0.00079829892
0.010488851 -0.024967672 -0.050315369 -0.84004974 -0.33907884 -0.42348787 0.0057871277
0.011633763 -0.025874931 -0.051487897 -0.81095427 -0.36557096 -0.45684901 0.0051857783
0.010256395 -0.022584276 -0.050546147 -0.91060019 -0.099509396 -0.40112984 0.0032123227
0.010955498 -0.022620078 -0.05211015 -0.8830055 -0.12202682 -0.45322257 0.0033885331
0.010256264 -0.019803407 -0.050553523 -0.91879481 0.053145211 -0.39114156 0.00051017589
0.01095546 -0.019623268 -0.052112043 -0.90489078 0.048818164 -0.42283505 0.00069659791
0.010489156 -0.016689509 -0.050298601 -0.91082865 0.15317005 -0.38331455 0.00048692676
0.011188339 -0.01652425 -0.051803488 -0.90289915 0.15049146 -0.40264812 0.00051880861
0.011563996 -0.013620781 -0.051334411 -0.89382362 0.24245872 -0.37721744 0.0005130592
0.012474924 -0.0106532 -0.051161893 -0.8596884 0.37950826 -0.34192005 0.00083636987
0.01328698 -0.0085058203 -0.05074947 -0.82550257 0.46069649 -0.32604343 0.0012973079
0.014358437 -0.0071735042 -0.051448733 -0.81806922 0.49274009 -0.29659736 0.0032557209
0.015721319 -0.0053955894 -0.051412474 -0.6504724 0.72992027 -0.21000488 0.010251678
0.018073542 -0.0039948341 -0.051393576 -0.41622216 0.90017062 -0.12826528 0.0024851235
0.019925658 -0.0033946245 -0.052534699 -0.34938103 0.92648166 -0.1398734 0.0062055485
0.021456912 -0.0028948544 -0.051791102 -0.29259902 0.94881505 -0.11889394 0.0025814585
0.02420692 -0.002394995 -0.051756293 -0.19359834 0.97734046 -0.085587651 0.00042191742
0.018877368 -0.033714209 -0.047523022 -0.42396346 -0.85627282 -0.29504547 0.0010593274
0.020673364 -0.034224473 -0.048171986 -0.34729707 -0.89004147 -0.29531506 0.00067632325
0.023691928 -0.035068501 -0.048618935 -0.15887806 -0.95488131 -0.25091752 0.0016789821
0.027143231 -0.035131387 -0.048727892 0.12576942 -0.97300732 -0.19349128 0.003945949
0.015021445 -0.031252522 -0.04802727 -0.5339762 -0.77836734 -0.33017221 0.0012609655
0.017582826 -0.032752559 -0.048359819 -0.45971993 -0.83203125 -0.31045395 0.0006343589
0.03415725 -0.032577265 -0.049195915 0.38378149 -0.90792572 -0.16847107 0.0012260834
0.010543793 -0.027664205 -0.047300547 -0.72440737 -0.56876379 -0.38954034 0.0026764765
0.01220737 -0.028782133 -0.048252162 -0.66539764 -0.65234905 -0.36288661 0.0023798554
0.01379404 -0.030099405 -0.048646778 -0.61939126 -0.70325434 -0.34898108 0.00085995882
0.0097871702 -0.025777167 -0.048053574 -0.82725149 -0.37766472 -0.41596201 0.0076938197
0.011014992 -0.027050739 -0.049063146 -0.71181059 -0.58319467 -0.39142004 0.0018277193
0.009321969 -0.022906106 -0.04833103 -0.92445797 -0.068322845 -0.37511259 0.0010779459
0.0093228742 -0.019689271 -0.048268732 -0.92732275 0.058437914 -0.3696723 0.00040408908
0.0096179992 -0.016912399 -0.048236895 -0.92042118 0.15723002 -0.35791561 0.00045403361
0.01016959 -0.013884158 -0.04801733 -0.91044897 0.23590347 -0.33975294 0.00057485455
0.01100916 -0.012698783 -0.049361825 -0.90604806 0.24951701 -0.34178668 0.0014503525
0.010538045 -0.011983117 -0.047615945 -0.87622768 0.35304531 -0.32800013 0.0011725918
0.011364728 -0.010664174 -0.048340984 -0.87117517 0.35907447 -0.33484232 0.001023508
0.012774013 -0.0078886114 -0.048194163 -0.81269854 0.51269495 -0.27688456 0.0020864813
0.013802741 -0.0064204098 -0.048315376 -0.79292965 0.55714887 -0.24667343 0.002491775
0.01506396 -0.0051877834 -0.048288122 -0.57320422 0.79972011 -0.17856303 0.0087400833
0.018318653 -0.0036464168 -0.048917845 -0.41813141 0.90545404 -0.072932199 0.0039120489
0.021056373 -0.0028920232 -0.049613088 -0.23476216 0.97131151 -0.037955668 0.0008647276
0.01619659 -0.033440772 -0.044503629 -0.48377019 -0.8195529 -0.30708221 0.0010586892
0.017905105 -0.034055017 -0.045117665 -0.39384148 -0.87565649 -0.27948976 0.0011117043
0.020959336 -0.035190318 -0.045355316 -0.26797411 -0.92284739 -0.27666327 0.0035945619
0.024050644 -0.035926938 -0.045225367 -0.08139313 -0.97062528 -0.22641048 0.013165607
0.025830228 -0.035925616 -0.045241177 -0.030858776 -0.98100656 -0.19150423 0.0079881549
0.029864345 -0.034870569 -0.045717716 0.23035796 -0.96142823 -0.15030265 0.0047116661
0.012456508 -0.030794481 -0.044719473 -0.60088152 -0.72318739 -0.34050176 0.00089361513
0.0147302 -0.032194216 -0.045298919 -0.50993627 -0.79686129 -0.32400152 0.0004562375
0.009506736 -0.027945092 -0.044840887 -0.72120023 -0.58343905 -0.37345558 0.0030289048
0.011284383 -0.029341852 -0.045647964 -0.64533818 -0.67457396 -0.35845307 0.00039284577
0.0084045939 -0.025735026 -0.045026749 -0.87333351 -0.28828406 -0.39265874 0.0056504849
0.0075435592 -0.022257185 -0.044087231 -0.93368274 -0.03803508 -0.35607561 0.0016313604
0.0081008542 -0.022925843 -0.045370981 -0.92280966 -0.058188148 -0.38083637 0.0019372886
0.0081026629 -0.020042406 -0.045219962 -0.92809713 0.072252952 -0.36526048 0.00055963907
0.0084758438 -0.016795069 -0.045153465 -0.92365181 0.16555195 -0.34562969 0.00042633645
0.0090979394 -0.013839662 -0.045031771 -0.9107793 0.26592466 -0.31585637 0.0010482972
0.0099064931 -0.011446115 -0.045050621 -0.87951511 0.38058749 -0.28566828 0.0012980954
0.010742188 -0.010078875 -0.045688782 -0.86574411 0.41764382 -0.27579096 0.00099846919
0.011966102 -0.0077375588 -0.045289591 -0.81297779 0.52559781 -0.25062707 0.0027787897
0.01313041 -0.0059381188 -0.044933766 -0.74294901 0.63986802 -0.19645786 0.0079949554
0.014338182 -0.005121836 -0.045394409 -0.60075754 0.77780455 -0.18469024 0.010529502
0.01769153 -0.0036486259 -0.045389749 -0.35820544 0.93148333 -0.063464127 0.0023116518
0.020705368 -0.0028875677 -0.046187699 -0.23287357 0.97172099 -0.039092869 0.00051929185
0.02376798 -0.0023794977 -0.045799315 -0.21177979 0.9768641 -0.029762927 0.00018342849
0.015675204 -0.03396308 -0.042157162 -0.4571082 -0.84122872 -0.28876689 0.0010313505
0.018129339 -0.035092223 -0.042184979 -0.3556262 -0.89932513 -0.2544491 0.00038290641
0.021114513 -0.035966169 -0.042708606 -0.23660766 -0.93764871 -0.25462073 0.0015972044
0.010141632 -0.030614069 -0.041187048 -0.60701561 -0.71841407 -0.3397254 0.0012627871
0.011974439 -0.03156393 -0.042270601 -0.5873518 -0.73762983 -0.33304673 0.00080569281
0.014085284 -0.032953314 -0.042522416 -0.4844237 -0.81634182 -0.31451499 0.0010453067
0.0088434545 -0.028753513 -0.042164147 -0.75238186 -0.54592723 -0.36862579 0.003245726
0.010614017 -0.029947495 -0.043447107 -0.62870944 -0.69332516 -0.3521713 0.00052806921
0.0068504061 -0.025503663 -0.041660339 -0.89603674 -0.23166019 -0.37875015 0.0065811118
0.0076566464 -0.026295345 -0.043036323 -0.87120813 -0.26665294 -0.41218042 0.0059589823
0.0067953742 -0.022609832 -0.042085197 -0.9344185 -0.019914323 -0.35561988 0.0015929515
0.0067983153 -0.01980569 -0.041737195 -0.93551648 0.095316641 -0.34018183 0.00038295478
0.0075497045 -0.018966859 -0.0434971 -0.92909884 0.084326848 -0.36008933 0.00043795913
0.0070579266 -0.017251758 -0.041435055 -0.92695838 0.19522449 -0.32036778 0.00045647236
0.0076302295 -0.016766533 -0.042770218 -0.92477024 0.18417473 -0.33298615 0.00073665095
0.0080762785 -0.01389868 -0.042086396 -0.91060877 0.27206281 -0.31108439 0.00080285163
0.009352169 -0.010817949 -0.042426825 -0.87226486 0.40091389 -0.28003961 0.0010856148
0.010135153 -0.0087816473 -0.041569889 -0.82171768 0.50174576 -0.27024293 0.001041748
0.0111901 -0.007535981 -0.042458043 -0.80228883 0.54294741 -0.24807407 0.0020262178
0.012680072 -0.0056983144 -0.042425528 -0.65417874 0.73933625 -0.15947428 0.0096842395
0.014980655 -0.0044183382 -0.042536117 -0.51029104 0.84493572 -0.1602709 0.01178233
0.017848862 -0.0033946394 -0.041087747 -0.3110567 0.94866437 -0.057267528 0.0024203479
0.020382799 -0.0028819798 -0.041892797 -0.24101719 0.96946549 -0.045248605 0.00042236006
0.019503107 -0.036505211 -0.038284123 -0.2458435 -0.95200628 -0.18233205 0.002188894
0.020205837 -0.036361489 -0.040009305 -0.21178417 -0.95685357 -0.19894388 0.0013716539
0.012766358 -0.03353801 -0.038752604 -0.50604838 -0.81351423 -0.28654784 0.0010791734
0.015005477 -0.034468867 -0.039520591 -0.43201593 -0.86183208 -0.26572093 0.00060811697
0.017646546 -0.035625145 -0.039565146 -0.34700254 -0.90533298 -0.24487008 0.00035802537
0.0093675163 -0.030992493 -0.038907718 -0.61623287 -0.71302307 -0.33444777 0.0015744073
0.011583809 -0.032392625 -0.039692327 -0.5363819 -0.78740853 -0.30378005 0.00067191391
0.0067848214 -0.028184362 -0.038984954 -0.78141564 -0.50875169 -0.36133283 0.0032683229
0.0081705581 -0.029567501 -0.039539482 -0.7032761 -0.61321414 -0.3596819 0.0057292148
0.0059260014 -0.02590465 -0.039245751 -0.88981801 -0.27539843 -0.3638401 0.0095229493
0.005786011 -0.022738576 -0.039447147 -0.93103421 -0.0021429039 -0.36492559 0.00077573099
0.0058475016 -0.019558817 -0.039086342 -0.93144393 0.1023702 -0.34918839 0.00050992216
0.0063735098 -0.016719282 -0.039238337 -0.92371476 0.20039615 -0.32648507 0.00048429015
0.0069083408 -0.014240352 -0.03893318 -0.90595567 0.27875307 -0.31865507 0.0006394987
0.0075865928 -0.013182611 -0.03995477 -0.90322387 0.28314632 -0.32251343 0.00062454358
0.0082935896 -0.010840894 -0.039252836 -0.86930609 0.39762557 -0.29359984 0.00099583308
0.0097173993 -0.0081549408 -0.039126027 -0.79901338 0.54067504 -0.26315036 0.0021094191
0.01085824 -0.0066613271 -0.039465416 -0.64699388 0.72917366 -0.22294568 0.0088139959
0.012149738 -0.0054583084 -0.03936727 -0.63316178 0.73760474 -0.23461767 0.008126392
0.01482315 -0.0041691349 -0.039085723 -0.39201969 0.91553193 -0.090120651 0.0041104751
0.017446546 -0.0033946394 -0.037918508 -0.23318228 0.97106206 -0.051619265 0.0001872057
0.019973181 -0.0028787463 -0.039419174 -0.24750525 0.96720612 -0.057038512 0.00027754271
0.018540267 -0.036665555 -0.036359418 -0.23575595 -0.95262951 -0.19213596 0.0023683736
0.020897226 -0.037221171 -0.035936959 -0.23578362 -0.95263034 -0.19209769 0.0023970662
0.022680968 -0.0371521 -0.036753058 -0.21028405 -0.95699775 -0.19983961 0.001541571
0.012304949 -0.034075294 -0.036244933 -0.48805287 -0.83275002 -0.26140344 0.00073637895
0.014966646 -0.035364933 -0.03637848 -0.39336619 -0.88552618 -0.24719705 0.00051714713
0.01721788 -0.036090579 -0.037031561 -0.30716625 -0.92491233 -0.22402222 0.0012982504
0.0071113929 -0.030480867 -0.035567373 -0.6952427 -0.64658189 -0.31395775 0.0017868503
0.0089244219 -0.031732891 -0.0362796 -0.60461414 -0.73599976 -0.30454248 0.0016229055
0.010988437 -0.032970358 -0.037116632 -0.51427466 -0.81125557 -0.27818328 0.00099137588
0.0045087282 -0.027396521 -0.034882843 -0.83593744 -0.38951981 -0.38663015 0.016867302
0.0059046336 -0.028716261 -0.036225125 -0.79722852 -0.49213508 -0.34961382 0.0045332736
0.0043577533 -0.025567582 -0.035602786 -0.9202897 -0.16343527 -0.35546559 0.0053181252
0.0051076366 -0.025957923 -0.037255101 -0.89502919 -0.18590571 -0.40541562 0.0048715654
0.004269754 -0.023046251 -0.03557004 -0.93421811 0.019490037 -0.35616958 0.0006067651
0.0050204257 -0.022835264 -0.037464924 -0.9271189 0.010380016 -0.37462348 0.00071608869
0.0045069791 -0.019802459 -0.035554715 -0.93263239 0.11095985 -0.34334335 0.00048981578
0.0050225533 -0.019746484 -0.03692003 -0.92742044 0.10466488 -0.35907745 0.00043693732
0.0045088632 -0.01800636 -0.034831107 -0.91792983 0.19733907 -0.34418339 0.00036392838
0.0053706095 -0.016649257 -0.036399156 -0.91812533 0.19593973 -0.34446114 0.00040887567
0.006065255 -0.013797529 -0.036136284 -0.89235193 0.32386577 -0.31435481 0.00066064345
0.00691255 -0.011394658 -0.035946913 -0.86592329 0.39574432 -0.30588114 0.00077061722
0.007752242 -0.010020087 -0.036506213 -0.85546863 0.42452636 -0.29656494 0.00091812888
0.0089049451 -0.0079150144 -0.036213793 -0.78030938 0.56818652 -0.26130706 0.0043275375
0.010237213 -0.0059992583 -0.035538733 -0.72008759 0.66143298 -0.20971456 0.0071533159
0.011697154 -0.0052139964 -0.036317993 -0.54913855 0.80735767 -0.2159179 0.010121043
0.014911519 -0.0039149285 -0.036028773 -0.28814048 0.95223242 -0.10113618 0.0016317626
0.016986007 -0.0033946245 -0.036225796 -0.23229715 0.97115642 -0.053788703 0.00019662785
0.019115627 -0.0028729497 -0.034958512 -0.23204461 0.9702723 -0.068752959 0.00010823319
0.019556016 -0.0028755723 -0.036973029 -0.23784938 0.97006565 -0.048993327 0.00012173427
0.015509784 -0.036389198 -0.033390332 -0.35247752 -0.91302824 -0.20527788 0.00066008355
0.017819352 -0.037134115 -0.033250324 -0.28642231 -0.93547928 -0.20697993 0.0005306183
0.0097614173 -0.03365301 -0.032631267 -0.53772372 -0.8033815 -0.25579557 0.00081815041
0.011918401 -0.034664325 -0.033447221 -0.46735966 -0.85002559 -0.24296384 0.00053119869
0.014205586 -0.035879176 -0.03322047 -0.4032374 -0.88716054 -0.22437854 0.00097372121
0.0067121671 -0.031047957 -0.033383846 -0.67359483 -0.67792684 -0.29442352 0.0013708588
0.0084773395 -0.03250042 -0.033365566 -0.57881087 -0.76508325 -0.28218004 0.0013016429
0.0041387659 -0.028183637 -0.032996949 -0.81142563 -0.47469282 -0.34096226 0.0056112437
0.0054539703 -0.029671978 -0.033598583 -0.73012298 -0.6089043 -0.31009021 0.001055203
0.0033894349 -0.025744222 -0.033085305 -0.91034889 -0.22481737 -0.34745085 0.0079245297
0.0032737949 -0.022699509 -0.032929152 -0.93597621 0.027853725 -0.3509596 0.00037573845
0.0036140683 -0.020047417 -0.033246186 -0.93180716 0.1143731 -0.34446234 0.00030481385
0.0041095493 -0.016819324 -0.03310423 -0.91721952 0.21275124 -0.33681634 0.00072437106
0.0050314479 -0.015402785 -0.034642339 -0.90944421 0.24206989 -0.33810258 0.0012011703
0.0045150816 -0.01441833 -0.03244257 -0.89893222 0.28951854 -0.32878542 0.00079637452
0.0052109878 -0.013345874 -0.033326864 -0.892371 0.32005769 -0.31817767 0.00051915762
0.0062268456 -0.010871082 -0.033286929 -0.86317247 0.40880483 -0.29633075 0.0011635255
0.0069630453 -0.0089916848 -0.032620043 -0.80518252 0.51620382 -0.29191566 0.0013511826
0.008237103 -0.00746836 -0.033335514 -0.78259611 0.55976146 -0.27241597 0.0019953975
0.0097494032 -0.0057511688 -0.033400834 -0.62525839 0.75799024 -0.18574905 0.011263863
0.011847617 -0.0046520201 -0.033220951 -0.4247933 0.89566654 -0.13165186 0.0074413517
0.01529704 -0.003603935 -0.033519167 -0.26525724 0.958718 -0.10246141 0.00096801994
0.018417116 -0.0028699844 -0.032682449 -0.21763772 0.97265083 -0.081143282 0.00013282525
0.015083989 -0.036933258 -0.029974468 -0.34126765 -0.92166764 -0.18456762 0.00031333175
0.017723473 -0.037722886 -0.030007333 -0.33101121 -0.92360771 -0.19333982 0.0002647661
0.0091855777 -0.034023076 -0.030047918 -0.51765436 -0.82197684 -0.23746155 0.00061149173
0.012168134 -0.035570581 -0.030509194 -0.42973134 -0.87787366 -0.21134995 0.00059509225
0.0045218258 -0.030339411 -0.029852062 -0.68789041 -0.6662178 -0.28802887 0.0013020776
0.0062212516 -0.031775326 -0.030314468 -0.61877787 -0.73645508 -0.27340034 0.00074595166
0.0076860716 -0.032940958 -0.030402124 -0.58924162 -0.76689917 -0.25428319 0.0008752991
0.0034116334 -0.028726853 -0.030289605 -0.83009362 -0.45549795 -0.32166162 0.003831581
0.005044424 -0.030242002 -0.031319529 -0.68512309 -0.66879618 -0.28864861 0.0014160235
0.0022645327 -0.025763864 -0.030076422 -0.9228363 -0.17015305 -0.34557357 0.0045230561
0.0021442941 -0.022672553 -0.029975094 -0.93546808 0.032305546 -0.35193172 0.00043393415
0.0025046535 -0.019806139 -0.030224847 -0.92737746 0.12346261 -0.35316843 0.00028687582
0.0029771565 -0.016877495 -0.030149946 -0.91210997 0.21675371 -0.34795573 0.0005822861
0.0039111641 -0.013789971 -0.030185791 -0.89277142 0.31563729 -0.3214536 0.00056922092
0.0045227269 -0.011590501 -0.029505849 -0.86421168 0.39534754 -0.31118894 0.00059801835
0.0053769336 -0.010580929 -0.030514788 -0.86172956 0.39619702 -0.31693867 0.00063240313
0.0065272665 -0.0082526905 -0.030059684 -0.79960591 0.52918363 -0.28389272 0.0027290231
0.0078572119 -0.0067326738 -0.03081434 -0.75627351 0.60180312 -0.2566776 0.0039963275
0.0090072118 -0.0055060592 -0.030192565 -0.53822428 0.81852859 -0.20081224 0.0098129045
0.012226248 -0.004133713 -0.030224228 -0.31953001 0.93878573 -0.12877086 0.0013242693
0.014816744 -0.0033946319 -0.03010577 -0.24193808 0.96489489 -0.1021954 0.00040962538
0.017202871 -0.0028662244 -0.029792855 -0.21217404 0.97397131 -0.079762094 0.00028067618
0.012238966 -0.036365118 -0.027199358 -0.38336456 -0.90898407 -0.16364489 0.00086725876
0.014459088 -0.037263408 -0.027056515 -0.36633101 -0.91311336 -0.17895693 0.0011058161
0.016750271 -0.037935901 -0.027489752 -0.33780402 -0.92365086 -0.18099076 0.00030143026
0.0071934965 -0.033753876 -0.026556879 -0.56557906 -0.79129571 -0.23231752 0.00097156875
0.0090476312 -0.034674395 -0.02729159 -0.49940574 -0.83783746 -0.22050487 0.00049068267
0.011169313 -0.03580736 -0.027526394 -0.43509346 -0.8783043 -0.19817956 0.00071317586
0.0041026752 -0.030924333 -0.027449226 -0.69185758 -0.66834551 -0.27321652 0.00061019341
0.0056795604 -0.03235979 -0.027444387 -0.59477431 -0.76329225 -0.25224695 0.00086774293
0.001333356 -0.027644215 -0.026299939 -0.8513698 -0.41936499 -0.3151229 0.0046387436
0.0024603286 -0.029034514 -0.027262755 -0.81629354 -0.49486047 -0.29795635 0.0049761627
0.0011000518 -0.025622677 -0.026993165 -0.92970759 -0.15838982 -0.33250043 0.0045712534
0.0018748072 -0.026985122 -0.028476119 -0.87246871 -0.29120407 -0.39242652 0.016131341
0.0010714703 -0.022806177 -0.027164286 -0.93675077 0.013713323 -0.34972829 0.0009704351
0.0011576526 -0.019899821 -0.026703384 -0.93276531 0.12144288 -0.33941206 0.00036453427
0.0018745764 -0.019300383 -0.028417012 -0.92884403 0.12964082 -0.3470476 0.00036640849
0.0013325455 -0.01752316 -0.026144281 -0.9182778 0.22938785 -0.32271826 0.00068143016
0.0020480035 -0.016677488 -0.02754234 -0.91193479 0.23099519 -0.3391403 0.00077362842
0.002809773 -0.013746058 -0.027117949 -0.89224362 0.31746638 -0.32111761 0.00057081901
0.0040555224 -0.01095609 -0.027274124 -0.85733324 0.41696459 -0.30186117 0.00073005469
0.0050559463 -0.0097577479 -0.02836895 -0.84830713 0.430545 -0.30823031 0.00064018264
0.0045314655 -0.0092592742 -0.026149333 -0.81637257 0.49627104 -0.29538277 0.00095844996
0.0059014931 -0.0076925782 -0.027254691 -0.75036597 0.58344793 -0.31070778 0.0048468942
0.0070167272 -0.0058806753 -0.02644367 -0.69422466 0.67581421 -0.24764368 0.0057730176
0.0089318873 -0.0049130549 -0.02739796 -0.47219604 0.85849774 -0.20003118 0.0078333504
0.011845307 -0.0037934652 -0.026977576 -0.27260321 0.95284593 -0.13331246 0.00062895287
0.013817292 -0.0033946319 -0.027880624 -0.26478255 0.95442897 -0.13767929 0.00071714964
0.015703199 -0.0028625089 -0.026937693 -0.19528835 0.97400761 -0.11476734 0.00083348068
0.012391889 -0.036961302 -0.024236402 -0.38269722 -0.90832019 -0.1688109 0.00078852352
0.015256777 -0.037972625 -0.023879617 -0.32876959 -0.93287796 -0.14713673 0.00028710201
0.006410589 -0.033784546 -0.024344832 -0.54787397 -0.8125183 -0.19911826 0.00072030153
0.008949887 -0.035230789 -0.024684258 -0.4615992 -0.87002039 -0.1731783 0.00030851763
0.003464805 -0.031509802 -0.02432492 -0.68285179 -0.68326223 -0.25858501 0.0022989039
0.00507141 -0.032842401 -0.024409205 -0.59719259 -0.76923662 -0.22723548 0.0019183134
0.0009386508 -0.028429421 -0.024035646 -0.84834975 -0.43886662 -0.29613996 0.0052799024
0.0020366076 -0.029996317 -0.024265349 -0.73226404 -0.62528825 -0.26982212 0.0019726173
5.405047e-05 -0.025757076 -0.024014538 -0.92073113 -0.21318918 -0.32680964 0.0063492795
7.3913252e-06 -0.022823203 -0.024238877 -0.9364717 -0.0060591251 -0.3506906 0.0017983072
0.00024985115 -0.019735886 -0.024145223 -0.93586975 0.12383167 -0.32986909 0.00028604714
0.00083991117 -0.016785648 -0.024240881 -0.91955054 0.22754973 -0.32038713 0.00070287712
0.0012109412 -0.014557212 -0.023431296 -0.89105105 0.32467255 -0.31720001 0.00068151741
0.0020118307 -0.013336539 -0.024434924 -0.88481867 0.33716187 -0.32158634 0.00046673472
0.0031238808 -0.0107459 -0.024308147 -0.85422027 0.41755745 -0.30976373 0.00084294885
0.0042686067 -0.0084837675 -0.024146846 -0.80326283 0.51660222 -0.29646406 0.001313144
0.0052853185 -0.0070350617 -0.024400581 -0.73071069 0.61943078 -0.28699711 0.01041268
0.006413938 -0.0055392245 -0.023819694 -0.62780076 0.74793768 -0.21553499 0.0083246538
0.0088960733 -0.0043124231 -0.024352295 -0.4237735 0.88829595 -0.17704886 0.0061398726
0.011766108 -0.0033946319 -0.024241924 -0.25814009 0.954274 -0.15074782 0.00084806175
0.013135862 -0.0028573631 -0.022990614 -0.24096793 0.96058398 -0.13861001 0.00042834066
0.014719598 -0.0027243851 -0.024060018 -0.20872232 0.96856517 -0.13533835 0.0014427362
0.018188827 -0.0023237052 -0.024373075 -0.12216917 0.98779577 -0.096613914 0.0013929846
0.020863432 -0.0023240505 -0.024504505 -0.10298479 0.98964369 -0.099998146 0.00068093318
0.011017194 -0.03683931 -0.0213238 -0.39636919 -0.90597183 -0.14868222 0.0011899917
0.0058906353 -0.034121178 -0.021607116 -0.54579532 -0.81803453 -0.18145786 0.00066930486
0.0088480543 -0.035694171 -0.022169828 -0.44930887 -0.879776 -0.15529229 0.00061955146
0.0013072967 -0.030368021 -0.02129516 -0.7613467 -0.60341787 -0.23714572 0.002270631
0.003195697 -0.032156043 -0.021447793 -0.61873329 -0.75974625 -0.19988692 0.0012267814
4.6635745e-05 -0.028638998 -0.021142552 -0.84511441 -0.43220952 -0.31460521 0.0028424633
-0.001000562 -0.025720105 -0.021084145 -0.91567683 -0.19678256 -0.35044622 0.0035765965
-0.001122952 -0.02282436 -0.021101445 -0.94267476 0.012668019 -0.3334724 0.001065625
-0.00080299401 -0.019827532 -0.021221152 -0.93322396 0.131427 -0.33439508 0.00037642877
-0.00026424415 -0.016739467 -0.021124132 -0.91579568 0.22752817 -0.33098218 0.00045134258
0.0006682633 -0.013795177 -0.021139583 -0.89025301 0.32734045 -0.31669831 0.00047680581
0.0013037609 -0.011769867 -0.020616084 -0.86443746 0.39537802 -0.31052238 0.0003657646
0.0022789426 -0.010456005 -0.021590358 -0.85126156 0.41955408 -0.31516364 0.00038768709
0.0037097947 -0.0076614153 -0.021264985 -0.79012042 0.52691233 -0.31316629 0.0014718469
0.0058024889 -0.0051927557 -0.021286637 -0.57776058 0.76648927 -0.28051218 0.0085578915
0.0091274465 -0.0036641788 -0.021418497 -0.3411144 0.91681975 -0.20756333 0.00152033
0.011831403 -0.0028547889 -0.021007597 -0.23618411 0.95686287 -0.16920573 0.00039369031
0.014798583 -0.0023151159 -0.021073382 -0.13046181 0.98324907 -0.12728341 0.0007767338
0.0094352514 -0.036501456 -0.018785268 -0.41862351 -0.89878219 -0.13017283 0.0010755577
0.011342941 -0.037360918 -0.018217087 -0.40478522 -0.90335959 -0.14174064 0.0012981767
0.013775054 -0.038122673 -0.018869162 -0.37266955 -0.91706145 -0.14182945 0.00036273277
0.0034651677 -0.033382688 -0.01686269 -0.59391868 -0.78992003 -0.15260065 0.00041104344
0.0057730707 -0.034633808 -0.018352509 -0.52872485 -0.83646035 -0.14416641 0.00062321842
0.0083411057 -0.03590088 -0.019525826 -0.42344549 -0.89345938 -0.1497473 0.0015360358
0.0010265304 -0.030762261 -0.019401863 -0.73082536 -0.64776063 -0.21517524 0.0055839354
0.0023800915 -0.032159209 -0.018795986 -0.66072392 -0.72314429 -0.20126149 0.0039273934
-0.0019834125 -0.027368387 -0.017154217 -0.8822875 -0.37178868 -0.28868988 0.0017692489
-0.000791603 -0.028839992 -0.018328682 -0.82462579 -0.50191361 -0.26091188 0.0056162071
-0.0021779446 -0.0254895 -0.017910492 -0.93385422 -0.159812 -0.31996328 0.004172775
-0.0014132536 -0.026973857 -0.019313842 -0.86878747 -0.33020085 -0.36901993 0.010543633
-0.0022461186 -0.022702165 -0.017904107 -0.94126076 0.010772451 -0.33750889 0.0011670577
-0.0019741198 -0.019711977 -0.017868143 -0.93676722 0.12542856 -0.32670283 0.00040510864
-0.0014128261 -0.019383254 -0.019350335 -0.93362397 0.13240243 -0.33289015 0.00041904708
-0.0019854801 -0.017838752 -0.016995385 -0.92011333 0.22463508 -0.3208279 0.0005032781
-0.001208355 -0.016489521 -0.018281491 -0.91256523 0.22997701 -0.33813506 0.00049732637
-0.00039452943 -0.013721767 -0.018162968 -0.8932941 0.3080551 -0.32730377 0.00060332107
0.0007920622 -0.010868345 -0.018123869 -0.86000043 0.3978951 -0.31949756 0.00047353725
0.0018389176 -0.0096283387 -0.019285813 -0.8261286 0.4654299 -0.31762633 0.00043550829
0.0012837764 -0.0088481214 -0.016777962 -0.81093961 0.49085745 -0.31849012 0.0008413085
0.0025411355 -0.0077408743 -0.018332755 -0.81067246 0.49352965 -0.31502157 0.0007499549
0.0036460052 -0.0057520252 -0.017740179 -0.72974283 0.61757529 -0.29338747 0.0051383739
0.0058009215 -0.0043715504 -0.018469349 -0.51209146 0.81706691 -0.26488501 0.010151594
0.0083483458 -0.0033946293 -0.018851319 -0.31223366 0.92407858 -0.22042903 0.0013057991
0.0097164158 -0.0028509407 -0.018049471 -0.23949279 0.9555319 -0.17205225 0.0019673598
0.012161179 -0.0023074239 -0.018116813 -0.18424511 0.96958715 -0.16110407 0.00094338891
0.01599277 -0.0017605582 -0.017283529 -0.056135647 0.98981702 -0.13080893 0.0012642588
0.017888952 -0.0017617552 -0.017588973 -0.052927699 0.99339122 -0.10184508 0.00082301587
0.00073663489 -0.031228151 -0.016468275 -0.69529068 -0.70176488 -0.1552316 0.0017576203
0.0018224296 -0.032416333 -0.015063643 -0.65751994 -0.7382825 -0.15035456 0.0023912445
-0.0022826036 -0.028026732 -0.015217729 -0.84040451 -0.47483808 -0.26124516 0.0056638168
-0.00090263248 -0.029598858 -0.016331483 -0.74866086 -0.62598228 -0.2182959 0.0040691486
-0.0030364306 -0.025908342 -0.015159834 -0.92473352 -0.22563429 -0.30652428 0.0071811336
-0.0033858069 -0.022849755 -0.01471247 -0.94120979 -0.035076149 -0.33599687 0.0037310869
-0.0028253002 -0.019802731 -0.015543776 -0.93420964 0.1259623 -0.33374503 0.0004412687
-0.0024685571 -0.016812485 -0.01499362 -0.91730797 0.21805701 -0.33316243 0.00047151127
-0.0017424535 -0.013809466 -0.014621501 -0.89324629 0.30866155 -0.32686254 0.00065099256
-0.0011781333 -0.013773603 -0.016068108 -0.88665521 0.30060184 -0.35139874 0.00065803132
-0.0014772974 -0.012181243 -0.013847232 -0.86011952 0.37418306 -0.34667206 0.00041960078
-0.00027515041 -0.010782783 -0.015281826 -0.85547811 0.3846474 -0.34670395 0.00043696075
0.00093030639 -0.0079838391 -0.014711272 -0.80860871 0.48121369 -0.33850449 0.00095971092
0.0019619961 -0.007083545 -0.015842915 -0.79813427 0.51525372 -0.31224227 0.0012159139
0.0030388432 -0.0051595722 -0.014905406 -0.68909502 0.6425119 -0.33515131 0.0055253939
0.005418648 -0.0037067437 -0.015484324 -0.42403093 0.86883926 -0.25557002 0.0034558927
0.0070301178 -0.0028461351 -0.014361277 -0.36557677 0.90481472 -0.2183207 0.0034202421
0.0089391042 -0.0025185465 -0.015228104 -0.23393911 0.95603073 -0.17685524 0.00072974671
0.012113784 -0.0018617511 -0.01522442 -0.15752779 0.97584426 -0.15137002 0.0009114815
0.014382225 -0.0017570367 -0.016379882 -0.078246497 0.98734438 -0.13794403 0.0022251636
0.019321829 -0.0017542897 -0.015676618 -0.03963761 0.99310291 -0.11034265 0.00088010571
0.0040147589 -0.034171734 -0.013518125 -0.61815321 -0.77195823 -0.14821303 0.0010471753
-0.00011312077 -0.031209411 -0.012623556 -0.69102174 -0.70437968 -0.16229068 0.00095996982
0.0023657195 -0.033079717 -0.013416082 -0.61850303 -0.77309203 -0.14065082 0.00078939978
-0.0024794401 -0.028711056 -0.012920575 -0.80311549 -0.55683351 -0.21199526 0.0049168216
-0.0040077199 -0.025812298 -0.012244999 -0.92824715 -0.2403443 -0.28388712 0.0060536237
-0.0042519714 -0.022687389 -0.012263626 -0.94849122 -0.036079995 -0.31474218 0.0026856689
-0.0040009292 -0.019777859 -0.01232209 -0.93304443 0.11657073 -0.34035182 0.00038053116
-0.0035540285 -0.016779922 -0.01207874 -0.91301626 0.20591557 -0.35213649 0.00044378531
-0.0026531969 -0.013866507 -0.012317942 -0.89496195 0.28575811 -0.34261554 0.00027729466
-0.0018070552 -0.011118007 -0.011882825 -0.86297524 0.36889693 -0.34523726 0.00043506306
-0.00080012344 -0.0098608714 -0.012943715 -0.84521759 0.39779803 -0.35688087 0.00031455985
-9.465625e-05 -0.007856111 -0.012114925 -0.82085526 0.4537605 -0.34684002 0.00039263177
0.0010360597 -0.0057126549 -0.011652362 -0.70708919 0.61734128 -0.34483987 0.0031681568
0.0026634028 -0.00434594 -0.012337238 -0.61519855 0.72011298 -0.32088625 0.01038243
0.0045651998 -0.0033946394 -0.01319164 -0.47237098 0.83878273 -0.27075678 0.005961827
0.0059871208 -0.0026061956 -0.011829968 -0.31496349 0.92387831 -0.21736325 0.0023801203
0.0088862851 -0.0019241406 -0.012214521 -0.2118689 0.95879257 -0.18928395 0.00098729786
0.012015767 -0.0013716603 -0.012007663 -0.088367879 0.97900093 -0.18370715 0.0011112924
0.015046172 -0.001188746 -0.012074934 -0.018307216 0.99192595 -0.12548983 0.0007229023
0.01671608 -0.0011861532 -0.011574388 0.031649556 0.9935208 -0.10915501 0.0012487032
-0.001530332 -0.030592358 -0.0093203485 -0.75299633 -0.6174494 -0.22749248 0.005869742
-0.00099020079 -0.031240692 -0.0078871846 -0.73975235 -0.64919764 -0.1769433 0.0039942889
-0.0032870658 -0.028735453 -0.009425615 -0.78598344 -0.58820498 -0.19038054 0.005100552
-0.0050732284 -0.025399612 -0.0091197193 -0.93566012 -0.17810324 -0.30466282 0.0096305842
-0.004298782 -0.027241042 -0.0096949637 -0.87604827 -0.36905751 -0.31038028 0.01515202
-0.0051314472 -0.022805149 -0.0096828844 -0.94342458 -0.058229435 -0.32643446 0.0024448379
-0.0051412126 -0.019772876 -0.009196505 -0.93217921 0.1040621 -0.34671751 0.00053220498
-0.0048735295 -0.016735759 -0.0086615086 -0.91720021 0.19581163 -0.34698933 0.00053018623
-0.0042934632 -0.016417524 -0.0099868253 -0.90931028 0.20844789 -0.36014482 0.00047726184
-0.0038442872 -0.013756053 -0.0092833089 -0.88645494 0.28605473 -0.36382726 0.00037768733
-0.00268661 -0.010747926 -0.0093577327 -0.8569904 0.37280223 -0.35578927 0.00038362661
-0.0017204687 -0.0083016483 -0.0089143161 -0.82769132 0.43766031 -0.35125563 0.00047556628
-0.00074944086 -0.0071650059 -0.0097351968 -0.81122494 0.46734372 -0.35143134 0.00063439994
0.00027035689 -0.0051071187 -0.0089564323 -0.71035016 0.61049533 -0.35028303 0.0056248857
0.0022168651 -0.0035331978 -0.0097000822 -0.49769118 0.81728929 -0.29041651 0.0057801413
0.0033534914 -0.0027277796 -0.0089585241 -0.42216936 0.86562729 -0.26918834 0.0062154094
0.0059238384 -0.0019666569 -0.009176475 -0.26825702 0.93601257 -0.22785664 0.0011213379
0.0088342596 -0.0012650324 -0.0090029584 -0.15138751 0.96659201 -0.20683753 0.0013933872
0.012134077 -0.00083838991 -0.0089502633 -0.067787088 0.98140353 -0.17958841 0.0015021788
0.014043916 -0.00061074487 -0.0079984367 0.046624381 0.99006164 -0.13268039 0.0018966241
0.017301748 -0.0011807738 -0.010543585 0.031648871 0.99352074 -0.10915489 0.0012487541
-0.004911954 -0.027409038 -0.0066935713 -0.85266531 -0.48339573 -0.19821794 0.0087239435
-0.0059523233 -0.025585378 -0.0059568081 -0.90772998 -0.36654556 -0.20413418 0.010775222
-0.0063438541 -0.022808323 -0.0062651709 -0.94140941 -0.068435505 -0.33024973 0.0024033145
-0.0062951683 -0.019761918 -0.0061697331 -0.92939544 0.078958392 -0.36054084 0.00067017257
-0.0058351792 -0.016911898 -0.0062939087 -0.91426218 0.18912514 -0.35826841 0.00065850141
-0.0052288417 -0.014070294 -0.0061134449 -0.89451104 0.26695576 -0.358587 0.00046093587
-0.0043456727 -0.012600092 -0.0071219499 -0.8806802 0.29775983 -0.36843115 0.00040917253
-0.0049464996 -0.0118063 -0.0049243565 -0.86186445 0.35195521 -0.3651264 0.0004707475
-0.0038558492 -0.0106589 -0.006425526 -0.85897458 0.35558143 -0.36840811 0.00034938779
-0.0026873737 -0.0078685097 -0.0061071394 -0.82007092 0.44663393 -0.35777333 0.00078518747
-0.0017129106 -0.0057733045 -0.0056923102 -0.76653016 0.53866976 -0.34966621 0.0024949643
-0.00022292777 -0.0042884001 -0.0065018889 -0.65539932 0.66242981 -0.36282018 0.0047003035
0.0010381958 -0.0026476393 -0.0054750438 -0.57585031 0.75531757 -0.31287676 0.0073487558
0.0028363904 -0.0021365008 -0.0063258703 -0.36714482 0.88836992 -0.27568772 0.0049379272
0.0058874539 -0.0012200004 -0.0062326025 -0.22144866 0.9437207 -0.24566586 0.00058091467
0.009055119 -0.00059916964 -0.0062186532 -0.1463611 0.96277791 -0.22723795 0.00056968047
0.011269765 -0.00060723315 -0.0074583385 -0.028177515 0.98570454 -0.16611026 0.0012701277
0.015470345 -0.00060300744 -0.0068092044 0.061661277 0.99039572 -0.12375113 0.0013649726
0.017955609 -0.0011653362 -0.0075771208 0.076662198 0.99312729 -0.088436551 0.0016880124
-0.0052837147 -0.027947476 -0.0021140422 -0.87135661 -0.43520534 -0.2265698 0.0074537569
-0.0041418415 -0.029032594 -0.0028530057 -0.82166368 -0.53299993 -0.20194037 0.0068356479
-0.0066679684 -0.025629388 -0.0032779346 -0.88107246 -0.40992197 -0.23595586 0.0097403713
-0.007820474 -0.022298312 -0.0022322754 -0.94507098 -0.085695572 -0.31543168 0.0035065368
-0.0072179162 -0.022793472 -0.0037799077 -0.93769556 -0.09981364 -0.33281276 0.002656919
-0.0078192763 -0.019756814 -0.0022783098 -0.93641555 0.04012173 -0.34859151 0.0010239363
-0.0072176899 -0.019699745 -0.0037890193 -0.92545229 0.060635768 -0.37398028 0.00070346316
-0.0078309365 -0.018079555 -0.0018303986 -0.92977279 0.11574891 -0.34946349 0.0032467835
-0.0069771898 -0.016774958 -0.0034179748 -0.91107178 0.1749385 -0.37328911 0.00046118742
-0.0063234908 -0.01374571 -0.0032022959 -0.87965894 0.27710176 -0.38654187 0.00049915438
-0.005358696 -0.01084108 -0.0030646981 -0.86320198 0.35142326 -0.36246946 0.0004961426
-0.0043962328 -0.0098519977 -0.0043475772 -0.86084145 0.35975233 -0.35990304 0.00036089672
-0.0050015901 -0.0090391394 -0.002102911 -0.83723462 0.38738799 -0.38596457 9.6926284e-05
-0.0039176256 -0.0077737989 -0.0031654034 -0.82597023 0.41300407 -0.38366771 0.00041447338
-0.0023837448 -0.0049537015 -0.0030714064 -0.76939291 0.52002674 -0.37095392 0.0020861775
-0.00084102061 -0.0035817283 -0.0042513008 -0.56836164 0.73061943 -0.37836513 0.0080073345
8.7585067e-05 -0.0023389312 -0.0033045406 -0.51849228 0.78804564 -0.33188832 0.0079782549
0.0029022915 -0.0011417146 -0.0031701224 -0.27582797 0.91818243 -0.28435895 0.0011512222
0.0057138246 -0.00058225385 -0.0036198073 -0.19366163 0.94908297 -0.2484687 0.00072855776
0.0068505798 -8.9217501e-06 -0.0022300975 -0.16435537 0.95982414 -0.22743098 0.00048483131
0.0090893209 -1.9624742e-05 -0.0036003347 -0.11070053 0.97119933 -0.21099091 0.00094524404
0.011884876 -2.6723661e-05 -0.0045097703 -0.0044952016 0.9847973 -0.17364958 0.00073587889
0.014444793 -1.6643025e-05 -0.0032197083 0.094005518 0.98757523 -0.12592886 0.0026703314
-0.007872086 -0.024652293 -0.0002498473 -0.9050926 -0.31325996 -0.2875337 0.0080061145
-0.0068794801 -0.026349677 -0.00029915525 -0.8585071 -0.42337373 -0.28934449 0.0046271533
-0.0084394794 -0.022667639 -0.00024848711 -0.93344527 -0.20909011 -0.29148105 0.0059141717
-0.0087325517 -0.019846579 9.4721094e-05 -0.94190955 0.0080705443 -0.3357698 0.0010368883
-0.0083107408 -0.0167835 -0.00018154364 -0.91903013 0.14761935 -0.36550266 0.00080855913
-0.0079894867 -0.013807298 0.00061912416 -0.89189327 0.23161256 -0.38843527 0.00059746462
-0.0071951929 -0.01339387 -0.00088794483 -0.88096023 0.2571682 -0.39720726 0.00035863338
-0.006548557 -0.010715378 -0.00031969883 -0.85224783 0.33181441 -0.40444145 0.00056121452
-0.0053989608 -0.0079808906 -0.000254896 -0.82490414 0.4044756 -0.39488307 0.00045939657
-0.0044469959 -0.0073507042 -0.0015620585 -0.82397896 0.41393238 -0.38693503 0.00050424819
-0.0046251854 -0.0058072158 0.0004206826 -0.80644113 0.43746257 -0.39784315 0.00016530101
-0.0033826847 -0.0044327853 -0.00038364995 -0.77636796 0.49184951 -0.39412802 0.0012013128
-0.0020160915 -0.0024493346 -0.00015436579 -0.67920208 0.64009708 -0.35911044 0.0046847928
-3.7677586e-05 -0.0012819825 -0.00044208998 -0.39153096 0.85539103 -0.33913073 0.0024913352
0.0023322052 -0.00056338403 -0.00072148396 -0.25822869 0.91698974 -0.30405244 0.000985611
0.01704265 -0.00056599668 -0.0011212225 0.17099814 0.97738159 -0.12443806 0.00084316527
0.0031804887 1.2205623e-05 0.00047518359 -0.21884383 0.93617934 -0.2750921 0.00060699997
0.0058755288 0.00036280387 -7.8681391e-05 -0.15630883 0.95469129 -0.25324309 0.00071288401
0.0091253109 0.0005677552 -0.00087010814 -0.071500212 0.97511452 -0.20985574 0.0011184145
0.01195245 0.00056587765 -0.0010764417 0.069604434 0.97943342 -0.18938175 0.005283569
0.014638111 0.0003923864 0.00068022823 0.13568877 0.97649103 -0.16749221 0.0024792068
-0.0083219558 -0.025067898 0.0024228995 -0.92126638 -0.27130425 -0.27867925 0.0025492683
-0.0093320515 -0.022712175 0.0025896817 -0.92766917 -0.2098942 -0.30882737 0.0027382539
-0.0098362789 -0.019714285 0.0030892282 -0.94425565 -0.043655679 -0.32630572 0.0018938984
-0.0095072426 -0.016729966 0.002743307 -0.91861647 0.1075512 -0.38023221 0.0013237371
-0.0089927595 -0.013723736 0.0028954311 -0.89007521 0.22330755 -0.39736617 0.0005704505
-0.0083036367 -0.011049281 0.0031405571 -0.86315739 0.29735294 -0.40809363 0.00037973729
-0.0073547591 -0.01022788 0.0017530131 -0.8568424 0.31575906 -0.40757477 0.00041589359
-0.0079810787 -0.0091177579 0.0039366786 -0.84169334 0.35221493 -0.40926379 0.00010971538
-0.0067092781 -0.0078633167 0.002539543 -0.82464552 0.38106206 -0.41803285 0.00038987395
-0.0053019961 -0.0048619118 0.002820903 -0.77995837 0.47566316 -0.40670574 0.0014274503
-0.0039410633 -0.0033946394 0.0019375687 -0.69419706 0.59560031 -0.40416652 0.0052772914
-0.0045444551 -0.0028225093 0.0037857597 -0.70517075 0.58005261 -0.40776607 0.0028858243
-0.0028114892 -0.0016822792 0.0026099873 -0.60099006 0.68737757 -0.4078272 0.00955493
-0.00052276254 -0.00054646621 0.0018775868 -0.35750055 0.87184131 -0.33479249 0.0026762064
0.00022634258 0.00012922444 0.0032460843 -0.31230971 0.89547491 -0.31715518 0.0031494191
0.0028945147 0.00060115167 0.0027476554 -0.1897534 0.94123816 -0.27940008 0.00052083435
0.0058291438 0.0010896714 0.00269998 -0.11705203 0.95718002 -0.26477373 0.00068644842
0.0091593787 0.0011611045 0.0017503207 -0.027020324 0.9739598 -0.22510464 0.0011568525
0.012020625 0.0011676224 0.0023767953 0.074559957 0.98076016 -0.18041705 0.0038348252
0.014895659 0.00060603925 0.0033314233 0.19009957 0.97001916 -0.15141046 0.0020716966
-0.0091457292 -0.024603864 0.0046359901 -0.92515951 -0.2421959 -0.29226866 0.0018907058
-0.01094087 -0.021834349 0.0069551473 -0.92398256 -0.23499337 -0.30171892 0.0014366055
-0.010087691 -0.022920541 0.0054438957 -0.92137122 -0.24093893 -0.30499759 0.0022238877
-0.010914277 -0.019787647 0.0061379629 -0.94360429 -0.072706923 -0.32299337 0.0022704462
-0.010286413 -0.020584241 0.0044515333 -0.93155897 -0.091049075 -0.35200563 0.005660004
-0.010915738 -0.016624775 0.0061828499 -0.92914075 0.054394457 -0.36570299 0.00093228091
-0.010292541 -0.016578656 0.0046476726 -0.91687208 0.080332026 -0.39101446 0.0012375959
-0.010938542 -0.014341256 0.0068835723 -0.90239513 0.17836355 -0.39226198 0.0007456867
-0.010101832 -0.013515524 0.0054266308 -0.88946062 0.20197311 -0.40995932 0.00048047228
-0.0095664002 -0.010820327 0.0059150117 -0.86664855 0.27310729 -0.41753161 0.00040012752
-0.0085023083 -0.008045027 0.0058739246 -0.83109945 0.36282018 -0.4214679 0.00046362847
-0.0074251802 -0.0071200938 0.0046003019 -0.82624722 0.37496257 -0.42037904 0.00053093885
-0.0077075814 -0.0054676742 0.0067006056 -0.79203016 0.42398441 -0.43923268 0.00055995246
-0.0065341438 -0.0046856282 0.0053179744 -0.78734112 0.44007689 -0.43177122 0.00048583339
-0.0051608705 -0.0019302007 0.0060361144 -0.69345438 0.57818884 -0.4299055 0.0027954662
-0.0036116797 -0.00090794108 0.0050594364 -0.506266 0.76039612 -0.40680766 0.0055971313
-0.0026470632 0.00027235009 0.0061349613 -0.42817801 0.80870831 -0.4033044 0.0075700069
-0.00011187582 0.00094855233 0.0058282786 -0.26321775 0.90721178 -0.32815129 0.0025545666
0.0027623833 0.0015223681 0.0057325498 -0.16756056 0.93493837 -0.31275156 0.00030812348
0.0062809289 0.0020075578 0.0057228631 -0.084875666 0.95883667 -0.27097651 0.0010128851
0.0092099831 0.0020636339 0.0055956007 0.049867742 0.97356308 -0.22290827 0.0029863382
0.011795731 0.0017753856 0.0055760522 0.15300727 0.97229135 -0.17674357 0.0050559794
0.013801161 0.0011991353 0.0054035787 0.19657128 0.96675599 -0.16353163 0.0029450285
-0.011288982 -0.02219878 0.0087577403 -0.92288172 -0.25262308 -0.29063877 0.001066701
-0.010390915 -0.023601418 0.0077965264 -0.9281823 -0.24962972 -0.27597564 0.0012885041
-0.011832168 -0.019462705 0.0086512994 -0.93516439 -0.13573125 -0.32717666 0.0035561421
-0.011860883 -0.016695853 0.0085533112 -0.92783415 0.041659191 -0.37065932 0.00041012207
-0.011687988 -0.01375951 0.0088722985 -0.90806025 0.15019365 -0.39098397 0.00097623235
-0.011229683 -0.011139696 0.0091477707 -0.87697649 0.24067436 -0.41591835 0.00054248061
-0.010394514 -0.010324132 0.0079117119 -0.86360592 0.26113495 -0.4312695 0.0005148584
-0.010749592 -0.0083261337 0.0099934638 -0.83951956 0.33414602 -0.4284313 0.00064862042
-0.0098380856 -0.0078763664 0.0086003859 -0.83067358 0.34693053 -0.43545461 0.00050227268
-0.0084798411 -0.0047995322 0.0087877363 -0.80154932 0.41695997 -0.42855924 0.00068338483
-0.0069164927 -0.0033946394 0.007352591 -0.77384508 0.46210974 -0.43314928 0.0002370693
-0.0077434243 -0.0026215969 0.0096461773 -0.73874754 0.49943888 -0.45256272 0.0010732985
-0.0063200085 -0.0014178327 0.0086172353 -0.66935253 0.58757687 -0.45466551 0.0070933211
-0.0050306525 0.00046740379 0.0092618857 -0.53156918 0.74398202 -0.40487638 0.011958576
-0.0029540723 0.0013412705 0.0088889711 -0.39957419 0.8213641 -0.40706459 0.0071467953
0.00012152689 0.0020705338 0.0087795518 -0.20134196 0.91413385 -0.35188165 0.00053058448
0.0028865295 0.0023844005 0.0082316156 -0.14839399 0.93332911 -0.32691881 0.00032636945
0.004907107 0.0023733766 0.0073842411 -0.062058885 0.95607048 -0.28649229 0.00089505775
0.011997299 0.0022446678 0.0086085871 0.29361174 0.94398379 -0.15062106 0.003320629
0.014462477 0.001235822 0.0089249611 0.26872605 0.95372152 -0.13491313 0.0028674814
0.0031747723 0.0029858293 0.0098746046 -0.12673718 0.94098932 -0.31380999 0.0005261926
0.0060698786 0.0029734517 0.0090103447 -0.027924547 0.96194488 -0.27181306 0.00095634122
0.0092584211 0.0029771212 0.0092662461 0.12815452 0.96753043 -0.21785629 0.003604122
-0.012060901 -0.022025269 0.011541644 -0.93209237 -0.23187424 -0.27827725 0.0013185043
-0.013472825 -0.018580412 0.012968123 -0.94387221 -0.13184462 -0.30285689 0.0044457479
-0.01273822 -0.019889142 0.011492884 -0.93512207 -0.16079715 -0.31573883 0.0026003886
-0.013460886 -0.016964773 0.012651868 -0.9368313 -0.034983173 -0.34802765 0.0016636197
