# .PCD v0.7 - Point Cloud Data file format
VERSION 0.7
FIELDS x y z normal_x normal_y normal_z curvature
SIZE 4 4 4 4 4 4 4
TYPE F F F F F F F
COUNT 1 1 1 1 1 1 1
WIDTH 560
HEIGHT 1
VIEWPOINT 0 0 0 1 0 0 0
POINTS 560
DATA ascii
0.03439907 0.055928342 -0.024947219 0.19660161 -0.62057507 -0.75910109 0.0031385701
0.037433941 0.05658482 -0.024473021 0.35955557 -0.59873211 -0.71570909 0.0028059694
0.017348254 0.058071531 -0.024752751 -0.27500471 -0.38483265 -0.88106537 0.0036983669
0.019975591 0.058313102 -0.025666827 -0.2245854 -0.33719739 -0.91425341 0.0029131228
0.022707272 0.058368143 -0.026339434 -0.18249813 -0.3540003 -0.91726679 0.0029488297
0.025623731 0.057774447 -0.02658245 -0.11065799 -0.39966875 -0.90995586 0.002961695
0.028372809 0.057659701 -0.026710127 -0.025305318 -0.41820484 -0.90800017 0.0027818237
0.031571701 0.057717323 -0.026640117 0.074253015 -0.46353436 -0.88296229 0.002789116
0.034750767 0.058088962 -0.026378034 0.19046509 -0.46752095 -0.86321914 0.0023228454
0.037463579 0.058557566 -0.025796356 0.34456044 -0.45264798 -0.82242799 0.0048054471
0.040182795 0.058909651 -0.02473822 0.45883769 -0.49293703 -0.73924351 0.0026500095
0.04207034 0.059865486 -0.02413751 0.58015513 -0.46864745 -0.66617537 0.0035521225
0.016374109 0.061254334 -0.024886535 -0.38323969 -0.023574267 -0.92334807 0.0050450172
0.019528924 0.061581485 -0.026039455 -0.33017629 -0.045152627 -0.94283879 0.003337021
0.021367749 0.062633179 -0.026795736 -0.27518386 -0.051956758 -0.95998669 0.0042353119
0.038171176 0.060947973 -0.026687689 0.34725448 -0.3040759 -0.88710326 0.0035251398
0.040627588 0.061515141 -0.02574203 0.44255078 -0.28228047 -0.851156 0.0029220432
0.042724922 0.061946694 -0.024569131 0.5823524 -0.31385976 -0.74990511 0.0034163638
0.016774245 0.064109124 -0.024754947 -0.40706253 0.20450774 -0.89021158 0.0028010148
0.019642875 0.064585038 -0.025863497 -0.36911279 0.18938519 -0.90988404 0.0014541426
0.022108046 0.064927854 -0.026708541 -0.31651166 0.1894955 -0.92946863 0.002353891
0.040730305 0.064473674 -0.026335247 0.43827087 -0.06024684 -0.89682162 0.0036566863
0.043225151 0.06453342 -0.024802702 0.58969045 -0.079786941 -0.80367851 0.0045860899
0.016963432 0.066223249 -0.024194689 -0.41908604 0.38894758 -0.82041866 0.0021247182
0.019511707 0.067324169 -0.024878271 -0.36611289 0.42702389 -0.82680833 0.0038581758
0.022386607 0.067407578 -0.02603198 -0.31282821 0.35071734 -0.88268679 0.001759958
0.025011387 0.068241894 -0.026566399 -0.25193051 0.35344201 -0.90089393 0.0025354838
0.027398471 0.068785571 -0.026946049 -0.1757863 0.3339943 -0.92603838 0.0027312736
0.038482115 0.068180978 -0.026882561 0.29519543 0.21405078 -0.93115079 0.0046144039
0.040641174 0.067515105 -0.026152777 0.41319823 0.19713548 -0.88904715 0.0039215796
0.043160409 0.067389593 -0.024712766 0.56949997 0.16926572 -0.80437487 0.0049624057
0.020535648 0.069141112 -0.024330569 -0.37985677 0.51505649 -0.76839161 0.0011996001
0.022764049 0.069946237 -0.024818443 -0.34140071 0.56596476 -0.7504195 0.00256148
0.025547588 0.070438959 -0.02550401 -0.27034768 0.54642737 -0.79267222 0.004093478
0.028377855 0.070601434 -0.026154758 -0.18351009 0.49779114 -0.84766036 0.0020220722
0.031518839 0.070991591 -0.026419984 -0.062205926 0.50528717 -0.86070633 0.0026293986
0.034570355 0.070832103 -0.026524609 0.11971851 0.47853878 -0.86986673 0.005322488
0.037686873 0.070530824 -0.026127413 0.23090167 0.4376654 -0.8689841 0.0024505334
0.040543448 0.070445366 -0.02511692 0.39373651 0.4334394 -0.81061822 0.0047717858
0.042647827 0.069671564 -0.024342328 0.5259068 0.39660963 -0.75241137 0.0038376946
0.026110278 0.072384335 -0.024188103 -0.28235391 0.67363948 -0.68299794 0.0020383776
0.028775884 0.072743125 -0.024702072 -0.19332902 0.66396064 -0.72234356 0.0020350064
0.031611837 0.072970882 -0.024999864 -0.077155873 0.64145303 -0.76327258 0.0031863942
0.034799978 0.073202968 -0.024851372 0.12043905 0.62754595 -0.76920766 0.0037024997
0.037527692 0.072796322 -0.024691878 0.22510052 0.61914343 -0.75232381 0.003178363
0.039834436 0.072344817 -0.024237983 0.36108097 0.59802008 -0.71553659 0.0038040855
0.032312769 -0.075700618 -0.021493632 -0.022552064 -0.7773034 -0.62872165 0.0022374936
0.034566965 -0.075480863 -0.021846782 0.061269231 -0.80171692 -0.59455526 0.0020663831
0.037363313 -0.075457618 -0.021260213 0.24661726 -0.78962737 -0.56184393 0.0036727623
0.031309795 -0.074009933 -0.023515463 -0.032502566 -0.72699302 -0.68587512 0.0043065031
0.034990657 -0.074536785 -0.023019373 0.10505514 -0.72698653 -0.67856771 0.0049934248
0.037996426 -0.07389465 -0.023031736 0.25735161 -0.7099399 -0.65555733 0.0030626231
0.040848151 -0.073019244 -0.022517541 0.4482775 -0.62811822 -0.63601476 0.003718337
0.042962842 -0.072446525 -0.021680128 0.52854007 -0.61817771 -0.58180904 0.0026127882
0.041589171 -0.071386009 -0.023699749 0.44694513 -0.52900892 -0.72138035 0.0057814019
0.043667153 -0.07042069 -0.02274701 0.5973531 -0.43296579 -0.67506284 0.0032708792
0.045469403 -0.069766849 -0.021460176 0.69328982 -0.41961235 -0.58589655 0.0045855553
0.044505063 -0.067677259 -0.023424312 0.68845361 -0.19226472 -0.69933248 0.0046949447
0.045981333 -0.067327 -0.021955108 0.7644127 -0.18730478 -0.61691988 0.0053089359
0.044645924 -0.064511411 -0.023629995 0.69911778 0.059297513 -0.71254349 0.00398053
0.046065252 -0.06441205 -0.022056406 0.78076148 0.075182281 -0.62028956 0.0043965774
0.012856051 -0.060460716 -0.023196042 -0.37119535 0.17054865 -0.91275805 0.0026665221
0.044128288 -0.061203018 -0.023187479 0.68182015 0.29370093 -0.66997093 0.0032893417
0.045610264 -0.061662216 -0.021751955 0.75002205 0.29192501 -0.59350377 0.0031961298
0.011504065 -0.057399195 -0.022194698 -0.40294772 0.3139433 -0.85969347 0.0039085918
0.013418263 -0.058313757 -0.023292022 -0.37766504 0.25009909 -0.89152652 0.0039767278
0.041300505 -0.057703722 -0.02348241 0.52398425 0.54606122 -0.65364957 0.0023728078
0.043361902 -0.058620125 -0.022296542 0.63241512 0.4500103 -0.63050926 0.0019080671
0.045126867 -0.059584513 -0.02108109 0.69321376 0.45473501 -0.55916977 0.0028546664
0.011124369 -0.055507164 -0.021346157 -0.37560892 0.41548666 -0.82842547 0.0019502451
0.013574994 -0.055374365 -0.022439688 -0.35527763 0.42487216 -0.83262324 0.0023835073
0.016325226 -0.055145811 -0.023406034 -0.29495478 0.43140608 -0.85257876 0.0052649761
0.018892387 -0.054458827 -0.0238149 -0.15056726 0.62492478 -0.76602775 0.0023431219
0.035120357 -0.05425458 -0.023584172 0.20280454 0.71032238 -0.67402703 0.0013905411
0.037840825 -0.054845814 -0.02302563 0.34516355 0.6925382 -0.6334452 0.0022196283
0.040458713 -0.055728462 -0.022261493 0.45741129 0.64538664 -0.61176062 0.0021370437
0.042475317 -0.056575846 -0.02138943 0.59870714 0.55918211 -0.57346773 0.0019054925
0.01400343 -0.053264391 -0.021419609 -0.30363604 0.56514418 -0.76708359 0.0021885259
0.016580559 -0.052673511 -0.021809671 -0.1733555 0.68793124 -0.70476836 0.0025837598
0.019310517 -0.052231658 -0.022049891 -0.093713872 0.73735428 -0.66897416 0.0020914695
0.022897519 -0.051953729 -0.02217122 -0.06252183 0.7440303 -0.66521418 0.0024071399
0.02559272 -0.052113082 -0.022485858 -0.017672449 0.75694466 -0.65324003 0.0028598094
0.028514907 -0.05226928 -0.022537971 0.05541439 0.77039653 -0.63515234 0.0021326989
0.031568486 -0.052695308 -0.02263777 0.12375925 0.76508677 -0.63192225 0.0010711415
0.03444634 -0.052946817 -0.022228571 0.2083737 0.7539981 -0.62295043 0.0009455877
0.037225567 -0.05344959 -0.021696201 0.33499867 0.73238075 -0.59278524 0.00091174903
0.014453019 0.053858586 -0.021660518 -0.19962005 -0.67412263 -0.71113324 0.0010370802
0.016484912 0.053036999 -0.021657214 -0.19383077 -0.66933167 -0.71723413 0.0028168438
0.019645199 0.052878775 -0.022250734 -0.13461104 -0.68065161 -0.7201342 0.0029252069
0.02273532 0.052798837 -0.022590287 -0.058097586 -0.74626845 -0.66310483 0.0021750163
0.025591016 0.052600652 -0.022485223 -0.0010498312 -0.77449846 -0.63257498 0.0020166105
0.028469216 0.05269292 -0.022455536 0.053716537 -0.78612411 -0.61573005 0.00057385
0.031445295 0.052955553 -0.022409782 0.11552402 -0.77725166 -0.61849338 0.00074787735
0.034473903 0.053233705 -0.022003131 0.20953071 -0.76378512 -0.61051553 0.00091453351
0.037491929 0.053725574 -0.021294901 0.37774646 -0.72508347 -0.57581383 0.001239054
0.010047121 0.056943905 -0.021181846 -0.43783885 -0.31191602 -0.84321141 0.011683819
0.013513532 0.055270012 -0.022135513 -0.35125309 -0.44932237 -0.82141995 0.0021033634
0.016673658 0.055264786 -0.023303926 -0.25872168 -0.49644226 -0.82861823 0.0035079825
0.019291941 0.054666974 -0.023700807 -0.17726646 -0.56067175 -0.80884099 0.0043216757
0.021044552 0.054368597 -0.023909645 -0.15671943 -0.60568029 -0.7801221 0.0085706189
0.032084465 0.054112799 -0.023722742 0.10774413 -0.72773051 -0.67734748 0.0018938286
0.034809627 0.054521084 -0.02347254 0.20405708 -0.73324519 -0.64862329 0.00097546622
0.037798289 0.055234689 -0.022955358 0.35950679 -0.67835093 -0.64077675 0.0024810894
0.040336106 0.055958275 -0.022105306 0.46844155 -0.64276391 -0.60614932 0.0020515064
0.042277973 0.056843508 -0.021390745 0.56740284 -0.58544284 -0.57906026 0.0029162935
0.011326312 0.057734031 -0.022084959 -0.469439 -0.19525248 -0.86110598 0.0084552728
0.013294009 0.058385685 -0.023174487 -0.40636569 -0.16191815 -0.89924943 0.0051205209
0.041181732 0.057942208 -0.02337718 0.49464324 -0.51250368 -0.70190316 0.0030578729
0.043203879 0.058709782 -0.02216281 0.62975729 -0.48456949 -0.60712272 0.0022553338
0.011936488 0.062905073 -0.022460971 -0.50693619 0.1768491 -0.84364688 0.0057508014
0.013091034 0.061388772 -0.023301557 -0.45976508 0.052428335 -0.8864916 0.0027937852
0.044017363 0.061201993 -0.02305074 0.64693356 -0.34242705 -0.68133742 0.0036802574
0.045576796 0.061876904 -0.021675313 0.73737109 -0.33477303 -0.58669484 0.0027678844
0.011380171 0.064016066 -0.021744795 -0.53694504 0.31456253 -0.78277743 0.003081975
0.013793642 0.06489668 -0.022908648 -0.50585639 0.35259014 -0.78726715 0.0042818962
0.01528525 0.065455116 -0.02360544 -0.43423823 0.30694064 -0.84689116 0.0053399056
0.044634286 0.064320661 -0.023571171 0.71762532 -0.096836291 -0.68966419 0.0038387452
0.045965683 0.064531766 -0.022141865 0.77870184 -0.1130999 -0.61711574 0.0045038317
0.014140878 0.067140117 -0.021954073 -0.49920827 0.4698233 -0.72805029 0.00059973187
0.016686331 0.067580819 -0.023254303 -0.46065509 0.44201979 -0.76968527 0.0026823105
0.018593114 0.068828002 -0.023528865 -0.44595248 0.55296683 -0.70381403 0.0023002499
0.044558365 0.067723043 -0.02351064 0.69989997 0.14862469 -0.69860631 0.0041562137
0.045949761 0.06734813 -0.0221228 0.76605296 0.15005957 -0.62501591 0.0057386868
0.017152566 0.06904722 -0.022483967 -0.43857992 0.56620139 -0.69789952 0.0020646891
0.019551929 0.070455439 -0.022623474 -0.40698355 0.61835414 -0.67231143 0.0018599118
0.022590788 0.071496725 -0.02340393 -0.35289013 0.68229002 -0.64027256 0.001390732
0.041741982 0.071728207 -0.023692468 0.42575365 0.59870046 -0.6784479 0.0033677837
0.04385851 0.070683099 -0.022741487 0.60876518 0.39950648 -0.6854192 0.0041659581
0.045534205 0.069805905 -0.021673238 0.69288862 0.39466605 -0.6034435 0.0041037709
0.022498034 0.0728034 -0.021818906 -0.35695848 0.7092942 -0.60785067 0.00064181909
0.025366992 0.073518179 -0.022532567 -0.29209366 0.73459303 -0.6124168 0.0004412733
0.028439233 0.074217364 -0.023039073 -0.2129633 0.74751848 -0.62917626 0.0011611293
0.031723298 0.074680164 -0.023318896 -0.042959664 0.73510432 -0.67659158 0.0041137775
0.034713581 0.074615575 -0.023485795 0.061005842 0.7423684 -0.66720873 0.0031180833
0.038039118 0.07413701 -0.023270687 0.24556558 0.69540352 -0.67536032 0.0028955285
0.040716846 0.073495261 -0.022609526 0.36083174 0.685615 -0.63224405 0.0027119704
0.04303655 0.072775282 -0.021699009 0.54519051 0.61861122 -0.5657627 0.002752546
0.028713426 0.075419746 -0.021623524 -0.21416372 0.77061528 -0.60023838 0.001008814
0.03224203 0.076061621 -0.021603443 -0.023642816 0.80293524 -0.59559715 0.0015748064
0.034627795 0.075856492 -0.021937702 0.072735421 0.79943454 -0.5963338 0.0019160392
0.037581798 0.075538389 -0.021720296 0.2429422 0.77100307 -0.58867085 0.0030320373
0.039633654 0.075185545 -0.021238402 0.35610065 0.74700141 -0.56141007 0.002417702
0.031956483 -0.076977812 -0.01953478 0.03355936 -0.84168935 -0.5389182 0.001605565
0.034543719 -0.076886125 -0.019678235 0.10053408 -0.86091495 -0.49871671 0.001323387
0.037659008 -0.076496243 -0.01942079 0.2369695 -0.8416906 -0.48518297 0.0016418486
0.040469419 -0.075467207 -0.01945566 0.38535219 -0.79947162 -0.46081316 0.0026908861
0.042183217 -0.075303562 -0.018199032 0.45082355 -0.7753343 -0.44228378 0.0034956897
0.041608684 -0.074751347 -0.019708006 0.40388995 -0.780909 -0.47650182 0.0023682236
0.043703932 -0.07333637 -0.019584313 0.58079541 -0.68271118 -0.44337595 0.0035447001
0.045497078 -0.072335579 -0.018692849 0.69249046 -0.6111396 -0.38336059 0.0040021446
0.044826299 -0.071429089 -0.020886725 0.65067554 -0.47954869 -0.58877373 0.005430243
0.046455372 -0.070354372 -0.019466095 0.78874898 -0.43888631 -0.43041122 0.0047330465
0.047370862 -0.067603678 -0.019836798 0.86265725 -0.17784712 -0.47349006 0.0048324573
0.048215806 -0.066965401 -0.018440906 0.90321082 -0.16480094 -0.39629644 0.0061029643
0.047519218 -0.064417623 -0.019872149 0.86787111 0.070594393 -0.49174786 0.0045684692
0.048239153 -0.064531974 -0.018478658 0.91724688 0.08713901 -0.38867089 0.0052384324
0.046940763 -0.061461356 -0.019542448 0.83926499 0.28985342 -0.46002093 0.0021310851
0.048104241 -0.062636122 -0.018201198 0.88017875 0.25163838 -0.40244681 0.0045423633
0.044433951 -0.057683662 -0.020208715 0.67608237 0.53349346 -0.50822955 0.0023920967
0.045806568 -0.058818668 -0.019214066 0.75893795 0.47481143 -0.44560879 0.0019223405
0.0075416476 -0.055060524 -0.019195497 -0.4359417 0.41839734 -0.7968052 0.0011130116
0.0095421132 -0.055077933 -0.020361578 -0.38423589 0.45368657 -0.80407172 0.0012708078
0.041232631 -0.054600667 -0.020274285 0.51898354 0.66434103 -0.53787273 0.0022268752
0.043317612 -0.05574891 -0.019329069 0.64592576 0.61383063 -0.45386326 0.0015827402
0.045174111 -0.05692726 -0.018147556 0.70247734 0.56456697 -0.4333472 0.0013116567
0.0079324665 -0.052998167 -0.018376196 -0.41183117 0.5031482 -0.7597611 0.0024123162
0.010625814 -0.052397504 -0.019325711 -0.35126653 0.53444105 -0.76875526 0.0030139817
0.01340225 -0.051960222 -0.020120699 -0.27377114 0.59444398 -0.75609905 0.0048280568
0.01626098 -0.051287744 -0.020397339 -0.15692087 0.74327034 -0.65032691 0.0021784836
0.019097183 -0.051148869 -0.020855967 -0.094861604 0.77299774 -0.62727642 0.0025351113
0.02175428 -0.051010493 -0.020967646 -0.028638406 0.79442316 -0.60668916 0.0013199106
0.028446771 -0.051083941 -0.020879306 0.055271506 0.81180543 -0.58130622 0.00023569808
0.031706348 -0.051254358 -0.020696111 0.11257851 0.80290616 -0.58537829 0.00031162085
0.034889132 -0.051574711 -0.020293845 0.20901118 0.78805959 -0.57903057 0.00077202491
0.037654325 -0.052057534 -0.019606832 0.33311936 0.76481026 -0.55144978 0.0015641843
0.040230397 -0.053142395 -0.019188195 0.47686225 0.71435553 -0.51215094 0.0016937241
0.04222963 -0.053851321 -0.01825472 0.5593549 0.6911757 -0.45760056 0.0016977957
0.011820353 -0.050660998 -0.018341118 -0.28821605 0.69005406 -0.66389525 0.0025459493
0.014032972 -0.050311904 -0.018654879 -0.16843642 0.76605469 -0.62031406 0.0015283156
0.016657449 -0.050117541 -0.019011974 -0.11977325 0.79208714 -0.5985418 0.0014087523
0.019977534 -0.049890686 -0.019122012 -0.061344009 0.81538749 -0.57565635 0.00081707357
0.022522954 -0.050039623 -0.019505134 -0.023946742 0.82482618 -0.56487894 0.00036441264
0.025491945 -0.050062839 -0.019518398 0.014816529 0.83146054 -0.55538619 0.00010354481
0.028557926 -0.050027926 -0.019322552 0.051721822 0.83187228 -0.55255169 8.0970938e-05
0.031547662 -0.050236579 -0.019281721 0.10686381 0.82206589 -0.55927426 0.00033266758
0.034375239 -0.050438236 -0.018869508 0.20360963 0.80994231 -0.55003327 0.00091022888
0.036591303 -0.050714567 -0.018319581 0.32182434 0.78904003 -0.52330196 0.00088528619
0.013893378 0.050693862 -0.01842789 -0.17339055 -0.76185542 -0.62410897 0.0020377415
0.016526531 0.050330602 -0.018581454 -0.12521574 -0.7964108 -0.59165102 0.0015108751
0.019395683 0.050424166 -0.01912313 -0.064555973 -0.81765741 -0.57207417 0.0006190947
0.022359416 0.050371505 -0.019247539 -0.027463553 -0.82175976 -0.56917185 0.00038400613
0.025493354 0.050210997 -0.019039396 0.013260133 -0.8357563 -0.54894042 7.6942786e-05
0.028466526 0.050328732 -0.019093907 0.048835095 -0.83204693 -0.55255133 0.00011420137
0.031506896 0.050396882 -0.018824678 0.10265248 -0.82643706 -0.55359221 0.00032198767
0.034225434 0.050633185 -0.018526034 0.21294059 -0.81241673 -0.54280317 0.00093363877
0.01111648 0.05229637 -0.019047631 -0.29138035 -0.65275139 -0.69929475 0.0036807959
0.013517362 0.052138135 -0.019853622 -0.22077595 -0.70191264 -0.67718291 0.0037786169
0.016580731 0.051616807 -0.020256035 -0.14423208 -0.74711347 -0.64885944 0.0019549248
0.019521648 0.051404875 -0.020587962 -0.094312638 -0.77414519 -0.62594277 0.0012653583
0.022431407 0.051240519 -0.020576239 -0.03255932 -0.81277776 -0.58166325 0.00055218057
0.025702791 0.051235795 -0.020572778 0.0073532509 -0.80744189 -0.58990127 0.00029590793
0.028637875 0.051289946 -0.020487862 0.051835027 -0.81752348 -0.57355773 0.00016529084
0.031666666 0.05142821 -0.020281862 0.10959239 -0.80486482 -0.58325136 0.00025503221
0.034601428 0.051735021 -0.019956622 0.21170504 -0.79595852 -0.56712526 0.00092383428
0.037623551 0.052450284 -0.019496903 0.37192217 -0.75790507 -0.53596073 0.0011556172
0.040164784 0.053391781 -0.018950844 0.47260952 -0.72458774 -0.50161022 0.0012208541
0.010376669 0.054876506 -0.020510066 -0.43185884 -0.36531219 -0.82464838 0.010954754
0.041076917 0.054822132 -0.020083345 0.4778924 -0.70436317 -0.52487266 0.0019828987
0.043171626 0.055964094 -0.019193286 0.62606543 -0.62580103 -0.46520439 0.0015469757
0.0084669627 0.05946517 -0.020646635 -0.55707222 0.021887019 -0.83017558 0.010271999
0.044382602 0.057926621 -0.019989982 0.71495503 -0.51856899 -0.46896222 0.0018219618
0.045671146 0.058982 -0.019133432 0.73875809 -0.48948148 -0.46329725 0.0015953403
0.0082515515 0.060436904 -0.020481884 0.58096784 -0.020154528 0.81367701 0.010729462
0.046753217 0.0614319 -0.019519256 0.82057846 -0.34460592 -0.45595801 0.0026164288
0.0085356347 0.064680956 -0.019396411 -0.55608433 0.33369914 -0.76119322 0.0049510282
0.0091245929 0.064544387 -0.019818934 -0.55607575 0.33367661 -0.76120937 0.0049545323
0.047442112 0.06441313 -0.019909762 0.8691237 -0.13813584 -0.47491312 0.0041225529
0.048230574 0.06474036 -0.018438395 0.9073171 -0.12709326 -0.40077811 0.0043850197
0.011542424 0.067602925 -0.019669829 -0.48353603 0.48309267 -0.72994137 0.0033092098
0.013522361 0.068419591 -0.02047525 -0.49062729 0.51466942 -0.70313603 0.0031286939
0.047402013 0.067637496 -0.01996354 0.86441755 0.14187267 -0.48234269 0.0047926479
0.048244119 0.067273095 -0.018419331 0.90606982 0.16010213 -0.39166906 0.0057211425
0.014754005 0.069091417 -0.020747043 -0.44644469 0.61500734 -0.64996397 0.0040351129
0.016313605 0.070698924 -0.020032085 -0.43636328 0.67558593 -0.59428179 0.0015935126
0.04495291 0.071843565 -0.020643391 0.60324937 0.6029622 -0.52204102 0.0033561562
0.046634238 0.070454918 -0.019522112 0.80096912 0.39106509 -0.45333931 0.0041626706
0.017149327 0.072389327 -0.018488823 -0.42388895 0.71591091 -0.55478811 0.00021150945
0.020496493 0.073368728 -0.019730544 -0.39335579 0.72953308 -0.55951124 0.00020832292
0.022886515 0.074389935 -0.019979782 -0.35363126 0.74317551 -0.56800985 0.00015731754
0.024658363 0.074648403 -0.020693807 -0.31841382 0.74643719 -0.58433229 0.00046200718
0.041566879 0.074785054 -0.020501668 0.41731533 0.74732178 -0.51706672 0.0029554293
0.043792319 0.073714264 -0.019661434 0.57282615 0.69280559 -0.43805328 0.0031131029
0.045593988 0.072613902 -0.018812349 0.69075894 0.58964789 -0.41853008 0.0042252964
0.023210084 0.075532503 -0.018698622 -0.35890535 0.75441122 -0.54959136 0.00010617123
0.025887944 0.076033562 -0.019595645 -0.29451171 0.76910281 -0.56722456 0.00035900826
0.028830243 0.07694076 -0.019602992 -0.17059001 0.8181957 -0.54904902 0.00082354329
0.031832092 0.077248096 -0.019844672 -0.034939367 0.84424233 -0.53482163 0.0011152808
0.034672707 0.077311561 -0.019688873 0.086639039 0.85452235 -0.51213789 0.0013118912
0.038092028 0.076751672 -0.019537834 0.28408474 0.82510012 -0.48837042 0.0020621119
0.040597863 0.075871624 -0.019416045 0.38995969 0.78977948 -0.47347641 0.0024309251
0.042599499 0.075233519 -0.018616691 0.49540192 0.75299305 -0.43310326 0.0022488274
0.031793281 0.078196689 -0.018312469 0.004231079 0.86962593 -0.49369308 0.0011889571
0.03489995 0.078121826 -0.018237866 0.11057232 0.87558222 -0.4702442 0.0018114591
0.036150318 0.07807117 -0.018016187 0.16974108 0.8781594 -0.44724047 0.0026359067
0.031388659 -0.078702718 -0.016530644 0.07676734 -0.89195269 -0.445564 0.0015209015
0.034424853 -0.078586332 -0.016494364 0.12049485 -0.90053517 -0.41775289 0.0016407074
0.037246291 -0.078272492 -0.015950538 0.27218699 -0.88973373 -0.36645341 0.0032821896
0.037756104 -0.077572174 -0.017223444 0.25021106 -0.88220274 -0.39888945 0.0022460765
0.040432662 -0.077062979 -0.016145766 0.43392187 -0.83811843 -0.33055899 0.005140983
0.043451071 -0.075476341 -0.015561956 0.62607479 -0.74712449 -0.2232382 0.0055432208
0.044181094 -0.07449726 -0.016821392 0.6453352 -0.71770704 -0.26160854 0.0041560936
0.045924488 -0.072983511 -0.016324311 0.75339341 -0.61637247 -0.22909233 0.0045956094
0.047419358 -0.070719346 -0.016787574 0.86032379 -0.46801466 -0.20200288 0.0046638953
0.048208673 -0.069511391 -0.016005121 0.90324169 -0.39174697 -0.17518218 0.007420687
0.047984321 -0.068926059 -0.017388236 0.90024066 -0.37395191 -0.22299507 0.0097645121
0.048660923 -0.067425467 -0.016542682 0.97059739 -0.16702402 -0.17333144 0.0052872621
0.048829529 -0.064430952 -0.016470544 0.97895801 0.071166195 -0.19125009 0.0046189153
0.047761638 -0.060761165 -0.017265389 0.9010542 0.31947994 -0.29331541 0.0040334533
0.048415069 -0.061755199 -0.016191507 0.93670756 0.26450706 -0.22937945 0.0040366449
0.046908427 -0.058500025 -0.016545212 0.83363003 0.4529902 -0.31600761 0.0021650174
0.048095152 -0.059876449 -0.015258947 0.89890206 0.39607605 -0.18734707 0.0048570335
0.0018614009 -0.055071548 -0.015259131 -0.50131184 0.44793001 -0.74030071 0.0010487739
0.0044931066 -0.054814931 -0.017142549 -0.47471693 0.45747703 -0.75190336 0.0018418833
0.044188332 -0.054958209 -0.016843209 0.69068158 0.6233049 -0.36667418 0.0019606517
0.045629878 -0.056242954 -0.016134044 0.75681704 0.55935717 -0.33815315 0.0021418605
0.0046976903 -0.05227913 -0.015988816 -0.4771404 0.47786081 -0.73755413 0.0020556708
0.0070460518 -0.05199974 -0.017206529 -0.41794565 0.56472534 -0.7116226 0.005119632
0.0090708993 -0.051228125 -0.017696697 -0.34303391 0.60504377 -0.71850526 0.0081355823
0.038717452 -0.051265012 -0.017705068 0.39026487 0.7765792 -0.49458867 0.0029991686
0.040883262 -0.051984567 -0.016701514 0.51981741 0.74438709 -0.41913927 0.0022721586
0.042913705 -0.053310689 -0.016205257 0.62001896 0.67329139 -0.40280923 0.0014468064
0.0081416834 -0.049552903 -0.01554461 -0.2585066 0.7478022 -0.6115278 0.0016595284
0.010619111 -0.049272195 -0.016185954 -0.19247884 0.78477484 -0.58913523 0.0010133457
0.013380803 -0.048948336 -0.016580548 -0.1380987 0.81971014 -0.55588132 0.00017047125
0.016394656 -0.048772942 -0.016969472 -0.094376795 0.82952017 -0.55044472 0.00016208377
0.019708075 -0.048511375 -0.016982393 -0.040423084 0.84042054 -0.54042512 6.124541e-05
0.022686506 -0.04842506 -0.01705117 -0.012769382 0.84322214 -0.53741354 0.0001047083
0.025549544 -0.048525419 -0.017217742 0.018102447 0.84476644 -0.53482884 9.8919838e-05
0.028577602 -0.048595637 -0.017122321 0.046747789 0.84341943 -0.535218 9.6520984e-05
0.031634003 -0.048724502 -0.016957328 0.095841698 0.83974206 -0.53446007 0.00029554215
0.034664173 -0.049014222 -0.016606139 0.20288506 0.83046657 -0.5188092 0.0010881569
0.037542544 -0.049913764 -0.016433507 0.36468181 0.79459929 -0.48540619 0.0013836445
0.039734084 -0.050646961 -0.015728941 0.47512385 0.76434749 -0.43592462 0.0020012208
0.013583127 -0.047888383 -0.015054063 -0.13192971 0.82538271 -0.54894263 0.00020900682
0.016662158 -0.047749929 -0.015440451 -0.086477131 0.83786732 -0.53898054 9.775105e-05
0.019546365 -0.047525853 -0.015446067 -0.034301806 0.84590292 -0.53223264 8.9290814e-05
0.022643503 -0.047580846 -0.015708119 -0.010874125 0.84900659 -0.5282703 0.00010481763
0.025405109 -0.047581431 -0.01564694 0.022201512 0.8516826 -0.52358758 8.4108447e-05
0.028556595 -0.047614545 -0.015508134 0.049340282 0.8560757 -0.51448995 0.00010287073
0.03140628 -0.047745198 -0.01539911 0.11082418 0.85725617 -0.50282192 0.00064197229
0.03351973 -0.047842715 -0.015137836 0.21726775 0.84829193 -0.48290312 0.0019522548
0.019210014 0.047891136 -0.015204691 -0.049581919 -0.84515882 -0.53221071 0.00012056739
0.022103824 0.047846694 -0.015326614 -0.01467351 -0.85128295 -0.52450168 0.00010452756
0.025021464 0.047902841 -0.015404339 0.018633133 -0.85337073 -0.52097142 8.8508299e-05
0.027985943 0.047855072 -0.015160372 0.048658524 -0.85952586 -0.50877082 0.00018214944
0.030546498 0.047919232 -0.015020522 0.1055591 -0.85638458 -0.50543332 0.00034606952
0.0088093849 0.050092984 -0.01585369 -0.21676096 -0.77233988 -0.59708107 0.0012125876
0.010840079 0.049606472 -0.01603899 -0.2109341 -0.77557725 -0.5949679 0.0014269003
0.013580777 0.049501859 -0.016692612 -0.15558796 -0.80412227 -0.57374191 0.0020104984
0.016603198 0.048837818 -0.016327966 -0.0898652 -0.83488679 -0.54303616 0.00017982599
0.019632194 0.048969783 -0.016905067 -0.052147795 -0.83816302 -0.54292119 4.8787981e-05
0.022775037 0.048821129 -0.016890358 -0.018207552 -0.8430869 -0.53746909 5.5256642e-05
0.025631217 0.04870059 -0.016708061 0.015229216 -0.84763694 -0.53035814 8.0384605e-05
0.028585013 0.048788533 -0.016648352 0.044049028 -0.84618026 -0.53107315 5.8084534e-05
0.031571794 0.04896177 -0.016594812 0.10165868 -0.84649545 -0.52260029 0.00032112858
0.034598365 0.049436852 -0.016551571 0.2269752 -0.82647395 -0.51519227 0.0013510506
0.037408486 0.05022255 -0.016271977 0.38003042 -0.79661649 -0.47008404 0.0017143744
0.039536376 0.050798818 -0.015424251 0.49412081 -0.76405382 -0.41480878 0.0016326526
0.0077435719 0.051808141 -0.017091172 -0.23486388 -0.75325322 -0.6143685 0.00077068037
0.038187839 0.051365636 -0.017552657 0.3326562 -0.78711438 -0.51941395 0.001109722
0.040712435 0.052291721 -0.016643621 0.50922132 -0.74433315 -0.43204361 0.0021455586
0.042710185 0.053431135 -0.015943324 0.60661876 -0.68843466 -0.39758199 0.0011421442
0.04399867 0.055175167 -0.016755864 0.6686672 -0.63739073 -0.38290638 0.0021932714
0.045446534 0.056392472 -0.01605591 0.74816352 -0.56846189 -0.34220222 0.0019805592
0.046709657 0.058574844 -0.016484857 0.82014447 -0.47628891 -0.31703624 0.0018997785
0.047711808 0.060955469 -0.017099299 0.89138758 -0.3384586 -0.30145293 0.0032378566
0.048369724 0.061980557 -0.016149659 0.92947382 -0.27278179 -0.24833162 0.0042995531
0.048792049 0.064469576 -0.016470922 0.97823459 -0.089517668 -0.18719988 0.0047787111
0.048758265 0.067493379 -0.016440915 0.97482783 0.13831247 -0.17487246 0.0051601185
0.011260218 0.071171254 -0.015097826 -0.46808979 0.69975126 -0.53966677 0.00029772322
0.012314242 0.071805894 -0.015245004 -0.46323332 0.70290077 -0.53976434 0.00029636241
0.047547553 0.071005046 -0.016741218 0.87305987 0.44065559 -0.20878021 0.0052526053
0.048288506 0.069697589 -0.016160838 0.91453534 0.35864666 -0.18707657 0.0070781768
0.012862453 0.072349221 -0.015023311 -0.45012793 0.72292417 -0.52418077 0.00011021628
0.017696686 0.074028231 -0.01673387 -0.4237121 0.73675901 -0.52692914 8.7570894e-05
0.020842306 0.074958608 -0.017845204 -0.38810566 0.74022079 -0.54904217 0.00020283602
0.044488695 0.074610144 -0.017091217 0.62302172 0.72090989 -0.30353385 0.0040802578
0.046118159 0.073226072 -0.016361097 0.75881785 0.60693955 -0.23626235 0.0052389489
0.020547805 0.076005444 -0.016088748 -0.38776529 0.75979835 -0.52186638 0.00010300383
0.023088338 0.077038959 -0.016467256 -0.35788876 0.77242941 -0.52466029 0.00016904107
0.025659332 0.077484548 -0.017438764 -0.28892413 0.78607136 -0.54645652 0.0006664797
0.038395599 0.077692375 -0.017501822 0.24655284 0.87292415 -0.42096919 0.0015410727
0.040750656 0.077131115 -0.016668022 0.41279995 0.84213227 -0.3470006 0.0019678313
0.043223649 0.075842977 -0.016331671 0.55242258 0.77629143 -0.30364597 0.0033910554
0.025730962 0.078617036 -0.015785778 -0.26191437 0.83464539 -0.48452854 0.0012811017
0.029121449 0.078972749 -0.016568169 -0.074171215 0.88528121 -0.45910332 0.0011689331
0.031681381 0.079259321 -0.01635208 0.011175551 0.89585555 -0.44420484 0.0014436005
0.034660622 0.078982897 -0.016504316 0.13683502 0.90763235 -0.39683712 0.001621843
0.037466288 0.078539565 -0.016171902 0.26134673 0.89844173 -0.35284606 0.0018035929
0.039346445 0.078231037 -0.015396433 0.35283044 0.86725307 -0.35125887 0.0026992415
0.031488914 -0.080031835 -0.01361961 0.11846679 -0.95647365 -0.26669043 0.0042316508
0.034755077 -0.079689644 -0.013594283 0.17015077 -0.94304925 -0.28584421 0.0038812787
0.037591517 -0.07900323 -0.013426086 0.30232513 -0.92274678 -0.23903547 0.0029918095
0.039681107 -0.078223214 -0.013302482 0.40771991 -0.89032274 -0.20270659 0.0033499757
0.041240089 -0.07739418 -0.013545339 0.50757211 -0.85236388 -0.12588228 0.002857171
0.043525495 -0.075882241 -0.013544722 0.61004394 -0.78431547 -0.11267471 0.0082358681
0.044751305 -0.074780144 -0.013411735 0.73275745 -0.68048275 0.0031311051 0.0057974323
0.046291932 -0.073017322 -0.013510454 0.80784625 -0.58932096 0.0092321122 0.0052556987
0.047587141 -0.070956513 -0.013427023 0.87996268 -0.47219485 0.051940508 0.0052387803
0.048226822 -0.069588795 -0.013623073 0.93049866 -0.35978004 0.068779595 0.0056273961
0.048799291 -0.067455001 -0.013475095 0.97722578 -0.18496118 0.10401495 0.0036375492
0.049077183 -0.064486533 -0.013503666 0.99873978 0.019182671 0.046377566 0.0048094504
0.04871865 -0.061536271 -0.013511644 0.97897774 0.19929066 -0.04342692 0.004178721
0.04750355 -0.058144663 -0.013651822 0.89434832 0.43185523 -0.11679891 0.0037381828
0.048158571 -0.059578449 -0.013353325 0.93298358 0.3524856 -0.072770812 0.0051347124
0.044839334 -0.054317597 -0.014374499 0.73498422 0.63651216 -0.23377451 0.0029588901
0.046085838 -0.055675257 -0.013456829 0.826446 0.53712368 -0.16877535 0.0044589122
-0.00055806787 -0.052742507 -0.01246709 -0.51467121 0.4234713 -0.74551028 0.0021678072
0.001731967 -0.052422903 -0.014042864 -0.48804954 0.49537259 -0.71861929 0.0024880529
0.041714817 -0.051304262 -0.014412388 0.59762251 0.73215997 -0.32678598 0.0028672088
0.043507844 -0.052576263 -0.013482981 0.70182306 0.67264825 -0.23449668 0.0021565373
0.045078546 -0.053895969 -0.012569202 0.75320429 0.633057 -0.17866792 0.0043743914
0.0020429932 -0.050324861 -0.012829833 -0.43495595 0.57864642 -0.68991423 0.0025802967
0.0045812223 -0.049462199 -0.013590212 -0.36880887 0.63801593 -0.67595541 0.0035116051
0.0073331548 -0.048865542 -0.014397461 -0.22423445 0.79363912 -0.56555796 0.00037286404
0.010212152 -0.048140228 -0.014488634 -0.18562107 0.79743755 -0.57414126 0.00065891421
0.035741419 -0.048121613 -0.01465058 0.27207947 0.86320543 -0.4252637 0.0038256671
0.037847415 -0.048579257 -0.013744819 0.41777772 0.83002561 -0.36948505 0.0022074969
0.040424336 -0.049962144 -0.013411663 0.54534304 0.77474689 -0.31995022 0.0025758026
0.042162202 -0.050840519 -0.012464158 0.62514502 0.7366311 -0.25800845 0.0026343511
0.0051957471 -0.047895953 -0.012193689 -0.27350405 0.77182025 -0.57401139 0.0010610617
0.0076709897 -0.047651008 -0.012869256 -0.21553384 0.79849702 -0.56209224 0.000550289
0.010684278 -0.047150485 -0.013138538 -0.16488008 0.82114756 -0.54638016 0.00014818693
0.013573 -0.04681883 -0.013384809 -0.12124483 0.83544934 -0.53602624 0.00012595912
0.016545385 -0.046552308 -0.013522522 -0.078934796 0.84530437 -0.528422 8.4488915e-05
0.019801373 -0.046159755 -0.013267878 -0.029363237 0.85387772 -0.51964468 9.2043018e-05
0.022512928 -0.046404649 -0.013764148 -0.0039119828 0.85636193 -0.51636124 8.8465364e-05
0.025440255 -0.046290774 -0.013487271 0.029010722 0.86601156 -0.49918166 0.00015944485
0.028527936 -0.04636113 -0.013406771 0.077560082 0.88472652 -0.4596124 0.00093170628
0.031481046 -0.046697635 -0.013537531 0.13247758 0.89191961 -0.43235299 0.0017315511
0.034539796 -0.047149677 -0.013410334 0.23575084 0.89011919 -0.39001203 0.0030978024
0.03669836 -0.047532022 -0.012663591 0.36402452 0.8579368 -0.36253369 0.0033158138
0.0086028073 0.047719277 -0.012480114 -0.19161437 -0.81086069 -0.55298179 0.00013762902
0.010055608 0.047459438 -0.012601195 -0.15289198 -0.82672584 -0.54143178 0.0001768581
0.013511505 0.047570325 -0.013735754 -0.12096114 -0.83640635 -0.53459597 0.00012581938
0.01653222 0.047082014 -0.013534072 -0.081720188 -0.84466612 -0.52901882 6.8193433e-05
0.019810254 0.04690107 -0.01362863 -0.042037927 -0.85310447 -0.52004385 6.9565445e-05
0.022667747 0.046880551 -0.013710936 -0.0060299356 -0.85927624 -0.51147634 0.00011393818
0.025513245 0.04678366 -0.013509508 0.036920812 -0.87091035 -0.49005312 0.00035879668
0.028656555 0.046899788 -0.013486391 0.062359694 -0.87475246 -0.48054069 0.00069036981
0.031589158 0.047200732 -0.013577392 0.12239959 -0.89109737 -0.43699399 0.0013293023
0.034477707 0.047458734 -0.013125607 0.21905816 -0.8921634 -0.39504167 0.0031061487
0.036525238 0.047818013 -0.012444687 0.40848202 -0.84979784 -0.33314583 0.0027710078
0.0073793763 0.048566919 -0.013284519 -0.22607678 -0.78420234 -0.57785469 0.0013363898
0.010598773 0.048501082 -0.014332145 -0.17587234 -0.81386203 -0.55380285 0.00019907442
0.013154035 0.048183981 -0.014577885 -0.13323337 -0.82706249 -0.54609215 0.00014424937
0.035255741 0.048425842 -0.014628515 0.22491659 -0.86203563 -0.45421037 0.002393591
0.037716027 0.048897531 -0.013550862 0.44234025 -0.83461368 -0.3282606 0.0030342808
0.040231895 0.050261874 -0.013328302 0.52176905 -0.78095251 -0.3433224 0.0024144279
0.041488279 0.051415149 -0.013972941 0.58874756 -0.75601417 -0.28603992 0.0030856773
0.043274105 0.052772686 -0.013380293 0.67033374 -0.69398594 -0.2627475 0.0026657598
0.044663858 0.054410953 -0.013902995 0.7287854 -0.64960104 -0.21654159 0.0023781075
0.045879442 0.055819858 -0.013407789 0.81522447 -0.5521161 -0.17486228 0.0037721556
0.047365028 0.058319405 -0.013531309 0.88774037 -0.44518691 -0.11715651 0.003221157
0.048096672 0.059691556 -0.013323996 0.92779809 -0.36433393 -0.08032167 0.0051416173
0.04791382 0.060088418 -0.014743489 0.92396176 -0.36907914 -0.10037553 0.0073978021
0.04858258 0.061465979 -0.013499388 0.97739345 -0.20989364 -0.025430162 0.0046904958
0.049061995 0.064445131 -0.013572243 0.99778622 -0.052822407 0.040402714 0.003792342
0.048885006 0.067544699 -0.013565007 0.98438686 0.15630728 0.080936007 0.0046070074
0.010217661 0.070536293 -0.014962391 -0.47414827 0.69714749 -0.53774416 0.00026367148
0.047659229 0.071313441 -0.013450434 0.88830847 0.45666164 0.048664168 0.0044028959
0.048311505 0.069845073 -0.013680741 0.93198824 0.35670057 0.064518154 0.0056898366
0.012854934 0.073466264 -0.013453718 -0.44601801 0.72756439 -0.5212658 0.00017601821
0.046206284 0.073591366 -0.013535748 0.79944599 0.60073376 -0.0022672091 0.0047161393
0.017184725 0.075933553 -0.013563649 -0.41588548 0.76480639 -0.49204719 0.00034606599
0.020115433 0.077475667 -0.013603414 -0.39824921 0.77467424 -0.49119997 0.00029314315
0.041455179 0.077629112 -0.01376833 0.50895005 0.85152042 -0.12602738 0.0032515479
0.043560985 0.076251715 -0.013514563 0.62047184 0.77991968 -0.082096994 0.0046508722
0.04505584 0.075075373 -0.012388531 0.75625074 0.65331906 0.035482213 0.0093842596
0.022413069 0.078890301 -0.013034377 -0.33125511 0.82746905 -0.45339277 0.0014179171
0.025521124 0.079742022 -0.013727623 -0.24177337 0.86382025 -0.44199577 0.0032631939
0.028934749 0.080383271 -0.01377558 -0.037727229 0.92820466 -0.37015226 0.0025022679
0.031650499 0.080555297 -0.013451112 0.049683336 0.93889201 -0.3406074 0.0029258733
0.034476653 0.080197871 -0.013538463 0.18191108 0.94134247 -0.28422305 0.0025430801
0.037527334 0.079432026 -0.013471213 0.30871445 0.92326611 -0.22863749 0.0031089338
0.040125165 0.078428023 -0.013387819 0.47124568 0.87064773 -0.14106715 0.0030241404
0.029731741 0.081035361 -0.012201649 -0.035380658 0.95368659 -0.29871398 0.0056489292
0.031887203 0.081000008 -0.012091336 0.10374738 0.97660059 -0.18838203 0.002602974
0.029750347 -0.081009679 -0.010546535 0.12689294 -0.9790532 -0.15922657 0.01273476
0.031559773 -0.081002831 -0.0097953379 0.18559584 -0.97962874 -0.076692611 0.0047302889
0.03266241 -0.080512837 -0.011913674 0.17280275 -0.96015406 -0.21964395 0.0074828821
0.03459169 -0.08034806 -0.010781516 0.23754406 -0.96566552 -0.10518046 0.0039554392
0.037559606 -0.079448923 -0.010313925 0.36092061 -0.93127114 -0.049703885 0.0027557635
0.039927162 -0.078353859 -0.01052264 0.48469463 -0.874488 0.018488405 0.0037192416
0.041500423 -0.077409305 -0.010496068 0.58175641 -0.81083846 0.064034775 0.0030154006
0.043748643 -0.075473957 -0.010224875 0.72052628 -0.67518663 0.15800308 0.0075154658
0.044604063 -0.074552588 -0.0103941 0.74737144 -0.64617395 0.15458058 0.0052608401
0.045807045 -0.073053867 -0.010587912 0.81579971 -0.53724259 0.21410562 0.0049106232
0.047156911 -0.070458591 -0.010449924 0.879354 -0.37449557 0.29409125 0.0027608324
0.048058614 -0.069488421 -0.011753161 0.90335172 -0.39885888 0.15769392 0.0041593551
0.047755469 -0.067879632 -0.0096377535 0.9184103 -0.2233007 0.32658726 0.0030616031
0.048329335 -0.067321621 -0.010910518 0.94564825 -0.21319726 0.24555288 0.0038476114
0.047947101 -0.065888911 -0.0094020339 0.94810355 -0.12586085 0.29199106 0.0048211119
0.048582751 -0.064456619 -0.01059933 0.969275 -0.031907756 0.24390133 0.0034564638
0.047943272 -0.060724389 -0.0093213664 0.96881658 0.11281183 0.22060835 0.0060474295
0.048446923 -0.061483771 -0.01063503 0.97308099 0.14648576 0.17791951 0.0039716638
0.047576249 -0.058260132 -0.010484655 0.92553657 0.35953367 0.11881799 0.0069476119
0.048130732 -0.059602249 -0.011076144 0.95366615 0.26590794 0.14076167 0.0054039559
-0.037434574 -0.054554272 -0.0091703506 -0.011425618 -0.26425794 -0.96438438 0.010609428
-0.0042802407 -0.054052867 -0.010150682 -0.50127554 0.32904205 -0.80028385 0.0047180974
0.046255946 -0.055527512 -0.010550217 0.86837584 0.49558377 0.017892567 0.0034619942
-0.051822059 -0.052201655 -0.010661474 0.46568507 -0.036488801 -0.88419795 0.027214225
-0.049849223 -0.052096095 -0.010133681 0.47566894 0.032472875 -0.87902474 0.016296476
-0.042788342 -0.051457286 -0.0091522615 -0.12574556 -0.10047805 -0.98696113 0.0070042871
-0.041010283 -0.051830132 -0.0092519578 -0.17343189 -0.0781895 -0.98173714 0.008015736
-0.037116181 -0.05167878 -0.010154477 0.086902604 0.11052667 -0.99006653 0.012793166
-0.034218084 -0.052167639 -0.0094592283 0.18727078 -0.12592958 -0.97420293 0.0029758902
-0.032168366 -0.051540196 -0.0091895517 0.16684197 -0.16174071 -0.97262722 0.0065844078
-0.0047229826 -0.052549079 -0.0094694588 -0.45261085 0.27571273 -0.84801298 0.0047517843
-0.0023318562 -0.052617926 -0.011074339 -0.51583248 0.40553781 -0.75462312 0.0035941072
0.043963298 -0.05234718 -0.010587077 0.7599237 0.64745206 -0.057635482 0.0033482972
0.045164958 -0.053790461 -0.010345344 0.80736512 0.5892995 -0.029792892 0.0039003519
-0.052056104 -0.048960716 -0.010902635 0.45610142 0.29764509 -0.83867693 0.034643512
-0.049704134 -0.049420029 -0.010123607 0.48837277 0.21970108 -0.84452564 0.020024238
-0.043049902 -0.049443062 -0.0092382077 -0.1879431 0.12993245 -0.97354764 0.020570364
-0.040880647 -0.049078669 -0.0094229998 -0.22101255 0.18730825 -0.95711499 0.014551869
-0.036991421 -0.049362328 -0.010340649 0.061873425 0.2583631 -0.96406442 0.017630519
-0.034233276 -0.049315672 -0.0096939094 0.2047348 0.16658053 -0.96453851 0.0089545017
-0.032338474 -0.049348786 -0.0092817778 0.20909062 0.25125653 -0.94506681 0.0090078944
-0.0035070388 -0.050343938 -0.0092790984 -0.39904174 0.40073818 -0.824727 0.005763818
-0.0011217257 -0.049650226 -0.010226532 -0.42943215 0.53654367 -0.72643578 0.004289391
0.0014363746 -0.048849761 -0.011116151 -0.35518104 0.69588077 -0.62417662 0.0010433578
0.0036338889 -0.048172437 -0.011677929 -0.31842044 0.73116481 -0.60332948 0.0015670252
0.038788423 -0.048147604 -0.011434735 0.47796926 0.85063249 -0.21901985 0.0050982307
0.040582869 -0.049186978 -0.010544576 0.58699501 0.79634309 -0.14585821 0.0030455943
0.042417396 -0.050660774 -0.010307844 0.68648475 0.71917331 -0.10737063 0.0032468217
-0.051978827 -0.046743464 -0.0097256936 0.37971133 0.43696055 -0.81540465 0.040994104
-0.049759924 -0.047128666 -0.0096871061 0.36673722 0.46409634 -0.80629915 0.027655302
-0.042825278 -0.047946192 -0.0090395603 -0.25396213 0.29834941 -0.92004943 0.03445071
-0.041075882 -0.047700871 -0.0091073448 -0.18921231 0.17325887 -0.96652991 0.012881218
-0.03742798 -0.046722036 -0.0097234147 0.0094484659 0.43547225 -0.90015262 0.018451819
-0.034664135 -0.047338974 -0.0093868282 0.20154662 0.4095622 -0.88974023 0.010672514
-0.032753754 -0.047920715 -0.0091763139 0.22028595 0.45369279 -0.86350274 0.013837951
0.0012532368 -0.047344066 -0.0094750654 -0.28106147 0.7620908 -0.58328563 0.0011380237
0.0046577938 -0.046658844 -0.010175397 -0.25525033 0.78705275 -0.56160069 0.00049528119
0.0075460263 -0.04617596 -0.010633828 -0.19454943 0.81448454 -0.5465945 0.00011969311
0.010361835 -0.045665763 -0.010779276 -0.15309034 0.82730246 -0.54049432 0.00014528763
0.013392859 -0.045482107 -0.011252401 -0.11026848 0.83988899 -0.53143889 0.00013313926
0.016537625 -0.04528597 -0.011479417 -0.071296684 0.8510462 -0.52022797 0.00011070733
0.019660115 -0.045219682 -0.011685872 -0.033431605 0.85752517 -0.51335454 9.7943717e-05
0.022204926 -0.045244556 -0.011806581 0.0058512595 0.87061131 -0.49193677 0.00032683951
0.025636906 -0.045192886 -0.011637934 0.04466993 0.89670277 -0.44037342 0.0012109148
0.028668478 -0.045304436 -0.011339165 0.10324509 0.91860569 -0.38145003 0.0022789415
0.031556919 -0.045491394 -0.010520481 0.21192642 0.93438959 -0.28636199 0.0048057982
0.034534592 -0.046150129 -0.010510829 0.27857077 0.93467706 -0.2208553 0.0034901302
0.037425775 -0.047195509 -0.010412584 0.40768778 0.89281398 -0.19150437 0.0041070636
0.039203689 -0.047899488 -0.0091542164 0.56467408 0.81520319 -0.1287908 0.004823524
0.0080640242 -0.044953 -0.0090125622 -0.18348217 0.81719702 -0.54637289 0.00016020078
0.01124111 -0.044730805 -0.0095708817 -0.14227241 0.83431619 -0.53261155 0.00014885362
0.013802564 -0.044510037 -0.0097785294 -0.09850017 0.84793633 -0.52086622 0.00016461691
0.016566439 -0.044373974 -0.0099678151 -0.056997277 0.86039042 -0.50643814 0.00022075076
0.019672574 -0.044164494 -0.009882777 0.0064994418 0.88386482 -0.46769735 0.00065596221
0.022774911 -0.044365402 -0.010258663 0.039719064 0.8936708 -0.44696191 0.0012541848
0.025551118 -0.044401031 -0.0099981651 0.097276144 0.91466653 -0.39232954 0.0022820837
0.028306236 -0.044746961 -0.0100143 0.15732393 0.93464291 -0.31889135 0.0031331882
0.030291269 -0.044919413 -0.0094436714 0.19799834 0.94870889 -0.24647138 0.0030128472
0.013018163 0.044776898 -0.0091805384 -0.099569283 -0.8458184 -0.52409661 0.00013671057
0.017055567 0.044693213 -0.0097241085 -0.057444874 -0.86270136 -0.50244051 0.00038536044
0.019861475 0.044597805 -0.0097885439 -0.014755166 -0.87580615 -0.4824374 0.00065870315
0.022721201 0.044549551 -0.009674116 0.044637475 -0.89442992 -0.44497499 0.0018869747
0.025651913 0.044743001 -0.0096305292 0.11506983 -0.92814022 -0.35399815 0.0029607126
0.027847582 0.044913646 -0.0093303807 0.17561625 -0.94862509 -0.26319093 0.0023500817
-0.051848616 0.047281332 -0.0096928338 0.46367323 -0.30786958 -0.8307969 0.026410518
-0.049705349 0.047412265 -0.0095339492 0.39615706 -0.4037143 -0.8246662 0.022131447
-0.039023105 0.045764934 -0.0090515232 0.15124263 -0.62039691 -0.76956701 0.015242387
-0.037397534 0.047052011 -0.0096385442 0.067212328 -0.52437282 -0.84883195 0.017125754
-0.035017874 0.047448859 -0.0093037421 0.20770721 -0.49860632 -0.84157556 0.0084289275
0.0016298965 0.047695719 -0.009406249 -0.26408365 -0.76872581 -0.58251214 0.00070661306
0.0050249174 0.047223441 -0.010346507 -0.24264482 -0.79618114 -0.55427355 0.00041083698
0.0082547227 0.04627689 -0.010217991 -0.16258609 -0.82831019 -0.53616041 9.2796225e-05
0.010552986 0.045932114 -0.01039266 -0.15261395 -0.83014894 -0.53624791 6.5869273e-05
0.013462641 0.045999397 -0.011245845 -0.11262869 -0.84039038 -0.53014976 0.00018542336
0.0160987 0.045599185 -0.011072107 -0.073751926 -0.84948105 -0.52243906 9.8741773e-05
0.019276245 0.045592837 -0.011435486 -0.034209684 -0.86007369 -0.50902158 0.00017469746
0.022466168 0.04545486 -0.011316407 0.0086369039 -0.87763792 -0.47924638 0.00055978785
0.025647491 0.045438878 -0.011151861 0.051226053 -0.89580125 -0.44149292 0.0018023208
0.028519325 0.045549106 -0.010735205 0.15988588 -0.92522305 -0.34409112 0.003348894
0.031598039 0.045880876 -0.010209634 0.20693775 -0.94887114 -0.23837018 0.0027546282
0.035211124 0.046932455 -0.011068678 0.28248087 -0.93232197 -0.22578795 0.0033272561
0.037256587 0.047517251 -0.010127344 0.4367592 -0.89139682 -0.12104987 0.0056935269
-0.051760636 0.049337123 -0.010879099 0.51069528 -0.17803884 -0.84112573 0.024884066
-0.049589708 0.049599573 -0.01007567 0.43192798 -0.14740866 -0.88978028 0.023215842
-0.043585472 0.049789608 -0.009170033 -0.13860202 -0.25981334 -0.95566022 0.026558699
-0.04099445 0.049580231 -0.0094256438 -0.21415134 -0.064947881 -0.97463888 0.01172171
-0.037179843 0.04949794 -0.010364607 0.062583789 -0.21186276 -0.97529346 0.018043555
-0.034536384 0.049435288 -0.0097476933 0.19186077 -0.15624207 -0.96890551 0.010566279
-0.032065891 0.049843952 -0.009244659 0.18768197 -0.18244298 -0.9651373 0.011747564
0.0021959862 0.048832417 -0.011010704 -0.24643914 -0.78904337 -0.56274182 0.00025809696
0.038275469 0.048290566 -0.011195087 0.48388538 -0.84887064 -0.2127762 0.0053501744
0.040585671 0.049670096 -0.010528493 0.59523177 -0.78957921 -0.14921011 0.0020465849
0.042104155 0.050725464 -0.009852808 0.67520225 -0.72719198 -0.12366799 0.0028639503
-0.051692061 0.052174594 -0.010929583 0.5075838 0.13536528 -0.85090244 0.027981412
-0.049705461 0.052391089 -0.010001701 0.47944549 0.14900225 -0.86482966 0.018557575
-0.043245085 0.051814556 -0.009118123 -0.15952474 0.20060016 -0.96659791 0.0133645
-0.041090067 0.051991016 -0.0093375649 -0.24702033 0.22966237 -0.94140118 0.012011346
-0.037243098 0.052544042 -0.010139725 0.069462538 0.15664782 -0.98520881 0.012222644
-0.034441892 0.05246916 -0.009601539 0.18156101 0.18892832 -0.96506047 0.0041957358
-0.032084964 0.052124429 -0.0091672661 0.17070003 0.16225664 -0.97187155 0.0053127394
0.043621138 0.052447796 -0.010477476 0.72828627 -0.67988586 -0.08575625 0.0029593396
0.045040186 0.053984694 -0.010225261 0.79153216 -0.61052126 -0.027214445 0.0028871489
-0.051428571 0.054612055 -0.009353077 0.34836426 0.38610002 -0.85414821 0.024097281
-0.049725689 0.054312229 -0.0094230287 0.45022413 0.24830984 -0.85769486 0.018723957
-0.03730657 0.054816939 -0.0093617942 0.054794535 0.34169677 -0.93821156 0.0070054657
-0.035155162 0.054363661 -0.009217035 0.16239902 0.33969811 -0.92640799 0.0068323314
0.044989076 0.054344922 -0.011940849 0.78538042 -0.61295968 -0.08636003 0.0075572855
0.045970466 0.05552572 -0.010549364 0.85950834 -0.51057887 0.023551457 0.0039295228
0.04742977 0.058342677 -0.010476333 0.91451675 -0.39648473 0.080367588 0.0040104347
0.048095383 0.05975708 -0.011035047 0.94996047 -0.27949795 0.13948469 0.0060005458
0.047919411 0.060542528 -0.009251724 0.96979189 -0.14778955 0.1940666 0.0071771345
0.048381802 0.061572295 -0.010587948 0.97393733 -0.14185584 0.17698288 0.0063367286
