# .PCD v0.7 - Point Cloud Data file format
VERSION 0.7
FIELDS x y z normal_x normal_y normal_z curvature
SIZE 4 4 4 4 4 4 4
TYPE F F F F F F F
COUNT 1 1 1 1 1 1 1
WIDTH 556
HEIGHT 1
VIEWPOINT 0 0 0 1 0 0 0
POINTS 556
DATA ascii
0.0067872563 -0.068570189 0.0075521073 -0.44403434 -0.88901699 -0.11172364 0.0018715619
0.053066313 -0.068398148 0.0074794013 0.45116192 -0.88435632 -0.11986162 0.0041614491
0.055521697 -0.067039177 0.0072426684 0.49974105 -0.86083078 -0.096069098 0.0022605087
0.057200443 -0.066170834 0.0078820465 0.52827543 -0.84165514 -0.11198968 0.00266076
-0.00095318147 -0.063744977 0.0076368032 -0.6140849 -0.78320324 -0.097429007 0.0013812084
0.0010756652 -0.065156095 0.0075810379 -0.55422246 -0.82594329 -0.10322364 0.0014042939
0.058756161 -0.064998038 0.0076457965 0.56183475 -0.8166514 -0.13199334 0.003235904
0.06070951 -0.063661449 0.0080131385 0.62468737 -0.7720567 -0.11702196 0.0026116909
-0.0040029129 -0.061093733 0.0076693776 -0.68497491 -0.72194278 -0.098019853 0.001699667
-0.002422387 -0.062527932 0.0072131902 -0.66542149 -0.73985785 -0.099119641 0.0015134903
0.062202599 -0.062383562 0.0077314009 0.65739989 -0.74466181 -0.11534354 0.0025897291
0.063951001 -0.060860872 0.007480517 0.67048681 -0.73664147 -0.088356301 0.0014473211
-0.00684286 -0.058068201 0.0075212857 -0.75373667 -0.65267205 -0.076813556 0.0021557494
-0.0054524085 -0.059564378 0.0075807497 -0.72137082 -0.68456268 -0.10487169 0.0021620735
0.065385655 -0.059516679 0.0073625473 0.68703753 -0.71922338 -0.10342669 0.0014688089
0.066910177 -0.058069978 0.0075590932 0.72917223 -0.67709142 -0.099272735 0.0015299765
-0.0094668036 -0.054662522 0.0076164422 -0.7865749 -0.60896266 -0.10229575 0.0023686597
-0.008335663 -0.056088597 0.0077645802 -0.77811259 -0.62010968 -0.10002364 0.0024083955
0.068430409 -0.056320503 0.0074881008 0.75309074 -0.64954513 -0.10462024 0.0017066803
0.069545597 -0.05484134 0.0075374679 0.79118907 -0.60318059 -0.1009604 0.0017688643
-0.012154089 -0.051116064 0.0083846711 -0.82102859 -0.56173569 -0.10180847 0.0018732072
-0.011019414 -0.052579015 0.0075254031 -0.82358533 -0.5564118 -0.1100598 0.0021224939
0.071014911 -0.052682593 0.0074745836 0.81630665 -0.56550473 -0.11767695 0.0028960709
0.072132826 -0.051161136 0.0080907 0.81734264 -0.5627082 -0.12373584 0.0030201531
-0.013050383 -0.04944028 0.0074914955 -0.86707914 -0.48908383 -0.094714113 0.0022625206
-0.011977081 -0.050859168 0.0067526964 -0.84351283 -0.53093225 -0.081222013 0.0016477938
0.071787857 -0.050964125 0.0065209595 0.8219682 -0.56533897 -0.068992905 0.0016461378
0.073081769 -0.049590833 0.007564628 0.8525008 -0.50860322 -0.12068638 0.0030449978
-0.015179225 -0.045290489 0.007444228 -0.8792088 -0.45919156 -0.12702346 0.0051602381
-0.01432615 -0.046801679 0.007474394 -0.88970387 -0.44243413 -0.11260091 0.0043136552
0.07448031 -0.046949312 0.0073868316 0.88484764 -0.44996312 -0.1207386 0.0032751914
0.075314075 -0.045747895 0.0079258 0.88079715 -0.45582476 -0.12814152 0.0033580745
-0.015937606 -0.0433877 0.0076170214 -0.90718234 -0.39642566 -0.1409499 0.0054032439
-0.014967861 -0.044924181 0.0078221215 -0.89992642 -0.4172945 -0.12648256 0.0057544159
0.076005258 -0.043731011 0.0075455713 0.92018837 -0.37395799 -0.11579628 0.0031534489
-0.017119898 -0.040586751 0.0074674087 -0.94150352 -0.30740675 -0.13810171 0.0059963111
0.077232644 -0.040604867 0.0075398823 0.94031411 -0.31644028 -0.12519954 0.002337795
-0.01828187 -0.036818661 0.0077159083 -0.95390165 -0.28613058 -0.090558961 0.0019251846
-0.017784851 -0.038369544 0.0073338649 -0.95807111 -0.27284795 -0.087485507 0.0021542339
0.077848077 -0.038653746 0.0072989454 0.95513403 -0.27835384 -0.10118347 0.0019544808
0.078482345 -0.037282873 0.0078103016 0.95518976 -0.27460438 -0.11047641 0.001573076
-0.018888706 -0.034528967 0.0074733058 -0.96635395 -0.23491246 -0.10476749 0.0017535196
0.078846127 -0.034992728 0.0074312887 0.96578652 -0.24717112 -0.078503825 0.001383253
-0.01944083 -0.031649008 0.0073942593 -0.97803378 -0.17855568 -0.10755303 0.0019402227
0.079601221 -0.031586789 0.0075102337 0.97983313 -0.16574745 -0.11160091 0.0017436693
-0.019787155 -0.028246658 0.0076121888 -0.98995578 -0.085135303 -0.11286942 0.0017902716
0.079894707 -0.02856591 0.0075103482 0.99079514 -0.084396832 -0.10583997 0.0018904624
-0.020016506 -0.025493691 0.0073730741 -0.99394405 -0.016385097 -0.10865884 0.0014213608
0.080100641 -0.025626222 0.0076077404 0.99105924 -0.031583376 -0.12963048 0.0028127949
-0.019886699 -0.02245852 0.0074824537 -0.99238795 0.039604433 -0.11660864 0.0015988792
0.080057308 -0.022695435 0.0073162881 0.99148911 0.03331323 -0.1258557 0.0032507104
-0.019764278 -0.019546758 0.0075927461 -0.9889757 0.084475622 -0.12161797 0.0021879955
0.079856485 -0.019540139 0.0074507087 0.98811769 0.094508521 -0.1212088 0.0026353165
-0.019292511 -0.016459208 0.0075582634 -0.97877097 0.16920429 -0.11566044 0.001832645
0.079549491 -0.016434945 0.0075226887 0.97921681 0.17693976 -0.0991304 0.002366127
-0.018801844 -0.013471455 0.0076640421 -0.97141165 0.20445129 -0.12066115 0.0020274103
0.078966871 -0.013522612 0.0074913707 0.96830601 0.22665323 -0.10493711 0.0029331795
-0.018366085 -0.01098695 0.007847962 -0.95702267 0.25904003 -0.13040689 0.0028527498
-0.017849272 -0.0095898379 0.0072322157 -0.95899022 0.25253195 -0.12870689 0.0031763264
0.077854916 -0.0093263481 0.0082211178 0.95766491 0.26713693 -0.10731167 0.0038440917
0.078282781 -0.010765599 0.0076970509 0.95265937 0.27906215 -0.12068318 0.0032921419
-0.017122444 -0.0074168574 0.0074597821 -0.93248743 0.33645409 -0.13139915 0.0027474277
0.077261701 -0.0074080024 0.0076389653 0.93998963 0.32283771 -0.11043233 0.0027411832
-0.01598605 -0.0045200353 0.0077235773 -0.91451758 0.38844031 -0.11301201 0.0027109128
0.076075263 -0.0042969082 0.0074547874 0.91951388 0.37981123 -0.10118194 0.0019829567
-0.015160556 -0.002529528 0.0075551718 -0.88517708 0.45503429 -0.09698125 0.0033761465
-0.014456272 -0.0011392545 0.0078885797 -0.8881281 0.44729629 -0.10561551 0.0031270077
0.074543446 -0.00082153309 0.0080836192 0.88055545 0.45727661 -0.12457994 0.0030421526
0.075221889 -0.0022059991 0.0077937269 0.88136894 0.45995602 -0.10783906 0.0023755061
-0.013020405 0.0014366248 0.0075230482 -0.85885316 0.50490624 -0.086261019 0.0020505707
-0.011966065 0.0028507956 0.0070955697 -0.8215279 0.56282145 -0.09123566 0.0019087701
0.073213831 0.0013745176 0.0080965012 0.85700917 0.50266409 -0.11341991 0.0020441273
-0.012033867 0.0034004448 0.008326537 -0.81576461 0.56909072 -0.1032664 0.0015862845
-0.011110979 0.0043845312 0.0077253939 -0.80688792 0.57852745 -0.11932231 0.0020449469
0.071147963 0.0046026632 0.0078121917 0.8119995 0.56972086 -0.12678698 0.0025933266
-0.0094853276 0.006503426 0.0076995459 -0.78206241 0.61700356 -0.087663941 0.0015112609
-0.0082387952 0.0081457477 0.0078873252 -0.78159463 0.60933435 -0.13349777 0.0011924069
0.068425417 0.0082569616 0.0077549294 0.76404482 0.63743454 -0.099563152 0.0029764217
0.069400795 0.0070243408 0.0078584505 0.77275652 0.62215215 -0.12559484 0.0014219843
-0.0068740495 0.0096580461 0.0078242226 -0.74215233 0.66507548 -0.082973175 0.0015724845
-0.0050288299 0.011441787 0.0075116828 -0.69605368 0.71418852 -0.073783256 0.0011420974
0.065598078 0.011246668 0.0074210814 0.70416808 0.7046988 -0.086873688 0.0030812668
0.067118026 0.0096970201 0.0075838664 0.73024344 0.67793638 -0.084539458 0.0028294977
-0.0037351437 0.012738298 0.007565896 -0.67537302 0.73277241 -0.083161227 0.001201576
-0.0020883335 0.014228694 0.007588617 -0.66349542 0.74061102 -0.1061558 0.0015418951
0.062622756 0.014156877 0.0078331912 0.63505942 0.75486332 -0.16395386 0.0014540501
0.063980997 0.012826518 0.0076175816 0.6917628 0.71526527 -0.099296376 0.0024098849
-0.0006883117 0.015543179 0.0078406148 -0.61332512 0.78270078 -0.10588573 0.0014005888
0.0013608963 0.016853509 0.0072877686 -0.567276 0.81476617 -0.11980797 0.0023406355
0.0031631617 0.017904874 0.0077440934 -0.55040383 0.8268224 -0.11584625 0.0023597823
0.058364764 0.017363658 0.0079083424 0.55591947 0.82112068 -0.12928422 0.0018435835
0.060643539 0.015698332 0.0080621559 0.60620618 0.78037041 -0.15341474 0.0010423522
0.002881102 0.018081291 0.0089137144 -0.52845997 0.83038408 -0.17661346 0.001409634
0.0045550354 0.018917324 0.0075174542 -0.51381278 0.8472541 -0.13474768 0.0021514872
0.0072218603 0.020374522 0.0076017696 -0.45209676 0.88416725 -0.11771487 0.0026911434
0.053068571 0.020487169 0.0072500422 0.44046262 0.89456928 -0.075752981 0.0016612476
0.055689715 0.019022767 0.0076014977 0.49864846 0.8614291 -0.096382983 0.0014668684
0.057350755 0.01813446 0.0083984714 0.56000847 0.81810147 -0.13076879 0.0022500216
0.0082813017 0.021242913 0.0085437354 -0.44723353 0.88302982 -0.14226912 0.0022803368
0.010387531 0.02184815 0.0077582914 -0.38673225 0.9112767 -0.14146703 0.0023228226
0.012988253 0.022881404 0.0076439143 -0.331855 0.93286604 -0.14011832 0.0037760616
0.015749775 0.023782335 0.0075142104 -0.2738544 0.95658177 -0.099775009 0.0034025116
0.044628449 0.023811661 0.0066450019 0.26911357 0.95474184 -0.12667261 0.0019302292
0.046220906 0.02342603 0.0074952981 0.32218125 0.93449205 -0.15140593 0.0018019478
0.049349904 0.022120219 0.0076295901 0.383064 0.91569054 -0.12154341 0.0020756572
0.051656112 0.021174476 0.0069814357 0.45060819 0.88904929 -0.080892205 0.0017322467
0.017258979 0.024130184 0.0075570587 -0.28740311 0.95276791 -0.098146923 0.0028460743
0.019533664 0.024769392 0.0075613041 -0.21453241 0.96993089 -0.11493417 0.0023620571
0.022664078 0.025237523 0.0074659381 -0.17088479 0.97964877 -0.10529324 0.0027117911
0.025611073 0.025570622 0.0075442377 -0.088667884 0.98919839 -0.11672428 0.0021624025
0.028543729 0.025842246 0.0074629015 -0.038236786 0.9924525 -0.11651625 0.0020218557
0.031741731 0.025861759 0.0075193685 0.031690992 0.99456602 -0.099166431 0.0016563137
0.034574896 0.025785096 0.0075139818 0.057268862 0.9919489 -0.11294964 0.0015582048
0.037317842 0.025500037 0.0080521014 0.12119208 0.98578 -0.11640543 0.0022504479
0.040522993 0.024770029 0.0075527057 0.17926754 0.97872043 -0.099846929 0.0016980486
0.043547343 0.024174619 0.0079667754 0.24589549 0.96340889 -0.10667159 0.0021231754
0.026381349 -0.075042881 0.011704356 -0.062873408 -0.99071395 -0.12055176 0.0040383609
0.02887718 -0.075109482 0.011476867 -0.0089613935 -0.98716402 -0.15945798 0.0041272677
0.030887641 -0.075103328 0.011612452 0.044292782 -0.99087495 -0.12729852 0.0052347286
0.03331757 -0.075036019 0.011706115 0.059700146 -0.99125421 -0.1176903 0.00420606
0.011836153 -0.072077513 0.01148976 -0.30673492 -0.94145298 -0.13992812 0.005094456
0.013875157 -0.072377585 0.010687593 -0.30630583 -0.93932694 -0.15440747 0.0016284017
0.016519172 -0.073002897 0.010439785 -0.26370201 -0.95232952 -0.15339363 0.00094037264
0.019573996 -0.073693983 0.010558533 -0.20615734 -0.96723229 -0.148192 0.00087071251
0.022653911 -0.0742542 0.010639066 -0.14923662 -0.97378027 -0.17169841 0.0005591684
0.025455173 -0.074524783 0.010451565 -0.089165188 -0.97733569 -0.19200128 0.0010928117
0.028431524 -0.074512862 0.010037694 -0.022261249 -0.97434431 -0.22395895 0.0015803351
0.031561282 -0.074459709 0.010226876 0.047142174 -0.97669697 -0.20938174 0.0021339881
0.034416646 -0.074395552 0.010456054 0.087299004 -0.97590107 -0.19998999 0.00077250955
0.037451077 -0.074078083 0.010445978 0.13546719 -0.97192246 -0.19239384 0.00027800494
0.040556986 -0.073594257 0.010527473 0.20996155 -0.95968181 -0.18688786 0.0019905337
0.043482631 -0.072918013 0.010531656 0.26553732 -0.94076365 -0.21084042 0.002234309
0.045938045 -0.072467983 0.011260176 0.28476375 -0.93889761 -0.19334108 0.0025819342
0.048406836 -0.072031327 0.011404403 0.39974722 -0.90273005 -0.15899882 0.0074992976
0.0058294125 -0.06910307 0.011658713 -0.44924849 -0.88812464 -0.097007006 0.005140889
0.007873565 -0.069744766 0.010670116 -0.43709224 -0.88546741 -0.1577906 0.0011634894
0.010507789 -0.07095322 0.0104762 -0.38370147 -0.90709871 -0.17304602 0.00096672523
0.012895994 -0.071644917 0.0096689742 -0.33019963 -0.92538708 -0.18608308 0.0011468246
0.044588279 -0.071921483 0.0090809222 0.26920056 -0.95036119 -0.15602781 0.0046606194
0.04673345 -0.071568549 0.0098569598 0.31601351 -0.92418385 -0.21452214 0.0016805184
0.049377993 -0.071007058 0.01055498 0.36066255 -0.91280729 -0.19158676 0.0028543349
0.05217443 -0.06985715 0.010525033 0.43225572 -0.87926596 -0.20011581 0.002620691
0.054338079 -0.069164716 0.011592107 0.48503631 -0.86451632 -0.1317246 0.0053329309
0.0022048559 -0.066549361 0.010678881 -0.54851532 -0.8220107 -0.15306669 0.00045602853
0.0043586763 -0.067893177 0.010402618 -0.50240612 -0.84770012 -0.17027198 0.0006109153
0.0064578336 -0.068831511 0.0098662041 -0.45496255 -0.87356436 -0.17289977 0.00055904017
0.053395513 -0.068759978 0.0097104693 0.44998738 -0.86520803 -0.22119331 0.0015497272
0.055534977 -0.067738086 0.010437584 0.50249988 -0.83580959 -0.22117032 0.0011049169
0.057814758 -0.066481411 0.010893145 0.53429115 -0.81875485 -0.21017464 0.0003914593
-0.0030259364 -0.063084967 0.011943869 -0.62980688 -0.77163744 -0.088988975 0.00015277618
-0.0012789336 -0.063982889 0.010543128 -0.60539228 -0.78544486 -0.12874985 0.00032138271
0.00070698775 -0.065418348 0.01025852 -0.57445163 -0.80667931 -0.13882977 0.00033285827
0.059028272 -0.065430112 0.010063909 0.55884618 -0.79806656 -0.22534612 0.00094946654
0.061187346 -0.064133361 0.010429815 0.61264712 -0.76979405 -0.17911042 0.0015528428
0.063327678 -0.063047506 0.011554003 0.6554873 -0.72739482 -0.20305948 0.00098019803
-0.0061902017 -0.060140818 0.01147757 -0.70540297 -0.69802022 -0.12318382 0.0017127614
-0.0044774883 -0.061321639 0.010466735 -0.69051307 -0.71029544 -0.1366462 0.0013400384
-0.0028184345 -0.062732905 0.010162955 -0.64348745 -0.75438631 -0.12971172 0.00084100303
0.062525086 -0.062478878 0.0095941918 0.6353426 -0.7504825 -0.18197742 0.0011913326
0.064394094 -0.061237536 0.010601557 0.64294249 -0.74488139 -0.17825992 0.00117523
0.066127703 -0.060148597 0.011600472 0.67935216 -0.71448213 -0.16731986 0.0013890818
-0.007180077 -0.058380015 0.01055935 -0.74758846 -0.63902944 -0.18097714 0.0006214903
-0.005739178 -0.059793431 0.0097972816 -0.70402598 -0.69232208 -0.15823276 0.00094462873
0.065720782 -0.059785277 0.0098751727 0.67056906 -0.71695834 -0.19054633 0.00070061791
0.067335926 -0.058357224 0.010493539 0.72155225 -0.66836411 -0.18069781 0.0006207769
-0.009951327 -0.055185575 0.010580065 -0.77999985 -0.59526217 -0.19303685 0.00055895851
-0.0086107496 -0.056478262 0.01005623 -0.7583167 -0.62423253 -0.18785523 0.00056701817
0.068676189 -0.056552403 0.0098675136 0.75648737 -0.6294651 -0.17748412 0.00062805071
0.069979273 -0.055260599 0.010645559 0.7752648 -0.60317248 -0.18747652 0.00042996588
-0.012404084 -0.051608521 0.010905142 -0.82520789 -0.53508091 -0.18088754 0.00020454125
-0.011337945 -0.052986067 0.010302389 -0.81117404 -0.55277276 -0.19089015 0.00060113089
0.071376793 -0.053088136 0.010134607 0.80466503 -0.56160694 -0.19264452 0.00086809753
0.072583303 -0.051893279 0.010821743 0.81991398 -0.54206747 -0.18413025 0.0011327162
-0.015196712 -0.048249494 0.01174844 -0.85836899 -0.50523531 -0.089105561 0.010806046
-0.013572204 -0.049502295 0.010528467 -0.83801997 -0.50572926 -0.20484218 0.0012913564
0.073748246 -0.049516451 0.010393773 0.84156919 -0.50352675 -0.1955048 0.00079905498
0.075109676 -0.048118923 0.011559101 0.85751855 -0.47732922 -0.19188209 0.0011289216
-0.015749926 -0.04613987 0.010735461 -0.86887455 -0.44559431 -0.21564455 0.0023145291
-0.014589952 -0.047178768 0.0098251859 -0.85833389 -0.46486601 -0.2171693 0.0015042372
0.074803159 -0.047530588 0.0098081985 0.86087799 -0.4675208 -0.20078175 0.0010418136
0.075761586 -0.046363298 0.010531172 0.87956065 -0.43758422 -0.18679719 0.0019774656
-0.018073931 -0.042235751 0.011506285 -0.92985421 -0.30816665 -0.20100856 0.0064321421
-0.01683569 -0.043606631 0.010361364 -0.89598769 -0.3798129 -0.23010454 0.0033250903
0.076860748 -0.04347761 0.010506252 0.90593225 -0.3667407 -0.211632 0.00077009934
-0.018306777 -0.040186793 0.01133767 -0.94244331 -0.2659108 -0.20271155 0.0033471836
-0.017483568 -0.040776707 0.0098877326 -0.92859656 -0.28937808 -0.23231152 0.0036652195
0.077538393 -0.040860608 0.0098701986 0.92594093 -0.31883413 -0.20243075 0.0010077988
0.078391567 -0.040341917 0.011128959 0.93573356 -0.30707237 -0.17352006 0.002067121
-0.018678021 -0.037444592 0.010492065 -0.94548279 -0.25757775 -0.1992887 0.0013655477
-0.017825911 -0.038568128 0.0094182771 -0.94595617 -0.24244273 -0.21537979 0.002314572
0.078738399 -0.037621114 0.010369032 0.94787294 -0.26164448 -0.18187617 0.00098077883
-0.019461645 -0.03448087 0.010524173 -0.95915169 -0.22680973 -0.16907199 0.00161983
0.079562411 -0.034480814 0.010509218 0.96790224 -0.19070251 -0.16369976 0.00065099349
-0.019996852 -0.031632014 0.010351216 -0.97526002 -0.15529497 -0.15732554 0.0011521277
0.080146231 -0.031465795 0.010568779 0.97070646 -0.15149593 -0.18648848 0.00090489461
-0.021016996 -0.028674401 0.011481468 -0.98719335 -0.069368631 -0.14365675 0.0018088913
-0.02030026 -0.028576501 0.010309112 -0.98210371 -0.093523555 -0.1634797 0.00058579212
0.080344088 -0.028975522 0.010307836 0.93148565 -0.20904015 -0.29771921 0.012047862
-0.020480733 -0.025541274 0.010470736 -0.98719829 -0.013670892 -0.15891087 0.00051061762
0.080615945 -0.02540878 0.010185464 0.98552245 -0.05647479 -0.1598624 0.0014781902
0.081181191 -0.024904013 0.011526646 0.991395 -0.067969345 -0.11187527 0.0023654122
-0.021057948 -0.022164658 0.011649412 -0.99505627 0.010216332 -0.098786302 0.0012820427
-0.020459499 -0.02254555 0.0103747 -0.98668027 0.022044623 -0.16117081 0.00037829645
0.080650419 -0.022155022 0.010189555 0.98481655 -1.5865869e-05 -0.17359804 0.0014118381
0.08117976 -0.02268561 0.011349441 0.99159789 0.033183027 -0.1250304 0.00580042
-0.021085603 -0.020301796 0.011712774 -0.98867327 0.086579137 -0.12259392 0.0016077423
-0.020410687 -0.019471854 0.010418217 -0.98297358 0.078367822 -0.16619709 0.0012309999
0.080425158 -0.019499093 0.010321327 0.97432339 0.11418256 -0.19405232 0.0010635365
0.08105281 -0.020516746 0.011700523 0.99319702 0.075666696 -0.088511325 0.005636239
-0.019968264 -0.016443275 0.010414724 -0.97366637 0.16178618 -0.16062073 0.0019119756
0.080023631 -0.016406177 0.010472823 0.97130656 0.14084421 -0.19164181 0.00030237445
-0.01946949 -0.013501329 0.010444833 -0.96883398 0.19194323 -0.15658379 0.0027123466
0.079596423 -0.013450965 0.010319106 0.95644307 0.20959444 -0.20319153 0.0011816309
-0.018816486 -0.010519073 0.010614226 -0.95536131 0.24555862 -0.16427319 0.0011761583
-0.017897494 -0.0094248503 0.0093212724 -0.94676542 0.25900841 -0.19118038 0.0013583361
0.07897386 -0.010520436 0.01035738 0.93834966 0.27786893 -0.20564228 0.00070828921
-0.0184277 -0.0084199496 0.01101283 -0.93910599 0.31539115 -0.13641275 0.0023340266
-0.017610889 -0.0070717866 0.010262678 -0.92165506 0.34909159 -0.16937269 0.0011476774
0.077623345 -0.0071546277 0.010267334 0.92276812 0.33180341 -0.19597311 0.00051213522
0.078326099 -0.0083891004 0.010898907 0.92648917 0.32527596 -0.18924409 0.00088926544
-0.016632836 -0.0043604048 0.01055693 -0.91059333 0.38127765 -0.15952139 0.0017966549
0.076654688 -0.0042684916 0.010448611 0.91376585 0.36094859 -0.18640852 0.00049544463
-0.015600583 -0.0019985088 0.010458133 -0.8834486 0.43315098 -0.17860237 0.001425883
-0.014706123 -0.00067183404 0.0098697376 -0.86926037 0.46229315 -0.17513256 0.001387251
0.074707091 -0.00030565102 0.010069009 0.86215544 0.46690279 -0.19669749 0.00090609526
0.075717703 -0.0018397477 0.010520916 0.88447452 0.42884177 -0.1838464 0.00092254824
-0.01362543 0.0014122637 0.010344686 -0.84445393 0.50740331 -0.17157929 0.0004131613
0.073726267 0.001579517 0.010222301 0.84368163 0.49837533 -0.19955799 0.00046162747
0.075072013 2.1423479e-05 0.011944906 0.85899657 0.47327366 -0.19528683 0.00041887854
-0.012387165 0.0034664082 0.010690476 -0.82242042 0.54483283 -0.16365173 0.00056087365
-0.01121018 0.0050300551 0.010392318 -0.80125606 0.57370132 -0.16986896 0.00055777264
0.07131397 0.0051393225 0.010106336 0.79556179 0.56593406 -0.21633305 0.00064301712
0.072509311 0.0037275101 0.010419376 0.82109255 0.5294525 -0.21327712 0.00070864672
-0.0096844817 0.0070931325 0.010381075 -0.77513123 0.60831022 -0.17067604 0.00062017015
-0.0084787812 0.0083970902 0.010367529 -0.73738837 0.66069466 -0.14050244 0.00043707853
0.068600722 0.0086930525 0.010091469 0.75713581 0.62495297 -0.19020806 0.00051461137
0.070092991 0.0069910884 0.010519134 0.77021027 0.60804629 -0.19249904 0.00027693578
-0.0072465464 0.0099939229 0.010965669 -0.7541042 0.64025825 -0.14627431 0.0006867295
-0.0054892427 0.011455711 0.010113232 -0.70510209 0.69358718 -0.14753954 0.00017316685
0.065745704 0.011699393 0.009663133 0.73170269 0.65355641 -0.19358516 0.00044165229
0.0667594 0.010921461 0.010297588 0.70371038 0.68592906 -0.18518369 0.00040971779
-0.0040902849 0.013043724 0.01053312 -0.6805647 0.71714109 -0.15013474 0.00030002138
-0.0024987438 0.014537381 0.01059057 -0.66064572 0.73649347 -0.14534333 0.00033806619
0.062234018 0.014928916 0.0099487975 0.61427051 0.76729673 -0.18419428 0.00048049708
0.065025188 0.012847179 0.010509119 0.68166405 0.70615762 -0.19150838 0.00047341618
-0.0010998384 0.015747536 0.010729467 -0.62465972 0.76575917 -0.1530136 0.00053850084
0.0010703038 0.017220156 0.010357727 -0.58596283 0.79297411 -0.16685215 0.00064816198
0.059301183 0.017306881 0.010522345 0.5622052 0.80332202 -0.19646655 0.00082261476
0.061222591 0.0160162 0.010798086 0.58994019 0.78477538 -0.18999526 0.00013233669
0.0022084839 0.018346284 0.010745134 -0.55429429 0.81429422 -0.17228711 0.0019709545
0.0045802793 0.01967741 0.010613305 -0.51292032 0.83984607 -0.17768313 0.0018060124
0.0066103414 0.020647306 0.010145331 -0.4690842 0.86528414 -0.17675816 0.00093649281
0.053480871 0.020672355 0.010389782 0.44160733 0.88154262 -0.16692978 0.00092787959
0.055591915 0.019583106 0.01031598 0.49334401 0.85060948 -0.18186595 0.00098958053
0.057710193 0.018570602 0.010875599 0.52576244 0.83309102 -0.17185265 0.00094646541
0.0078256624 0.021651287 0.010817826 -0.45194936 0.87540704 -0.17147706 0.0019796973
0.010607376 0.022629015 0.010463703 -0.36589012 0.9135285 -0.17773597 0.001017958
0.013206909 0.023433944 0.010049061 -0.33342364 0.92399144 -0.18726575 0.0021316814
0.015517859 0.023775291 0.0094148703 -0.269517 0.94218326 -0.19912638 0.0014363439
0.047278374 0.023480572 0.010254737 0.31941545 0.92964339 -0.18367606 0.0011844065
0.049475454 0.022729274 0.010424847 0.38183224 0.90781528 -0.17342348 0.001173683
0.052101851 0.021548495 0.010822678 0.43655276 0.88400298 -0.16721351 0.0010084129
0.014058776 0.024186356 0.01124803 -0.31566823 0.93404752 -0.16705947 0.0029639245
0.016523767 0.024651581 0.010461817 -0.26227602 0.94391525 -0.20058703 0.0016302563
0.019344548 0.025366282 0.010449663 -0.22392033 0.95426244 -0.19809826 0.0016642399
0.022381455 0.025896119 0.010590491 -0.1708374 0.97002375 -0.17282525 0.0017489555
0.025443675 0.026182519 0.010358172 -0.088428177 0.97946811 -0.18117036 0.00027828151
0.028542412 0.026277028 0.010417748 -0.040942375 0.98148346 -0.18712029 0.00026147685
0.031323276 0.026436023 0.010627546 0.012035729 0.98304433 -0.18297283 0.00038959368
0.034388039 0.026178025 0.010233978 0.077648193 0.98144352 -0.1753266 0.00023950078
0.037609234 0.026010823 0.01072028 0.16109566 0.97729129 -0.13765889 0.0020819777
0.040701885 0.025385387 0.010309159 0.20014012 0.96980524 -0.1393615 0.0015664478
0.043333907 0.024788504 0.010387685 0.2348004 0.9609862 -0.14619996 0.0012098396
0.04591104 0.024155281 0.010683598 0.31092617 0.93339008 -0.17918667 0.0011377331
0.023824818 -0.075026609 0.014150233 -0.16126198 -0.98679018 0.015481364 0.012897685
0.025810344 -0.075096898 0.013689665 -0.077842496 -0.99696511 0.0011030971 0.0083281053
0.028412012 -0.075228058 0.013399013 -0.0112367 -0.99945629 0.030998865 0.0069715581
0.031615153 -0.075160481 0.013220755 0.034895197 -0.99823505 -0.048053153 0.0072485525
0.033984892 -0.075087123 0.013585991 0.068811111 -0.99718213 -0.029879343 0.010138139
0.036219761 -0.075040132 0.014128142 0.13026333 -0.99141955 -0.010898133 0.010491841
0.011809342 -0.072085716 0.01293043 -0.30953699 -0.95049328 0.027374974 0.015039903
0.013520008 -0.072446674 0.013334927 -0.31606174 -0.94753289 0.047817212 0.0059573911
0.016374489 -0.073351324 0.013349632 -0.2707209 -0.96265596 0.0019122519 0.008079608
0.019431666 -0.074096888 0.013343004 -0.21501334 -0.9765538 -0.010587717 0.0099837948
0.022482362 -0.074619748 0.013442056 -0.15321638 -0.98779839 -0.027911782 0.0045102984
0.024601698 -0.074924968 0.013092404 -0.11269667 -0.99362415 0.0032531137 0.0058411462
0.031772319 -0.074972637 0.014164175 0.0057766838 -0.9978807 0.06481345 0.006486122
0.035250053 -0.074914448 0.013042874 0.10527273 -0.99238092 -0.064013839 0.0074213622
0.037533179 -0.074640788 0.013290574 0.1833096 -0.98140669 -0.056907959 0.0056634266
0.04044129 -0.074111938 0.013132673 0.20172235 -0.97688431 -0.070746318 0.010425795
0.043668911 -0.073378198 0.013238657 0.23775972 -0.96920621 -0.064106494 0.0099389721
0.046408053 -0.072632805 0.013351775 0.29872349 -0.95270294 -0.05586997 0.0081309881
0.048295178 -0.072025523 0.012981243 0.33374721 -0.94189179 -0.038114347 0.0080140075
0.0056613581 -0.069154225 0.012940765 -0.47394246 -0.88054407 -0.0045448202 0.0095437709
0.0075027002 -0.069978304 0.01307853 -0.44714251 -0.89437276 -0.012682491 0.0087483954
0.010380181 -0.071383938 0.013499232 -0.37391442 -0.92627823 0.04686857 0.0059598135
0.012555814 -0.071828812 0.014812642 -0.333092 -0.9374907 0.10080164 0.0048566125
0.049451329 -0.071403466 0.013587181 0.39248404 -0.91933185 -0.028023137 0.0043211835
0.052331109 -0.070135728 0.013370944 0.41714838 -0.90874058 0.013335498 0.012021469
0.054363556 -0.069152951 0.013417295 0.48130932 -0.8735882 0.072006501 0.022058107
0.0018965211 -0.066716418 0.013219403 -0.55447638 -0.83219945 0.00019363506 0.006598921
0.0042298613 -0.068245359 0.013356462 -0.51806968 -0.85530722 0.0073088408 0.0061740107
0.055541884 -0.068436399 0.013353754 0.50816035 -0.86031461 -0.040394884 0.0094281994
0.058071468 -0.066800117 0.013073792 0.53235203 -0.84474576 -0.05482569 0.0059953318
-0.0032555335 -0.063129999 0.01383354 -0.62974435 -0.77342659 0.072342068 0.020496275
-0.0014665573 -0.064242527 0.013503477 -0.61485082 -0.78810823 0.029047813 0.0071444758
0.00044886675 -0.06571196 0.013264208 -0.59843773 -0.80086124 0.022218196 0.0062184865
0.020309566 -0.06338983 0.01452617 0.13483873 0.18389048 0.97365439 0.010532161
0.02280179 -0.063830629 0.014526856 0.048364889 0.18077585 0.98233443 0.01737795
0.025491364 -0.063752957 0.014272276 0.0097341109 0.12698501 0.99185687 0.018052617
0.02862023 -0.063901335 0.014075066 -0.0022896123 0.13966568 0.99019611 0.018915996
0.031584132 -0.064149417 0.014356863 -0.019048354 0.16774079 0.98564714 0.016836761
0.034180075 -0.064421289 0.014600657 -0.054019202 0.24561739 0.96786058 0.0098083541
0.037336085 -0.064031474 0.01441026 -0.013943231 0.26163816 0.96506536 0.0072251218
0.040434636 -0.063894853 0.01439889 -0.057489395 0.27666384 0.95924562 0.013535935
0.043066282 -0.063607059 0.014692145 -0.10923973 0.31310779 0.94341415 0.013247747
0.045056626 -0.063121155 0.014661052 -0.12803689 0.30743277 0.94291657 0.011834561
0.059705969 -0.065695219 0.013113412 0.56392777 -0.82574385 -0.011513163 0.0082640937
0.061605953 -0.064368814 0.013608332 0.60634196 -0.78447908 0.13016124 0.016339123
0.063197799 -0.063195497 0.013933497 0.63734913 -0.76686472 -0.075528674 0.011038061
-0.0062791533 -0.06018281 0.013957079 -0.72131371 -0.68996626 0.060440168 0.013274766
-0.0045725266 -0.061667144 0.013420262 -0.66759568 -0.74448293 -0.0078234775 0.0046607661
0.011302086 -0.060368367 0.014408262 0.09732753 0.1789955 0.97902405 0.01196234
0.01381283 -0.06061713 0.014393079 0.017483721 0.087150082 0.99604177 0.014971331
0.016543424 -0.06108705 0.014490256 0.035210304 0.19993965 0.97917539 0.014145422
0.019462887 -0.061538965 0.014616208 0.080667943 0.087548904 0.99288869 0.012636931
0.02273152 -0.06154329 0.01467967 0.020293314 -0.036732383 0.9991191 0.0040817247
0.025614435 -0.061519537 0.014741472 0.022626845 -0.11390392 0.9932341 0.0010201591
0.028646735 -0.061652835 0.014624346 -0.01024085 -0.11987689 0.99273598 0.0011583174
0.031491656 -0.061542589 0.014798163 -0.012092194 -0.099351883 0.9949789 0.0017654913
0.034607925 -0.060943432 0.014682429 0.012242394 -0.064566717 0.99783826 0.00070566358
0.036977943 -0.060917623 0.014719353 -0.0031418579 -0.042698957 0.99908304 0.0021681427
0.040362969 -0.061647139 0.014584159 -0.0077442601 -0.0014763336 0.99996895 0.0046324274
0.043338284 -0.061622355 0.014555537 -0.015436118 0.12431663 0.99212253 0.020348007
0.046417776 -0.061436687 0.014446505 -0.1401688 0.23762991 0.96118927 0.0093096141
0.049186751 -0.060748845 0.014562706 -0.14176105 0.2446721 0.95918685 0.0061709853
0.064479493 -0.061873395 0.013654488 0.66075855 -0.74035633 0.12357459 0.015155783
0.066342786 -0.060238175 0.013615133 0.71314555 -0.6975224 -0.069899745 0.0077472688
-0.0091329031 -0.057293698 0.01402275 -0.74991637 -0.66051799 0.036626555 0.020661496
-0.0076364451 -0.058597498 0.013442859 -0.74677008 -0.66397709 0.038326912 0.011270959
0.007884251 -0.057837527 0.014426539 0.13889283 0.15506864 0.97809124 0.012877035
0.01047102 -0.058494043 0.014636081 0.060425211 0.09343753 0.99378985 0.014477149
0.013356748 -0.058504809 0.014736774 -0.033833694 -0.081830226 0.99607188 0.00036791703
0.016364865 -0.058596402 0.014803877 -0.029166861 -0.072488546 0.9969427 0.00032653683
0.019596098 -0.058444019 0.014855736 -0.016462021 -0.057506751 0.99820936 0.00018475603
0.022721995 -0.058459725 0.014870387 -0.015544087 -0.046818621 0.99878246 9.2161601e-05
0.025648812 -0.058589794 0.014950553 -0.0036958854 -0.053809721 0.99854439 0.00027869656
0.028716065 -0.058601674 0.014951298 0.0031527875 -0.046060603 0.99893367 0.00034393201
0.031607855 -0.05857591 0.014919142 0.02225763 -0.055550635 0.99820781 0.0006153367
0.034679104 -0.058517862 0.014873127 0.019603288 -0.063984267 0.99775839 0.00087056326
0.037549809 -0.058574211 0.01492316 0.010193749 -0.068549402 0.99759567 0.00066067523
0.041038364 -0.058518 0.014862429 0.022924935 -0.043942455 0.99877095 0.0007698845
0.043143436 -0.058289848 0.014689684 0.020794123 -0.044657435 0.99878591 0.0009522374
0.046356715 -0.058478724 0.014463538 -0.011204155 -0.0032393141 0.99993199 0.0047570094
0.049395651 -0.058540355 0.014551558 -0.051042929 0.052163221 0.99733329 0.0089855222
0.052380264 -0.058294017 0.01461237 -0.11839522 0.15312417 0.98108894 0.010478445
0.054342326 -0.057641108 0.014908356 -0.16840124 0.22836633 0.95890039 0.0037388436
0.067784406 -0.058628559 0.013357223 0.74796742 -0.66160214 -0.053172886 0.0074178227
0.069309354 -0.057136346 0.013840343 0.75637615 -0.64568251 -0.10482978 0.0037778635
-0.010278794 -0.055466264 0.013282076 -0.79909104 -0.60120553 -0.0023477278 0.010428758
-0.008929288 -0.056940239 0.01276218 -0.75278383 -0.65823179 -0.0068860319 0.0074128495
0.0049644085 -0.054429233 0.014582584 0.0067880303 0.025562881 0.99965024 0.008254867
0.0072010467 -0.054903917 0.014760429 -0.04745172 -0.046594419 0.99778622 0.00039437343
0.010612693 -0.055425685 0.014803141 -0.039325967 -0.056725893 0.99761504 0.00027514121
0.013535293 -0.055431474 0.014862599 -0.019490032 -0.050950706 0.99851102 0.00040376792
0.016351918 -0.055527918 0.014923896 -0.012538784 -0.024189621 0.99962878 3.722687e-05
0.019281007 -0.055488933 0.014935362 -0.0058821393 -0.021759443 0.99974597 1.6396716e-05
0.022335714 -0.055576522 0.014946798 -0.013959835 -0.02174454 0.99966615 2.0576928e-05
0.024837669 -0.055995822 0.014981289 -0.017245326 -0.020912774 0.9996326 2.1596123e-05
0.029173344 -0.05574264 0.014989662 0.01097043 -0.012925643 0.99985629 1.0343754e-05
0.031255502 -0.055477858 0.014973591 0.0011887575 -0.013498318 0.99990821 3.3812197e-05
0.034333441 -0.055772029 0.014987071 0.0016800734 -0.01764385 0.99984294 5.5921791e-05
0.037493724 -0.055557758 0.014929836 0.022304527 -0.025717659 0.9994204 0.00011916906
0.041094832 -0.056070548 0.014901854 0.029369142 -0.047466148 0.99844104 0.0004638769
0.043051161 -0.056064814 0.014922669 0.013135371 -0.059663061 0.99813217 0.00059352256
0.046454579 -0.055488341 0.014860334 0.012498591 -0.065406024 0.99778044 0.00038314934
0.049491882 -0.055643898 0.014777498 0.023961505 -0.035884909 0.99906868 0.00062247022
0.052409299 -0.054856256 0.014742811 0.014154258 0.026097052 0.99955922 0.0025378307
0.055093192 -0.055543803 0.014619857 -0.12626746 0.111052 0.98576063 0.00832594
0.058003221 -0.054421984 0.014683553 -0.17268096 0.21365274 0.96152681 0.0054954165
0.070368476 -0.055548493 0.013376805 0.78890008 -0.61219394 -0.053434514 0.0053223632
-0.012686282 -0.052018702 0.013358262 -0.84109074 -0.53980142 -0.034363043 0.0069123656
-0.011604232 -0.053537708 0.013302478 -0.82806605 -0.55868697 -0.046641678 0.0056136493
0.0020472065 -0.052043028 0.014215912 0.079743534 0.070739135 0.99430221 0.013499612
0.0043250527 -0.052711405 0.014773495 -0.054026093 -0.047931969 0.99738842 0.00062333676
0.007310146 -0.052581746 0.014819501 -0.047698498 -0.056058496 0.99728751 0.00067004253
0.010461527 -0.052499782 0.014895435 -0.047440518 -0.036536008 0.99820566 0.00060655863
0.01364989 -0.052433003 0.014947926 -0.014986359 -0.016433882 0.99975264 1.6982081e-05
0.01658069 -0.052551653 0.014969297 -0.0088848062 -0.015536794 0.99983984 9.5145515e-06
0.019453524 -0.052486848 0.014975987 -0.0081312461 -0.017803622 0.99980849 1.3898176e-05
0.021771017 -0.053104792 0.014980901 -0.014458246 -0.019902021 0.99969739 2.3569659e-05
0.030867439 -0.053590976 0.01499446 0.0010700208 -0.0070963856 0.99997425 1.8453746e-05
0.037711922 -0.053029273 0.014963041 0.015949996 -0.022916676 0.99961013 0.00011090835
0.040328715 -0.053026203 0.014976439 0.003010439 -0.027971089 0.99960423 0.00014057418
0.043901376 -0.052635975 0.014988959 0.018580038 -0.014461308 0.99972284 9.0443224e-05
0.046518464 -0.052440159 0.014901891 0.026479704 -0.01171952 0.99958068 6.2876054e-05
0.049462903 -0.052543409 0.014817514 0.043769702 -0.0096991174 0.99899459 5.8611069e-05
0.052731983 -0.052637052 0.014763312 0.033792753 0.0065030511 0.99940777 0.00039398612
0.055316187 -0.052328624 0.014712838 0.011509126 0.023284944 0.99966264 0.0016105329
0.057743154 -0.0522126 0.014736861 -0.089224897 0.12105893 0.9886272 0.0053727208
0.060494583 -0.051841304 0.014887817 -0.20282105 0.17779817 0.96293896 0.0042268243
0.071734212 -0.053703707 0.013539722 0.82907259 -0.55780256 -0.038664211 0.011743824
0.07284046 -0.052138813 0.013347423 0.8382712 -0.54295123 -0.050053157 0.012482937
-0.015217441 -0.04823133 0.012986079 -0.87482339 -0.48361012 0.028377006 0.022248192
-0.0141848 -0.049690865 0.013401665 -0.84576094 -0.53304136 -0.023567598 0.0058342842
-0.00081819005 -0.048526835 0.014640645 0.041914538 0.040335286 0.99830669 0.0062137446
0.00163785 -0.049714327 0.014716407 -0.03737957 -0.031050008 0.99881864 0.00077823049
0.0044574295 -0.049626391 0.014838901 -0.04873224 -0.048890494 0.99761462 0.0014738524
0.0075186249 -0.049594492 0.014844489 -0.035934441 -0.025966629 0.99901676 0.0010798339
0.010378502 -0.049516361 0.014917903 -0.025672788 0.0044410639 0.99966055 4.8894217e-05
0.013480691 -0.049571879 0.014970906 -0.023956517 -0.0015249755 0.99971187 8.9547451e-05
0.016396385 -0.04996334 0.014989851 -0.010079955 -0.017863004 0.99978966 2.2016109e-05
0.018565277 -0.050383877 0.014999216 -0.012705738 -0.029342405 0.99948871 5.3311855e-05
0.043896768 -0.049560372 0.014976185 0.023503009 0.0094174184 0.99967945 3.7218902e-05
0.046459001 -0.04931426 0.014911389 0.032172069 0.012842227 0.99939984 3.1031112e-05
0.049451455 -0.049654126 0.0148181 0.038443461 0.0069481232 0.99923664 6.8241738e-05
0.052584223 -0.049582146 0.014799999 0.035675332 -0.01118453 0.99930084 0.00016287073
0.055465762 -0.049656689 0.014694853 0.019438295 -0.0058390438 0.99979407 0.00025159665
0.058454663 -0.049299382 0.0145989 -0.053882841 0.042484615 0.99764305 0.0039194096
0.061660998 -0.049390975 0.01449893 -0.10309736 0.12001722 0.98740411 0.0060179089
0.063602448 -0.048660368 0.014831644 -0.22705357 0.15624155 0.96126759 0.0026693938
0.074306801 -0.04966224 0.013374733 0.86246824 -0.5016728 -0.066880368 0.0039644265
0.075158626 -0.048495661 0.014093307 0.85363609 -0.508573 -0.11251241 0.0017811796
-0.015883906 -0.046645805 0.013548937 -0.89423817 -0.44752699 -0.0075904722 0.0092689581
-0.0037245918 -0.045765862 0.01458967 0.031875081 0.086237706 0.99576455 0.0055536255
-0.0017671559 -0.046780497 0.014778621 0.018649731 0.035918389 0.99918067 0.0064497855
0.001354008 -0.046504155 0.014772776 -0.040259436 -0.014787679 0.99907982 0.0010898671
0.0048658028 -0.046275098 0.014866978 -0.015265106 0.0067403549 0.99986076 0.00079947367
0.0074798302 -0.046552062 0.014770754 -0.020815032 0.029268617 0.99935484 2.8312001e-05
0.010541339 -0.046469066 0.014848946 -0.031490881 0.023068853 0.99923778 3.4386041e-05
0.013361049 -0.04651767 0.014935508 -0.034896735 0.0046761381 0.99937999 0.00023702027
0.025824087 -0.04530862 0.014999664 0.01290034 0.035083119 0.99930114 6.2183099e-05
0.0285342 -0.045092043 0.01499524 0.0020609798 0.014227508 0.99989671 4.3599779e-05
0.031221002 -0.045207098 0.014996279 -0.0044353274 0.0076663764 0.99996078 2.2623048e-05
0.041025095 -0.045948137 0.014980863 0.018341267 0.019422095 0.99964315 1.7032024e-05
0.043500736 -0.046472494 0.014938237 0.027397987 0.02364675 0.99934489 1.0175989e-05
0.046551805 -0.046556707 0.014836689 0.025516961 0.01879511 0.99949771 7.6473225e-05
0.049865663 -0.046147339 0.014840418 0.014280878 -0.01293982 0.99981427 0.00047226337
0.052665062 -0.046680123 0.014805784 0.01877664 -0.026824048 0.99946386 0.00043457333
0.055543996 -0.047122128 0.014780254 0.017993432 -0.047716357 0.99869883 0.00031706947
0.058722742 -0.0465951 0.014722059 0.013388748 -0.060513701 0.99807757 0.00066771393
0.061638188 -0.04637374 0.014615101 0.0027393817 -0.052734535 0.99860483 0.0015789135
0.063891441 -0.045952391 0.014785875 -0.113026 0.11571857 0.98683041 0.0090510286
0.075990044 -0.046698004 0.013430999 0.8987518 -0.43334591 -0.066756763 0.0049899206
-0.018091826 -0.042399894 0.013211381 -0.94400573 -0.32079652 0.077089287 0.020015383
-0.017239416 -0.043740191 0.013365793 -0.916861 -0.3992064 0.0003459999 0.0062690424
-0.0065665147 -0.042512048 0.014224083 0.11348091 0.11414944 0.98696101 0.012299281
-0.0043634586 -0.043260306 0.014556305 -0.010555197 0.035988763 0.99929643 0.0060939449
-0.0015135834 -0.043587185 0.014827378 -0.050110765 -0.0011492355 0.998743 0.00051459507
0.0015685479 -0.043566018 0.014819516 0.0044995537 0.011660851 0.99992192 9.7230812e-05
0.0045149326 -0.043462224 0.014787244 -0.0049582045 0.0074573434 0.99995995 0.00025416422
0.0074689346 -0.043472625 0.014791263 -0.031966183 -0.006482847 0.99946797 0.0005639724
0.010178243 -0.043544419 0.014864115 -0.042715132 -0.020089975 0.99888527 0.00046926239
0.013489906 -0.043908518 0.014908521 -0.044735026 -0.0044809296 0.99898887 0.00024994594
0.020245627 -0.042479295 0.014983582 0.012005776 0.018678222 0.99975348 6.9115064e-05
0.022807484 -0.042954288 0.014963299 0.0094823735 0.026060656 0.99961543 0.00012342441
0.025750086 -0.043446764 0.014958382 0.0054029399 0.014066732 0.99988645 6.9854948e-05
0.028684849 -0.043570351 0.014964012 -0.0013874484 0.0007485642 0.99999881 6.5185741e-05
0.031129248 -0.043469224 0.014983849 -0.0076515386 9.586713e-05 0.99997073 3.9860421e-05
0.03544613 -0.042358536 0.014998863 0.0073434259 -0.0012621224 0.99997228 5.3149488e-05
0.037436314 -0.043143511 0.014983588 0.018516492 0.0045648017 0.99981815 8.3804509e-05
0.04058031 -0.043450207 0.014925052 0.019684967 0.017676963 0.99965 2.0105912e-05
0.043515034 -0.043483991 0.014843165 0.020088883 0.01149067 0.9997322 0.00014005764
0.046427865 -0.043454591 0.014751554 0.01032493 -0.014919885 0.99983537 0.00034087562
0.049631201 -0.043454617 0.014775668 -0.00124704 -0.034879994 0.99939078 0.00029023748
0.052607197 -0.043618448 0.014839002 -0.0079585798 -0.053440519 0.99853933 7.0926893e-05
0.055434819 -0.043436851 0.014886679 0.016944794 -0.04812523 0.99869758 0.00042525434
0.058595803 -0.043530453 0.014882213 0.055288061 -0.018092614 0.99830651 0.001483621
0.061755903 -0.043603044 0.014758273 0.023919253 0.03056439 0.99924654 0.0027365161
0.064280495 -0.043492787 0.014711583 -0.12520979 0.1370158 0.98262364 0.0074633956
0.066433303 -0.042731524 0.0146806 -0.21666898 0.12468906 0.96824956 0.0052325497
0.077370137 -0.043636769 0.013370113 0.92743564 -0.36559027 -0.078784205 0.005948233
0.078105286 -0.0421247 0.013019266 0.93439746 -0.33748353 -0.11404484 0.0047286106
-0.018405363 -0.040442072 0.013173769 -0.96563894 -0.25896102 -0.02192439 0.015484517
-0.017914888 -0.041590095 0.014091511 -0.95371032 -0.30069882 0.0041161892 0.0081116119
-0.0070433244 -0.040264349 0.014375286 0.17148842 0.095680155 0.98052895 0.010173626
-0.0044999174 -0.040358618 0.014633182 -0.060175866 -0.0081743151 0.99815434 0.00042828103
-0.0016667591 -0.040194828 0.014828145 -0.036312595 0.0043988009 0.99933082 0.00053739036
0.0014693581 -0.040574893 0.014828544 0.0054815477 0.01399595 0.99988705 0.0001318873
0.004569036 -0.040709034 0.014777526 -0.022881761 -0.0082936175 0.99970376 0.00057974149
0.0074739321 -0.040578045 0.014805865 -0.050558764 -0.034511365 0.99812466 0.0002414381
0.010015952 -0.040880352 0.014932761 -0.049509648 -0.043241493 0.99783719 0.00011275759
0.017139299 -0.040080894 0.014988369 0.013948052 0.002845987 0.99989867 0.00011198391
0.019349447 -0.040331814 0.014953151 0.0076811863 -0.005090402 0.99995756 6.8612462e-05
0.0223318 -0.040687148 0.014953527 -0.0039487467 -0.011655266 0.9999243 5.319175e-05
0.025348088 -0.040926438 0.014971216 -0.0039397255 -0.0073064961 0.99996555 9.6128097e-05
0.028043959 -0.041205648 0.01497519 -0.0049374402 -0.016343705 0.99985427 2.167614e-05
0.030891841 -0.041253246 0.014986536 -0.0069202567 -0.01208744 0.99990302 3.8512469e-05
0.035606965 -0.041025013 0.014995032 0.0090731634 -0.0097817769 0.99991101 7.7729746e-05
0.037682906 -0.0408419 0.014958803 0.021919556 -0.01220116 0.99968529 0.00019344343
0.040345758 -0.040335808 0.014885179 0.025752362 -0.020852191 0.99945086 0.00014367748
0.043431006 -0.04048058 0.014834767 0.0072817798 -0.025863538 0.99963897 0.00021028228
0.046645463 -0.040490296 0.014874997 -0.015486585 -0.044521689 0.99888837 1.7551176e-05
0.04967935 -0.040632948 0.014938518 -0.017570291 -0.04321184 0.99891144 6.2429681e-05
0.051908005 -0.041229971 0.014975143 -0.011447459 -0.042158492 0.99904537 0.00010564581
0.055589039 -0.040613752 0.014959331 0.031090656 0.042460948 0.99861431 0.0017286564
0.058505807 -0.040731236 0.01474408 0.048556186 0.070757054 0.99631113 0.0013139741
0.061813507 -0.039731681 0.014390055 0.0065829968 -0.02019207 0.99977446 0.0032327892
0.064715683 -0.040134028 0.014314404 0.00050610298 0.0177189 0.99984288 0.0047018928
0.067011207 -0.039935187 0.014479881 -0.1380377 0.013616643 0.99033338 0.0088195261
0.069055676 -0.039272808 0.014912052 -0.34232205 0.14087009 0.92896241 0.0022790593
0.078517869 -0.040611841 0.013437914 0.9431839 -0.32420996 -0.072747186 0.01047159
-0.019238375 -0.03756918 0.01344505 -0.96993291 -0.24322212 -0.0085501829 0.019508077
-0.0094675906 -0.036941964 0.014524262 0.21216539 0.10914084 0.97112006 0.010330624
-0.0075232927 -0.037893724 0.014555123 0.12626754 0.073759958 0.98925024 0.015502799
-0.0046539069 -0.03738372 0.014701897 -0.033618208 0.009854136 0.99938619 0.00066887098
-0.0015063444 -0.036930375 0.014703029 -0.01914883 0.0081669465 0.99978334 0.00048698654
0.0018706822 -0.037597805 0.014687294 -0.032456987 -0.014019949 0.99937481 0.001040909
0.0043041734 -0.037899595 0.014784212 -0.0512021 -0.026923012 0.99832541 0.00061551726
0.0075824647 -0.037489645 0.014904963 -0.055062979 -0.020654112 0.99826926 0.00010335492
0.0092365909 -0.038452577 0.014995632 -0.040548876 -0.016055647 0.99904859 0.00023037929
0.017365659 -0.038823135 0.014995785 0.011048433 -0.006626552 0.99991703 6.0689927e-05
0.019540871 -0.038536217 0.014982909 -0.00055686751 -0.011791523 0.99993032 6.4028834e-05
0.021532435 -0.038682446 0.014995193 -0.0058398829 -0.01443914 0.9998787 5.4780154e-05
0.029102443 -0.036072109 0.014995654 -0.011511651 0.0025615941 0.9999305 0.00025507977
0.040522754 -0.0382099 0.014942209 0.020403752 -0.041183807 0.99894321 0.00010327402
0.043475267 -0.038391836 0.014925541 -0.00019769295 -0.044735726 0.99899882 5.878762e-05
0.046268892 -0.03821649 0.014982951 -0.010609237 -0.03316351 0.99939364 0.00012495993
0.052958712 -0.03717161 0.014803609 0.066446207 0.080347389 0.99454975 0.001598338
0.055492505 -0.036934108 0.014413322 0.037963893 0.074669816 0.99648541 0.0027572883
0.058729954 -0.037289895 0.014527531 0.033353869 -0.0025486073 0.99944031 0.0037109726
0.061430767 -0.037475422 0.014653193 -0.011646659 -0.09043777 0.99583399 0.0013506727
0.064492658 -0.037655681 0.014699141 -0.0027618294 -0.077871166 0.99695963 0.0021631357
0.067473061 -0.037454389 0.014632984 -0.12227648 -0.0023459378 0.99249327 0.0082502346
0.069405161 -0.037472337 0.014879288 -0.31929526 0.070124283 0.94505721 0.0028371315
0.079316705 -0.037750423 0.013591105 0.9603579 -0.26578629 -0.084085517 0.0077134492
-0.019982666 -0.034462102 0.013541815 -0.97839761 -0.20625047 -0.014103422 0.016945077
-0.0097124455 -0.034033135 0.014198313 0.20680945 0.043970935 0.97739267 0.0089949882
-0.0074285804 -0.034652788 0.014437021 -0.055567101 -0.003724966 0.99844801 0.0009629241
-0.0046302518 -0.034311268 0.014629125 -0.050308269 -0.012638625 0.99865377 0.00077156257
-0.0014706217 -0.034011647 0.014594674 -0.031363353 -0.042338539 0.99861091 0.00052374159
0.0012460905 -0.034683853 0.014724943 -0.051531173 -0.050324898 0.99740261 0.0005092019
0.0044113756 -0.034530468 0.014937409 -0.048543658 -0.041392863 0.99796301 0.00027730354
0.0074767759 -0.034561776 0.014980512 -0.037104055 -0.018959517 0.99913156 0.00022432745
0.026508346 -0.03371143 0.014985763 -0.0041764057 -0.015207496 0.99987566 0.00061362237
0.028435452 -0.034645066 0.014968767 -0.013527037 -0.015947176 0.99978131 0.00070635107
0.030387323 -0.035047509 0.014992647 -0.013755447 -0.02940217 0.99947304 0.00054720801
0.044603989 -0.033357561 0.014975996 0.065068975 0.085082933 0.99424696 0.0032970684
0.045778245 -0.033693962 0.014982989 0.058379464 0.092827201 0.99396932 0.0038092318
0.050145037 -0.035202902 0.014949538 0.061881766 0.097831309 0.99327725 0.0017752238
0.052983724 -0.034071103 0.014550352 0.024446674 0.0074565173 0.99967331 0.0052521219
0.055409823 -0.034572795 0.014642909 -0.00058592384 -0.039772067 0.99920857 0.0040922551
0.058306068 -0.034661926 0.014796583 -0.006545268 -0.082238026 0.99659121 0.0011718153
0.061553057 -0.034634609 0.014777416 0.016670855 -0.041367672 0.9990049 0.0011498345
0.065016523 -0.034479819 0.01480476 0.018551925 0.0035193211 0.99982172 0.0011893235
0.067710623 -0.03449202 0.014682568 -0.090097874 0.085861683 0.99222481 0.0065331236
0.069668666 -0.034549013 0.014874395 -0.23080684 0.082532302 0.96949291 0.0039314199
0.080150343 -0.033962939 0.013461804 0.98534906 -0.17053753 0.0020389864 0.014138374
-0.020404169 -0.031624574 0.013485115 -0.98561764 -0.1617462 -0.048949428 0.0038850945
-0.010360358 -0.031429037 0.014451095 0.18970855 0.0069445241 0.98181593 0.0099541526
-0.0076027215 -0.031451359 0.014415018 -0.014648694 -0.046598438 0.9988063 0.0039922739
-0.0045041265 -0.031598467 0.014723711 -0.054876879 -0.044843029 0.9974857 0.00049448444
-0.0018654845 -0.031974867 0.014842913 -0.03738888 -0.042930495 0.99837822 0.00045506388
0.0014521497 -0.031520117 0.014856938 -0.048201844 -0.032242656 0.99831712 0.0003656724
0.004412598 -0.03155186 0.014961296 -0.033679567 -0.015192711 0.99931723 0.00035632143
0.0064872769 -0.031661708 0.014987425 -0.012399384 -0.0027621393 0.99991935 1.2133618e-05
