# .PCD v0.7 - Point Cloud Data file format
VERSION 0.7
FIELDS x y z normal_x normal_y normal_z curvature
SIZE 4 4 4 4 4 4 4
TYPE F F F F F F F
COUNT 1 1 1 1 1 1 1
WIDTH 549
HEIGHT 1
VIEWPOINT 0 0 0 1 0 0 0
POINTS 549
DATA ascii
-0.012048279 0.0033724164 -0.025983525 -0.82256037 0.56867188 0.0025814222 0.00038068841
-0.010836607 0.0046471837 -0.025392458 -0.81113702 0.58479857 -0.0082101719 0.00035638729
0.070590295 0.0045250398 -0.025395669 0.82884759 0.55937725 -0.010431913 0.00016876041
-0.0094652912 0.0064142612 -0.025551978 -0.78745663 0.61626768 -0.01123454 0.00013976634
-0.008189383 0.0080118207 -0.025450096 -0.76450133 0.64447707 -0.013677835 0.00015593978
0.068100654 0.0078569036 -0.025520485 0.77978927 0.62594515 -0.011011493 0.00026715006
0.069259904 0.0063997032 -0.025750393 0.79767478 0.60302824 -0.0084825307 0.00020625551
-0.0067294552 0.0097282007 -0.025541468 -0.7360239 0.67679691 -0.014657429 0.00031609114
-0.0052388408 0.011221298 -0.025580835 -0.7131936 0.70077193 -0.016543772 0.00033939618
0.065085873 0.011201906 -0.025467092 0.70275122 0.71126801 -0.015441313 0.00019049537
0.066619359 0.009663173 -0.025525015 0.73740971 0.6753118 -0.013451935 0.00037661241
-0.0036243726 0.012753241 -0.025457457 -0.66376787 0.74780881 -0.013937849 0.00010451577
-0.0018892603 0.01427193 -0.02548106 -0.6329 0.77417868 -0.0092171077 0.0002158304
0.061924934 0.014139367 -0.025545377 0.64379168 0.76507699 -0.013766379 0.00026874716
0.063611984 0.012636503 -0.025389215 0.68204993 0.73115569 -0.014808021 0.00020267589
-0.00051908963 0.015417535 -0.025508761 -0.61701041 0.78692323 -0.0070689749 0.0003077747
0.0019304507 0.017268879 -0.025417939 -0.53492171 0.84484434 -0.0098392237 0.00025873631
0.0034654289 0.017990896 -0.025825776 -0.51924872 0.85456944 -0.0095826788 0.00035557203
0.056823358 0.017827215 -0.025697386 0.56188995 0.82714391 -0.010613983 0.00013908499
0.058616478 0.01665483 -0.025541788 0.57280314 0.81965321 -0.0080764284 0.00022070555
0.060420103 0.015321678 -0.025427669 0.61816758 0.78596032 -0.011629556 0.00021390006
0.0029998629 0.018192865 -0.02408571 -0.50812608 0.86119014 0.012626154 0.00047155973
0.0047772638 0.019001715 -0.025474323 -0.49388537 0.86949271 -0.007725656 0.0003353809
0.0073777018 0.020392824 -0.025474276 -0.44942334 0.89331895 0.00019597945 0.00014179182
0.050998669 0.020971969 -0.024387635 0.45448849 0.89074129 0.0044922959 0.00052340492
0.052583151 0.020303473 -0.025590029 0.47011328 0.88246536 -0.015762664 0.00019229061
0.05524195 0.018839676 -0.025434706 0.51220036 0.85876805 -0.012968308 0.00038393884
0.0087926853 0.021175666 -0.025550283 -0.43953988 0.89822012 0.0023167881 0.00014202594
0.01059984 0.021904992 -0.025557915 -0.39032963 0.9206751 -0.00042083272 0.00030621115
0.013549655 0.023049317 -0.025426229 -0.333406 0.94278204 -0.0015853443 0.00018993433
0.015775889 0.02380535 -0.025397219 -0.28513077 0.95846981 -0.0060071726 0.00027187052
0.044227235 0.023789829 -0.025398728 0.2979528 0.95454097 -0.0086998716 0.00013217787
0.04651187 0.023030054 -0.025600303 0.34688556 0.93785477 -0.0099444315 0.00030806006
0.049512397 0.021852523 -0.025409181 0.41584638 0.90935415 -0.012118953 0.00036840283
0.051083878 0.021153513 -0.02496602 0.4220643 0.90651405 -0.0096955374 0.00023453969
0.017266175 0.024220536 -0.025595712 -0.26419532 0.96445322 -0.0055510304 0.00030999875
0.01993379 0.024884528 -0.025483921 -0.18074287 0.98352873 0.001816789 0.00018803286
0.02254596 0.025293719 -0.025501788 -0.16021633 0.98707688 -0.0031724218 0.00034444692
0.025320722 0.025648162 -0.025521452 -0.10429696 0.99453968 0.0035912909 0.00019741766
0.028382903 0.02588824 -0.025488224 -0.039366081 0.99921864 0.0035167004 0.000480388
0.031508334 0.025894688 -0.025504619 0.041548088 0.99913245 0.0028401648 0.00033885986
0.034595005 0.025707969 -0.025528472 0.097443856 0.99524099 0.00022868665 0.00043238373
0.037399925 0.025354873 -0.025531301 0.17391254 0.98473942 -0.0065298816 0.00038539286
0.04041826 0.024786904 -0.02547418 0.22360714 0.97466493 -0.0053112195 0.00018470405
0.042795882 0.024193468 -0.025263183 0.28582394 0.95826578 -0.0055979337 0.000212096
0.01694658 -0.07234481 -0.022797488 -0.26276299 -0.96454352 0.024727786 0.00043232137
0.019479576 -0.072951838 -0.022385299 -0.20519738 -0.97837555 0.025986329 0.00035637978
0.022352533 -0.073494956 -0.022474136 -0.16193576 -0.98640937 0.027808059 0.00049396278
0.025159888 -0.073852159 -0.022512889 -0.10225859 -0.99436438 0.027972914 0.00041446718
0.028332362 -0.074159831 -0.022477992 -0.03753072 -0.99886304 0.029393606 0.00087741186
0.031301931 -0.07412333 -0.02253212 0.026250992 -0.99887937 0.03938232 0.0007680452
0.034501925 -0.073888004 -0.022477522 0.096814893 -0.99451315 0.03962994 0.0004639829
0.037494536 -0.073545456 -0.022494363 0.14853616 -0.98840767 0.031420544 0.00040189107
0.040343344 -0.072980702 -0.022535369 0.20837274 -0.97778261 0.022850744 0.00022696506
0.043307707 -0.072273493 -0.022220116 0.28449997 -0.95844996 0.020818479 0.00026327441
0.0087066349 -0.06927292 -0.022852354 -0.44978839 -0.89285374 0.022419699 0.00049680518
0.010498276 -0.07011608 -0.022520419 -0.39061138 -0.92011487 0.028485183 0.000549349
0.013551362 -0.071304202 -0.022574896 -0.33272332 -0.94204813 0.042900819 0.00038266694
0.015431562 -0.071916506 -0.022180114 -0.28805345 -0.95697981 0.034855206 0.00058340444
0.044581115 -0.071955949 -0.022174885 0.27259809 -0.96188074 0.021813806 0.00032622216
0.046498064 -0.07132227 -0.022552164 0.33303154 -0.94278729 0.015562351 0.0003606464
0.049716134 -0.070041478 -0.022402855 0.39842826 -0.91711789 0.012233555 0.00023989235
0.051593799 -0.06921424 -0.022166561 0.44086841 -0.89744842 0.014879224 0.00036823761
0.0045561641 -0.067049384 -0.022772161 -0.49332574 -0.86983454 0.0042057545 0.00038624805
0.007213397 -0.068499118 -0.022341661 -0.4561812 -0.88953686 0.024956986 0.00045367854
0.053103842 -0.068515003 -0.022714354 0.46754497 -0.88386661 0.013476552 0.00037887518
0.054929525 -0.067399159 -0.022471365 0.51646584 -0.85627621 0.0073500262 0.00017624661
0.057153706 -0.066146202 -0.022393646 0.55018413 -0.83496374 0.011530267 0.0002935045
0.0017489068 -0.065359779 -0.022290409 -0.56849551 -0.82213169 0.030206384 0.00043489775
0.05889833 -0.06488321 -0.022474842 0.57879078 -0.81540984 0.010391749 0.00046255364
0.060675204 -0.06361676 -0.022404803 0.6184088 -0.78580946 0.0086111585 0.00030383631
0.061941817 -0.062532499 -0.022481995 0.6422047 -0.76648492 0.0086012483 0.00024985528
0.063840643 -0.060840428 -0.022494735 0.6816743 -0.73160297 0.0087911841 0.00017890225
0.06552501 -0.059205003 -0.022367865 0.71367353 -0.70037955 0.011768891 0.00022749242
0.066900335 -0.05779567 -0.022459345 0.74091899 -0.67149156 0.011753075 0.0002209009
0.068286113 -0.056207031 -0.022633461 0.75886917 -0.65115845 0.010494184 0.00030650813
0.069514625 -0.054657586 -0.022606008 0.79404616 -0.60773265 0.012316788 0.00023039058
0.071103714 -0.052390508 -0.022506548 0.8316468 -0.55514014 0.013528727 0.00025335414
0.072099701 -0.051153611 -0.022667684 0.83871996 -0.54446441 0.010359153 0.00027839348
0.071814008 -0.05095258 -0.022530919 0.85005134 -0.52661711 0.009333971 0.00021187973
0.072938249 -0.049456328 -0.022349006 0.86419195 -0.50302738 0.011651799 0.00025445462
0.07441923 -0.046829581 -0.022643143 0.89245898 -0.45097631 0.011717141 0.00029260648
0.075213186 -0.045547161 -0.022617089 0.89964688 -0.43641251 0.013400748 0.0003349887
0.075936265 -0.043488186 -0.022450918 0.92485422 -0.38009581 0.013105202 0.00032689772
0.077083573 -0.04042425 -0.022477429 0.94656718 -0.32226083 0.012588032 0.00020289196
0.077777997 -0.038199089 -0.02246522 0.96179479 -0.27345562 0.013143091 0.00026862946
0.078194201 -0.036655184 -0.022564374 0.97016311 -0.24218835 0.011322534 0.00032728881
0.078690246 -0.034457054 -0.022447385 0.98072922 -0.19493583 0.013051001 0.00031221454
0.079236016 -0.031403955 -0.022470217 0.98883063 -0.14849217 0.012807358 0.00037495329
0.07957314 -0.028510848 -0.022481639 0.99616754 -0.086709723 0.011478818 0.00043214732
0.079695828 -0.025481943 -0.022655558 0.99976957 -0.019772386 0.0083503528 0.00036658411
0.079689406 -0.022534186 -0.022679742 0.99912411 0.040577531 0.010221041 0.00040181392
-0.019636234 -0.019862564 -0.023732388 -0.98471451 0.17407429 0.0059560775 3.3804099e-05
0.079480506 -0.01950538 -0.022522982 0.99509716 0.09840253 0.0099276919 0.00038759212
-0.019643078 -0.016377902 -0.022309884 -0.97882378 0.20469195 0.0022881909 0.00020578972
0.07911025 -0.016522773 -0.022438055 0.98626572 0.16467386 0.012743912 0.0003942959
-0.018423161 -0.012954446 -0.02261587 -0.96718842 0.25381702 0.011117121 0.00029802907
0.077937543 -0.012284558 -0.022085812 0.96959054 0.2444399 0.011970135 0.00036604179
0.078502677 -0.013484489 -0.022551738 0.9762044 0.21656349 0.011193551 0.00028571914
-0.018592225 -0.011454676 -0.022411365 -0.96714181 0.25330913 0.021710742 0.00054559624
-0.017524695 -0.0095263161 -0.0226974 -0.95486921 0.29683533 0.010660401 0.00044866919
0.077665441 -0.010098201 -0.022530461 0.96047544 0.27815992 0.010676958 0.00034801595
0.078111865 -0.011488954 -0.02241521 0.96684903 0.25495669 0.014144015 0.00033700647
-0.017090278 -0.007509972 -0.022542834 -0.94407529 0.32937849 0.015219313 0.00036475397
0.076822482 -0.0074721687 -0.022463555 0.94277412 0.33328527 0.0098996991 0.00037743562
-0.015844321 -0.0042542643 -0.022499327 -0.92276382 0.38525507 0.0092496593 0.00024201321
0.074924514 -0.0033544963 -0.022228703 0.91475117 0.40389457 0.0099771461 0.00027439769
0.075678498 -0.0046255556 -0.02249484 0.92216003 0.38673607 0.0074893171 0.00025546749
-0.015033499 -0.0018708776 -0.023407655 -0.89495718 0.44598675 0.012141166 0.00043146865
-0.014430881 -0.0012359839 -0.022293992 -0.8874765 0.46061796 0.014717991 0.00031068016
0.074289523 -0.0014872659 -0.022493042 0.89625907 0.44351175 0.0041323788 0.00040967032
0.075158454 -0.0027463008 -0.022233861 0.90327293 0.42896044 0.0095450757 0.00032747502
-0.012920835 0.0015080913 -0.022495501 -0.85893923 0.51177597 0.01757413 0.00024522602
-0.011982148 0.0026658 -0.023695048 -0.82625943 0.56319034 0.01058423 0.00034727031
0.071804851 0.0027333468 -0.022553779 0.83556241 0.5493868 0.0031067412 0.00032163528
0.072892979 0.0011833719 -0.02236007 0.86369872 0.50397635 0.0056913127 0.00054845522
-0.010938947 0.0045752078 -0.022464737 -0.81232631 0.58291519 0.018326186 0.00035003063
0.070652604 0.0044900118 -0.022472845 0.82437134 0.56597489 0.0091812005 0.00015507598
-0.0094712395 0.006542882 -0.022460513 -0.78293824 0.62193328 0.01437817 0.00027235955
-0.0082301833 0.0080599152 -0.022424851 -0.76557666 0.64313197 0.016540872 0.00031377154
0.068125457 0.0078607621 -0.022546178 0.78416306 0.62044626 0.011606245 0.00018889614
0.069313236 0.0064009232 -0.022724869 0.7987324 0.60156441 0.012112812 0.00020984204
-0.0066556334 0.0098745599 -0.02255309 -0.73426569 0.67871165 0.014298149 0.00042165763
-0.0051430715 0.011431362 -0.022571439 -0.69323701 0.72063059 0.010680865 0.00038150366
0.065153308 0.011193821 -0.022365337 0.70167285 0.71237516 0.013295484 0.00036373554
0.066639513 0.0096730208 -0.022510886 0.74328625 0.66890365 0.0096659604 0.00043156045
-0.0037183948 0.012763829 -0.022548005 -0.66728985 0.74472654 0.010328265 0.00027243202
-0.00198879 0.014209531 -0.022428095 -0.64496827 0.7640028 0.017768277 0.00017995213
0.0618641 0.014192718 -0.022500912 0.64196241 0.76640707 0.022461958 0.0002970304
0.063710943 0.012628282 -0.022333922 0.67665476 0.73603517 0.01976498 0.00041640148
-0.00058690138 0.015451672 -0.022163348 -0.59306222 0.80485022 0.022212697 0.00027887113
0.001569088 0.017031984 -0.022412864 -0.54726303 0.8366437 0.023033645 0.00029620918
0.0033937793 0.017955674 -0.022728156 -0.52331549 0.8516826 0.0278868 0.00033814058
0.05685886 0.017865309 -0.022586312 0.55252087 0.83326399 0.019794276 0.00039008967
0.058564931 0.016731028 -0.022608744 0.5794037 0.81490481 0.01488329 0.0002484562
0.060354803 0.015402519 -0.022431202 0.61477667 0.7884292 0.020716047 0.00026731976
0.0045366175 0.018900696 -0.022580512 -0.49580562 0.86807215 0.02505012 0.00027548842
0.0072978525 0.020370562 -0.02243227 -0.45543885 0.89001733 0.02108684 0.00026634516
0.050951343 0.020939985 -0.021804743 0.42275506 0.90541428 0.038770672 0.00053104974
0.052811991 0.020275461 -0.022299513 0.47113344 0.88167763 0.02603763 0.0006535069
0.055303492 0.018909821 -0.022585599 0.50752848 0.86148947 0.015837356 0.00054699386
0.0088944985 0.021189274 -0.022714162 -0.42264259 0.90603703 0.021682849 0.00028949269
0.010691986 0.021950951 -0.022350481 -0.38604802 0.92208052 0.02710088 0.00032929558
0.013520765 0.023052182 -0.022296313 -0.33315521 0.94199532 0.040650416 0.0003594711
0.015735157 0.023800265 -0.022535838 -0.29060316 0.95624083 0.033961561 0.0004967174
0.044204235 0.023767097 -0.022428883 0.29104856 0.95604098 0.035726413 0.00031612007
0.04645016 0.023045611 -0.022378009 0.34752625 0.9371776 0.03039081 0.00045033838
0.04947947 0.021798758 -0.022536822 0.398927 0.91628188 0.035843298 0.00059044803
0.051286723 0.021107677 -0.022856023 0.43555254 0.89967662 0.029597584 0.00065189734
0.01724647 0.024260417 -0.022685889 -0.25557992 0.96620619 0.033534016 0.00057817524
0.019726371 0.024827654 -0.022459822 -0.18075508 0.9830274 0.031379495 0.00028705274
0.022413088 0.025269726 -0.022494918 -0.15587951 0.98721516 0.033284266 0.00039654592
0.025424615 0.025704052 -0.022545267 -0.09932372 0.99457711 0.030841004 0.00039513124
0.028509121 0.025937857 -0.022529358 -0.034014504 0.99884689 0.033879019 0.00049313914
0.031456538 0.025908366 -0.022558579 0.031564314 0.99894762 0.033277418 0.00047474759
0.034629483 0.025727807 -0.022477537 0.094531231 0.99496597 0.033266153 0.00054522051
0.037468504 0.025364563 -0.022542374 0.1683349 0.9850384 0.03691449 0.00059920951
0.040381234 0.024780584 -0.022516042 0.21847427 0.97534692 0.031102795 0.00026555217
0.042682867 0.024166511 -0.022539575 0.26347983 0.96409959 0.033021294 0.00017822634
0.01710199 -0.072254494 -0.019939434 -0.2722787 -0.96118534 0.044576608 0.00077734771
0.019629113 -0.072781682 -0.019448664 -0.21276389 -0.97625071 0.040818244 0.00065637199
0.022750884 -0.073331788 -0.019534223 -0.14336988 -0.98894417 0.037873279 0.00062134844
0.025770195 -0.073670119 -0.019359766 -0.089855403 -0.99544102 0.031988319 0.0010426458
0.028618386 -0.073871724 -0.019466164 -0.044009302 -0.99808651 0.043434069 0.00085887522
0.031615403 -0.073844142 -0.019486139 0.038830359 -0.99807453 0.048366655 0.00074525242
0.034531295 -0.073638327 -0.019497074 0.075782813 -0.99642855 0.037242509 0.00063736737
0.037625015 -0.073327735 -0.019492432 0.15533264 -0.98727971 0.033917926 0.00066613941
0.040571228 -0.07286305 -0.019529464 0.21228695 -0.97678983 0.028561505 0.00047562594
0.042804126 -0.072307497 -0.019533755 0.26291856 -0.9643923 0.028659271 0.00023208368
0.0087334346 -0.069283441 -0.019998817 -0.4504095 -0.89016616 0.068815105 0.0003920749
0.010686407 -0.069984198 -0.019619025 -0.40187111 -0.91373891 0.05984021 0.00059723313
0.013584036 -0.071049139 -0.019548003 -0.33070302 -0.94217318 0.054270528 0.00031249871
0.015549509 -0.071686894 -0.019439131 -0.28250241 -0.95809704 0.047355123 0.00075984572
0.044330567 -0.071828507 -0.019160727 0.2758038 -0.9605909 0.034603532 0.00030086038
0.046512775 -0.071158364 -0.019699924 0.34128603 -0.93953592 0.028213127 0.00048536633
0.049429655 -0.070005432 -0.019512562 0.38315019 -0.92331767 0.026086025 0.00035466021
0.05134286 -0.069185853 -0.019577138 0.43856052 -0.89806378 0.03385314 0.00053483754
0.0045724721 -0.066966899 -0.019887807 -0.50630563 -0.85987908 0.065288767 0.00037902381
0.0071347803 -0.068281889 -0.019761208 -0.4615573 -0.88490522 0.062510453 0.00034165988
0.052923664 -0.068399727 -0.019521501 0.45509434 -0.88994914 0.029658947 0.00034477841
0.054881297 -0.067326739 -0.01994596 0.52471465 -0.85112375 0.01621568 0.0003443626
0.057094317 -0.066117465 -0.020173458 0.55621159 -0.8307128 0.023345105 0.00040484231
-0.00037926628 -0.063660473 -0.019848546 -0.57076478 -0.82110584 0.0035732721 0.0010042433
0.001434389 -0.064870037 -0.019779801 -0.55484295 -0.83044797 0.050055832 0.00075565244
0.058543861 -0.064960785 -0.019535657 0.56977606 -0.8216967 0.013026123 0.00035802106
0.060709447 -0.063343622 -0.019129198 0.623375 -0.78132987 0.03045141 0.0002699109
-0.0030119405 -0.061631694 -0.020526681 -0.57129782 -0.82071984 0.0061470103 0.00089068781
0.06206188 -0.062290791 -0.019325286 0.65259576 -0.7572965 0.02491645 0.00038110081
0.063879482 -0.060679939 -0.019683251 0.67755938 -0.73502582 0.025499661 0.00033686083
0.06542249 -0.05913686 -0.01957188 0.7144888 -0.69919634 0.02510554 0.00027611805
0.066806003 -0.057734892 -0.019761665 0.73576587 -0.67684495 0.023009565 0.00022801181
0.068188176 -0.056124765 -0.019458864 0.76048565 -0.64900053 0.021446943 0.0003044442
0.069377594 -0.054644529 -0.019555625 0.79182202 -0.6104511 0.019167112 0.0003717801
0.070877969 -0.052570641 -0.019572634 0.83156955 -0.55517066 0.016664626 0.00042861543
0.072054818 -0.051184114 -0.01984619 0.83333677 -0.55251485 0.016648937 0.00038445331
0.071880177 -0.050852403 -0.019159488 0.83496875 -0.5498541 0.022083167 0.0003062507
0.072842032 -0.049442083 -0.019436641 0.86579329 -0.49961895 0.027980238 0.00038820563
0.074321628 -0.046711959 -0.019617697 0.89325643 -0.44864485 0.028473642 0.00027426798
0.075168431 -0.045314934 -0.019567307 0.90362555 -0.4272956 0.029654497 0.00035871321
0.075817727 -0.043480448 -0.019427437 0.9235673 -0.38218167 0.030994123 0.00028207159
0.076930627 -0.040482718 -0.019500498 0.94720197 -0.31887871 0.03353991 0.00018431092
0.077729248 -0.037999578 -0.019457903 0.9623391 -0.26978779 0.033435814 0.00030084286
0.078181803 -0.03662286 -0.019717583 0.96668148 -0.25402534 0.031592075 0.00029603325
0.077980332 -0.035685882 -0.018270265 0.97919536 -0.1995136 0.037024498 0.00039111328
0.078561768 -0.034488842 -0.019516829 0.97966832 -0.19804253 0.032078739 0.00022542763
0.079044819 -0.03149632 -0.019430235 0.98721242 -0.15636656 0.031003417 0.00026810111
0.079422757 -0.028492907 -0.019517377 0.99590957 -0.086851977 0.024917683 0.00054628606
0.079584509 -0.025511052 -0.019683303 0.99954712 -0.016155859 0.025387507 0.00039247461
0.079594731 -0.022516575 -0.019717395 0.9991377 0.037142348 0.018555878 0.00047931337
0.079337552 -0.019561952 -0.019540522 0.99553663 0.092025436 0.020930646 0.00043921574
-0.01916115 -0.015832568 -0.01929149 -0.98006445 0.19849835 0.0084895948 0.00018909204
0.078976393 -0.016459344 -0.019515712 0.9847905 0.17272401 0.018819535 0.00054743339
-0.018576672 -0.013657317 -0.020449217 -0.97505784 0.22174928 0.0094611309 0.00025505712
0.077938795 -0.012508608 -0.018836839 0.97463816 0.22339946 0.013164193 0.00054879283
0.078390986 -0.013516992 -0.019398175 0.97556603 0.21892065 0.018567177 0.000393364
-0.018449802 -0.01119586 -0.019573566 -0.96794832 0.25111234 0.0043199547 0.00079196895
-0.017722031 -0.010423097 -0.019834632 -0.96296924 0.26913837 0.015962455 0.00058603153
0.077530123 -0.010210728 -0.019280391 0.96151125 0.27382147 0.022756042 0.00044684822
0.078154102 -0.011445925 -0.019970128 0.96279848 0.2695387 0.019185103 0.00045875119
-0.016990801 -0.0074700639 -0.019505382 -0.94329685 0.331424 0.018687872 0.00016618987
0.076678835 -0.0074729696 -0.019528782 0.94153035 0.33622789 0.021712659 0.00038895328
-0.015842224 -0.0045353547 -0.019693047 -0.9232378 0.38413018 0.0087183379 0.00027222239
0.074877888 -0.0033412911 -0.019233944 0.91535842 0.40200785 0.022553604 0.00050022086
0.075632937 -0.0047223419 -0.019529292 0.92105097 0.38885587 0.021359807 0.00022773947
-0.015465994 -0.0028830068 -0.018589871 -0.90661585 0.42194217 0.0035401408 0.00024370902
-0.014376588 -0.0012523108 -0.01941096 -0.88781595 0.46000946 0.013196066 0.00059871475
0.074107729 -0.0014309756 -0.019424815 0.89686292 0.44145745 0.027424879 0.00024862521
0.075067095 -0.0028625305 -0.019857092 0.90100378 0.43346351 0.017365362 0.00037653788
-0.012839889 0.0014470269 -0.01964188 -0.85604674 0.51652092 0.019750951 0.00035770924
-0.011600432 0.0029198034 -0.018451326 -0.82330406 0.56715798 0.022411121 0.00036807306
0.071772903 0.0025551864 -0.019456379 0.83468741 0.55040723 0.018674245 0.0004018076
0.072725505 0.0011140367 -0.019457124 0.8612982 0.50762475 0.021965427 0.00059169298
-0.010727633 0.0046686493 -0.019574892 -0.81110215 0.58444285 0.023234025 0.00061974803
0.070554018 0.0044494257 -0.019465836 0.82115531 0.57058364 0.011764583 0.00031515752
-0.0093030846 0.0064986683 -0.019587094 -0.77613252 0.62992299 0.028554009 0.00027744143
-0.0081672296 0.0078626387 -0.01949688 -0.77173781 0.63522279 0.030212699 0.00025137386
0.068107888 0.0077296337 -0.019487422 0.78554046 0.61860377 0.015983623 0.00032215868
0.06925717 0.0062772688 -0.019569183 0.79732436 0.60336041 0.015172941 0.00015961585
-0.0065589501 0.0097515434 -0.01941599 -0.73948061 0.67249447 0.030325267 0.00034205368
-0.0051660025 0.011254756 -0.019539602 -0.6888805 0.72421044 0.031029662 0.00037470489
0.065100297 0.011070013 -0.019517714 0.6946739 0.71889806 0.024773538 0.00042778591
0.066727988 0.0094829481 -0.019738484 0.74858803 0.66274905 0.01948444 0.00057595316
-0.0037674545 0.01253566 -0.0195232 -0.6778664 0.73458821 0.029620461 0.00038489723
-0.0018499932 0.014333713 -0.019713016 -0.61104745 0.79127467 0.022480369 0.00035487441
0.061795257 0.014008488 -0.019348206 0.63852203 0.76940709 0.017385846 0.00056779792
0.063537866 0.012503208 -0.019600369 0.66840059 0.7434569 0.022637531 0.00050260773
-0.00046567485 0.015266947 -0.019564083 -0.61598521 0.78732729 0.026038872 0.00036171405
0.0016361439 0.016855463 -0.01951658 -0.56423593 0.82532549 0.02180806 0.00061422709
0.0034148504 0.017891467 -0.018735841 -0.53151661 0.84677571 0.02147058 0.00049485615
0.056699477 0.017769437 -0.019548427 0.55153263 0.83349937 0.033023387 0.00052712864
0.058615107 0.01657984 -0.019593924 0.57962865 0.81455696 0.022972161 0.00072036183
0.060314424 0.015241969 -0.019515412 0.62469524 0.78053683 0.022760384 0.0005360592
0.004818073 0.018840237 -0.019509686 -0.49460301 0.86860353 0.029929556 0.00041473028
0.0075848545 0.020364761 -0.019356223 -0.44698375 0.89403224 0.030195955 0.00041879175
0.009103911 0.020951502 -0.018681331 -0.43320084 0.90073788 0.031754609 0.00065473514
0.050883923 0.020883523 -0.018835582 0.43447635 0.90009385 0.032577738 0.00095717516
0.052543424 0.020112894 -0.01949642 0.45770434 0.8883068 0.037654165 0.00075802568
0.05520118 0.018658012 -0.019577116 0.51125985 0.85860783 0.037496768 0.00055935269
0.0088300183 0.021103365 -0.020229317 -0.44232649 0.89639848 0.028583126 0.00054214953
0.010590214 0.021704741 -0.019384993 -0.38711959 0.92149282 0.03145425 0.00042557824
0.013618477 0.022864996 -0.019308176 -0.32910454 0.94361055 0.035907514 0.0005138003
0.016158219 0.023662103 -0.019424325 -0.27129379 0.96157956 0.042006262 0.0008632089
0.018064441 0.023942392 -0.018579099 -0.24466062 0.96833658 0.049654108 0.00055903656
0.043850776 0.023665559 -0.019391436 0.28445053 0.95826524 0.028557936 0.0005966436
0.046679452 0.022726087 -0.019603767 0.34203145 0.93929863 0.027065907 0.00067453383
0.049354479 0.021657728 -0.019729905 0.40420923 0.91397482 0.035565712 0.00073402218
0.051189568 0.021042075 -0.020838059 0.44170535 0.89645976 0.03544499 0.00047225476
0.017428586 0.02412284 -0.020164276 -0.26631692 0.9629705 0.041990452 0.00089420902
0.019141229 0.024539841 -0.019920353 -0.18165351 0.98275864 0.034458421 0.00041010437
0.0228958 0.025163917 -0.019012278 -0.14310031 0.98933703 0.027103579 0.00074048957
0.025382549 0.025491761 -0.0195463 -0.092905745 0.99496043 0.037713118 0.00057468069
0.028566126 0.025660129 -0.01949458 -0.038564596 0.99820524 0.045815703 0.00075629604
0.031483788 0.025682351 -0.019613197 0.030540729 0.99864769 0.042072479 0.00074587623
0.034308154 0.025512414 -0.019505158 0.081083111 0.99575019 0.04366938 0.00064096879
0.037463438 0.025166068 -0.019424334 0.16760744 0.98493171 0.042628203 0.00070399122
0.040480256 0.024566341 -0.019537615 0.22048669 0.97494745 0.029378684 0.00050324999
0.042191129 0.024145648 -0.019915564 0.27366936 0.96148098 0.02567997 0.00058708346
0.017277708 -0.072221443 -0.01622583 -0.27647683 -0.96061623 -0.027875828 0.0011111208
0.019561794 -0.072706573 -0.016587252 -0.21058699 -0.97722137 -0.026296288 0.0010351648
0.022383116 -0.073190592 -0.016479904 -0.15602021 -0.98757273 -0.018917918 0.00084517058
0.025600607 -0.073560245 -0.016477196 -0.084697127 -0.99626666 -0.016710758 0.00079251803
0.028642006 -0.073832549 -0.016530814 -0.03277906 -0.99926829 -0.019706495 0.00089449791
0.031583961 -0.073817089 -0.016507195 0.033790573 -0.99925208 -0.018802006 0.00062740059
0.034577224 -0.073630266 -0.016542526 0.075163819 -0.99703395 -0.016544519 0.00044133133
0.037569236 -0.073289961 -0.016423536 0.15493017 -0.98787403 -0.010077637 0.00076160417
0.040638853 -0.072801292 -0.016511763 0.21098378 -0.97743726 -0.010109989 0.0006976992
0.042788554 -0.072232656 -0.016367676 0.271281 -0.96244323 -0.010472871 0.00043709131
0.0089782216 -0.069130421 -0.015733849 -0.41429946 -0.90814739 -0.060201891 0.0015273764
0.010606905 -0.069795847 -0.016435804 -0.40394938 -0.91430819 -0.029419128 0.0017107145
0.013354874 -0.070919983 -0.016554337 -0.32951483 -0.94367003 -0.030115165 0.00086236419
0.015888236 -0.071711145 -0.01698819 -0.28069505 -0.9593839 -0.028159369 0.0012112116
0.044294715 -0.071809821 -0.01658465 0.27720037 -0.9607482 -0.011080143 0.00027450363
0.046560299 -0.071104497 -0.016488798 0.32554877 -0.94547892 -0.0093592573 0.00056701264
0.049479317 -0.069945224 -0.016479487 0.38626161 -0.92237556 -0.0050156326 0.00045099435
0.05134682 -0.069161162 -0.016044796 0.43602777 -0.89992678 -0.0033979623 0.00046034608
0.0045098662 -0.066634938 -0.016747035 -0.49325165 -0.86945093 -0.027528869 0.0015076222
0.0075924234 -0.068316951 -0.016800269 -0.45700178 -0.88885957 -0.032834575 0.0020897714
0.0090499595 -0.068837665 -0.017538887 -0.45980743 -0.88746881 -0.031246889 0.0019459676
0.052683491 -0.06845364 -0.016471587 0.4619163 -0.88692033 -0.0023586594 0.00059872546
0.055429973 -0.066985689 -0.016286978 0.50465554 -0.86331588 -0.0029232271 0.00049026823
0.057101741 -0.066063814 -0.015922941 0.55958074 -0.82876307 -0.0046004592 0.00042110786
0.0013153334 -0.064419925 -0.016044438 -0.52984804 -0.84471917 -0.075568981 0.00045112614
0.0032558825 -0.065941483 -0.015591004 -0.52994192 -0.84465837 -0.075589694 0.0005654305
0.056840833 -0.065969117 -0.015916217 0.55382431 -0.83263201 0.0016029524 0.00031449922
0.058433942 -0.06500335 -0.016618425 0.59039444 -0.80711383 -0.0013041825 0.00044025655
0.06066218 -0.063363031 -0.016567156 0.62543309 -0.78021038 -0.01026048 0.00055769261
0.062226038 -0.06206689 -0.016396355 0.65312427 -0.757191 -0.0095154252 0.00070893479
0.063962586 -0.060521796 -0.016568189 0.68380398 -0.72958994 -0.010518363 0.00034909282
0.065327026 -0.059203651 -0.016535588 0.71110219 -0.70299757 -0.011318972 0.00048054586
0.066620566 -0.057862632 -0.016603962 0.73418081 -0.67880493 -0.014227072 0.00044974903
0.068120733 -0.05620525 -0.016528692 0.75717872 -0.65316939 -0.0070857094 0.00030782589
0.069401145 -0.054641157 -0.01641128 0.79062808 -0.61225635 -0.007024928 0.00032745473
0.070859894 -0.052555293 -0.016506568 0.82940191 -0.55859333 -0.0081120254 0.00040464252
0.072075509 -0.051106963 -0.015759835 0.83753335 -0.54624629 -0.012362421 0.00036883567
0.07186725 -0.050687373 -0.016882973 0.84795475 -0.52999264 -0.008979206 0.00038346741
0.072860219 -0.049359493 -0.016616125 0.86784768 -0.49672788 -0.010096951 0.00054147991
0.074296787 -0.046623558 -0.016539233 0.89594871 -0.44402736 -0.010751147 0.00039867606
0.075076133 -0.045180954 -0.016634885 0.90711969 -0.42086306 -0.0028460457 0.00059344305
0.075756349 -0.043439642 -0.016475031 0.92359203 -0.38330296 -0.0075295763 0.00044450737
0.076853879 -0.040498745 -0.016459027 0.94876522 -0.31591174 -0.0066653597 0.00051364407
0.077656649 -0.037895832 -0.016552934 0.964221 -0.26503277 -0.0059411963 0.00052069174
0.078093097 -0.03655022 -0.016382329 0.96500671 -0.26220277 -0.0034328708 0.00063877751
0.077919096 -0.035852253 -0.017093146 0.97524524 -0.22068533 -0.013956991 0.00082421716
0.078490347 -0.034471523 -0.016528267 0.97911811 -0.20296849 -0.011470648 0.00050473399
0.079033919 -0.031485923 -0.016456045 0.9871642 -0.1588988 -0.016061502 0.00051125541
0.079400599 -0.028492257 -0.016485063 0.99594396 -0.089264624 -0.011287363 0.00062911166
0.079518743 -0.025484484 -0.016541252 0.99981618 -0.018309575 -0.0056846491 0.00044058287
0.07952363 -0.022537287 -0.016557898 0.99952149 0.030857943 -0.002134521 0.00043149566
0.079353198 -0.019606011 -0.016460231 0.99606746 0.087680504 -0.012715249 0.00049276871
-0.019170901 -0.01600505 -0.017070543 -0.97837704 0.20670007 0.0073167598 0.00019210653
0.078945108 -0.016397495 -0.016467756 0.98485029 0.17207846 -0.021423655 0.00041131323
-0.019147696 -0.014231248 -0.01583451 -0.97426963 0.22502276 -0.01278636 0.00012173298
0.077920377 -0.012320554 -0.017371718 0.97356451 0.2269 -0.026239298 0.00038532499
0.078432053 -0.013583105 -0.016320495 0.97555238 0.21852988 -0.023285145 0.00034058222
-0.018147688 -0.011167308 -0.015963331 -0.96675962 0.25518471 -0.016019607 0.00067337521
-0.017936705 -0.011461179 -0.0168842 -0.96766585 0.25223473 -0.00071495614 0.00093251595
0.077579357 -0.010280169 -0.016547225 0.96048397 0.27706987 -0.026512848 0.00041679351
0.078084424 -0.011624066 -0.015860748 0.96662068 0.25486913 -0.026194783 0.00042134925
-0.016970813 -0.0076272776 -0.016552124 -0.94441539 0.32865149 -0.0082357638 0.00018333014
0.076674096 -0.0074782805 -0.016490009 0.94237643 0.33377749 -0.022784546 0.00045426807
-0.015885711 -0.0045481897 -0.016188903 -0.92315888 0.3843424 -0.007649946 0.00041848182
0.074836917 -0.0032835575 -0.016988976 0.9109686 0.41232806 -0.011035054 0.00059655803
0.075576246 -0.0046450119 -0.016475689 0.91983277 0.3919265 -0.017360305 0.00042103717
-0.015351327 -0.0026087365 -0.016349114 -0.89184958 0.45220879 -0.01056294 0.00071114377
-0.014314954 -0.0012010306 -0.016507113 -0.88553971 0.46440041 -0.012320182 0.00053055852
0.074087135 -0.0014424844 -0.016454114 0.89473408 0.44630566 -0.016190631 0.00036289901
0.075193651 -0.0029743996 -0.015783746 0.91118884 0.41120064 -0.025473999 0.00030029236
-0.012730556 0.0015786161 -0.016467933 -0.85258508 0.5223543 -0.015642868 0.00033771296
-0.011673458 0.0029025427 -0.016342603 -0.82551026 0.56424659 -0.012594127 0.00047628384
0.071713455 0.0026658878 -0.016574288 0.8365382 0.54762161 -0.017733496 0.00039341176
0.072678097 0.0011950197 -0.016433626 0.86397594 0.50321186 -0.01798005 0.00060555089
-0.010698751 0.0046442361 -0.01658852 -0.81470042 0.57952136 -0.020448236 0.00047554506
0.070618451 0.0044251503 -0.016324053 0.82413644 0.56593728 -0.022672622 0.00043376943
-0.0094049126 0.0063364711 -0.016393498 -0.78351867 0.62116396 -0.015930133 0.00032397173
-0.0081429351 0.007867855 -0.01649306 -0.77208626 0.63532799 -0.015529312 0.00027813844
0.068060696 0.0078254286 -0.01651407 0.78607792 0.61800623 -0.012243717 0.00040203251
0.069214828 0.006310557 -0.01618186 0.79369444 0.60792154 -0.021919517 0.00025803072
-0.0066125169 0.0096423775 -0.016426269 -0.72997922 0.68340421 -0.00943824 0.00045815
-0.0052168462 0.011087636 -0.016440418 -0.72150868 0.69238245 -0.0056391852 0.00045685406
0.065081179 0.011053583 -0.01653013 0.70299935 0.71077698 -0.02424966 0.00057968078
0.066623904 0.0095239161 -0.016682284 0.74740958 0.66425413 -0.012056415 0.00063503289
-0.0037804274 0.012471055 -0.016470511 -0.68071717 0.73253375 -0.004303467 0.00045971095
-0.0018951643 0.014083613 -0.016498532 -0.63895065 0.76921189 -0.0074301427 0.0003310031
0.061946295 0.014019145 -0.016591098 0.63389933 0.77250743 -0.037470344 0.00054604473
0.063558318 0.012558416 -0.016445827 0.67226994 0.73942369 -0.036135431 0.00052015955
-0.00023893645 0.015413883 -0.016483828 -0.6013934 0.79886389 -0.011937503 0.0003533054
0.0019690751 0.017108195 -0.016341871 -0.52647573 0.85006642 -0.014505272 0.0003491806
0.0034016375 0.017868612 -0.017120104 -0.54664552 0.83699065 -0.025005354 0.00029943357
0.056661315 0.017782468 -0.016733518 0.54792762 0.83611 -0.026373243 0.0006461119
0.058405139 0.016645256 -0.016599823 0.57158041 0.82020599 -0.023620216 0.00066235143
0.060423218 0.015229402 -0.016278086 0.62378734 0.7808401 -0.034322605 0.00053045427
0.0047666924 0.018810976 -0.016376112 -0.49421668 0.868976 -0.02511018 0.00039822535
0.007553963 0.020275038 -0.016609721 -0.44535521 0.89520818 -0.016159141 0.00065151206
0.0092261368 0.020846983 -0.016764671 -0.44569233 0.89503664 -0.016362667 0.00061792665
0.05094105 0.020892264 -0.017475855 0.43073675 0.90241206 -0.010879899 0.0008859887
0.052500565 0.020191284 -0.016397327 0.4577207 0.88831031 -0.037370842 0.00038078462
0.055254221 0.018695869 -0.016379258 0.50735062 0.86115897 -0.031632334 0.00055562326
0.0089342259 0.021123558 -0.015721343 -0.4243769 0.90538585 -0.013445051 0.00089244574
0.010673801 0.021724332 -0.016442344 -0.38370439 0.923289 -0.017560724 0.00044331304
0.013604481 0.022871386 -0.016541211 -0.32462797 0.94563764 -0.01965325 0.00034644137
0.016182 0.023694154 -0.016482338 -0.276306 0.96099478 -0.012001794 0.00059837161
0.018053608 0.023969848 -0.017438561 -0.24420612 0.96966225 -0.010890883 0.00069244666
0.043870617 0.02365917 -0.016634868 0.28839076 0.95691097 -0.033944014 0.00052794034
0.046628162 0.02279095 -0.016348854 0.34874862 0.93663716 -0.032943901 0.00042582618
0.049511366 0.021664888 -0.016351961 0.40597034 0.91339117 -0.030077871 0.00042764843
0.051135197 0.02111431 -0.015460999 0.4711214 0.88176364 -0.023185492 0.0004430963
0.017446255 0.024101555 -0.016275665 -0.26137805 0.96512157 -0.014895281 0.00049055804
0.01954462 0.024511712 -0.0164891 -0.20349066 0.97893524 -0.016651696 0.00046968751
0.022689598 0.025057623 -0.016472947 -0.13718109 0.99020988 -0.025802819 0.00054713956
0.025914669 0.025420938 -0.016700391 -0.08420682 0.99621254 -0.021675721 0.00085446157
0.028708173 0.025683245 -0.016329395 -0.010769475 0.99970043 -0.021981448 0.00094426476
0.031611603 0.02565665 -0.016432805 0.022225589 0.99953675 -0.020790163 0.00090915058
0.034343563 0.025454888 -0.016510494 0.074058443 0.99698818 -0.023020899 0.00069101434
0.037493046 0.0250882 -0.016512677 0.16426985 0.98613846 -0.023372777 0.00067175512
0.040581901 0.02453736 -0.016512027 0.21801297 0.97560447 -0.025809621 0.00057917082
0.042378582 0.024126932 -0.015951743 0.27908003 0.959804 -0.029843619 0.00057870761
0.017253248 -0.072420597 -0.012800287 -0.23461612 -0.97161144 -0.030438764 0.0002781387
0.019051438 -0.072840445 -0.013313777 -0.19436032 -0.98040617 -0.032059599 0.00025124554
0.022902034 -0.073496692 -0.013808448 -0.1435468 -0.98885477 -0.039501987 0.00055741513
0.025477618 -0.073783956 -0.013545807 -0.083000191 -0.99589574 -0.036091898 0.00041692713
0.028677249 -0.073982365 -0.013411141 -0.026490716 -0.99924374 -0.028464735 0.00043816862
0.031517718 -0.073944636 -0.013582312 0.032240864 -0.99928278 -0.01986072 0.00028428118
0.034397747 -0.073762976 -0.013488758 0.08114782 -0.99648625 -0.020740852 0.00020599483
0.037523609 -0.073418923 -0.013505307 0.15215088 -0.98820668 -0.017250013 0.00035534729
0.040560711 -0.072877951 -0.013492384 0.20297138 -0.97903216 -0.017278463 0.0002943814
0.042970601 -0.072335988 -0.013444711 0.25953344 -0.9655602 -0.018325703 0.00027379865
0.0084154652 -0.069175661 -0.013039663 -0.43822005 -0.89674658 -0.061716329 0.00059250719
0.01059853 -0.070107758 -0.013407432 -0.38535672 -0.92088842 -0.058861952 0.00044650873
0.013465736 -0.071199894 -0.013607349 -0.33713678 -0.93990779 -0.053964294 0.00033675617
0.015291598 -0.071824148 -0.013345528 -0.29176632 -0.95530772 -0.047536213 0.00037124014
0.044434592 -0.071904056 -0.013675761 0.28117597 -0.95944434 -0.020164775 0.00032222763
0.046441536 -0.071227349 -0.013539844 0.33346364 -0.94249111 -0.022641048 0.00027489118
0.049596466 -0.070009403 -0.013563444 0.41009438 -0.91199708 -0.0091583282 0.00019257216
0.051448938 -0.069229059 -0.013539039 0.43728369 -0.89914227 -0.018056029 0.00027078169
0.0043794638 -0.066908121 -0.01351459 -0.50984931 -0.85853636 -0.054489143 0.00046423735
0.0069527174 -0.068361625 -0.013847595 -0.46000132 -0.88443083 -0.078619197 0.00050036883
0.053192537 -0.068282001 -0.013145441 0.46226799 -0.88662648 -0.014206115 0.00020669184
0.055721194 -0.066901945 -0.013344583 0.51018119 -0.86001498 -0.0094485264 0.00028486029
0.057156891 -0.066059917 -0.013902051 0.55021143 -0.83495855 -0.010563767 0.00019823233
-0.00010439725 -0.063662775 -0.01458728 -0.5299418 -0.84465623 -0.075614557 0.00056415005
0.0012959329 -0.064938679 -0.012885973 -0.52453387 -0.8501848 -0.045277193 0.00027989532
0.058727287 -0.064899065 -0.013613763 0.587044 -0.8094489 -0.013109404 0.00018106091
0.060748167 -0.063495472 -0.013333073 0.61499822 -0.78835249 -0.016658852 0.00029178633
0.062115297 -0.062320836 -0.01365502 0.64688182 -0.76241201 -0.016486239 0.00017680171
0.063947126 -0.060687296 -0.013456106 0.6807735 -0.73227996 -0.017709205 0.00017267503
0.0656 -0.059145998 -0.013467379 0.71027535 -0.70373625 -0.016252311 0.00027954482
0.06681364 -0.057820313 -0.013469276 0.74457377 -0.66737574 -0.014816085 0.00017822668
0.068200275 -0.056167185 -0.013596693 0.76645637 -0.64223617 -0.0087881749 0.00014555475
0.069391668 -0.054688875 -0.013411142 0.79291439 -0.60927939 -0.008084422 0.00018232947
0.071092911 -0.0523539 -0.013465921 0.8308326 -0.5564276 -0.010266422 0.00026035868
0.072119623 -0.051178455 -0.013394501 0.83770198 -0.54602051 -0.010819263 0.00039223323
0.071923614 -0.050917204 -0.01391218 0.84096611 -0.54098982 -0.010295569 0.00024489779
0.072921082 -0.049464472 -0.013440353 0.86542755 -0.5009191 -0.010734922 0.00033968879
0.0743545 -0.04679789 -0.013516067 0.89392978 -0.44784281 -0.018066235 0.00026051124
0.075181 -0.045425661 -0.013600972 0.90229052 -0.43065134 -0.020278709 0.00025878506
0.074973799 -0.044868328 -0.014893664 0.91823053 -0.39590746 -0.010485291 0.00022545128
0.07584019 -0.043522116 -0.01350308 0.92512608 -0.37919447 -0.018795276 0.00025312032
0.077011302 -0.040463492 -0.013403785 0.94614601 -0.32298729 -0.022064388 0.00022785793
0.077731945 -0.038015924 -0.013572441 0.9618358 -0.27261564 -0.023507312 0.00013787557
0.07816878 -0.036562782 -0.013339064 0.96736163 -0.25231174 -0.02346044 0.00013648011
0.078657553 -0.034405522 -0.013555497 0.97884029 -0.20325282 -0.023660993 0.00023531525
0.079188392 -0.031403605 -0.013468343 0.98862976 -0.14861085 -0.022934958 0.00034110155
0.079485737 -0.028531021 -0.013445491 0.99642247 -0.082104065 -0.020029293 0.00030841568
0.079622634 -0.025517862 -0.013510493 0.9995212 -0.023318371 -0.020336535 0.00021287063
0.079625957 -0.022512032 -0.013532111 0.99939018 0.029736044 -0.01830484 0.00024870827
-0.019304348 -0.018292541 -0.013591512 -0.98232478 0.1871832 0.00067478383 0.00017736602
0.079450384 -0.019498724 -0.013411393 0.99594426 0.087492302 -0.020977648 0.00028167196
-0.019206813 -0.017773565 -0.014778468 -0.98232478 0.1871832 0.00067478383 0.00017736602
0.079076387 -0.016412839 -0.013465011 0.98668742 0.16140135 -0.019941621 0.00031354552
-0.018909184 -0.012891573 -0.013517911 -0.96654499 0.25529861 -0.024767902 0.00032685092
0.077955857 -0.012155376 -0.014339962 0.9739998 0.22561651 -0.020532092 7.7270714e-05
0.078480639 -0.013397726 -0.013471668 0.97602266 0.21673529 -0.020140328 0.00014219257
-0.018081613 -0.010735183 -0.013946939 -0.96216261 0.27206722 -0.01491592 0.00047686999
-0.017975474 -0.0093370173 -0.012732578 -0.95747054 0.28821594 -0.013483988 0.00032611191
0.077669702 -0.010072449 -0.013534178 0.95887989 0.28302473 -0.021126866 0.00025870319
0.078118905 -0.011518402 -0.013478258 0.96761149 0.25146562 -0.022205796 0.00024906831
-0.017073913 -0.0075606294 -0.013484886 -0.9423607 0.33393157 -0.021119405 0.00016912624
0.076809429 -0.0075010895 -0.013531141 0.94181806 0.33529225 -0.023616968 0.00026874579
-0.015809253 -0.0042505995 -0.0133445 -0.92541242 0.37875724 -0.012443542 0.00024064613
0.074912727 -0.0032919152 -0.013303444 0.91482252 0.40311149 -0.02451322 0.00023014634
0.075690717 -0.0045748814 -0.013516472 0.92141008 0.38780034 -0.024785096 0.00024944963
-0.015209937 -0.0022779377 -0.013566653 -0.8985498 0.4386884 -0.012680875 0.00041896661
-0.014337553 -0.0010702431 -0.013512949 -0.88612789 0.46313721 -0.016769892 0.00044625686
0.074238524 -0.0014836433 -0.013514205 0.89410341 0.44704455 -0.027023487 0.00016059093
0.075180389 -0.0028251039 -0.013862398 0.90188026 0.43131369 -0.024093224 0.00016687956
-0.013009369 0.0012894354 -0.013459479 -0.85970813 0.51045871 -0.018270757 0.00023078898
-0.011776025 0.0028986128 -0.013328443 -0.83207595 0.55443066 -0.016008969 0.00022864177
0.071795329 0.0027486214 -0.013527464 0.83467501 0.55025953 -0.023066193 0.00020845473
0.072779387 0.001273743 -0.013455801 0.86588115 0.4997437 -0.02249622 0.00037019388
-0.012121323 0.0031819027 -0.013486597 -0.83607221 0.5483579 -0.016940223 0.0005426695
-0.010720422 0.0048076482 -0.013524279 -0.80598652 0.59172601 -0.01568608 0.00031396764
0.070683636 0.0044878344 -0.013384231 0.82500911 0.5646463 -0.023121325 0.00018939341
0.072079107 0.003006683 -0.012915501 0.84121454 0.54028553 -0.021207225 0.00064643059
-0.0094134267 0.0065271044 -0.013426894 -0.77972955 0.6259228 -0.015576134 0.00017677873
-0.0082099065 0.0079663377 -0.013602071 -0.7669071 0.64153707 -0.016842607 0.00013854066
0.068132013 0.0078806579 -0.013621901 0.77938032 0.62624443 -0.019601602 0.00017949198
0.069300927 0.0063871443 -0.013399536 0.79275465 0.60912895 -0.022406725 0.00020439198
-0.0068129231 0.0095666982 -0.013364738 -0.7349748 0.67793769 -0.014577991 0.00021807512
-0.0052949442 0.011124569 -0.013524769 -0.71259224 0.70147067 -0.012295936 0.00017217094
0.065178908 0.011199178 -0.013540057 0.71170807 0.70210683 -0.022752548 0.00035357397
0.066624276 0.0096293893 -0.013449444 0.74791014 0.66344273 -0.021774011 0.00020693413
-0.0037878933 0.012573042 -0.013419752 -0.67092961 0.74140179 -0.013298204 0.00020745918
-0.0019179846 0.014182476 -0.013529874 -0.64060414 0.76772177 -0.015148918 0.00015081734
0.06196944 0.014198387 -0.013451691 0.63898259 0.76889247 -0.022483345 0.00045774286
0.063734114 0.012698444 -0.013401283 0.68483466 0.72825766 -0.025344206 0.00041913652
-0.0003191685 0.015452014 -0.013302339 -0.6066488 0.79483116 -0.014856313 0.00014637462
0.0018378198 0.017138744 -0.013783043 -0.53749043 0.84316486 -0.013305102 0.00021358623
0.0030903295 0.017860554 -0.013016596 -0.54738438 0.83660251 -0.021598507 0.00024777948
0.056828741 0.017854311 -0.013510668 0.5513097 0.83381766 -0.028387025 0.00030976112
0.058641173 0.016720615 -0.013619764 0.57209837 0.81975335 -0.026605468 0.00028433782
0.060467295 0.015388406 -0.013387175 0.60440809 0.79631245 -0.024029847 0.00030891169
0.0048071016 0.019016577 -0.013319952 -0.49842927 0.86662775 -0.022904867 0.00028451922
0.007344876 0.020356044 -0.01366782 -0.4488467 0.89329207 -0.02379098 0.00024024551
0.0090936916 0.020975232 -0.013817675 -0.43554473 0.89970213 -0.028928336 0.00023072015
0.052761041 0.020268736 -0.013627467 0.46879673 0.88298976 -0.023635754 0.00031875205
0.055370342 0.018840212 -0.01318913 0.50848854 0.86074311 -0.023679662 0.00033206455
0.0085478667 0.021123014 -0.013486517 -0.42354989 0.90547019 -0.02700725 0.00025892293
0.010561619 0.021829449 -0.013427246 -0.38132212 0.92418957 -0.021611126 0.00023989496
0.013657389 0.022972796 -0.013525289 -0.32834026 0.94435835 -0.019495614 0.00018926618
0.015974093 0.023734288 -0.013201257 -0.28344133 0.9588297 -0.017511981 0.00014476736
0.044258147 0.023770804 -0.01353347 0.29334417 0.95559478 -0.028068328 0.00043180585
0.046525396 0.022985697 -0.013531208 0.34497917 0.93824214 -0.026288342 0.00034273742
0.049433202 0.021826176 -0.013507227 0.40667513 0.91331142 -0.021855488 0.00032278828
0.051259954 0.021135375 -0.01307606 0.42908794 0.90304005 -0.020055523 0.0003410808
0.017358234 0.024111742 -0.013526896 -0.25938264 0.96559626 -0.018564645 0.0002369267
0.019450895 0.024634512 -0.013565656 -0.2094382 0.97755527 -0.022834236 0.00027910425
0.023093412 0.025272479 -0.014107002 -0.13004644 0.9910807 -0.029101362 0.00044317669
0.025173971 0.025595477 -0.013441508 -0.095027409 0.99506325 -0.028617937 0.00029555176
0.028335303 0.02579394 -0.01346011 -0.039470237 0.99878663 -0.029450374 0.00039136221
0.031396404 0.025827399 -0.01343259 0.027854737 0.9991951 -0.028866533 0.00052626908
0.034545328 0.025660077 -0.013429976 0.08848796 0.99579728 -0.023614021 0.00038334116
0.037347525 0.025288206 -0.013564246 0.16053818 0.98652875 -0.031441391 0.00039328393
0.040431831 0.024737045 -0.013481862 0.20278001 0.97893393 -0.023846062 0.00027352848
0.042769838 0.024177665 -0.013518961 0.26116127 0.96496344 -0.025305009 0.00037827031
0.017129695 -0.072413333 -0.010465625 -0.23168848 -0.97275341 -0.0084353564 0.00019597706
0.019553561 -0.072979048 -0.010464005 -0.21100739 -0.97746891 -0.0055194274 0.00017923745
0.02272973 -0.073562428 -0.010481726 -0.12985282 -0.99150234 -0.0078330198 0.00060668739
0.025149209 -0.073834412 -0.010458581 -0.083506204 -0.99641454 -0.013595766 0.00050621264
0.02844009 -0.074009441 -0.010529914 -0.029575795 -0.99955094 -0.0048147901 0.00044411165
0.031565603 -0.073973514 -0.010504457 0.043234579 -0.99906194 -0.0024755646 0.00020180823
0.034338135 -0.073779583 -0.010578069 0.091239169 -0.99582845 -0.0010006976 0.00021529128
0.037561942 -0.07341326 -0.010459855 0.15564291 -0.98781234 0.0014601691 0.00041015362
0.040531676 -0.072892092 -0.010523369 0.2049067 -0.9787783 0.0024835933 0.00019129533
0.04295088 -0.072321407 -0.010480414 0.2582168 -0.96608424 0.0023118621 0.0003338985
0.0084825838 -0.069306925 -0.01084263 -0.42928293 -0.90313911 -0.0074758078 0.00017721961
0.01051125 -0.070114866 -0.010410756 -0.38718629 -0.92197263 -0.0072937398 0.00025798942
0.013461108 -0.071268812 -0.010336567 -0.33814755 -0.94107902 -0.0051410776 0.00016206423
0.015371468 -0.07190147 -0.010063084 -0.28259981 -0.95918071 -0.010474858 0.0003353589
0.044427097 -0.071919747 -0.01053647 0.28007174 -0.95997697 0.0020187467 0.00026198226
0.046468783 -0.071225964 -0.01053289 0.33612272 -0.94181436 0.0026885921 0.00018259475
0.049618565 -0.069968343 -0.010664102 0.40067622 -0.91621882 0.001298264 0.00022550517
0.051464688 -0.069207139 -0.010496639 0.44290802 -0.89654958 0.0055925418 0.00026885848
0.0025757737 -0.066050433 -0.010171399 -0.50417846 -0.86339331 -0.018873109 0.000168143
0.0050110002 -0.067402482 -0.0104828 -0.49797815 -0.86697197 -0.019423841 0.00017091162
0.0071947183 -0.068569459 -0.010613028 -0.45553014 -0.8901599 -0.010377393 0.00031924964
0.052878387 -0.06845782 -0.010803415 0.46020359 -0.88780892 0.0028350255 0.00020610289
0.055551451 -0.06697388 -0.010392779 0.50401992 -0.86368626 0.0031679778 0.00028675704
0.057104807 -0.066101551 -0.01001446 0.55161476 -0.83409625 0.0021486506 0.00020239408
0.0020715371 -0.065421328 -0.011068048 -0.53405327 -0.84422129 -0.045579486 0.00055805867
0.058711704 -0.064932667 -0.010436639 0.58541107 -0.81073648 0.00050177716 0.00023715012
0.060706872 -0.063509978 -0.01032505 0.61904716 -0.7853446 0.0037998511 0.00030978984
0.061896145 -0.062504038 -0.010548983 0.64783281 -0.76176918 0.0045112884 0.00021187439
0.063785791 -0.060819939 -0.010718343 0.6781171 -0.73491776 0.0072873486 0.00019395021
0.06553553 -0.059175637 -0.010451742 0.70738763 -0.70678186 0.0078764213 0.00028902461
0.066759534 -0.057850648 -0.010463763 0.74900031 -0.66255206 0.0048337011 0.00019936491
0.068211108 -0.056148179 -0.010511369 0.76904678 -0.63918883 0.0021693695 6.4339969e-05
0.069424063 -0.054654192 -0.01046382 0.78880042 -0.61464661 0.0018745577 0.00012947789
0.071025409 -0.052420706 -0.01032643 0.83038193 -0.55716103 0.006116746 0.00029885053
0.072061971 -0.051149979 -0.011010041 0.83443862 -0.55104178 0.0080713332 0.00024211241
