# .PCD v0.7 - Point Cloud Data file format
VERSION 0.7
FIELDS x y z normal_x normal_y normal_z curvature
SIZE 4 4 4 4 4 4 4
TYPE F F F F F F F
COUNT 1 1 1 1 1 1 1
WIDTH 552
HEIGHT 1
VIEWPOINT 0 0 0 1 0 0 0
POINTS 552
DATA ascii
0.076980583 -0.040543795 -0.085605942 0.94674903 -0.32116288 -0.022818973 0.00019732821
0.077722855 -0.038140923 -0.085634388 0.96306145 -0.26807866 -0.025425803 0.00021169071
0.07817433 -0.036584899 -0.085184842 0.97095686 -0.23774607 -0.026825573 0.00024335548
0.077974789 -0.035708331 -0.086859234 0.9789933 -0.20104006 -0.033986002 0.00037281093
0.078624852 -0.034379039 -0.085599221 0.98165697 -0.18894792 -0.025462061 0.00027131973
0.079100519 -0.031468648 -0.085503899 0.98945266 -0.14283076 -0.024142724 0.00032387895
0.079394005 -0.028479917 -0.085517712 0.99626267 -0.084953152 -0.015608163 0.00025150462
0.079526238 -0.025520222 -0.085542284 0.99958467 -0.02379751 -0.01625322 0.00040226194
0.079540707 -0.022457832 -0.085439764 0.99899757 0.040848542 -0.018308291 0.00028933288
0.079323024 -0.019506475 -0.085398294 0.99529272 0.093505859 -0.02547784 0.00025198283
0.078949742 -0.016416861 -0.08554443 0.98561108 0.1667046 -0.02793614 0.00030566924
0.077854037 -0.012649715 -0.085695326 0.97187948 0.23423786 -0.024142507 7.8724726e-05
0.07837528 -0.013708218 -0.085460931 0.97643918 0.21432863 -0.025097102 9.2139737e-05
0.077527888 -0.01037387 -0.085482679 0.95853841 0.28421411 -0.020649865 0.00023732385
0.078053474 -0.011861634 -0.085141644 0.96733123 0.25269341 -0.020404425 0.00018670259
0.076599471 -0.0075118667 -0.085464597 0.93995702 0.3402133 -0.027122706 0.0003472355
0.074832328 -0.0033647015 -0.085724913 0.91320676 0.40676755 -0.02436256 0.00044974242
0.07552851 -0.0048168772 -0.085473686 0.91925359 0.39250073 -0.030267444 0.00027690828
0.07393074 -0.0014376721 -0.085470676 0.89268434 0.44983146 -0.027681686 0.00017740983
0.071683809 0.0025195833 -0.085578151 0.84531802 0.53373051 -0.02385596 0.00038290385
0.072547451 0.0011067145 -0.085537903 0.86611146 0.49948993 -0.018994976 0.00024260565
0.070487715 0.0044873864 -0.085469067 0.82510269 0.56418389 -0.030035015 0.00030725179
0.067972027 0.0078170439 -0.085610323 0.7769599 0.62832493 -0.039256465 0.00023617111
0.069215737 0.0063359612 -0.085024454 0.79341942 0.60743695 -0.038807005 0.00034215522
0.065095611 0.011091569 -0.085405588 0.70316541 0.71027476 -0.032681137 0.00034043181
0.066484503 0.0095889764 -0.085398994 0.74195325 0.66952401 -0.035255615 0.00029576899
0.061843667 0.013986156 -0.085570507 0.638264 0.76850903 -0.044864796 0.00028240398
0.063586086 0.012496878 -0.085491382 0.67358094 0.73820466 -0.03664051 0.00032668622
0.0024915538 0.017604491 -0.086214468 -0.51836616 0.85490757 -0.020722933 0.00067758176
0.0031039633 0.017907452 -0.084930889 -0.52087831 0.85336578 -0.021278167 0.0002730056
0.056540046 0.017749248 -0.08602462 0.55285507 0.83252352 -0.035438932 0.00056249095
0.058663342 0.016457776 -0.085418873 0.57693392 0.81539798 -0.047678933 0.00032976642
0.060361374 0.015211421 -0.085274018 0.61451429 0.7875281 -0.046601389 0.00043032283
0.0045364406 0.018893279 -0.086185098 -0.49560091 0.86786014 -0.034620475 0.00038425496
0.0072862888 0.02050985 -0.085135356 -0.4457604 0.89371848 -0.050646007 0.00043833349
0.050832849 0.020879524 -0.085879862 0.43029475 0.90170711 -0.042079322 0.00033632011
0.052516099 0.020063888 -0.0855252 0.46676856 0.88325816 -0.044520427 0.00018593215
0.055036366 0.018720914 -0.085425526 0.50646377 0.86120629 -0.042640422 0.00025905963
0.0086545106 0.021180678 -0.085036017 -0.4396621 0.8967731 -0.049952537 0.00053304638
0.010444332 0.021840939 -0.085817367 -0.3759349 0.92480356 -0.058407035 0.00035126676
0.013553984 0.023009026 -0.08546032 -0.32383034 0.94441187 -0.056746904 0.00023117961
0.015991213 0.023741836 -0.086023062 -0.28137586 0.95807052 -0.054115579 0.000254374
0.043770187 0.023676062 -0.085612066 0.29295015 0.955037 -0.045656852 0.00030260446
0.046501957 0.022780679 -0.08559601 0.34466082 0.93764919 -0.044978488 0.00028459015
0.049293347 0.021660574 -0.085439011 0.39955413 0.91556704 -0.045756299 0.00023557321
0.017243043 0.024217352 -0.084920146 -0.26373994 0.96333659 -0.049232975 0.0003433511
0.019657284 0.02473174 -0.085554913 -0.20307012 0.97754323 -0.056318689 0.00034186698
0.022639127 0.025294844 -0.085534304 -0.15942217 0.98538369 -0.060029741 0.00038199621
0.025521539 0.025640976 -0.08546643 -0.097512171 0.99392188 -0.05109521 0.00047824913
0.028545735 0.02581702 -0.085428581 -0.031092763 0.99864596 -0.041707713 0.00051845348
0.031539567 0.025824131 -0.085424602 0.043969769 0.99736476 -0.057708334 0.00067043368
0.034462228 0.025640873 -0.085430905 0.095814787 0.99317104 -0.066564493 0.0006777239
0.037457243 0.025204847 -0.08552599 0.1750638 0.98157018 -0.07663358 0.00041694814
0.040464774 0.024556881 -0.085514084 0.21674131 0.97426188 -0.061944488 0.00034568744
0.042312399 0.024124358 -0.085159451 0.25613004 0.9654631 -0.047733139 0.00033208632
0.019948728 -0.073122919 -0.081917211 -0.15161368 -0.98825359 -0.019187119 0.0013873705
0.022307459 -0.073735878 -0.083385013 -0.13271347 -0.99076635 -0.027735861 0.0014430517
0.025308067 -0.073962301 -0.082644671 -0.096799396 -0.995206 -0.013959594 0.00086554611
0.028141541 -0.074152164 -0.082459025 -0.034905802 -0.99931133 -0.012588103 0.00043213053
0.031159392 -0.074124567 -0.082532845 0.016480744 -0.99974871 -0.015199096 0.00034539457
0.034483518 -0.073916733 -0.082587577 0.088130474 -0.99556011 -0.033062052 0.00036876259
0.037375551 -0.073607847 -0.082406759 0.15286066 -0.9880107 -0.02164516 0.00023803007
0.040371947 -0.073038362 -0.082584321 0.21270877 -0.97695833 -0.017534958 0.00030774134
0.043201242 -0.07234513 -0.082732968 0.26463199 -0.96406388 -0.023467477 0.00028659587
0.044243902 -0.071991093 -0.081740744 0.29597339 -0.95483118 -0.026404381 0.00044767355
0.046464458 -0.071277767 -0.082388341 0.33445024 -0.94199312 -0.028145179 0.00033415947
0.049780563 -0.070042521 -0.082595564 0.38943464 -0.92076361 -0.023130866 0.00058866764
0.051458836 -0.06924767 -0.082619473 0.44081125 -0.89728141 -0.023906479 0.00039263867
0.052814849 -0.068528466 -0.082613505 0.46810991 -0.88336843 -0.023096398 1.9368761e-05
0.055341776 -0.067181103 -0.082367048 0.49503303 -0.86870128 -0.017334592 0.00022768449
0.057113264 -0.06616614 -0.082317494 0.55005169 -0.83493382 -0.018131122 0.00062522088
0.058687691 -0.065066427 -0.082491569 0.5750879 -0.81788963 -0.018178092 0.00046870008
0.060719132 -0.06359008 -0.082643218 0.6115604 -0.79088223 -0.022343848 0.00041887208
0.062185626 -0.062419377 -0.082507394 0.63769877 -0.77005005 -0.019060476 0.0003079969
0.063921884 -0.060892932 -0.082537368 0.68084419 -0.73223728 -0.016729794 0.0004006651
0.065514706 -0.059347026 -0.082425445 0.70776892 -0.70636028 -0.010875694 0.00031167493
0.066836335 -0.057947267 -0.082371473 0.72563756 -0.6880179 -0.0090339249 2.304316e-06
0.06832464 -0.056348111 -0.082311273 0.75722027 -0.65310788 -0.008224491 0.00027967652
0.069610909 -0.054449849 -0.082372889 0.81431907 -0.58034402 -0.0092332223 0.00031767465
0.071333252 -0.052063163 -0.082312278 0.84380668 -0.53662622 -0.0047389967 0.00028091905
0.072106123 -0.05109803 -0.082684338 0.84252697 -0.53863978 -0.0039404966 0.00030458259
0.072994679 -0.049349785 -0.082804881 0.86805749 -0.49645495 -0.0029417262 0.00017449865
0.074364737 -0.046824019 -0.082577191 0.89264345 -0.45074728 -0.003812951 0.00033018252
0.075201735 -0.045344714 -0.082096636 0.90186316 -0.43199891 0.0044409148 0.00022494182
0.075889461 -0.043512121 -0.08273042 0.92502117 -0.37990358 0.0030087375 0.00014614852
0.077024721 -0.040475037 -0.082622118 0.94639093 -0.32298639 0.0049086963 0.00021074235
0.077752702 -0.038152408 -0.082414597 0.96307516 -0.26912016 0.0077870637 0.00014713926
0.078163311 -0.036639821 -0.08265771 0.96823776 -0.25002426 0.0019118149 0.00029390297
0.078654699 -0.034392972 -0.082628213 0.98166883 -0.19057675 -0.0025952212 0.00024416795
0.0791201 -0.031414166 -0.082598321 0.99027312 -0.13912858 0.0015313781 0.00040183324
0.079403691 -0.028572945 -0.082422651 0.99610674 -0.08811748 -0.0025569112 0.00027053172
0.079614513 -0.025480038 -0.082483135 0.99958402 -0.02845251 -0.0047233119 0.00036747693
0.079593308 -0.022515086 -0.082463764 0.99925929 0.037139658 -0.010073192 0.00047956486
0.079359971 -0.019454097 -0.082463562 0.99367487 0.11216611 -0.0053846361 0.00026445976
0.078983553 -0.016433092 -0.08250057 0.98599416 0.16674328 -0.0034968404 0.00039513622
0.077894405 -0.012444062 -0.082349107 0.97232169 0.23354428 -0.0069056647 0.0003461802
0.078444242 -0.013694808 -0.082575738 0.9765541 0.2151978 -0.0056652282 0.0001777266
0.077563345 -0.010285721 -0.082448505 0.95791113 0.28697801 -0.0070689446 0.00018629212
0.078092359 -0.011719581 -0.082383126 0.96329755 0.26828277 -0.0090650935 0.00015673909
0.076657094 -0.0074898205 -0.082495317 0.9429248 0.33295035 -0.0060763517 0.00029589669
0.074902564 -0.0032668014 -0.081817798 0.90905112 0.4164578 -0.013747493 0.0002522638
0.075560302 -0.0046224277 -0.082572617 0.92157847 0.38800848 -0.011938062 0.00030510666
0.074078582 -0.0014328016 -0.08247485 0.88877982 0.45810813 -0.014398976 0.00033162054
0.07171239 0.0025008079 -0.082554124 0.84615296 0.53294003 0.00017408407 0.00019186721
0.072627313 0.0011586559 -0.082484126 0.86264521 0.50578409 -0.0050616143 0.00021018262
0.070548095 0.0044142543 -0.08251334 0.82780439 0.56098032 0.0063943458 0.00015760322
0.067978211 0.0078911912 -0.082475789 0.77326202 0.63403583 0.0080271456 0.0002695228
0.069180652 0.006385921 -0.082416646 0.79461884 0.60704303 0.0089224419 0.00026670986
0.065099053 0.011048357 -0.082576029 0.70632553 0.70782894 0.0090780417 0.00018444615
0.066553868 0.0095675467 -0.082525529 0.74508518 0.66691184 0.0087593338 0.00021344093
0.061886322 0.014050093 -0.082373656 0.65176857 0.75841773 0.00059149298 0.00026276891
0.063603602 0.012509879 -0.082605593 0.68053371 0.73267281 0.0080274157 0.00019763148
-0.0012934322 0.015138633 -0.083935767 -0.55382186 0.83263034 0.0028361296 0.00023377984
0.002968831 0.017860409 -0.082078636 -0.51730233 0.85579675 0.0032139116 0.00017611962
0.056721952 0.017824098 -0.082728907 0.54729301 0.83681476 -0.014539241 0.00023263064
0.058694959 0.016580401 -0.082430445 0.57326382 0.81926185 -0.013363248 0.00042238284
0.060411587 0.015261974 -0.082586497 0.62559509 0.78014725 -0.0010514644 0.00038269826
0.00464583 0.019095654 -0.082843453 -0.50217748 0.86476392 0.0010753023 0.00037452509
0.007188309 0.020490266 -0.082305372 -0.45355183 0.89112794 0.013482489 0.00050810259
0.052505888 0.020251729 -0.08250156 0.46083501 0.88731796 -0.017259778 0.00030056987
0.055247448 0.018730201 -0.082501173 0.50468075 0.86311853 -0.01799437 0.00031164417
0.0087155998 0.021224607 -0.081866249 -0.41581395 0.90943432 0.0052952538 0.00035616156
0.010613987 0.022068936 -0.082485653 -0.37747499 0.92601091 -0.0040461221 0.00047313017
0.013360908 0.023125809 -0.082804933 -0.32358313 0.94596636 -0.021013243 0.00044705963
0.015575003 0.023848634 -0.082415029 -0.28787911 0.95754164 -0.015479872 0.000485461
0.044135414 0.023719199 -0.082563773 0.30124325 0.95342195 -0.015461953 0.00023028816
0.046474122 0.02290516 -0.082559451 0.34561354 0.93828541 -0.013107034 0.00027841947
0.049554303 0.021669541 -0.082489088 0.39987296 0.91640884 -0.017216627 0.00034104055
0.051187519 0.021029362 -0.082965232 0.44438547 0.89566666 -0.017402178 0.00036231961
0.016987398 0.024239073 -0.082227945 -0.26335245 0.96463758 -0.01094787 0.00043985099
0.019390523 0.024805583 -0.082449779 -0.20226289 0.97929496 -0.0084346486 0.00020767475
0.022489419 0.025345631 -0.082506485 -0.15745409 0.98751354 -0.0050229998 0.00039170485
0.025464339 0.025704794 -0.082520768 -0.084702551 0.9963544 -0.01016803 0.00036121218
0.028475463 0.025884578 -0.082556039 -0.039660227 0.99920464 -0.0041472497 0.00037116109
0.031517826 0.025896255 -0.082483046 0.024067545 0.99966246 -0.0097860359 0.0003205761
0.034575149 0.02573733 -0.082516201 0.096082062 0.99516279 -0.02047473 0.00051602628
0.037545677 0.025332632 -0.082467318 0.18031058 0.98350018 -0.014677032 0.00045181153
0.040458016 0.024724912 -0.082553312 0.22484857 0.97424603 -0.016966172 0.00022232017
0.042604335 0.024155997 -0.082373172 0.27418169 0.96150768 -0.018096451 0.00027968592
0.019597884 -0.073031753 -0.07948558 -0.1481301 -0.98888057 0.013145633 0.00038761852
0.024838282 -0.073839605 -0.079441793 -0.12072708 -0.99248314 0.020056479 0.00053448748
0.027688414 -0.074033231 -0.079542831 -0.037391715 -0.99927491 0.0071811015 0.00017372573
0.031090626 -0.074106388 -0.079611182 0.02056638 -0.99978518 0.002587676 0.00031189923
0.034497842 -0.073920541 -0.079416998 0.10304954 -0.99467522 0.001429935 0.00071158202
0.037270211 -0.073579416 -0.079525769 0.16984259 -0.98547083 0.00089634053 0.00048464732
0.04019478 -0.073023647 -0.079627335 0.21715271 -0.97612524 0.0049287654 0.00025523
0.042843446 -0.072406761 -0.079483993 0.26478964 -0.96429574 0.0044995076 0.00026915566
0.044245761 -0.071991608 -0.079410203 0.28044975 -0.95986414 0.0029658945 0.00024164151
0.046340957 -0.071291476 -0.079418689 0.33104861 -0.94361198 0.0017983593 0.0001493561
0.049637239 -0.070049725 -0.079646595 0.38070855 -0.92468715 0.0038456565 0.0002170248
0.051449817 -0.069245048 -0.079555534 0.4465546 -0.89475536 0.0013830914 0.00022144303
0.052797452 -0.068578996 -0.07948938 0.45879686 -0.88853943 -0.0017908633 0.00018913424
0.055293981 -0.067203231 -0.079370029 0.50304407 -0.86426073 -0.00029536244 0.00042997662
0.05705918 -0.066149801 -0.079287522 0.55597174 -0.83118194 0.0056653377 0.00030470407
0.058670498 -0.065042995 -0.079571821 0.57061112 -0.82115835 0.010101024 0.00032715878
0.060648367 -0.063568033 -0.07963264 0.60031569 -0.79966086 0.012786347 0.00014876087
0.062298685 -0.062248055 -0.079561926 0.65540737 -0.75518143 0.011924655 0.00028165014
0.064035304 -0.060703043 -0.079491206 0.68449599 -0.72896445 0.0087185726 0.00027114828
0.065454923 -0.059327528 -0.079436101 0.71538699 -0.69871157 0.0048580407 7.7545817e-05
0.066818424 -0.057941336 -0.07938464 0.72160083 -0.6922887 0.0053572496 6.5426713e-05
0.068278551 -0.056332577 -0.079332463 0.75160587 -0.65958124 0.0064229821 0.00039400079
0.069297977 -0.054778963 -0.079845503 0.81234628 -0.58299524 0.014491976 0.00035417103
0.071064338 -0.052365739 -0.079313323 0.83644295 -0.54794353 0.011003491 0.00014594923
0.072050378 -0.051078301 -0.079718627 0.83839816 -0.54488564 0.013720469 0.00033252948
0.071908638 -0.050614964 -0.078336217 0.85900021 -0.51186424 0.010660295 0.00012947849
0.072955772 -0.049351718 -0.0794257 0.86552823 -0.50078785 0.0085136471 0.00018362892
0.074382789 -0.046747491 -0.079414137 0.89292097 -0.4501901 0.0045744688 0.00035142896
0.075167969 -0.045384981 -0.079467162 0.90549564 -0.42434737 0.0026424911 0.00014440474
0.074944101 -0.044973612 -0.080240086 0.91198045 -0.41017395 0.0070040897 0.0006898659
0.075851165 -0.043441039 -0.079594456 0.92579657 -0.37798753 0.0051205247 0.00017981627
0.07697165 -0.040484089 -0.079570599 0.94733119 -0.32017297 0.007273979 0.00028713571
0.07769765 -0.038126748 -0.079570435 0.96235955 -0.27166611 0.0078609008 0.00027947538
0.078163572 -0.036502406 -0.07970085 0.96623492 -0.25761077 0.0051571731 0.00025214802
0.07864397 -0.034372602 -0.079555012 0.98039776 -0.19702841 -9.8416014e-05 0.00038280719
0.079106323 -0.031357359 -0.079522617 0.98995185 -0.14136955 -0.003178372 0.00041007856
0.079363137 -0.028435394 -0.079443455 0.99599582 -0.089396961 -0.00069554109 0.00023741164
0.079581477 -0.025478436 -0.079470955 0.99952173 -0.030870255 -0.0018120013 0.00040706826
0.079599701 -0.022430168 -0.079508096 0.99927497 0.038069144 0.00056106871 0.00056885689
0.079362273 -0.019500995 -0.079533376 0.99418563 0.10765563 0.0022734574 0.00012676565
0.078930855 -0.016428178 -0.079524092 0.98592007 0.16715838 0.0044256286 0.00021799999
0.077895053 -0.012505341 -0.079586774 0.97359771 0.22821276 0.0051477118 0.00024820736
0.0784216 -0.013653897 -0.079542071 0.97683465 0.21392842 0.0053604105 0.00017259973
0.077552177 -0.010378276 -0.079446733 0.95859635 0.2846773 0.0071989391 0.0001117069
0.078117631 -0.011864164 -0.079582937 0.96741664 0.25314802 0.00460028 0.00029445079
0.07661771 -0.0074571255 -0.079496928 0.94346958 0.33139831 0.0063433051 0.00023771661
0.074848101 -0.0032429888 -0.079256371 0.90418589 0.42706355 0.008032335 0.00043425927
0.075516701 -0.0046177004 -0.079540916 0.92136663 0.3886618 0.0050626281 0.00027558851
0.074010193 -0.0014299676 -0.079481833 0.88810289 0.45958513 0.0073987297 0.00018914881
0.071689457 0.0025143982 -0.07947132 0.84210795 0.53925502 0.0076304479 0.00020718295
0.072577424 0.001145053 -0.079461351 0.85854715 0.51268077 0.0074252728 0.00028491064
0.070432372 0.0044801035 -0.079544939 0.82259566 0.56849056 0.0124453 0.00023349212
0.06793239 0.0078020352 -0.079398043 0.7811231 0.62419909 0.014903822 0.00040670673
0.06909281 0.0063614002 -0.079644017 0.79209179 0.61023128 0.014438379 0.00029736554
0.065101027 0.010948648 -0.079477452 0.70480239 0.70931584 0.011161777 0.00021172105
0.066486336 0.0095390389 -0.079496183 0.74234664 0.66990924 0.01196078 0.00041218405
0.061796416 0.014022969 -0.079490289 0.64621043 0.76302481 0.014323761 0.00029008638
0.063714832 0.01232776 -0.079610817 0.68872976 0.72489017 0.0136205 0.00018788263
0.0023569616 0.017424123 -0.080203861 -0.51730639 0.85579425 0.0032163304 0.00017784136
0.056658655 0.017807636 -0.079543047 0.56100422 0.82773429 0.011412002 0.00022954398
0.058576886 0.016588759 -0.079484515 0.59166837 0.80604053 0.015072682 0.00021571723
0.060309201 0.015192598 -0.079317614 0.6308037 0.77574432 0.017536789 0.00026335981
0.0043116137 0.018754862 -0.079329625 -0.48823351 0.87243748 0.021929558 0.00019227101
0.0070404476 0.020301126 -0.079485908 -0.45656106 0.8895418 0.016353488 0.00037221215
0.050945595 0.020903189 -0.07940685 0.43232128 0.90169746 0.0063302862 0.00056324381
0.052598178 0.020161353 -0.079530254 0.46076122 0.88749397 0.0073136333 0.00015644848
0.055179954 0.018725242 -0.07949084 0.51080573 0.85965163 0.0087512201 0.00028439471
0.0085560987 0.021119922 -0.078810975 -0.41913366 0.90780282 0.014866716 0.00013439445
0.010496655 0.021915365 -0.079555258 -0.39032534 0.92054027 0.015865095 0.00034794831
0.013382467 0.023025695 -0.079722613 -0.33008337 0.94378114 0.017950086 0.00020806334
0.015508629 0.023760032 -0.080007158 -0.2851555 0.95836568 0.014883741 0.00033761258
0.04407116 0.023686916 -0.07955683 0.29979008 0.953991 -0.0052066464 0.00040333133
0.046502985 0.022858188 -0.079457194 0.3486602 0.93724608 0.0024134896 0.00026878854
0.049478099 0.021653939 -0.079421662 0.40505335 0.91422427 0.011213562 0.00020228185
0.051024534 0.021022374 -0.078018919 0.43500242 0.90013623 0.022973057 0.0001185632
0.017097849 0.024211828 -0.079066142 -0.27453035 0.96146446 0.014805203 0.0003672578
0.019431885 0.024771478 -0.0794532 -0.20781855 0.97815448 0.0050235945 0.00032154465
0.022488412 0.025315084 -0.079492226 -0.15917018 0.98722804 0.0067585148 0.00044391735
0.025547516 0.025628418 -0.079514191 -0.076369107 0.99705541 0.0069480413 0.00033494213
0.028557079 0.025785357 -0.07952825 -0.022783425 0.99971759 0.0067626247 0.0003180482
0.031532869 0.02583584 -0.079514503 0.031603366 0.99948752 0.0050979615 0.00046497167
0.034514822 0.025681008 -0.079545014 0.078304499 0.99692714 0.0021572011 0.00056997192
0.037508197 0.025289325 -0.079478048 0.1807435 0.98352855 -0.0018233786 0.00051084498
0.040484227 0.024679195 -0.079542577 0.23057671 0.97302729 -0.0072347787 0.00031381042
0.042566713 0.024154346 -0.079379454 0.2849046 0.95852196 -0.0080693467 0.00039700634
0.019717803 -0.073062919 -0.07647682 -0.1555298 -0.98726219 0.033524025 0.00035136723
0.024771532 -0.073822163 -0.076478384 -0.11742138 -0.99291736 0.018095803 0.00038005717
0.02760415 -0.07401111 -0.0765993 -0.046754606 -0.99840015 0.031800054 0.00015411861
0.031032279 -0.074090958 -0.076421849 0.013119601 -0.99944448 0.030637953 0.00033689119
0.034573384 -0.073940717 -0.076507226 0.1014925 -0.99467236 0.018061271 0.00062536728
0.037320714 -0.07359305 -0.076634154 0.17164372 -0.98497766 0.018906957 0.00029801609
0.040236518 -0.073035002 -0.076492354 0.21181549 -0.97714806 0.017772555 0.00014081704
0.042821974 -0.072400831 -0.076369457 0.25883079 -0.9657799 0.01661084 0.00015815214
0.044256095 -0.071994483 -0.076302327 0.28479716 -0.95848215 0.014234239 0.00016724615
0.046522971 -0.071245708 -0.076596625 0.33487061 -0.94216383 0.013747244 0.0002972064
0.049640331 -0.070050597 -0.076571353 0.37900677 -0.92531461 0.012114208 0.00012288398
0.05144703 -0.069244243 -0.076490991 0.43867594 -0.89849466 0.016454911 0.00018562972
0.052796207 -0.068578631 -0.076432295 0.46347481 -0.88591266 0.018707214 0.00032296416
0.05530601 -0.067206793 -0.076325826 0.50352472 -0.86382693 0.016308602 0.00031653536
0.057047881 -0.066146374 -0.07650701 0.55660158 -0.83061147 0.016715193 0.00043878201
0.058660585 -0.065021746 -0.076651514 0.57660806 -0.81686622 0.015896451 0.00012709285
0.060632288 -0.063563019 -0.076617584 0.60352618 -0.79716069 0.017063893 0.00012042507
0.062268253 -0.06223844 -0.076555707 0.65196973 -0.75802869 0.01811396 0.000237883
0.064051673 -0.06070834 -0.076490059 0.68271816 -0.73031312 0.023209296 0.00021961733
0.065478019 -0.059335046 -0.076440647 0.71026903 -0.70339388 0.02747694 0.00023820346
0.06682007 -0.057941888 -0.076396294 0.72735167 -0.68555248 0.031263717 0.00022757606
0.068274058 -0.05633105 -0.076350383 0.75606239 -0.65390688 0.027848801 0.00040259265
0.06970337 -0.054523543 -0.07640624 0.81936598 -0.57268798 0.025842059 0.00028390525
0.070861392 -0.05262753 -0.076200999 0.83765775 -0.54571432 0.022920344 0.00017789732
0.072023869 -0.051046155 -0.076483727 0.84678209 -0.53148359 0.022028333 0.00017946956
0.07192485 -0.050548472 -0.075710207 0.84515518 -0.53386635 0.026448116 0.0001931585
0.073097177 -0.049091008 -0.076138847 0.86902767 -0.49412453 0.025135765 0.00019174487
0.074448772 -0.046602231 -0.076484695 0.89313316 -0.4494794 0.016774816 0.00035548545
0.075219393 -0.045286797 -0.076715857 0.90192169 -0.4317646 0.010801899 0.00040553947
0.075878732 -0.043436557 -0.076547362 0.92651421 -0.37600794 0.01376536 0.00018675516
0.076962404 -0.0405122 -0.076545008 0.94577646 -0.32469064 0.0091034947 0.0002105274
0.077678926 -0.03819767 -0.076502234 0.96028364 -0.27898139 0.004985183 0.00014802303
0.078166075 -0.036518779 -0.076806583 0.9653967 -0.26078427 0.00083463819 7.7526282e-05
0.078655846 -0.034384701 -0.076492198 0.97941911 -0.20182873 0.0018556713 0.00037016391
0.079146586 -0.031469692 -0.076479994 0.99001831 -0.14084068 -0.0052580507 0.00047204737
0.079433791 -0.028533891 -0.076454572 0.99677134 -0.080293052 -0.00021812855 0.00015955331
0.079584323 -0.025459921 -0.076485239 0.99979532 -0.020071426 0.0025358612 0.00047307336
0.079611428 -0.022469997 -0.076493464 0.99935061 0.033869091 0.01229965 0.00037341096
0.079361849 -0.019480279 -0.076467834 0.99326169 0.11484855 0.015525403 0.00017928316
0.078928851 -0.016417831 -0.076549523 0.98598087 0.16630194 0.013615201 0.00013569368
0.077870414 -0.012441842 -0.076458752 0.97209507 0.23397397 0.016953545 8.7546505e-05
0.078415968 -0.013677865 -0.076567538 0.97701436 0.21291499 0.010491829 0.00026166157
0.077540681 -0.010360771 -0.076471813 0.95850194 0.28470427 0.01474931 0.00017702742
0.078114733 -0.011878408 -0.076750219 0.96735388 0.25309253 0.013064626 0.00028703321
0.076617219 -0.0074644093 -0.076460429 0.94297963 0.33243936 0.016536364 0.00021079516
0.074886709 -0.0033150618 -0.076655656 0.9095149 0.41520661 0.019651139 0.00013695826
0.075521104 -0.0046396889 -0.076490574 0.92151654 0.38787761 0.018928282 0.00029382738
0.074004017 -0.0014392916 -0.076524295 0.88814861 0.45923665 0.017139243 0.00020363407
0.07171759 0.0024791979 -0.076395035 0.84112006 0.54059458 0.016570888 0.00027780415
0.072577991 0.0011430737 -0.076467969 0.85893029 0.51189399 0.01425978 0.00025666817
0.070400544 0.0044986303 -0.076502047 0.82010943 0.5718872 0.019118877 0.00016773482
0.068060242 0.0076575484 -0.076493323 0.77945942 0.62598872 0.024107739 0.00029763338
0.06911473 0.0061843577 -0.07649266 0.79452455 0.60695386 0.018378958 0.00017249053
0.065102927 0.010940197 -0.076435119 0.71312779 0.70057344 0.025407694 0.00028004672
0.066480339 0.0095587447 -0.076493539 0.73568898 0.67688054 0.024382312 0.00032937923
0.061778869 0.014027871 -0.076543227 0.64644921 0.76253098 0.025492638 0.00022452808
0.063679427 0.012333686 -0.076501213 0.6842379 0.72869855 0.028580789 0.00019101438
0.056690656 0.017780147 -0.07646241 0.55609447 0.83054936 0.030768218 0.00026086433
0.058516864 0.016588895 -0.076502129 0.58602685 0.80953759 0.034949213 0.0003933351
0.060381945 0.015168656 -0.076109342 0.63096476 0.77507174 0.033869941 0.0002403134
0.0046520587 0.018959224 -0.076450676 -0.48697713 0.87322116 0.018386791 0.0003333363
0.0072014676 0.020366181 -0.076447368 -0.45052335 0.89241463 0.024996663 0.00037405224
0.050853118 0.020911803 -0.076336898 0.42467162 0.90468264 0.034690563 0.00026196419
0.052483875 0.020195287 -0.076463491 0.4596056 0.88740003 0.035830747 0.00018866337
0.055197448 0.018709313 -0.076537333 0.50782502 0.86087722 0.031687915 0.00033070575
0.0088658789 0.021195339 -0.076407075 -0.42886856 0.90311158 0.021475391 0.00048328695
0.010567043 0.021927856 -0.076456815 -0.38049918 0.92453176 0.021480279 0.00026028644
0.01355993 0.023057634 -0.076702483 -0.33052072 0.94338685 0.02788086 0.00016591915
0.015766535 0.023811929 -0.076964781 -0.29218242 0.95599037 0.026682626 0.00022994197
0.044183757 0.023733277 -0.07645347 0.31328249 0.9494561 0.019676263 0.00048814336
0.046481963 0.022880472 -0.076471932 0.35578176 0.9342379 0.024876028 0.00034843237
0.049430732 0.021666309 -0.076404899 0.40155438 0.91547024 0.025852147 0.00023197621
0.017238321 0.024254918 -0.076316923 -0.26751518 0.96302938 0.031782646 0.0004035724
0.019515358 0.024796195 -0.076521628 -0.20207644 0.97898245 0.027542135 0.00038455601
0.022480361 0.025301183 -0.076428287 -0.15321225 0.98782694 0.026905889 0.00039256405
0.025481105 0.02567799 -0.076493666 -0.089214407 0.99577755 0.021631597 0.00029262912
0.028536875 0.025842078 -0.076479964 -0.027814088 0.9994626 0.017345475 0.00032759929
0.031491019 0.025860764 -0.076498404 0.014512426 0.99975085 0.016962644 0.00031654903
0.034512982 0.025743388 -0.076567084 0.079426199 0.99664313 0.019850681 0.00051486224
0.037618048 0.025338449 -0.076471865 0.17261732 0.98483676 0.017316682 0.00046871131
0.040577099 0.024723943 -0.076477706 0.2199412 0.97540939 0.014226414 0.00036428397
0.04272842 0.024210431 -0.076603271 0.27916273 0.96005845 0.018865276 0.00072774175
0.01945062 -0.072993487 -0.07430727 -0.14702669 -0.98847306 0.036113754 0.0007250944
0.023553096 -0.073503956 -0.072488435 -0.10890006 -0.99281555 0.049578875 0.0014063285
0.025070505 -0.073716216 -0.073501356 -0.1025051 -0.99343342 0.050821226 0.0015369055
0.028410099 -0.073917545 -0.073437572 -0.03938609 -0.99718118 0.063863441 0.00018478111
0.03154517 -0.073953077 -0.073474646 0.034641277 -0.9971835 0.066521481 0.00066503772
0.034534473 -0.073839821 -0.073605828 0.085627615 -0.99451756 0.060022816 0.00048147439
0.037524924 -0.07341408 -0.073424548 0.16664949 -0.98369831 0.067569964 0.00025209281
0.040478505 -0.072831824 -0.073352933 0.20842199 -0.97602022 0.062808312 0.00026522076
0.042724416 -0.072344057 -0.073633887 0.25640014 -0.96483147 0.057959154 0.00028855744
0.04432112 -0.071859837 -0.073231615 0.28508314 -0.95671254 0.058556058 0.00029931378
0.046434712 -0.071196467 -0.07371933 0.32638636 -0.94409412 0.04645697 0.0002304355
0.049500987 -0.070010655 -0.073503233 0.37997398 -0.92343569 0.053724777 0.00030137124
0.051332831 -0.06921111 -0.073432006 0.44342369 -0.8945576 0.056054909 0.00045569852
0.052910384 -0.068382286 -0.073317863 0.46446535 -0.88360429 0.05929175 0.00027993956
0.055566274 -0.066907555 -0.073366061 0.50439268 -0.86115396 0.063261151 0.00035727295
0.057023015 -0.066138871 -0.074738488 0.54669929 -0.83555287 0.05451028 0.00028697448
0.058608495 -0.064943597 -0.073609941 0.57631904 -0.81461829 0.065217994 0.00025907147
0.060603324 -0.063488252 -0.073729806 0.61561972 -0.7859267 0.057720412 0.00026230598
0.06218918 -0.062213462 -0.073551424 0.65317446 -0.7550512 0.057102978 0.00041230908
0.063881233 -0.060653463 -0.073498942 0.68515193 -0.72595924 0.059581865 0.00020588814
0.065308727 -0.059224624 -0.073391154 0.71478325 -0.6964485 0.063596673 0.00010810219
0.066658571 -0.057854164 -0.073471464 0.72293502 -0.68802857 0.063100308 9.4793213e-05
0.068195738 -0.056117553 -0.073304452 0.75000226 -0.65860128 0.06116274 0.00022512666
0.06939356 -0.054369766 -0.073321693 0.81131756 -0.58176643 0.057546444 0.00042835355
0.07100331 -0.052254077 -0.07340575 0.83826685 -0.54303771 0.04918018 0.00031697788
0.071742199 -0.050923981 -0.072759815 0.83497375 -0.54765582 0.053777356 0.00026707491
0.072728895 -0.049439993 -0.073247172 0.86438042 -0.50021178 0.051329006 0.00023844495
0.07446941 -0.046345353 -0.073846571 0.89310664 -0.44748056 0.046061724 0.00025474533
0.07516098 -0.045333248 -0.074184731 0.90263128 -0.42790046 0.046453744 0.00057894667
0.075743802 -0.043517958 -0.073511563 0.92313153 -0.38179871 0.04536524 0.00035316843
0.076931387 -0.040400732 -0.073607773 0.94476175 -0.32597145 0.034174323 0.00014671897
0.077703118 -0.038015708 -0.07338459 0.95746297 -0.28642261 0.035025198 0.00021102159
0.078161754 -0.036525134 -0.073934205 0.96808803 -0.24914017 0.027107177 0.00024913796
0.078639358 -0.034451738 -0.073498204 0.97946805 -0.20018059 0.023877207 0.00027941275
0.079124413 -0.031471279 -0.073459797 0.98945975 -0.14326596 0.021076193 0.00043283636
0.079413474 -0.028447881 -0.073364131 0.99735475 -0.070343889 0.01830982 0.00034522233
0.079552613 -0.02549921 -0.073479131 0.9993881 -0.01670415 0.030730616 0.00036387928
0.079535484 -0.022494651 -0.073404692 0.99842197 0.045705654 0.032627225 0.00063316996
0.079279087 -0.019516744 -0.07341253 0.99254245 0.11484744 0.040860541 0.00011243324
0.078863956 -0.016491288 -0.07348267 0.98558104 0.16375613 0.042590547 0.0001622218
0.077824317 -0.012732939 -0.073253728 0.97047698 0.23729357 0.043198992 0.0001734796
0.078358293 -0.013798129 -0.073631294 0.97604263 0.21299993 0.04440596 0.00024462221
0.077469639 -0.010390416 -0.073454119 0.95611072 0.28861502 0.050534047 0.00024018144
0.078077607 -0.011831564 -0.074070983 0.96574885 0.25490054 0.048527829 0.0002474034
0.076513566 -0.0074974312 -0.073444702 0.9426133 0.33108702 0.043145891 0.00020049128
0.074816704 -0.00333595 -0.073113844 0.91172087 0.40926531 0.035595186 0.00036989211
0.075481512 -0.004854972 -0.073574699 0.92249298 0.38391161 0.040230446 0.00027639171
0.073898658 -0.0013837997 -0.073530629 0.88945401 0.45576963 0.033846647 0.00028882248
0.071728893 0.0023548428 -0.073193096 0.8369028 0.54576385 0.041659545 0.00037374775
0.072530322 0.0010512298 -0.07366129 0.85733503 0.51372337 0.032634404 0.00025929438
0.068993002 0.0059330189 -0.073280185 0.79037422 0.61066747 0.048926678 0.00019341166
0.070330016 0.0044497037 -0.073503122 0.81537843 0.57698041 0.047451116 0.00022447346
0.067879237 0.0076803281 -0.073468 0.77354485 0.63160628 0.051980365 0.00025694439
0.069170669 0.0061268103 -0.072910912 0.79333377 0.60667622 0.050650865 0.00037276885
0.064947344 0.010866526 -0.073359467 0.70699149 0.704377 0.063371494 0.00019034774
0.066325761 0.0095159113 -0.073788278 0.72959435 0.6814909 0.057115756 0.00027732199
-0.0012344531 0.014996908 -0.074290782 -0.55463552 0.83177286 0.02309585 0.00032117832
0.061735794 0.013843778 -0.073426098 0.64651507 0.7598772 0.067859948 0.00024431333
0.063476346 0.012357567 -0.073654704 0.68072361 0.72965384 0.064966887 0.00022225622
0.0020716228 0.017217034 -0.072654136 -0.53232586 0.84653491 -0.0028034167 0.0020031738
0.0030338881 0.017991807 -0.074069403 -0.53204519 0.84438187 0.062827475 0.00069926068
0.05653305 0.017709561 -0.073166586 0.54276896 0.83836246 0.050499219 0.00049328041
0.058538165 0.01637782 -0.07349702 0.585985 0.80789131 0.062715895 0.00037955996
0.06019238 0.015174825 -0.07406804 0.62590617 0.77710557 0.065941304 0.0002227255
0.004692148 0.018860601 -0.073442712 -0.50183636 0.86334699 0.052841637 0.00053790503
0.0073492206 0.020319518 -0.073497042 -0.45586342 0.88824725 0.056616314 0.00026749441
0.050790668 0.020810341 -0.073142678 0.42947647 0.90173107 0.049305234 0.00034146203
0.052579701 0.019928362 -0.073471487 0.4638195 0.88415778 0.056004759 0.0001465831
0.055314001 0.018441871 -0.07315731 0.51627642 0.85521716 0.045411341 0.00054661563
0.0087569915 0.021204241 -0.074668244 -0.43580624 0.89896393 0.044009842 0.00035987355
0.010592412 0.021825567 -0.073675796 -0.38664004 0.92095602 0.048471134 0.00036203058
0.013709964 0.023017675 -0.073926881 -0.32332277 0.94530702 0.043092556 0.00016950154
0.016045265 0.023695007 -0.073303938 -0.28113237 0.95845717 0.048211735 0.00029317278
0.041676067 0.023981443 -0.072233982 0.24485971 0.96571708 0.086222142 0.00024945877
0.043694247 0.023641817 -0.073383853 0.2987617 0.95084351 0.08147452 0.00039032215
0.046528984 0.022717876 -0.07353466 0.34582379 0.93622601 0.062344387 0.00024380456
0.049280711 0.021570317 -0.073574111 0.40618086 0.91248655 0.048840925 0.00027913984
0.017387809 0.024147224 -0.073942572 -0.2683228 0.96227217 0.045112681 0.00024991212
0.019643467 0.024643842 -0.07356742 -0.20581417 0.97766793 0.042496782 0.00039972377
0.022457657 0.025111035 -0.073560059 -0.1597643 0.98620898 0.043212231 0.00037572836
0.025474872 0.025495946 -0.073471859 -0.11003725 0.99308991 0.040794689 0.00047655226
0.028584924 0.025735833 -0.073480859 -0.020239811 0.99933147 0.030446688 0.00074115535
0.031533405 0.025713377 -0.073487505 0.039630223 0.99840075 0.040316526 0.00062774436
0.034553513 0.025567796 -0.073476255 0.080666937 0.99562597 0.04713564 0.00088320888
0.037551481 0.025189977 -0.073536739 0.17854601 0.98147058 0.06954696 0.00049395155
0.040484771 0.024557104 -0.073542833 0.23053333 0.96995348 0.077747367 0.00026945226
0.042480443 0.024139073 -0.074330643 0.27151275 0.95885605 0.082921132 0.00025957567
0.020791756 -0.072782785 -0.070982561 -0.14980948 -0.98810512 0.034718554 0.0010379817
0.022008874 -0.073100649 -0.070478104 -0.1101791 -0.99378592 0.015815459 0.0016595015
0.025861511 -0.073553726 -0.070506155 -0.11586452 -0.99325836 0.0036534392 0.0018839978
0.028344374 -0.073655024 -0.070410281 -0.040587865 -0.99915296 -0.0067858882 0.0011044652
0.031506341 -0.073669255 -0.070555612 -0.0019369138 -0.99998343 -0.0054226052 0.002156002
0.03482778 -0.073465012 -0.07043042 0.12591103 -0.99203968 -0.0019364367 0.0023762647
0.037499234 -0.073124692 -0.070451491 0.18263993 -0.98317325 0.0036086889 0.001674309
0.040575463 -0.072589196 -0.070482232 0.21595985 -0.97639775 0.0029662631 0.0016998766
0.042663779 -0.072088532 -0.070667617 0.27901813 -0.96028459 0.0015410344 0.0020125883
0.044119004 -0.071688861 -0.070615776 0.26691616 -0.96371961 0.000570087 0.0019093265
0.046539981 -0.070879593 -0.070568696 0.32336488 -0.94627291 0.0016556394 0.0017521182
0.049608521 -0.069694288 -0.07034903 0.39143291 -0.92020637 -0.00078469684 0.0015975736
0.051070359 -0.069134966 -0.071656406 0.42695886 -0.90416628 0.013764546 0.00099578674
0.052625027 -0.068264127 -0.070329621 0.45922178 -0.88831514 0.0034000303 0.001532034
0.05535803 -0.06675528 -0.070575155 0.51807135 -0.85509348 0.020427678 0.0015901428
0.056525815 -0.065988652 -0.070209049 0.53944957 -0.84142685 0.031545032 0.0027138963
0.058454141 -0.064732008 -0.070656061 0.56976867 -0.82174355 0.010061115 0.002024519
0.06044485 -0.063241526 -0.070597924 0.62351406 -0.78179568 0.0050844401 0.0019487012
0.061903927 -0.062123287 -0.070555732 0.62091923 -0.78387278 0.0016789602 0.0020043994
0.063501991 -0.060738638 -0.070446238 0.65941566 -0.7517786 -6.7928786e-06 0.0017860633
0.065084822 -0.059170917 -0.070514753 0.68871528 -0.72502846 -0.0022566828 0.0013228761
0.066621229 -0.057613611 -0.070433103 0.75042617 -0.66095418 0.00050405669 0.0012276224
0.068088211 -0.056006398 -0.070398226 0.77981991 -0.62599188 0.0038823022 0.0015637561
0.069203459 -0.05454867 -0.070375353 0.78121406 -0.62425262 0.0036365772 0.0015596355
0.070431344 -0.052653532 -0.070157863 0.84271991 -0.53817916 0.013651412 0.00086042978
0.071716785 -0.050698776 -0.071048371 0.8348946 -0.55018395 0.015770737 0.0010439605
0.072743334 -0.049077261 -0.070136316 0.86133224 -0.5078283 0.014740534 0.0013879173
0.074104764 -0.046557229 -0.070566751 0.88996589 -0.45600119 0.0048570568 0.0010426826
0.074676596 -0.04493225 -0.071107112 0.9064616 -0.42205763 -0.013957058 0.0018438287
0.075646684 -0.043339785 -0.070512988 0.92189032 -0.38745087 0.00014519124 0.0009858883
0.07669989 -0.040515598 -0.070370801 0.94309163 -0.33251584 0.0034054504 0.0007088026
0.077585705 -0.037854474 -0.070328891 0.96130264 -0.27541393 0.0066669914 0.00062708411
0.078095317 -0.036633171 -0.07055784 0.96052557 -0.27788371 0.01309111 0.00075944164
0.077930085 -0.035632491 -0.070202395 0.97667462 -0.21410488 0.016304959 0.00070336153
0.078517236 -0.034344394 -0.070517667 0.97709471 -0.21258795 0.0096112313 0.00061888987
0.079046778 -0.031369876 -0.07045722 0.98829389 -0.15251684 0.0037066492 0.00089807156
0.079299234 -0.028505197 -0.070425428 0.99709618 -0.076141924 -0.0013147397 0.00086837838
0.079411834 -0.025557511 -0.070448197 0.99942929 -0.033772334 0.00075086416 0.00090022868
0.079336084 -0.022455415 -0.070432968 0.99822545 0.05942592 0.0037896764 0.00093317934
0.079083122 -0.019494815 -0.070439033 0.99436575 0.10599942 -0.00092687143 0.000993878
0.078676432 -0.016534934 -0.070574678 0.98568165 0.16861351 0.0010878236 0.0010264892
0.077863105 -0.012586315 -0.070779808 0.97628421 0.21649259 -0.00045432444 0.001505637
0.07823164 -0.013982722 -0.070397735 0.9753384 0.22071387 -0.00063564524 0.0014720028
0.077288479 -0.010500508 -0.070556857 0.95911992 0.28299773 -0.0011097379 0.0013839452
0.076319844 -0.0075227953 -0.070437275 0.93992895 0.34126124 -0.008623695 0.0010669032
0.074738652 -0.0034824538 -0.070677362 0.9208566 0.38984394 -0.0066943634 0.0012144011
0.07544475 -0.0050260834 -0.070362836 0.92096704 0.38948929 -0.010851193 0.0011096675
0.073781796 -0.0014043994 -0.070511885 0.89422584 0.44761497 -0.00099726312 0.00063853018
0.071532525 0.0023592191 -0.070569552 0.84127766 0.54060173 -0.0013463601 0.0009027801
0.07251323 0.00091514387 -0.070541881 0.85027826 0.52633339 0.00024446039 0.00096374843
0.068862006 0.0058442047 -0.070647225 0.79717666 0.60373956 0.0028233773 0.0017913949
0.070120089 0.0044062664 -0.070502602 0.81035668 0.58593643 0.00073007372 0.0012903042
0.067775875 0.0074794185 -0.070471913 0.77767712 0.62866366 0.00066199037 0.0015202399
0.069119573 0.0060541714 -0.06994243 0.78714812 0.61676401 -5.4076914e-05 0.001472722
0.064765833 0.010749401 -0.07049837 0.69817823 0.71592146 0.0018995596 0.001653727
0.066335469 0.0091715595 -0.070454806 0.73037934 0.68304145 0.00066251011 0.0014724061
0.059785068 0.014908251 -0.07054574 0.62566227 0.78007072 -0.0060403766 0.001735211
0.061613906 0.013605106 -0.070467807 0.64958441 0.76028579 0.0023385852 0.0017980722
0.063175261 0.012323831 -0.070946999 0.68673515 0.72686571 0.0078160092 0.0015162682
0.0013681313 0.016462391 -0.070684716 -0.53769845 0.84267098 -0.028035054 0.0017651515
0.056324244 0.017588306 -0.070460699 0.52295977 0.85235614 -0.0014337183 0.0013620685
0.058676869 0.016056059 -0.070530914 0.59366804 0.80469447 0.0049951789 0.0017629013
0.0048889695 0.018700439 -0.070572615 -0.52153057 0.8532241 -0.0038064902 0.0015359621
0.0074742627 0.020171657 -0.070654027 -0.45890251 0.88845038 -0.0080312621 0.0015554981
0.05062291 0.020797465 -0.070434414 0.4114736 0.91140848 -0.0049073831 0.0011039504
0.05292723 0.019608481 -0.070613474 0.47391072 0.88057047 -0.0020305244 0.00085668097
0.054880824 0.018515758 -0.070419006 0.51687181 0.85606217 -0.00095758057 0.0012677457
0.010557961 0.021672094 -0.070865288 -0.38911819 0.92104393 -0.016283358 0.0010428947
0.013410542 0.022756416 -0.070804894 -0.31797183 0.9479019 -0.019387387 0.0010878156
0.016227394 0.023614071 -0.070546381 -0.27561337 0.96098083 -0.023517145 0.0012835818
0.041790858 0.023910437 -0.070796929 0.241347 0.97043049 -0.0040412145 0.0026075384
0.04354161 0.023450222 -0.070562467 0.28561088 0.95832974 -0.0055209599 0.002727486
0.046508692 0.022503255 -0.070475407 0.35721073 0.93398565 -0.0084451148 0.0014159858
0.049154595 0.021463137 -0.070508972 0.4171648 0.90880573 -0.0067501967 0.0010524387
0.017677663 0.024089877 -0.070273787 -0.2806035 0.95953292 -0.023627467 0.0012573479
0.019269718 0.024463724 -0.070635721 -0.21486366 0.97639775 -0.021932811 0.0012749222
0.022489218 0.025070354 -0.070469141 -0.16418399 0.98615336 -0.023350157 0.00091846928
0.025640618 0.025427584 -0.070536017 -0.063723914 0.99768746 -0.023642669 0.0013740633
0.028600497 0.0256074 -0.070401907 -0.011269535 0.99964422 -0.024174282 0.0011461731
0.031490974 0.025544198 -0.070505023 0.0092312917 0.99988765 -0.011811026 0.001423203
0.034475982 0.025344435 -0.07046289 0.096849255 0.99526697 -0.0079969065 0.0019418218
0.037488759 0.024948675 -0.070491895 0.18918572 0.981911 -0.0077214059 0.0021594139
0.040270541 0.024350215 -0.070529833 0.23999591 0.97070938 -0.011194155 0.0022904237
0.023309261 -0.073440269 -0.068439879 -0.10809735 -0.99363166 -0.031799473 0.00247582
0.025651338 -0.07373637 -0.067510068 -0.07978671 -0.99583232 -0.044182926 0.00076258037
0.028873596 -0.073952183 -0.067329809 -0.032660242 -0.99754608 -0.061929099 0.00016100374
0.031771272 -0.074012928 -0.067352131 0.042042758 -0.99621254 -0.076111831 0.0010355215
0.034566469 -0.073830195 -0.067530058 0.07661023 -0.9937796 -0.080827095 0.00063251884
0.037678696 -0.073347479 -0.067470409 0.17084351 -0.98231953 -0.076556064 0.00022335944
0.04067665 -0.072770499 -0.067755811 0.21468134 -0.97471577 -0.06197672 0.00034936238
0.04274274 -0.072325245 -0.067336604 0.2558794 -0.96489042 -0.059264619 9.8480617e-05
0.044243217 -0.071857229 -0.067759782 0.28432971 -0.95693713 -0.058549181 0.00020587287
0.04644879 -0.071200475 -0.06734281 0.32871002 -0.94319379 -0.048323862 0.00036804596
0.049470171 -0.070001788 -0.067352563 0.38858962 -0.91999078 -0.051137418 0.00016141815
0.051270962 -0.069193162 -0.067303628 0.44765836 -0.89299423 -0.046511911 0.00050448324
0.052800104 -0.068440773 -0.067517258 0.45665872 -0.88723516 -0.065395884 0.00014391927
0.055609554 -0.06683787 -0.067591034 0.51258284 -0.85650271 -0.060514972 0.00013198945
0.058546938 -0.064924784 -0.067685567 0.57533735 -0.81508064 -0.068048328 0.00014085346
0.060606334 -0.063489184 -0.067445382 0.61676496 -0.7848286 -0.060374819 0.00023509806
0.06214213 -0.062198553 -0.067535676 0.65478355 -0.75367838 -0.056809876 0.00025682058
0.063891143 -0.060656667 -0.067496188 0.68661588 -0.72501493 -0.053963508 0.00023137222
0.065344132 -0.059236176 -0.067530908 0.72007316 -0.69187486 -0.052951753 9.5978074e-05
0.066653632 -0.057852492 -0.067384481 0.73183894 -0.6798144 -0.047582164 0.0001609461
0.068200916 -0.056044456 -0.067409545 0.75702083 -0.65179914 -0.045578286 0.00018396691
0.069556043 -0.0544728 -0.067259774 0.80419379 -0.5922097 -0.050597019 0.00019079485
0.070894763 -0.052546278 -0.067468405 0.8440637 -0.53520447 -0.033355873 0.00049558276
0.072006226 -0.051062673 -0.066106945 0.83294302 -0.55159563 -0.044138141 0.0003755744
0.071804859 -0.050991397 -0.06834314 0.83409059 -0.54973364 -0.045671064 0.00064002804
0.072840028 -0.049269263 -0.067637652 0.86589819 -0.49804288 -0.046621777 0.0002128661
0.074504822 -0.046220932 -0.067281954 0.89106792 -0.45162654 -0.045072272 0.00025792245
0.075138301 -0.045245256 -0.067112163 0.90142757 -0.43122813 -0.038349066 0.00041151192
0.075714983 -0.043501999 -0.067443036 0.92238224 -0.38437417 -0.038308766 0.00031320247
0.076931685 -0.040425416 -0.067375921 0.9453221 -0.32370919 -0.039731868 0.00023255382
0.077673979 -0.037962254 -0.067427963 0.96020329 -0.27713329 -0.034740031 0.00023330141
0.078164697 -0.036630727 -0.067304775 0.96519661 -0.25979266 -0.030054802 8.7847882e-05
0.077943951 -0.035721682 -0.068521172 0.9756766 -0.21706609 -0.030619442 0.00021674579
0.078592338 -0.034308497 -0.067403071 0.97803921 -0.20700845 -0.024224645 0.00016458858
0.079140179 -0.031338409 -0.067449801 0.98835838 -0.1501292 -0.024676716 0.00056096044
0.079418518 -0.028483892 -0.067468531 0.99736202 -0.069797538 -0.019927356 0.00044501756
0.079558916 -0.025489638 -0.067446612 0.99927938 -0.018722389 -0.033018366 0.00041786241
0.079507858 -0.022545842 -0.067472152 0.99879843 0.036838308 -0.032321461 0.00057213771
0.07924296 -0.019567097 -0.067449205 0.9930352 0.11095513 -0.039624561 0.00014826986
0.078862034 -0.016469805 -0.067546256 0.98623437 0.16011371 -0.041297194 0.00020618663
0.077862836 -0.012659979 -0.067388438 0.97049499 0.23645663 -0.047199827 0.00035447482
0.078355052 -0.013715788 -0.06750109 0.97526109 0.21560523 -0.048787195 0.00030559194
0.077470735 -0.010393839 -0.067624241 0.95514095 0.2916564 -0.051403958 0.00024623377
0.078049213 -0.011901395 -0.067273825 0.9662289 0.25314918 -0.048136745 0.00024117556
0.076534174 -0.0074187531 -0.067424171 0.94275725 0.33045179 -0.044836868 0.00023494952
0.074841119 -0.0033006165 -0.067843258 0.90869957 0.4159669 -0.035167411 0.00039191803
0.075535275 -0.0047387793 -0.067366391 0.92185378 0.38557211 -0.038983867 0.00046011969
0.073888302 -0.0014074644 -0.067486674 0.8852706 0.46398056 -0.031905428 0.00018904974
0.071737491 0.0023710912 -0.067645676 0.84185636 0.53833807 -0.038338963 0.00030935166
0.072553255 0.0010113354 -0.067465343 0.85832256 0.5122233 -0.030159043 0.00019380527
0.070329167 0.0044757067 -0.067531623 0.81977206 0.57121265 -0.041107956 0.00023132849
0.067924432 0.0076637124 -0.067470111 0.76802713 0.63894427 -0.043410264 0.00026588998
0.069173984 0.0062158946 -0.067383885 0.78655028 0.61582154 -0.045854341 0.00036726822
0.064980656 0.01083554 -0.067545675 0.7115342 0.70095354 -0.048818063 0.00020152745
0.066298179 0.0095143765 -0.067303203 0.73089349 0.68099523 -0.045167461 0.00021005444
-0.0010208342 0.014744936 -0.068268165 -0.56797123 0.82223141 -0.036664147 0.00085786905
0.059984721 0.014968149 -0.068747722 0.63715672 0.76775056 -0.067753002 0.00034226998
0.061791733 0.013827689 -0.067513622 0.6495735 0.75863916 -0.050208192 0.00045363334
0.063458785 0.012360509 -0.067361809 0.67944944 0.7318005 -0.053070091 0.00031747328
0.0017501594 0.016904898 -0.067741685 -0.54532242 0.83613479 -0.059178878 0.00066504109
0.0034013831 0.017871991 -0.068446741 -0.53642988 0.83948988 -0.086601354 0.00066200632
0.056442585 0.017752929 -0.067873009 0.5406217 0.8405019 -0.035843756 0.00049277907
0.058404833 0.016439797 -0.067510217 0.58810753 0.80731064 -0.048775431 0.00039015966
0.060274485 0.015144099 -0.067079619 0.6165849 0.78579575 -0.048457026 0.00049184117
0.0044636456 0.01883566 -0.067192547 -0.5090608 0.85895747 -0.055219129 0.00034521267
0.0073460182 0.020410666 -0.067633823 -0.46467218 0.88344556 -0.060031027 0.00044697503
0.050737888 0.020852666 -0.067343608 0.43659821 0.89865679 -0.042402852 0.00022976342
0.052537002 0.019967448 -0.067531914 0.46971923 0.88164097 -0.045530081 0.00016082764
0.055025071 0.018659748 -0.067386851 0.51032692 0.85864508 -0.047906343 0.00037482922
0.0086330455 0.021106839 -0.066954702 -0.43798521 0.8975175 -0.05129597 0.00054287672
0.010584474 0.021911588 -0.067326479 -0.38557425 0.92121434 -0.05192823 0.00033932086
0.013673926 0.023118068 -0.067276672 -0.32636487 0.94379282 -0.052355405 0.00033493689
0.015817747 0.023803275 -0.067804575 -0.28307635 0.9571057 -0.06177815 0.00027125602
0.043863483 0.02362371 -0.067567207 0.29854408 0.95236951 -0.062158667 0.00033480348
0.046490166 0.022793407 -0.067449868 0.34093624 0.93846506 -0.055188701 0.00033006092
0.049229648 0.021643618 -0.067476153 0.41169956 0.9101879 -0.045403574 0.00037471205
