# .PCD v0.7 - Point Cloud Data file format
VERSION 0.7
FIELDS x y z normal_x normal_y normal_z curvature
SIZE 4 4 4 4 4 4 4
TYPE F F F F F F F
COUNT 1 1 1 1 1 1 1
WIDTH 557
HEIGHT 1
VIEWPOINT 0 0 0 1 0 0 0
POINTS 557
DATA ascii
-0.010629005 0.0082979649 -0.012522038 -0.11196579 -0.61448365 -0.78094405 0.0011013182
-0.0074974573 0.0080516497 -0.012737337 -0.090158693 -0.60672015 -0.78978604 0.0010524121
-0.0045064613 0.0078176623 -0.012853294 -0.067542136 -0.59877002 -0.79806799 0.0011989225
-0.001454689 0.0077652507 -0.013032897 -0.049397111 -0.5844264 -0.80994177 0.0016488273
0.0015497752 0.0076636062 -0.013127144 -0.031979963 -0.59013975 -0.80666745 0.0016694003
0.0045419713 0.0076295412 -0.013214692 -0.02144656 -0.60090625 -0.79903173 0.001756149
0.0075163827 0.0075874389 -0.013214235 -0.008590431 -0.60495514 -0.79621327 0.0018403161
0.010524243 0.0076761413 -0.013253949 0.016240569 -0.6043945 -0.79651964 0.0015393832
0.013514317 0.0077708978 -0.013219214 0.038096122 -0.63094616 -0.77489066 0.0014390846
0.016489344 0.0077371188 -0.012996907 0.064198092 -0.65401226 -0.75375491 0.0011317488
0.019470703 0.0079671973 -0.012878672 0.0984293 -0.67234999 -0.73366016 0.0013542115
0.022367859 0.0082499227 -0.012710015 0.13019218 -0.67708087 -0.7243008 0.0013689836
0.02522788 0.0085338 -0.01242312 0.16319016 -0.68752456 -0.70758671 0.0018286257
0.027367208 0.0087351389 -0.012160327 0.18921615 -0.6796481 -0.70871419 0.0016251043
-0.024182087 0.011675937 -0.012157504 -0.24044411 -0.60731632 -0.75720114 0.0018093664
-0.022176333 0.011382893 -0.012470275 -0.22178254 -0.62453836 -0.74884194 0.0014082941
-0.019360343 0.011037509 -0.012914141 -0.17628773 -0.582816 -0.79325169 0.0010060017
-0.016406268 0.010558677 -0.013194886 -0.1521471 -0.54547668 -0.82420051 0.0011657068
-0.013332424 0.010592657 -0.013768278 -0.12067556 -0.52366543 -0.84333384 0.0011261331
-0.010466424 0.010532443 -0.014099024 -0.086596482 -0.51394254 -0.85344249 0.0014936511
-0.0075242855 0.010437768 -0.014325775 -0.067147851 -0.48523316 -0.87180269 0.0014178561
-0.0045574484 0.010179803 -0.014402454 -0.062008437 -0.47816908 -0.87607604 0.0016797079
-0.0015468695 0.010089998 -0.014526349 -0.045369681 -0.46972519 -0.8816461 0.0020355687
0.0014172475 0.0099390047 -0.014575676 -0.034078337 -0.46200636 -0.88622165 0.00208871
0.0045295605 0.0098402612 -0.014625747 -0.022165379 -0.4610379 -0.88710362 0.0021725185
0.0075087231 0.0097369934 -0.01462902 -0.0099966275 -0.4652667 -0.88511413 0.0021933017
0.010547114 0.0096698059 -0.014605843 0.0042548706 -0.47755092 -0.8785938 0.0021165507
0.013567134 0.0097114006 -0.014582564 0.025688399 -0.49225461 -0.87007213 0.0022791508
0.016566878 0.0097394474 -0.014476935 0.047454357 -0.51381069 -0.85659009 0.002080329
0.019524783 0.0099207433 -0.014383893 0.072089754 -0.53783357 -0.8399632 0.0017705873
0.022570491 0.010159662 -0.014216804 0.10337333 -0.56258702 -0.82024986 0.0015234983
0.025542265 0.010380071 -0.013923905 0.13401842 -0.59546494 -0.79212403 0.0015075927
0.028474689 0.010469649 -0.013405894 0.18242002 -0.64211291 -0.74458981 0.0017585551
0.031365748 0.010917142 -0.013052237 0.21551216 -0.65221387 -0.72675407 0.0013903988
0.03426398 0.011361853 -0.012525479 0.24512865 -0.67181718 -0.69898045 0.0010396414
0.036372021 0.01169222 -0.012147276 0.28069115 -0.70234394 -0.65416014 0.0013755679
-0.031337906 0.014662507 -0.012302047 -0.2662681 -0.64211428 -0.71888149 0.0010028726
-0.027934954 0.013687954 -0.0125875 -0.2166145 -0.58855277 -0.77889907 0.0013568251
-0.025328716 0.013298709 -0.013047139 -0.21117985 -0.56698591 -0.7961973 0.0011289407
-0.022547504 0.013531377 -0.013918609 -0.17510082 -0.51314139 -0.84025329 0.000933328
-0.019531481 0.013320922 -0.014417392 -0.14445123 -0.48176095 -0.86431491 0.0015221969
-0.016708151 0.012822289 -0.014608356 -0.12984999 -0.45632112 -0.88028973 0.002095225
-0.013795923 0.012453769 -0.014797562 -0.10436467 -0.41501206 -0.90381026 0.0024422924
-0.011071768 0.012167787 -0.014896214 -0.073468029 -0.44313928 -0.89343727 0.0030871886
0.026782673 0.012089251 -0.014998209 0.12093322 -0.57483482 -0.80928373 0.0016126898
0.028847078 0.012326983 -0.014758448 0.15272719 -0.57168758 -0.8061313 0.0011968301
0.031657878 0.012749404 -0.014443274 0.18464214 -0.5415923 -0.82011282 0.0020229984
0.034579501 0.013198865 -0.014009334 0.20790498 -0.57430923 -0.79179823 0.0010030332
0.037489321 0.013598285 -0.013432071 0.26367739 -0.61873215 -0.74003023 0.0016248394
0.040349524 0.014157825 -0.012833987 0.3070128 -0.64579159 -0.69906819 0.0011887959
0.042571504 0.014703331 -0.012332015 0.3304714 -0.64799649 -0.68621367 0.0016676557
-0.037068166 0.017533869 -0.012438031 -0.32832789 -0.61333537 -0.7183457 0.0010411069
-0.034376986 0.016874157 -0.012980718 -0.28375101 -0.59699333 -0.75038946 0.00091214711
-0.031537272 0.016652251 -0.013746682 -0.21858251 -0.5450775 -0.80939001 0.0014819797
-0.028624522 0.016402261 -0.014332048 -0.18852249 -0.50601965 -0.84166706 0.0016868116
-0.025782788 0.015738348 -0.014588904 -0.18940222 -0.47404394 -0.85988903 0.0023659426
-0.023256842 0.015301859 -0.014881784 -0.15401661 -0.41137302 -0.89836019 0.0027822973
0.035822533 0.015064269 -0.014963266 0.20532715 -0.56130767 -0.80173218 0.0010464037
0.037911486 0.015454655 -0.01473498 0.22546268 -0.51710302 -0.82569438 0.0017754153
0.040661655 0.016112285 -0.014285064 0.27234942 -0.53852659 -0.79738003 0.0013245946
0.043479189 0.016536774 -0.013468572 0.3231546 -0.56813377 -0.75683224 0.0013467632
0.046189606 0.017167019 -0.0127077 0.37851438 -0.6035828 -0.70172256 0.0013876421
0.04817443 0.017788969 -0.012150119 0.41258982 -0.60860676 -0.67776656 0.0011014703
-0.042686671 0.020734483 -0.01228402 -0.39807203 -0.59125668 -0.7013945 0.0015717599
-0.040299013 0.019920191 -0.012812306 -0.35734019 -0.55962247 -0.74775046 0.0012272699
-0.03745817 0.019761855 -0.013871423 -0.27645412 -0.47315073 -0.83648163 0.001138325
-0.034725368 0.019159749 -0.014417344 -0.22915426 -0.45483273 -0.86059022 0.0012246253
-0.031790566 0.018447613 -0.014802282 -0.18277712 -0.41502985 -0.89125907 0.0021482639
0.044058938 0.01855094 -0.014685404 0.29861775 -0.51109296 -0.8059848 0.001977725
0.046645168 0.019293221 -0.01407235 0.3429949 -0.5016346 -0.79417711 0.001211913
0.049326781 0.01974663 -0.013067287 0.40888193 -0.5536533 -0.72545409 0.0016523758
0.051630456 0.020556858 -0.012387977 0.44375467 -0.56945914 -0.69195247 0.0014724274
-0.045845881 0.023386033 -0.012503447 -0.41229868 -0.54274774 -0.73173404 0.0012123518
-0.043283522 0.022573885 -0.013243238 -0.37489784 -0.51233709 -0.77263331 0.0012844892
-0.040600497 0.022396779 -0.014281455 -0.28781897 -0.42422321 -0.85860056 0.00096731883
-0.038067345 0.021620914 -0.014761808 -0.2470362 -0.39894667 -0.88307112 0.001801052
-0.0090223802 0.023895599 -0.014926129 0.070270039 0.41112396 -0.908867 0.0068797008
-0.0071369465 0.023735786 -0.014894883 0.087561376 0.43981031 -0.89381206 0.0022048401
-0.0044684215 0.023537837 -0.014764649 0.06821277 0.4292309 -0.90061527 0.0021171176
-0.0014648751 0.023381239 -0.014664955 0.043107878 0.42173642 -0.90569317 0.0023631752
0.001438533 0.023287913 -0.014624978 0.015637966 0.43769947 -0.89898533 0.0023222289
0.0044481964 0.023329824 -0.014605134 -0.013647718 0.44488695 -0.89548272 0.0023614897
0.0074712145 0.023392258 -0.014669761 -0.042596295 0.44760302 -0.89321721 0.0023165385
0.010282689 0.023601538 -0.014733418 -0.067803018 0.46607479 -0.88214344 0.0021326763
0.013001648 0.02381449 -0.014862429 -0.089255631 0.46803245 -0.87919223 0.0029404948
0.047625046 0.021297218 -0.014874709 0.33206889 -0.44244471 -0.83305037 0.0024544888
0.049809683 0.022176335 -0.014381963 0.36849043 -0.42822328 -0.82513005 0.0014931547
0.052444648 0.022564912 -0.013271135 0.4250018 -0.49019444 -0.76097494 0.0018531885
0.054671645 0.023287335 -0.012449282 0.47461686 -0.50024241 -0.72422123 0.0017422788
-0.049145177 0.026134439 -0.012668958 -0.41349247 -0.51901335 -0.74809706 0.0011348837
-0.046001632 0.025751816 -0.013884424 -0.32304472 -0.41653448 -0.84978884 0.0015843543
-0.043204963 0.025010904 -0.014655937 -0.29498908 -0.3713429 -0.88038957 0.0013656925
-0.041634806 0.024194954 -0.014905249 -0.28599337 -0.43437591 -0.85412258 0.0037333625
-0.018355979 0.026768971 -0.014975259 0.161222 0.36186105 -0.91818523 0.0033567862
-0.016050411 0.026516488 -0.014791074 0.16318522 0.4319337 -0.88701963 0.0032423753
-0.013338285 0.026028996 -0.01454592 0.15546127 0.45807272 -0.87521499 0.0020232385
-0.010447682 0.02561806 -0.014301027 0.12948143 0.488251 -0.86304432 0.0015180148
-0.0075259455 0.025489645 -0.013973176 0.10604624 0.50441384 -0.85692525 0.0012055492
-0.0044781556 0.025504546 -0.013642057 0.078069896 0.51518685 -0.85351479 0.0010814903
-0.0015592057 0.025512591 -0.013391334 0.055279482 0.57398057 -0.81700093 0.0020701957
0.0014738645 0.025475428 -0.013281864 0.022308122 0.56766397 -0.82295805 0.0028825558
0.0044963905 0.025555721 -0.013200871 -0.014568468 0.58466637 -0.81114298 0.0021875321
0.0075087077 0.025475144 -0.013344482 -0.039074492 0.58782756 -0.80804205 0.002295099
0.010486618 0.025506215 -0.013525896 -0.081104629 0.57876766 -0.81144941 0.002164752
0.013434459 0.025542 -0.013811967 -0.10753626 0.55639529 -0.82392979 0.0016001803
0.016338123 0.025584562 -0.014206051 -0.13413681 0.53606021 -0.83345473 0.0014145459
0.019262781 0.026021941 -0.01443319 -0.15630369 0.5150097 -0.84281325 0.0018771231
0.021944692 0.026550651 -0.01465267 -0.15938132 0.48250815 -0.86126846 0.0021380784
0.024555096 0.026897712 -0.014898094 -0.17440102 0.49847743 -0.84917873 0.00084726402
0.050912552 0.024057154 -0.014875371 0.39105076 -0.40907076 -0.82446373 0.0014103584
0.05284537 0.025170056 -0.014437812 0.38857192 -0.35281605 -0.85119486 0.0016200686
0.055473343 0.025553487 -0.013257042 0.45440733 -0.41625434 -0.78755713 0.0016986672
0.05762114 0.026304334 -0.012366933 0.50583315 -0.42853722 -0.74865788 0.0022460828
-0.054075345 0.029559147 -0.012102277 -0.47651327 -0.49306706 -0.72788733 0.0019903344
-0.05225683 0.028790643 -0.012653509 -0.42992845 -0.45887721 -0.77755588 0.0017185728
-0.049495742 0.028413959 -0.013812611 -0.38085276 -0.40407765 -0.83166844 0.0017572758
-0.046877459 0.028165713 -0.014726865 -0.28433332 -0.30958316 -0.90736586 0.0015997984
-0.024786631 0.02971556 -0.014860922 0.19357507 0.46853283 -0.86197776 0.002365415
-0.022287721 0.029231504 -0.014561277 0.19704179 0.46691981 -0.86206752 0.0023434793
-0.019384177 0.028614178 -0.014242099 0.19023789 0.51085919 -0.83835107 0.0013917163
-0.016514955 0.028456697 -0.013684839 0.18609123 0.53495657 -0.82413077 0.001047052
-0.013597871 0.028237177 -0.013172649 0.17771406 0.58272856 -0.79299754 0.001420035
-0.010547131 0.027925044 -0.012776087 0.14793491 0.61651492 -0.77332056 0.0016194942
-0.007592401 0.027573153 -0.012545091 0.11683713 0.63823581 -0.76092327 0.0018761862
-0.0046303747 0.027370974 -0.01231625 0.087369099 0.6568163 -0.74897194 0.0015301151
-0.0013805652 0.027107364 -0.012195979 0.064901389 0.64477998 -0.76160783 0.0022221468
0.0014832934 0.027117632 -0.012053895 0.025565384 0.63647956 -0.77086979 0.0023900743
0.0058880188 0.027109066 -0.012004 0.0026549166 0.63845581 -0.76965386 0.0020887603
0.0075728223 0.02718096 -0.012061191 -0.044019841 0.6338582 -0.7721957 0.0016186121
0.010892132 0.027210072 -0.012229837 -0.073350832 0.67349356 -0.73554474 0.0019187217
0.013841729 0.027487284 -0.012364595 -0.11224066 0.65917838 -0.74356294 0.0013534116
0.016854757 0.027777946 -0.012636217 -0.14948232 0.64576674 -0.74875915 0.0012586665
0.019919237 0.027945073 -0.01317493 -0.17505825 0.61634976 -0.76776791 0.0020232347
0.022543332 0.028494544 -0.013346114 -0.18619019 0.60152179 -0.77685571 0.0019462844
0.025543198 0.028504411 -0.014095499 -0.19406958 0.56946331 -0.79877943 0.0018764444
0.028373256 0.029048556 -0.014422649 -0.18770401 0.5429545 -0.81851548 0.0015803218
0.031121755 0.029608272 -0.014729227 -0.19917226 0.54104954 -0.81706542 0.0015200862
0.053709369 0.027452817 -0.014908675 0.34662762 -0.22144981 -0.91148734 0.0034499688
0.055648062 0.028410986 -0.014329803 0.41174191 -0.26784638 -0.87104928 0.0016195718
0.058356751 0.028621404 -0.012983494 0.47543636 -0.33018208 -0.81543857 0.0024908101
0.060282916 0.029672151 -0.012227985 0.54442686 -0.34641629 -0.76393402 0.0018255953
-0.055184126 0.03162805 -0.012517156 -0.43892947 -0.37174109 -0.81801552 0.0023776894
-0.052296553 0.031794239 -0.013985773 -0.32796526 -0.22282274 -0.91803527 0.0016405476
-0.04985014 0.031081064 -0.014717528 -0.28963998 -0.22412391 -0.93052518 0.002108875
-0.030949265 0.032620952 -0.014753446 0.21645136 0.45423597 -0.86418658 0.0023798444
-0.028349882 0.032032434 -0.014386047 0.22651418 0.48933524 -0.84216529 0.0019224224
-0.025466874 0.031573858 -0.013862389 0.23025255 0.5382036 -0.81075305 0.0014036066
-0.022605017 0.031320602 -0.013204697 0.24112965 0.57741398 -0.78003174 0.0019851828
-0.019775294 0.030863067 -0.012745447 0.22474518 0.61344123 -0.75708622 0.0019039103
-0.016929217 0.030303599 -0.012386493 0.20237924 0.65581477 -0.7272892 0.0013761114
-0.014737718 0.030013643 -0.012085153 0.17304514 0.64341956 -0.74569875 0.0025097677
0.02588496 0.030637845 -0.012459683 -0.22274621 0.6617555 -0.71586579 0.0020419199
0.028755093 0.030940361 -0.013057202 -0.21734889 0.62745512 -0.74770278 0.0013112655
0.031464949 0.031572908 -0.013321674 -0.22794649 0.61481196 -0.7550143 0.0011387801
0.03441548 0.031471241 -0.014282569 -0.22557165 0.55786568 -0.79868841 0.0012862677
0.037300613 0.032228637 -0.014579545 -0.2302316 0.50628012 -0.83106786 0.0024106936
0.039496556 0.032698538 -0.014896385 -0.20341597 0.49472198 -0.84490955 0.001702461
0.056318719 0.031349514 -0.014727588 0.3573851 -0.13277487 -0.92447102 0.003019131
0.058545675 0.031495351 -0.013767958 0.42418283 -0.16990872 -0.88949418 0.0018248366
0.06087622 0.031683743 -0.012545764 0.5099293 -0.24307398 -0.82515889 0.0032433502
-0.057579737 0.03453657 -0.012370849 -0.4556306 -0.31582397 -0.83225954 0.0032972095
-0.055267598 0.03478843 -0.013593209 -0.35098243 -0.15850814 -0.92286861 0.0022657646
-0.052616615 0.034600686 -0.014574404 -0.29220992 -0.12407905 -0.94827092 0.0041521918
-0.050719041 0.033070512 -0.014948152 -0.24882682 -0.15338734 -0.95632505 0.0061783721
-0.037213147 0.035539255 -0.01470838 0.20213184 0.43342447 -0.87822884 0.0026289355
-0.034373313 0.034944754 -0.014301973 0.23009808 0.49427754 -0.83829862 0.0015964373
-0.031476498 0.034541957 -0.013660221 0.2572414 0.54607242 -0.79726517 0.0016285261
-0.028646128 0.034240458 -0.012918216 0.27507403 0.61583364 -0.73829752 0.0013099499
-0.025756435 0.033590343 -0.012424779 0.26036543 0.65216553 -0.71196198 0.0015949882
-0.023583494 0.033130877 -0.012043893 0.25451612 0.66237187 -0.70461696 0.00093212421
0.032474205 0.033133641 -0.012293252 -0.2446218 0.65576911 -0.71423173 0.00099383947
0.034463707 0.033654008 -0.012520041 -0.24983771 0.64183086 -0.72500634 0.0011389684
0.037552994 0.034177333 -0.013213386 -0.27999729 0.58905542 -0.75803381 0.0014130211
0.040525898 0.034345325 -0.014103557 -0.22881159 0.51457274 -0.82635355 0.0010898223
0.043371469 0.035135794 -0.014466484 -0.22092584 0.4795391 -0.84925497 0.0019209933
0.04594202 0.035738129 -0.014749036 -0.16314831 0.43307599 -0.8864693 0.0022914244
0.05639736 0.034622293 -0.014865647 0.25164729 0.023395283 -0.96753621 0.0038523946
0.058544178 0.034468126 -0.014168951 0.34486449 -0.030129623 -0.93816882 0.0040778094
0.061448772 0.034521669 -0.012839244 0.46457744 -0.13113785 -0.8757686 0.0025871291
0.063177124 0.035491638 -0.012055978 0.56634277 -0.15463074 -0.80953389 0.002927812
-0.060183235 0.038753077 -0.012169688 -0.50495416 -0.22420764 -0.83351803 0.0036469453
-0.058250248 0.037814502 -0.012878061 -0.37061888 -0.089069165 -0.9245044 0.0023039093
-0.055435807 0.037476107 -0.013973023 -0.2982772 -0.033157822 -0.9539032 0.00457686
-0.052642655 0.03776544 -0.014713249 -0.19979507 0.053862769 -0.97835618 0.0060201366
-0.049583986 0.038636863 -0.014926501 -0.037481204 0.19947658 -0.97918552 0.0062970123
-0.046269286 0.038591586 -0.014829247 0.083764769 0.34124354 -0.93623513 0.0038761515
-0.043281022 0.038187519 -0.014593661 0.15961814 0.42789555 -0.88962203 0.0027525693
-0.040372569 0.037714753 -0.014217963 0.20385106 0.4874073 -0.84904587 0.0013010545
-0.037484825 0.037535433 -0.013507552 0.26063973 0.55119789 -0.7926209 0.0019662038
-0.034657493 0.037117556 -0.012858633 0.28795829 0.60984874 -0.73835254 0.0015280358
-0.032090586 0.036475226 -0.012396368 0.29065683 0.65062135 -0.70157713 0.001343078
0.040848516 0.036551625 -0.012581709 -0.2934607 0.59728539 -0.74641204 0.0011019483
0.043586105 0.037191164 -0.013156603 -0.2629616 0.55870432 -0.78657532 0.0012888475
0.046500254 0.037490409 -0.013855767 -0.19080818 0.48567086 -0.85306275 0.0014681079
0.049456399 0.037646074 -0.014402413 -0.14522031 0.44437921 -0.88398993 0.0020106013
0.052601229 0.03791498 -0.014599085 -0.046199415 0.35647833 -0.9331606 0.0035491853
0.055606544 0.037572529 -0.014593533 0.12789305 0.20905532 -0.96950465 0.0031721878
0.058576424 0.037518021 -0.014057212 0.26047969 0.11732677 -0.95832396 0.0052876887
0.061581273 0.037478592 -0.012993296 0.37730286 0.011345811 -0.92602044 0.0041839066
0.063289113 0.037848461 -0.012182334 0.50835079 -0.0571988 -0.8592484 0.0028059247
-0.06037711 0.040649503 -0.012285523 -0.39605007 -0.035178851 -0.91755486 0.0050953422
-0.058092039 0.040591948 -0.013163383 -0.30613348 0.044556968 -0.95094532 0.0044827457
-0.055252656 0.040729836 -0.013904068 -0.19496293 0.16328451 -0.96712333 0.0071588033
-0.052496899 0.040603373 -0.014252305 -0.083274767 0.26861456 -0.95964134 0.0068093031
-0.049453422 0.040567834 -0.014269377 0.033921245 0.3634195 -0.9310078 0.0046745776
-0.046445187 0.040491171 -0.013933182 0.13594659 0.44863611 -0.88331431 0.0020407836
-0.043548033 0.040519606 -0.013275291 0.22806464 0.52870089 -0.81759518 0.0019374284
-0.040706407 0.040034439 -0.012753294 0.27101415 0.59015465 -0.76043981 0.0021509803
-0.038162515 0.039375912 -0.012362535 0.28826645 0.6326614 -0.71877819 0.0014455166
0.044711877 0.039061952 -0.012167591 -0.31715235 0.60264802 -0.7322771 0.002323973
0.046815597 0.039646305 -0.012521302 -0.26959577 0.58185279 -0.7673105 0.0024086153
0.049655437 0.040228773 -0.01299205 -0.20133555 0.51763487 -0.83157575 0.0020665349
0.052559841 0.040458269 -0.013438647 -0.12094326 0.45288894 -0.8833257 0.0029436797
0.055546641 0.040497195 -0.013666552 0.012174238 0.35001093 -0.93666649 0.0035951373
0.05850793 0.040478017 -0.013492513 0.15288939 0.26028451 -0.95335031 0.0051357397
0.061553922 0.040493526 -0.012778252 0.28876516 0.16178748 -0.94363105 0.0036459414
0.063330315 0.040109843 -0.012126728 0.44704992 0.079272136 -0.89098948 0.0035545155
-0.060349137 0.04372805 -0.01219254 -0.28296596 0.14175934 -0.94859612 0.006532535
-0.058408588 0.043581337 -0.012729596 -0.19040424 0.20430347 -0.96021163 0.0038459981
-0.055488005 0.043608319 -0.013133313 -0.081519634 0.31406552 -0.94589508 0.004456433
-0.052398533 0.043593597 -0.01310747 0.058355082 0.41274264 -0.90897644 0.0038732642
-0.049518123 0.043355521 -0.012882121 0.14233723 0.48989421 -0.86008364 0.003594355
-0.046674218 0.042813193 -0.012595634 0.21000998 0.56367815 -0.79885083 0.0031499937
-0.044166397 0.042303707 -0.01219839 0.25899932 0.6062963 -0.75188041 0.0019358766
0.052946348 0.042430539 -0.012394137 -0.18367869 0.52057052 -0.83382761 0.0021095795
0.055716559 0.043003026 -0.01252792 -0.08330293 0.45711476 -0.88549805 0.0030073149
0.058551282 0.043178916 -0.012565602 0.049256772 0.36985365 -0.92778343 0.0041211485
0.061245609 0.04295215 -0.012332064 0.23249912 0.25606161 -0.93828392 0.0045718024
0.06313815 0.042326532 -0.012043837 0.32448977 0.18307471 -0.92800331 0.0047459509
-0.058375567 0.045470655 -0.012220747 -0.14674793 0.35338897 -0.92389464 0.0053855553
-0.055522967 0.045636039 -0.012286964 0.010859581 0.46057877 -0.88755238 0.0036761977
-0.052931651 0.045418587 -0.012221691 0.12415817 0.53704953 -0.83436358 0.002719284
-0.050944503 0.045113344 -0.012076698 0.17134343 0.58469027 -0.7929557 0.0017636806
-0.015541014 0.0058885142 -0.0090388795 -0.22070377 -0.7526142 -0.62037224 0.0012277593
-0.013316185 0.0056736837 -0.009417396 -0.17623802 -0.75158894 -0.6356526 0.0011190074
-0.010380158 0.0052979956 -0.009683121 -0.14119673 -0.75640064 -0.63868737 0.0015187492
-0.0076104901 0.0053248219 -0.010191706 -0.10392456 -0.70380151 -0.70275396 0.0011568196
-0.0044045285 0.0050375792 -0.010318886 -0.075397059 -0.71605092 -0.69396424 0.00089194108
-0.0015307735 0.0049504107 -0.010497294 -0.051618092 -0.70405757 -0.70826447 0.0012890287
0.0015648035 0.0049420106 -0.010687772 -0.033216182 -0.7045905 -0.70883626 0.0013407393
0.0046341363 0.0048128418 -0.01064204 -0.0085850852 -0.71932018 -0.69462568 0.0018590525
0.0074728229 0.0047558616 -0.010551247 0.0092530446 -0.74848795 -0.66308385 0.0015821113
0.010545842 0.0048433929 -0.010550615 0.033941578 -0.75471216 -0.65517747 0.0016758494
0.013530373 0.0050012339 -0.010494441 0.069072038 -0.76001996 -0.64621872 0.0011982535
0.016501963 0.0050880564 -0.010238504 0.095807172 -0.77471924 -0.62500495 0.0010803359
0.019544058 0.0052736416 -0.0099045644 0.13097252 -0.78574288 -0.60452813 0.0010830687
0.022398958 0.0055408911 -0.0095512085 0.16039209 -0.79181451 -0.58932513 0.00084109697
0.024806181 0.0057712561 -0.0092002545 0.19669276 -0.80100209 -0.56542695 0.00072783546
-0.022102781 0.0085165109 -0.009644012 -0.27124521 -0.73215443 -0.6248008 0.00092386868
-0.019365717 0.0079823676 -0.010102294 -0.23814072 -0.73075902 -0.63975018 0.0017121425
-0.016475204 0.0075636022 -0.010596042 -0.19747241 -0.72828007 -0.6562109 0.00087881205
-0.01396133 0.0075503499 -0.011235088 -0.15361348 -0.6749475 -0.72169852 0.00081525248
-0.010539264 0.0068690628 -0.011297963 -0.1222377 -0.66069508 -0.74063486 0.00098766957
-0.0073934845 0.006585062 -0.011557636 -0.096687205 -0.68153977 -0.72536546 0.0011940148
-0.0047130338 0.0063137724 -0.011625669 -0.072626285 -0.67959678 -0.72998196 0.0013121531
-0.0021675127 0.0063201184 -0.011874683 -0.045379769 -0.66615462 -0.74443179 0.0018304513
0.00088931009 0.006162791 -0.011954327 -0.033105802 -0.7026068 -0.7108078 0.0013037543
0.0037423675 0.006075907 -0.011993152 0.0012652109 -0.67228204 -0.74029404 0.0028822599
0.0086334888 0.0060503976 -0.011970075 -2.1083197e-05 -0.68289232 -0.73051906 0.0027945226
0.010612309 0.0060431473 -0.011847158 0.028115446 -0.71035677 -0.70327997 0.0017986087
0.013191256 0.0061837793 -0.011818122 0.053274475 -0.6917181 -0.72019994 0.0011980425
0.016485715 0.0063174334 -0.011673857 0.080440469 -0.70637101 -0.70325631 0.0012601308
0.01943537 0.0064770244 -0.011434607 0.11526532 -0.72272336 -0.68145782 0.0012402829
0.022602253 0.0067625404 -0.011100784 0.14843941 -0.7712732 -0.61895347 0.0011234969
0.025624117 0.0071389247 -0.010727383 0.1793346 -0.76696575 -0.61611903 0.00099931692
0.028479941 0.0077185533 -0.010516764 0.20870729 -0.77505231 -0.59643543 0.0018101535
0.031376567 0.0081674363 -0.010016321 0.24925481 -0.77716696 -0.57782656 0.0015391475
0.033728749 0.0086814705 -0.0096513685 0.27847189 -0.77297854 -0.57005066 0.0011136754
-0.031193843 0.011839311 -0.0094002001 -0.3195194 -0.74591333 -0.58439767 0.00070710178
-0.028251905 0.011068484 -0.0098964181 -0.29668525 -0.73536164 -0.60927922 0.0017077334
-0.025376197 0.010649473 -0.010651662 -0.26494947 -0.70069772 -0.66243821 0.0012539907
-0.022634573 0.0099652074 -0.011015667 -0.25533053 -0.71677917 -0.6488713 0.0014966696
-0.019752353 0.0094833598 -0.011555 -0.21458472 -0.67866564 -0.70240045 0.0008680555
-0.017824279 0.0093581835 -0.01197649 -0.18270645 -0.64728796 -0.74002481 0.0029586761
0.029604528 0.009172556 -0.011890843 0.20603508 -0.70267242 -0.68102938 0.0020111189
0.0317677 0.0094686328 -0.011493843 0.22932841 -0.71513957 -0.66029066 0.0012732449
0.034648109 0.0099362591 -0.010846984 0.27469087 -0.75523263 -0.59512055 0.0012703859
0.037438568 0.010723946 -0.010475989 0.29409236 -0.75708884 -0.58337486 0.0019992141
0.040148649 0.011366456 -0.0098060891 0.35636729 -0.75371689 -0.55218947 0.0012010325
0.042470548 0.011979879 -0.0091918372 0.38471138 -0.75523156 -0.53068113 0.001184838
-0.036909655 0.014541306 -0.0095404312 -0.3773692 -0.71293956 -0.59102434 0.0010759907
-0.034186017 0.013982374 -0.010363832 -0.33467281 -0.70234561 -0.62825531 0.0013896823
-0.031519879 0.01325593 -0.010850742 -0.29445687 -0.70275021 -0.64763969 0.0017839109
-0.028701337 0.012731299 -0.011490614 -0.24191962 -0.63452441 -0.73406661 0.0016696522
-0.026461458 0.012116572 -0.011825236 -0.25060076 -0.65783417 -0.71024895 0.0031137096
0.038371671 0.012130283 -0.011724767 0.28881824 -0.6897347 -0.66396546 0.0010455605
0.040787157 0.012681782 -0.011099447 0.33154181 -0.73193568 -0.5952732 0.0017525506
0.043474969 0.013589733 -0.010576443 0.36409965 -0.7277776 -0.58118099 0.0011953699
0.046175886 0.014393448 -0.0097628264 0.41822523 -0.71208018 -0.56394106 0.00093846169
-0.042837854 0.017723156 -0.0092625162 -0.45620921 -0.70241106 -0.54634416 0.0015077468
-0.040418945 0.016974665 -0.0100873 -0.39566055 -0.67402232 -0.62381619 0.0022633502
-0.037778392 0.016313562 -0.010965606 -0.35975623 -0.66713738 -0.65230602 0.0012595009
-0.035281911 0.015493362 -0.011439975 -0.30277479 -0.67411232 -0.67372108 0.0014323236
0.044777125 0.01535932 -0.011812355 0.35671002 -0.6545555 -0.66656959 0.0022770057
0.046797335 0.01589481 -0.011116517 0.40283903 -0.68328589 -0.6089673 0.0013518203
0.049348015 0.016782815 -0.010299965 0.44475073 -0.67585927 -0.58771688 0.0017573619
0.051519249 0.017635768 -0.0095968535 0.47716591 -0.66479039 -0.5747751 0.0014340952
-0.045660503 0.02050253 -0.010092372 -0.44889358 -0.61081535 -0.65222639 0.00046855811
-0.043320999 0.01954977 -0.010799518 -0.40491349 -0.60808218 -0.6828478 0.0012375332
-0.040787071 0.018546496 -0.011451079 -0.37717772 -0.62769926 -0.6809777 0.0016374184
0.050194889 0.018477986 -0.011508514 0.4386186 -0.62975609 -0.64110917 0.0007428297
0.052613188 0.019415846 -0.010649104 0.46540323 -0.60920608 -0.64208084 0.0015321741
0.054866891 0.020334685 -0.0097849974 0.51365614 -0.61997688 -0.59311545 0.0010481393
-0.049096886 0.023223283 -0.010227909 -0.4533444 -0.59274942 -0.66567785 0.00069980661
-0.046699762 0.022345293 -0.011125898 -0.42909193 -0.58447891 -0.68866861 0.0013956742
-0.044557676 0.021485448 -0.011822226 -0.41539723 -0.55582911 -0.72006881 0.0020507656
0.053587686 0.021367386 -0.011748939 0.48524773 -0.57931739 -0.65492439 0.00080329133
0.055754464 0.022248873 -0.010857129 0.49777052 -0.54253715 -0.6766668 0.0016021108
0.057906438 0.023079472 -0.0098170573 0.56479949 -0.56988955 -0.59684795 0.001466449
-0.05430308 0.026578581 -0.0095748315 -0.5071007 -0.5854125 -0.63256711 0.0016714303
-0.052308436 0.025972584 -0.010470713 -0.46159509 -0.54938722 -0.69649386 0.0014482143
-0.049789406 0.024886178 -0.01130071 -0.44104698 -0.56636137 -0.69621283 0.00091342616
0.056737367 0.024198979 -0.011683279 0.51956987 -0.50686741 -0.6878463 0.00085537834
0.058743313 0.025286036 -0.010877567 0.53654051 -0.47144517 -0.69990265 0.001609783
0.06077807 0.026061656 -0.0097119194 0.597606 -0.51429313 -0.61511761 0.0012588507
-0.057554405 0.029314067 -0.0092536863 -0.5792734 -0.56112438 -0.59125447 0.0014643675
-0.055291813 0.028598748 -0.010459026 -0.49690112 -0.48152268 -0.72195929 0.0015027663
-0.053153463 0.027644783 -0.011350645 -0.46083549 -0.51836413 -0.72036743 0.0012090579
-0.012876049 0.029623279 -0.011864488 0.19064596 0.66189682 -0.72494608 0.0013445732
-0.010320772 0.029367387 -0.011507467 0.1662986 0.70659697 -0.68779767 0.0012933518
-0.0074477457 0.029039964 -0.01118742 0.133854 0.69036436 -0.7109713 0.0018888029
-0.0044402787 0.028834825 -0.010890412 0.10684002 0.72416914 -0.68129599 0.0012653488
-0.0014812708 0.028602811 -0.010731055 0.078372374 0.73342061 -0.67524213 0.0022159212
0.0014972705 0.028504035 -0.010603902 0.031814042 0.73493171 -0.67739439 0.0021847936
0.0044434899 0.028360792 -0.010691892 -0.016287874 0.7294215 -0.68387055 0.002272489
0.0076053678 0.028466202 -0.010650434 -0.052281667 0.72677636 -0.68488157 0.002267191
0.010533405 0.028680876 -0.010686736 -0.082789563 0.72135162 -0.68760282 0.0021477509
0.013472977 0.028783629 -0.010992784 -0.12133124 0.70702571 -0.69670177 0.0019063751
0.016748613 0.029207787 -0.011226396 -0.15844692 0.69038224 -0.70588028 0.0012178761
0.019177051 0.029567035 -0.011488602 -0.18664175 0.73503709 -0.65183234 0.0016009049
0.021339566 0.029903594 -0.011780439 -0.21303494 0.68754554 -0.69418824 0.0027150027
0.059593286 0.027561247 -0.011707604 0.56631118 -0.41264561 -0.71345305 0.0010010144
0.061571795 0.028508527 -0.010633775 0.57853252 -0.38330144 -0.7199862 0.00092118635
0.063436203 0.029311927 -0.0094513707 0.6379025 -0.4265942 -0.64116901 0.0016721655
-0.060203437 0.032064632 -0.009037843 -0.61919028 -0.50853074 -0.59833097 0.0022139896
-0.05824862 0.031554062 -0.010347699 -0.56050849 -0.45043331 -0.69493896 0.0014358736
-0.056194969 0.030924283 -0.011524718 -0.49319923 -0.41926023 -0.76221746 0.0018650282
-0.021969259 0.032787934 -0.011755052 0.25592956 0.66518819 -0.70144475 0.0015058151
-0.019322781 0.032309741 -0.011252594 0.2487022 0.70505995 -0.66410673 0.0010075633
-0.0164553 0.031832937 -0.010693349 0.23674627 0.74042404 -0.62906557 0.0012483037
-0.013581545 0.031193927 -0.010435171 0.19743536 0.74224049 -0.6403892 0.0016913116
-0.010579892 0.03076203 -0.010061263 0.17976286 0.74456894 -0.64288592 0.0016404853
-0.00772965 0.030523062 -0.0095994463 0.14495003 0.75725931 -0.6368264 0.0015951544
-0.0049771848 0.03023001 -0.0093963863 0.11249623 0.7662068 -0.63267034 0.0011952795
-0.0020191784 0.030056968 -0.009083231 0.080423459 0.7666232 -0.63704073 0.0011790857
3.1855227e-05 0.030018322 -0.0090140151 0.080067396 0.7588554 -0.64631861 0.00097791781
0.010773035 0.030009728 -0.0091795083 -0.087508321 0.82033575 -0.56514746 0.0041015195
0.013596166 0.030173548 -0.0093407864 -0.12300819 0.77807462 -0.61601043 0.0013095126
0.016597951 0.030380731 -0.0098035485 -0.1677931 0.77145875 -0.61375636 0.0014961404
0.019591901 0.030852772 -0.010135777 -0.20534919 0.75634241 -0.6211102 0.0015626588
0.022416865 0.031112397 -0.010787525 -0.21555302 0.70355064 -0.67716569 0.0018070079
0.025345435 0.031995274 -0.010823626 -0.24258459 0.74069476 -0.62651747 0.0017124905
0.028331518 0.032426298 -0.011466894 -0.24830972 0.69739974 -0.67229146 0.00081348186
0.030547783 0.032761663 -0.011996758 -0.2575919 0.69502538 -0.67125714 0.0031753483
0.062244993 0.031288784 -0.011469585 0.56519669 -0.28709763 -0.77338707 0.0016778415
0.064135633 0.031645626 -0.010052077 0.64338386 -0.3404637 -0.68566883 0.0017248405
-0.061071452 0.03459958 -0.0099469675 -0.58726263 -0.41835895 -0.69289136 0.0012124188
-0.05895846 0.034480974 -0.011479843 -0.46985465 -0.28107587 -0.83679926 0.001551213
-0.027833194 0.035487998 -0.011470057 0.30273187 0.67309099 -0.67476064 0.0022247587
-0.025320739 0.034968782 -0.010856204 0.29753745 0.72341675 -0.62300861 0.0010803841
-0.02259502 0.0343103 -0.010333213 0.28021085 0.74273163 -0.60813785 0.0021227719
-0.01975254 0.033694949 -0.0098252902 0.26756364 0.74520814 -0.6107983 0.0014953209
-0.017453916 0.033288021 -0.009318891 0.24846376 0.76476341 -0.59447688 0.0015964871
0.025915731 0.033277296 -0.0094351843 -0.250512 0.7844162 -0.56739312 0.0013495968
0.028657943 0.033724729 -0.010040461 -0.2610403 0.76443529 -0.58948845 0.0014913604
0.031540871 0.034278054 -0.010619638 -0.27421495 0.744515 -0.60869008 0.0013843139
0.034347162 0.03508142 -0.010964696 -0.30114833 0.73275602 -0.61022812 0.0016617039
0.036860526 0.035612844 -0.011613267 -0.3251937 0.6744386 -0.66285872 0.0012096304
0.062757619 0.033562273 -0.011877405 0.57117605 -0.19786255 -0.79662305 0.002238594
0.06455043 0.034408387 -0.010717944 0.58920562 -0.19405633 -0.78433335 0.00097088207
0.066391863 0.035080109 -0.0093550757 0.68620449 -0.25187746 -0.68240827 0.0018752631
-0.063616358 0.037829261 -0.0095153172 -0.61215174 -0.34672421 -0.71067053 0.0022615714
-0.060823686 0.037088811 -0.011253636 -0.49119294 -0.21247409 -0.84473914 0.0016148621
-0.059920304 0.036275297 -0.011623915 -0.52882802 -0.26275021 -0.8070336 0.001153436
-0.036111657 0.038892861 -0.011811555 0.30568054 0.64260459 -0.70258009 0.0038820186
-0.034066085 0.038432088 -0.011431697 0.31494188 0.66602254 -0.67618459 0.0013884393
-0.03140299 0.037830938 -0.010695889 0.33182886 0.71996027 -0.60954636 0.001419479
-0.028709123 0.037001196 -0.010223 0.31592512 0.73693281 -0.59759635 0.0019332012
-0.02597823 0.036347508 -0.0095286062 0.32041925 0.74615091 -0.58360112 0.001158805
0.032999974 0.036027066 -0.0090434281 -0.32178986 0.76477325 -0.55818748 0.00065160269
0.034784354 0.036300719 -0.0096927937 -0.32989806 0.74539614 -0.57926852 0.0013059133
0.037696078 0.03720741 -0.010272956 -0.36062598 0.70158154 -0.61459923 0.0016978735
0.040387806 0.03795673 -0.011020087 -0.35459614 0.67966706 -0.64211702 0.0019674413
0.042718939 0.038567327 -0.011681259 -0.33054376 0.61441475 -0.71640444 0.0014010302
0.064838558 0.037455916 -0.011146978 0.56410867 -0.097907558 -0.8198753 0.0014749119
0.066773944 0.037690777 -0.0096640429 0.66693324 -0.14264221 -0.73133659 0.0025446638
-0.06418848 0.040518187 -0.010018687 -0.577604 -0.19866125 -0.79177487 0.0027818745
-0.062002737 0.040488157 -0.011398555 -0.38576701 -0.037986249 -0.92181396 0.0036718796
-0.042316508 0.041865006 -0.011881996 0.29540735 0.63720918 -0.71182787 0.0019817655
-0.040212225 0.041369457 -0.01142427 0.30426297 0.64944792 -0.69687974 0.0010021854
-0.037435692 0.040754605 -0.010660232 0.33293745 0.70605803 -0.62500775 0.0015184438
-0.034781568 0.039926473 -0.010154261 0.3330673 0.72018325 -0.60860682 0.0014486149
-0.032344308 0.039411727 -0.0093412744 0.35981619 0.74534959 -0.56123638 0.0018418735
0.041022539 0.039588325 -0.0096159708 -0.39528805 0.70136362 -0.59315801 0.0014005983
0.043588117 0.040230349 -0.01048222 -0.3576341 0.67990804 -0.64017415 0.0012752584
0.046519324 0.04090048 -0.011367747 -0.28941748 0.60486728 -0.74187136 0.0012268546
0.048778728 0.04166748 -0.011699299 -0.26725423 0.61173081 -0.74455392 0.0020929619
0.064776696 0.040555801 -0.011326698 0.49039972 0.037266128 -0.87070048 0.0041119251
0.06697385 0.040484417 -0.0098105315 0.62370938 -0.028779369 -0.78112632 0.0031247735
-0.066336818 0.044130068 -0.0092180865 -0.60513031 -0.10466542 -0.78921634 0.0037013141
-0.064631827 0.043328568 -0.010240693 -0.57121277 -0.13748839 -0.80920517 0.0030805678
-0.061833892 0.043828402 -0.011626229 -0.32480684 0.12566048 -0.93739527 0.0064753555
-0.048796993 0.04465 -0.011858271 0.20966643 0.60105491 -0.77121526 0.0021063127
-0.046245892 0.04423764 -0.011346159 0.26535568 0.63507646 -0.72544068 0.0017484428
-0.043450516 0.043685868 -0.010636934 0.30438006 0.65826714 -0.6885035 0.001287429
-0.040681824 0.042927459 -0.01003002 0.34483469 0.70048475 -0.6248281 0.0011739783
-0.038480941 0.042432185 -0.0093406588 0.37551516 0.71848559 -0.58546299 0.0012074435
0.044483423 0.042000704 -0.009076179 -0.40270579 0.68903971 -0.60253835 0.0018887493
0.046936452 0.04278262 -0.0097802524 -0.3785843 0.6805886 -0.62727433 0.0010938924
0.050026074 0.043366518 -0.010704382 -0.27950799 0.60445851 -0.74599278 0.0010590671
0.052576873 0.043809246 -0.011322938 -0.22365142 0.55746794 -0.79950583 0.0017131079
0.055249374 0.044479918 -0.011598654 -0.16381653 0.5284844 -0.83298767 0.0028349
0.058472682 0.044729769 -0.011868346 -0.025407998 0.44304267 -0.8961404 0.0030659121
0.061888855 0.044354588 -0.011763539 0.1589413 0.30297732 -0.93965012 0.0051709223
0.06452813 0.043472085 -0.011125724 0.40099397 0.16087535 -0.9018442 0.0046645072
0.06702508 0.043424886 -0.0097192237 0.56842995 0.081996225 -0.8186354 0.0034937521
-0.066250004 0.046383511 -0.0093735708 -0.50885689 0.047942847 -0.85951507 0.0056377342
-0.063775823 0.046880435 -0.010469723 -0.27436289 0.25014341 -0.92852211 0.0038840286
-0.061375126 0.046497662 -0.011311471 -0.17601043 0.32483649 -0.92924792 0.0036575145
-0.058589768 0.047017988 -0.011568391 -0.051112067 0.41196498 -0.90976501 0.0050683399
-0.055528581 0.047109902 -0.011458364 0.080008261 0.5112285 -0.85571259 0.0029179815
-0.052408259 0.046922583 -0.01108132 0.17933168 0.57873499 -0.79555392 0.0017800393
-0.04949851 0.046481103 -0.010549963 0.25327399 0.63169533 -0.73267537 0.001604295
-0.04663403 0.045946922 -0.0098825358 0.31840694 0.69011599 -0.64988995 0.0016488228
-0.044605065 0.045435812 -0.0094044553 0.34936222 0.68722481 -0.63692087 0.0014234273
0.050677251 0.045256905 -0.0092826188 -0.35782132 0.6573813 -0.66318458 0.002021159
0.052830666 0.045977503 -0.0096365325 -0.27700579 0.61822003 -0.73557585 0.0015779868
0.055720996 0.046283875 -0.010442357 -0.2201013 0.57193476 -0.79021901 0.0029599909
0.058579262 0.046473503 -0.01090873 -0.066021524 0.48095351 -0.87425673 0.0026228668
0.061584491 0.046461802 -0.010984612 0.098294064 0.38651353 -0.91703081 0.0051861629
0.064574979 0.046429008 -0.010386695 0.31104586 0.28350389 -0.90712512 0.0074931574
0.066768356 0.046323758 -0.0094546257 0.49630901 0.18458587 -0.84829557 0.0044084713
-0.06638255 0.048402611 -0.0091362391 -0.4723033 0.17138599 -0.86461347 0.0091521451
-0.064255834 0.049393166 -0.0096099777 -0.16892458 0.38815239 -0.9059813 0.0034626916
-0.06139918 0.049484488 -0.010133713 -0.11294387 0.44597006 -0.8878932 0.0039202818
-0.058417916 0.049502324 -0.010194489 0.048963044 0.54892212 -0.8344382 0.0044706119
-0.055546243 0.049277585 -0.0099599333 0.15925135 0.61921805 -0.76890051 0.0027313589
-0.052696932 0.04877777 -0.0096095139 0.24004723 0.65932441 -0.71250868 0.0027519632
-0.050350633 0.048310336 -0.0091877319 0.30299777 0.6916737 -0.65557593 0.0015765064
0.056669753 0.048185408 -0.0092994161 -0.25664154 0.61404151 -0.74638343 0.0031310054
0.059061263 0.048548371 -0.0096689817 -0.15103555 0.55496484 -0.81804782 0.0044723074
0.061632741 0.049051266 -0.009668109 -0.0080891596 0.48230013 -0.87596869 0.0044856225
0.06442254 0.049015414 -0.0094956262 0.18365608 0.37866637 -0.90712857 0.006092709
0.066356778 0.048484493 -0.0091280015 0.4312709 0.31139699 -0.84678054 0.006310083
-0.063865378 0.051125735 -0.0090645049 -0.18386775 0.39567918 -0.89979476 0.0085829869
-0.061453998 0.051121995 -0.0091943322 -0.029953402 0.55547589 -0.830993 0.0058039972
-0.059026379 0.051102053 -0.0091132531 0.082269654 0.61281222 -0.78593445 0.0039447048
-0.0098624434 0.0029636517 -0.0063574635 -0.17899346 -0.87959421 -0.44076678 0.0021405006
-0.0070177969 0.0026492819 -0.0065900083 -0.11769497 -0.87476665 -0.4700332 0.0015657209
-0.0041907327 0.0024759164 -0.0068323137 -0.086028062 -0.8604539 -0.50221342 0.0016780898
-0.0014327661 0.0024236625 -0.0071197599 -0.053529158 -0.86509305 -0.49874708 0.0017561996
0.0015243141 0.0023521939 -0.0072311275 -0.023912152 -0.86608928 -0.49931711 0.0019053885
0.0045646708 0.0023471545 -0.0073100943 0.010417241 -0.86692727 -0.49832577 0.0018778888
0.0074906712 0.0024012031 -0.0073252548 0.03191426 -0.87061018 -0.49093726 0.0017335326
0.010386186 0.0023562014 -0.0069763088 0.056699708 -0.88423795 -0.46358219 0.0023543513
0.013141493 0.0025463609 -0.0068586865 0.083971493 -0.85879493 -0.50539094 0.0013966359
0.016725464 0.0027284448 -0.0064208261 0.11690529 -0.88218582 -0.45615941 0.0011700158
0.018953815 0.0029685777 -0.0062972754 0.15490514 -0.90582258 -0.39432204 0.00061712315
-0.021155378 0.005827195 -0.0060224817 -0.28503042 -0.82014525 -0.49610424 0.00144896
-0.019030761 0.0055587515 -0.0069140894 -0.27572206 -0.83179885 -0.48175511 0.0014649197
-0.016338509 0.005079776 -0.007444052 -0.22764277 -0.82659203 -0.51470816 0.0016729037
-0.013449047 0.0044423118 -0.0076001505 -0.18845712 -0.82863206 -0.52711743 0.0022220563
-0.01052269 0.0039304788 -0.0077462648 -0.1530685 -0.82806224 -0.53933555 0.0012681222
-0.0073753167 0.0035968439 -0.008034369 -0.11447847 -0.82411593 -0.55473202 0.0016119342
-0.0044572484 0.0034666909 -0.0083637554 -0.083036765 -0.81252402 -0.57698315 0.001003904
-0.0014857018 0.0032818243 -0.0084648374 -0.055274151 -0.83079135 -0.55383247 0.0016148115
0.0014940529 0.0033105607 -0.0087357266 -0.028891824 -0.81582201 -0.57758093 0.0015020546
0.0041783387 0.003309204 -0.0088281054 -0.0027776025 -0.81774151 -0.57557893 0.0011966008
0.0077843862 0.0031759143 -0.0085126646 0.03064183 -0.7830233 -0.62123716 0.0014075588
0.010847908 0.0033059735 -0.0085225441 0.050191078 -0.80176258 -0.5955314 0.00080639246
0.013510543 0.0034804512 -0.008451418 0.081640251 -0.83723086 -0.54072118 0.0013528474
0.016566845 0.0036552928 -0.0081741074 0.10888162 -0.84636235 -0.52135926 0.0012885972
0.01946613 0.0039281067 -0.0078918589 0.14439018 -0.84930056 -0.50777942 0.00092565734
0.022442101 0.0043072081 -0.007582251 0.17755833 -0.85408992 -0.48887983 0.0014405315
0.025497919 0.0051188921 -0.0078041279 0.20677994 -0.85578853 -0.47420257 0.001244336
0.028463213 0.0054877349 -0.0070348852 0.23887227 -0.85962671 -0.45164359 0.0013602168
0.030406926 0.0056834244 -0.0063181003 0.2912491 -0.86490351 -0.40879816 0.0016150654
-0.027765565 0.0087307887 -0.006741574 -0.3277581 -0.8191129 -0.47077453 0.0021393788
-0.025079899 0.0081514902 -0.0075276331 -0.299909 -0.80101633 -0.51809984 0.0014710107
-0.022577396 0.0072903228 -0.0076661664 -0.30620244 -0.82012367 -0.48336041 0.00099032198
-0.01974036 0.0065561635 -0.008130352 -0.27343413 -0.80954152 -0.5194962 0.0013652761
-0.017275959 0.0062118247 -0.0087614972 -0.24102885 -0.7705825 -0.59000647 0.0016464539
0.02685431 0.0062390002 -0.008996076 0.20248429 -0.81888872 -0.53704876 0.001894998
0.029100647 0.0063248896 -0.0082807411 0.2364338 -0.84161788 -0.48557025 0.0011786985
0.031639289 0.0068084211 -0.0077413917 0.27569151 -0.84525019 -0.45776227 0.0012362032
0.03453302 0.0078026759 -0.0077255345 0.30902979 -0.83574063 -0.45391425 0.001400001
0.037089642 0.0083829369 -0.0069740196 0.3322182 -0.84282833 -0.42340463 0.0017115277
0.039526775 0.0089925481 -0.0062321504 0.37746939 -0.83515012 -0.40005153 0.00097352016
-0.034214269 0.011498631 -0.006891734 -0.36279559 -0.79747683 -0.48208931 0.0011854386
-0.031587746 0.010787755 -0.0075717196 -0.33480471 -0.80297655 -0.49308676 0.0012003811
-0.02869999 0.0099111311 -0.0080730086 -0.32835299 -0.79008073 -0.51764548 0.0018116185
-0.02594083 0.0092733093 -0.0087296572 -0.30324 -0.79726279 -0.52193624 0.0014903148
0.037908044 0.0093401056 -0.0081793619 0.33170155 -0.81512696 -0.47491285 0.0018058602
0.040499482 0.010151673 -0.0075963172 0.36662358 -0.81964582 -0.44019058 0.0013931021
0.043235343 0.011333026 -0.007385653 0.39522117 -0.80531424 -0.44189277 0.0015298175
0.045399237 0.011899324 -0.0064546652 0.43514404 -0.80422413 -0.40481254 0.0009911235
-0.040769495 0.014653171 -0.0066275075 -0.4177202 -0.75930369 -0.49896675 0.0015848713
-0.037341982 0.013447559 -0.0076803211 -0.38913038 -0.77682191 -0.4951013 0.0012809729
-0.034745008 0.012490557 -0.0081368014 -0.36831486 -0.79191327 -0.48704982 0.0011344466
-0.032900006 0.01226181 -0.0089502102 -0.30956817 -0.76275283 -0.56778145 0.0026482493
0.044310678 0.012381489 -0.0083149122 0.40176451 -0.78377891 -0.47357783 0.001149828
0.04659443 0.013238293 -0.0076328567 0.44860294 -0.78803968 -0.42160273 0.0011705643
0.048931289 0.014415716 -0.0073131621 0.46785361 -0.76666772 -0.43969715 0.0012306656
-0.045000989 0.017655129 -0.0071506468 -0.49369779 -0.70874155 -0.50393254 0.0013377764
-0.043119729 0.016819306 -0.0077398713 -0.46295053 -0.72490734 -0.51008451 0.0014265809
-0.040841118 0.015588972 -0.0080858935 -0.43302026 -0.73808068 -0.51742673 0.0016602483
0.05017164 0.015578735 -0.0079869991 0.48067829 -0.75226796 -0.45060086 0.001334469
0.052350089 0.016704882 -0.0074487701 0.50511259 -0.74796224 -0.43059695 0.0013927709
0.054379929 0.017544603 -0.0064888508 0.53230017 -0.72220957 -0.44166708 0.0011122101
-0.048441574 0.020365868 -0.0074656196 -0.52957606 -0.70009059 -0.47898051 0.00089643104
-0.046777882 0.019389367 -0.0077380431 -0.50392002 -0.6889109 -0.52102435 0.0011730206
-0.044491809 0.018437095 -0.0087069925 -0.50531048 -0.68151039 -0.52934384 0.0023364848
0.053518921 0.018243702 -0.0085583236 0.50184476 -0.69577509 -0.51385683 0.0013614966
0.055640925 0.019292509 -0.0077017494 0.54263222 -0.69624007 -0.46989369 0.0019988315
0.057721391 0.020398406 -0.0068310895 0.58104807 -0.67144996 -0.45993268 0.0013894769
-0.051819634 0.022984264 -0.0074997107 -0.53177261 -0.69189107 -0.48836944 0.0010132594
-0.050025534 0.022106899 -0.0081660505 -0.52335078 -0.68314677 -0.50932747 0.00229737
-0.047982257 0.021137424 -0.0089011174 -0.51157326 -0.66841716 -0.53991801 0.00070248102
0.056793474 0.021109983 -0.0087290499 0.53530842 -0.61079282 -0.58341843 0.0010472768
0.058855008 0.022145564 -0.0078226188 0.59411246 -0.63824505 -0.48956475 0.0019537206
0.060713772 0.023246184 -0.0069152154 0.62335765 -0.61069429 -0.48834172 0.0013419843
-0.05566312 0.025921525 -0.007310756 -0.56733024 -0.65471035 -0.49949059 0.0011824426
-0.053071663 0.024457445 -0.0082042431 -0.54215932 -0.68135095 -0.49175635 0.0006408203
0.059966903 0.024198735 -0.0089334873 0.61281586 -0.57616597 -0.54082298 0.0011402604
0.061870065 0.025238529 -0.007763349 0.65715361 -0.56788331 -0.49563849 0.0018946392
0.063590318 0.026367942 -0.0067807199 0.67997706 -0.53540403 -0.50097269 0.0015392458
-0.058121655 0.02831305 -0.0074975356 -0.6015029 -0.58579463 -0.54317486 0.0014334579
-0.056381054 0.027317153 -0.0082985926 -0.57299829 -0.63732302 -0.51525944 0.00086321426
0.0016442958 0.029906705 -0.0088374214 0.042220123 0.83677983 -0.54590929 0.0026877788
0.0044809077 0.029837418 -0.0088500287 0.0087779202 0.78225046 -0.62290227 0.00080809899
0.0072125331 0.029904181 -0.0088025406 -0.038809281 0.82227248 -0.56776923 0.004107513
0.062757909 0.027353888 -0.0087536825 0.63588995 -0.49107966 -0.59538627 0.0018687522
0.064523876 0.028501144 -0.0075842612 0.71149641 -0.452411 -0.53767765 0.0019162674
0.066195451 0.029641388 -0.0063871206 0.73118711 -0.44460365 -0.51739055 0.0015252115
-0.061133653 0.031740654 -0.0076738223 -0.64043313 -0.54339194 -0.54274362 0.0015927724
-0.059266161 0.030231943 -0.0083395652 -0.62626487 -0.57409066 -0.52745831 0.0011548426
-0.015395787 0.032956485 -0.0089146532 0.24716933 0.77109474 -0.586788 0.0010867856
-0.01296663 0.032628883 -0.0083592804 0.22315794 0.82456642 -0.5198949 0.0029803291
-0.010393326 0.032288332 -0.0078864014 0.19213089 0.84032995 -0.50688392 0.0016995393
-0.007550871 0.031893458 -0.0075526633 0.16019715 0.84589517 -0.50872225 0.0017620721
-0.0044250595 0.031343918 -0.0076267212 0.1246177 0.83769053 -0.53173769 0.0018684579
-0.0014821739 0.031020707 -0.0075742677 0.08187259 0.83449012 -0.54490662 0.0021161349
0.0014380383 0.03072408 -0.0077060387 0.043084454 0.82733208 -0.56005836 0.0017663013
0.0045953519 0.03061731 -0.0077286512 0.0012289135 0.81999147 -0.5723744 0.0017848177
0.0074620144 0.030766014 -0.007530923 -0.033205025 0.85620648 -0.51556557 0.002084587
0.010526146 0.030938085 -0.0076251342 -0.07954438 0.85894489 -0.5058521 0.0019876978
0.013391318 0.031269815 -0.0075751659 -0.12796085 0.86144513 -0.49146548 0.0027531215
0.016374756 0.031765819 -0.0076232711 -0.18541856 0.86226386 -0.4712972 0.0015458004
0.019269917 0.032282516 -0.0079568215 -0.21894833 0.84053153 -0.49554861 0.001320726
0.021935267 0.032656163 -0.0085604079 -0.24081589 0.81100291 -0.53318101 0.001133271
0.065468781 0.031016439 -0.0083718859 0.69606805 -0.35133326 -0.62614232 0.0015056407
0.066852339 0.031785671 -0.0071038776 0.73957676 -0.39277154 -0.54658639 0.0020625792
-0.063892663 0.035100419 -0.0074697519 -0.65302724 -0.44054464 -0.61601621 0.0017277038
-0.062366255 0.033830732 -0.0081822015 -0.64977205 -0.46224177 -0.60343087 0.0028500257
-0.022105746 0.035607371 -0.0083422009 0.30711341 0.813577 -0.49373448 0.0017693379
-0.019426322 0.035063341 -0.0075989845 0.29863223 0.83726114 -0.45805299 0.0016511055
-0.016604053 0.034123115 -0.0076130144 0.25085276 0.83225769 -0.49438858 0.0019035473
