# .PCD v0.7 - Point Cloud Data file format
VERSION 0.7
FIELDS x y z normal_x normal_y normal_z curvature
SIZE 4 4 4 4 4 4 4
TYPE F F F F F F F
COUNT 1 1 1 1 1 1 1
WIDTH 553
HEIGHT 1
VIEWPOINT 0 0 0 1 0 0 0
POINTS 553
DATA ascii
0.013210878 -0.070913717 -0.016783008 -0.47082427 -0.69945413 -0.53766948 0.00012779054
0.015327442 -0.071681902 -0.017590707 -0.44354549 -0.71685654 -0.53794432 8.1259022e-05
0.047320645 -0.071310833 -0.017030532 0.8106758 -0.52046627 -0.26817825 0.0049795783
0.04825018 -0.069841467 -0.016484682 0.88134611 -0.42296788 -0.21054034 0.0062471987
0.0057332446 -0.066361144 -0.015319403 -0.570701 -0.58972538 -0.57142311 0.00065419928
0.007736566 -0.067190975 -0.016310042 -0.5387314 -0.6132862 -0.57762313 0.0012015559
0.0099163419 -0.068285443 -0.0170794 -0.51502478 -0.65521997 -0.55266291 0.00038397973
0.048827488 -0.067208029 -0.017265039 0.9241634 -0.17101394 -0.34157896 0.0071166903
0.0027856666 -0.063346595 -0.01514021 -0.61868817 -0.46896464 -0.63031512 0.0018008333
0.0047751884 -0.064266019 -0.016250422 -0.61029494 -0.45414096 -0.64907318 0.0026209794
0.0066879578 -0.065136977 -0.017370513 -0.59406757 -0.47317711 -0.65052837 0.0024852816
0.049048148 -0.064678095 -0.016923834 0.96188283 0.037578847 -0.27086771 0.0065649166
0.0023126935 -0.061235648 -0.015662728 -0.64928514 -0.28114277 -0.7066735 0.0030605886
0.0040912824 -0.061645418 -0.017088985 -0.62339222 -0.25897148 -0.73777777 0.0029146941
0.047796685 -0.060413726 -0.017592341 0.89110082 0.34292486 -0.29722348 0.0044240323
0.048473336 -0.061546445 -0.016792329 0.91450465 0.28812328 -0.28401792 0.0028381338
0.0019234041 -0.058466006 -0.015924884 -0.64645386 -0.053099271 -0.76110303 0.0035855344
0.0037239015 -0.058487233 -0.017407227 -0.62354779 -0.02342481 -0.78143424 0.0027676404
0.047041878 -0.058293507 -0.016739115 0.81529319 0.47239494 -0.3348732 0.001553769
0.048107248 -0.059644345 -0.015607104 0.90230203 0.36231843 -0.23361601 0.0043302095
0.0020420223 -0.055640001 -0.015786348 -0.61007625 0.1827566 -0.77097797 0.0034892841
0.0040398915 -0.055369046 -0.017239528 -0.58457994 0.19790092 -0.78683001 0.0027431336
0.044201616 -0.054604419 -0.016952677 0.6402396 0.65036196 -0.40880638 0.0022254363
0.045549225 -0.056050844 -0.016754037 0.71928447 0.58477211 -0.37506184 0.0016952399
0.0025230309 -0.053265851 -0.015338585 -0.5336163 0.38926902 -0.75081509 0.0024751646
0.0045586042 -0.052657962 -0.016411355 -0.49387598 0.41718745 -0.76291621 0.002662889
0.0070117004 -0.051899657 -0.017408308 -0.41134384 0.51572663 -0.75154656 0.0050902464
0.0094968518 -0.051108137 -0.017907714 -0.30753663 0.65697891 -0.68833131 0.003674455
0.038765837 -0.051175352 -0.017929433 0.40743178 0.7707243 -0.48988104 0.0011052602
0.040415447 -0.051597077 -0.017134659 0.47515932 0.75200152 -0.45685592 0.001421778
0.042824782 -0.052981321 -0.016424198 0.58369368 0.69726247 -0.41608509 0.0017806598
0.0052610268 -0.050596736 -0.015399646 -0.42491409 0.58809841 -0.68817753 0.0029280463
0.0076057967 -0.050086603 -0.016145775 -0.34438151 0.64316678 -0.68391365 0.0028685234
0.010325411 -0.049533319 -0.016664837 -0.25816807 0.7317794 -0.63075203 0.0020749995
0.013216862 -0.049042735 -0.016938601 -0.17215979 0.78846174 -0.59049898 0.00080434524
0.016480424 -0.048710115 -0.017194746 -0.1056493 0.819695 -0.56297278 0.0004561852
0.019510694 -0.048590794 -0.017400518 -0.057252772 0.83582669 -0.54599988 8.0295831e-05
0.022435449 -0.048470575 -0.017430592 -0.018667588 0.8409757 -0.5407508 0.00011034514
0.025493432 -0.048406024 -0.017373011 0.015555614 0.84509158 -0.53439516 9.8775752e-05
0.028744945 -0.048391245 -0.017125869 0.047518361 0.84750116 -0.5286622 9.5064745e-05
0.031581301 -0.048583303 -0.017110998 0.089584798 0.84206283 -0.53188795 0.00027103297
0.034617804 -0.04885501 -0.016786132 0.19602042 0.83181304 -0.51929098 0.0011061046
0.037507895 -0.049787033 -0.016730092 0.3396011 0.80115658 -0.49276692 0.0016323652
0.039885998 -0.05055647 -0.015981108 0.43285105 0.77667117 -0.45762631 0.0012772382
0.013804327 -0.047866296 -0.015344885 -0.13912149 0.8216663 -0.55272937 0.00029129788
0.016741036 -0.047706466 -0.015686745 -0.089021504 0.83723497 -0.5395487 0.00010730959
0.019589009 -0.047502592 -0.015724109 -0.049932461 0.84477925 -0.53278023 8.0620695e-05
0.022525886 -0.047458857 -0.015844479 -0.013799549 0.84979016 -0.52694046 8.8687608e-05
0.025559802 -0.047546573 -0.015925301 0.018703412 0.85225576 -0.52279097 6.3505438e-05
0.028450496 -0.047476776 -0.015648415 0.04727954 0.85576409 -0.51520133 9.825587e-05
0.031447016 -0.047660377 -0.015618251 0.09264531 0.85451925 -0.5110907 0.0003317768
0.033662543 -0.047751643 -0.015342815 0.19034652 0.84819186 -0.49430642 0.0015936644
0.01484459 0.047954705 -0.015183429 -0.11565562 -0.833673 -0.54001212 0.00019922286
0.017029706 0.047818214 -0.015152705 -0.089878581 -0.84043735 -0.53440326 0.00011867601
0.019605 0.047780599 -0.01540922 -0.048762992 -0.84759629 -0.52839637 8.5811836e-05
0.022585057 0.047716599 -0.015475166 -0.013968076 -0.85148591 -0.52419132 8.5642045e-05
0.025352225 0.047700088 -0.015410869 0.018115502 -0.85530519 -0.51780784 7.3948337e-05
0.028473288 0.047791641 -0.015375175 0.0480133 -0.85825014 -0.51098084 0.00013964617
0.031062245 0.047888692 -0.015274781 0.098984934 -0.8592726 -0.50184917 0.00042815335
0.033267383 0.047948573 -0.01511619 0.18459913 -0.86356044 -0.4692404 0.0020566511
0.0054211863 0.050763369 -0.015222945 -0.4037863 -0.60979366 -0.68198848 0.0028581403
0.007698914 0.050224815 -0.01581596 -0.31502968 -0.68284738 -0.65914774 0.0030006217
0.010533095 0.049799886 -0.016477274 -0.24663015 -0.75184435 -0.61147666 0.0022198504
0.013474151 0.049192693 -0.016542984 -0.15185119 -0.80892408 -0.56796402 0.00056238548
0.016488373 0.04885054 -0.016670123 -0.096965186 -0.83109206 -0.54761642 0.00014490003
0.019462083 0.048758995 -0.016914222 -0.054041378 -0.83906478 -0.54134077 7.8220044e-05
0.022457646 0.048663173 -0.016989062 -0.018768072 -0.84419197 -0.53571242 8.7718952e-05
0.025548169 0.048636556 -0.016963806 0.014345686 -0.84739894 -0.53076279 7.8545585e-05
0.028498212 0.048689533 -0.016856793 0.043477383 -0.84827077 -0.52777499 7.8594021e-05
0.031494744 0.048829224 -0.016764285 0.097998589 -0.84780645 -0.52117217 0.00034369787
0.034469653 0.04913475 -0.016514786 0.19243407 -0.83871847 -0.50943142 0.0012792634
0.037367154 0.050021965 -0.01644313 0.32992408 -0.80627191 -0.4909946 0.0013447595
0.039532706 0.050595365 -0.015603974 0.4591966 -0.77299464 -0.43774182 0.0019575248
0.0025906602 0.053443078 -0.015243642 -0.52274132 -0.41612834 -0.74402869 0.0020900599
0.0046314672 0.052636046 -0.016134998 -0.47094813 -0.4764787 -0.74241227 0.0043186704
0.0071728434 0.052047774 -0.017230805 -0.38965324 -0.54239339 -0.74429822 0.0050999415
0.0096117342 0.051245201 -0.017749513 -0.28612933 -0.69279307 -0.66194248 0.0029981905
0.038385917 0.051234081 -0.017668983 0.34945974 -0.79060304 -0.50281674 0.0023562058
0.040627912 0.051959161 -0.016737178 0.48826864 -0.75468665 -0.43822566 0.0021086445
0.042647041 0.053297784 -0.016438168 0.57896554 -0.70151889 -0.41553599 0.0012506803
0.0021299655 0.055672776 -0.015745871 -0.60620213 -0.22415902 -0.76306731 0.0034393596
0.0042055841 0.055286881 -0.017175369 -0.56394774 -0.25233284 -0.78631479 0.003765594
0.0062009823 0.054049842 -0.017819505 -0.47833073 -0.41918337 -0.77167678 0.0035733739
0.04402189 0.054898918 -0.016949981 0.64763767 -0.65238363 -0.39365101 0.0021532914
0.045659233 0.056332003 -0.016271761 0.7459417 -0.56954938 -0.34523118 0.0017830523
0.001965943 0.058451932 -0.015977679 -0.64676046 0.0074541345 -0.76265675 0.0035504438
0.0038481979 0.058442373 -0.017510043 -0.6253233 -0.015464392 -0.78021258 0.0026808556
0.046896931 0.05844358 -0.016734926 0.79835182 -0.50515676 -0.3277972 0.0020240049
0.048105173 0.059858177 -0.015418887 0.89020884 -0.4155364 -0.18670188 0.0040149153
0.0022325469 0.061246306 -0.015760479 -0.64836609 0.22437868 -0.72751331 0.0027577032
0.0039757784 0.061588217 -0.017177908 -0.62620753 0.20882168 -0.75117075 0.0026453852
0.047622412 0.060284607 -0.01751508 0.85098958 -0.39795142 -0.3427119 0.0033549541
0.048389498 0.061575808 -0.016771579 0.90449822 -0.30902928 -0.29391143 0.0039877975
0.002785481 0.0634524 -0.015269207 -0.61891711 0.43585742 -0.65342939 0.0022541592
0.0048018084 0.064229123 -0.016656594 -0.61260098 0.3901068 -0.6874131 0.0027579784
0.0065576136 0.065224923 -0.017553624 -0.594181 0.45122948 -0.66583842 0.0028467013
0.048927281 0.064521618 -0.017228274 0.91822362 -0.16413261 -0.36045218 0.0040624212
0.0056340029 0.066515431 -0.015580946 -0.57371366 0.57623303 -0.58207232 0.0010281831
0.0075383028 0.067325637 -0.016522188 -0.55490196 0.59188414 -0.58459985 0.0013837066
0.0097132809 0.068284951 -0.017474931 -0.52270174 0.62630469 -0.57838166 0.0010741734
0.048950475 0.067537665 -0.01692109 0.96238786 0.12876156 -0.23922785 0.0091289105
0.008559553 0.069219679 -0.01532765 -0.52572626 0.64618284 -0.55322659 0.00017327159
0.010620865 0.069914125 -0.016366383 -0.49985877 0.66439742 -0.55562323 0.00035127561
0.012968035 0.071009971 -0.017076254 -0.47338524 0.69072014 -0.54663706 0.00019358697
0.015245294 0.07185325 -0.017751474 -0.44290644 0.71569812 -0.54000938 9.8601929e-05
0.047488973 0.071350724 -0.017242156 0.77711427 0.52137917 -0.35250148 0.0048781903
0.048229083 0.07001026 -0.017066874 0.90709883 0.31678388 -0.27716371 0.0093867453
0.013908033 0.072525628 -0.015911473 -0.46374217 0.7070362 -0.53389412 0.00010349818
0.01645224 0.073445447 -0.016828258 -0.44027078 0.716717 -0.54081267 0.00019420162
0.018778482 0.074411355 -0.017317902 -0.40612417 0.74331141 -0.53155547 9.8604658e-05
0.044830915 0.074676245 -0.016945384 0.63831359 0.70201951 -0.31579152 0.0049139978
0.046274006 0.07320457 -0.016966313 0.71435583 0.60532248 -0.35111326 0.0079327701
0.017626138 0.075105973 -0.015377966 -0.42121235 0.74442053 -0.5180909 0.0001292957
0.01974459 0.075712591 -0.016153641 -0.39973536 0.75284654 -0.52290893 8.7834065e-05
0.022394776 0.076656401 -0.016743019 -0.36951175 0.76541072 -0.52688473 0.00013791661
0.02515935 0.077567182 -0.017304108 -0.30065396 0.78839338 -0.53669649 0.00061328785
0.027085347 0.077864498 -0.017730881 -0.18923706 0.81377888 -0.54950279 0.0012345426
0.038532514 0.077754103 -0.017755894 0.28615537 0.86566061 -0.41078803 0.0018953038
0.040808972 0.077115692 -0.017183984 0.37605378 0.85006827 -0.36873752 0.0015237475
0.043267515 0.075972036 -0.016542744 0.5137555 0.79456443 -0.32360876 0.0021272183
0.045021813 0.0750762 -0.015096425 0.67871219 0.70957404 -0.18935288 0.0077142306
0.023961531 0.078452721 -0.015228072 -0.33828449 0.79074961 -0.51017511 0.00072965358
0.02557924 0.078653298 -0.015897084 -0.29665512 0.80129236 -0.51954424 0.00092278206
0.028056066 0.078822106 -0.016760612 -0.19990003 0.83303112 -0.51584792 0.0011100932
0.031406801 0.079332344 -0.016541321 -0.027950209 0.89274663 -0.44969136 0.0013006844
0.034543224 0.079129934 -0.016668018 0.072729573 0.89616227 -0.43772557 0.0012877827
0.037467185 0.07858035 -0.016565809 0.23074158 0.89204472 -0.38860589 0.0017293766
0.039541706 0.078311369 -0.015473267 0.36273447 0.88665164 -0.28683203 0.0034855178
0.020624598 -0.078123093 -0.012482249 -0.37658688 -0.81838596 -0.43408158 0.0018306558
0.022809604 -0.078601614 -0.013260417 -0.33617982 -0.83910644 -0.42764887 0.0016496502
0.025484024 -0.079397015 -0.013700887 -0.27291259 -0.86543393 -0.42016992 0.0015615927
0.028468406 -0.08005473 -0.013652607 -0.11997887 -0.92104262 -0.37052065 0.0025074286
0.03141145 -0.08021123 -0.013563195 0.017690811 -0.93232912 -0.36117786 0.0024540687
0.034382656 -0.079837792 -0.013761672 0.15154707 -0.93905729 -0.30855289 0.0028266595
0.037434503 -0.079145163 -0.013595569 0.27970591 -0.92700076 -0.24986835 0.0022296105
0.039653696 -0.078321256 -0.013538101 0.37962204 -0.90027624 -0.21304877 0.0025522655
0.014661334 -0.075118005 -0.012302687 -0.43483666 -0.74618644 -0.5041061 0.00023264931
0.016779406 -0.075713493 -0.013107504 -0.41757333 -0.75817233 -0.50080657 9.7481468e-05
0.019419102 -0.076785773 -0.013618134 -0.39449346 -0.78322959 -0.4805479 0.00061419542
0.021848256 -0.077556901 -0.014313894 -0.3587687 -0.81001878 -0.46384764 0.0011222477
0.040987819 -0.077594809 -0.013937925 0.41676345 -0.87776506 -0.23629801 0.0018913752
0.042916525 -0.0764037 -0.014003436 0.50182521 -0.8373189 -0.21695292 0.0024453832
0.011200757 -0.072585382 -0.012750917 -0.47573003 -0.71005493 -0.51913673 0.0001464603
0.01350142 -0.073510446 -0.013512009 -0.44997123 -0.72992051 -0.51453072 0.00012433335
0.015890179 -0.074418724 -0.014271869 -0.42838511 -0.74322647 -0.51390713 7.9806363e-05
0.044913474 -0.074832767 -0.014653015 0.65702564 -0.74686593 -0.1025113 0.0048384196
0.04601603 -0.073656939 -0.013703641 0.7714262 -0.63122833 -0.080326684 0.0045919656
0.0058207577 -0.069145441 -0.012205188 -0.54360682 -0.64714909 -0.53449953 0.00014857008
0.0078998776 -0.069945119 -0.013114414 -0.51547527 -0.6687907 -0.5357278 0.00013085583
0.010186893 -0.071028218 -0.013904605 -0.49041858 -0.69299591 -0.52843761 0.00012603997
0.012270777 -0.071875036 -0.014734811 -0.47066617 -0.70864689 -0.52563572 0.00018535741
0.047629286 -0.071320541 -0.013597337 0.86570406 -0.49786112 -0.051872533 0.0061075538
0.048404384 -0.069733292 -0.014079768 0.9062714 -0.41907603 -0.055203535 0.0085543506
0.002645436 -0.066182926 -0.012296711 -0.58950073 -0.59122062 -0.5504064 0.00033766698
0.0047527109 -0.06719771 -0.013294916 -0.56238091 -0.61697805 -0.55051416 0.00040091571
0.0069014295 -0.068301022 -0.01416358 -0.53247845 -0.6496765 -0.54257458 0.00016547627
0.049068008 -0.067465648 -0.014103979 0.97376794 -0.19583389 -0.11586686 0.0059878803
-0.00015142404 -0.063260451 -0.012196222 -0.63548648 -0.49338597 -0.59390843 0.0012401028
0.0017615334 -0.064251609 -0.013239079 -0.62266982 -0.49229053 -0.60822064 0.0019142342
0.0036778159 -0.065240763 -0.014332887 -0.60701472 -0.53440487 -0.58817059 0.0012659874
0.049308345 -0.064096816 -0.014102899 0.99038422 0.097593099 -0.098053947 0.0055545741
-0.00071172108 -0.061167356 -0.012746247 -0.66869015 -0.33232376 -0.66514242 0.0028383611
0.00094713148 -0.061745267 -0.014121593 -0.65777069 -0.30724466 -0.68770528 0.0029748725
0.048904672 -0.061465733 -0.013749536 0.9545157 0.26504028 -0.13657725 0.0029831694
-0.0012462335 -0.058407396 -0.013059068 -0.67468542 -0.11202328 -0.72955495 0.0039124619
0.00044133174 -0.058635879 -0.014573752 -0.66453826 -0.079188302 -0.7430464 0.0029974196
0.047460973 -0.05767259 -0.014120463 0.84884453 0.47204131 -0.2379916 0.0047162939
0.048300471 -0.059520904 -0.01418684 0.89854217 0.39552 -0.19022606 0.0046870229
-0.0012707243 -0.055586115 -0.013033018 -0.6225422 0.11858029 -0.77355021 0.0040216078
0.00057600637 -0.055330697 -0.014515103 -0.6237179 0.14504239 -0.76807463 0.0031809686
0.044916987 -0.054242022 -0.014710026 0.73264647 0.64372617 -0.22101083 0.0032556187
0.04613629 -0.055485819 -0.01389257 0.77472144 0.57589918 -0.2610496 0.0024739918
-0.00078599487 -0.052901536 -0.012641199 -0.56601143 0.3590157 -0.74211764 0.0037588784
0.0013044513 -0.052333534 -0.01392093 -0.54146129 0.39544335 -0.74191928 0.0039376761
0.0033103721 -0.05139263 -0.014771675 -0.50142008 0.47573286 -0.722673 0.0052045425
0.041657746 -0.051039714 -0.01456484 0.57227784 0.73856914 -0.35638982 0.0033081749
0.043464299 -0.052317753 -0.013775311 0.67425972 0.68329453 -0.28014711 0.0019588594
0.045215383 -0.053801306 -0.012561172 0.76207709 0.62692845 -0.16186185 0.0029453721
-0.00015402118 -0.050845999 -0.012129503 -0.49161437 0.49466953 -0.71667093 0.0031180105
0.001883781 -0.050184548 -0.012879155 -0.47371584 0.53554058 -0.69913483 0.0026020713
0.0043236939 -0.04951641 -0.013760123 -0.38763189 0.64041364 -0.66303229 0.001966903
0.0072624036 -0.048620898 -0.014305229 -0.28527117 0.7295996 -0.62153417 0.0019593877
0.0096168499 -0.048317656 -0.014798311 -0.21484026 0.77637529 -0.59252429 0.0015337244
0.035936613 -0.048187271 -0.014954708 0.26298973 0.83198935 -0.48849791 0.0028368363
0.03794875 -0.048521094 -0.014125731 0.35473162 0.83105689 -0.42838052 0.0020713273
0.040271856 -0.049875651 -0.014162006 0.4602074 0.78855431 -0.40791082 0.0018131824
0.042181969 -0.050687272 -0.01264276 0.59802735 0.73774958 -0.31319138 0.0027545721
0.0054611033 -0.047679767 -0.012244972 -0.30093879 0.7449618 -0.5953719 0.0019176756
0.0075437743 -0.047509212 -0.012874376 -0.24033757 0.78249419 -0.5744046 0.0010393753
0.01064961 -0.047134202 -0.013367429 -0.17128544 0.81653303 -0.55130309 0.00018656756
0.013587181 -0.046772417 -0.013610873 -0.12820955 0.83259434 -0.53884053 0.00014300474
0.016488943 -0.046351418 -0.01349913 -0.082509153 0.84524554 -0.52796996 7.6052478e-05
0.019478323 -0.046055734 -0.013385143 -0.042521279 0.85296923 -0.5202263 8.9683454e-05
0.022546941 -0.046003506 -0.013423492 -0.00073599734 0.86091995 -0.50874001 0.00016644625
0.025415044 -0.046139132 -0.013585425 0.028383967 0.8676244 -0.49640936 0.00023233957
0.028428122 -0.046216529 -0.013520408 0.063933872 0.87711567 -0.47600481 0.00074473111
0.031413499 -0.046571191 -0.013698841 0.10774305 0.88311166 -0.45662367 0.0010413658
0.034447663 -0.047116578 -0.013847049 0.21168727 0.87819946 -0.4288989 0.0020429129
0.036751598 -0.047701422 -0.013515639 0.33581725 0.84208864 -0.42203498 0.0032103166
0.0055088075 0.047838554 -0.012032187 -0.26588589 -0.76552117 -0.58590281 0.0012524006
0.0078718783 0.047649946 -0.012468732 -0.22469571 -0.79452205 -0.56413347 0.00061893667
0.010607485 0.047355268 -0.01295609 -0.16733195 -0.82273823 -0.5432328 0.00018511181
0.013582594 0.047114935 -0.013363647 -0.12132861 -0.83711594 -0.53340065 0.00012309656
0.016510781 0.046839226 -0.013494473 -0.081013851 -0.84686929 -0.52559412 7.4260424e-05
0.019485028 0.046649966 -0.013545361 -0.041435149 -0.85406137 -0.51851934 9.4021969e-05
0.022496441 0.046531599 -0.013475429 -0.0055113449 -0.85997146 -0.51031238 8.3969477e-05
0.025515907 0.046544332 -0.013466205 0.027385613 -0.86856329 -0.49482101 0.00025762033
0.028482487 0.046738233 -0.0135861 0.071180709 -0.88261193 -0.46468201 0.00097243005
0.031497579 0.046992715 -0.013554665 0.12138721 -0.89699733 -0.42504215 0.0014132537
0.03431892 0.047375668 -0.013430414 0.20956606 -0.89621341 -0.39100328 0.0025727898
0.036517765 0.047736302 -0.012715184 0.33792251 -0.86688501 -0.36649525 0.0036627306
-3.1995449e-05 0.05091152 -0.012153295 -0.45209578 -0.56578028 -0.68956655 0.002524216
0.0020672739 0.050261516 -0.012652899 -0.459941 -0.57964081 -0.67265946 0.0024196662
0.0045588934 0.049564999 -0.013437331 -0.33495471 -0.70060742 -0.63004327 0.0023968248
0.0073037525 0.048814517 -0.013908115 -0.24872331 -0.77591705 -0.57973218 0.00068964571
0.010270362 0.048397958 -0.014426503 -0.18937144 -0.79838687 -0.5715915 0.0006058967
0.012905679 0.048171807 -0.014813923 -0.13488866 -0.82530767 -0.54833585 0.00020673449
0.035210792 0.048182085 -0.014638603 0.21570092 -0.86942232 -0.44449735 0.0025305359
0.037585743 0.048753306 -0.013905312 0.37295014 -0.84417987 -0.38505644 0.0020953957
0.040264241 0.050057817 -0.01344604 0.52341902 -0.79050821 -0.31800812 0.0021578246
0.042041451 0.05092252 -0.012199203 0.61187416 -0.76112109 -0.21518521 0.0037705882
-0.00065981923 0.052951764 -0.012542251 -0.55142993 -0.39168456 -0.73655152 0.0034975067
0.0013946235 0.052358378 -0.013721929 -0.52499962 -0.42263913 -0.73875004 0.0031898555
0.0035138165 0.051499706 -0.014634557 -0.45614514 -0.54370546 -0.70449692 0.0033025155
0.041548587 0.051344603 -0.014418351 0.58387464 -0.75067425 -0.30915767 0.0018303707
0.043228336 0.052488502 -0.013605707 0.65687472 -0.70690936 -0.26228777 0.0018440555
0.04507266 0.053939387 -0.012289895 0.73668826 -0.64862609 -0.19124506 0.0031167315
-0.0012216886 0.055503007 -0.012975073 -0.60655242 -0.1601125 -0.77875423 0.0043300665
0.00066242524 0.055280745 -0.01444931 -0.61421067 -0.18246073 -0.76775861 0.0031242007
0.044701654 0.054310035 -0.014563799 0.72908938 -0.63853604 -0.2463745 0.0028604805
0.045882847 0.055482373 -0.013603291 0.77827555 -0.59052968 -0.21345223 0.0026290582
-0.0012777882 0.058395699 -0.013086111 -0.66052741 0.066494621 -0.74785155 0.0038322948
0.00036810827 0.058492418 -0.014564351 -0.65233243 0.034757365 -0.75713557 0.0028460452
0.047464121 0.058109257 -0.014084589 0.82925916 -0.50581062 -0.23766543 0.0018464921
0.048196096 0.059545327 -0.013551642 0.9130497 -0.39332676 -0.10786265 0.0038618792
-0.00075428566 0.061133713 -0.012931955 -0.67098749 0.25907326 -0.69473505 0.0029943071
0.00077838544 0.061587155 -0.014240659 -0.66773176 0.23147945 -0.7074967 0.0021181384
0.048728429 0.061104409 -0.013741144 0.93382818 -0.33402964 -0.12801981 0.0033281315
-0.00019136352 0.06331484 -0.012349832 -0.64042461 0.46111912 -0.61418682 0.0015820768
0.0016049544 0.064314939 -0.013456923 -0.63367534 0.45888564 -0.62279987 0.0020797697
0.0035358395 0.065391712 -0.014490777 -0.61257815 0.50950515 -0.60427845 0.0020610071
0.049260423 0.064004362 -0.013951391 0.98418897 -0.14859092 -0.096399754 0.003893092
0.0026810032 0.066482268 -0.012520795 -0.588507 0.58540815 -0.55763495 0.00058141025
0.0044498579 0.067246981 -0.013501856 -0.56661946 0.60502774 -0.55936021 0.00058416522
0.0066145691 0.068412706 -0.014312897 -0.53876382 0.64148766 -0.54610175 0.0001828434
0.049207207 0.067277163 -0.013947032 0.98617941 0.055397607 -0.15614513 0.0047976831
0.005773453 0.06932392 -0.012493341 -0.54572707 0.63959092 -0.54139215 0.00013686594
0.0076684281 0.070002347 -0.013454917 -0.52057564 0.66166669 -0.53962785 0.00017440668
0.0099506481 0.071181789 -0.01411608 -0.49584016 0.68695945 -0.53125256 0.0001610839
0.047827534 0.071535952 -0.013758414 0.88778669 0.44872761 -0.10236421 0.0082057444
0.048362896 0.070217758 -0.013792554 0.91656053 0.37292597 -0.14437123 0.0059025972
0.010984109 0.072759859 -0.012920673 -0.47672182 0.70713383 -0.52220494 0.00010181801
0.013429014 0.073882386 -0.013558244 -0.45493186 0.72711748 -0.51413739 5.6635017e-05
0.015632467 0.074474506 -0.014630492 -0.43298811 0.73894829 -0.51621383 9.6523792e-05
0.04672768 0.073262289 -0.014576759 0.7726953 0.62570983 -0.10690767 0.0064560222
0.014408792 0.075345561 -0.012313128 -0.43651626 0.74572247 -0.5033403 0.00012942373
0.016715296 0.07596004 -0.013366106 -0.41984123 0.75526714 -0.50329405 0.00014934145
0.019498019 0.077244699 -0.013698632 -0.39782754 0.7694931 -0.49961346 0.00025027822
0.021607878 0.077716067 -0.014566677 -0.36658141 0.79647249 -0.48088428 0.00072953798
0.041472778 0.077783361 -0.01400335 0.41377556 0.86464578 -0.28491652 0.002293156
0.043263908 0.076654658 -0.013996279 0.5341689 0.81523114 -0.22374491 0.0032489225
0.020431511 0.078399666 -0.012570188 -0.37615553 0.80989075 -0.45009333 0.0010259311
0.022571001 0.078688309 -0.01378295 -0.35858107 0.80023885 -0.48066348 0.00071911537
0.025607375 0.07971938 -0.014123063 -0.29300687 0.83089095 -0.47304037 0.0010413899
0.02830538 0.080411039 -0.013884474 -0.14896898 0.89880919 -0.41225019 0.0022620261
0.031053737 0.080535382 -0.013970098 -0.024083477 0.91891456 -0.39372066 0.0019191448
0.034559239 0.080114402 -0.014205062 0.12594825 0.92251545 -0.36483186 0.0020559337
0.037404448 0.079550102 -0.013801499 0.26189134 0.91156268 -0.31696433 0.0019342371
0.039995059 0.078582838 -0.013711814 0.36978352 0.89103454 -0.26328236 0.0029917397
0.02895546 0.081022933 -0.012371356 -0.11172397 0.95827389 -0.26311383 0.0028042689
0.031343468 0.081017286 -0.012596456 0.0052300468 0.9426018 -0.33387792 0.0018331996
0.026817597 -0.081042856 -0.0092560397 -0.090365365 -0.99589288 -0.0056075384 0.0033229224
0.028566971 -0.081129596 -0.0098525491 -0.06936866 -0.98789239 -0.13876793 0.0048286202
0.030926524 -0.081114933 -0.009956398 0.060356021 -0.98789781 -0.14288114 0.0038136528
0.017704323 -0.078201301 -0.0094778677 -0.37226391 -0.85830718 -0.35316899 0.0026361346
0.019736823 -0.078584999 -0.010425231 -0.33224976 -0.88402945 -0.32878879 0.0027020327
0.022393288 -0.079454049 -0.010701467 -0.31175104 -0.90193611 -0.29886875 0.002398588
0.02537543 -0.080418393 -0.01063362 -0.2544876 -0.93399364 -0.25078273 0.0023754605
0.028397789 -0.080831707 -0.011416975 -0.101633 -0.9609111 -0.2575278 0.0039125844
0.03176149 -0.080827706 -0.011222826 0.071086161 -0.97627485 -0.20453392 0.0032603305
0.034447923 -0.080434762 -0.010988779 0.20039672 -0.96612662 -0.16260545 0.0028171195
0.037203845 -0.07965304 -0.010717857 0.29809329 -0.94636238 -0.12465385 0.0021785009
0.039851394 -0.078506015 -0.01076276 0.43564373 -0.89840055 -0.055597201 0.0033037988
0.011536237 -0.075201243 -0.0093759811 -0.44465241 -0.75464582 -0.48248726 0.00074632332
0.013711576 -0.075833589 -0.010296156 -0.42539901 -0.77458489 -0.468032 0.00080639467
0.016426407 -0.077001728 -0.010710143 -0.39935961 -0.81267476 -0.42434844 0.001343635
0.018700493 -0.077738807 -0.011463199 -0.36767706 -0.84634209 -0.38538107 0.0023806142
0.041243527 -0.077707402 -0.010929283 0.50254828 -0.86366779 -0.039028257 0.0026286496
0.042922333 -0.076482028 -0.010806409 0.61437219 -0.78824669 0.034841653 0.003610733
0.0080707995 -0.072611839 -0.0098049613 -0.4880721 -0.70294046 -0.51735908 0.00014482679
0.010376723 -0.073589601 -0.010578606 -0.46674642 -0.72593236 -0.50514352 0.00022667758
0.012738763 -0.074571513 -0.011323676 -0.44328377 -0.7438404 -0.50020099 0.00033486306
0.044712212 -0.074735343 -0.010505676 0.72251761 -0.67762023 0.13711025 0.0034267635
0.045741998 -0.073576093 -0.01097885 0.78261298 -0.61214322 0.11312647 0.0050829072
0.0028207731 -0.069236137 -0.0091594281 -0.56101763 -0.63231039 -0.53426838 0.00014766274
0.0048773414 -0.069915913 -0.010174777 -0.53613794 -0.65443093 -0.53317559 0.00019306994
0.0070961807 -0.071074523 -0.010925309 -0.50792152 -0.68237197 -0.52572262 0.00015629403
0.009320965 -0.071912155 -0.011781056 -0.48462793 -0.70486116 -0.5179832 0.00012849829
0.047091942 -0.071337789 -0.010906286 0.86773717 -0.46128365 0.18506649 0.0048821256
-0.00021360379 -0.066122375 -0.0093097743 -0.59596997 -0.58169097 -0.55358416 0.00021003559
0.0018398288 -0.067136467 -0.010281666 -0.58164364 -0.60566884 -0.54300636 0.00018715048
0.0038594473 -0.068225294 -0.011166454 -0.56042475 -0.63046825 -0.53706044 0.00013403487
0.048069693 -0.068984598 -0.010893079 0.93398577 -0.34013319 0.10945361 0.0083035771
-0.00311184 -0.063134648 -0.0091186222 -0.6137045 -0.49608138 -0.61422306 0.00089108432
-0.0011200407 -0.064156048 -0.010211296 -0.62495786 -0.51526839 -0.58645219 0.0012959867
0.00072709651 -0.065225899 -0.011159706 -0.61125058 -0.55807322 -0.56118357 0.00076772366
-0.0038275688 -0.06105848 -0.0097281178 -0.62952423 -0.39304018 -0.67023772 0.0031385114
-0.0020786121 -0.061756656 -0.011044797 -0.64480698 -0.35986617 -0.67432952 0.0031942951
0.048723012 -0.061201438 -0.011127662 0.9712491 0.23604076 -0.030985055 0.0023376574
-0.0062434687 -0.057712622 -0.0091322009 -0.56952655 -0.22024928 -0.7919153 0.0052896054
-0.0044066245 -0.05840322 -0.010257305 -0.58904207 -0.20183624 -0.78249055 0.0060591209
-0.0026489478 -0.058847878 -0.011689055 -0.65630639 -0.14267766 -0.74088115 0.0034648443
0.047566097 -0.057771299 -0.010244588 0.89565766 0.44442397 0.016875392 0.0024083517
0.048206758 -0.05916182 -0.011176238 0.91290784 0.40811923 0.0061681066 0.0025452315
-0.051461197 -0.054301891 -0.0094779804 -0.040462106 -0.58989924 -0.80646241 0.058899131
-0.050076026 -0.054299239 -0.0094592655 0.27296716 -0.60213095 -0.75028479 0.050208617
-0.03924039 -0.054920852 -0.0091909859 -0.24438363 -0.5767327 -0.77952296 0.014445405
-0.037605848 -0.054753408 -0.0095064342 -0.12717238 -0.54998755 -0.82543379 0.015443555
-0.034749966 -0.054490607 -0.0092644049 0.12434196 -0.49497527 -0.85996425 0.0068946988
-0.032574736 -0.054224726 -0.0090690721 0.17711408 -0.4687461 -0.86539459 0.0084958794
-0.006408161 -0.055479731 -0.0092270887 -0.48575163 -0.018665444 -0.87389761 0.0057869572
-0.0044866274 -0.055498388 -0.010453918 -0.55452573 0.03062401 -0.83160293 0.0054571605
-0.0026956089 -0.055183422 -0.011784288 -0.61045331 0.084351949 -0.78754777 0.0044444469
0.046367563 -0.055351604 -0.010634889 0.86039042 0.50946838 0.01305289 0.0014211619
-0.051913332 -0.052406654 -0.010885849 0.048519783 -0.37763286 -0.92468333 0.069526374
-0.049855698 -0.052436739 -0.010391812 0.2691336 -0.42826495 -0.86264491 0.044092845
-0.045254126 -0.051544107 -0.0090754135 -0.095397286 -0.28044903 -0.95511657 0.023521861
-0.043313552 -0.051988129 -0.0093082599 -0.13983241 -0.28260282 -0.94899035 0.012363081
-0.040489215 -0.052326348 -0.0095022833 -0.2095387 -0.29163399 -0.93329692 0.012470905
-0.037568439 -0.052496418 -0.010338191 -0.088415876 -0.24782053 -0.96476299 0.010766733
-0.034456734 -0.052524064 -0.0098757483 0.16198723 -0.23345697 -0.95877939 0.0051711393
-0.031656172 -0.052306365 -0.0093585653 0.18778357 -0.19180407 -0.96330076 0.0047118138
-0.029647905 -0.051786531 -0.0090839658 0.18909848 -0.16165274 -0.96856081 0.0050489395
-0.0062975618 -0.053305496 -0.0091569358 -0.38323668 0.16664596 -0.90849257 0.0067792656
-0.0044391588 -0.052558679 -0.0099626863 -0.47809589 0.25773787 -0.83964002 0.0058651869
-0.0021356163 -0.052283082 -0.011355293 -0.55044752 0.28927207 -0.78315341 0.0043783276
0.043857254 -0.051968873 -0.011094898 0.71962661 0.68044931 -0.13829803 0.0023732041
0.045219123 -0.053536233 -0.010860352 0.76909792 0.62064832 -0.15259103 0.0030341982
-0.052063052 -0.049611527 -0.011362713 0.21531807 0.013891137 -0.9764452 0.051945623
-0.049649473 -0.049503352 -0.010618578 0.35431176 0.086498499 -0.93111819 0.04092427
-0.045687508 -0.049678173 -0.0091136927 -0.098752268 0.052264936 -0.99373859 0.023081673
-0.043432057 -0.049584147 -0.0095207719 -0.1271009 0.030136919 -0.99143183 0.011464077
-0.040465415 -0.049550842 -0.009853147 -0.18244597 0.08852908 -0.97922218 0.017453579
-0.037556011 -0.049541939 -0.010646309 -0.051461112 0.086813211 -0.99489456 0.015101346
-0.034513991 -0.049547922 -0.010206151 0.17988966 0.10965976 -0.97755539 0.0093277087
-0.031541921 -0.049531478 -0.0095216148 0.21191633 0.092043348 -0.97294366 0.0088747758
-0.029517047 -0.049879979 -0.0091130305 0.21261875 0.077412397 -0.97406399 0.0095834946
-0.0037649919 -0.050298814 -0.0094004124 -0.40635437 0.43616933 -0.80289006 0.0053329836
-0.0014409339 -0.049674626 -0.010332495 -0.41763836 0.51482785 -0.74868584 0.0037206288
0.0010646069 -0.04891786 -0.011235286 -0.40560383 0.59741312 -0.69179702 0.0033899222
0.0032804119 -0.048214972 -0.011781837 -0.33382779 0.70067573 -0.63056529 0.0020861998
0.040587064 -0.049078982 -0.011207701 0.52060425 0.80429983 -0.28648379 0.0025826618
0.042400651 -0.050482631 -0.010998531 0.65640521 0.74087143 -0.14227349 0.0026120618
-0.051971804 -0.04717673 -0.010325768 0.10715783 0.4215714 -0.90044147 0.060610853
-0.049758483 -0.047132764 -0.009998613 0.24466352 0.47537428 -0.84507936 0.062086891
-0.045517012 -0.047810163 -0.0090232929 -0.18784216 0.057756744 -0.98049963 0.011657815
-0.043195069 -0.047623497 -0.0092006046 -0.13545179 0.28042811 -0.95026988 0.0096960766
-0.040303312 -0.047248412 -0.0093635721 -0.18275207 0.39805445 -0.89897406 0.011948285
-0.037643101 -0.04675214 -0.010070009 -0.063309684 0.39219123 -0.91770256 0.017506396
-0.034626566 -0.047073383 -0.0096510323 0.1762868 0.40748039 -0.89603722 0.010956145
-0.032158572 -0.047435548 -0.0092188194 0.22286659 0.37762263 -0.89873892 0.0081417384
-0.00041845898 -0.047779843 -0.0093179811 -0.36228484 0.6526531 -0.66542739 0.0032321413
0.0016885835 -0.047326706 -0.0099149616 -0.32166204 0.70891738 -0.62767005 0.0022907378
0.0043873023 -0.046858069 -0.010603095 -0.28536293 0.75604689 -0.58903402 0.0010970271
0.0074187983 -0.046043407 -0.010658447 -0.20753776 0.80748439 -0.55217487 0.00018647197
0.010321525 -0.045667306 -0.011037624 -0.15740356 0.82598788 -0.54126537 0.00013201065
0.013302371 -0.045501877 -0.011552324 -0.11638771 0.83989483 -0.53012317 0.00013049178
0.016224146 -0.0452713 -0.011700017 -0.075374827 0.8497678 -0.52174073 0.00011396701
0.019685183 -0.045031931 -0.011670397 -0.036528133 0.86207604 -0.50546074 0.00014648621
0.022929268 -0.045054782 -0.011794198 0.0024436435 0.87163728 -0.49014544 0.00037431633
0.025941895 -0.04511907 -0.011803112 0.046020411 0.88979626 -0.45403162 0.00090119557
0.028578589 -0.045153804 -0.011400142 0.099315383 0.9154799 -0.3899141 0.0018422831
0.0312282 -0.04551129 -0.011278709 0.13900892 0.91321492 -0.38303399 0.0016839348
0.034517873 -0.0460997 -0.010971456 0.22631884 0.91995025 -0.32011136 0.0018517008
0.037303396 -0.047128983 -0.011195286 0.37726551 0.88289058 -0.27959785 0.0036059101
0.039122064 -0.047921255 -0.010438424 0.51553798 0.83556342 -0.18987994 0.0025944039
-0.039044864 -0.044973038 -0.0091787977 -0.18811747 0.49301893 -0.84943753 0.027764697
-0.038948599 -0.044973228 -0.0091978591 -0.029252462 0.62793952 -0.77771211 0.022318924
0.0086497786 -0.044767629 -0.0091988668 -0.17915846 0.82175547 -0.54094374 0.00020249178
0.010722892 -0.044654734 -0.0095894625 -0.14526327 0.83356363 -0.53298247 0.00017874809
0.013615158 -0.044436637 -0.0099173011 -0.10390939 0.84724736 -0.52093643 0.00017384707
0.016542545 -0.044351995 -0.010242046 -0.062071335 0.85809052 -0.50973314 0.00019918664
0.019471942 -0.044212461 -0.010284177 -0.011507577 0.87260246 -0.4882955 0.00059925951
0.022374932 -0.044268824 -0.010436736 0.022297811 0.88405079 -0.46685866 0.00082188961
0.025413565 -0.044291474 -0.010152225 0.067784399 0.90111613 -0.42824647 0.0014642779
0.028042892 -0.044719756 -0.010496321 0.10088677 0.91269958 -0.39598155 0.0012292593
0.030387377 -0.044845473 -0.0096091805 0.16880675 0.93881238 -0.30022576 0.0015382813
0.0089178672 0.044977706 -0.0090038255 -0.17841808 -0.82604164 -0.53462356 9.8165627e-05
0.011094328 0.044850491 -0.0092312349 -0.14695367 -0.83441585 -0.53118241 0.00016852078
0.013749882 0.044659231 -0.0095036849 -0.10185177 -0.84634387 -0.52280813 0.00013965117
0.01660865 0.044533331 -0.0097544184 -0.058702372 -0.85989702 -0.50708103 0.00024680313
0.019493928 0.044489596 -0.0099286605 -0.01094296 -0.87545544 -0.48317495 0.00064374966
0.022411143 0.044511314 -0.0099866493 0.042647231 -0.89500606 -0.44401047 0.0014579539
0.025384044 0.044669483 -0.0098941652 0.10308956 -0.91500288 -0.39005423 0.0020787881
0.027683033 0.044811513 -0.0094894888 0.15993096 -0.92995226 -0.33107552 0.0026062301
-0.05181193 0.047206238 -0.0099912146 0.0020020748 -0.61405891 -0.78925765 0.06271261
-0.0499379 0.047155321 -0.0098262774 0.23547676 -0.63621968 -0.734694 0.040888384
-0.045130998 0.047978196 -0.0090415915 -0.23550484 -0.36283144 -0.90160459 0.038621563
-0.042882435 0.047754403 -0.0091125863 -0.14286119 -0.42492238 -0.89388573 0.012805733
-0.040156674 0.047337953 -0.0092494627 -0.19534336 -0.50153047 -0.84279788 0.0084475828
-0.037560478 0.046725288 -0.0098270373 -0.064115733 -0.48539487 -0.87194097 0.015647756
-0.034729376 0.047213282 -0.0095268786 0.18670174 -0.50181472 -0.84458536 0.010419692
-0.032411616 0.047632515 -0.0091801081 0.23457071 -0.50555158 -0.83029771 0.01078222
-0.00035731052 0.047871545 -0.0091041792 -0.3571054 -0.67283452 -0.64789617 0.0022781226
0.0017928382 0.047555175 -0.009639618 -0.30824023 -0.72531068 -0.61555862 0.0017504391
0.0045723938 0.047060385 -0.010264095 -0.25988007 -0.77540678 -0.57550561 0.00080298446
0.0074801664 0.046425026 -0.010490199 -0.20040888 -0.81226927 -0.54777271 0.00013404922
0.010435235 0.045897827 -0.010653913 -0.15464637 -0.82911956 -0.53725719 0.00011533772
0.013373167 0.04564644 -0.011006548 -0.11289499 -0.84027135 -0.5302819 9.4109673e-05
0.016431488 0.04544599 -0.011222187 -0.07392095 -0.85041159 -0.52089912 9.814676e-05
0.019526547 0.04536286 -0.011424254 -0.03460725 -0.86191696 -0.505867 0.00015553986
0.022559866 0.045318317 -0.011450273 0.0088891657 -0.8801167 -0.47467405 0.00058023888
0.025510518 0.045321573 -0.011309587 0.058783572 -0.90137517 -0.42903063 0.0014764462
0.028539144 0.045450244 -0.010870296 0.1278757 -0.92546785 -0.3565909 0.0031572385
0.031380486 0.045846079 -0.010638353 0.17882758 -0.93832803 -0.29590738 0.0029938717
0.034440815 0.046532236 -0.010745894 0.2504423 -0.93765229 -0.24101211 0.002880147
0.037158586 0.047399152 -0.01050787 0.38679811 -0.90387309 -0.1827583 0.0040722908
-0.052036133 0.049497917 -0.011253421 0.083126903 -0.25874802 -0.96236128 0.075395271
-0.04965077 0.049465865 -0.010556433 0.34217304 -0.21400855 -0.91494155 0.044018846
-0.045907322 0.049825754 -0.0091209104 0.014591333 -0.068416402 -0.99755019 0.035821963
-0.043474082 0.049447734 -0.0094743082 -0.12758675 -0.18237512 -0.9749158 0.015931122
-0.040512413 0.049415011 -0.0097981384 -0.19107525 -0.18343797 -0.96428245 0.016393704
-0.037579242 0.049416643 -0.010638249 -0.052724592 -0.15016896 -0.98725349 0.014682611
-0.034496721 0.049431559 -0.010164605 0.18450589 -0.17274921 -0.96753043 0.01078957
-0.031521223 0.049493674 -0.0094771618 0.21107894 -0.18233313 -0.96031266 0.0093345093
-0.029396445 0.050151765 -0.0091244467 0.21359167 -0.12896734 -0.96837288 0.011405945
-0.0036995157 0.050540488 -0.0093035353 -0.40051365 -0.46149331 -0.79158878 0.0045808465
-0.0013236086 0.049745094 -0.010080921 -0.39210504 -0.55431467 -0.73415864 0.0039601359
0.0012267887 0.049093336 -0.0110101 -0.37500688 -0.62882245 -0.6811403 0.0038851406
0.0037962347 0.048320215 -0.011627563 -0.300295 -0.72829485 -0.61596233 0.0019648445
0.038666941 0.048260294 -0.010991158 0.48571914 -0.85758138 -0.16920768 0.0031961808
0.040479921 0.049396176 -0.010618917 0.56752455 -0.80810481 -0.15774211 0.0028082512
0.042206667 0.050741494 -0.010554976 0.64392394 -0.75364715 -0.13182496 0.0034609379
-0.051937509 0.052269787 -0.011164624 0.17129593 0.11283248 -0.97873724 0.048637986
-0.049713116 0.0523642 -0.010475934 0.31711408 0.29263777 -0.90210962 0.039209191
-0.045454707 0.051438548 -0.009095246 -0.049292013 0.14932245 -0.98755914 0.018033298
-0.043415267 0.052038845 -0.0093880286 -0.1373421 0.15000026 -0.97910011 0.0079093743
-0.040468037 0.052308705 -0.0096506858 -0.20188771 0.22582063 -0.95301962 0.013159297
-0.037574355 0.052420709 -0.010481716 -0.067375712 0.19291948 -0.9788987 0.011642828
-0.034507375 0.052456979 -0.010022962 0.16800337 0.16618934 -0.97167689 0.0044857948
-0.031533998 0.052347537 -0.0094255554 0.18265846 0.15352346 -0.97111607 0.0035607871
-0.029442567 0.051779076 -0.0091024004 0.19768518 0.089102678 -0.97620755 0.004977494
-0.0063203932 0.053407073 -0.0091136564 -0.39705116 -0.18679 -0.89858764 0.0067951554
-0.0043638041 0.052586738 -0.0098628839 -0.46276507 -0.28933042 -0.83793581 0.0060767415
-0.0019284425 0.052241024 -0.011265513 -0.52743447 -0.3535001 -0.77256101 0.0052763573
0.00021712611 0.051048737 -0.011937927 -0.45922488 -0.57360601 -0.67829841 0.0039298716
0.043623894 0.052241907 -0.011033663 0.70328909 -0.69651866 -0.14228949 0.002381719
0.045089591 0.053897601 -0.011208267 0.73801172 -0.65406537 -0.16594365 0.0020593819
-0.051640484 0.054412365 -0.0099032903 0.15192419 0.37735429 -0.91352218 0.032570917
-0.049900852 0.05447448 -0.0095984694 0.34589738 0.37173933 -0.86148995 0.032434903
-0.039232954 0.054933764 -0.0092759328 -0.19087946 0.45868757 -0.86785406 0.014209023
-0.037525654 0.054826755 -0.0097469939 -0.08860492 0.4134979 -0.90618354 0.014636333
-0.034682509 0.054674458 -0.0093884943 0.12745577 0.37993461 -0.91619033 0.0052321069
-0.032211144 0.054268226 -0.0091202445 0.18469721 0.31218365 -0.93189496 0.004774848
-0.0064174118 0.055489108 -0.0092293452 -0.43965843 -0.03053556 -0.89764583 0.0063420166
-0.004475194 0.055484246 -0.010431417 -0.54739827 -0.067183904 -0.83417106 0.0052045984
-0.0026460409 0.055116232 -0.011719368 -0.61763096 -0.11658119 -0.7777794 0.004059392
0.046047136 0.055271447 -0.01067009 0.83182037 -0.55434221 -0.027921988 0.0025803533
-0.0063280296 0.057731163 -0.0091516022 -0.54507172 0.17193539 -0.82056993 0.0068119303
-0.0044493321 0.058444023 -0.010319366 -0.58776379 0.15183115 -0.79465783 0.0053566638
-0.0026917616 0.058754046 -0.011759087 -0.66624767 0.098804854 -0.73915601 0.0035611456
0.047425676 0.057750106 -0.010774973 0.88766563 -0.46046713 -0.004454134 0.0029454646
0.04819566 0.059462987 -0.01139278 0.91341001 -0.40570757 -0.032918263 0.0036060035
-0.0038498987 0.061068133 -0.0099678738 -0.62386125 0.33674508 -0.70526582 0.0040785037
-0.0021617124 0.061663534 -0.011294068 -0.65690511 0.29070684 -0.69567603 0.0026688203
0.048643872 0.061447751 -0.010852762 0.96013588 -0.27945274 -0.0067311525 0.0032542858
-0.0032133115 0.063163005 -0.0093691461 -0.61091393 0.4802655 -0.62938797 0.0020736593
-0.0013045394 0.064228103 -0.010380509 -0.62915283 0.49890536 -0.59603709 0.0014358794
0.0006169274 0.06532865 -0.011437076 -0.61587119 0.54889351 -0.56517124 0.00086228555
-0.00031346787 0.066408262 -0.0092789996 -0.59998703 0.57823145 -0.55286878 0.0002638195
0.001454965 0.067215033 -0.01035254 -0.590478 0.59081799 -0.54979056 0.00027523015
0.0035943412 0.068428412 -0.011251982 -0.56408662 0.62261844 -0.5423584 0.00020494784
0.002808854 0.06922964 -0.0095472392 -0.56440955 0.625624 -0.53855032 6.1205159e-05
0.0046519265 0.070049472 -0.010430508 -0.53989923 0.64924055 -0.53571957 0.00018674675
0.0067749699 0.071165778 -0.011113842 -0.51539576 0.67499191 -0.52797073 0.00019815839
0.0078680823 0.072774738 -0.010026607 -0.49297363 0.69738275 -0.52022535 0.00014880252
0.01023005 0.073822044 -0.010746655 -0.47107795 0.71652615 -0.51446658 0.00013852931
0.012491968 0.074789815 -0.011409898 -0.44757384 0.73559606 -0.50850374 0.0001592273
0.011339268 0.075373389 -0.0095982077 -0.45072323 0.74010718 -0.49908918 0.00032229014
0.013425111 0.07603962 -0.01043217 -0.43717206 0.7531544 -0.49156794 0.00027110227
0.01613345 0.077089049 -0.011153414 -0.41540977 0.77738219 -0.4723469 0.00060976099
0.018264886 0.077872179 -0.011692723 -0.40087974 0.80343419 -0.44021472 0.0016656127
0.017524537 0.078220353 -0.010311691 -0.39267266 0.80953151 -0.43642512 0.00097499182
0.019356158 0.078805156 -0.010654858 -0.35441402 0.8566224 -0.37495181 0.0017863936
0.022546664 0.079971783 -0.010804876 -0.32024717 0.89480895 -0.31106082 0.001437659
0.025269527 0.080766931 -0.011180841 -0.24781018 0.92161423 -0.29869267 0.0029032696
0.034883149 0.080771394 -0.011434119 0.20090307 0.95804244 -0.20443274 0.0020993298
0.037117142 0.080145933 -0.010967813 0.28448826 0.94075549 -0.18451439 0.0025356833
0.039366487 0.079185359 -0.011982252 0.34429553 0.911771 -0.22390698 0.0023172724
0.026008671 0.081141338 -0.010346554 -0.2580345 0.91858923 -0.29935259 0.0026406453
0.028304301 0.081331052 -0.011191756 -0.1460828 0.94562644 -0.29060364 0.0025880407
0.031382222 0.081400082 -0.010770509 0.031812243 0.96087575 -0.27514687 0.0035055499
0.033561409 0.081190325 -0.010389658 0.12089507 0.97173333 -0.20277758 0.0024066665
0.026917802 -0.081060573 -0.0083674397 -0.10299291 -0.99445403 0.02130091 0.0044201543
0.028375749 -0.081166491 -0.0079781618 -0.062912345 -0.99794006 0.012557791 0.0034957137
0.031276356 -0.081149392 -0.0080808904 0.10207817 -0.99442559 0.026416447 0.0033924724
0.014804453 -0.078083098 -0.0063345698 -0.36027643 -0.89034843 -0.27835339 0.0032888153
0.01663021 -0.078381285 -0.007320696 -0.30693886 -0.92321229 -0.23123063 0.0027126074
0.019403601 -0.079187967 -0.007677617 -0.28233188 -0.9426645 -0.17796716 0.0023538994
0.02243731 -0.079999663 -0.0076860995 -0.27275521 -0.95109928 -0.14496461 0.0027583081
0.025521003 -0.080691546 -0.0076724472 -0.19291867 -0.98030043 -0.042349935 0.0025318279
0.027510712 -0.080929004 -0.0064195502 -0.081343375 -0.98708487 0.13801 0.0043869982
0.032409806 -0.080868065 -0.0069193561 0.12194948 -0.98836344 0.090917408 0.0038496538
0.033849768 -0.080646217 -0.0080306474 0.19014828 -0.98107976 -0.036416028 0.002826612
0.037188981 -0.079540282 -0.0080587091 0.3558661 -0.93288529 0.055536766 0.0022399628
0.039463311 -0.078332342 -0.0076397792 0.49706087 -0.84220827 0.20884392 0.0028054039
0.0085319951 -0.075263754 -0.0063688075 -0.4403106 -0.77867568 -0.44697958 0.0018374879
0.010613867 -0.075769067 -0.0074550263 -0.41921306 -0.80492061 -0.41995609 0.0019885884
0.013346237 -0.076959737 -0.0077212113 -0.38706014 -0.85630357 -0.34194842 0.0016655806
0.015702695 -0.077790245 -0.0082617262 -0.35755789 -0.88984793 -0.2834132 0.0027205711
0.040924396 -0.077354208 -0.0077159107 0.51581806 -0.83380795 0.19671305 0.0030665204
0.042535625 -0.076206021 -0.0082868077 0.64094508 -0.73905474 0.20733412 0.0031511469
0.005107359 -0.072662555 -0.0069166939 -0.50217819 -0.7023952 -0.50443822 0.0006486256
0.0073960274 -0.0737224 -0.0076356516 -0.474953 -0.73349845 -0.48620939 0.00060527271
0.0095522543 -0.074549727 -0.0084948558 -0.45983854 -0.7424137 -0.48720667 0.00041902519
0.04432489 -0.073776305 -0.0077835452 0.7179541 -0.64572871 0.25995457 0.0036031622
-0.00017827199 -0.069290511 -0.0060509848 -0.56286281 -0.61536443 -0.55182618 0.00016469551
0.0019365646 -0.069912769 -0.0071643465 -0.55171657 -0.63672715 -0.53869039 0.00018592052
0.0040743966 -0.071076505 -0.0079386299 -0.52845871 -0.66690177 -0.52533174 0.00024418894
0.006130883 -0.071817704 -0.0088767149 -0.50283474 -0.68836451 -0.52279222 0.0002207725
-0.0031632266 -0.066103093 -0.006188117 -0.56558573 -0.57989013 -0.58637893 0.00041786031
-0.0011153411 -0.067087531 -0.0071468707 -0.57961887 -0.59310722 -0.55880749 0.00025577491
0.00088778889 -0.068164498 -0.0080868723 -0.57227468 -0.61459857 -0.54292738 0.00016223513
-0.0061798217 -0.063203499 -0.0061227791 -0.51943153 -0.57104248 -0.63568974 0.0013207054
-0.0040996638 -0.064108707 -0.0070641916 -0.5626235 -0.54455876 -0.62202138 0.0012362575
-0.002189965 -0.065105222 -0.0080795232 -0.59717768 -0.56037253 -0.5739001 0.00057293073
-0.009525002 -0.060372945 -0.0062303958 -0.33722484 -0.54069567 -0.77066696 0.0034854533
-0.0072688605 -0.061174076 -0.0069236211 -0.44035736 -0.49951875 -0.74603379 0.0041551315
-0.0050409259 -0.061805248 -0.0081350245 -0.57163709 -0.43338832 -0.69671059 0.0042459592
-0.040192213 -0.057157289 -0.006464988 -0.27050182 -0.79804647 -0.53847063 0.014956912
-0.037425954 -0.05728434 -0.006629989 -0.096662723 -0.81124985 -0.5766542 0.010861256
-0.034557868 -0.057361688 -0.0067051654 0.0064910813 -0.78119534 -0.62425286 0.0065976046
-0.031418838 -0.057466391 -0.006551927 0.025661681 -0.73924315 -0.67294949 0.007095749
-0.028525352 -0.057461549 -0.0064601898 0.029540757 -0.70074785 -0.71279722 0.007099818
-0.025466055 -0.057371598 -0.0063257385 0.039127432 -0.63889813 -0.76829571 0.0071548182
-0.022747388 -0.057332233 -0.0061819409 0.027522193 -0.59166473 -0.80571419 0.0051446799
-0.019501008 -0.057278816 -0.0061222469 -0.01042504 -0.53822619 -0.84273595 0.005427856
-0.016269974 -0.057406027 -0.0061840895 -0.084337205 -0.47815299 -0.87421793 0.0058382116
-0.013238634 -0.057877999 -0.0063792155 -0.15827702 -0.42622858 -0.8906613 0.0063210647
-0.010394857 -0.058428079 -0.0068794605 -0.2931174 -0.37088823 -0.88120598 0.0073947329
-0.0075610098 -0.058611229 -0.0080573047 -0.46803981 -0.27517518 -0.83977222 0.0068108668
-0.0056624929 -0.059547618 -0.0088938605 -0.59190941 -0.28782451 -0.7528615 0.0049795541
-0.051443025 -0.054917965 -0.0079340329 -0.064942189 -0.87571543 -0.47844011 0.051491082
-0.049434077 -0.05493157 -0.007821681 0.21382348 -0.82586223 -0.5217576 0.046084467
-0.046553727 -0.054756057 -0.0070384894 0.070400782 -0.76929098 -0.63500798 0.029848581
-0.043461274 -0.054751363 -0.0073362235 -0.18975997 -0.71753561 -0.67017442 0.018889429
-0.040459976 -0.055432286 -0.0076396 -0.31922373 -0.65251851 -0.68725234 0.017796507
-0.037388258 -0.056245863 -0.0082248431 -0.082647234 -0.70855296 -0.70080113 0.011038207
-0.034437045 -0.055911407 -0.0082956096 0.072168559 -0.60715562 -0.79129875 0.0095252423
-0.031489491 -0.055598814 -0.0081006875 0.10935272 -0.50651914 -0.85526621 0.0076788967
-0.028491722 -0.055521414 -0.0077438396 0.11401758 -0.41025689 -0.90481442 0.0055751633
-0.02551656 -0.055514161 -0.0073366514 0.10909389 -0.42184356 -0.90008146 0.009186727
-0.022510028 -0.055491243 -0.0070307939 0.084005155 -0.35819051 -0.92986161 0.0068306527
