# .PCD v0.7 - Point Cloud Data file format
VERSION 0.7
FIELDS x y z normal_x normal_y normal_z curvature
SIZE 4 4 4 4 4 4 4
TYPE F F F F F F F
COUNT 1 1 1 1 1 1 1
WIDTH 557
HEIGHT 1
VIEWPOINT 0 0 0 1 0 0 0
POINTS 557
DATA ascii
0.040546179 0.031457718 -0.015793085 -0.16439392 0.40529647 -0.89928269 0.0023957104
0.043452647 0.031537067 -0.016189491 -0.10299952 0.32433787 -0.94031703 0.002831084
0.04642329 0.031560022 -0.016396055 -0.0097726369 0.23353888 -0.97229832 0.0044850823
0.049408216 0.031590648 -0.016321104 0.080075338 0.14439724 -0.98627448 0.0048430134
0.052433204 0.031537417 -0.015882557 0.17759857 0.033871748 -0.98351991 0.0033091556
0.054987397 0.031860191 -0.015312894 0.2553319 -0.023801226 -0.96656048 0.0029492483
-0.051375642 0.035120331 -0.015096923 -0.23498315 -0.058860015 -0.97021568 0.0058082682
-0.04946053 0.034632836 -0.015451103 -0.15219112 -0.005578164 -0.98833531 0.0043260637
-0.046457697 0.034526233 -0.015844839 -0.077938877 0.1075199 -0.99114329 0.0042763804
-0.043489024 0.034522731 -0.015938306 -0.003204548 0.19283698 -0.98122555 0.0045386418
-0.040487792 0.034507263 -0.015762487 0.082542993 0.28353378 -0.95540321 0.0035874825
-0.037628729 0.034155801 -0.015491333 0.13639246 0.37233916 -0.91802001 0.0034674907
-0.034886405 0.033541534 -0.015253644 0.18423936 0.44729671 -0.87520367 0.002868278
-0.032516859 0.033186197 -0.015063808 0.21778785 0.50709814 -0.83391839 0.0022204153
0.041518025 0.033243723 -0.015140872 -0.20659876 0.50726223 -0.83666128 0.0020349056
0.043715011 0.03375015 -0.015346799 -0.16530629 0.42881316 -0.88814032 0.0027232459
0.046600159 0.0343141 -0.015533489 -0.099227361 0.35386446 -0.93001819 0.0029953113
0.049450699 0.034574073 -0.015657501 -0.021801941 0.26496062 -0.96401274 0.0038480188
0.052420493 0.034577969 -0.015595791 0.084208027 0.16731064 -0.98230147 0.0031502212
0.05502072 0.034474693 -0.015244066 0.19362092 0.096723676 -0.97629684 0.0032110747
-0.051455401 0.036938768 -0.015084686 -0.16237357 0.1054157 -0.9810822 0.004646664
-0.049388219 0.037281286 -0.01526519 -0.083524421 0.16501644 -0.98274785 0.0029793049
-0.04653367 0.037176762 -0.015356486 0.004418904 0.25959978 -0.96570623 0.0040489654
-0.043642268 0.036809653 -0.015309584 0.086507499 0.35233608 -0.93186677 0.0038000038
-0.041195635 0.036348801 -0.01516875 0.15591055 0.44481874 -0.88194561 0.0028366514
0.047656063 0.036142379 -0.015034828 -0.15623756 0.4696852 -0.86889911 0.0019405953
0.049999684 0.036342792 -0.015125434 -0.083265319 0.37065101 -0.92503232 0.0023999705
0.052382752 0.036544796 -0.015159148 0.024310935 0.29846999 -0.95410931 0.0032845414
0.05482316 0.036344524 -0.015079681 0.14429739 0.20104443 -0.96889597 0.0040747761
-0.050312988 0.039074615 -0.015017657 -0.02987019 0.18970139 -0.98138738 0.0060162982
0.0039640022 0.0059030168 -0.012018436 -0.024295965 -0.68360293 -0.72944969 0.0024399525
-0.015757728 0.0088383928 -0.012183961 -0.17223698 -0.64562899 -0.74397427 0.0014761738
-0.013110983 0.0086137513 -0.012442374 -0.14332348 -0.61250967 -0.77736104 0.0012303307
-0.01049934 0.0081587303 -0.012557722 -0.116173 -0.61353236 -0.78107733 0.0011364424
-0.0074681621 0.0081338286 -0.01289288 -0.085941188 -0.59579915 -0.79852206 0.0013856998
-0.0043604458 0.007805042 -0.012960957 -0.069300644 -0.5747835 -0.81536579 0.0011642349
-0.0015664446 0.0077660671 -0.013147742 -0.052887153 -0.57632166 -0.81550986 0.0017463118
0.0015313477 0.0076131714 -0.013184777 -0.03836856 -0.57824361 -0.81496143 0.0017016283
0.0045217033 0.0076721511 -0.013340475 -0.019773791 -0.58302313 -0.81221491 0.0020053191
0.0075199595 0.007563313 -0.013276178 0.0035038611 -0.59326482 -0.80499977 0.0019829471
0.010412664 0.0076646861 -0.013346251 0.010310781 -0.59788442 -0.801516 0.001731715
0.013386309 0.0078523699 -0.013364756 0.036700796 -0.59917736 -0.79977465 0.0018935518
0.016399369 0.0080431039 -0.013340979 0.050936069 -0.60729206 -0.79284424 0.0015045843
0.019362191 0.0081628002 -0.013128545 0.08601898 -0.6175195 -0.78183788 0.0011355736
0.022533102 0.00854972 -0.01302218 0.10886538 -0.62996709 -0.76895368 0.0011919298
0.02486168 0.0085234595 -0.012571794 0.13991986 -0.65851831 -0.739443 0.00097286905
0.027405739 0.0087592928 -0.012132145 0.18833636 -0.70887512 -0.67972469 0.00094850478
-0.024477813 0.011777571 -0.012226133 -0.22333297 -0.62888384 -0.74473321 0.0013695679
-0.02244349 0.011473929 -0.012531953 -0.20259213 -0.6052525 -0.76982194 0.001372633
-0.019391265 0.011022264 -0.012994863 -0.18387634 -0.57052243 -0.8004334 0.0014175266
-0.016387383 0.010787761 -0.013450941 -0.15104422 -0.55167478 -0.82026857 0.0010802763
-0.013437847 0.010620847 -0.013812912 -0.12285049 -0.53023803 -0.83890128 0.0012987079
-0.010531908 0.01054408 -0.014184813 -0.095195219 -0.4976213 -0.86215478 0.0011339549
-0.0074970438 0.010294144 -0.01430888 -0.073996551 -0.48968294 -0.86875492 0.0013505828
-0.0046070591 0.010172877 -0.014463718 -0.05876366 -0.46789518 -0.88182819 0.0020101755
-0.0015344794 0.0098430645 -0.014460172 -0.042540297 -0.46139085 -0.88617653 0.0019214011
0.0014043038 0.0098173842 -0.014567259 -0.034418151 -0.45108762 -0.89181578 0.001970123
0.0044190297 0.0097748805 -0.014650795 -0.021672256 -0.4517318 -0.89189053 0.0020489139
0.0073964163 0.0097131301 -0.014664645 -0.010392255 -0.45218301 -0.89186466 0.0021233603
0.01050335 0.0097187478 -0.014706597 0.0011623784 -0.45510775 -0.89043558 0.002191612
0.013557796 0.0097866282 -0.014696707 0.024135927 -0.47426248 -0.88005263 0.0023107158
0.016479764 0.009802172 -0.014622314 0.039971925 -0.50711113 -0.86095327 0.0017022112
0.019472364 0.0099896975 -0.014514266 0.069136806 -0.52577114 -0.84781176 0.0017195637
0.022609018 0.01020786 -0.014305671 0.09298861 -0.54649478 -0.83228391 0.001559824
0.025531845 0.010555208 -0.014119008 0.11420435 -0.54833418 -0.82842433 0.0011722111
0.028366353 0.010963487 -0.013896397 0.15166439 -0.5807758 -0.79981089 0.0011374176
0.031018373 0.010719044 -0.013036353 0.18257691 -0.59413743 -0.78336865 0.0011665954
0.034368504 0.011372948 -0.012536144 0.23974736 -0.65669328 -0.71503508 0.00095184322
0.036391824 0.011580928 -0.012056907 0.27622104 -0.68509448 -0.67405307 0.0013536224
-0.033209272 0.01478546 -0.012018506 -0.30821973 -0.67687345 -0.66846311 0.0017795925
-0.030932376 0.014375105 -0.012317364 -0.26468718 -0.63482505 -0.72590488 0.000884715
-0.028419396 0.013986308 -0.012779781 -0.23270832 -0.59859776 -0.76650345 0.0012433771
-0.025531963 0.013711396 -0.013409461 -0.20831053 -0.55473459 -0.80552852 0.0009964935
-0.022531262 0.013646672 -0.014086785 -0.17090231 -0.51198924 -0.84181911 0.0010329888
-0.019598074 0.013114291 -0.014348974 -0.1582282 -0.48532546 -0.85989708 0.0015049274
-0.016762042 0.012732266 -0.014616242 -0.12575331 -0.46266022 -0.87757146 0.0017184091
-0.013710779 0.01239317 -0.014819756 -0.10051637 -0.43671837 -0.89396513 0.0018122585
-0.011471632 0.012149016 -0.014921214 -0.084016509 -0.43200088 -0.8979513 0.0027988823
0.028923709 0.012381938 -0.014811436 0.14488642 -0.51135004 -0.84707081 0.002123636
0.031720016 0.012744588 -0.014494534 0.17053518 -0.52220607 -0.83559477 0.0018023564
0.034499593 0.013581243 -0.014403214 0.20054026 -0.52851987 -0.82489413 0.0010682731
0.037114032 0.013997455 -0.013972991 0.23032539 -0.5482583 -0.803967 0.00088074163
0.039813071 0.014083272 -0.013003798 0.27273169 -0.592682 -0.75785577 0.00097719394
0.042971708 0.014767624 -0.012250675 0.34652144 -0.65853626 -0.66802162 0.0011943599
-0.039078142 0.01792088 -0.012082794 -0.3510693 -0.59324217 -0.72444057 0.0019481513
-0.036941648 0.017346624 -0.012393345 -0.31618717 -0.60090357 -0.73412573 0.0012258603
-0.034195211 0.016857091 -0.013075096 -0.28054631 -0.57601756 -0.76778746 0.001014535
-0.031446956 0.01666677 -0.013862198 -0.22850272 -0.52710593 -0.81850219 0.00093061954
-0.028609607 0.01619453 -0.014300617 -0.19903748 -0.50055343 -0.84251428 0.0013120307
-0.025683451 0.015694935 -0.014656885 -0.1752923 -0.46326041 -0.86871308 0.0020901468
-0.023298772 0.015333585 -0.014941561 -0.15062085 -0.44003665 -0.88525766 0.0023078453
0.038131494 0.015570845 -0.014740943 0.22761965 -0.50321734 -0.8336435 0.001914417
0.040448885 0.016147928 -0.014428922 0.23982514 -0.49300948 -0.8363167 0.0015015318
0.043105822 0.016873337 -0.013950026 0.29489854 -0.52721065 -0.79692143 0.00088225468
0.046223648 0.017263662 -0.012749873 0.37106049 -0.61620587 -0.69469738 0.0011540822
0.048497155 0.017817467 -0.012097459 0.41160926 -0.61006218 -0.67705387 0.0014919485
-0.042501621 0.020585289 -0.012289162 -0.3827503 -0.57289648 -0.72477025 0.0014569612
-0.040221967 0.020020021 -0.012976542 -0.34304899 -0.53930086 -0.76907212 0.001422921
-0.037527297 0.019737639 -0.013929232 -0.28141272 -0.49366373 -0.82286274 0.0010327968
-0.034583706 0.019029554 -0.014410758 -0.25330493 -0.48417148 -0.83750498 0.0017942486
-0.032034434 0.018406436 -0.014768002 -0.20441152 -0.43860692 -0.87512273 0.0019885125
0.044208519 0.018654535 -0.014682875 0.28059989 -0.44430616 -0.85079712 0.0010924028
0.046585046 0.019535819 -0.014292943 0.31197613 -0.4519147 -0.83572966 0.0011468781
0.048825856 0.020028124 -0.013635184 0.37241563 -0.49017373 -0.78805858 0.0012201314
0.05176843 0.020448627 -0.012220629 0.41237277 -0.50268483 -0.75977409 0.0017825054
-0.045851097 0.023318503 -0.012550183 -0.40106991 -0.52777457 -0.74873024 0.0010890224
-0.043252207 0.022811802 -0.01349028 -0.34649789 -0.47808653 -0.80707651 0.0012308612
-0.040678602 0.022452021 -0.014323222 -0.3118369 -0.45872429 -0.83206362 0.001165685
-0.038317662 0.021674855 -0.014755395 -0.26307914 -0.42397797 -0.86662102 0.0020969987
-0.0091473721 0.023751898 -0.014970517 0.10927161 0.32384822 -0.93977767 0.0025121672
-0.0071990364 0.023789028 -0.014905517 0.092008196 0.44656849 -0.8900063 0.0019997819
-0.0043526241 0.023586383 -0.014812909 0.068644531 0.42685619 -0.90171045 0.0022861434
-0.0014615984 0.023430139 -0.0147205 0.044400703 0.43430817 -0.89966935 0.0024455872
0.0015474334 0.02332031 -0.014687199 0.015664114 0.44206601 -0.89684576 0.0025303855
0.004419636 0.023345731 -0.014674087 -0.013439004 0.44989085 -0.89298242 0.0025428163
0.0074712145 0.02342798 -0.014722762 -0.045536857 0.45443374 -0.88961589 0.0025398117
0.01039322 0.023613701 -0.014816674 -0.069449447 0.46270061 -0.88379014 0.0023733934
0.013053261 0.023784742 -0.014904169 -0.095294952 0.48219955 -0.87086308 0.0018939615
0.047623962 0.02134721 -0.014875546 0.3379201 -0.44559112 -0.82901061 0.0030574407
0.04994721 0.022294693 -0.014394255 0.36525863 -0.41404882 -0.83375639 0.001560904
0.052394528 0.022796962 -0.01349004 0.40803745 -0.44745114 -0.79579705 0.0017044095
0.054592747 0.023397157 -0.012588364 0.47252011 -0.47533533 -0.74214631 0.0014661567
-0.051277004 0.026850233 -0.012056679 -0.45590505 -0.52831578 -0.71626329 0.0012807108
-0.049065378 0.026009085 -0.012703405 -0.4125618 -0.50530201 -0.75793308 0.0013695492
-0.046458744 0.025688233 -0.013772068 -0.35481054 -0.43430305 -0.82794344 0.001399286
-0.043934107 0.025134826 -0.014527666 -0.31576547 -0.40536723 -0.85788661 0.0016754672
-0.041744784 0.024305711 -0.014903987 -0.28575778 -0.4083558 -0.86694181 0.0025227033
-0.018210607 0.026819453 -0.01496686 0.15600684 0.47131485 -0.86805773 0.0040505347
-0.015995165 0.026674151 -0.014784973 0.1650195 0.47373652 -0.86506784 0.0020897218
-0.013358279 0.02621004 -0.014529272 0.1528983 0.46530572 -0.87184447 0.002407531
-0.010426704 0.02578141 -0.014291239 0.12863678 0.49218139 -0.86093551 0.0014710161
-0.0075100306 0.025554957 -0.013989885 0.10566672 0.51157439 -0.85271692 0.0013473522
-0.0044775512 0.025542682 -0.01367074 0.079267286 0.52600032 -0.84678239 0.0011234895
-0.0014555684 0.025509259 -0.013433176 0.055310737 0.55222297 -0.83185971 0.0016455799
0.0015049583 0.025534838 -0.013281256 0.028434828 0.57840586 -0.81525338 0.0019879928
0.004483568 0.025527449 -0.013257581 -0.015254015 0.57465112 -0.81825638 0.0022605783
0.0074823205 0.025531029 -0.013343502 -0.047736093 0.57667607 -0.81557703 0.0017372594
0.010487691 0.025520002 -0.01358837 -0.072308727 0.55919802 -0.82587475 0.0013137729
0.01348815 0.025539527 -0.013874285 -0.10196378 0.55798864 -0.82356066 0.0016374947
0.016413653 0.025780967 -0.014159836 -0.13255104 0.54332638 -0.82899135 0.0014847498
0.019362222 0.026138401 -0.014434743 -0.15432295 0.51796269 -0.84136742 0.0018576175
0.022101121 0.026559448 -0.014740883 -0.17437357 0.53139079 -0.82898593 0.0016612726
0.024381444 0.02677783 -0.014921052 -0.17192841 0.52633542 -0.83271348 0.0014006065
0.050673798 0.024275001 -0.014999319 0.3231076 -0.34057322 -0.88295609 0.0018588761
0.052889921 0.025116298 -0.01443914 0.37770596 -0.33478263 -0.86328369 0.001217369
0.055332191 0.025579076 -0.013359828 0.44404072 -0.37608573 -0.81325728 0.0017345771
0.057463642 0.025921151 -0.01227224 0.47834781 -0.39064217 -0.78649986 0.0014370636
-0.054176316 0.029619565 -0.012104051 -0.47165003 -0.48267308 -0.73795187 0.0019556268
-0.052231945 0.0290522 -0.012850122 -0.41729018 -0.42380226 -0.80390334 0.001708178
-0.049553171 0.028519861 -0.013886908 -0.36528084 -0.38160372 -0.84908682 0.0018326134
-0.047121882 0.027959021 -0.014660859 -0.3129909 -0.33513045 -0.88866425 0.0020657184
-0.024498012 0.029766658 -0.014808618 0.2020715 0.48217168 -0.85245389 0.0021211556
-0.022243841 0.029293135 -0.014576464 0.19953437 0.47760475 -0.85561663 0.0023727713
-0.019396553 0.02877634 -0.014195684 0.19038966 0.51428187 -0.83622122 0.0016101414
-0.016487366 0.028535096 -0.013674474 0.18856642 0.5439648 -0.81764597 0.0013621334
-0.013549711 0.028396128 -0.013088944 0.18011513 0.60823345 -0.77305281 0.0017630872
-0.010585471 0.028028244 -0.012785682 0.1488748 0.6267305 -0.76488239 0.0015737466
-0.0075852755 0.027656898 -0.012546383 0.1209731 0.64477879 -0.75473553 0.0017491635
-0.0046329992 0.027393274 -0.012366187 0.092363164 0.65933734 -0.7461524 0.001635245
-0.0017606727 0.027172783 -0.012220308 0.06625516 0.67733634 -0.73268396 0.001788881
0.00087200309 0.02714197 -0.012119871 0.033650149 0.68229866 -0.7302987 0.0018770427
0.0048559066 0.027099552 -0.012099111 -0.0083201174 0.68579286 -0.72774929 0.0019224677
0.007885159 0.027111327 -0.012144854 -0.050219301 0.67949361 -0.73196071 0.0019258223
0.010709851 0.027244622 -0.012272452 -0.076997451 0.68360561 -0.72577882 0.0017048885
0.013687707 0.027459912 -0.01243377 -0.11005349 0.68536454 -0.71983582 0.0017575052
0.016603967 0.027770584 -0.012676346 -0.14594366 0.67003077 -0.72784567 0.0013233741
0.019592814 0.028124148 -0.012972158 -0.17295584 0.64744884 -0.7422238 0.0018645515
0.022532498 0.028476931 -0.013402316 -0.19799156 0.60479194 -0.77137929 0.0014592685
0.025427824 0.028663861 -0.01398779 -0.19148411 0.5698694 -0.79911375 0.001122112
0.028337659 0.029169381 -0.014384874 -0.2001929 0.5382334 -0.81867433 0.0016644174
0.030942217 0.029603867 -0.014748484 -0.20162688 0.5578239 -0.80509573 0.0016252599
0.033041988 0.029749054 -0.014958716 -0.20031525 0.56286454 -0.80190861 0.00097326358
0.053627573 0.027496254 -0.014898593 0.33107474 -0.19522935 -0.92318738 0.0035282341
0.055529702 0.028667647 -0.014490885 0.37192169 -0.21862467 -0.90215164 0.0013205857
0.058393341 0.028669747 -0.013042837 0.4676975 -0.31898251 -0.82432342 0.001689777
0.060295999 0.029517166 -0.012150958 0.53809345 -0.34379548 -0.76958436 0.0020375366
-0.057033628 0.032863759 -0.01210937 -0.5156312 -0.40483725 -0.75513667 0.0017002198
-0.055092178 0.03183376 -0.012717348 -0.44859332 -0.35696319 -0.81935412 0.0021724729
-0.052478887 0.031628635 -0.01393858 -0.37177071 -0.29421204 -0.88046914 0.0016067419
-0.050024893 0.031051369 -0.014718416 -0.32295686 -0.26174197 -0.90949982 0.0023627544
-0.030727161 0.03263193 -0.014768392 0.21386784 0.46935511 -0.8567183 0.0020296134
-0.028279459 0.03208467 -0.014391784 0.2274397 0.49159312 -0.84059942 0.0020735974
-0.025434017 0.031559367 -0.0139214 0.22712499 0.53857511 -0.81138831 0.0013421293
-0.022572158 0.031415295 -0.013170398 0.24283695 0.60594404 -0.75753683 0.0019564237
-0.019643314 0.030862428 -0.012768022 0.22337215 0.64009911 -0.73510402 0.0013733562
-0.016887629 0.030364191 -0.012367725 0.20799063 0.66693532 -0.71549791 0.0015853435
-0.014666918 0.030048454 -0.012091808 0.17247982 0.66739392 -0.72445571 0.0025827852
0.023434969 0.030159838 -0.012205159 -0.20646285 0.67696953 -0.70645982 0.00094217918
0.025737986 0.030569924 -0.01252111 -0.21912692 0.67959946 -0.70009148 0.001156058
0.028621681 0.031043939 -0.012940519 -0.22774547 0.65549743 -0.72003829 0.0017391647
0.031540427 0.03150776 -0.013434335 -0.23569819 0.60656124 -0.75929564 0.0014001178
0.034379996 0.031784974 -0.014068735 -0.22818379 0.5661391 -0.79209769 0.001520774
0.037214201 0.032318894 -0.014553425 -0.23029576 0.51788163 -0.82387042 0.0017627805
0.039518267 0.032784365 -0.014837969 -0.21903349 0.50696766 -0.83367145 0.0016715563
0.056314908 0.031331513 -0.014763616 0.33130765 -0.10829006 -0.93728787 0.00277827
0.058240794 0.031613715 -0.013981711 0.37576708 -0.11806121 -0.91916305 0.0017911927
0.060871813 0.031771451 -0.012571789 0.49371624 -0.23268414 -0.83791548 0.0023550969
-0.057805374 0.034982771 -0.012484408 -0.46825451 -0.29911575 -0.83142495 0.0029282151
-0.055404473 0.034630936 -0.013532176 -0.3885313 -0.21780653 -0.89532328 0.0029641225
-0.052718583 0.034412436 -0.014556638 -0.31966457 -0.14971454 -0.93562818 0.0029836379
-0.050907955 0.033404354 -0.014870038 -0.26226863 -0.11254109 -0.95840997 0.0054608048
-0.039391275 0.035766177 -0.014912873 0.1570711 0.39221948 -0.90636224 0.0038328308
-0.037081379 0.03550864 -0.014772578 0.20047571 0.4328469 -0.87889314 0.002683758
-0.034324639 0.03495593 -0.014342926 0.23160604 0.4963479 -0.83665848 0.0017985125
-0.031467307 0.034545902 -0.013711527 0.25806811 0.54956734 -0.79459202 0.0017768657
-0.028661793 0.034225021 -0.012989626 0.28063914 0.60160989 -0.74786836 0.0019284565
-0.025830546 0.033561219 -0.012531552 0.26637182 0.65356714 -0.7084462 0.0015397769
-0.023670169 0.033138853 -0.012142247 0.25579017 0.64114588 -0.7235353 0.0013217755
0.032425873 0.033247855 -0.012203901 -0.25222427 0.6849944 -0.6834951 0.00096056424
0.034786444 0.033728741 -0.012606502 -0.26918343 0.67189074 -0.69000214 0.0013733067
0.037632387 0.03435275 -0.013133508 -0.29116008 0.60865116 -0.73808509 0.0020277516
0.040424995 0.034659766 -0.013878467 -0.24655411 0.54284459 -0.80282676 0.00104706
0.043272261 0.035132613 -0.014459721 -0.23089461 0.48671782 -0.8424924 0.0019923418
0.045753539 0.035683848 -0.014784392 -0.17290255 0.46166575 -0.87003994 0.0032765295
0.048147872 0.035796665 -0.014953796 -0.079917848 0.39215684 -0.91642034 0.0035033226
0.056406844 0.034710437 -0.014855243 0.23164265 0.04650753 -0.97168863 0.0038705557
0.058445241 0.034616198 -0.014240175 0.32263172 -0.0029682028 -0.94651991 0.0039462936
0.061257567 0.034704641 -0.013051779 0.41586587 -0.08434286 -0.90550643 0.0025753642
0.063184604 0.035002545 -0.012048979 0.54803932 -0.17104067 -0.8187784 0.0021548565
-0.060252685 0.038519878 -0.012098985 -0.50374383 -0.21055877 -0.83779895 0.0032604816
-0.058313042 0.037637439 -0.012859666 -0.39955962 -0.15379754 -0.90371364 0.0036787286
-0.055480707 0.0375637 -0.014021631 -0.30556983 -0.045214228 -0.95109558 0.0040393979
-0.052723061 0.037626922 -0.014748958 -0.20532309 0.050339449 -0.97739875 0.0057491586
-0.049168698 0.038679499 -0.014915859 -0.020717628 0.23480836 -0.97182095 0.0062716613
-0.046220362 0.038665738 -0.014859789 0.08865197 0.34227964 -0.93540657 0.0043863948
-0.043309387 0.038219627 -0.014619502 0.16140851 0.42460373 -0.89087534 0.0029078096
-0.040386524 0.037732866 -0.014272864 0.20094831 0.48994702 -0.84827572 0.0014091874
-0.037489932 0.037496999 -0.013589494 0.25502539 0.54294211 -0.80010998 0.0017001777
-0.034666445 0.037099373 -0.012932251 0.28420654 0.61400485 -0.73635906 0.0016779379
-0.032043125 0.036512475 -0.012400362 0.29310516 0.648853 -0.70219594 0.0013049534
0.038589243 0.036145739 -0.012101661 -0.31771225 0.6481964 -0.6920262 0.0014191405
0.040899176 0.03667365 -0.012503835 -0.30798116 0.6347363 -0.70870131 0.0016175105
0.04362629 0.037369702 -0.013054389 -0.29699495 0.5835048 -0.75585461 0.0014444677
0.046466142 0.03753436 -0.013849978 -0.21217832 0.50811929 -0.83474255 0.0014129267
0.049426377 0.03773623 -0.014397352 -0.14140201 0.44478759 -0.88440353 0.001999046
0.052502949 0.037961502 -0.014616948 -0.028854566 0.34357417 -0.9386822 0.0034587209
0.055566851 0.037686601 -0.014606829 0.11383922 0.23137501 -0.96618128 0.0042478559
0.058506012 0.037591949 -0.014142024 0.23056123 0.14386158 -0.96236444 0.0043110237
0.061349943 0.037655845 -0.013177583 0.35316706 0.04371601 -0.93453836 0.0040801959
0.063347742 0.037772104 -0.012240106 0.48326313 -0.029031388 -0.87499368 0.0027075827
-0.06052937 0.040738214 -0.012270526 -0.41733932 -0.065151989 -0.90641224 0.0041718241
-0.058500458 0.040549595 -0.013064642 -0.30612749 0.016484922 -0.95184779 0.0051808278
-0.055508658 0.04053041 -0.013900911 -0.21032545 0.14089566 -0.96742523 0.006477633
-0.052505936 0.040518124 -0.014335806 -0.075984724 0.25925598 -0.96281493 0.0064791529
-0.049496014 0.04055744 -0.014326318 0.032119308 0.35652199 -0.93373466 0.0054503325
-0.046490114 0.040525734 -0.013979361 0.13803661 0.44937998 -0.88261175 0.0019930613
-0.043501604 0.040488258 -0.013332493 0.23299304 0.53451335 -0.81240988 0.0021804527
-0.040647194 0.040025704 -0.012787055 0.26170835 0.59964103 -0.75626671 0.0020622204
-0.038107071 0.039402705 -0.012387745 0.29147935 0.63401484 -0.71628547 0.0015837857
0.044723488 0.039168332 -0.012132543 -0.32949319 0.59721917 -0.7312752 0.0023915572
0.046828572 0.039664041 -0.012530562 -0.27842751 0.5877831 -0.75959802 0.0022719048
0.049573738 0.040362548 -0.012911811 -0.21893397 0.52689922 -0.82124609 0.0027401976
0.052465688 0.040506117 -0.013432457 -0.1323064 0.45605284 -0.88006294 0.0024486391
0.055473134 0.040556066 -0.013689932 0.0013980595 0.3659831 -0.93062037 0.0037446565
0.058491364 0.040580463 -0.013510798 0.12783518 0.27979776 -0.95151007 0.0043926588
0.061417054 0.040606361 -0.012868204 0.25867671 0.19321546 -0.94644284 0.0034468982
0.063388728 0.040260959 -0.012165154 0.43267411 0.099215619 -0.89607447 0.0043348884
-0.060550336 0.043243289 -0.012200794 -0.33482033 0.11711968 -0.93497503 0.0047631413
-0.058453169 0.043535486 -0.012764993 -0.20966613 0.19778506 -0.95756 0.0040773028
-0.055464223 0.043542754 -0.01321419 -0.093378827 0.30605167 -0.94742435 0.0053853937
-0.052471545 0.043529484 -0.013201702 0.066419423 0.42279464 -0.90378827 0.0034745319
-0.049568292 0.043379832 -0.012926034 0.15938562 0.50745088 -0.84681159 0.0025723381
-0.046675012 0.042846471 -0.012622672 0.20900758 0.56367576 -0.79911542 0.0031694372
-0.04430522 0.042291775 -0.012286969 0.26572341 0.61448812 -0.74282932 0.0018877666
0.050709616 0.042211238 -0.012114953 -0.26935768 0.59675348 -0.75586492 0.0021397138
0.052801635 0.042519305 -0.012327883 -0.19759876 0.53789747 -0.81952488 0.002588399
0.055577401 0.043048579 -0.01252926 -0.095368378 0.46896815 -0.8780511 0.0033131691
0.058485452 0.043318342 -0.012549513 0.038150396 0.37730888 -0.92530131 0.0036227282
0.06125547 0.043139558 -0.012340561 0.20723307 0.27861023 -0.93777972 0.0049314527
0.063234903 0.042713001 -0.012095185 0.30618602 0.23452857 -0.92263019 0.0026606605
-0.06041069 0.045324884 -0.012075676 -0.26349255 0.2183648 -0.93962151 0.0051116711
-0.05825061 0.045612931 -0.012217176 -0.14296134 0.34740919 -0.92675179 0.005194922
-0.055504978 0.045657367 -0.012339237 0.0084624123 0.45642251 -0.88972294 0.0037881415
-0.052750412 0.045405801 -0.012243657 0.12393194 0.52535748 -0.84180784 0.0029102943
-0.050648171 0.045164768 -0.01211482 0.19139682 0.58526039 -0.78793246 0.0018924871
-0.015058036 0.0059862793 -0.0093933698 -0.2022516 -0.74873841 -0.6312567 0.0011306673
-0.013153619 0.0056911525 -0.0095229419 -0.18887727 -0.75534689 -0.62751609 0.0010276525
-0.010455433 0.0055256286 -0.010040868 -0.12944636 -0.69878757 -0.7035194 0.00094354484
-0.0070596375 0.0053870571 -0.010412591 -0.10588644 -0.71773815 -0.68821514 0.00084703212
-0.0044546481 0.0051558302 -0.010536153 -0.084014595 -0.69032371 -0.71860605 0.0011630971
-0.0014746536 0.005094321 -0.010752715 -0.047619741 -0.69526571 -0.71717364 0.0013301858
0.0014198855 0.0048401696 -0.010656399 -0.024422159 -0.69579774 -0.71782243 0.0012636126
0.0045436849 0.0046726367 -0.010618104 -0.0056435419 -0.69638324 -0.71764791 0.0011580064
0.0075681549 0.0048124269 -0.010729649 0.009915486 -0.69097298 -0.72281259 0.0010788572
0.010148294 0.0048537957 -0.010722989 0.026328269 -0.69876403 -0.71486759 0.001238136
0.013198914 0.0052004484 -0.010836659 0.050606679 -0.72878551 -0.68286937 0.0016236097
0.016099524 0.0053911703 -0.010755355 0.07606487 -0.70713729 -0.70297295 0.00085129443
0.01940304 0.0053969836 -0.010174625 0.1236231 -0.75755221 -0.64096171 0.0010757018
0.022261349 0.0056125694 -0.0097490521 0.15536942 -0.78838617 -0.59523737 0.0013399072
0.024625249 0.0058125425 -0.0094282199 0.19045772 -0.79453897 -0.57657057 0.0011874572
-0.022005647 0.0084105991 -0.0096392492 -0.27291653 -0.73650867 -0.61892772 0.00089443178
-0.01924805 0.008025011 -0.010332872 -0.22741693 -0.71796083 -0.65788591 0.0011950468
-0.016439876 0.007849169 -0.010959443 -0.17852814 -0.6797359 -0.71139783 0.00075155089
-0.013549886 0.0071924627 -0.011030633 -0.15451396 -0.66191953 -0.73347658 0.001078824
-0.010820253 0.0066880123 -0.011175766 -0.12470011 -0.6719287 -0.73004228 0.00094630395
-0.0076244855 0.006652128 -0.011637095 -0.098201238 -0.66225195 -0.74281818 0.0011736178
-0.0045936638 0.0063867727 -0.011840617 -0.072761767 -0.66576582 -0.74260461 0.0016339291
-0.001783155 0.0061716675 -0.011864216 -0.039205793 -0.66385621 -0.74683183 0.0019246952
0.0025379425 0.006072259 -0.011939895 -0.02699958 -0.667705 -0.74393618 0.0034805627
0.010546349 0.0060810852 -0.011963447 0.021412851 -0.68614721 -0.72714752 0.0026847676
0.014179875 0.0062489291 -0.011920676 0.054120846 -0.70384574 -0.70828819 0.0013735808
0.017051216 0.0064973417 -0.011843626 0.076818191 -0.68583781 -0.72368884 0.00093230704
0.01978551 0.006494564 -0.011397973 0.11167531 -0.7347616 -0.66906953 0.0011709468
0.02234347 0.0069134431 -0.011380426 0.1153709 -0.68535691 -0.71901 0.0012604097
0.025572697 0.0070689726 -0.010755979 0.18647197 -0.77918422 -0.59841472 0.0012352248
0.028498566 0.0077784196 -0.010642658 0.21589795 -0.76988429 -0.600555 0.0019895376
0.031300381 0.008133362 -0.010072955 0.24871209 -0.78298897 -0.57014966 0.0015900364
0.033867802 0.008579026 -0.0094747953 0.2785646 -0.78138155 -0.55843049 0.001227001
-0.030837797 0.011681867 -0.0094865719 -0.31929722 -0.73735076 -0.59528404 0.0011218857
-0.02836182 0.011423959 -0.010345438 -0.27624694 -0.67706066 -0.6821118 0.00099607045
-0.02542365 0.010615789 -0.010743525 -0.2563203 -0.69762123 -0.66904747 0.0012017798
-0.02261709 0.0096428785 -0.010762514 -0.23556517 -0.67462546 -0.69956386 0.0010787245
-0.019763842 0.009365771 -0.011516081 -0.19994666 -0.63579774 -0.74550825 0.0011700923
-0.017770231 0.0090995226 -0.011998707 -0.18483701 -0.65497404 -0.73269665 0.003678286
0.031739607 0.009450837 -0.011581258 0.22801098 -0.70144725 -0.67526495 0.0010706669
0.034610208 0.0099085607 -0.010862649 0.27198747 -0.76111937 -0.58882946 0.0012644712
0.037419293 0.010951634 -0.010810812 0.30193785 -0.7297278 -0.61345816 0.001785741
0.040502086 0.011500156 -0.0097561171 0.35003895 -0.73122776 -0.58547312 0.0011071173
0.042100124 0.011872142 -0.0093224216 0.36202434 -0.74644226 -0.55835682 0.0016212016
-0.036777318 0.014659936 -0.0097814212 -0.36470988 -0.69809592 -0.61615646 0.00088572328
-0.034141127 0.013924872 -0.010452788 -0.31747639 -0.68214089 -0.65870523 0.0011059621
-0.031766575 0.013590953 -0.011194942 -0.29065657 -0.67692161 -0.67623663 0.00096877955
-0.0281082 0.012393286 -0.011489502 -0.2458607 -0.63141298 -0.73543882 0.001171249
-0.026521837 0.012148981 -0.011880252 -0.24543215 -0.6385867 -0.72936279 0.0014043966
0.03828036 0.012175149 -0.011921907 0.29020688 -0.69387776 -0.65902472 0.0025284144
0.040672496 0.012761274 -0.011247085 0.32422981 -0.69576627 -0.64092457 0.0013705947
0.043674819 0.013691394 -0.010615919 0.36904842 -0.71033168 -0.59935981 0.0012198684
0.046187319 0.014550105 -0.0099360161 0.40980911 -0.70467639 -0.5792129 0.00098537118
-0.042651623 0.017787987 -0.0095167179 -0.4457837 -0.66686529 -0.59713274 0.00092114339
-0.04051239 0.017067289 -0.010238153 -0.40533349 -0.67041343 -0.62149066 0.0013905291
-0.037768714 0.016235484 -0.010945901 -0.35848576 -0.6669063 -0.6532411 0.0013866775
-0.03504255 0.01548254 -0.011582199 -0.30440423 -0.63830596 -0.70703852 0.0014637925
0.044429261 0.015068657 -0.011848659 0.38284624 -0.6556648 -0.65079379 0.0037700301
0.046755031 0.015998991 -0.01124046 0.39122969 -0.67147499 -0.62933356 0.0013437347
0.04935284 0.016727997 -0.010267842 0.43080777 -0.66668594 -0.60822248 0.0014559373
0.051650584 0.017581429 -0.009441182 0.47672814 -0.65539962 -0.5858171 0.00089416408
-0.045731038 0.020495337 -0.010159798 -0.46079844 -0.63716024 -0.61781186 0.001104212
-0.043493692 0.019430786 -0.010624475 -0.43144295 -0.64138371 -0.63441616 0.0014738013
-0.040979639 0.018687906 -0.011546127 -0.38254842 -0.62161213 -0.68356049 0.0014026238
0.050182667 0.018509485 -0.011605858 0.43305507 -0.61675203 -0.65732813 0.0014767746
0.052529693 0.019556616 -0.01084136 0.46727818 -0.60877532 -0.64112687 0.0012287529
0.054888315 0.020245034 -0.0097073205 0.50979114 -0.6182574 -0.59822297 0.00095833011
-0.051197231 0.023630666 -0.0091516823 -0.50043494 -0.64873761 -0.57332754 0.001324066
-0.049060732 0.022906046 -0.010089141 -0.47781259 -0.62659508 -0.61568964 0.0012742984
-0.046841081 0.022153262 -0.011003356 -0.44561011 -0.6063785 -0.65858698 0.0021544679
-0.044592462 0.021302197 -0.011737587 -0.4257451 -0.59948826 -0.67775726 0.0019853632
0.053573415 0.021438476 -0.011857918 0.46291625 -0.54726338 -0.69728857 0.0014085647
0.055608682 0.022271095 -0.011033112 0.49550542 -0.51609296 -0.69865757 0.0017623182
0.057864886 0.023013521 -0.009730489 0.56110162 -0.56205601 -0.60766602 0.0011943877
-0.054313708 0.026544778 -0.0095216837 -0.5216468 -0.59932721 -0.60719979 0.0010902671
-0.052261226 0.025788479 -0.01045297 -0.49080747 -0.58543152 -0.64527363 0.001667194
-0.049805079 0.024815777 -0.01135629 -0.43968543 -0.55957443 -0.70253342 0.0017921744
0.0021376261 0.026984651 -0.01197629 0.041395012 0.69342119 -0.71934241 0.0015946253
0.056751121 0.024225408 -0.011636858 0.52172607 -0.49875757 -0.69212919 0.00058202882
0.05851442 0.025437536 -0.011210837 0.49847147 -0.41731039 -0.75985408 0.0011936921
0.060776658 0.02604511 -0.0097651817 0.58835548 -0.50747949 -0.62952554 0.0014194002
-0.057478677 0.029473882 -0.009524948 -0.55598122 -0.54036289 -0.63157964 0.0011570379
-0.055492088 0.02881372 -0.010611991 -0.50639814 -0.50986594 -0.69541174 0.0017787748
-0.053213596 0.027792046 -0.011454586 -0.49924222 -0.54650533 -0.67237568 0.0015601398
-0.012676299 0.029738419 -0.011706653 0.19793428 0.70388997 -0.68217361 0.0014820591
-0.0103144 0.029441928 -0.011439309 0.16366622 0.71011364 -0.68480068 0.0013823011
-0.0074169077 0.029096209 -0.011137728 0.13703167 0.71407706 -0.68652475 0.0016840826
-0.0044534043 0.028875073 -0.010869179 0.11000051 0.74534035 -0.65754664 0.0012830214
-0.0014738366 0.02868099 -0.010661673 0.079396151 0.74489194 -0.66244417 0.0018077468
0.0015096129 0.028543279 -0.0105761 0.038122121 0.74490887 -0.66607618 0.0022812989
0.0045099384 0.028508017 -0.010536048 -0.0047274739 0.75086242 -0.6604417 0.0021505253
0.0075411997 0.028559415 -0.010557231 -0.044823211 0.75927174 -0.64922816 0.0019666764
0.010506605 0.02875071 -0.01063912 -0.083972737 0.75659269 -0.64847207 0.0016155839
0.013438009 0.028941451 -0.010825408 -0.12210014 0.76067525 -0.63754594 0.0017100504
0.016385283 0.029201852 -0.011181795 -0.15610248 0.74207342 -0.65188879 0.0014741154
0.01923834 0.029555731 -0.011500335 -0.18817702 0.70659351 -0.68214011 0.00086129346
0.021514526 0.029861523 -0.011859524 -0.21816246 0.70551014 -0.67428517 0.0018252233
0.059662331 0.027509913 -0.011679209 0.54722708 -0.38347667 -0.74396783 0.0013697293
0.061440729 0.028773168 -0.010963091 0.54948008 -0.34695023 -0.76006395 0.0014388133
0.063325487 0.029114375 -0.0095184101 0.6297428 -0.42673931 -0.64908975 0.0021362368
-0.060361821 0.032580383 -0.0093638999 -0.60126561 -0.47412893 -0.64318079 0.0017259767
-0.058202147 0.031785157 -0.010546949 -0.53813297 -0.43279377 -0.7232582 0.0018494476
-0.056264922 0.031034661 -0.011565545 -0.4977341 -0.39671463 -0.77128357 0.0019399509
-0.021727217 0.032732096 -0.011709716 0.26571944 0.69132543 -0.67190939 0.0018658176
-0.019268917 0.032295786 -0.011265676 0.24782875 0.71617812 -0.65243381 0.0015099902
-0.016407602 0.031820949 -0.01071167 0.23692514 0.74508625 -0.6234684 0.0013058577
-0.013567044 0.031227579 -0.010420348 0.19977009 0.74165601 -0.64034235 0.0021878502
-0.010603351 0.030815242 -0.010033919 0.17892057 0.74963647 -0.63720679 0.0015132321
-0.0076784478 0.030466042 -0.0096902447 0.14568181 0.76293737 -0.62984389 0.001509849
-0.0047488008 0.030220032 -0.0093714781 0.11314064 0.77335775 -0.62379235 0.0011480447
-0.0021438815 0.03006183 -0.0091345999 0.083360985 0.77527213 -0.62610239 0.0011491346
0.00029708896 0.030030912 -0.009032785 0.041521173 0.77544028 -0.63005424 0.00097796624
0.011120444 0.030067174 -0.0091274288 -0.083892323 0.79281551 -0.60366023 0.0013904208
0.013799683 0.030217929 -0.009347287 -0.12082294 0.78637552 -0.60581797 0.001359737
0.016631974 0.030495869 -0.0097222226 -0.16549295 0.77774525 -0.60640293 0.0013881261
0.019656852 0.030896947 -0.01010508 -0.20173259 0.77248234 -0.60214204 0.0016384604
0.022563653 0.031390756 -0.010497771 -0.22518294 0.75119114 -0.62048733 0.0012060446
0.025375294 0.032007527 -0.010818042 -0.2368218 0.75503701 -0.61142021 0.0010449734
0.028242039 0.032485139 -0.011346729 -0.24571642 0.71959132 -0.64947039 0.00081476942
0.030394595 0.032792117 -0.011834176 -0.26087758 0.69572413 -0.66926134 0.0030483068
0.062286388 0.031394988 -0.0115055 0.53226358 -0.26774126 -0.8031252 0.0015274526
0.064029053 0.03172984 -0.010293355 0.6044718 -0.29148501 -0.74138415 0.0013433015
-0.0630202 0.035748746 -0.009125825 -0.61617798 -0.43122301 -0.6590687 0.0027934357
-0.061080944 0.034932334 -0.010154303 -0.58230287 -0.38965875 -0.71350503 0.0016115765
-0.059071865 0.034319822 -0.011387137 -0.51396185 -0.34563908 -0.7850967 0.0016691212
-0.030249765 0.035911411 -0.011982647 0.30755487 0.64438522 -0.70012701 0.0037080809
-0.028026788 0.035513036 -0.011544694 0.30050495 0.65112984 -0.69694096 0.0014199453
-0.025331279 0.034956235 -0.010899874 0.30245429 0.72757781 -0.61575323 0.0013340344
-0.02259591 0.034249879 -0.010426761 0.27409962 0.7397716 -0.6144976 0.0020397685
-0.01970618 0.033645228 -0.0098943058 0.2676661 0.75249738 -0.60174948 0.0013400909
-0.017331403 0.033235721 -0.0093125924 0.24867077 0.76126695 -0.59886187 0.001153052
0.023516489 0.033013847 -0.0090513565 -0.24965599 0.78167069 -0.57154435 0.0010396403
0.025995208 0.033324674 -0.0094519146 -0.24346811 0.77712911 -0.58033919 0.00095266377
0.028687006 0.033771574 -0.0099881189 -0.25878239 0.76586103 -0.58863282 0.0015811389
0.031555828 0.03439207 -0.010476388 -0.27853248 0.75710022 -0.59094751 0.0014515735
0.03430761 0.035105817 -0.0109148 -0.30797562 0.73700196 -0.60164702 0.0017075054
0.036744583 0.03562868 -0.011596101 -0.31904593 0.66819382 -0.67210627 0.0017460519
0.062865183 0.033441674 -0.01184803 0.56189907 -0.20133427 -0.80233026 0.0020353633
0.064477913 0.034543708 -0.010916934 0.57622528 -0.18364061 -0.7963922 0.0014595985
0.06648092 0.035123955 -0.0094233425 0.65436298 -0.21283321 -0.72561085 0.001477669
-0.063628525 0.037896398 -0.0095657185 -0.60255188 -0.32013229 -0.73105848 0.002148001
-0.061543051 0.037509166 -0.010961871 -0.54311204 -0.26704565 -0.79606283 0.0021864676
-0.059790466 0.03676565 -0.011862657 -0.48542991 -0.2075139 -0.84929132 0.0029132911
-0.036270797 0.038941782 -0.011830599 0.31280652 0.66179842 -0.68130386 0.00202772
-0.034137566 0.03846357 -0.011449137 0.31705141 0.67660481 -0.6645934 0.0015684352
-0.031380896 0.03778765 -0.010759595 0.32967809 0.72139835 -0.6090129 0.0013479264
-0.028690672 0.036980938 -0.010270707 0.32365674 0.73213518 -0.59935337 0.0017519421
-0.026132749 0.036369052 -0.0095869573 0.31852603 0.74454904 -0.58667529 0.0012181252
0.032999869 0.036107365 -0.0091090174 -0.33067989 0.76928502 -0.54667312 0.00073918165
0.035008725 0.036475785 -0.0096500786 -0.33284736 0.7512992 -0.56987906 0.0012527629
0.037682299 0.037144799 -0.010331123 -0.34428868 0.72170997 -0.60049981 0.0018760017
0.040307321 0.038027432 -0.010897718 -0.35863692 0.70078474 -0.6166687 0.0018196442
0.042663727 0.038599022 -0.011644945 -0.34246731 0.65377688 -0.67475325 0.0014592836
0.064849019 0.037549987 -0.011236349 0.54735154 -0.086472742 -0.83242345 0.0015779389
0.066756628 0.037810039 -0.0098008411 0.63375878 -0.11057571 -0.76558656 0.002078413
-0.066093206 0.041738268 -0.0091156438 -0.64934522 -0.24811122 -0.7188822 0.003153797
-0.064132139 0.04069544 -0.010092546 -0.5582056 -0.18604685 -0.80857474 0.0033510046
-0.061952587 0.04044975 -0.011474562 -0.4851369 -0.12158036 -0.86594474 0.0027599856
-0.042301215 0.041815341 -0.011854227 0.29243135 0.64528388 -0.70575672 0.0016632839
-0.040129416 0.041429814 -0.011359137 0.30391914 0.66781527 -0.67945266 0.0017090273
-0.03738616 0.040701058 -0.010721509 0.33057386 0.70695817 -0.62524492 0.001484198
-0.034687366 0.039952595 -0.010100861 0.34902957 0.72275662 -0.59649068 0.0014960951
-0.032259647 0.039297584 -0.009446987 0.3603687 0.73876017 -0.56953299 0.0012492135
0.041030001 0.03957342 -0.0096116113 -0.40373179 0.71055114 -0.57629663 0.0015238281
0.043611273 0.040318895 -0.010379932 -0.35857928 0.67686951 -0.6428597 0.0014119083
0.046236571 0.041041695 -0.011109203 -0.33303794 0.63805503 -0.69424176 0.0015907761
0.048737291 0.041646231 -0.011699829 -0.27649066 0.61552054 -0.73802936 0.0018989313
0.064776763 0.040637717 -0.011411643 0.45780674 0.063458614 -0.88678414 0.0043975809
0.066966891 0.040615272 -0.0099411458 0.59197712 -0.0013843261 -0.80595362 0.002858981
-0.066318609 0.044056438 -0.0092251813 -0.59671628 -0.11581654 -0.79405051 0.0032633939
-0.064492635 0.043543357 -0.010346202 -0.51728529 -0.076412499 -0.85239488 0.0026172523
-0.06201015 0.043642119 -0.01159899 -0.38667166 0.042571392 -0.92123437 0.0052641132
-0.05994029 0.04479897 -0.011963272 -0.27615318 0.15608937 -0.94835413 0.0050694747
-0.048750784 0.044721078 -0.01182545 0.20746107 0.59730947 -0.7747137 0.0023465864
-0.046298597 0.044265006 -0.011388406 0.26765805 0.62633884 -0.73216045 0.001446477
-0.043416888 0.043629516 -0.010715589 0.30814263 0.65394408 -0.69094515 0.0012955469
-0.040727105 0.042962149 -0.010044999 0.35097516 0.7079519 -0.61287892 0.0018116143
-0.038423818 0.042339657 -0.009461238 0.36896116 0.72454488 -0.58215314 0.001440009
0.044761889 0.04214897 -0.0092244502 -0.42177466 0.70544356 -0.56960994 0.001616664
0.04684576 0.042712674 -0.0097756768 -0.38518581 0.67794275 -0.62611938 0.0016033566
0.049556583 0.043460283 -0.010448211 -0.31353465 0.63232476 -0.70842177 0.0015039039
0.052340928 0.043984447 -0.011152413 -0.25046366 0.58227962 -0.77344584 0.0013369353
0.055252224 0.044457108 -0.011635393 -0.16985008 0.52376109 -0.83476061 0.0023466679
0.058348615 0.044737067 -0.011868636 -0.035543885 0.44008744 -0.89725119 0.0034712912
0.061912607 0.044385899 -0.011816996 0.15515402 0.30596775 -0.93931413 0.0056362338
0.064404279 0.043558013 -0.011271833 0.35268298 0.19803262 -0.9145478 0.0048558139
0.066884629 0.043612834 -0.0099218786 0.5212068 0.11353265 -0.84584504 0.0035378309
-0.066422619 0.046582807 -0.0092307525 -0.5200156 0.039533742 -0.85324138 0.0052929427
-0.064494342 0.04650959 -0.010238388 -0.38773596 0.15000659 -0.90948278 0.0062951241
-0.061487034 0.046576973 -0.011314619 -0.2582258 0.26825836 -0.92809314 0.0076024458
-0.058597934 0.047053155 -0.011599758 -0.056835294 0.40734667 -0.91150337 0.0054045501
-0.055435445 0.047138825 -0.011485606 0.079193242 0.51256222 -0.8549903 0.0026618999
-0.052418321 0.046857551 -0.01118784 0.17462325 0.57380003 -0.80016267 0.0017124886
-0.049514662 0.046503227 -0.010579358 0.2433297 0.62365365 -0.74286395 0.0011677806
-0.046678036 0.045915175 -0.0099582942 0.32137451 0.68408346 -0.65478867 0.001718646
-0.044277865 0.045360401 -0.0093445182 0.35831138 0.69713491 -0.62097973 0.0017027241
0.050589245 0.045265496 -0.0092299907 -0.37574717 0.66846949 -0.64184314 0.0018818352
0.052748356 0.045870226 -0.0097324047 -0.31750011 0.64924657 -0.69113857 0.0022064706
0.055554122 0.046488207 -0.010274729 -0.24816445 0.58363944 -0.77316195 0.0025301632
0.058449771 0.046573747 -0.010880462 -0.084561072 0.49382064 -0.8654424 0.0029480106
0.061436847 0.046590347 -0.010980055 0.071020022 0.40573627 -0.91122681 0.0052024731
0.064448431 0.046529602 -0.010465299 0.26170161 0.30119184 -0.91694915 0.0059513333
0.066796891 0.04645687 -0.0095188553 0.45318606 0.21373272 -0.86541361 0.0043495041
-0.066254281 0.048739891 -0.0091344463 -0.37986377 0.20503329 -0.90203369 0.0082586678
-0.064358354 0.049446877 -0.0096021714 -0.25527912 0.28976744 -0.92242479 0.0063472725
-0.06148218 0.049527992 -0.010104121 -0.12806652 0.4321343 -0.89266956 0.0066744643
-0.05849782 0.049537987 -0.010192893 0.041648962 0.55797589 -0.82881135 0.0040508239
-0.055575352 0.049235344 -0.010043159 0.14354984 0.61710197 -0.7736786 0.0035780396
-0.052701399 0.048738271 -0.0096953372 0.23986752 0.66442907 -0.70781171 0.0024701112
-0.050476667 0.048285287 -0.0092948955 0.30657467 0.67655134 -0.66954488 0.0024843581
0.056497008 0.048278984 -0.0091999741 -0.28832397 0.63560021 -0.71615756 0.0027491229
0.058710724 0.048740759 -0.0094934972 -0.18630575 0.58319426 -0.79067987 0.0040168441
0.061537776 0.04914616 -0.0096577816 -0.036414787 0.4957253 -0.8677156 0.0048895562
0.06433519 0.049210414 -0.0095131667 0.15386541 0.38200715 -0.9112606 0.0058604493
0.066349342 0.048653428 -0.0091988882 0.35576048 0.29320374 -0.88739282 0.0063568633
-0.06359759 0.051209573 -0.0090830736 -0.13953558 0.42737985 -0.8932392 0.0085105486
-0.061660089 0.051232558 -0.0091567123 -0.014476959 0.56549925 -0.82462168 0.0051809819
-0.059102535 0.051168475 -0.0091175707 0.10244399 0.65473866 -0.7488808 0.0025912728
-0.0073232637 0.0026559141 -0.0063488125 -0.13584098 -0.8582108 -0.49499652 0.0019635225
-0.0043180771 0.0026833806 -0.0072753262 -0.10191778 -0.83982456 -0.53320491 0.0013436896
-0.0014206663 0.0025968729 -0.0074396078 -0.048337936 -0.84368122 -0.53466386 0.0012421646
0.0011939476 0.0025060873 -0.0075364402 -0.031281207 -0.82974601 -0.55726391 0.0010706744
0.0042084996 0.0024783867 -0.0076631354 -0.010433357 -0.83053929 -0.55686229 0.0011391029
0.0072787763 0.0026660601 -0.0078075044 0.026741717 -0.85545152 -0.51719207 0.0015256511
0.010111636 0.0022245678 -0.0068321754 0.052174266 -0.88050717 -0.4711529 0.0010350221
0.012818694 0.0026115398 -0.0071840733 0.081417456 -0.86651772 -0.49246132 0.0014976286
0.016233843 0.0026608622 -0.0064406311 0.10501916 -0.86827749 -0.48483521 0.0011370529
0.018692005 0.0029270351 -0.0064014336 0.16287774 -0.89405131 -0.41730464 0.0013463066
-0.019217402 0.0055657323 -0.0068891076 -0.25394231 -0.81993073 -0.51305646 0.0011011669
-0.016329244 0.0051786262 -0.0075350143 -0.21577522 -0.82120228 -0.52826875 0.0011370745
-0.013490748 0.0046002897 -0.0078184055 -0.20099375 -0.81289792 -0.5466246 0.0014656121
-0.010551606 0.0039429935 -0.0078375284 -0.15147887 -0.83100992 -0.53523523 0.0012719266
-0.0073017096 0.0036889829 -0.0081922729 -0.11892946 -0.81457275 -0.56773853 0.0018498003
-0.0048658843 0.003505494 -0.0084392345 -0.10477452 -0.81611037 -0.56831872 0.0015779706
-0.0021213775 0.0034357039 -0.0087345736 -0.068648271 -0.80438364 -0.59013081 0.0014660675
0.00095436908 0.0033302407 -0.0088059073 -0.03601234 -0.79518259 -0.60529977 0.00075144158
0.0052399486 0.0032441576 -0.0088883722 -0.0018149037 -0.80807805 -0.58907264 0.00077057141
0.0073264195 0.0031459995 -0.0086161019 0.030673262 -0.81480217 -0.5789271 0.0015050897
0.010515334 0.0032259342 -0.0085852463 0.04515624 -0.81880897 -0.57228738 0.0014962677
0.0137152 0.003479192 -0.0084976787 0.082517974 -0.83530885 -0.54355299 0.0015148584
0.016560864 0.0035881642 -0.0081445472 0.10284809 -0.84254277 -0.52871919 0.0013690506
0.019610934 0.0039160722 -0.0078775669 0.13922283 -0.83800572 -0.5276016 0.0010541632
0.022532674 0.0044216909 -0.0077440552 0.17651227 -0.84267658 -0.50866449 0.00095095561
0.025292799 0.0050195106 -0.007781893 0.19765209 -0.82823706 -0.5243634 0.0010455681
0.028120792 0.0056110159 -0.0074454988 0.22674404 -0.83495384 -0.50143719 0.00095648039
0.030685615 0.0058096638 -0.006380057 0.25777024 -0.84305692 -0.472027 0.00097879814
-0.028012738 0.008680365 -0.0066377074 -0.34135664 -0.82325536 -0.45357054 0.0013716709
-0.025234979 0.0082744323 -0.0077344682 -0.29858479 -0.79405963 -0.52944916 0.0012709297
-0.022576131 0.0072572576 -0.0076604076 -0.2937493 -0.79899871 -0.52470225 0.0013210153
-0.019768804 0.0065405201 -0.0081662629 -0.25268346 -0.78966123 -0.55909407 0.0014623015
-0.017390009 0.006144654 -0.0086029395 -0.22139506 -0.79905087 -0.55901873 0.00097035163
0.028657231 0.0063973796 -0.0086657573 0.22914538 -0.83032858 -0.50798303 0.0013047969
0.031346601 0.006600834 -0.0075457543 0.25266218 -0.82930022 -0.49842039 0.00083049713
0.034570981 0.0077436031 -0.0075803143 0.29216588 -0.81767762 -0.49602666 0.00081151817
0.037451506 0.0085246367 -0.007013421 0.31525001 -0.81396353 -0.48793522 0.00086969981
0.039239187 0.0089032985 -0.006486984 0.35388368 -0.82279497 -0.44471887 0.00090865622
-0.036214426 0.011976466 -0.0062495042 -0.43279019 -0.81474113 -0.38586214 0.0036013031
-0.034094259 0.011587877 -0.0072766789 -0.35916397 -0.78856534 -0.49916527 0.00081107579
-0.031509981 0.010886862 -0.0078746201 -0.3323817 -0.78071332 -0.52915889 0.0010923153
-0.028679408 0.0097720223 -0.0079786675 -0.32257536 -0.78910422 -0.52274239 0.0011919171
-0.026485268 0.0092666764 -0.0085597737 -0.28729632 -0.77004421 -0.56964266 0.00088205782
0.037865963 0.0094561568 -0.0084832665 0.32074326 -0.7971099 -0.51160491 0.00062870031
0.040628932 0.010249966 -0.0076655932 0.35515559 -0.78571397 -0.50647604 0.00077729468
0.043365669 0.011269602 -0.0071817301 0.39482188 -0.79548049 -0.45970258 0.0013491473
0.045163453 0.011782348 -0.0066518248 0.41113791 -0.80198622 -0.43334019 0.0016071579
-0.040017199 0.014508415 -0.0071623023 -0.42506117 -0.76852936 -0.47821084 0.0010026852
-0.03759763 0.01367203 -0.0077995257 -0.39433268 -0.76103652 -0.51509726 0.0010749957
-0.034527667 0.012641939 -0.008622813 -0.33809429 -0.71690041 -0.60970986 0.00082514615
0.044149421 0.012376023 -0.0085077789 0.39089635 -0.77830368 -0.49136892 0.0012963462
0.046379354 0.013256562 -0.0078912051 0.42583767 -0.75830507 -0.49359468 0.00082231552
0.049103037 0.014343391 -0.0070291362 0.45974094 -0.75276589 -0.47114944 0.0010850038
-0.045473915 0.017626241 -0.0065250304 -0.50281006 -0.73696947 -0.45172799 0.00077093951
-0.043499764 0.017064797 -0.0077506308 -0.46648911 -0.6995849 -0.54126596 0.00075007923
-0.041235246 0.015592189 -0.0078503173 -0.4328433 -0.70508128 -0.56170017 0.0011643977
-0.038827356 0.015071234 -0.0087779239 -0.38733342 -0.68865013 -0.61297131 0.00079327251
0.0500485 0.015569623 -0.0081618438 0.45438597 -0.72352684 -0.51965588 0.00061476574
0.052573707 0.016877715 -0.0074951299 0.4957611 -0.71099365 -0.49870726 0.0013238016
0.054392152 0.017810339 -0.0068188291 0.53873098 -0.72243911 -0.43341741 0.00095840567
-0.048663408 0.020578371 -0.0075776898 -0.50163376 -0.67665231 -0.53898543 0.00087547814
-0.04658629 0.019384477 -0.0080338446 -0.49026203 -0.68785 -0.53526205 0.00080067135
-0.044476349 0.01833461 -0.008606052 -0.4799307 -0.69388121 -0.53683841 0.0017262935
0.053750064 0.018336242 -0.0084323864 0.51704055 -0.68611377 -0.51177824 0.0018567252
