# .PCD v0.7 - Point Cloud Data file format
VERSION 0.7
FIELDS x y z normal_x normal_y normal_z curvature
SIZE 4 4 4 4 4 4 4
TYPE F F F F F F F
COUNT 1 1 1 1 1 1 1
WIDTH 560
HEIGHT 1
VIEWPOINT 0 0 0 1 0 0 0
POINTS 560
DATA ascii
0.016565857 0.058702976 -0.0246475 -0.33367795 -0.24696727 -0.90976167 0.0026831308
0.019514022 0.058736742 -0.025679016 -0.29363754 -0.26062629 -0.91970158 0.0044313557
0.022460125 0.058521762 -0.026312673 -0.23110467 -0.29446587 -0.92729741 0.0041439859
0.025868697 0.057870749 -0.026630502 -0.06637229 -0.43204135 -0.8994081 0.0024313056
0.028732702 0.057436071 -0.026578078 0.019114157 -0.48043701 -0.87682092 0.0022853389
0.031688116 0.057678904 -0.026580308 0.084148079 -0.49426517 -0.86522889 0.0025274886
0.034595832 0.058054037 -0.026365265 0.19445696 -0.46436259 -0.86403352 0.0024237337
0.037484806 0.058472611 -0.025746547 0.31704438 -0.47624397 -0.82016742 0.0029677339
0.040107757 0.058932859 -0.024801996 0.47311616 -0.47951207 -0.73907328 0.0025022682
0.016492018 0.061469585 -0.024919396 -0.38486719 0.0053250408 -0.92295665 0.0026216197
0.019715909 0.061413661 -0.026068825 -0.32994407 -0.061811619 -0.9419747 0.0028846702
0.02175582 0.060934711 -0.026746152 -0.27419099 -0.076064117 -0.95866239 0.0065099061
0.038201407 0.061137743 -0.026722247 0.31432739 -0.29403773 -0.90262955 0.00289567
0.040642463 0.061438002 -0.025698652 0.45949656 -0.30104974 -0.83560276 0.0033819184
0.042716764 0.061923943 -0.024578827 0.57483613 -0.32213959 -0.75218982 0.0034197508
0.016766137 0.064380474 -0.024658859 -0.38378951 0.24822935 -0.88943118 0.0050796946
0.019556019 0.064458467 -0.025846075 -0.35317191 0.16683456 -0.9205628 0.0026017707
0.022119716 0.065178238 -0.026626991 -0.30420452 0.19207896 -0.93304092 0.0030086411
0.040544055 0.064347789 -0.02639888 0.44887996 -0.075804621 -0.89037097 0.0029836718
0.043058239 0.06460271 -0.024930742 0.58755511 -0.08307258 -0.80490869 0.0043520122
0.01741383 0.066628024 -0.024201175 -0.42366546 0.418571 -0.80330938 0.003152526
0.019612458 0.067378499 -0.024862202 -0.37360707 0.42106703 -0.82651091 0.0036997823
0.022564316 0.067595281 -0.025985951 -0.31293565 0.35697114 -0.88013798 0.0017582583
0.025238173 0.068177924 -0.026609318 -0.25410154 0.35832018 -0.89835358 0.0027554187
0.027235819 0.068829879 -0.02686505 -0.22928222 0.40460122 -0.88528389 0.0058100796
0.038392141 0.068221718 -0.026851054 0.26388532 0.23662685 -0.9350788 0.0040091025
0.040630423 0.067400843 -0.026169345 0.41044939 0.17340502 -0.89524406 0.0039894814
0.043102644 0.067436635 -0.024741001 0.58539242 0.17841224 -0.79087603 0.0049260994
0.020627676 0.069266334 -0.024247497 -0.38905463 0.57280403 -0.72147906 0.0028699194
0.022559091 0.069888435 -0.024721043 -0.33927631 0.55918992 -0.75643784 0.0030142856
0.025505669 0.070538357 -0.025378367 -0.27104315 0.50896329 -0.81700182 0.0021865293
0.02839173 0.07058531 -0.026126195 -0.18423426 0.49766731 -0.84757602 0.0019518937
0.03143619 0.070935734 -0.026395641 -0.060393222 0.50407124 -0.86154795 0.0026839941
0.034559395 0.070929497 -0.026414266 0.06123329 0.49743015 -0.86534023 0.002732947
0.037588481 0.070603386 -0.026076488 0.20591307 0.46650147 -0.8602187 0.0024469597
0.040831871 0.070447162 -0.024956072 0.46288967 0.38686341 -0.79753983 0.0085370895
0.042627934 0.069566652 -0.024403386 0.53741521 0.31222752 -0.78338933 0.0045077642
0.025874889 0.072237514 -0.024194878 -0.27389362 0.65243751 -0.70661706 0.0017758427
0.028690549 0.072637141 -0.024715941 -0.18639907 0.62657934 -0.75673896 0.0022417123
0.031489499 0.072994955 -0.024911186 -0.082965836 0.65483135 -0.75120747 0.002201153
0.034462944 0.073052436 -0.024945298 0.061055757 0.64380741 -0.76274788 0.0025853321
0.037374947 0.072827607 -0.024663923 0.21352479 0.62619609 -0.74985713 0.0029401332
0.039667103 0.072346501 -0.024266513 0.35547101 0.6007179 -0.71608543 0.0034564768
0.034402385 -0.075531058 -0.021783467 0.072183155 -0.81995338 -0.56786102 0.0016076107
0.037129726 -0.075368628 -0.021463379 0.22379223 -0.79020399 -0.57052141 0.0016877272
0.034561899 -0.074591905 -0.023000002 0.017615881 -0.75068742 -0.66042268 0.0030058196
0.037564442 -0.074042812 -0.023011727 0.20111866 -0.72858 -0.654769 0.0034492756
0.040930599 -0.072833583 -0.022689812 0.42795643 -0.5962323 -0.67923504 0.0052533788
0.042955663 -0.072577983 -0.021536052 0.53815353 -0.61313373 -0.5783233 0.0025534888
0.041588586 -0.071697533 -0.023444926 0.43132675 -0.62455773 -0.6510644 0.0031974704
0.043768734 -0.070503533 -0.022611253 0.59574473 -0.43261901 -0.67670459 0.0035031706
0.045471381 -0.069479361 -0.021696808 0.70410693 -0.38904628 -0.59403402 0.0045244014
0.044497363 -0.067500956 -0.023503354 0.65917265 -0.18280882 -0.72943294 0.0045266412
0.045824558 -0.067281105 -0.022191603 0.7599293 -0.18329988 -0.62362534 0.0060018729
0.04467275 -0.064321078 -0.023602895 0.6857689 0.067749143 -0.72465926 0.0038189343
0.046154749 -0.064098872 -0.021788895 0.81365633 0.13979572 -0.5642876 0.0039285277
0.011055215 -0.060610641 -0.022156388 -0.45891726 0.16064259 -0.87383574 0.0014530909
0.012937162 -0.060576849 -0.023187663 -0.42688864 0.14481035 -0.89263433 0.002308721
0.0441879 -0.060966577 -0.022935269 0.67883819 0.34358042 -0.64894623 0.003368824
0.045619201 -0.061843637 -0.021729859 0.76378602 0.30688909 -0.56784678 0.0037749913
0.010915625 -0.058469277 -0.021988649 -0.46625093 0.17912173 -0.86632878 0.0011894209
0.013314367 -0.058114126 -0.023168411 -0.44337347 0.16344172 -0.88130969 0.0016635481
0.015336341 -0.057271022 -0.023897238 -0.38393298 0.19426356 -0.9026944 0.0035718416
0.041352529 -0.057765111 -0.023444252 0.55331194 0.50977433 -0.65876865 0.0030907691
0.043318551 -0.058583558 -0.022244999 0.62819463 0.47914407 -0.61301917 0.0020883887
0.045272406 -0.059799004 -0.021034878 0.72287256 0.43963844 -0.53307909 0.0035736607
0.011056657 -0.055872176 -0.021407938 -0.42207536 0.36517259 -0.8297599 0.0051038824
0.013552975 -0.05537241 -0.022367731 -0.36866117 0.40893808 -0.83478063 0.0039720652
0.016188174 -0.055180628 -0.023312153 -0.32111046 0.4081724 -0.85456622 0.0023146733
0.018922625 -0.054428056 -0.023709347 -0.18854435 0.60108966 -0.77662235 0.0027547998
0.021050297 -0.054072149 -0.02397321 -0.18534917 0.63665164 -0.74854553 0.0044051381
0.035009954 -0.054260883 -0.023601223 0.23763834 0.72278321 -0.6489318 0.0016053304
0.037374958 -0.054813605 -0.023191003 0.35424447 0.6763407 -0.64581275 0.0029261687
0.040416278 -0.055719305 -0.02222506 0.4686231 0.64294487 -0.60581702 0.0019437354
0.042460561 -0.056676999 -0.021423185 0.59874773 0.56282115 -0.56985396 0.0020141127
0.014093419 -0.053286154 -0.021397414 -0.32127288 0.55154353 -0.7697944 0.0023786332
0.016679982 -0.052942324 -0.021971555 -0.22794768 0.62726194 -0.74470294 0.0031802859
0.019531451 -0.051930394 -0.021808807 -0.0781103 0.76296437 -0.64170414 0.001601117
0.022451267 -0.051897854 -0.022134315 -0.029094547 0.79460663 -0.60642719 0.00060881081
0.025681002 -0.0521366 -0.022540208 0.014620669 0.79765892 -0.60293156 0.00051591382
0.028543875 -0.052096903 -0.022304904 0.065930627 0.79571557 -0.60207129 0.00059881137
0.031622346 -0.05254313 -0.022440828 0.12708491 0.77673554 -0.61687219 0.00078032818
0.034310598 -0.052975792 -0.022284091 0.21417943 0.75930583 -0.61447686 0.00088352355
0.037599992 -0.053556889 -0.021588868 0.3662836 0.72277755 -0.5860281 0.0012025496
0.017262623 0.052760396 -0.021599263 -0.11272979 -0.74523103 -0.65720826 0.0010615696
0.019317035 0.053424928 -0.022670176 -0.15590274 -0.60457087 -0.78114551 0.0024036933
0.022681125 0.053102911 -0.022889761 -0.11244356 -0.61986369 -0.77661145 0.001804822
0.025471013 0.052704725 -0.022545811 -0.015824484 -0.75160903 -0.659419 0.0017271863
0.02850833 0.052744504 -0.022470355 0.061801676 -0.77692264 -0.6265555 0.0007738811
0.031531956 0.052953865 -0.022343116 0.11427125 -0.77983838 -0.61546254 0.00072959287
0.03445489 0.053055383 -0.021755699 0.20954318 -0.75951701 -0.6158129 0.0014113984
0.036716644 0.053626001 -0.02158406 0.3181113 -0.73477203 -0.5990954 0.0010537393
0.011352292 0.056442332 -0.02169284 -0.47696781 -0.12359345 -0.87018752 0.0015988392
0.013927478 0.056353204 -0.02283594 -0.36511272 -0.35308525 -0.86140794 0.0030592126
0.016620608 0.055293854 -0.02333487 -0.32096738 -0.38687959 -0.86446756 0.0033662112
0.018819787 0.054555021 -0.023494001 -0.1628769 -0.5837658 -0.79541725 0.0017691444
0.031909011 0.054316044 -0.023942377 0.097654656 -0.68082064 -0.72591102 0.0023883467
0.034584701 0.054413155 -0.023411192 0.20980364 -0.70061785 -0.68199492 0.0024692104
0.037681475 0.054966856 -0.022724897 0.3423667 -0.69093609 -0.63670433 0.0019972331
0.040344752 0.055916123 -0.022084959 0.47415957 -0.6341809 -0.61072689 0.0021203577
0.042287081 0.056679778 -0.021243934 0.55615592 -0.61798483 -0.55568463 0.0025800653
0.010738784 0.058685347 -0.021906795 -0.49820569 -0.079667687 -0.86339104 0.0027711133
0.013165664 0.058724523 -0.023184357 -0.43640426 -0.13404033 -0.88971037 0.0037566042
0.015354592 0.057430651 -0.023870077 -0.30171385 -0.2803776 -0.91123933 0.0049229013
0.041167997 0.057900377 -0.023358762 0.49274054 -0.50713414 -0.70712215 0.0025934561
0.04326088 0.058725342 -0.022143219 0.63362288 -0.49354848 -0.59576172 0.0024235873
0.045039997 0.059809953 -0.021040794 0.67356533 -0.46590999 -0.57379234 0.0033679472
0.01055912 0.061790969 -0.021762282 -0.51640117 0.14631939 -0.84375387 0.0033751058
0.013147888 0.061406672 -0.023316305 -0.45353091 0.069500342 -0.88852656 0.0022072711
0.043984368 0.061150491 -0.023078639 0.63738018 -0.34169373 -0.69064599 0.0035232431
0.045606911 0.061815113 -0.021627398 0.74186659 -0.33041877 -0.58348733 0.0026114129
0.011232065 0.064080775 -0.021593317 -0.51079124 0.35639626 -0.78235167 0.0046375263
0.013575488 0.064576164 -0.022865711 -0.50572586 0.34440488 -0.79096574 0.0038689743
0.015396778 0.064970255 -0.023804577 -0.46726385 0.26562351 -0.84327263 0.0028069383
0.044593807 0.064217731 -0.023607597 0.68642128 -0.095944524 -0.72084707 0.003986421
0.046012484 0.064597204 -0.022109859 0.78156996 -0.1113402 -0.61380106 0.0042455271
0.011990818 0.066037789 -0.021149084 -0.54282504 0.44076198 -0.71489155 0.00542174
0.013971475 0.066970617 -0.021907836 -0.49036545 0.50813138 -0.70805663 0.0026992992
0.016312664 0.067662962 -0.022916736 -0.46766731 0.45242387 -0.75934184 0.0019203672
0.018481314 0.068521962 -0.023627616 -0.44925359 0.52975392 -0.71939701 0.00560631
0.044525903 0.067997426 -0.02342272 0.71197969 0.23923106 -0.66019189 0.0091620628
0.045991216 0.06746909 -0.022063989 0.77066964 0.13619092 -0.62251127 0.0049948199
0.016901257 0.069609649 -0.021702725 -0.44960412 0.6245479 -0.6385892 0.0019058915
0.01953751 0.070477739 -0.022532413 -0.39766055 0.62537199 -0.67139858 0.0018409821
0.022267461 0.071340345 -0.023320051 -0.34981024 0.66076756 -0.66409272 0.0010982529
0.024354983 0.071788259 -0.023987072 -0.3189466 0.67995495 -0.66025323 0.0017797399
0.041521303 0.07179191 -0.02372363 0.43739444 0.59499985 -0.67428577 0.0034180079
0.043871719 0.070848823 -0.022552093 0.62496692 0.45053411 -0.63752282 0.0054525486
0.045504082 0.069894932 -0.021565281 0.70097703 0.43800104 -0.56283766 0.0052273381
0.020489059 0.072250873 -0.021123687 -0.39973927 0.69386417 -0.59896666 0.00072107598
0.022805067 0.072726049 -0.022028178 -0.35598049 0.70297456 -0.61571479 0.0007987899
0.025601018 0.073572867 -0.022521611 -0.28558195 0.73479098 -0.61524403 0.00048341474
0.028378392 0.074116841 -0.023062438 -0.19857287 0.71952289 -0.665474 0.0021254998
0.03150529 0.074492149 -0.023434624 -0.090569004 0.75277925 -0.65201288 0.0012489298
0.034715571 0.074518375 -0.023539981 0.050622504 0.70412225 -0.70827204 0.0025315452
0.038203217 0.074400961 -0.022873927 0.27152801 0.78157234 -0.56162006 0.0029075891
0.040267624 0.073768497 -0.022555739 0.37619948 0.72221279 -0.58041602 0.0030329467
0.042879976 0.07272248 -0.021798842 0.54004663 0.59103495 -0.59918886 0.0035593077
0.028849784 0.075410321 -0.021610577 -0.2032249 0.77328038 -0.60061401 0.00065394136
0.031605344 0.075671367 -0.021978559 -0.086946532 0.79117572 -0.60537708 0.0013274224
0.034446783 0.075766735 -0.022004241 0.055976648 0.79865366 -0.59918195 0.001759256
0.03701704 0.075644374 -0.021753449 0.23748447 0.81430566 -0.52962953 0.0018600007
0.039560273 0.075201705 -0.021221435 0.3508811 0.74990362 -0.56082714 0.0025258493
0.031922147 -0.076932743 -0.019637041 0.042558625 -0.86148787 -0.50599158 0.00106513
0.034534425 -0.077019654 -0.019453062 0.10936373 -0.85720116 -0.50323528 0.0011531088
0.037567098 -0.076482274 -0.019493915 0.23643883 -0.84461164 -0.48034137 0.0016448374
0.040286507 -0.075650007 -0.019273167 0.36459568 -0.80788767 -0.46302006 0.0020418577
0.042043142 -0.075330719 -0.018267464 0.44996828 -0.77741998 -0.43948469 0.0035870876
0.041321296 -0.074616671 -0.020226201 0.39950895 -0.77189976 -0.4945336 0.0029483028
0.043604378 -0.073594965 -0.019424573 0.55019665 -0.72295517 -0.41787502 0.0021404556
0.045438349 -0.072314531 -0.018871371 0.68922728 -0.57325733 -0.44310468 0.0065176347
0.044899061 -0.071450263 -0.020758584 0.63914114 -0.49195689 -0.5911659 0.0049610795
0.046484172 -0.070321932 -0.019482478 0.8050831 -0.39019594 -0.44675308 0.0039961226
0.047319259 -0.067565009 -0.019996563 0.85213596 -0.16760238 -0.49575582 0.0042048595
0.048182406 -0.067213655 -0.018480461 0.89352471 -0.19338129 -0.40523735 0.0057632942
0.047421891 -0.064251073 -0.019853627 0.87869179 0.11148696 -0.46418896 0.0053354646
0.048174839 -0.064912237 -0.018515287 0.92035496 0.091730163 -0.38017407 0.0066248723
0.046899512 -0.061427359 -0.019438067 0.84184593 0.30373529 -0.44613945 0.002608354
0.04807847 -0.062744327 -0.018244363 0.88668472 0.24483354 -0.39223313 0.0048059039
0.005884517 -0.057410829 -0.01869702 -0.53987902 0.26332545 -0.79949385 0.0017741087
0.0079947105 -0.058526184 -0.020185383 -0.4925254 0.21526983 -0.84325421 0.0017640501
0.044507939 -0.057809372 -0.0201046 0.71770042 0.51180118 -0.47219229 0.0022879762
0.045727585 -0.058816481 -0.019198382 0.75387508 0.4728502 -0.45616338 0.0017535305
0.0054185609 -0.056465633 -0.018230863 -0.53394961 0.29065806 -0.79398727 0.002819563
0.0076675368 -0.055295374 -0.019298613 -0.48007733 0.33122236 -0.81229156 0.0028987988
0.01006948 -0.055001911 -0.020550037 -0.44391596 0.35597667 -0.82232553 0.0041130404
0.041178674 -0.054601323 -0.020241784 0.51051933 0.68329018 -0.52200055 0.0022932955
0.0433199 -0.055841368 -0.019340236 0.63968492 0.61868513 -0.45610526 0.001786033
0.0080671404 -0.053127211 -0.018483473 -0.41745353 0.50237828 -0.75719792 0.0027325312
0.010694252 -0.052484009 -0.01934701 -0.31539741 0.56209671 -0.76457298 0.0029598202
0.01344762 -0.052040067 -0.020134157 -0.28300196 0.60026556 -0.74805826 0.0040627141
0.016383205 -0.051523082 -0.02057261 -0.17387694 0.67738885 -0.71478051 0.0030231879
0.019467274 -0.051159482 -0.020817211 -0.10132687 0.73709196 -0.66815299 0.0022280342
0.022352807 -0.051042385 -0.020933509 -0.034468167 0.7851488 -0.61834729 0.00091966375
0.02511812 -0.051059093 -0.020950731 0.011007512 0.80171716 -0.59760225 0.00046913562
0.028501078 -0.05111457 -0.020827599 0.052064288 0.80782342 -0.58712071 0.00021047449
0.031502511 -0.051185623 -0.02065262 0.11705479 0.8037228 -0.58337629 0.00034139008
0.034732036 -0.051497985 -0.020203639 0.20654865 0.78910452 -0.57849085 0.00060454494
0.037977379 -0.052215885 -0.019586712 0.38059041 0.75404656 -0.53531742 0.001130514
0.040327806 -0.053188946 -0.019095855 0.48494685 0.71462864 -0.50411564 0.0015955552
0.042152945 -0.053905942 -0.018340535 0.5551672 0.69309634 -0.45979002 0.0016611023
0.011488122 -0.050628401 -0.018081488 -0.26971757 0.71298128 -0.64723265 0.004175697
0.013705272 -0.050473582 -0.018636705 -0.20024996 0.73171449 -0.65153199 0.0024572089
0.016446587 -0.050159812 -0.019088466 -0.10397192 0.80556607 -0.58331233 0.00092238159
0.019390572 -0.050051119 -0.019363234 -0.061891135 0.82212144 -0.56593794 0.00040203315
0.02253082 -0.050000142 -0.019470986 -0.016858635 0.82882977 -0.5592469 0.00019213103
0.025567085 -0.049947269 -0.019367836 0.019008715 0.83215874 -0.55421168 6.9766378e-05
0.028563119 -0.050138615 -0.019501179 0.05225556 0.82727593 -0.55936021 0.00011216769
0.031451866 -0.050065536 -0.019050524 0.11304293 0.82457489 -0.55434424 0.00034385009
0.034454998 -0.050418273 -0.018775631 0.21461251 0.81183374 -0.54301691 0.001171374
0.036856834 -0.050917286 -0.018428339 0.37020352 0.77573359 -0.51106435 0.00093799556
0.014295297 0.050573077 -0.018374812 -0.12751499 -0.80408913 -0.58067262 0.00053048704
0.016731923 0.050408591 -0.01867738 -0.10239515 -0.81048822 -0.57673573 0.00066275697
0.01951218 0.050298765 -0.018900523 -0.063277841 -0.81862569 -0.57083094 0.00050361623
0.022559991 0.050316948 -0.019118557 -0.021421844 -0.83150023 -0.55511129 0.00010689055
0.025578026 0.050309915 -0.019144244 0.013075304 -0.83280075 -0.55341852 0.00011040238
0.028605966 0.050261106 -0.018930284 0.049027212 -0.8317821 -0.55293304 0.00012223086
0.031344786 0.050493017 -0.018948274 0.10231674 -0.82651007 -0.5535453 0.00033075293
0.034139484 0.050618213 -0.018490694 0.19681634 -0.8119247 -0.54958314 0.00094863144
0.036210835 0.050979253 -0.018196043 0.31525734 -0.78817588 -0.52857512 0.00089935161
0.016133176 0.051481385 -0.019964667 -0.097420275 -0.80286211 -0.58815122 0.00067365245
0.01943974 0.051335491 -0.0204252 -0.079311222 -0.80120093 -0.59311622 0.00063089939
0.022421753 0.051219661 -0.020494105 -0.030418724 -0.81561249 -0.57779843 0.00045468917
0.0256446 0.051323544 -0.020659026 0.011053966 -0.82234973 -0.56887501 0.0001238152
0.028370341 0.051368311 -0.020577582 0.051206686 -0.8208276 -0.56887609 0.0001688085
0.031639218 0.051443685 -0.020255396 0.10849503 -0.81057608 -0.57549566 0.00029669862
0.035109043 0.051520914 -0.019453295 0.25765362 -0.78374088 -0.56512374 0.00096474774
0.037674367 0.052649185 -0.019792214 0.34719461 -0.7571364 -0.55335373 0.0010996102
0.040122274 0.053467661 -0.019129407 0.4594835 -0.72274679 -0.51624799 0.0015058318
0.0068775257 0.05624906 -0.019081365 -0.56013626 -0.017881619 -0.82820755 0.002699848
0.0094257547 0.056952741 -0.020841004 -0.49562714 -0.077914201 -0.86503363 0.0025763297
0.041199453 0.054968257 -0.020195121 0.48752543 -0.68534309 -0.54094714 0.0027458048
0.04318057 0.055993699 -0.019260418 0.61877072 -0.62781435 -0.47219908 0.0019795571
0.0058440124 0.057954565 -0.018737417 -0.5906111 0.023956122 -0.80660075 0.0024930709
0.0073625706 0.059063409 -0.019834513 -0.5581305 -0.019155804 -0.82953203 0.0030723114
0.044318996 0.057851143 -0.020055104 0.71239907 -0.52046901 -0.47074363 0.0019234573
0.045689162 0.058977567 -0.019155027 0.74183398 -0.48880094 -0.45908162 0.0016532955
0.0055027944 0.061064158 -0.018347526 -0.59509581 0.20609598 -0.77677894 0.0029586854
0.0076058819 0.061648726 -0.019740773 -0.59110576 0.20471646 -0.78018278 0.0024533374
0.046837475 0.061524861 -0.019497253 0.82761651 -0.3333343 -0.45159629 0.0024926541
0.007967772 0.064574823 -0.018923862 -0.58311689 0.40482408 -0.70433819 0.0028165623
0.0097412122 0.064769544 -0.020184277 -0.55944949 0.40901127 -0.72092026 0.0051894607
0.047523528 0.064553164 -0.019709012 0.88538796 -0.073349312 -0.45902941 0.0078369183
0.048218727 0.064980634 -0.018366182 0.94044024 -0.09570054 -0.32621095 0.0049479399
0.0084967222 0.066404358 -0.018092841 -0.5368343 0.570099 -0.62192935 0.001327689
0.010827558 0.067305788 -0.019236302 -0.51244146 0.53936094 -0.66820174 0.0020300294
0.013123095 0.068203196 -0.02027737 -0.47919783 0.62767267 -0.61351168 0.00092879304
0.047440093 0.067706458 -0.019739069 0.87537944 0.16929862 -0.45282307 0.0052063763
0.048223875 0.067269519 -0.018552162 0.9047721 0.1665577 -0.39197689 0.0057747494
0.011618485 0.069044404 -0.018066181 -0.50186634 0.63435841 -0.58797926 0.0010361569
0.013928305 0.069842711 -0.019083926 -0.46697408 0.66190815 -0.58635557 0.00077708263
0.016279649 0.07090757 -0.019675912 -0.44662881 0.69906163 -0.55842245 0.00023308434
0.018598262 0.071663082 -0.020508083 -0.40554559 0.69799578 -0.59019881 0.000873029
0.044917703 0.071705557 -0.020862849 0.61705577 0.52014101 -0.59050447 0.0067564272
0.046539631 0.070558287 -0.019463887 0.80521631 0.42173102 -0.41685674 0.0046002571
0.017339349 0.072274446 -0.018724497 -0.43095988 0.71198004 -0.55439878 3.8678809e-05
0.01961752 0.073191777 -0.019258726 -0.40360871 0.73055214 -0.55081177 0.00011440626
0.022320036 0.074102931 -0.019941568 -0.36217445 0.74523979 -0.55986369 0.00019673833
0.02447968 0.074690491 -0.020493604 -0.29803431 0.75465477 -0.58452702 0.00028476561
0.041664012 0.074551851 -0.020637486 0.46903813 0.70432079 -0.53285599 0.0033832409
0.04377779 0.073624969 -0.019725541 0.58915538 0.66230828 -0.46286458 0.0040648696
0.045523632 0.072603859 -0.018819071 0.70095187 0.58529937 -0.40754279 0.0047376179
0.02316905 0.07553301 -0.018594677 -0.36768046 0.75533259 -0.54247928 7.3875584e-05
0.025711803 0.076083228 -0.019360213 -0.30346966 0.76502872 -0.56801164 0.00044519434
0.028432302 0.076835938 -0.019536138 -0.18542345 0.80885381 -0.55800879 0.0008046783
0.031492583 0.077187508 -0.019801535 -0.070574872 0.82915723 -0.55454254 0.00090633542
0.034581281 0.077384457 -0.019573968 0.1398437 0.86349416 -0.48458385 0.002205296
0.037539557 0.076873675 -0.019520018 0.23928829 0.85460711 -0.46085551 0.0014952617
0.040464159 0.07592801 -0.01927511 0.38011211 0.80128425 -0.46201539 0.0019166961
0.042487435 0.07526201 -0.018526953 0.52764767 0.74458438 -0.4088791 0.0024027959
0.029687792 0.078001663 -0.018237839 -0.12813741 0.82380164 -0.55220616 0.0022747274
0.031687282 0.078182705 -0.018217778 -0.046028193 0.8541106 -0.51805067 0.0014113339
0.034088004 0.078131162 -0.018293926 0.078563273 0.87936658 -0.46961921 0.0022504339
0.029538782 -0.079107806 -0.015627887 0.02871646 -0.91992384 -0.3910442 0.0016873332
0.031756401 -0.078750454 -0.016467929 0.029898886 -0.90262222 -0.42939392 0.00079933781
0.034686029 -0.078652814 -0.01628788 0.13727888 -0.91057432 -0.38988331 0.0014049099
0.037204891 -0.078390941 -0.015721634 0.26047352 -0.89835548 -0.35371026 0.0014407386
0.039118126 -0.078029007 -0.015080144 0.27896592 -0.92697567 -0.25078714 0.0050758664
0.032341309 -0.077999659 -0.017893728 0.048065934 -0.88963038 -0.45414475 0.0010800648
0.035274133 -0.077909216 -0.017703705 0.11020687 -0.88918662 -0.44407392 0.0014705174
0.038010482 -0.077624947 -0.016951211 0.27736089 -0.88710177 -0.36894628 0.0016448428
0.040524047 -0.076850504 -0.016546145 0.36756295 -0.86210316 -0.34882027 0.0013089032
0.042928427 -0.07560952 -0.016393537 0.53594178 -0.79173142 -0.29313451 0.0028328586
0.044349216 -0.074459404 -0.016697021 0.59927964 -0.75959331 -0.25274888 0.0036421414
0.045981981 -0.073010609 -0.016320411 0.73176211 -0.63922209 -0.23647268 0.0050703371
0.047349665 -0.070942365 -0.016796138 0.86042392 -0.43251836 -0.26944122 0.0055467198
0.048170175 -0.069475487 -0.016497511 0.90312749 -0.38170761 -0.19662145 0.0079489546
0.048619807 -0.067387819 -0.016387885 0.97968268 -0.14628761 -0.13719216 0.0078075808
0.048761424 -0.06450706 -0.016426099 0.97753567 0.07345856 -0.19755441 0.0063616238
0.047696967 -0.060716879 -0.017131642 0.9018631 0.31535378 -0.295288 0.004449259
0.048369657 -0.061989874 -0.016301604 0.94688261 0.22990116 -0.22485298 0.0054799579
0.0018436611 -0.057417132 -0.015601738 -0.57426405 0.2625246 -0.77543646 0.0010575991
0.046829376 -0.058478218 -0.01649279 0.83703613 0.45520636 -0.30357474 0.0020606539
0.048033297 -0.059856795 -0.015288028 0.88678646 0.39967415 -0.23209991 0.0041424818
0.0020880802 -0.055434249 -0.015400255 -0.57216394 0.29142112 -0.76661736 0.001575441
0.004473296 -0.054912791 -0.017091867 -0.53787297 0.31037772 -0.78381014 0.0026269886
0.044102222 -0.054943755 -0.016817549 0.6770339 0.6306805 -0.37929821 0.0020564718
0.045567121 -0.056248128 -0.016082773 0.76420343 0.54959428 -0.33754882 0.0021142813
0.0022431596 -0.053954184 -0.015121095 -0.56620073 0.2856327 -0.77319515 0.0017265828
0.0047439048 -0.052483153 -0.016085463 -0.47854829 0.46335331 -0.74585205 0.0043476662
0.007324846 -0.051956262 -0.017281028 -0.40864566 0.52462512 -0.74684489 0.0049954164
0.009259698 -0.051443376 -0.017897323 -0.36180243 0.55088443 -0.75208074 0.0034172258
0.038529038 -0.051264204 -0.017748058 0.38650197 0.77268571 -0.50356036 0.0024426237
0.04087764 -0.052004207 -0.016630262 0.520033 0.73852903 -0.42911607 0.0015757439
0.042872045 -0.053335279 -0.016172556 0.62422496 0.67287254 -0.39697066 0.0012941135
0.0057093208 -0.050487712 -0.015222315 -0.35972822 0.66585964 -0.65362567 0.0024369338
0.0078712422 -0.050091997 -0.0159135 -0.33526593 0.67660356 -0.65559471 0.0035373166
0.010469525 -0.04894121 -0.015747178 -0.20855914 0.78125364 -0.58834159 0.0013942708
0.013189672 -0.049010795 -0.016701395 -0.13535696 0.82124597 -0.5542866 0.00024881979
0.016430557 -0.048701644 -0.016925707 -0.092555091 0.83117115 -0.54825926 0.00016377241
0.019422472 -0.04857599 -0.017096911 -0.05187089 0.83658302 -0.54537904 0.00011157255
0.022367671 -0.048464667 -0.017129909 -0.013708143 0.84176654 -0.53966773 8.3829749e-05
0.02549937 -0.048435375 -0.017084107 0.019144094 0.84458297 -0.53508234 7.4813244e-05
0.028528951 -0.048586659 -0.017121756 0.047463074 0.84609753 -0.53091079 8.3647712e-05
0.031416126 -0.048705414 -0.016962245 0.10163225 0.84085476 -0.53163344 0.00033021695
0.034628212 -0.049058679 -0.016635768 0.19631818 0.82853794 -0.52438915 0.00079042092
0.03779817 -0.050053027 -0.016411953 0.38525888 0.79076797 -0.47566971 0.0011272113
0.039725255 -0.050593477 -0.015557025 0.49259946 0.75648361 -0.43020722 0.0020968195
0.014212891 -0.047936566 -0.015338378 -0.12226015 0.82905 -0.54564506 0.00015525414
0.016668715 -0.047678389 -0.015385295 -0.086056001 0.83814263 -0.53861976 0.00013368197
0.019625843 -0.047563113 -0.015548281 -0.046105951 0.84543914 -0.53207797 7.534551e-05
0.022500489 -0.047583167 -0.015745074 -0.008768443 0.84917009 -0.52804667 0.00011568606
0.025449617 -0.047565401 -0.015634522 0.022526307 0.85262996 -0.52202946 7.9879923e-05
0.028348595 -0.047602735 -0.015518757 0.051658351 0.86063105 -0.50660199 0.00014241847
0.031311486 -0.047756039 -0.015426114 0.11482491 0.85695386 -0.50243938 0.00048638572
0.033343818 -0.047881972 -0.015163763 0.21162109 0.84824002 -0.48549497 0.0017531335
0.019935077 0.04789583 -0.015230191 -0.052059487 -0.84651387 -0.5298152 0.00012734505
0.022586547 0.047723696 -0.015090217 -0.013425933 -0.85288799 -0.5219214 6.1311519e-05
0.025545545 0.047986709 -0.015488912 0.018054534 -0.85317326 -0.52131504 6.9816975e-05
0.027248291 0.047989395 -0.015399245 0.041136414 -0.85612208 -0.51513374 0.00015411673
0.01079029 0.049514972 -0.015845293 -0.15069664 -0.82281661 -0.5479629 0.00018630398
0.013661886 0.04933463 -0.016422657 -0.1365725 -0.81884575 -0.55752993 0.000111999
0.016530233 0.048972044 -0.016479265 -0.092544585 -0.83412057 -0.54376322 0.0001095055
0.01959718 0.048944909 -0.01681741 -0.051246475 -0.83843726 -0.54258353 5.8061185e-05
0.022587584 0.048706587 -0.016659042 -0.017889751 -0.84239274 -0.53856707 5.3170388e-05
0.025408521 0.048798818 -0.016824316 0.012901516 -0.84512663 -0.53441048 7.2619187e-05
0.028544888 0.048729658 -0.016509553 0.05081021 -0.84945023 -0.52521676 0.00012363955
0.031630117 0.048962351 -0.016536644 0.097275168 -0.84771115 -0.5214628 0.00025820834
0.034773726 0.049144536 -0.016038503 0.29119855 -0.81264502 -0.50478852 0.0020313966
0.037301868 0.050478268 -0.016804432 0.34568965 -0.78995627 -0.50642645 0.0016406986
0.039422091 0.050782219 -0.015522051 0.45101494 -0.7711795 -0.44929704 0.0016168555
0.038246233 0.051220238 -0.017292131 0.39877403 -0.79272848 -0.46104315 0.0016953691
0.04052484 0.052178521 -0.016709318 0.51484722 -0.7390452 -0.43444744 0.001963712
0.042467788 0.05326917 -0.016096734 0.60563207 -0.68476593 -0.4053461 0.001041881
0.043973532 0.05509425 -0.016724616 0.68124342 -0.62595779 -0.37958434 0.0017558928
0.045467854 0.05632183 -0.015969042 0.74070048 -0.57394332 -0.34921604 0.0020220382
0.0023012618 0.059043165 -0.016002132 -0.61771929 0.15175848 -0.7716167 0.0079210112
0.046687193 0.058460005 -0.016460542 0.82010907 -0.47703922 -0.31599787 0.0020697571
0.0026268619 0.06213529 -0.015565468 -0.63296366 0.34733114 -0.69189465 0.0026859334
0.0040363399 0.061853338 -0.016924065 -0.61702025 0.25577721 -0.74422044 0.0054839421
0.047685623 0.060721051 -0.016676569 0.92538887 -0.29415444 -0.23901606 0.003685585
0.048335742 0.062070731 -0.016102346 0.94785595 -0.25300705 -0.19379504 0.0044174567
0.004788504 0.064112484 -0.016446846 -0.60060501 0.42349675 -0.67817712 0.0022279879
0.0064517804 0.065000854 -0.01737798 -0.59322333 0.40414393 -0.69624257 0.002981568
0.048753873 0.064637221 -0.016408732 0.98039943 -0.076867536 -0.18140684 0.0051518646
0.0055297483 0.066131875 -0.015562624 -0.57387602 0.56031311 -0.59725672 0.00075317314
0.0075326893 0.067289047 -0.016258106 -0.54592711 0.60243279 -0.58226997 0.0013428679
0.0097575579 0.068218961 -0.017336691 -0.5413 0.599558 -0.58951223 0.0010251659
0.04864715 0.067542292 -0.016558586 0.97582847 0.13642849 -0.17072238 0.0049938951
0.0089446241 0.069126979 -0.015450904 -0.52698898 0.64949644 -0.54812133 0.00019491557
0.010799109 0.069938786 -0.016177902 -0.49692011 0.67300665 -0.54784346 0.00016674282
0.013293214 0.071076334 -0.016957432 -0.46616027 0.70361221 -0.53630632 8.8464614e-05
0.015156855 0.071882986 -0.017498605 -0.45203429 0.70821214 -0.54231036 0.00015221073
0.047498211 0.070970885 -0.016680531 0.87470436 0.43822888 -0.20699653 0.0051248856
0.048250671 0.069617361 -0.0160455 0.91687649 0.34394035 -0.20258963 0.0067562363
0.013994877 0.072530784 -0.015673541 -0.46143141 0.71362036 -0.52709299 0.00013399016
0.016598688 0.07350035 -0.016520428 -0.42571959 0.73184872 -0.53212816 8.7190267e-05
0.019194063 0.074474804 -0.017235944 -0.39974722 0.74386728 -0.53559661 9.8595352e-05
0.044488031 0.074641466 -0.016851475 0.7049104 0.67274404 -0.22475921 0.0052695791
0.046049234 0.073205046 -0.016387051 0.76371664 0.60517639 -0.2247183 0.005466457
0.019814547 0.075624704 -0.01602939 -0.39767334 0.75488245 -0.52154434 6.319044e-05
0.022469183 0.076602124 -0.016562285 -0.36655354 0.76653481 -0.52731675 0.00011210764
0.025254132 0.077513091 -0.017088482 -0.29212677 0.79608744 -0.53000641 0.00070650002
0.027184425 0.077820435 -0.017645495 -0.19736706 0.83789289 -0.50890249 0.0020119129
0.038177036 0.077786371 -0.017360866 0.25124729 0.8843469 -0.39345318 0.0020791353
0.040663861 0.077146679 -0.016539041 0.41441941 0.85105485 -0.32243165 0.0019482723
0.043153338 0.075784966 -0.016306456 0.55241036 0.78120053 -0.29080677 0.0027988269
0.02347989 0.078032136 -0.015183702 -0.35035047 0.78904647 -0.50463879 0.00037349653
0.025744874 0.078558721 -0.015797239 -0.27256185 0.82317156 -0.49809504 0.0014053503
0.028503219 0.078848071 -0.016474832 -0.16621056 0.85103321 -0.49811304 0.00085130107
0.031278059 0.079220012 -0.016439132 0.054372344 0.92065823 -0.38656446 0.0015825287
0.034449629 0.078980513 -0.016540155 0.15351246 0.90694523 -0.39228097 0.0012400884
0.037308455 0.078558654 -0.016148726 0.24984123 0.89797741 -0.36223739 0.0021620356
0.039479353 0.078094505 -0.015497997 0.37801492 0.86046582 -0.34161872 0.0019229816
0.02857805 -0.08012981 -0.013234474 0.017258115 -0.95767498 -0.28733391 0.003441364
0.031708091 -0.080151655 -0.013307522 0.071079165 -0.94620681 -0.3156589 0.0014957845
0.034641508 -0.07970725 -0.013635432 0.17692643 -0.94136691 -0.28727239 0.0026841688
0.037615556 -0.078997865 -0.013437574 0.29763418 -0.92775661 -0.2251258 0.0035583533
0.039601214 -0.078295201 -0.013153352 0.3952651 -0.89802593 -0.19317077 0.0037032815
0.041149605 -0.077450037 -0.01348677 0.4999263 -0.85567951 -0.13374001 0.0029897641
0.043288972 -0.07606633 -0.013425484 0.59998947 -0.79382652 -0.099258073 0.0046559502
0.044701889 -0.074882478 -0.01367308 0.67412543 -0.73720062 -0.045718674 0.0038426707
0.046102595 -0.073340386 -0.013554114 0.79207349 -0.61034155 0.010137084 0.0055726003
0.047570359 -0.070810743 -0.013858601 0.91776985 -0.39516497 0.039284166 0.0086726835
0.048261303 -0.069649458 -0.013675548 0.94860363 -0.31453657 0.034896776 0.0062113767
0.048746377 -0.067307003 -0.013550467 0.98132646 -0.1761491 0.077265441 0.0046591982
0.04897802 -0.06434799 -0.013500415 0.99862593 0.028072044 0.044252217 0.0042793509
0.048580628 -0.061383095 -0.013475288 0.98097271 0.19309047 -0.020213019 0.0049109333
0.047421366 -0.058176354 -0.013594405 0.89175373 0.43765363 -0.11504132 0.0031865507
0.048144512 -0.059428029 -0.013274046 0.9312042 0.35609892 -0.077796765 0.0051368037
-0.00095767493 -0.054750063 -0.012853477 -0.57964432 0.25216261 -0.77487195 0.00066821184
0.00060097547 -0.055890206 -0.014376365 -0.57215583 0.2804724 -0.77069646 0.001547639
0.044678647 -0.054226726 -0.014313473 0.74215615 0.63607097 -0.21122955 0.0027613286
0.045959536 -0.055603418 -0.013375604 0.8224566 0.54085892 -0.17617249 0.0035127783
-0.00062806212 -0.052540835 -0.012323873 -0.53798741 0.40437159 -0.73963046 0.003565076
0.0014424186 -0.052336607 -0.013702135 -0.55186957 0.35207817 -0.75596362 0.0018264737
0.0034672855 -0.05152268 -0.014660485 -0.50759274 0.47785291 -0.71694225 0.0051654656
0.041694537 -0.051271308 -0.014192593 0.59706557 0.73619282 -0.31864217 0.0029154203
0.04346342 -0.052609313 -0.013444512 0.70060515 0.67608178 -0.22817966 0.0020389685
0.045115471 -0.053926323 -0.012237523 0.74609733 0.64803952 -0.15291663 0.0049914774
0.0019754858 -0.050197214 -0.012619763 -0.43541861 0.58460915 -0.6845749 0.0027114807
0.0045505525 -0.04944329 -0.013470264 -0.33979955 0.67268473 -0.65729105 0.0028393441
0.007235297 -0.048595197 -0.014087334 -0.21326305 0.79571199 -0.56688744 0.00053387205
0.010259464 -0.048312224 -0.014635941 -0.18956037 0.79789096 -0.5722211 0.00055693742
0.012757882 -0.048027381 -0.014937325 -0.14841077 0.80682486 -0.57184607 0.00034476418
0.035571143 -0.04814329 -0.014722813 0.26030335 0.86581856 -0.42731756 0.0034588792
0.037912816 -0.04862738 -0.013684043 0.44101623 0.82532489 -0.35262394 0.0018472439
0.040361136 -0.049976785 -0.013396784 0.54237747 0.77630347 -0.32121569 0.002795419
0.042095922 -0.050852485 -0.012518642 0.62112248 0.73018742 -0.28466341 0.0027011014
0.0049821497 -0.047972668 -0.012077095 -0.30200058 0.74035209 -0.60056174 0.0022655763
0.008278653 -0.047345608 -0.012707202 -0.19777231 0.80817091 -0.55474848 0.00055984134
0.010676654 -0.047148425 -0.013214113 -0.16465227 0.82138115 -0.5460977 0.00021631795
0.013529018 -0.046813801 -0.013429405 -0.11815589 0.83677304 -0.53464955 0.00014160527
0.016661189 -0.046423428 -0.013386866 -0.075961791 0.84626353 -0.52732134 4.6186509e-05
0.019586703 -0.046344802 -0.013588147 -0.03820996 0.85324705 -0.5201053 8.6311709e-05
0.022350987 -0.04624749 -0.01351846 -0.0015364403 0.85819101 -0.51332825 8.268543e-05
0.025472339 -0.046323568 -0.013556808 0.029609116 0.86531597 -0.50035143 0.00016256244
0.028611757 -0.04632099 -0.013318123 0.069495417 0.88132733 -0.4673678 0.00091572205
0.031431824 -0.046663761 -0.013459279 0.13814029 0.89396924 -0.42630535 0.0018914058
0.034463871 -0.047175091 -0.013421698 0.23765594 0.89065611 -0.38762259 0.0027913777
0.03666402 -0.047530055 -0.012594037 0.41418147 0.85223067 -0.31961948 0.0041630226
0.010610426 0.047463566 -0.012745024 -0.16037349 -0.82685661 -0.53906268 9.5843927e-05
0.01360667 0.047322802 -0.01330629 -0.12137707 -0.8382929 -0.53153801 9.5098738e-05
0.016630258 0.046963029 -0.013324907 -0.084112659 -0.84487677 -0.52830708 9.1898801e-05
0.019578267 0.046871938 -0.013521139 -0.039236382 -0.85366333 -0.51934528 3.4670466e-05
0.022593817 0.04679364 -0.013516511 -0.0045106323 -0.8598721 -0.51048964 8.586984e-05
0.025576992 0.04681772 -0.013521062 0.021519486 -0.86657447 -0.49858361 0.00011028979
0.028462108 0.046843849 -0.013361414 0.078666896 -0.88171464 -0.46517837 0.00086914113
0.031426039 0.047157954 -0.013483342 0.11109978 -0.88868648 -0.44485193 0.0014894684
0.034479089 0.047497332 -0.013153423 0.21380758 -0.88927698 -0.40431771 0.0030986757
0.036442127 0.047825068 -0.012512584 0.35845342 -0.85178655 -0.38206136 0.0027242897
0.0055320612 0.049133785 -0.013147262 -0.21781 -0.80562979 -0.55092609 0.00016872164
0.0078187082 0.048589882 -0.013457892 -0.19180806 -0.81465584 -0.54730761 0.00033148035
0.010313648 0.048563778 -0.014328611 -0.18900003 -0.81296188 -0.5507921 0.00039516226
0.012849669 0.04818878 -0.014479143 -0.1309222 -0.83114684 -0.54042047 0.00012251304
0.015428845 0.048093051 -0.014908356 -0.090685822 -0.83734578 -0.53909934 0.00016086535
0.035112359 0.048318196 -0.014456695 0.23376589 -0.87655133 -0.4207271 0.0033794714
0.03762811 0.048888348 -0.013616473 0.37264943 -0.8395161 -0.39540508 0.0021576348
0.04037822 0.050193667 -0.013025517 0.54918796 -0.77094728 -0.32254139 0.0049724765
0.041097272 0.05125891 -0.014348509 0.56628323 -0.75513422 -0.33029622 0.0055002933
0.043188468 0.052658383 -0.013405934 0.65742564 -0.70044458 -0.27779299 0.0021743323
0.044673745 0.054381445 -0.013984602 0.74690562 -0.62598836 -0.22421092 0.0032489686
0.045900147 0.05579393 -0.013473433 0.81407684 -0.55323219 -0.17667215 0.0042250305
0.04734363 0.058377746 -0.013441314 0.91123575 -0.40581444 -0.070455812 0.0034411948
0.048085943 0.059735946 -0.013414424 0.93181473 -0.35459936 -0.07733395 0.0055239163
-0.00081044401 0.060610358 -0.012815977 -0.65592128 0.3443622 -0.67170078 0.002050129
0.0010496841 0.061332226 -0.014343381 -0.65243554 0.35261703 -0.67081225 0.0024747616
0.047932215 0.060302518 -0.013968222 0.97440797 -0.22476171 0.0033726441 0.0019737992
0.048578441 0.061701756 -0.013467905 0.97976595 -0.19920908 -0.019350186 0.004806492
0.0018406851 0.064338714 -0.013397622 -0.6239084 0.492008 -0.60717911 0.0018381347
0.0035858983 0.065294169 -0.014378797 -0.60898787 0.52728754 -0.5925383 0.0015939289
0.048980299 0.064620577 -0.013422159 0.9981814 -0.034170631 0.049662244 0.0040495973
0.0029171167 0.066602103 -0.012341182 -0.58391231 0.59665984 -0.55049384 0.00017015533
0.0047107893 0.067278691 -0.013441109 -0.56808788 0.61224163 -0.54994214 0.00054860604
0.0066722482 0.068300471 -0.014260596 -0.54952127 0.62762552 -0.55146414 0.00021442599
0.048793435 0.067513466 -0.013436855 0.98329282 0.16091006 0.085107364 0.0040943497
0.0054324674 0.069146544 -0.012016719 -0.54772836 0.64100778 -0.53768271 0.00015712972
0.0077680312 0.07004343 -0.013186866 -0.5164625 0.66639429 -0.53775936 0.00021883564
0.01019923 0.071313195 -0.013891743 -0.48536566 0.69716561 -0.52761769 5.9846923e-05
0.047590628 0.071232162 -0.013336937 0.8939724 0.44358221 0.063624553 0.004886779
0.048266422 0.069696255 -0.013610157 0.93571132 0.3445949 0.07548897 0.0052319095
0.011087874 0.07267125 -0.012874085 -0.47878233 0.70588279 -0.52201253 0.00010740692
0.013433781 0.073709972 -0.013527216 -0.45395377 0.72774988 -0.51410711 8.7024877e-05
0.015763255 0.074560903 -0.014334075 -0.42671362 0.74253374 -0.51629364 0.00016005602
0.044859089 0.07490585 -0.014173133 0.67120838 0.73206705 -0.11643521 0.0040950971
0.046270948 0.073385365 -0.013496486 0.81752121 0.57561398 0.018101091 0.006355437
0.014932707 0.075273648 -0.012556856 -0.42876098 0.75445944 -0.49694568 0.00035288115
0.016807158 0.075866632 -0.013281289 -0.42030448 0.7583341 -0.49827066 0.00019349519
0.019430395 0.077023946 -0.013668286 -0.39022368 0.77960598 -0.48983672 0.00027257108
0.02168265 0.077598125 -0.014516035 -0.37048122 0.78793287 -0.4918389 0.00046202849
0.041329257 0.077616543 -0.01376409 0.5113138 0.85071146 -0.12185274 0.0030195611
0.043862563 0.075930826 -0.013453998 0.67209703 0.73902035 -0.046199918 0.0050790324
0.045005016 0.075011462 -0.012378695 0.73944354 0.67271173 -0.026118286 0.0048390278
0.020410338 0.078273319 -0.012496606 -0.37190607 0.8143357 -0.44558191 0.00093829987
0.022643315 0.078753583 -0.01340597 -0.33725861 0.83382016 -0.43703625 0.0014514688
0.025611522 0.079841532 -0.01346245 -0.25991577 0.87951213 -0.39862537 0.0011181117
0.028706908 0.080488503 -0.013476122 -0.050385274 0.9489032 -0.31151888 0.0030095726
0.031612955 0.080494866 -0.013580129 0.090368539 0.95068669 -0.29669577 0.0022245711
0.034476954 0.080185801 -0.013466639 0.18176536 0.94198459 -0.28218147 0.0032659108
0.037559658 0.079356208 -0.013540966 0.33629519 0.91912478 -0.20521954 0.0018227131
0.039892338 0.078453839 -0.013326561 0.4376528 0.88383096 -0.16523579 0.0032952672
0.028833512 0.081021376 -0.012073057 -0.095117941 0.94835955 -0.30260006 0.0036165796
0.030152809 0.081026301 -0.012117517 0.010369847 0.97561258 -0.21925457 0.0024681622
0.028853752 -0.08116363 -0.0095675783 -0.032640029 -0.99665993 -0.074857399 0.0114812
0.030889137 -0.081097633 -0.0097180335 0.072695091 -0.98302424 -0.16846031 0.003496093
0.028953925 -0.080859236 -0.011101238 0.053792756 -0.97316414 -0.22373645 0.0065143118
0.031962533 -0.080835924 -0.010575413 0.13415246 -0.98495066 -0.10897382 0.0031631417
0.034634288 -0.080379114 -0.010389599 0.24931076 -0.96355504 -0.096984245 0.0031089401
0.037623033 -0.079412706 -0.010560391 0.35252732 -0.93473113 -0.044746131 0.0029195515
0.039820343 -0.078423209 -0.010538432 0.48234999 -0.87575865 0.019627985 0.0038221702
0.041288901 -0.077552691 -0.010483126 0.54826409 -0.8337186 0.065725103 0.0034902599
0.043204207 -0.076074943 -0.01041736 0.6680848 -0.73296577 0.12815604 0.0053614597
0.044289336 -0.074610993 -0.0098540578 0.75868529 -0.57745177 0.30157274 0.002337063
0.045775071 -0.072928593 -0.010794828 0.8292051 -0.48106921 0.28458986 0.0032955278
0.046947144 -0.070448697 -0.010385056 0.88186157 -0.34319207 0.3233254 0.0021419195
0.048117027 -0.069288805 -0.011783923 0.91106319 -0.34242979 0.22957745 0.0069628786
0.04773831 -0.067758791 -0.0097828209 0.93212235 -0.1940739 0.30575043 0.004470686
0.048321623 -0.067225218 -0.01113415 0.95391452 -0.18675719 0.23488021 0.0046058916
0.047828585 -0.064988852 -0.009620239 0.93704039 -0.064095378 0.34328881 0.0030147571
0.048512746 -0.064427726 -0.010722057 0.97413164 -0.01427544 0.2255298 0.0034444884
0.047789045 -0.061312091 -0.0096106697 0.96572721 0.13943204 0.2189285 0.0083499234
0.048366893 -0.061507598 -0.010674686 0.96917731 0.14581266 0.19858003 0.0045969421
-0.0056696353 -0.057361379 -0.0091795931 -0.51489621 0.11868282 -0.84899724 0.0063457182
0.047457743 -0.05823344 -0.010438441 0.92960298 0.35025984 0.1147014 0.0060228878
0.048130736 -0.05953598 -0.010939991 0.94376427 0.30044997 0.13798119 0.0053323396
-0.034788162 -0.054007508 -0.0090126004 0.17371769 -0.21597554 -0.96082091 0.0037051344
-0.0052285097 -0.055263627 -0.0095638772 -0.54765397 0.15122259 -0.82292581 0.0077342046
-0.0020280031 -0.054149926 -0.011811007 -0.56982261 0.31663913 -0.75831521 0.002361811
0.044989284 -0.054034144 -0.010794021 0.80957246 0.58701992 -0.00019679073 0.0032035122
0.046127435 -0.055475514 -0.010541897 0.87520289 0.48260832 0.033301406 0.0044489782
-0.051807247 -0.052252688 -0.010674452 0.48166499 -0.022994606 -0.87605375 0.020315289
-0.049694791 -0.052179858 -0.0098433793 0.4818837 -0.11057103 -0.86923087 0.012489993
-0.042764008 -0.051493123 -0.0091288006 -0.14401482 0.12834623 -0.98121715 0.011314342
-0.041282695 -0.051759835 -0.0092289634 -0.14493772 -0.090142012 -0.98532605 0.0061143409
-0.037084818 -0.052567631 -0.0098766424 -0.0049659708 -0.16602199 -0.98610955 0.0086084288
-0.034516435 -0.052215248 -0.0094933389 0.15773681 -0.19756781 -0.96751541 0.0030252042
-0.032455977 -0.052036647 -0.0091101239 0.18169565 -0.17278439 -0.96805596 0.0036402598
-0.0042678337 -0.052562274 -0.0097148158 -0.49467757 0.3230615 -0.80679947 0.0068306443
-0.0017501533 -0.052196667 -0.011235654 -0.50914741 0.38186932 -0.77132666 0.0017764701
0.043820459 -0.052296683 -0.010510755 0.76024932 0.64669997 -0.061644875 0.0025957834
0.045153081 -0.053738561 -0.010261774 0.80723089 0.59005737 -0.014511527 0.0046418421
-0.052036624 -0.049229421 -0.010918524 0.53352726 0.21870548 -0.81701696 0.037227664
-0.049788915 -0.049544994 -0.010246216 0.44556645 0.022921667 -0.8949554 0.014924297
-0.042957537 -0.049427964 -0.0091861766 -0.11461526 0.22322561 -0.968005 0.011833204
-0.040803343 -0.049333468 -0.0093788533 -0.20949683 0.18345986 -0.96044451 0.0094615277
-0.037225842 -0.049400009 -0.010338535 -0.048596159 0.097479716 -0.99405038 0.011918781
-0.034259569 -0.04936751 -0.0096604666 0.20113942 0.13806839 -0.96978354 0.0096280975
-0.032142188 -0.049734734 -0.0092044929 0.2056364 0.088318832 -0.97463506 0.008796446
-0.0036243286 -0.0508435 -0.0094010578 -0.4453544 0.45103899 -0.773449 0.003246235
-0.0012123168 -0.04955798 -0.010042978 -0.39481342 0.54968023 -0.73618889 0.002873661
0.0013256656 -0.048939262 -0.011068664 -0.40089643 0.60784626 -0.68542325 0.0048616468
0.0033779137 -0.04827914 -0.011583638 -0.31845447 0.7083028 -0.62999523 0.0023877763
0.038674511 -0.048167776 -0.011329239 0.51185513 0.83432525 -0.20470884 0.0033740939
0.040601898 -0.049287558 -0.010558753 0.59997368 0.78996414 -0.12644425 0.0025309585
0.04228038 -0.050643008 -0.010330882 0.68503869 0.7213822 -0.10163511 0.0031432949
-0.051862203 -0.047008269 -0.0098595619 0.37518373 0.44204354 -0.81476051 0.046214987
-0.049871583 -0.047192834 -0.0096575832 0.3528358 0.54181671 -0.76285088 0.034612469
-0.040742379 -0.047729503 -0.0090703489 -0.24222173 0.38311908 -0.89137447 0.024239976
-0.037388958 -0.046659663 -0.0096023642 -0.067506291 0.41076234 -0.90923995 0.014110554
-0.034863945 -0.04722112 -0.0093235634 0.21205768 0.43372184 -0.87573797 0.010212385
-0.032590281 -0.047956049 -0.0090618124 0.24955626 0.31828389 -0.91455841 0.019007999
-0.00058555522 -0.047998615 -0.0090600541 -0.35545054 0.62596428 -0.69413525 0.0045278505
0.0018183065 -0.047401052 -0.0097004455 -0.34176147 0.71645671 -0.60818499 0.0018993531
0.0047622733 -0.046553098 -0.010159826 -0.24097359 0.79046607 -0.56311208 0.00058367907
0.0073296688 -0.046096358 -0.010514511 -0.1873794 0.81761199 -0.54442585 0.00012921193
0.010329317 -0.045624882 -0.010774447 -0.14963304 0.82962841 -0.53789097 0.00010938813
0.01352632 -0.045437027 -0.011263768 -0.10748926 0.84114265 -0.53002369 0.00011732774
0.016593212 -0.045210436 -0.011409951 -0.069786459 0.8526113 -0.5178647 0.00012309046
0.019550484 -0.045206111 -0.011695536 -0.030201219 0.85889113 -0.51126707 9.5702926e-05
0.022670578 -0.04511556 -0.011615613 0.0087299505 0.88013542 -0.47464254 0.00053130009
0.025508322 -0.045220532 -0.011689322 0.053274035 0.88755852 -0.45760429 0.0009569024
0.028819818 -0.045305599 -0.011252462 0.12873857 0.93043059 -0.34311107 0.0022871762
0.031661719 -0.045546427 -0.010527253 0.21558245 0.9363811 -0.27697411 0.0045139901
0.034533538 -0.046188496 -0.010454133 0.28690132 0.93463796 -0.21009399 0.003448348
0.037486207 -0.047266524 -0.010354582 0.43611294 0.88462096 -0.1650798 0.0041502188
0.039174788 -0.047940794 -0.0093546659 0.55462861 0.82071489 -0.13716494 0.0045119561
0.011139846 -0.044616487 -0.0094282171 -0.13854299 0.83476269 -0.53289503 0.00015173497
0.013747135 -0.044504784 -0.0098093003 -0.095251732 0.8493191 -0.51921505 0.00017607964
0.01669991 -0.044358656 -0.010002641 -0.052848067 0.86253428 -0.50323135 0.00026422716
0.01965287 -0.044289194 -0.010127058 -0.006440999 0.87757802 -0.47939053 0.00061153143
0.022494934 -0.044294447 -0.010142308 0.043237932 0.89580661 -0.44233581 0.0015396564
0.025389107 -0.044459108 -0.010133943 0.10028208 0.91582716 -0.38884977 0.0023665689
0.028222304 -0.04470947 -0.0098580448 0.15514374 0.93502116 -0.31885079 0.0025535631
0.030299336 -0.044921376 -0.0092752958 0.20413649 0.95477188 -0.21619201 0.0028264532
0.014037857 0.044755168 -0.0093343826 -0.10025369 -0.84526664 -0.52485579 6.0454571e-05
0.016726341 0.044611782 -0.0095060514 -0.057668213 -0.8602109 -0.50666714 0.00023309268
0.019598981 0.044563886 -0.009668191 -0.009872132 -0.87379128 -0.48620102 0.0005972723
0.022195688 0.044540409 -0.0096556488 0.041305155 -0.89122683 -0.45167315 0.0016009643
0.025270805 0.044759195 -0.0097178137 0.10511965 -0.92747456 -0.3588047 0.0022326836
0.027384154 0.044859152 -0.009362665 0.16738161 -0.93010974 -0.32692406 0.0027028455
