# .PCD v0.7 - Point Cloud Data file format
VERSION 0.7
FIELDS x y z normal_x normal_y normal_z curvature
SIZE 4 4 4 4 4 4 4
TYPE F F F F F F F
COUNT 1 1 1 1 1 1 1
WIDTH 564
HEIGHT 1
VIEWPOINT 0 0 0 1 0 0 0
POINTS 564
DATA ascii
-0.040445521 -0.061376665 0.0076892418 -0.28505212 -0.89836049 -0.33420622 0.018862266
-0.037505057 -0.062227633 0.007658253 -0.28236952 -0.9354409 -0.21264502 0.0045797806
-0.034816414 -0.062775917 0.0071717883 -0.24249384 -0.95252037 -0.18412419 0.005384306
0.026628802 -0.061804026 0.0087799914 0.4896982 -0.12263083 0.86322492 6.3974338e-05
0.028489323 -0.061479557 0.0078850258 0.49647325 -0.11535512 0.86035317 8.987476e-05
0.0308138 -0.061408777 0.0065365597 0.50365436 -0.10916686 0.85698009 7.8438687e-05
-0.048909582 -0.059454001 0.0069056656 -0.27056292 -0.94324636 -0.19256684 0.0098698726
-0.046525247 -0.059499159 0.0077149249 -0.14137068 -0.98592955 -0.089203261 0.018518692
-0.044585112 -0.059897326 0.0070474548 -0.14132224 -0.98946655 -0.031368557 0.0089701395
0.028728204 -0.05847197 0.0080782706 0.51128906 -0.068052948 0.8567102 0.00014904248
0.031153357 -0.0584177 0.0066409563 0.51317728 -0.058604844 0.85627943 0.00027781646
0.028735895 -0.055443037 0.0082400292 0.54086024 0.027493674 0.84066308 0.0013536952
0.031039635 -0.055505961 0.0067995423 0.53964651 0.060680281 0.83970201 0.0020199947
0.026689898 -0.051755324 0.0089010075 0.55656719 0.18480575 0.8099876 0.0037502837
0.028762702 -0.052395601 0.0078333374 0.55737376 0.19751339 0.80642599 0.0023104143
0.030751836 -0.052693773 0.0065174098 0.55994391 0.26162747 0.78613859 0.0038759934
0.026306853 -0.048876293 0.0082059195 0.55658042 0.42569169 0.71344572 0.0025077062
0.028282408 -0.049701788 0.0071029174 0.57212412 0.44755906 0.68728811 0.0040550334
0.030084481 -0.05061581 0.0062635243 0.57820612 0.43963099 0.68731529 0.0026725952
-0.052723568 -0.046933874 0.0066325013 -0.96633834 0.25662574 -0.018261643 0.0084836781
0.02327561 -0.045651179 0.0081798006 0.55339831 0.60239589 0.5752126 0.0019051648
0.02526506 -0.046606891 0.0072633498 0.55627757 0.58582574 0.5893755 0.0044227
0.027342519 -0.047628932 0.0063888063 0.54765272 0.56730509 0.61501342 0.0019897742
-0.051576048 -0.043013271 0.0077971676 -0.90252191 0.4303183 -0.016743729 0.012575511
0.017799551 -0.042116273 0.0088375192 0.50831729 0.75052547 0.42228553 0.0024594152
0.019894946 -0.042817738 0.0078253672 0.50598347 0.76248062 0.40324184 0.0019209191
0.022216342 -0.04404914 0.0071972748 0.52550757 0.7011553 0.48189521 0.0028965715
0.024029169 -0.044852246 0.0063162548 0.51215088 0.70117337 0.49604172 0.0031186398
-0.051449843 -0.041258898 0.0075946581 -0.76583207 0.61957693 -0.17212132 0.008664649
-0.049848791 -0.04012784 0.0069051287 -0.43214521 0.85923779 -0.27379003 0.014774394
-0.047390148 -0.039058711 0.0064867223 -0.29755288 0.89830089 -0.32329208 0.0034193369
0.014138426 -0.039408274 0.007472944 0.43029439 0.88990879 0.15135723 0.0033395537
0.01652978 -0.040651966 0.007513552 0.44828254 0.85028368 0.27579051 0.0037165117
0.018643776 -0.041610364 0.0069300635 0.48092061 0.80210257 0.35404363 0.0031559574
-0.048133865 -0.038651273 0.0079743452 -0.40761563 0.87342304 -0.26642388 0.011206083
-0.046290644 -0.038637608 0.0076422603 -0.27931491 0.92094517 -0.27174118 0.0067090415
-0.043487426 -0.037979145 0.0073514734 -0.5791561 0.74012059 -0.34175986 0.057489693
0.0053025451 -0.036281705 0.0070525678 0.55247587 0.65911025 -0.5102393 0.041829091
0.0079736933 -0.036667615 0.0071018366 0.40218762 0.82732654 -0.39214277 0.021193611
0.010396336 -0.037740402 0.0076284949 0.43723667 0.88966155 -0.13163033 0.012479961
0.012559959 -0.038707688 0.0073644198 0.43087259 0.89758509 0.093219452 0.0072241509
-0.042474512 -0.034143109 0.0080262432 -0.92953193 0.11080994 -0.35169816 0.0049020085
-0.041930187 -0.035591558 0.0066117644 -0.91689724 0.24845916 -0.31235802 0.02370025
0.0051671159 -0.034493029 0.00695692 0.74029487 0.25873178 -0.62050086 0.026574373
0.0067761531 -0.035000976 0.0080919024 0.71079946 0.38401893 -0.58931631 0.049294136
-0.042194013 -0.030222548 0.0072857793 -0.93828005 0.072501875 -0.33819246 0.0056534922
0.0052040978 -0.031484567 0.0070042792 0.76757753 0.027947396 -0.64034659 0.0017306405
0.0063412772 -0.031508867 0.0084457574 0.66518587 0.00047373379 -0.74667764 0.01717798
0.0098450333 -0.030515699 0.0089511015 0.24536359 -0.24736801 -0.93733978 0.024022577
-0.0427326 -0.02879904 0.0086855767 0.91795772 0.072304443 0.39003307 0.0020756265
0.0052017174 -0.02848365 0.0070008151 0.72581005 -0.040963545 -0.68667448 0.010609007
0.006378117 -0.028872641 0.0084916819 0.53053069 -0.088374726 -0.84304631 0.03503279
0.0094786854 -0.027633131 0.0086391885 0.24905542 -0.10704808 -0.96255499 0.010069902
0.0051946728 -0.025437312 0.0069317222 0.72285724 0.0042206123 -0.69098443 0.010773522
0.0064255744 -0.025482878 0.0083168093 0.55578846 0.036079444 -0.83054054 0.034464035
0.0098699611 -0.025363548 0.0085962787 0.2083919 -0.029686244 -0.97759473 0.013488926
-0.044027362 -0.021807574 0.0086978469 -0.9016884 -0.072205618 -0.42631483 0.001840456
0.0052091372 -0.02245592 0.0069495891 0.72371954 0.026296506 -0.6895929 0.011574617
0.0063419249 -0.022181334 0.0083835954 0.52678043 0.074664935 -0.84671575 0.034874715
0.0097704325 -0.022567172 0.0085871536 0.2033212 0.045816552 -0.9780395 0.012880065
-0.042634714 -0.019305456 0.0071688518 -0.90429038 -0.00035054525 -0.42691791 0.0029349539
0.005201913 -0.019482411 0.0069400016 0.77608776 0.00016869461 -0.63062489 0.000387637
0.0063340538 -0.01947432 0.0083750011 0.61509073 0.077020697 -0.78468543 0.030233152
0.0099021802 -0.01997057 0.0087555526 0.26214918 0.11129634 -0.958588 0.027183622
-0.043387096 -0.017518589 0.0071460889 -0.90649229 -0.025697712 -0.42143968 0.0031706442
0.0052332478 -0.016480634 0.0069792657 0.79254591 0.0008278102 -0.60981166 0.0010383413
0.006379562 -0.016642375 0.008432202 0.72850746 0.022177441 -0.68467879 0.010245776
0.0096037034 -0.017470056 0.0089280885 0.26277956 0.22392672 -0.93851149 0.01956892
-0.043690074 -0.013374291 0.0078008221 -0.91421878 -0.047283087 -0.40245295 0.002854944
0.0051976596 -0.013519758 0.0069338442 0.79865879 0.0054614749 -0.60175931 0.00092149258
0.0063566519 -0.013621123 0.0084031373 0.78184414 0.0032888576 -0.62346536 9.1487687e-05
-0.043140326 -0.010280343 0.0063599311 -0.91279638 -0.016858492 -0.40806699 0.0028976384
0.0052352669 -0.010498763 0.0069809142 0.8012296 0.0048616282 -0.59833729 0.00062349078
0.0063491403 -0.010560731 0.0084230285 0.77578366 -7.0988484e-05 -0.63099903 0.0011185684
-0.043654758 -0.0089312587 0.0077001886 -0.91281825 -0.016868599 -0.40801752 0.0028647936
0.0051990664 -0.0074970145 0.0069346796 0.80612141 0.0011556479 -0.59174907 0.00041332518
0.0063463259 -0.0076117818 0.0084189568 0.78517932 -0.00016123385 -0.61926848 1.3787243e-07
-0.043620002 -0.0045736907 0.0076019429 -0.90349698 -0.0034403901 -0.4285807 0.0059079411
0.005213778 -0.0045285337 0.0069826427 0.78512341 -0.0001212409 -0.61933941 2.8417919e-08
0.0063543995 -0.0044797328 0.0084283575 0.77579248 0.00023092015 -0.63098806 0.0010913255
-0.043333326 -0.00094434019 0.006846928 -0.90602785 -0.021669904 -0.42266297 0.0050848518
0.0052152877 -0.0015015278 0.0069840923 0.78512222 -0.00013747822 -0.6193409 3.2548314e-08
0.0063543255 -0.0013996689 0.0084279571 0.7851541 -0.00013437257 -0.61930048 3.134931e-07
0.0052260184 0.0015041891 0.0069967988 0.78512013 -0.00015828527 -0.61934352 1.4280863e-07
0.0063623795 0.0015260429 0.0084372563 0.78515512 -0.00016674162 -0.61929911 2.5927832e-08
-0.04330172 0.0032790871 0.0067558028 -0.89498866 0.0037018512 -0.44607359 0.0013990728
0.0052491543 0.0044828593 0.0070254439 0.78509498 -0.00012753754 -0.61937541 1.4003164e-07
0.0063591986 0.0045524416 0.0084324563 0.78516227 -0.00013107613 -0.61929005 2.9975192e-07
-0.043022398 0.0067851157 0.0060202838 -0.89298403 -0.0051665613 -0.45005864 0.0015421497
0.0052469014 0.0075053563 0.0070218956 0.78507704 -0.00010754576 -0.61939812 1.0903469e-07
0.0063753449 0.0075610629 0.0084521268 0.78513634 -0.00010949204 -0.61932302 2.185608e-07
0.0052499673 0.010505938 0.0070256712 0.78506327 -8.4944157e-05 -0.61941558 2.173375e-07
0.006388966 0.01049228 0.0084687723 0.78514123 -9.6574011e-05 -0.6193167 4.1516958e-07
0.005260455 0.013466061 0.0070385127 0.78507698 -8.0123369e-05 -0.61939824 5.9621264e-08
0.0063853608 0.013465022 0.0084641585 0.78360558 -0.002763235 -0.62125248 3.7622889e-05
0.0052479808 0.016470218 0.0070220726 0.78276771 -0.00011429138 -0.62231404 3.7889571e-05
0.0063680932 0.016490828 0.0084418422 0.69005436 -0.030865505 -0.72309911 0.014476945
0.0095892744 0.017693784 0.0089743817 0.32978958 -0.19130993 -0.92446703 0.023724154
0.0052680499 0.019480314 0.0070465175 0.77737272 -0.00037157154 -0.62904018 0.00028851905
0.0063875993 0.019417349 0.0084655387 0.54085445 -0.077028826 -0.83758163 0.035367575
0.0099471603 0.019945668 0.0088113146 0.20450431 -0.14148855 -0.96858609 0.021335572
0.0052874899 0.022500779 0.0070704743 0.72080988 -0.03909969 -0.69202924 0.022852689
0.0064907037 0.022337468 0.0084033217 0.48617265 -0.063464642 -0.87155515 0.03587513
0.009696899 0.022673961 0.0085780537 0.23551135 -0.080785245 -0.96850824 0.0098908991
0.0052804789 0.025463032 0.0070613013 0.66623056 0.016368503 -0.74556613 0.016671916
0.0065654926 0.025224039 0.0084195537 0.46507642 -0.072758682 -0.88227552 0.042659301
0.0098493146 0.025480295 0.0085798921 0.26004723 0.020718392 -0.96537358 0.011577814
0.0051732077 0.028310195 0.0069245361 0.72196746 0.037674122 -0.69090056 0.018061358
0.0063825347 0.028807024 0.0084476611 0.47592571 0.10951161 -0.87264085 0.030067498
0.009521543 0.027917 0.0085852575 0.23774157 0.10206676 -0.96595097 0.0093886433
0.0052933921 0.031509783 0.0070665306 0.77670455 -0.0077674421 -0.62981725 0.0003354639
0.0063873585 0.031519677 0.0084528886 0.57591248 0.062752396 -0.81509936 0.032874133
0.0098965131 0.030769747 0.0089046769 0.24090356 0.19871965 -0.94998735 0.020946315
0.0052715098 0.034413759 0.0070379395 0.76068425 -0.2075056 -0.61506164 0.018776517
0.0065790755 0.03450821 0.0084655536 0.72365361 -0.24164307 -0.6464783 0.024726972
-0.044934504 0.038576145 0.0082000131 -0.27310517 -0.93134677 -0.24084596 0.0027886308
0.0051668282 0.036435913 0.0066086766 0.6276772 -0.59207141 -0.5054431 0.028725924
0.0076568197 0.03672469 0.0074264552 0.56836778 -0.66681719 -0.48198846 0.025910392
0.010328925 0.038194541 0.0076034735 0.51556325 -0.82015812 -0.24806282 0.028457655
0.012252277 0.03892402 0.0067775254 0.4368681 -0.89931411 -0.019504501 0.013455012
-0.049878456 0.040466562 0.006960996 -0.32341713 -0.87665766 -0.35619193 0.0075587723
-0.047018331 0.039372485 0.0070113628 -0.24555933 -0.9294579 -0.27533355 0.0035929149
-0.044901878 0.039043047 0.0067777927 -0.25877938 -0.93613344 -0.23809128 0.0036420433
0.01195595 0.039231244 0.0085154688 0.51116806 -0.84365213 0.16418998 0.010323539
0.013668615 0.039736923 0.007750114 0.44479474 -0.87922329 0.17065796 0.0055470495
0.01631964 0.041033097 0.0075672325 0.46619499 -0.82646447 0.31562442 0.0028163816
0.018579604 0.041851006 0.0064738216 0.48707497 -0.81411529 0.3161872 0.0034277472
0.017602233 0.042130258 0.0085577462 0.49329159 -0.7956444 0.35158721 0.0028238851
0.019627614 0.043104012 0.0077545382 0.49853039 -0.77935475 0.37957031 0.002100033
0.021985777 0.044286691 0.0070578754 0.52113068 -0.70872027 0.47553998 0.0024070875
0.023099296 0.045850903 0.0080124317 0.54473835 -0.6422233 0.5392673 0.0032101353
0.025133006 0.04688153 0.0071507958 0.55257791 -0.60489786 0.57337272 0.0035778063
0.027217651 0.047670197 0.0061334316 0.51488006 -0.61466402 0.59756732 0.0027602438
0.026216364 0.049126744 0.0080901664 0.56497496 -0.42498374 0.70724267 0.0023651032
0.028187625 0.049753428 0.0068696938 0.57640016 -0.47369158 0.66586715 0.0025649567
0.030351212 0.050984006 0.0060074325 0.5531075 -0.47381103 0.68525571 0.0024688081
-0.052328486 0.052965976 0.0073711616 -0.93600988 0.35151383 -0.017987672 0.027145807
0.026728241 0.051531982 0.0087810121 0.56923139 -0.20741524 0.79558438 0.0035289417
0.028548695 0.052476458 0.0078025404 0.56217343 -0.22280559 0.79644126 0.0031332551
0.030621193 0.052716665 0.0064200517 0.55433017 -0.30327266 0.77507663 0.0030714991
-0.052080654 0.055559762 0.0068779602 -0.9360106 0.35151285 -0.017969411 0.027146097
0.026841948 0.05633815 0.0088592703 0.51792639 0.0087934118 0.85538 0.00048436472
0.028793726 0.055468097 0.008130528 0.53881818 -0.046405997 0.84114301 0.0015989274
0.031135049 0.05558059 0.0066542067 0.53512233 -0.07843259 0.84112573 0.0023995368
-0.051389847 0.057971399 0.0072916676 -0.81593657 0.57758063 -0.025459267 0.023357954
-0.05031918 0.059096746 0.0071330387 -0.47668406 0.85829264 -0.19001599 0.006281103
0.026780106 0.058711968 0.0088614151 0.50227487 0.078440771 0.86114287 0.00017957264
0.028698651 0.058508467 0.0080646845 0.51337695 0.06071065 0.85601306 0.00023955901
0.03111238 0.05846402 0.0066328696 0.51229507 0.045392308 0.85760909 0.00049358618
-0.048425905 0.060606744 0.0073550511 -0.4634864 0.85227394 -0.24250652 0.0044784416
-0.046090569 0.061375421 0.007408245 -0.34108621 0.89510661 -0.28713137 0.0033003844
-0.043171749 0.062214594 0.0072369757 -0.26956001 0.90938705 -0.31678501 0.00015789091
-0.040885799 0.062786408 0.0068944236 -0.25749904 0.90570843 -0.33672926 0.00026048673
0.02653618 0.061847825 0.0086728921 0.49591675 0.11782873 0.86033881 4.9361453e-05
0.028543465 0.061538242 0.0078173019 0.49823183 0.11075918 0.85994041 7.5256336e-05
0.030891966 0.061330196 0.0064889779 0.50049794 0.10532992 0.8593064 7.8158148e-05
-0.042396907 0.06306944 0.0088836234 -0.29329532 0.91973931 -0.26087847 0.00068742834
-0.039936889 0.063385911 0.0077327495 -0.26540241 0.90159851 -0.34158692 0.00026241716
-0.037655756 0.064064898 0.0076820776 -0.26158223 0.90146649 -0.34486669 0.00043114036
-0.034776438 0.064763643 0.0074795801 -0.24228376 0.89730608 -0.36897203 0.00027997917
-0.031803567 0.065449305 0.0071494672 -0.24280095 0.89164877 -0.38211283 0.00047458604
-0.029184477 0.065858118 0.0064054537 -0.24362013 0.87793887 -0.41215599 0.00064017298
0.026407802 0.064761944 0.0085489405 0.48723325 0.14858541 0.8605383 5.7526828e-05
0.028506957 0.064559557 0.007388195 0.48940784 0.14340153 0.86018366 7.1457362e-05
0.030549189 0.064175159 0.0062842187 0.49398953 0.13913824 0.85826272 5.2817973e-05
-0.030423652 0.066327669 0.0082555581 -0.25461128 0.91583264 -0.31052154 0.0010742231
-0.028018728 0.066675819 0.0075137108 -0.24336378 0.88769776 -0.39085385 0.00074152858
-0.025252586 0.067495055 0.0075118155 -0.25034547 0.87572646 -0.4128319 0.0010534796
-0.02253625 0.068197273 0.0072143064 -0.26975417 0.86228472 -0.42859966 0.0012554881
-0.020165509 0.068689749 0.0065769381 -0.28794691 0.83568364 -0.46767455 0.0012726892
0.023757115 0.068389855 0.0088010775 0.46830633 0.20855603 0.85859978 0.00043861539
0.025945202 0.067624636 0.0082505234 0.47140008 0.19809277 0.85938418 0.00035381626
0.028430276 0.06745775 0.0069020544 0.47845286 0.18399213 0.85862088 0.00017460628
0.030257989 0.066790417 0.006166636 0.48737264 0.17737746 0.85498846 0.00012879451
-0.021405458 0.069217339 0.0085986909 -0.27953443 0.88299936 -0.37705785 0.00067924417
-0.019031489 0.069641158 0.0078122392 -0.29438618 0.86159307 -0.41351441 0.0015731541
-0.016327616 0.070483699 0.0075903591 -0.28374702 0.91815168 -0.27655947 0.0036828932
-0.013874935 0.071388744 0.0075542745 -0.33109555 0.90748113 -0.25856084 0.0039766962
-0.01168315 0.071795493 0.0064700628 -0.34690669 0.88991916 -0.29614133 0.0053618932
0.023313668 0.071158722 0.0085954648 0.425129 0.32739344 0.84384763 0.0024995187
0.025493873 0.070456594 0.0077563222 0.44287795 0.2974354 0.84580809 0.0021803186
0.027978146 0.070222706 0.0064961272 0.45024347 0.27122492 0.85071605 0.0013291817
-0.012614083 0.072159469 0.0084232409 -0.28466064 0.95611167 -0.069416575 0.0076668146
-0.010380297 0.072763182 0.0078204656 -0.27038592 0.95699376 -0.10514035 0.0055666105
-0.0073904651 0.07367634 0.0076349303 -0.29748616 0.95357424 -0.046885036 0.0051247715
-0.0044556558 0.0745335 0.0076146214 -0.26709846 0.96240258 0.049393509 0.0054949089
-0.0026853215 0.074896649 0.0079316525 -0.28906974 0.95579416 0.053817105 0.004182735
0.014595294 0.074828543 0.0089504039 0.22025752 0.72191733 0.65598941 0.0020827597
0.017232055 0.074739657 0.0086276671 0.23325804 0.71658605 0.65733945 0.0026117852
0.019740026 0.074211776 0.008218037 0.29650763 0.61026895 0.73461211 0.0025066412
0.022659181 0.073361263 0.0076746959 0.35709843 0.50158012 0.78797084 0.0031513567
0.025374038 0.072957091 0.0066897785 0.3853882 0.45910943 0.80043399 0.0029400031
0.027391136 0.072307184 0.0061508799 0.41177818 0.43272915 0.80198771 0.003275089
-0.0012793677 0.075404257 0.0073437043 -0.23868935 0.96769547 0.081196591 0.0038342064
0.0019913609 0.076228388 0.0073960298 -0.1254763 0.96775901 0.21839908 0.0036282747
0.0045346222 0.076473527 0.0076529593 -0.040530249 0.95800412 0.28387576 0.0030595753
0.0076658404 0.076729245 0.0072833672 -0.0047734836 0.94613755 0.32372957 0.0034418576
0.010485766 0.076602124 0.0075286082 0.036328793 0.91844362 0.39388013 0.0042519243
0.013474683 0.076319352 0.0075646685 0.097500324 0.86912251 0.48489147 0.0032609801
0.016441246 0.076009333 0.0072925561 0.16225816 0.8198961 0.54903799 0.0036935916
0.019360444 0.075700037 0.0068037142 0.19879481 0.7599982 0.61877567 0.003283798
0.021902496 0.075309567 0.0063026757 0.26580527 0.67948675 0.683846 0.0029687267
-0.00027674797 -0.075102486 0.0090184947 -0.19944079 -0.97122085 0.1302052 0.0027526
0.0019992974 -0.075286776 0.0098970039 -0.099867269 -0.92493224 0.36677894 0.0030584901
0.0047499388 -0.075418174 0.0099888854 0.0052055833 -0.92033404 0.39109865 0.0037707367
0.0075014527 -0.075411052 0.0097341966 0.066484749 -0.90035933 0.43003812 0.0029764068
0.010411136 -0.075253576 0.0094942134 0.10694187 -0.8647607 0.49066523 0.0031544701
0.012761506 -0.075146504 0.0090838699 0.14880148 -0.81676227 0.55745625 0.0035109215
-0.012153315 -0.072084524 0.0093438821 -0.21238725 -0.93981361 0.26766026 0.002565285
-0.01024971 -0.072322324 0.010529411 -0.29018953 -0.95543569 0.054154623 0.0099925157
-0.0074855685 -0.073053211 0.010118221 -0.31354353 -0.94237298 -0.11672021 0.012781649
-0.0047809412 -0.073524922 0.010874438 -0.22501045 -0.94672793 0.23038353 0.0086908033
-0.0011246619 -0.074346781 0.010707638 -0.20484871 -0.93041062 0.30392924 0.0033821582
0.0019585558 -0.074650794 0.011467784 -0.058836848 -0.90203136 0.42764187 0.0040171812
0.0049286056 -0.07473278 0.011648175 0.030340035 -0.89375943 0.44751948 0.0040526767
0.007549528 -0.074647725 0.01124965 0.10919028 -0.87777925 0.46645591 0.00305781
0.010522201 -0.074217238 0.011059323 0.15686245 -0.83214056 0.53191751 0.0019506884
0.013570033 -0.073941477 0.010373686 0.18254364 -0.78554845 0.59126258 0.0021208543
0.016596703 -0.073021673 0.010132677 0.2883676 -0.60351455 0.74338037 0.0025351183
0.019020053 -0.072524235 0.0095654 0.33518329 -0.56018496 0.7575255 0.0025195682
0.021292696 -0.072088145 0.0090790419 0.31176457 -0.57513028 0.75632536 0.003143142
-0.021867728 -0.06935069 0.011603319 -0.17696773 -0.98369467 0.032049499 0.011472027
-0.019191533 -0.069944292 0.01120064 -0.10133257 -0.99379241 -0.045917727 0.010023017
-0.016498428 -0.070470072 0.010946892 -0.23697211 -0.97027045 -0.04918785 0.004833628
-0.013451169 -0.071327962 0.010550472 -0.34838444 -0.93076241 -0.11094849 0.0045649968
-0.011589012 -0.071566187 0.010832946 -0.32651344 -0.93780637 -0.11793298 0.010232772
-0.007360498 -0.071994513 0.0091087837 -0.32976693 -0.91617239 -0.22777602 0.032210026
0.014664258 -0.071842909 0.01175032 0.33978266 -0.49859118 0.79746759 0.0025908279
0.017186558 -0.070751466 0.011534113 0.38797542 -0.3866998 0.83662319 0.0024164293
0.019585872 -0.070337355 0.010649891 0.40306336 -0.3664445 0.83860499 0.001768273
0.022221252 -0.069987968 0.0095287617 0.42976877 -0.31685245 0.8455196 0.0021043483
-0.033508092 -0.066201471 0.011949165 0.049894691 0.2611419 -0.96401006 0.012115363
-0.03140856 -0.066688083 0.011931782 0.23265123 0.96568793 0.11541318 0.00050089217
-0.028720509 -0.066920146 0.011679742 -0.060060777 0.2774379 -0.95886433 0.0027484375
-0.02545052 -0.067580208 0.011063454 0.01561688 0.20468201 -0.97870392 0.00062770606
-0.022599986 -0.067694232 0.01052484 -0.24741128 -0.91347122 -0.32304481 0.017577818
-0.019692175 -0.068386547 0.0099853231 -0.31179589 -0.8855505 -0.34435987 0.024547115
-0.01776626 -0.068777382 0.0092113679 -0.31563678 -0.90784651 -0.27602208 0.016186874
0.017740179 -0.068847217 0.011982257 0.40867373 -0.3769415 0.83120447 0.0017380698
0.019856948 -0.067594737 0.011473603 0.43776321 -0.24318773 0.86557668 0.00072369457
0.022479961 -0.06750723 0.010118677 0.45549417 -0.22998825 0.86001772 0.00061121723
0.024452796 -0.067179509 0.0091314549 0.46435294 -0.2146375 0.85924792 0.0005098168
-0.042510346 -0.063210115 0.011443578 -0.080440141 0.28995925 -0.9536525 0.014871838
-0.039912134 -0.06390404 0.011634355 -0.19942193 -0.88828719 -0.41373521 0.01946049
-0.037706308 -0.064135626 0.011352731 0.27501681 0.22112869 -0.93566442 0.0023673875
-0.034923613 -0.064991362 0.011295689 -0.056706104 0.32297966 -0.94470555 0.0045782761
-0.031286042 -0.065004572 0.010391385 -0.23596446 -0.87075949 -0.43139166 0.012206902
-0.028727243 -0.065659106 0.010191339 -0.28071395 -0.88789779 -0.3644684 0.0010377957
0.020496586 -0.064779505 0.011757841 0.46276575 -0.16867509 0.87028539 7.3545045e-05
0.022560954 -0.064528458 0.010712956 0.47105062 -0.16273573 0.86696506 8.8220331e-05
0.024944829 -0.064506948 0.0093898997 0.47686169 -0.15954736 0.86437696 6.3289706e-05
-0.048453521 -0.060438413 0.010443009 -0.18831593 -0.95792675 -0.21659519 0.016047312
-0.04659652 -0.061216153 0.010960344 0.43497398 0.17089446 -0.88407731 0.0024507977
-0.043481749 -0.061665453 0.010884018 -0.27492431 -0.86738384 -0.41480348 0.016180523
-0.0405729 -0.062244657 0.010341512 -0.22606307 -0.86541086 -0.44716835 0.018889051
-0.038291961 -0.062791698 0.0097517343 -0.27059823 -0.8714838 -0.40901414 0.0084053073
0.020571772 -0.062305279 0.011953251 0.46640855 -0.13568479 0.87410104 0.00014232195
0.022543656 -0.061540641 0.011205069 0.47747627 -0.13114958 0.86880159 6.1091952e-05
0.025324387 -0.061547566 0.0096586766 0.48547134 -0.12568958 0.8651703 5.0575793e-05
-0.048759717 -0.059616487 0.0097646117 -0.18855081 -0.95786655 -0.21665709 0.016107103
-0.0475435 -0.059874073 0.010086745 -0.17909296 -0.93949461 -0.29201999 0.017683726
0.022905465 -0.058600608 0.01140363 0.48558232 -0.094616234 0.86905563 9.7165546e-05
0.025487913 -0.058522072 0.009967803 0.49258235 -0.088407122 0.86576366 0.00011925364
0.027190512 -0.058282353 0.0090933321 0.50105578 -0.079804018 0.8617276 0.00012884228
0.023166092 -0.055503249 0.011522958 0.50365025 -0.033102814 0.86327326 0.00040001218
0.025493387 -0.055523377 0.010185385 0.4999876 -0.021908212 0.86575544 0.0004633319
0.027371366 -0.055392969 0.0090825362 0.51822793 0.0075037759 0.85520965 0.0012561633
0.023195965 -0.052378636 0.011507469 0.53928989 0.092155159 0.8370626 0.0022762939
0.025514046 -0.052447736 0.010044527 0.53019065 0.14887431 0.83470613 0.0031083638
0.02725924 -0.053307515 0.009063229 0.5353294 0.16877082 0.82761037 0.0031266122
0.020800591 -0.048448805 0.011848586 0.58224207 0.30634856 0.75309014 0.0093368273
0.022796631 -0.049245529 0.0110549 0.55559558 0.33582047 0.7606169 0.0020144724
0.025091266 -0.049706608 0.0095845545 0.55614722 0.37580851 0.7412613 0.0027106917
0.020082897 -0.04589162 0.011268102 0.5618397 0.48003513 0.67372274 0.0034515469
0.022217903 -0.046670884 0.010028123 0.56050742 0.50886285 0.65336823 0.0032116123
0.024325034 -0.047729719 0.0091879647 0.54418308 0.51973814 0.65858722 0.0022886684
-0.05109762 -0.042238615 0.011516721 -0.90224868 0.39716396 -0.16795288 0.016667269
0.017128773 -0.042824145 0.011001972 0.53942251 0.67516279 0.50316846 0.0038855087
0.019180181 -0.043837234 0.010114093 0.54609936 0.64239222 0.53768748 0.0040624025
0.021297051 -0.044708841 0.0091153188 0.52570164 0.65507185 0.54269564 0.003854498
-0.051269464 -0.041450009 0.010425183 -0.89385039 0.43592921 -0.10486723 0.0099612186
-0.050255254 -0.039494902 0.01068154 -0.7814731 0.60908055 -0.13535425 0.028270286
0.011889162 -0.039263651 0.011473437 0.81347865 0.55480528 0.1744809 0.029653272
0.013550543 -0.040123828 0.010713739 0.55906564 0.77108395 0.30475414 0.0073128003
0.015925102 -0.041337773 0.010086694 0.51389951 0.74901867 0.41818455 0.0031463536
-0.048388168 -0.038078837 0.010654595 -0.4561913 0.86554462 -0.20669305 0.012695441
-0.046714362 -0.037878461 0.01056681 -0.34230798 0.91837519 -0.19852515 0.020460304
-0.044092841 -0.037799563 0.010450833 -0.5965178 0.78409177 -0.17136681 0.062944353
0.0085504083 -0.036354754 0.0092636338 0.53836232 0.56633699 -0.62404191 0.035909463
0.010715162 -0.037643481 0.010555945 0.73987544 0.66222942 -0.11847585 0.059711047
0.012381375 -0.038912881 0.0093544247 0.5941841 0.79285902 0.135351 0.016638225
-0.043850977 -0.035214432 0.011615555 -0.83568412 0.44554523 -0.32112551 0.058145553
0.0076569426 -0.034729354 0.0096841054 0.58996224 0.22772966 -0.77465069 0.029764393
0.01033475 -0.034857158 0.010867361 0.76805097 -0.13369694 -0.62627697 0.045906749
0.012221199 -0.033447463 0.01176852 0.82576263 -0.35835564 -0.43554258 0.024321849
-0.043288168 -0.03199292 0.010142474 -0.92613667 0.039840508 -0.37507817 0.0013408574
0.0072428235 -0.03189953 0.009415674 0.43832079 -0.022198543 -0.89854443 0.026215812
0.010927269 -0.031522356 0.0099657997 0.42846543 -0.27600062 -0.8603726 0.013936044
0.013019519 -0.031248076 0.011334249 0.70521939 -0.32384628 -0.6307053 0.0098243812
0.007826075 -0.028394951 0.0094548799 0.28822225 -0.080439337 -0.95417893 0.04466261
0.010851726 -0.02868272 0.0093621537 0.34419221 -0.18198952 -0.92109263 0.014187808
0.013445229 -0.028257383 0.010767337 0.69201785 -0.20124716 -0.69326103 0.010176347
0.01527603 -0.02751556 0.011998261 0.90237522 -0.14089617 -0.40726796 0.019677939
0.0078860121 -0.025271788 0.00924767 0.26047236 0.009827381 -0.96543133 0.041054286
0.011045069 -0.025652889 0.0091493009 0.31193045 -0.072556622 -0.94733047 0.01139092
0.013603626 -0.025584616 0.010525384 0.62540323 -0.078784414 -0.7763142 0.011926886
0.015184213 -0.025167435 0.011697844 0.79254943 -0.045927327 -0.6080758 0.021387121
0.0077370014 -0.022484465 0.0092375102 0.19899413 0.0052520628 -0.97998661 0.037821803
0.010926012 -0.022398919 0.009164243 0.29947916 0.052286092 -0.95266908 0.01474278
0.013628431 -0.022479346 0.010519638 0.64464396 0.074854612 -0.76080942 0.0076673115
0.015232868 -0.022831701 0.011727353 0.77523941 0.099858962 -0.6237244 0.010647035
-0.045075987 -0.018991135 0.01142758 -0.93227834 -0.036674187 -0.35987794 0.0031410502
-0.044552196 -0.020391917 0.010063307 -0.93228 -0.036660146 -0.35987517 0.0031415133
0.0072966754 -0.01904582 0.0092817526 0.36152807 0.076435938 -0.92922276 0.035815779
0.011014906 -0.019317104 0.0093942294 0.35850179 0.2090423 -0.90982294 0.014207086
0.013504897 -0.019557262 0.010938171 0.69745302 0.22291681 -0.68107808 0.0088840257
-0.044508029 -0.01581664 0.0099395607 -0.90232569 -0.014551664 -0.43080935 0.0023852922
0.0072732642 -0.016193887 0.0095116068 0.49814209 0.075268038 -0.86382246 0.02765058
0.010940369 -0.016443031 0.010125416 0.48711872 0.35712889 -0.79697829 0.012991701
0.012738805 -0.01686088 0.011218205 0.7098161 0.36075595 -0.60499275 0.0079319896
-0.045285825 -0.013743595 0.01196474 -0.93239456 -0.0026025258 -0.36143282 0
0.0074882689 -0.013411356 0.0098645473 0.60476375 0.036000289 -0.79559082 0.015336377
0.010528238 -0.013632992 0.011151482 0.5922991 0.34795228 -0.72671235 0.027553663
0.012160177 -0.014787644 0.011785127 0.77699995 0.4265734 -0.46293208 0.018455192
-0.044722181 -0.01064189 0.010488489 -0.91920447 -0.0182769 -0.39335635 0.0016277244
0.0075281826 -0.010470011 0.0099194422 0.67524481 -0.013049673 -0.73747832 0.010344878
0.0099820523 -0.010534512 0.011221328 0.73799872 0.12254269 -0.66358209 0.022597121
-0.044422332 -0.0069103828 0.0096990364 -0.92025226 -0.0097693056 -0.39120385 0.0010611395
0.007512447 -0.0074725896 0.0098983254 0.66712612 -0.013726372 -0.74481833 0.0089565758
0.0099658202 -0.0074830782 0.011331025 0.84362996 0.024883738 -0.53634816 0.020030122
0.0074922731 -0.004455464 0.0098718302 0.66288126 -0.014519596 -0.74858373 0.0079752831
0.0099808378 -0.0044644619 0.011294419 0.8923893 0.0053378958 -0.45123467 0.031314764
-0.044380564 -0.0025728252 0.009581266 -0.93375337 -0.00066970655 -0.35791662 0
0.007504649 -0.0014620076 0.0098869754 0.66838783 -0.012440842 -0.74370885 0.0090997899
0.0099732429 -0.001513493 0.011305233 0.89129817 0.0014087239 -0.45341539 0.032279998
0.00750511 0.0014540402 0.0098867742 0.66727662 -0.00017088102 -0.74481004 0.0092014521
0.0099568628 0.0014780263 0.011277099 0.8353346 -0.0046542874 -0.54972214 0.017730167
0.0074925916 0.0044847322 0.009870165 0.68305993 0.0046845982 -0.73034728 0.0092548002
0.0099869436 0.0045247534 0.011301448 0.83936715 0.00208216 -0.54356098 0.020164067
0.0075459154 0.0074986168 0.0099376822 0.6840142 0.0054448405 -0.72944832 0.009888106
0.010004048 0.0075147939 0.011305558 0.83836001 -0.0095718335 -0.54503298 0.019477129
0.0075458144 0.010453957 0.009936736 0.67783284 -0.0092409682 -0.73515803 0.010948235
0.010028049 0.010483833 0.011325308 0.79348248 -0.084314942 -0.60272419 0.02058788
0.0075228545 0.013423644 0.0099068573 0.6356526 -0.021268265 -0.77168226 0.012567954
0.010303585 0.013560371 0.011194282 0.64032185 -0.28603628 -0.71286124 0.030856758
0.012189497 0.014802389 0.011936071 0.68752456 -0.4560225 -0.56511384 0.024797266
0.0072505944 0.016214076 0.0094880676 0.5098719 -0.091723524 -0.85534638 0.024975207
0.010914085 0.016401099 0.01032282 0.49731237 -0.36588874 -0.78664213 0.011828995
0.012647375 0.016742408 0.01141431 0.69993103 -0.38356084 -0.6024763 0.0078334464
0.0075455918 0.019301364 0.0093680387 0.32661459 -0.075330153 -0.94215089 0.038397614
0.01095065 0.019349393 0.009448722 0.36818412 -0.21682608 -0.90411669 0.012626419
0.013396004 0.019534908 0.010979995 0.68440825 -0.24589828 -0.6863814 0.0088019501
0.0076929922 0.022453031 0.0092201428 0.22200856 -0.016667919 -0.97490221 0.039678801
0.011242586 0.022355763 0.0091559161 0.37274837 -0.10531578 -0.92193663 0.013285503
0.013626088 0.022353649 0.010584418 0.67287284 -0.10568038 -0.73217052 0.0080388496
0.015192781 0.023133473 0.011836684 0.88245505 -0.092300564 -0.46125236 0.010380903
0.0077658915 0.025348708 0.0091835624 0.22927637 -0.012789271 -0.97327733 0.037419219
0.011330456 0.025591742 0.0091098826 0.32943043 0.055712335 -0.94253474 0.012689425
0.013816644 0.025645018 0.010645417 0.70554006 0.057930313 -0.70629835 0.010324787
0.015285558 0.025476268 0.011737279 0.83072776 0.033903569 -0.55564547 0.012647334
0.0078189056 0.02862902 0.0092718583 0.26797596 0.019464947 -0.96322888 0.039497957
0.011166051 0.028752381 0.0092831841 0.38616294 0.15434429 -0.90942627 0.014912098
0.013706943 0.02828921 0.010836483 0.71441817 0.17980817 -0.67622161 0.00958886
0.01520184 0.027698189 0.011791173 0.8166281 0.19021498 -0.54491907 0.011609705
0.0072103897 0.031901754 0.0093498928 0.3907595 0.068276048 -0.91795731 0.027875831
0.010793426 0.031546682 0.0096912347 0.35310659 0.25302607 -0.90071833 0.0067539066
0.01309298 0.031297129 0.011150773 0.6997028 0.30850279 -0.64439285 0.0086885989
0.0073723923 0.034447823 0.009635292 0.52602696 -0.080380037 -0.84666085 0.040417388
0.010612984 0.034621835 0.01081366 0.64029354 0.32371908 -0.69658464 0.039789505
0.012302269 0.033628974 0.01156657 0.78186387 0.38278094 -0.49210536 0.019686941
-0.048099622 0.038527917 0.01014659 -0.25810388 -0.93457818 -0.24483879 0.001854193
-0.046848983 0.03849699 0.010221438 -0.25802127 -0.93460643 -0.24481811 0.00183005
0.0082421759 0.036235724 0.0093715852 0.58318287 -0.55351287 -0.59457654 0.033442579
0.010445355 0.037637066 0.010659646 0.85366136 -0.46159264 -0.24123532 0.070689566
0.011651305 0.039324787 0.011094663 0.79627377 -0.59016323 0.13287389 0.054848827
0.013424465 0.040516276 0.010633687 0.5884161 -0.71905953 0.36975667 0.0062255776
0.015702406 0.041580588 0.0098826345 0.51232129 -0.75299925 0.41293952 0.0031582885
0.014587101 0.042094842 0.011781325 0.5479545 -0.65808636 0.5163992 0.0032880558
0.016950145 0.043078423 0.010843663 0.53203905 -0.6899361 0.49083871 0.0032401646
0.019104796 0.044162769 0.009984971 0.54480708 -0.64431643 0.53669506 0.0026744108
0.021164753 0.044926181 0.0090730144 0.50727522 -0.6666472 0.54612577 0.0020352565
0.020036209 0.046109624 0.011054764 0.55964422 -0.49820718 0.66225976 0.0030607611
0.022175521 0.046935208 0.0098797604 0.56123072 -0.51115352 0.65095478 0.0035205591
0.024175771 0.047799628 0.0090790419 0.54551488 -0.54930693 0.63298941 0.002489672
0.020695154 0.048234023 0.011659715 0.56139463 -0.37671575 0.73683196 0.0069033792
0.022656994 0.049516246 0.010963534 0.54961938 -0.30677715 0.77704972 0.0019812724
0.024872404 0.049806967 0.0095307343 0.5615288 -0.38525632 0.73229975 0.0027170784
0.023116009 0.052389469 0.011431523 0.53872949 -0.1056892 0.83582318 0.0021606106
0.025432756 0.052566309 0.0099766301 0.53006983 -0.15002041 0.83457762 0.002924832
0.027245829 0.053294081 0.0091032293 0.54434323 -0.21315698 0.81132883 0.0034818347
-0.051914234 0.055962238 0.010052967 -0.922373 0.37000769 -0.11100591 0.016032496
0.023173364 0.055651434 0.011480154 0.50694054 0.017817328 0.86179686 0.00048869243
0.025446033 0.055435654 0.010166844 0.50881797 0.00085319736 0.8608737 0.00081098086
0.027368005 0.055652212 0.0090879733 0.52194798 -0.030574819 0.85242915 0.0016295321
-0.051118549 0.058727734 0.010453591 -0.78414756 0.58869714 -0.196337 0.015913015
-0.050170138 0.059714265 0.009726543 -0.59353197 0.77900845 -0.20215251 0.013919321
0.022969298 0.058480002 0.011371018 0.4876138 0.084410444 0.86896932 8.9995017e-05
0.025445465 0.058532067 0.0099748839 0.49509373 0.080385752 0.8651129 9.8705554e-05
0.027252048 0.058427058 0.0090857018 0.50450099 0.070484765 0.86052924 0.00016224358
-0.048683435 0.061288901 0.010725928 -0.47856557 0.85485905 -0.20047675 0.004348774
-0.046477124 0.062179066 0.010527993 -0.38070208 0.90359193 -0.19643742 0.0024413643
-0.044104703 0.062719315 0.0097359186 -0.31051645 0.91923225 -0.24205701 0.00052225287
0.020687317 0.06235275 0.011864175 0.46336886 0.13142397 0.87636578 0.00012638397
0.02271202 0.061563477 0.011152497 0.47797257 0.12453327 0.86950195 9.283227e-05
0.025301594 0.061431091 0.0097023314 0.49105629 0.11939543 0.86290699 6.1402985e-05
0.027036676 0.060497731 0.0090790419 0.49430344 0.11845648 0.86118072 7.0314665e-05
-0.043167334 0.063423872 0.010986434 -0.31154361 0.9177503 -0.24632283 0.00069670985
-0.040482238 0.064179704 0.010535953 -0.29341948 0.91277331 -0.28416532 0.00043962052
-0.038032606 0.065020368 0.010574782 -0.28075492 0.91924304 -0.27598733 0.0013877887
-0.035341229 0.065681435 0.01031531 -0.26212186 0.91302347 -0.31253862 0.00039418254
-0.032967586 0.065809399 0.0090434449 -0.23615386 0.92159373 -0.30805269 0.00054447452
0.020550117 0.065211788 0.011679067 0.45935494 0.16795233 0.87222993 0.00011211055
0.022503257 0.064490415 0.010782797 0.47180629 0.1577542 0.86747473 9.2938644e-05
0.024934484 0.064330563 0.009458065 0.48325765 0.15315814 0.86197722 9.1392656e-05
-0.036233995 0.066011928 0.011801766 -0.26267585 0.94051939 -0.21546383 0.004168367
-0.033945978 0.066236578 0.010844876 -0.25011018 0.91957039 -0.30304325 0.00044165392
-0.031340554 0.066826537 0.010400238 -0.24994949 0.93188536 -0.26289704 0.0010869637
-0.028907543 0.067522541 0.010485853 -0.25523576 0.92307931 -0.28771389 0.0012611476
-0.026052767 0.068306319 0.010276428 -0.28661492 0.9169926 -0.27744624 0.0018555451
-0.023475658 0.068799883 0.0093516968 -0.26868704 0.93863648 -0.21626113 0.005054865
0.017527441 0.068695538 0.011940955 0.39467505 0.27626604 0.87630403 0.002339751
0.020013271 0.067724109 0.011414239 0.44731918 0.22783935 0.86486697 0.0006018675
0.022464797 0.067502283 0.010176203 0.46072507 0.21464978 0.86119568 0.00032243875
0.024479594 0.066975713 0.0092095472 0.46442407 0.2020954 0.8622458 0.00030236394
-0.024457743 0.069151662 0.011614171 -0.23513277 0.96750259 -0.093011901 0.0043931478
-0.02247995 0.069555916 0.010880343 -0.20472613 0.97753358 -0.050152712 0.0057944208
-0.019415628 0.070385583 0.010511033 -0.23154438 0.97275412 -0.011687721 0.0072671869
-0.016680045 0.071125828 0.010474958 -0.26474389 0.9634155 0.041728709 0.0083453441
-0.014144073 0.071790226 0.010853627 -0.30355546 0.95123881 0.054759499 0.0080838455
-0.011884792 0.071961291 0.0118323 -0.23765765 0.92313308 0.30223209 0.013517261
0.014705455 0.071778864 0.01174975 0.36377263 0.58046591 0.72851133 0.0062985825
0.017246868 0.071094088 0.011532407 0.37191454 0.41674057 0.82946181 0.0033889287
0.0195112 0.070542529 0.010739445 0.3878502 0.37569115 0.84168184 0.0028089895
0.022234939 0.070232451 0.0095371231 0.42577356 0.32219118 0.84552336 0.0022511566
0.024324985 0.069024883 0.0090790419 0.45528165 0.25639021 0.85263276 0.0016107897
-0.012842323 0.072208166 0.010284204 -0.25073665 0.96681088 0.049069777 0.009220263
-0.01031023 0.072763026 0.010585513 -0.22601917 0.96384597 0.1411245 0.0074328105
-0.0073739947 0.073446609 0.010580443 -0.2146868 0.93844926 0.27059671 0.0049805711
-0.0043201628 0.074051678 0.010871231 -0.21840259 0.93940729 0.26422384 0.0032030637
-0.0016946045 0.07461635 0.010807348 -0.20951968 0.93157834 0.29709142 0.0030461764
0.0012805749 0.074817985 0.011660541 -0.10147586 0.87335664 0.47639358 0.0019988657
0.0050523197 0.074875757 0.011784211 0.024620255 0.84253246 0.53808254 0.0026052366
0.0080059571 0.074769847 0.011582826 0.13748884 0.82327491 0.5507406 0.0021702729
0.010668454 0.074423447 0.011276173 0.18282385 0.79836345 0.57375199 0.0025873582
0.01366761 0.073812202 0.010905534 0.25062424 0.69865173 0.67012918 0.0028921342
0.01655354 0.0731332 0.010434459 0.3088643 0.56428194 0.76562965 0.0023878117
0.019207466 0.072814234 0.009567285 0.34183905 0.54597062 0.76489353 0.0031065387
0.021408245 0.072198555 0.0091153886 0.38089097 0.49985504 0.77786046 0.0048822006
-0.00098423334 0.075129509 0.0094985012 -0.20030554 0.94804943 0.24714352 0.0039365925
0.0016923526 0.075475343 0.010322356 -0.10226252 0.9301796 0.35257369 0.004710895
0.004597628 0.075682871 0.010413536 0.01040235 0.92262876 0.38554874 0.0050330204
0.0074912766 0.075596049 0.01023294 0.065069966 0.89266258 0.44600382 0.0037935148
0.010486877 0.075476132 0.0097714746 0.12041581 0.8507697 0.5115574 0.0040730215
0.013521298 0.075230062 0.0093143554 0.16508521 0.80636078 0.56791651 0.0027445313
0.015435277 0.075046368 0.0090683457 0.22375384 0.74866408 0.62404835 0.003174535
-0.010105039 -0.072099753 0.012085138 -0.19781449 -0.93663126 0.28912175 0.0044941353
-0.0071833371 -0.072358966 0.012765693 -0.1777855 -0.84190321 0.5095011 0.0029450371
-0.0043954547 -0.072639361 0.013269139 -0.16303524 -0.83781564 0.52104169 0.0031691929
-0.00090585026 -0.073023848 0.013646156 -0.10020231 -0.80705196 0.58191633 0.0028506655
0.0017385721 -0.073281556 0.013734695 -0.042705059 -0.79850662 0.60046941 0.0037276279
0.0048051798 -0.073627546 0.013436019 0.059881479 -0.83921981 0.54048526 0.0027432323
0.0074252067 -0.073329657 0.013186589 0.15893695 -0.79194468 0.58954448 0.002735188
0.010382331 -0.072787873 0.012810106 0.24583116 -0.67536706 0.69530308 0.0034566678
0.012652182 -0.072403915 0.012279178 0.31703249 -0.61446458 0.72244281 0.0028883351
-0.021777527 -0.069141299 0.013814298 -0.10168838 -0.98434347 0.14397034 0.0081707984
-0.019653087 -0.069578603 0.013422227 -0.031231144 -0.97378856 0.22530062 0.0088723227
-0.016473215 -0.070026703 0.013393934 -0.085383907 -0.92140925 0.37909698 0.0071104416
-0.013037537 -0.07078702 0.013291739 -0.21592072 -0.93688405 0.27500266 0.0072161783
-0.010551717 -0.071044214 0.013738437 -0.15349802 -0.82956451 0.53689945 0.002467637
-0.0077027166 -0.07134521 0.014229958 -0.17174578 -0.80371505 0.56968886 0.0031607049
-0.0048559327 -0.071663558 0.014642546 -0.1495727 -0.78284132 0.60397637 0.0018353864
-0.0028721823 -0.071833499 0.014901586 -0.14658864 -0.73715752 0.65962905 0.0030653181
0.008283807 -0.07166782 0.014714316 0.23308089 -0.66805857 0.70666188 0.0036914404
0.010685107 -0.070949666 0.014211537 0.33285397 -0.51865256 0.78753269 0.0039265221
0.013777812 -0.070287764 0.013347712 0.38189623 -0.40225998 0.83207101 0.001871867
0.016324803 -0.069799021 0.012459327 0.40734583 -0.35191965 0.84274668 0.0017960515
-0.034419835 -0.066419266 0.014120431 -0.23324704 -0.95684928 -0.17330669 0.0087440768
-0.031436097 -0.067088813 0.013815213 -0.19526367 -0.9667387 -0.16519201 0.0069994596
-0.02849468 -0.067569263 0.013610746 -0.17737481 -0.97273636 -0.14940596 0.0032104712
-0.025525192 -0.068244189 0.013407995 -0.24691114 -0.96804368 -0.043890338 0.0042563984
-0.023384929 -0.068658777 0.01344234 -0.1900073 -0.97999746 0.05917982 0.0087256236
-0.020316888 -0.068321854 0.01278988 -0.19605084 -0.9788928 -0.057731669 0.038625572
0.011780836 -0.068751253 0.014909077 0.46167678 -0.36347815 0.80915898 0.0048427619
0.013798065 -0.067784965 0.014452921 0.42609909 -0.27693307 0.86124778 0.0013018578
0.016435072 -0.067537405 0.01321888 0.4278661 -0.27149585 0.86210245 0.0012194766
0.018482288 -0.067057386 0.012314412 0.43467209 -0.25294849 0.86433631 0.00085740717
-0.043060835 -0.063485578 0.013313168 -0.37480137 -0.92694986 -0.016969668 0.0075825262
-0.040584695 -0.064235166 0.01341175 -0.274257 -0.9533363 -0.12622648 0.008635303
-0.037706628 -0.065203272 0.013469144 -0.26663125 -0.95014769 -0.16163906 0.0053314879
-0.03439955 -0.065155767 0.012590687 -0.28476447 -0.87890267 -0.38267386 0.022769567
-0.031670101 -0.065686539 0.012981839 -0.18440805 -0.89895189 -0.39734012 0.02028727
0.01455089 -0.065254152 0.014727727 0.44382659 -0.18911657 0.87592971 0.00017474264
0.016491439 -0.064475559 0.013900626 0.44703236 -0.1817323 0.87586266 0.00014417109
0.019022685 -0.064333245 0.012616388 0.45408225 -0.17307407 0.87398785 0.00010666285
-0.048957311 -0.060937703 0.013545878 -0.37222436 -0.92621541 -0.059783299 0.0040943231
-0.046322476 -0.062146258 0.013371107 -0.43204656 -0.90106511 0.037648834 0.0044095437
-0.044462916 -0.062663734 0.013234201 -0.40108353 -0.91594172 0.013519969 0.0071850736
-0.041272573 -0.062712595 0.012625797 -0.3330133 -0.87974018 -0.33935139 0.029376581
0.016760763 -0.061485354 0.014306596 0.45847356 -0.14451824 0.87687886 0.00010779907
0.019501001 -0.061357774 0.012892904 0.4651897 -0.13651069 0.87462187 8.0162274e-05
0.02125936 -0.06091024 0.012132378 0.47140676 -0.13488446 0.87153995 7.4436321e-05
-0.051261771 -0.059985913 0.014656479 -0.48004055 -0.80704516 0.34385926 0.015687199
-0.050324112 -0.059999105 0.012977717 -0.33204964 -0.92226732 -0.19790411 0.0084719444
0.017131289 -0.058540132 0.014533876 0.46942434 -0.10580029 0.87661117 6.1965773e-05
0.019454304 -0.058417194 0.013306362 0.47219494 -0.10066804 0.875727 7.259164e-05
0.021379426 -0.05818126 0.012288044 0.47785431 -0.096531063 0.87311912 7.3641015e-05
0.017525638 -0.055468369 0.014646222 0.47931784 -0.073250853 0.87457919 9.5879783e-05
0.019615887 -0.055481307 0.013498357 0.48247603 -0.063481703 0.87360573 0.00014875583
0.021682981 -0.055517029 0.012345875 0.48810229 -0.049631767 0.87137413 0.00022959852
-0.052518491 -0.051455133 0.012770755 -0.98654819 0.15962735 -0.035239179 0.0039057196
0.017752482 -0.053049501 0.014684124 0.49939537 0.0029723947 0.86636913 0.00093957735
0.019589279 -0.052423988 0.013662093 0.50397629 0.021499308 0.86344993 0.00092288095
0.02182244 -0.052605268 0.012361364 0.51182276 0.060537919 0.85695547 0.0021272181
-0.052631479 -0.049010184 0.012909982 -0.98439842 0.14061296 -0.10577267 0.0027514426
0.017557414 -0.049297053 0.014628869 0.52946264 0.14619292 0.83564162 0.0031303093
0.019650696 -0.049311046 0.013246946 0.55092448 0.26256502 0.79217541 0.0029710529
0.021352293 -0.050101232 0.012300564 0.55751884 0.25505859 0.79001135 0.00345261
-0.052379537 -0.04602458 0.012849269 -0.98118126 0.15617451 -0.11354653 0.0042549418
0.01476638 -0.045185208 0.014911069 0.55044109 0.39054647 0.7378943 0.0039993175
0.016895834 -0.046154168 0.014034033 0.56165189 0.40768915 0.71995592 0.0031535816
0.018989138 -0.046824366 0.012768136 0.57288766 0.42731565 0.69942904 0.0026297187
-0.052074224 -0.04340909 0.013346653 -0.95256793 0.27575743 -0.12873338 0.0067448127
0.014191179 -0.043022387 0.014111866 0.58942658 0.53001708 0.6096378 0.0060462942
0.016123641 -0.043853052 0.013085429 0.57437617 0.54884505 0.60733938 0.0034239311
0.018315302 -0.044899106 0.012196097 0.54298908 0.53726065 0.64537877 0.0024257605
-0.051921632 -0.040624291 0.013738512 -0.86931109 0.49327955 -0.031200763 0.023638919
-0.050720662 -0.039419763 0.012533058 -0.63180095 0.75078112 -0.19275726 0.0078836642
0.01145949 -0.03981325 0.013903318 0.8106851 0.49995106 0.30469441 0.023032818
0.013028316 -0.041105859 0.013219113 0.67151475 0.59368396 0.44340417 0.0098947845
0.015308062 -0.041920487 0.012056262 0.51078135 0.694098 0.50727755 0.0064130984
-0.051372349 -0.038771976 0.013749816 -0.87781864 0.47871396 0.0163517 0.032419816
-0.050168846 -0.038554065 0.013592307 -0.52468288 0.84786421 -0.076381557 0.016050359
-0.047276143 -0.037416004 0.014077229 -0.3492521 0.92324799 -0.16011278 0.018167954
-0.044659559 -0.037633616 0.012804871 -0.36385509 0.91323256 -0.18334609 0.033476453
0.01076417 -0.037667539 0.013309824 0.98769307 0.12430748 0.094921313 0.070524238
0.011498674 -0.035518717 0.013032782 0.94348246 -0.30002367 -0.14080723 0.048634231
0.012824135 -0.034121927 0.013710528 0.84190899 -0.48068726 -0.24521236 0.01253712
0.014219863 -0.031576537 0.013596108 0.87931174 -0.40018058 -0.25819835 0.010676551
0.015124985 -0.030358527 0.014558013 0.90792072 -0.3450093 -0.23800953 0.016678976
0.014794584 -0.029300995 0.012767647 0.90385377 -0.23665065 -0.35643345 0.012077776
0.015489243 -0.028143287 0.013913652 0.96205413 -0.15489089 -0.22463439 0.011712397
0.015830819 -0.0254722 0.013609913 0.96372092 -0.064704612 -0.25895014 0.012862934
0.014854409 -0.021364303 0.012157112 0.9399277 0.2196255 -0.2613439 0.0089409687
0.015789734 -0.02243337 0.013610492 0.95783162 0.098758087 -0.26982483 0.011499183
0.014751572 -0.018844303 0.0127604 0.90948975 0.29587516 -0.29203814 0.013778672
0.015398661 -0.019784469 0.01391105 0.94999886 0.24393053 -0.19493617 0.013967761
-0.045597646 -0.017591609 0.012785726 -0.93227875 -0.03663763 -0.3598806 0.003159245
0.014002362 -0.016413305 0.013587278 0.84946847 0.44069868 -0.2901516 0.011816102
0.015166839 -0.0177333 0.0145328 0.87353492 0.39476615 -0.28477457 0.012839746
0.011392457 -0.012762702 0.013358368 0.82256436 0.51078349 -0.24997607 0.025522558
0.012654089 -0.014032756 0.013787953 0.84047139 0.49456617 -0.22138716 0.010771961
0.010581823 -0.010471364 0.013617642 0.95897293 0.24828514 -0.13684076 0.026752401
0.010549479 -0.0075261877 0.013627591 0.99706429 0.060204394 -0.047309611 0.033825614
0.010540555 -0.0044924207 0.013618628 0.99858588 -0.024534427 -0.047162969 0.034377024
0.010528636 -0.0014579811 0.013553055 0.98405826 0.011997952 -0.17744124 0.030413225
0.010533202 0.0015066315 0.013561502 0.99019736 0.00020860831 -0.13967501 0.032315832
0.01054913 0.0044992263 0.013564658 0.99901724 -0.0049944771 -0.044041805 0.040493067
0.010571576 0.0075013908 0.013535872 0.99069941 -0.027698485 -0.1332192 0.032808803
0.01059829 0.010479458 0.013597804 0.97052044 -0.21423869 -0.11041676 0.022830825
0.01117227 0.012876397 0.013291526 0.84710371 -0.42403609 -0.32032585 0.034279082
0.012532499 0.014307277 0.013837218 0.85054648 -0.4528355 -0.26741466 0.017290182
0.013836568 0.016564351 0.013639664 0.84909528 -0.46731338 -0.24628323 0.010896692
0.015096054 0.017779993 0.014637254 0.87100112 -0.39134765 -0.29699185 0.014489242
0.014685663 0.018937703 0.012992864 0.90231782 -0.31075397 -0.29875511 0.012802246
