# .PCD v0.7 - Point Cloud Data file format
VERSION 0.7
FIELDS x y z normal_x normal_y normal_z curvature
SIZE 4 4 4 4 4 4 4
TYPE F F F F F F F
COUNT 1 1 1 1 1 1 1
WIDTH 560
HEIGHT 1
VIEWPOINT 0 0 0 1 0 0 0
POINTS 560
DATA ascii
0.073201947 0.070577294 -0.0041222279 0.23828427 -0.13925134 -0.96116054 0.020134149
0.075203158 0.071589634 -0.0031166046 0.7168299 -0.22121131 -0.66122657 0.016381359
0.068472631 0.073322393 -0.0034812985 -0.72582877 0.098096982 -0.68084478 0.026827428
0.070441008 0.073499434 -0.0046555982 -0.3917903 -0.042013936 -0.9190948 0.029086096
0.073385149 0.073468626 -0.0047778161 0.18128757 -0.060638506 -0.98155886 0.0463451
0.075699992 0.073298454 -0.0033679358 0.3285625 -0.12827806 -0.9357304 0.050757758
0.068555489 0.075756766 -0.0033266328 -0.76666033 0.21827495 -0.6038112 0.043731507
0.070255809 0.075701274 -0.0045259744 -0.44739452 0.11471707 -0.88694888 0.044731975
0.072781965 0.075398408 -0.0051049241 0.014831705 0.12504667 -0.99203992 0.071244784
0.075331457 0.075230084 -0.0035919689 0.6464411 0.31003445 -0.69713169 0.10081925
-0.015899424 0.0027553909 -0.0013896478 -0.24873209 -0.95673782 -0.15094706 0.00096951157
-0.01356252 0.0021627918 -0.0016391693 -0.21810588 -0.95759696 -0.18824954 0.0013485804
-0.010581748 0.0015646418 -0.0017690653 -0.15846014 -0.96890384 -0.19004145 0.0023280014
-0.0075909295 0.0011249732 -0.001687322 -0.13368018 -0.97087634 -0.19881804 0.0031930003
-0.0044921623 0.00070317171 -0.0017168673 -0.094812334 -0.97763914 -0.1877027 0.0039260918
-0.00148962 0.00049505907 -0.0016009861 -0.058136903 -0.9841134 -0.16775256 0.0028826229
0.0014826296 0.00037770468 -0.0016552359 -0.025968723 -0.99330485 -0.11256552 0.0040793875
0.004613312 0.00032905219 -0.001714353 0.012454989 -0.99263746 -0.12048136 0.0047340132
0.0074426085 0.00043502531 -0.0015527421 0.044279218 -0.98946291 -0.13784921 0.0018226882
0.010465842 0.0006083831 -0.0016947273 0.0829053 -0.98571342 -0.14661486 0.0026621528
0.013301845 0.00086898915 -0.0015214324 0.11382688 -0.98582906 -0.123225 0.0041090203
0.016435079 0.0012919855 -0.0015308219 0.13751219 -0.97876775 -0.15200046 0.0030403649
0.019539567 0.0017799214 -0.0016317604 0.17799623 -0.97581393 -0.12690331 0.0022120485
0.022625573 0.0024159353 -0.0014287118 0.20027931 -0.97278178 -0.11654926 0.001932191
0.024751529 0.0028495451 -0.0011813375 0.21830191 -0.97005689 -0.10646041 0.0020359349
-0.024848051 0.0057034213 -0.0014235121 -0.35017848 -0.91854089 -0.18345995 0.00058122113
-0.022501484 0.0048162988 -0.0015364626 -0.32740787 -0.92571509 -0.18935622 0.00035538437
-0.019558486 0.0037838805 -0.0015601743 -0.29423469 -0.94038665 -0.17058399 0.000492686
-0.017324403 0.0032279831 -0.0019281522 -0.27373156 -0.94348252 -0.18684685 0.00070738641
0.025974192 0.0032116577 -0.0019134892 0.25394705 -0.96051019 -0.1137149 0.0019324007
0.028422635 0.0038648804 -0.0014550806 0.27781108 -0.95512944 -0.10270729 0.0014133629
0.031555284 0.0048205201 -0.001563523 0.28759131 -0.95312208 -0.094071575 0.0025187295
0.033977106 0.0056241928 -0.001457079 0.32117867 -0.94135129 -0.10345045 0.0015646539
-0.033092346 0.0089084199 -0.00043115622 -0.36062315 -0.90676469 -0.21846917 0.0036519384
-0.031408392 0.0083553186 -0.0015441169 -0.38323528 -0.89994115 -0.20793392 0.00055138476
-0.028495362 0.0071373009 -0.0015886003 -0.35595211 -0.91008693 -0.21222609 0.00091044843
-0.026237536 0.0062966337 -0.0018027717 -0.35474145 -0.91141188 -0.20853531 0.00093934051
0.035444297 0.0062280917 -0.0018562406 0.36147663 -0.92682391 -0.10164708 0.0014995275
0.037472881 0.0069798497 -0.0016427204 0.37423018 -0.92260551 -0.093546018 0.0012571313
0.040465556 0.0082246186 -0.0015370832 0.39533123 -0.91405439 -0.090652257 0.0015476241
0.042208619 0.0089155762 -0.00078730012 0.41864479 -0.89936298 -0.12602693 0.001643411
-0.03922227 0.011878005 -0.00077873998 -0.43994072 -0.86178428 -0.2525472 0.00295427
-0.03755448 0.011130126 -0.0015588858 -0.43327636 -0.87102133 -0.23150255 0.0018446301
-0.034643821 0.0097542889 -0.0016666703 -0.39174008 -0.88701743 -0.24441695 0.0017401807
-0.032883655 0.0090698879 -0.00214895 -0.38609183 -0.89478797 -0.22424902 0.0016270999
0.041808102 0.0090325726 -0.0026872195 0.40962777 -0.90433162 -0.11995582 0.0019770069
0.043603551 0.0097134309 -0.0016039907 0.44505143 -0.88903379 -0.10746182 0.0012932176
0.046411872 0.011113872 -0.001402918 0.46210882 -0.88236582 -0.088803217 0.001564194
0.04817839 0.011869711 -0.00052445137 0.48438093 -0.86892903 -0.10167315 0.0018028459
-0.043208309 0.014181603 -0.0014327602 -0.51462936 -0.83236051 -0.20574911 0.0021907662
-0.04058877 0.01273804 -0.0015857802 -0.45709729 -0.85638261 -0.24014761 0.0018779987
0.04757316 0.012073072 -0.0024821707 0.48045155 -0.87381846 -0.074884444 0.0018702203
0.049544044 0.012915694 -0.0014784558 0.50616813 -0.85833621 -0.083980784 0.0016136251
0.05192975 0.014307169 -0.001493234 0.52872193 -0.84121782 -0.11316247 0.0014931725
-0.048353076 0.017747246 -0.0014955795 -0.57447857 -0.78699613 -0.22496974 0.001686167
-0.046496861 0.016459489 -0.0015278001 -0.54931575 -0.80230236 -0.23358752 0.002385298
-0.044652268 0.015220463 -0.0019015843 -0.55519652 -0.79913372 -0.23052594 0.0023195015
0.05345824 0.015411914 -0.0019455223 0.55795175 -0.81677341 -0.14687066 0.0011871475
0.055407595 0.016732713 -0.0016788497 0.56947845 -0.80687231 -0.15700738 0.0012277029
0.057154257 0.017828899 -0.00080992497 0.58927137 -0.79321074 -0.15354444 0.0015410668
-0.051846165 0.020328982 -0.0014769682 -0.59386915 -0.78004444 -0.19710432 0.0013614474
-0.049900293 0.018891821 -0.0016080681 -0.57574707 -0.78430104 -0.23105673 0.001603905
0.056851674 0.018099936 -0.0029162061 0.59984034 -0.76414448 -0.23722306 0.0025562879
0.058598857 0.019106656 -0.0016893715 0.61811191 -0.76723742 -0.17112705 0.0017091393
0.060438227 0.020595359 -0.0014226355 0.65668905 -0.74297649 -0.12940443 0.002981219
-0.055229031 0.022910597 -0.0014164945 -0.60795987 -0.77063388 -0.19107111 0.0010946635
-0.053311516 0.021467252 -0.0017832523 -0.60138756 -0.76934814 -0.21549089 0.0018560162
0.061907399 0.022002732 -0.0015372133 0.69829196 -0.70692819 -0.11243127 0.002931477
0.063434541 0.023525504 -0.0013545323 0.7293058 -0.67462409 -0.11399712 0.0030596182
-0.060137179 0.026848651 -0.000897702 -0.6804145 -0.70900851 -0.18531886 0.00065618026
-0.058442652 0.025575228 -0.0015781203 -0.64058191 -0.74216962 -0.19707602 0.00068010762
-0.056741502 0.024191443 -0.0019914345 -0.62982243 -0.75054407 -0.2000186 0.0010274354
0.064894065 0.025233923 -0.0015772923 0.76866275 -0.62215716 -0.14858674 0.0025422391
0.066263691 0.026751777 -0.0012576105 0.79727566 -0.58653605 -0.14257313 0.0025877422
-0.063174181 0.029920781 -0.001040535 -0.73497337 -0.65733296 -0.16651568 0.0011461421
-0.061563399 0.028570618 -0.0016800232 -0.71127158 -0.67828029 -0.18446811 0.0011190843
-0.059930172 0.027174205 -0.0026276326 -0.67037207 -0.70745373 -0.2238538 0.001358903
0.067334644 0.028476754 -0.0015270333 0.82050174 -0.55609971 -0.13240072 0.002861697
-0.064378828 0.031629875 -0.0015723505 -0.76071626 -0.62841386 -0.16250171 0.0014845558
-0.062849797 0.030139083 -0.0025508041 -0.73125869 -0.65806127 -0.17948875 0.001461503
-0.0006944816 0.032943342 -0.0025890644 0.092551827 0.97765338 -0.18875407 0.0010758121
0.0015612571 0.032911003 -0.0016397376 0.064888313 0.96801913 -0.24233945 0.00228128
0.0044324514 0.032901604 -0.0010216442 0.013462135 0.9687466 -0.24768683 0.0022813126
0.0077003818 0.03285607 -0.0015529578 -0.047822651 0.96955925 -0.24014127 0.003401743
0.010374094 0.03292327 -0.0023259236 -0.10216184 0.96751326 -0.23125972 0.0018642378
0.012207993 0.032944042 -0.0029010868 -0.08998742 0.98761791 -0.12850341 0.0022344198
0.068637066 0.030611945 -0.0016525557 0.85660303 -0.50017869 -0.12669837 0.0031639906
0.069479622 0.032071441 -0.0014205766 0.88796443 -0.44089276 -0.13089179 0.0037006845
-0.066913813 0.034803383 -0.0015534189 -0.80364126 -0.57518095 -0.15273386 0.0026688604
-0.065744974 0.033345193 -0.0018117412 -0.78079093 -0.60730761 -0.14677522 0.0017310779
-0.015566466 0.035922792 -0.0019254617 0.28995368 0.9477182 -0.13325554 0.0023824079
-0.013681635 0.0354186 -0.0016388936 0.26819068 0.9447813 -0.18831401 0.0016160682
-0.0103671 0.034498397 -0.0019318527 0.20638998 0.94910324 -0.23792064 0.0023555832
-0.0074183531 0.033987012 -0.0014360425 0.16560763 0.96593732 -0.19884455 0.0013850877
-0.00437022 0.033507008 -0.0015538459 0.13225983 0.97351986 -0.18645732 0.0014563458
-0.0023313074 0.033357177 -0.00074838294 0.10542411 0.9784956 -0.17729092 0.0010285507
0.0010552524 0.033077925 -0.00056936772 0.047198225 0.99878305 -0.01431041 0.0015701588
0.0032787467 0.03301293 -0.00013245446 0.023581317 0.99967003 -0.010189579 0.00068614323
0.0082618315 0.033010446 -0.00030270702 -0.034933221 0.99934244 -0.0097135641 0.0010111467
0.010791423 0.033116549 -0.001113238 -0.087803066 0.99510074 -0.045444138 0.002288972
0.013752319 0.033400264 -0.00160424 -0.1473022 0.96964175 -0.19518444 0.0021558534
0.016512901 0.033881895 -0.0015805126 -0.19165699 0.96456653 -0.18132584 0.0025337508
0.019335486 0.034535103 -0.0016132005 -0.25059748 0.95539457 -0.15627597 0.001724482
0.022428697 0.035394877 -0.0015878459 -0.2729764 0.95676494 -0.10042292 0.0015005311
0.024391832 0.035923358 -0.0018618726 -0.30183566 0.94798899 -0.1010548 0.0016479049
0.070498936 0.034400139 -0.0015972439 0.91914761 -0.36373055 -0.15122086 0.0037008738
-0.069370531 0.038412414 -0.0014523532 -0.84951073 -0.50057846 -0.16659115 0.0047010323
-0.06839294 0.036947049 -0.0016602962 -0.82210982 -0.55160344 -0.140958 0.0027949351
-0.024130834 0.038853683 -0.0023722695 0.38072091 0.91487175 -0.13439223 0.0015658798
-0.022580337 0.038342513 -0.0014339389 0.36944941 0.91986495 -0.13174087 0.0015230651
-0.019528262 0.037159517 -0.0014652447 0.31505111 0.9365021 -0.15396965 0.0028382947
-0.016971882 0.036395513 -0.0014747921 0.2720404 0.95367271 -0.12846166 0.0024615335
0.025832484 0.036398754 -0.001456867 -0.28290212 0.95395815 -0.099650435 0.0016889466
0.02850551 0.037261318 -0.0015032511 -0.31744215 0.93869227 -0.13448913 0.0022516751
0.031569581 0.038359229 -0.0014740061 -0.36080152 0.92798853 -0.093057141 0.0026738048
0.033245035 0.038934827 -0.0022781827 -0.42182267 0.90043092 -0.10625312 0.0025841182
0.071524672 0.037345033 -0.0015261846 0.94599116 -0.29954529 -0.12398947 0.0042611603
0.072084464 0.038528446 -0.00082888501 0.95559227 -0.24964638 -0.15658882 0.0050557544
-0.070524104 0.040406968 -0.0015595625 -0.88436919 -0.44509482 -0.14064726 0.0034982855
-0.03062601 0.04177393 -0.0019563518 0.45594662 0.87952709 -0.13617904 0.0018514459
-0.02857032 0.04084824 -0.0014198842 0.41057825 0.90248352 -0.13018782 0.0016684534
-0.025632236 0.039590836 -0.0015454898 0.37757552 0.91774094 -0.12324128 0.0016209448
0.032881502 0.039014932 -8.1111197e-05 -0.37695375 0.92558831 -0.034528352 0.0051487098
0.034605313 0.039707471 -0.0015326035 -0.43352035 0.89602315 -0.09592966 0.0026635856
0.037381586 0.041135523 -0.0015835022 -0.48967978 0.86288756 -0.12505567 0.0023600711
0.039075933 0.041968964 -0.0023700176 -0.51236111 0.85180938 -0.1091188 0.0028208077
0.071961403 0.039539702 -0.0027338923 0.95497549 -0.20043343 -0.21874227 0.0036400789
0.072383732 0.040547021 -0.0014884339 0.97055346 -0.16749397 -0.17312361 0.0036936328
-0.072246715 0.044226173 -0.0013060416 -0.92935765 -0.3358674 -0.15325658 0.0070148408
-0.071584351 0.042866632 -0.00178395 -0.90604818 -0.39039779 -0.16329794 0.0049249693
-0.03657287 0.04475119 -0.0023101068 0.47078365 0.87269211 -0.12950383 0.0021880423
-0.034539804 0.043838885 -0.0014461686 0.44885716 0.88580924 -0.11776751 0.0016247383
-0.031973734 0.042536899 -0.001425165 0.42515236 0.8950184 -0.13486104 0.0019257125
0.038882822 0.042130023 -0.00093679735 -0.52611166 0.84211034 -0.11856041 0.0024199795
0.040539902 0.043073565 -0.0015118712 -0.51368558 0.84919882 -0.1224274 0.002473363
0.042936102 0.044549748 -0.0019664604 -0.52793467 0.83304507 -0.16529028 0.0019347237
0.072821975 0.04310745 -0.0011439772 0.96981287 -0.10057519 -0.2221434 0.0064285137
-0.072999328 0.046480335 -0.0015058204 -0.93421811 -0.30814904 -0.17966849 0.0087087639
-0.042206172 0.047904238 -0.0019425226 0.48662367 0.86109388 -0.14735928 0.0014056423
-0.040478282 0.047013834 -0.001496408 0.4840138 0.86341918 -0.14226016 0.0013970493
-0.037899762 0.045579538 -0.0014265182 0.46795321 0.87520272 -0.12263767 0.0018475766
0.044175256 0.045451313 -0.0014109191 -0.53874975 0.83651304 -0.099973448 0.0030779981
0.046440151 0.046940345 -0.0015819859 -0.55376685 0.82308447 -0.12599355 0.0034940464
0.048158199 0.047908626 -0.0022789421 -0.5732004 0.81174159 -0.11187886 0.003728359
0.072857887 0.046388898 -0.001746723 0.98125619 -0.03809803 -0.18890423 0.0062164278
-0.07516513 0.050810974 -0.00047195159 -0.92953497 -0.36018777 -0.07892637 0.022330308
-0.074088588 0.049490519 -0.0015392493 -0.91021532 -0.33585989 -0.24229363 0.012423
-0.046282366 0.050260015 -0.0016220749 0.47561285 0.86393827 -0.16553858 0.0024308101
-0.043595165 0.048767418 -0.0015020801 0.47503689 0.87016118 -0.13099447 0.0027696225
0.047928195 0.048193872 -0.00051910098 -0.56831461 0.81195265 -0.13323455 0.0031936844
0.049600381 0.048995405 -0.0018550355 -0.52748173 0.82313454 -0.21026787 0.002730418
0.05162213 0.050314564 -0.0019905404 -0.5428983 0.81743068 -0.19253168 0.0024867796
0.073025703 0.049553983 -0.0015281455 0.96252757 -0.025627498 -0.26997012 0.0093161706
-0.075549722 0.052702043 -0.0013553113 -0.92061776 -0.29607579 -0.25456259 0.017642736
-0.074682355 0.051541299 -0.0023140651 -0.88870078 -0.32219359 -0.32619348 0.011331451
-0.052288659 0.053427421 -0.0018550315 0.40311831 0.89032143 -0.21171534 0.0024121674
-0.049430072 0.051908184 -0.0020983925 0.43713418 0.85670662 -0.27380171 0.0017589895
-0.04783598 0.051261406 -0.00061788427 0.46087453 0.87138492 -0.16817552 0.0024879959
0.053177878 0.051426243 -0.0017081321 -0.52386868 0.82030612 -0.22947671 0.0044904887
0.05544655 0.052876584 -0.0017634679 -0.52331853 0.81829494 -0.23776257 0.0041461494
0.057299778 0.053851407 -0.002514232 -0.54228038 0.77941954 -0.31374702 0.0050842194
0.073120147 0.052502066 -0.0015140108 0.93568629 -0.015408496 -0.35249636 0.0095604518
-0.075885028 0.055087015 -0.0018197778 -0.91616201 -0.040906105 -0.39871511 0.032982968
-0.060484864 0.056809511 -0.0020761793 0.46496844 0.83924329 -0.2819131 0.0067502693
-0.058485281 0.055942673 -0.0018823933 0.38416812 0.87001383 -0.30901584 0.0047145085
-0.055218469 0.054609865 -0.0019074837 0.32791033 0.89516306 -0.30192351 0.0025965807
-0.053627141 0.05411689 -0.00087375403 0.37629563 0.91056281 -0.1711053 0.0034707116
0.058791697 0.055155788 -0.0020911735 -0.52375543 0.76106566 -0.38269997 0.0053417259
0.060984246 0.056681745 -0.0024409243 -0.59446549 0.69185674 -0.40981105 0.0075047202
0.073108673 0.055543616 -0.0017514417 0.90532225 0.014534791 -0.42447656 0.011413993
-0.075333118 0.057236135 -0.0019052908 -0.84174669 0.37238547 -0.39088589 0.074560463
-0.073732764 0.058237031 -0.0017292644 -0.57005841 0.72221154 -0.39171919 0.02702577
-0.071053021 0.059608892 -0.00079238327 -0.34939852 0.90615928 -0.23831911 0.009524202
-0.066205442 0.059644841 -0.0028625857 0.34783286 0.80702698 -0.47719991 0.018227514
-0.064330228 0.059175398 -0.001995527 0.40341642 0.80586034 -0.4334102 0.0041165571
-0.061817657 0.057604492 -0.0019973246 0.39637175 0.78850991 -0.47025684 0.0059967437
0.062102232 0.058279321 -0.0013927957 -0.70190787 0.6417408 -0.3090212 0.012890562
0.063380979 0.05950322 -0.0021681308 -0.74635231 0.55787605 -0.36294976 0.016229609
0.073270924 0.058542173 -0.0017755668 0.81077611 0.0014798448 -0.58535457 0.01533817
-0.069400102 0.060362555 -0.0018181776 -0.19656214 0.94741219 -0.25253409 0.022685396
-0.067369953 0.060534585 -0.0019360759 0.085720904 0.92833501 -0.36172637 0.02615338
-0.065703027 0.060172901 -0.0014980518 0.31727201 0.8724969 -0.37160134 0.022209065
0.064257018 0.061537094 -0.0016307143 -0.83078486 0.4339205 -0.34858215 0.017565625
0.073509246 0.061325252 -0.0019228619 0.69513589 -0.028996661 -0.71829331 0.01519792
0.065199561 0.06443657 -0.0014975894 -0.89117861 0.26983994 -0.36467388 0.021687696
0.066211708 0.065205388 -0.0027564261 -0.82875538 0.22959018 -0.51034576 0.019096304
0.073935971 0.064722829 -0.0019730297 0.73846716 -0.11676977 -0.66410178 0.007757558
0.065635182 0.067014053 -0.0010207546 -0.92736608 0.21406978 -0.30686516 0.025956545
0.066459097 0.067422643 -0.0023398008 -0.85150558 0.23437518 -0.46904856 0.023674037
0.074396148 0.06743139 -0.0023183834 0.72108436 -0.19519965 -0.66478145 0.015899161
0.075319752 0.068388775 -0.00054673734 0.94373083 -0.26814619 -0.19357066 0.022531476
0.065933302 0.069341213 -0.0003992951 -0.95030594 0.22254795 -0.21769464 0.024024466
0.066998005 0.070635863 -0.0018977005 -0.82388175 0.15618949 -0.54481524 0.013950701
0.074720867 0.069773398 -0.0026056534 0.69531858 -0.25523746 -0.67185265 0.017053585
0.075702101 0.070759431 -0.0015803904 0.85987365 -0.29257646 -0.4183495 0.017131828
0.067367315 0.073533438 -0.0018365849 -0.87344402 0.15331204 -0.46215916 0.024490194
0.076613173 0.073072769 -0.0017300559 0.86573941 -0.25030896 -0.43340608 0.029700015
0.067704394 0.076092131 -0.0016515972 -0.89198017 0.23192623 -0.38804841 0.03929086
0.069928721 0.076895446 -0.002127124 -0.32253912 0.57218665 -0.75403643 0.04874599
0.073474072 0.07587143 -0.0012067122 0.25763729 0.96443826 -0.05900741 0.0025037965
0.075839713 0.075144783 -0.0015626447 0.50228798 0.71618348 -0.48454925 0.13425054
-0.018436952 0.0028815246 0.0022840709 -0.24973074 -0.96825159 0.011111665 0.0079264399
-0.016478602 0.0025502855 0.0015357068 -0.22668518 -0.97393948 -0.0074587455 0.0065149162
-0.013590854 0.0019032984 0.001460592 -0.20414422 -0.97892761 0.0050917338 0.0019706008
-0.010482827 0.0013720574 0.0014822294 -0.15047564 -0.98344648 0.10094641 0.0049185054
-0.0074384031 0.0010001728 0.001457727 -0.12202127 -0.98493916 0.12249737 0.0050171139
-0.0045071929 0.00062578963 0.0014767522 -0.085311219 -0.98777193 0.13049379 0.0045722644
-0.0015352137 0.00045264006 0.0014746945 -0.041544143 -0.9879598 0.14902879 0.0046699611
0.0014579596 0.00034923392 0.0014437936 -0.013550261 -0.99206078 0.12502743 0.0046821241
0.0044711982 0.00030762312 0.0014343382 0.025283195 -0.98635119 0.16270229 0.0052733258
0.0075236079 0.00043955134 0.0014304369 0.048360661 -0.98797393 0.14686297 0.0068607959
0.010486501 0.00059084146 0.0014563589 0.072552487 -0.97778225 0.19666754 0.0061682924
0.013486203 0.00090261968 0.0015175778 0.10744481 -0.97918904 0.17217565 0.0049027763
0.016461324 0.001290165 0.001437409 0.13746366 -0.98241699 0.12633505 0.0054141851
0.01939168 0.0017363688 0.0013979834 0.17623137 -0.97385585 0.14334342 0.0034395615
0.022544011 0.0024215423 0.0015007819 0.20149043 -0.96927601 0.14108713 0.0030462123
0.02474435 0.0028398766 0.001150437 0.21471436 -0.9695707 0.11760247 0.0031068744
-0.027654266 0.0057709143 0.002166765 -0.3405349 -0.93726766 -0.074600704 0.010105629
-0.025547186 0.0053158933 0.0015985618 -0.31111851 -0.94205296 -0.1254651 0.0047023734
-0.02247576 0.0043267128 0.001444679 -0.32213834 -0.94500941 -0.056428269 0.0028406892
-0.019658573 0.0034402309 0.0013523875 -0.29850551 -0.95262069 -0.058380697 0.0030112562
-0.017793315 0.0031125073 0.00050481752 -0.23677592 -0.96841121 -0.078210823 0.0020272594
0.026018726 0.0032172061 0.0016855606 0.25521699 -0.95847052 0.12727351 0.0032216269
0.028501183 0.0038938951 0.0014709739 0.27678534 -0.95471203 0.10915505 0.0024268234
0.031276606 0.0047199163 0.0014670606 0.29514772 -0.94885033 0.11211994 0.0019722239
0.033975013 0.0056060697 0.0012276423 0.32356641 -0.94139868 0.095254034 0.0023502368
-0.03613295 0.0089253057 0.0021799034 -0.39699677 -0.90967369 -0.1220133 0.014924444
-0.034306396 0.0084581506 0.0018495377 -0.36838993 -0.91886973 -0.14130574 0.0082248952
-0.031542592 0.0076387385 0.001449025 -0.37070414 -0.91480941 -0.16031858 0.0040218979
-0.02873484 0.0066543687 0.0011943118 -0.36866546 -0.9181627 -0.1451312 0.004634602
-0.02660406 0.0061825905 0.00054705021 -0.32695588 -0.93387622 -0.14482778 0.0040237396
0.035523687 0.0062045753 0.0012845362 0.35940081 -0.92832714 0.095077626 0.0023084742
0.03748383 0.0069894521 0.0015522351 0.36568123 -0.92659122 0.087783687 0.0020315181
0.040372282 0.0081846025 0.0014451037 0.4042052 -0.91181743 0.072160341 0.0019672092
0.042197332 0.0089374436 0.00072013045 0.42333859 -0.90353888 0.066347204 0.0019296204
-0.042161979 0.01189637 0.0023769117 -0.43740776 -0.88827246 -0.14016536 0.013059511
-0.040209968 0.011306535 0.0017953776 -0.43231484 -0.88256598 -0.18488145 0.0089433799
-0.037635438 0.010285189 0.0014160333 -0.45010641 -0.86939919 -0.20383619 0.0049721794
-0.03498245 0.0094599966 0.00076129567 -0.39238933 -0.89104611 -0.22818273 0.0036910078
0.041964028 0.0091118738 0.0023196775 0.42477372 -0.90409958 0.046597216 0.0013769265
0.043738682 0.0097613214 0.0012990201 0.43992099 -0.89455503 0.078998901 0.0018062341
0.046229608 0.011043811 0.0014965133 0.45737007 -0.88449371 0.092105314 0.0015542618
0.048075374 0.011962748 0.00061283819 0.48288637 -0.87523854 0.027900029 0.0019562899
-0.045804098 0.014436011 0.0020741695 -0.5601483 -0.81137335 -0.16705468 0.00818126
-0.043468684 0.01337448 0.0014504262 -0.51970708 -0.82074893 -0.23722525 0.0066185258
-0.040991239 0.012544212 0.0007132453 -0.44904488 -0.85765398 -0.25057596 0.005189335
0.047734678 0.012094997 0.0025208395 0.48093694 -0.87191778 0.0919737 0.0010900476
0.049590446 0.012970825 0.0014749549 0.50718814 -0.86096573 0.038707789 0.0021166005
0.051913761 0.014291875 0.001190214 0.53799921 -0.84094715 0.058006208 0.0017481551
-0.051156189 0.017833767 0.0029086859 -0.5481748 -0.83236611 -0.081676573 0.013265488
-0.049187712 0.017040424 0.0017970004 -0.56359911 -0.8016603 -0.1992406 0.0073923785
-0.046800543 0.0159135 0.001135916 -0.55572355 -0.80331427 -0.21414389 0.0050593689
-0.044789318 0.015113783 0.00051558047 -0.55792516 -0.79786199 -0.22833255 0.0064827353
0.053456679 0.015451149 0.0017967389 0.55456793 -0.81921118 0.14610755 0.0021579363
0.05571758 0.0169263 0.0011993207 0.57945395 -0.81047559 0.085804239 0.0017573095
0.057203427 0.017834183 0.00082816492 0.59687734 -0.7960614 0.10011823 0.0035495975
-0.054456372 0.020624764 0.0024252436 -0.62724268 -0.75197846 -0.2027193 0.0069629913
-0.052339118 0.019626342 0.0016228881 -0.59603685 -0.76174963 -0.2539244 0.0060861334
-0.050141022 0.018628823 0.00082237954 -0.59123766 -0.76531148 -0.25443327 0.0041511585
0.05857446 0.019111728 0.0014479632 0.62671047 -0.76927966 0.12426905 0.0025769074
0.060467064 0.020614726 0.0013686462 0.66235787 -0.73995751 0.11723904 0.0035535183
-0.05753364 0.023510367 0.0023013933 -0.66994333 -0.72779769 -0.14658295 0.0052036536
-0.055627339 0.022422325 0.0014578118 -0.62835795 -0.74283564 -0.23100103 0.0048362166
-0.053550538 0.021338077 0.00075811829 -0.59208089 -0.76879042 -0.24166423 0.0044407528
0.062109709 0.022260591 0.001920616 0.69934583 -0.70855761 0.094135135 0.0027593472
0.063430659 0.023504211 0.0012034542 0.72965598 -0.67302376 0.12100092 0.0032561207
-0.060429469 0.026451491 0.0020464701 -0.72510821 -0.6753974 -0.13437447 0.0033284426
-0.058796607 0.025235945 0.0014751843 -0.6658237 -0.721457 -0.19020663 0.001946371
-0.05680633 0.024082962 0.00049767533 -0.61684132 -0.75446165 -0.22426416 0.0031241528
0.065070167 0.025382843 0.0013079972 0.76568526 -0.63730288 0.087011941 0.0030846316
0.066238821 0.026674977 0.0010717182 0.79153585 -0.59414494 0.14304784 0.0033347495
-0.063221648 0.029645585 0.0021106545 -0.76783431 -0.63490671 -0.085579209 0.0017729404
-0.061758563 0.02822008 0.0015260282 -0.73721153 -0.66220534 -0.13417611 0.00095601514
0.065805137 0.027005486 0.0028583065 0.76598299 -0.6214633 0.16447946 0.0057935589
0.067248203 0.028325543 0.0014099322 0.83339804 -0.54877436 0.065531872 0.002950144
-0.064574219 0.031479836 0.0016046452 -0.79112828 -0.60885704 -0.058387052 0.0014598391
-0.062934242 0.030002473 0.00098629599 -0.75774759 -0.64030427 -0.12581344 0.00086708961
-0.00050415227 0.032963067 0.0025588553 0.079901442 0.98402685 0.15908171 0.0037587476
0.0019743689 0.032891829 0.0018534361 0.078125142 0.99125314 0.10636607 0.0047919662
0.0045274245 0.032881457 0.0013556326 0.032251917 0.99472672 0.09735816 0.0032864264
0.0078630783 0.032787085 0.0021458599 -0.083189629 0.98515475 0.15016551 0.0069447607
0.010269705 0.03289216 0.0025487365 -0.096522093 0.98047954 0.17129889 0.0036134748
0.012492707 0.032989986 0.0028334041 -0.15014455 0.97320122 0.17417242 0.0020522282
0.068619683 0.030491792 0.0013289055 0.86344159 -0.499421 0.071044229 0.0032231368
0.069492206 0.03209053 0.0013730255 0.8955431 -0.43593773 0.089224145 0.0032847244
-0.066980064 0.03466139 0.0014894356 -0.82275796 -0.56812084 0.017552316 0.0014868723
-0.065851398 0.033219956 0.0014283272 -0.80847329 -0.58843881 -0.010520504 0.001245187
-0.01559506 0.035945322 0.0022994273 0.27815241 0.95183474 0.1290037 0.0052135563
-0.013686343 0.035560787 0.00086470769 0.26549685 0.96367604 -0.028981106 0.0023539145
-0.010437445 0.034622733 0.0013678696 0.22000311 0.96367407 0.15142983 0.0060363212
-0.0081624854 0.034290224 0.00072989432 0.18271652 0.98270953 -0.029944964 0.0030399421
-0.005171515 0.033793882 0.00098139653 0.14757009 0.98853654 -0.031915929 0.0025648829
-0.0016114869 0.033256412 0.0012184542 0.081033014 0.99546039 0.049923122 0.0046499185
0.0010953632 0.033090908 0.00070076849 0.051691994 0.99525952 0.082379736 0.0049013463
0.0088476976 0.033040151 0.00073819503 -0.093175948 0.99478596 0.041463207 0.0035901507
0.010724043 0.033141278 0.0010521228 -0.082322396 0.99322611 0.082005896 0.0052808151
0.01354484 0.033406816 0.001439234 -0.12415548 0.98588532 0.11231926 0.003795993
0.016493268 0.033908322 0.0015030578 -0.18966195 0.9728356 0.13273731 0.00470082
0.01990254 0.034751881 0.0014341768 -0.26312539 0.96389037 0.040991876 0.0027015407
0.022942746 0.035619084 0.00099234388 -0.27582455 0.96087813 0.025176637 0.0017253599
0.0242966 0.035921525 0.0020019803 -0.31507355 0.94365197 0.10124055 0.0039108684
0.070538923 0.034419559 0.0013942702 0.9199816 -0.38104117 0.091877915 0.0026559064
-0.069446661 0.038399052 0.001283387 -0.86492282 -0.49710464 0.069250807 0.0036028447
-0.068409771 0.036795497 0.0015801913 -0.838687 -0.54365474 0.032307982 0.0015139231
-0.024432907 0.038899608 0.0029917476 0.41706857 0.8927381 0.17050648 0.0053641899
-0.022150896 0.038264297 0.0011546753 0.36695358 0.93001372 -0.020480968 0.0016951249
-0.019337978 0.037149597 0.0013666605 0.3089917 0.94226712 0.12906139 0.0052371859
-0.016810458 0.036446847 0.0013481113 0.28759646 0.95706993 -0.036131389 0.0023398625
0.025699362 0.036426958 0.0010911023 -0.29173005 0.95618612 0.024527388 0.0029925993
0.028183669 0.037208695 0.0012069694 -0.31440648 0.94790941 0.051149163 0.0025575159
0.031646501 0.038422626 0.0012902374 -0.37007293 0.92832875 0.035380337 0.0032184375
0.033097148 0.038860679 0.0025668705 -0.3943007 0.90742719 0.1452682 0.0057891896
0.071548671 0.037297502 0.0013686798 0.94857222 -0.30373639 0.089190774 0.0048224553
0.072117031 0.038632549 0.00093939225 0.97060317 -0.24062747 0.0052852225 0.0051589799
-0.070500366 0.040335014 0.001497309 -0.89845598 -0.43189144 0.079035662 0.0031033386
-0.03053375 0.041816358 0.0016435432 0.46572536 0.87597305 0.12558343 0.0046632504
-0.028595604 0.040950246 0.0013834869 0.41719145 0.90853137 -0.022848384 0.0024493071
-0.025817083 0.039831817 0.0006652156 0.37830952 0.9250167 -0.035014726 0.0023681314
-0.023931345 0.039012339 0.0016250298 0.37275782 0.92298687 -0.095639229 0.00070491049
0.032917075 0.039026603 0.0009891924 -0.39633951 0.91441566 -0.082213543 0.0018434003
0.034555301 0.039750732 0.0011797462 -0.43537551 0.89818835 0.060876414 0.0028004234
0.037328944 0.04114452 0.0012654857 -0.48268935 0.87308729 0.068770878 0.0024581612
0.072469935 0.04059894 0.0011682784 0.98684764 -0.15666683 0.039839152 0.0027577234
-0.072287209 0.044402391 0.00096966594 -0.9363367 -0.34263897 0.07663022 0.0058020116
-0.071639597 0.042923454 0.0015386653 -0.91726029 -0.38384444 0.106287 0.0043905629
-0.036499396 0.044840913 0.001635471 0.46136475 0.87094784 0.16909306 0.0066275997
-0.034757957 0.044017926 0.0015502416 0.44548568 0.89527738 0.0045741014 0.0032416736
-0.031805046 0.042556509 0.001043902 0.45804963 0.88887173 0.0098812478 0.0037411395
0.038867828 0.042144883 0.00047208057 -0.50734156 0.86102718 0.03516683 0.0032862436
0.040662203 0.043139074 0.001313886 -0.52767241 0.84586394 0.077949345 0.0024132803
0.042772781 0.044446412 0.0017177699 -0.55500889 0.82842267 0.075372376 0.0016475967
0.072728984 0.043511301 0.0011168186 0.99058706 -0.096171424 0.097408094 0.00311565
-0.072918229 0.046508402 0.0014350052 -0.94056922 -0.30541229 0.14850198 0.0059629031
-0.040385477 0.047097184 0.00099128846 0.47819802 0.87772286 -0.030484393 0.001656218
-0.037681557 0.045554806 0.0012114318 0.47043848 0.88242912 -0.0025401239 0.003409029
0.044259224 0.045465544 0.0014123583 -0.54359013 0.83685887 0.064629264 0.0031540024
0.046461839 0.046946514 0.0013457272 -0.55321175 0.83056957 0.064116776 0.0031320171
0.04807305 0.047869243 0.0020027459 -0.52893358 0.8408851 0.11463657 0.0039332546
0.072998598 0.046519637 0.0013305653 0.99889344 -0.046703596 0.0055357465 0.0038982979
-0.075143419 0.050833005 0.00039111395 -0.93220276 -0.3500832 0.091868304 0.011734932
-0.073977776 0.04940382 0.0013918043 -0.91876239 -0.37186214 0.13264327 0.0096109081
-0.046375647 0.050387774 0.001318248 0.49513394 0.86706632 -0.055122234 0.0010757837
-0.043530736 0.048891865 0.00073834445 0.49771407 0.86545503 -0.057169184 0.0012031086
0.047929566 0.048193451 3.6764357e-06 -0.5291152 0.84838992 0.016480468 0.0081883157
0.049495976 0.04898921 0.0013225266 -0.54222155 0.83719146 0.071457781 0.0028259426
0.051714525 0.050478239 0.0012845054 -0.56691206 0.82201308 0.053900003 0.0025767565
0.073142752 0.049129233 0.00090058928 0.99752921 -0.051746748 -0.047515504 0.0066669346
-0.075588115 0.052763335 0.0011654634 -0.94296545 -0.30948988 0.12260556 0.011369039
-0.074743666 0.05155291 0.0020400041 -0.90434706 -0.36347559 0.22370039 0.010246633
-0.052239113 0.053577036 0.00085278891 0.41906866 0.90675378 -0.046679638 0.0024723075
-0.049569435 0.052182946 0.0010902182 0.46189606 0.88171601 -0.096067265 0.00097254349
-0.047582563 0.051159412 0.00072411855 0.47980681 0.87510753 -0.063024566 0.00086599542
0.053132903 0.051439922 0.0011930425 -0.54513818 0.83590406 0.063943438 0.0043003345
0.055317573 0.052843373 0.0015841848 -0.52738327 0.82694697 0.19500157 0.0040359204
0.057312831 0.05377809 0.0026501711 -0.52356517 0.80805445 0.27005091 0.0077630179
0.073294714 0.052369475 0.001005698 0.99565631 -0.034973606 0.086286247 0.017157027
-0.076121509 0.055188712 0.0013254796 -0.96517092 -0.12943029 0.22736079 0.027088568
-0.058119889 0.05581145 0.0014460069 0.39884144 0.91138619 0.10149234 0.0041327528
-0.056283161 0.055222876 0.00088397146 0.38032278 0.92237478 -0.067671053 0.0030952061
-0.053771712 0.054199077 0.00095171249 0.37546003 0.92683852 -0.0003008339 0.0076181302
0.058734179 0.055261374 0.0014377007 -0.56079328 0.80766898 0.1821585 0.0055787778
0.060792193 0.056636367 0.0020280662 -0.6328575 0.71540451 0.29612127 0.010669121
0.073341265 0.055486105 0.0012350481 0.99909884 -0.036213666 -0.022137806 0.019902535
-0.075312778 0.057288203 0.0015577032 -0.90573978 0.38213703 0.18332142 0.041239858
-0.074019842 0.058033407 0.0022115628 -0.79727 0.48573861 0.35835528 0.018355981
-0.071057312 0.059569467 0.0014833281 -0.42298111 0.90459901 0.052798029 0.0014397432
-0.063750207 0.059288457 0.00055151212 0.48116407 0.85492897 -0.19384938 0.0055651581
-0.061225191 0.057570815 0.00079369161 0.51593876 0.84641337 -0.13187708 0.0037209447
0.06207893 0.05832383 0.0010908102 -0.76719058 0.62616301 0.13906327 0.016681734
0.063397869 0.059451923 0.0020828957 -0.75111783 0.62687159 0.20701219 0.019287724
0.073349036 0.058464155 0.0011468075 0.98968047 -0.063280381 0.12856227 0.016085872
-0.06974937 0.06023179 0.0012970259 -0.21378319 0.96485126 -0.15283607 0.020201556
-0.067907259 0.060753152 0.0011575068 0.02214257 0.98821449 0.15146574 0.018147811
-0.065303706 0.06022653 0.00049590605 0.33574885 0.92353696 -0.18534352 0.011839388
0.062994324 0.060422402 0.00023659947 -0.82604784 0.4474203 0.34272459 0.010669213
0.064113326 0.061565939 0.00097423146 -0.88983876 0.45624688 -0.0050864737 0.015967548
0.073710307 0.061668605 0.0010776578 0.99469239 -0.10197136 0.013743498 0.0059822351
0.06500449 0.064223982 0.00089182582 -0.95798928 0.28677371 0.0041755508 0.015946817
0.066345803 0.06506817 0.0025575289 -0.87427604 0.23556882 0.42443943 0.02427878
0.074222557 0.064618565 0.00090071402 0.98845655 -0.15150315 -0.00062657759 0.01304207
0.065638073 0.067160331 0.0005669875 -0.97437704 0.22242677 -0.03340238 0.013075248
0.066384152 0.067770965 0.0014510044 -0.96114874 0.26446131 0.079078265 0.024276519
0.074123368 0.06714765 0.0019040883 0.87426156 -0.23687458 0.42374188 0.016209945
0.075188689 0.06817624 0.00056513643 0.94621742 -0.23373815 0.223694 0.018871637
0.065911248 0.069661349 0.00083793805 -0.82123083 0.18415473 0.54006207 0.034679413
0.066862732 0.070594475 0.0011743078 -0.97273898 0.21224877 0.093431488 0.019406186
0.069259338 0.070816748 0.0027854529 -0.48408556 -0.001966719 0.87501842 0.031225381
0.074681401 0.069656737 0.0024878527 0.92151892 -0.3136211 0.2290078 0.021921979
0.075851344 0.070440724 0.00083039206 0.94090611 -0.31383696 -0.12728718 0.017837849
0.067340992 0.073709637 0.0010922804 -0.98059309 0.1637141 0.10786551 0.020398073
0.069183975 0.072745383 0.0028141239 -0.57700121 -0.052337665 0.81506467 0.0086976141
0.076523818 0.073199116 0.0012676597 0.99678296 -0.063590527 0.048785195 0.02422112
0.067655563 0.075938463 0.0011801749 -0.97372687 0.22292088 -0.046500213 0.043739423
0.069758266 0.076778047 0.0020818345 -0.68300116 0.64099342 0.35019544 0.07070829
0.073458254 0.075877167 0.0019579055 0.2177325 0.97600794 -0.0010762853 0.0058977469
0.075510353 0.075247318 0.0013127265 0.27483124 0.96146071 -0.0078195101 0.00073090522
-0.018236786 0.0029210614 0.0033049148 -0.21485558 -0.9603802 0.1775016 0.0087709576
-0.016177466 0.0026321255 0.0039359364 -0.19883539 -0.95914805 0.20124476 0.0060772919
-0.01343341 0.0022575739 0.0043445756 -0.16725658 -0.94973803 0.26461852 0.003882241
-0.010578523 0.0018293178 0.00444313 -0.1408131 -0.94535822 0.29405707 0.0036628307
-0.0076167909 0.0014509727 0.0043562213 -0.098545179 -0.94776267 0.30337232 0.0034771587
-0.0046619764 0.0012029761 0.0043829922 -0.068587273 -0.94152427 0.32989061 0.0038347782
-0.0014867426 0.0010742585 0.0044466224 -0.019984696 -0.94051903 0.33915281 0.0028962358
0.0015349687 0.0010343702 0.0043852297 0.00078737678 -0.9366225 0.35033935 0.0024976239
0.0044225953 0.0011025945 0.0043885466 0.033706829 -0.93204618 0.36076841 0.0019822484
0.0074354243 0.001343323 0.0044773128 0.051067945 -0.92560011 0.37504211 0.0020637116
0.010254645 0.0014660902 0.0044614393 0.078103289 -0.92026627 0.38341877 0.0021657208
0.013347277 0.0016872227 0.0042977477 0.098112948 -0.927715 0.36016488 0.0047435877
0.016610093 0.0021062698 0.0043841838 0.11546151 -0.9152633 0.38595557 0.0028419974
0.019582095 0.0024303515 0.004110483 0.13974124 -0.93203986 0.33432642 0.0055750636
0.02232408 0.0028061601 0.0036720186 0.20681296 -0.94514871 0.2528286 0.003358097
0.024219038 0.0029475943 0.0031347934 0.1938509 -0.96567363 0.1729053 0.003897398
-0.027584862 0.0058367378 0.0035537523 -0.29344004 -0.9480179 0.12310566 0.013083519
-0.025255973 0.0053481543 0.0041723712 -0.27861321 -0.92685795 0.25161293 0.0058356682
-0.022615427 0.0046235453 0.0044648955 -0.28491127 -0.92254269 0.26027009 0.0058508534
-0.019442851 0.0036645508 0.0044962037 -0.27823997 -0.91918653 0.27870902 0.0047433078
-0.016677482 0.0033174665 0.0053367149 -0.21520644 -0.91797435 0.33318049 0.0032251123
-0.014415729 0.0031126558 0.0058450736 -0.17146359 -0.89166522 0.41896707 0.00054549135
0.020119853 0.0032495912 0.0057355985 0.16303894 -0.86892086 0.46732736 0.0040223398
0.022516808 0.0033673996 0.0049501644 0.19022699 -0.90437061 0.38200465 0.0042394651
0.025172258 0.0037533776 0.004463505 0.22799493 -0.92772341 0.29554614 0.0029968773
0.02839767 0.0045801969 0.00432275 0.25629717 -0.92552346 0.27877951 0.0027401657
0.031841248 0.005553463 0.0043306286 0.29566541 -0.92264807 0.24759331 0.0022757859
0.033323981 0.0058734724 0.0037486183 0.31545329 -0.922337 0.22312228 0.0025804476
-0.036136623 0.0089070108 0.0035368996 -0.34676072 -0.93157232 0.10922447 0.029732402
-0.034123082 0.0084495684 0.0039670025 -0.35824478 -0.92423797 0.13207898 0.011715306
-0.03147025 0.0076050255 0.004368233 -0.33761284 -0.91404682 0.22480191 0.0077474429
-0.028861389 0.0067445152 0.0046710148 -0.34948894 -0.90971011 0.22424327 0.0079479907
-0.026412014 0.0062359944 0.0055292593 -0.2900967 -0.89854228 0.32934129 0.0047413632
0.032460816 0.0061986805 0.0055413889 0.29608965 -0.88178688 0.36712781 0.0029239166
0.03468531 0.0065268055 0.0041203001 0.34432498 -0.91305023 0.21858518 0.0022263119
0.037535742 0.0076789046 0.0045025316 0.34249881 -0.88047755 0.32780167 0.002770144
0.039983913 0.0085887304 0.0041696229 0.38782945 -0.87343627 0.2944442 0.0025961392
-0.04230994 0.011934872 0.0033849801 -0.43759525 -0.89914334 0.0071870042 0.020025302
-0.040149048 0.011290652 0.0041823345 -0.4345803 -0.89561158 0.094972752 0.015129613
-0.037443455 0.01007093 0.0043463777 -0.44014582 -0.88333184 0.16123427 0.0057361946
-0.035167623 0.0093399538 0.0052528689 -0.37476301 -0.88244683 0.28432435 0.0047805007
0.041120023 0.0093903672 0.0049165874 0.39770538 -0.86197388 0.3143746 0.0027139392
0.043452032 0.010175742 0.0038981331 0.4335359 -0.88032401 0.19255203 0.0016658176
0.045894064 0.011458915 0.0041960021 0.44304031 -0.84392399 0.30250221 0.0023011272
-0.045874428 0.014519965 0.0040598186 -0.52024287 -0.84869653 0.095192589 0.020052193
-0.043632295 0.013256863 0.0044431314 -0.52346087 -0.8206206 0.22928265 0.008166031
-0.041515142 0.012336292 0.0052216924 -0.45992929 -0.8578608 0.22921571 0.011587656
0.047108937 0.012435001 0.0049466062 0.46772489 -0.82721013 0.31137896 0.0020461865
0.049484253 0.013622406 0.0044689383 0.49399909 -0.8151226 0.3025558 0.0023784039
0.051523522 0.014648982 0.0039584166 0.50737834 -0.8026213 0.31363401 0.0022883508
-0.051216751 0.017809961 0.0037843972 -0.59328353 -0.80348343 0.04928476 0.028546408
-0.049384397 0.016939137 0.0043372838 -0.55527526 -0.8194418 0.14207225 0.01709386
-0.047131322 0.015608122 0.0047605573 -0.56929535 -0.80658442 0.15913633 0.01297819
0.050965909 0.015048923 0.0058650016 0.51895326 -0.7720719 0.36686859 0.0049415976
0.052797057 0.015843432 0.0047154846 0.53662026 -0.77892625 0.3245191 0.0024167611
0.055136234 0.017264644 0.0041971006 0.55484396 -0.77124441 0.31197804 0.0022462832
-0.054466706 0.020581158 0.0040762327 -0.62413472 -0.77603698 0.090677194 0.025437701
-0.052699465 0.019412616 0.0043093921 -0.60256499 -0.78474134 0.14524636 0.011522206
-0.050621551 0.018331749 0.005354038 -0.57451683 -0.78832906 0.22015369 0.0094023524
0.05628689 0.018428931 0.0050179334 0.5689953 -0.75726277 0.32062036 0.0025779651
0.058304399 0.019794902 0.0044468711 0.60691768 -0.7271778 0.3207233 0.0019733575
0.060190689 0.020818174 0.0034204882 0.64507282 -0.71151286 0.27862257 0.003681998
-0.057702161 0.023399005 0.0041063391 -0.64812338 -0.76150775 0.0064851274 0.017345203
-0.055992845 0.022049509 0.0045024208 -0.65248251 -0.74896377 0.11541176 0.011288159
-0.053977344 0.021053221 0.0059468704 -0.58519852 -0.74317467 0.32439819 0.0024309754
0.059734855 0.021280941 0.0049886992 0.62872839 -0.68763888 0.36311606 0.003216858
0.061188944 0.022508224 0.0046298685 0.67251641 -0.66247565 0.32992074 0.0031634253
0.063172296 0.023613218 0.0033477845 0.71443123 -0.64517981 0.27079692 0.0032737097
-0.060588144 0.026215825 0.0040616188 -0.74263287 -0.66469842 0.081685111 0.012986249
-0.059154425 0.024883157 0.0042788149 -0.71030819 -0.70265788 0.04164201 0.0090107648
0.062800325 0.024301007 0.0051014763 0.69479489 -0.63349837 0.34049931 0.0027409184
0.064244919 0.025552154 0.004365324 0.73344773 -0.609721 0.30049086 0.0015299
-0.063393414 0.029545456 0.0041044857 -0.78479838 -0.60109174 0.15093097 0.011325025
-0.062131882 0.028158404 0.0043488322 -0.76126486 -0.64022887 0.10287281 0.0090337005
0.0652394 0.027545597 0.005258006 0.73471642 -0.53235215 0.42046759 0.0031243062
0.066765077 0.028851958 0.0042197723 0.77964735 -0.51180941 0.36083394 0.0030136283
-0.066025384 0.032873914 0.0037647402 -0.80761969 -0.54797876 0.21787539 0.012109132
-0.064602546 0.031391758 0.004183786 -0.80263603 -0.58074284 0.13606335 0.0070766583
-0.0070259743 0.032717727 0.0056249183 0.16434348 0.88592994 0.43372738 0.0010610903
-0.0039972044 0.032482445 0.0051228004 0.12989283 0.92711943 0.35153589 0.0012323576
-0.0017054407 0.032590393 0.0041596619 0.097164154 0.94024235 0.32634878 0.0017781712
0.001539403 0.032282762 0.0042924169 0.068128414 0.94290268 0.32602614 0.0023032124
0.004915081 0.031870067 0.0049108188 -0.0087596709 0.92988259 0.36775213 0.002194779
0.0077143405 0.032011561 0.0046818573 -0.035504345 0.93658477 0.34863794 0.0025401004
0.010565519 0.032275546 0.0045060059 -0.1071924 0.94185674 0.31845835 0.0023913016
0.013447135 0.03250666 0.0047272295 -0.13742515 0.92280179 0.35993218 0.0022853082
0.016281638 0.032689061 0.0054612113 -0.18766358 0.89987361 0.393713 0.0014364629
0.018202379 0.0328978 0.0058802329 -0.22416523 0.84507078 0.48539194 0.0016563156
0.068150662 0.031350791 0.0044392603 0.82973021 -0.43769577 0.34636724 0.0025350333
0.069235943 0.032531247 0.0036526504 0.84742832 -0.42976987 0.31170991 0.0040786136
-0.066812612 0.034746744 0.0041949269 -0.83253622 -0.50740379 0.22231704 0.0062935371
-0.065731011 0.033380095 0.0048225354 -0.82471067 -0.53042018 0.19623151 0.00781054
-0.018159844 0.035666831 0.0054186489 0.2981115 0.90538144 0.30234754 0.0026313614
-0.015247003 0.035118211 0.0047523472 0.27193785 0.90940636 0.31469011 0.0019223624
-0.013261658 0.034729596 0.0042062746 0.27089402 0.90992397 0.31409365 0.0016604816
-0.010390922 0.03397439 0.0042172712 0.19660673 0.92707312 0.31918833 0.0017819797
-0.0074581271 0.033413548 0.0042088749 0.15546131 0.93658465 0.31407169 0.0016239338
-0.0050153262 0.033292383 0.0034405184 0.13157858 0.94120443 0.31116131 0.0016380575
0.014181478 0.033110246 0.0035733639 -0.13304755 0.93493026 0.32894337 0.0027700223
0.01670203 0.03338173 0.0039792345 -0.18075141 0.92904305 0.32281253 0.0026506914
0.01954815 0.033896782 0.0044180383 -0.23487306 0.91506553 0.32785624 0.0022103279
0.02264544 0.034795672 0.0043281051 -0.26882198 0.90849596 0.31995296 0.0015574237
0.025395792 0.035419866 0.0047065006 -0.27588239 0.9003796 0.33646017 0.0020995699
0.027619194 0.03584227 0.0053714057 -0.28656051 0.88879269 0.35767385 0.0024646148
0.068698704 0.03369936 0.0055949609 0.83003402 -0.34568971 0.43765539 0.0023506524
0.069735013 0.034605075 0.0043237782 0.87595862 -0.36003917 0.32104239 0.0047749639
-0.069200918 0.038624424 0.0035644057 -0.84465432 -0.43014571 0.31864357 0.0055035241
-0.068180852 0.037343182 0.004503415 -0.84498322 -0.43458614 0.31167012 0.0045824391
-0.021653427 0.037209414 0.0046998085 0.3397086 0.88701338 0.31273845 0.0020076442
-0.019578969 0.036809392 0.0036492217 0.2926234 0.91007614 0.29348418 0.00223042
-0.017306995 0.036172058 0.0035599533 0.2550171 0.91555804 0.31099817 0.002310077
0.026142117 0.036138192 0.0034728297 -0.28353918 0.9108355 0.29997382 0.0020225816
0.028627984 0.036622085 0.0043153455 -0.30506176 0.89904922 0.31408262 0.0020994022
0.031563666 0.037614189 0.0044517331 -0.35554492 0.87414062 0.33085653 0.0024352036
0.034010608 0.038520731 0.004839791 -0.39410836 0.85661024 0.33301279 0.0027341358
0.070618883 0.037502456 0.0044677686 0.88777661 -0.26153463 0.3787511 0.0023674874
-0.069791444 0.040386081 0.0041162544 -0.85802817 -0.36781624 0.35846731 0.0046961489
-0.068781599 0.039674692 0.0054695848 -0.81959546 -0.34833211 0.4548935 0.0059392313
-0.028250948 0.039844323 0.0049375263 0.37594122 0.88364363 0.27900219 0.00071479165
-0.025885329 0.039406359 0.0034398721 0.37585479 0.90878493 0.18122663 0.0036979103
0.035121329 0.039396647 0.0039229114 -0.40429369 0.86127776 0.30781054 0.0018475323
0.037453063 0.040401395 0.0044162301 -0.44635391 0.83218157 0.32900149 0.003098689
0.039701045 0.041545387 0.0048928289 -0.50179803 0.80435145 0.31814691 0.002938577
0.071197048 0.040274732 0.004632622 0.91317225 -0.17664798 0.36730373 0.0039766887
0.072115012 0.041396316 0.0033745815 0.96282578 -0.17766488 0.20347407 0.0035727096
-0.072142497 0.044658244 0.0032248944 -0.88695771 -0.33509085 0.3178367 0.0090517607
-0.070791446 0.043281745 0.0043815733 -0.85193878 -0.27682349 0.4444876 0.004205409
0.041142236 0.042850036 0.0041047023 -0.50367397 0.78454953 0.36165512 0.0018716181
0.043832153 0.044236731 0.0049228761 -0.4811396 0.78594476 0.38832393 0.0030672604
0.045253087 0.044744458 0.0057518431 -0.47606069 0.77823973 0.40952307 0.0029925334
0.071535647 0.04300826 0.004722394 0.92353082 -0.079556912 0.37518197 0.0036458776
0.072428167 0.043482155 0.0032240595 0.97419584 -0.080349743 0.21091805 0.0050089178
-0.07236021 0.047144588 0.003621022 -0.84993267 -0.27889073 0.44702846 0.0031889379
-0.071404189 0.046170276 0.0047631017 -0.84386992 -0.24367251 0.47802439 0.0035903046
-0.042212106 0.047460366 0.0038049561 0.50653297 0.84950417 0.14753655 0.003610343
-0.041073639 0.046538163 0.0044941395 0.49684486 0.84456789 0.19962558 0.0033340326
0.044432655 0.04518339 0.0032787288 -0.50409102 0.80434048 0.31452927 0.0020678267
0.046259195 0.046133097 0.0041195727 -0.49478999 0.78189987 0.37923017 0.0024032954
0.049133573 0.047562029 0.005018692 -0.48496893 0.77102572 0.41270381 0.0025279063
0.071473546 0.046264052 0.0051253382 0.88473278 -0.020055279 0.46566692 0.0020773937
0.072443105 0.046333052 0.0035234378 0.94489771 -0.024939265 0.32641453 0.00075683848
-0.072830357 0.049775198 0.0040948489 -0.8392359 -0.31120646 0.44590774 0.0075844196
-0.071567103 0.049173787 0.0057146638 -0.66315448 -0.13813891 0.73562473 0.0050229286
-0.043890119 0.048638377 0.0031483464 0.5115571 0.85609841 0.073517516 0.002168044
0.049973026 0.048626769 0.003945116 -0.497949 0.77030331 0.39834616 0.0024142328
0.052391976 0.049803626 0.0044737286 -0.48630515 0.77759165 0.39857069 0.0037858917
0.054528788 0.050573058 0.0054571778 -0.42523053 0.73858631 0.52313405 0.0044921376
0.071384475 0.050323907 0.0051610256 0.85285485 0.011434038 0.5220229 0.0045343968
0.072156489 0.048651062 0.003756196 0.90403819 -0.038684446 0.42569757 0.0060638529
-0.075329624 0.053956423 0.0032302123 -0.82823926 -0.24425125 0.5043422 0.022543991
-0.073787503 0.052334297 0.0039595091 -0.82430452 -0.27905995 0.49259278 0.0069931489
-0.071727313 0.052443966 0.0058516767 -0.56852758 -0.047940541 0.82126617 0.0052345786
-0.054714534 0.05371308 0.0039155488 0.37748456 0.91924757 0.11175583 0.0031012658
0.053771961 0.051208232 0.0037052035 -0.46308669 0.77411276 0.43162504 0.0025337224
0.055496246 0.051738471 0.0046310034 -0.45166284 0.75447673 0.47619909 0.003820698
0.058205724 0.053163499 0.0047786394 -0.45324823 0.74457902 0.49006951 0.0050727818
0.060342938 0.05387035 0.00560132 -0.40535238 0.66993517 0.6219939 0.004839485
0.072648026 0.05234516 0.0032233817 0.98513675 -0.032034133 0.16875851 0.0074526658
-0.075185627 0.05523653 0.0032867489 -0.88688564 -0.23388727 0.39841008 0.020197205
-0.073601313 0.055241626 0.0048724092 -0.62071359 -0.014304784 0.78390694 0.0084212897
-0.071517482 0.055541873 0.0058140722 -0.41420859 0.11907532 0.90235931 0.012169525
-0.067290477 0.056971323 0.0056913071 -0.20718572 0.28138003 0.93696284 0.0084339241
-0.058629762 0.055396479 0.0034421228 0.39885467 0.91138256 0.10147344 0.0041042226
0.059096057 0.054509282 0.0038380257 -0.46843264 0.7194131 0.51285052 0.0032131609
