# .PCD v0.7 - Point Cloud Data file format
VERSION 0.7
FIELDS x y z normal_x normal_y normal_z curvature
SIZE 4 4 4 4 4 4 4
TYPE F F F F F F F
COUNT 1 1 1 1 1 1 1
WIDTH 557
HEIGHT 1
VIEWPOINT 0 0 0 1 0 0 0
POINTS 557
DATA ascii
0.068975963 0.056806549 -0.0059840535 0.1123412 0.26256996 -0.95835096 0.030305458
0.070942685 0.055514254 -0.0050736684 0.55182779 0.14604643 -0.82107037 0.0065951068
0.072112232 0.055922631 -0.0039423741 0.63522846 0.098393448 -0.76603109 0.0070033614
-0.073462389 0.05760679 -0.0042779301 -0.63543022 0.099639826 -0.76570249 0.017668329
-0.070451207 0.058349181 -0.0049552307 -0.17019059 0.60098296 -0.78093195 0.014104999
-0.067576155 0.058420431 -0.0047651124 0.16188283 0.69764215 -0.69791788 0.0058225729
-0.06478852 0.057972319 -0.0042269803 0.32791442 0.70314735 -0.63091677 0.0035232743
-0.062758058 0.057587698 -0.0033674343 0.31619674 0.71703261 -0.6211955 0.0039001799
0.062604547 0.057308827 -0.0035824985 -0.5851205 0.63145822 -0.50881696 0.019856906
0.064619601 0.058398321 -0.0043340605 -0.51437432 0.52958101 -0.67450958 0.012380159
0.06818895 0.059160113 -0.0053854752 0.21778287 0.21754514 -0.95144349 0.012984294
0.070669211 0.058677487 -0.0048042452 0.47696364 0.18222015 -0.85982645 0.0090806019
0.072317213 0.059173018 -0.0036197552 0.63255435 0.093409598 -0.76886255 0.0096249292
0.065547638 0.061294947 -0.003471296 -0.73562914 0.29943407 -0.60760927 0.026370931
0.06741067 0.061637968 -0.0044212369 -0.30010703 0.23749316 -0.92386842 0.028567893
0.070522964 0.061570108 -0.0045781294 0.35154831 0.091673441 -0.93167043 0.0299985
0.072733954 0.061804831 -0.0032661087 0.56460816 -0.030046394 -0.824812 0.0077280458
0.068143502 0.064282805 -0.0041780993 -0.10179389 0.12360672 -0.98709643 0.016417971
0.070521951 0.06452696 -0.0043957112 0.26345471 0.042496938 -0.96373528 0.023685087
0.072751723 0.064579956 -0.0034597274 0.39263704 -0.071001843 -0.91694874 0.020231491
0.068165973 0.067475185 -0.0037897991 -0.29978895 0.10732038 -0.94794983 0.021621097
0.070548028 0.067371823 -0.0044549452 0.12228303 -0.005258847 -0.99248135 0.024187457
0.072901778 0.067579202 -0.0038279588 0.48582497 -0.10150529 -0.86814213 0.015613345
0.0683918 0.070370615 -0.0035540352 -0.51671952 0.087345988 -0.85168749 0.026394656
0.070440218 0.070476033 -0.0044574654 -0.23726948 -0.016208785 -0.97130865 0.028000977
0.07333678 0.070519283 -0.0040730694 0.36012545 -0.16726533 -0.91778642 0.020783555
0.075203158 0.071589634 -0.0031166046 0.7168299 -0.22121131 -0.66122657 0.016381359
0.068473503 0.073344767 -0.0033771363 -0.60228038 0.067532927 -0.79542297 0.020089163
0.070532158 0.073430687 -0.0046568937 -0.34237328 -0.049557779 -0.93825614 0.029411558
0.073532626 0.073348507 -0.0047561182 0.26972592 -0.093226135 -0.95841372 0.043302327
0.075672716 0.073395222 -0.0035710395 0.47895962 -0.25640211 -0.83955681 0.054625914
0.068619475 0.075816751 -0.0032322719 -0.49858618 0.026045427 -0.86644876 0.049739093
0.0700109 0.075695157 -0.0043722428 -0.45816523 0.056144796 -0.88709211 0.041819446
0.072980925 0.07534232 -0.0051133023 0.038470984 -0.11457611 -0.99266928 0.053757053
-0.015916506 0.0027906392 -0.0014840689 -0.2515898 -0.9567098 -0.14631769 0.00092907093
-0.013383034 0.0021101478 -0.0015743567 -0.21732041 -0.9606005 -0.17325845 0.0016786155
-0.010823737 0.0016196966 -0.0019764418 -0.16735534 -0.96784538 -0.18779635 0.0021849591
-0.0077450895 0.0011433183 -0.0016873734 -0.13585484 -0.97045964 -0.19937795 0.002916283
-0.0045028995 0.0006937483 -0.0017377809 -0.096892446 -0.97152853 -0.21620405 0.0034247208
-0.0019143143 0.000554008 -0.0019988779 -0.068744302 -0.97791004 -0.19739857 0.0024949245
0.0013747177 0.0003258604 -0.0015240584 -0.02237441 -0.99767971 -0.064300962 0.0041487785
0.0048404443 0.00038354995 -0.0021217146 0.014129416 -0.97683936 -0.21350694 0.0030081563
0.0073694778 0.00043028823 -0.0015947279 0.039622758 -0.98363698 -0.17575066 0.0013166048
0.01045469 0.00055788702 -0.0016392434 0.078747146 -0.98980933 -0.11864405 0.0034543071
0.013307374 0.00083746447 -0.0016025843 0.11594175 -0.98625654 -0.11770979 0.0031424998
0.016233079 0.0012343056 -0.001630197 0.13299395 -0.98175627 -0.13589433 0.0035337275
0.019495182 0.0017288474 -0.001628118 0.17892721 -0.97807634 -0.10654444 0.0022238302
0.023108592 0.002433202 -0.00098604034 0.21085477 -0.97213006 -0.10248593 0.002630312
0.024856137 0.0028409981 -0.00128791 0.22099286 -0.97193116 -0.080697149 0.0025413192
-0.024919478 0.0057718889 -0.0015149312 -0.35001194 -0.91828156 -0.18506925 0.00057019078
-0.022498464 0.0048527117 -0.001629243 -0.3276419 -0.92582726 -0.1884004 0.00050963851
-0.01958427 0.0038242706 -0.0016967893 -0.29224074 -0.94106895 -0.17024878 0.00058410846
-0.017562402 0.0032645471 -0.0017145728 -0.27597809 -0.9471752 -0.16338696 0.00075184734
0.025994426 0.0031714463 -0.001962421 0.24852294 -0.96498471 -0.083909608 0.0025285282
0.028423727 0.003709526 -0.0014591661 0.27316493 -0.95959193 -0.067560084 0.0019099781
0.031804144 0.0048976289 -0.0020164847 -0.37978935 -0.24505287 0.89202523 0.0073232977
0.034162227 0.0055216784 -0.001428345 0.32166973 -0.94342881 -0.08044038 0.0017674715
-0.033007558 0.0089005269 -0.00050023192 -0.39236015 -0.89228809 -0.22332831 0.0015705997
-0.031410091 0.0083881961 -0.0015623636 -0.37276217 -0.90127891 -0.22078221 0.00065415871
-0.02848324 0.0071676434 -0.0016579974 -0.35652682 -0.90968692 -0.21297511 0.0009243805
-0.02630063 0.0063204542 -0.0017278016 -0.355232 -0.91257381 -0.20253204 0.00090570637
0.03573329 0.0061596511 -0.0017946593 0.36369899 -0.92804104 -0.080392718 0.0016848028
0.037616551 0.0068471441 -0.0014912736 0.37401333 -0.92382139 -0.081658639 0.0017006046
0.040484406 0.0080426754 -0.0015120689 0.38640457 -0.9173274 -0.095926739 0.0017417469
0.042273052 0.0088546127 -0.001267318 0.4140659 -0.9051218 -0.096457548 0.0020031491
-0.039165206 0.011847076 -0.00048369984 -0.43711966 -0.8636657 -0.25101379 0.0032459104
-0.037546124 0.011177935 -0.0016616066 -0.43333682 -0.87370574 -0.22103745 0.0010396857
-0.034595978 0.0097432462 -0.0016282137 -0.39925796 -0.88775778 -0.22908333 0.0010533057
-0.03296943 0.0090527274 -0.0021868902 -0.39235446 -0.89229041 -0.22332902 0.0015738542
0.043663956 0.0095491717 -0.0015769305 0.44392753 -0.89090604 -0.09599404 0.002000116
0.046359718 0.010898622 -0.0015593395 0.45396909 -0.88633668 -0.091210864 0.001678752
0.048192184 0.011838257 -0.00066624366 0.48565334 -0.86932731 -0.091710918 0.0018475146
-0.043154955 0.014196619 -0.0014668145 -0.51225293 -0.8334859 -0.20711884 0.0025354556
-0.040514026 0.012734216 -0.0015754007 -0.45394364 -0.8578431 -0.24091566 0.0019077101
0.049756289 0.012845048 -0.0016348216 0.50960773 -0.85528386 -0.093752176 0.0017629798
0.052197155 0.014294568 -0.0015102539 0.52730715 -0.84628868 -0.075780958 0.0019869246
-0.048344593 0.017791977 -0.001472882 -0.57228768 -0.78756535 -0.22853386 0.0014031088
-0.046501298 0.016519912 -0.0015766132 -0.55567425 -0.79742455 -0.23524521 0.0029058624
-0.044594888 0.015209693 -0.0017480361 -0.55515319 -0.79774636 -0.23538421 0.0032103043
0.053623278 0.015300661 -0.0017371706 0.55393791 -0.82886809 -0.078297228 0.0021138696
0.055341076 0.016459038 -0.0014584279 0.55967015 -0.82529932 -0.075169533 0.0022869282
0.057259724 0.017766293 -0.0012813272 0.5985738 -0.79503673 -0.098112732 0.0035722188
-0.051859055 0.020394571 -0.0014724246 -0.59457743 -0.77866966 -0.20037761 0.0012278258
-0.049865812 0.018923244 -0.00163958 -0.57758737 -0.78149241 -0.235929 0.0013470935
0.058769949 0.019014401 -0.0015846518 0.63579214 -0.76873511 -0.069388025 0.001839552
0.060491502 0.020442976 -0.0015145229 0.65859294 -0.74417812 -0.11159904 0.0042574215
-0.055136416 0.022911208 -0.0015526699 -0.6070357 -0.77127337 -0.19142877 0.00078009948
-0.053258818 0.021489553 -0.0018050624 -0.6012764 -0.77000999 -0.21342777 0.0016107912
0.062108029 0.021976588 -0.0015613674 0.69670594 -0.71362942 -0.073033996 0.0020873449
0.063672461 0.023530524 -0.0012624417 0.72641915 -0.68144459 -0.089154936 0.0029782299
-0.060046744 0.0267126 -0.00062720891 -0.68241054 -0.70623994 -0.18852343 0.00057073729
-0.058430944 0.025633177 -0.0015837192 -0.6448155 -0.73935443 -0.19382475 0.00060392864
-0.056655195 0.024191603 -0.0018484286 -0.62921351 -0.74991357 -0.2042547 0.00071200216
0.064998344 0.025106499 -0.0016612129 0.77422893 -0.62401479 -0.10571268 0.0033214467
0.066316791 0.026774244 -0.001650787 0.79927558 -0.58969063 -0.11585988 0.0029920454
-0.0630714 0.029947726 -0.0010433202 -0.73539817 -0.65796155 -0.1620995 0.001385601
-0.061556235 0.028637765 -0.001615061 -0.71181685 -0.67988455 -0.17627762 0.0010385117
-0.059930172 0.027174205 -0.0026276326 -0.67037207 -0.70745373 -0.2238538 0.001358903
0.06750872 0.028423373 -0.0015417053 0.82331145 -0.55765653 -0.10572365 0.0029458045
-0.064231321 0.031561527 -0.0016163253 -0.76458704 -0.62349588 -0.16327749 0.0018459578
-0.062813282 0.03017701 -0.0027677454 -0.72705638 -0.65632522 -0.20155945 0.0019721838
-0.0003465281 0.032927934 -0.0026679093 0.08382196 0.97356516 -0.21247287 0.00068841333
0.0016217729 0.03294294 -0.0015551669 0.058297064 0.95207286 -0.30026451 0.0016855465
0.0045053754 0.032957979 -0.00078820391 0.02276946 0.95668805 -0.29022339 0.0027738193
0.0076073566 0.032967053 -0.00084576372 -0.056776162 0.95302773 -0.29751408 0.0022164839
0.010686645 0.032964833 -0.0022972603 -0.11802848 0.9425838 -0.31241816 0.0023212112
0.068750791 0.030444095 -0.0015540245 0.85515678 -0.50859314 -0.10019932 0.0033165822
0.069663212 0.032000858 -0.0012275653 0.89337826 -0.43715745 -0.10377237 0.0041786851
-0.06689433 0.034898665 -0.0016078115 -0.80341202 -0.57701558 -0.14690906 0.0025401306
-0.065666489 0.033378039 -0.0017611873 -0.78124267 -0.60722715 -0.14468984 0.0017494982
-0.014031695 0.035512716 -0.0018315727 0.27096614 0.91161948 -0.309075 0.00099855324
-0.010104161 0.034326825 -0.0028676575 0.18993798 0.92636716 -0.32521915 0.002402541
-0.0075822473 0.034033235 -0.0014867027 0.16943446 0.95330292 -0.25001094 0.00075225014
-0.0044926126 0.033566266 -0.0014044183 0.14333385 0.96236789 -0.23087548 0.0012340881
-0.0027161106 0.03341781 -0.00075877766 0.11830735 0.9700864 -0.21198058 0.00063304999
0.013931959 0.033469446 -0.0014154419 -0.15193003 0.9578467 -0.24381749 0.00078174094
0.016726678 0.033893757 -0.001860014 -0.19458304 0.9621495 -0.19080319 0.0022427128
0.019596741 0.03465347 -0.0013158906 -0.26252255 0.95528746 -0.13604386 0.0014630184
0.022388881 0.035376716 -0.0016872255 -0.28053004 0.95096207 -0.13028462 0.0012117679
0.024434501 0.035959691 -0.0016937412 -0.28931826 0.9479146 -0.13323979 0.0011978351
0.070623249 0.03426604 -0.0017396323 0.91575819 -0.373007 -0.14917363 0.0047705811
-0.069317423 0.038434129 -0.0013883552 -0.85247618 -0.4955011 -0.16662233 0.0048599071
-0.06835968 0.037054684 -0.0017494789 -0.8240912 -0.54666251 -0.14843807 0.00300497
0.026090899 0.036462195 -0.0015832148 -0.27905431 0.95145494 -0.12985481 0.0012075709
0.028467616 0.037243485 -0.001546048 -0.31808865 0.93437022 -0.1605365 0.001876504
0.031576708 0.038375903 -0.0013733013 -0.36233649 0.92342538 -0.12648255 0.001749968
0.033266731 0.038960643 -0.0024223339 -0.43727344 0.89070892 -0.12421586 0.0017092148
0.07162609 0.037115954 -0.0016688058 0.94672275 -0.27703208 -0.16422328 0.0027099072
-0.070425943 0.040395092 -0.0015969985 -0.88756847 -0.4288263 -0.16831587 0.0047867685
0.034697369 0.039729774 -0.0016693287 -0.43080291 0.89446783 -0.11973369 0.0017814524
0.037316609 0.041074116 -0.0017023133 -0.48926806 0.8614738 -0.13593999 0.0017297125
-0.072230063 0.044458494 -0.0014367831 -0.92451817 -0.34148404 -0.16927768 0.0077553191
-0.071543328 0.042973906 -0.0017894186 -0.90749252 -0.3856816 -0.16645479 0.0057626478
0.038753726 0.042012088 -0.001163724 -0.52777177 0.83952683 -0.12904154 0.001826494
0.040598515 0.043100011 -0.0015159096 -0.52812243 0.83714056 -0.14241676 0.001975653
0.042533062 0.044329546 -0.0016484719 -0.52354264 0.84804994 -0.081941508 0.0027396348
0.072946683 0.042408831 -0.00023640512 0.92924041 -0.17667443 -0.32449725 0.011125503
-0.07291165 0.046542007 -0.0016220358 -0.92560786 -0.30080718 -0.2297067 0.011062904
0.044044476 0.045368589 -0.0013135556 -0.53434026 0.84099048 -0.084944025 0.0029484604
0.046383534 0.046881847 -0.0016449296 -0.555314 0.81785131 -0.15081689 0.0034348664
-0.075067103 0.050866306 -0.00061846193 -0.93437755 -0.31940013 -0.15786754 0.032684635
-0.073995978 0.049562458 -0.0016862889 -0.88569278 -0.31612277 -0.34002152 0.010573984
0.049428813 0.048918784 -0.0016571655 -0.56118268 0.81271148 -0.15676154 0.002921907
0.051588859 0.05037066 -0.001657447 -0.56361753 0.81377888 -0.14177163 0.0026274137
-0.075506441 0.052848399 -0.0014248979 -0.8684693 -0.24780005 -0.42936715 0.022552671
-0.074670523 0.051714975 -0.0023963621 -0.86211115 -0.30409586 -0.40532699 0.0089253848
-0.049305215 0.051703349 -0.0029685083 0.40550908 0.79570782 -0.44990158 0.0010007514
0.053198583 0.051438794 -0.0016321378 -0.53583926 0.82130957 -0.19577274 0.0045974785
0.055537708 0.052933659 -0.0017377432 -0.54117906 0.81485283 -0.20770192 0.0046220529
0.057143446 0.053721182 -0.0026983866 -0.52672476 0.80627948 -0.26921076 0.0063592144
-0.075781554 0.055006519 -0.0020393759 -0.85485089 -0.11483064 -0.50600785 0.029078295
-0.058555491 0.055919997 -0.0023063521 0.34311095 0.82383829 -0.45118222 0.001622324
-0.054874346 0.054376606 -0.0025896369 0.30142096 0.84037364 -0.4504638 0.00083104346
0.058576088 0.055046204 -0.0016536238 -0.58625573 0.76276392 -0.27293849 0.0068444591
0.060739417 0.056614559 -0.0017439146 -0.62700534 0.73170286 -0.2673485 0.0092736008
-0.075330749 0.057213765 -0.0022669868 -0.83358413 0.32870346 -0.44394982 0.088166878
-0.073882096 0.058184844 -0.0018876011 -0.49298027 0.71695918 -0.49288943 0.029478025
-0.07103771 0.05965019 -5.4948814e-05 -0.29419497 0.89638716 -0.33157122 0.013611726
-0.064357497 0.059141457 -0.0022495713 0.32921803 0.72100586 -0.60972619 0.0026937558
-0.061667774 0.057450503 -0.0023236931 0.37785286 0.74974716 -0.54323703 0.0019849674
0.062155161 0.058094703 -0.0016195425 -0.75183117 0.60155582 -0.26996401 0.018707503
0.063549481 0.059530079 -0.0022247643 -0.75756669 0.59690189 -0.26419848 0.020908544
0.073357865 0.058616981 -0.0019101428 0.61814535 0.061032891 -0.78369087 0.0095471228
-0.069207884 0.060456052 -0.0022898528 -0.1669827 0.92253488 -0.34791696 0.024524944
-0.06745708 0.060429595 -0.0024029019 -0.0082997652 0.89213657 -0.45168963 0.040437106
-0.065965615 0.060092106 -0.0022017546 0.23362802 0.88180649 -0.40967718 0.037849121
0.064447433 0.06150724 -0.001709615 -0.86777115 0.32468638 -0.37623405 0.027527276
0.073464602 0.061194003 -0.0021275268 0.46239221 0.055707052 -0.88492382 0.012340475
0.065293394 0.064304493 -0.0014480662 -0.87614202 0.25020197 -0.41203672 0.014642349
0.066278502 0.064927317 -0.0027631202 -0.84194762 0.20789123 -0.49790111 0.018063366
0.073944695 0.06488803 -0.0021813635 0.55362409 -0.060910087 -0.83053613 0.0068373783
0.065740086 0.067071564 -0.00082967419 -0.8919273 0.22095028 -0.39452091 0.010943457
0.066495009 0.067544714 -0.0021460031 -0.83854789 0.20456986 -0.50496405 0.012133257
0.07440041 0.067608252 -0.0025297781 0.592749 -0.14612754 -0.79201978 0.0214897
0.075601608 0.068651453 -0.00059499143 0.85886943 -0.22929761 -0.45800218 0.0185098
0.067226037 0.070909336 -0.0020956392 -0.74069971 0.10808966 -0.66308415 0.0073740301
0.074905835 0.069870301 -0.002515025 0.58680564 -0.21555182 -0.78051043 0.0019962301
0.075615756 0.070553422 -0.0019934475 0.68178004 -0.27714288 -0.67702866 0.016858928
0.067591086 0.073598579 -0.0020434947 -0.66941613 0.10232693 -0.73580652 0.018265389
0.07662338 0.072952449 -0.0020701729 0.63319349 -0.2440618 -0.73450649 0.023737799
0.06788101 0.076019876 -0.001804718 -0.85193014 0.15044534 -0.50157881 0.020157613
-0.018627547 0.0029358184 0.002211814 -0.25015599 -0.96806228 0.016658038 0.0077409041
-0.016610637 0.0026022529 0.0015110312 -0.23485446 -0.97168273 -0.026001139 0.0046212724
-0.013706383 0.0019506473 0.0014339783 -0.21749452 -0.97572982 -0.025444893 0.0015364705
-0.010436762 0.001353971 0.0013884958 -0.14909756 -0.98288286 0.1082189 0.0047491477
-0.0074178157 0.00098768063 0.0013668698 -0.11978619 -0.98690152 0.10805871 0.0035131557
-0.0045983405 0.00064309023 0.0015767026 -0.087526046 -0.9841646 0.15414049 0.0057015773
-0.0015421186 0.00044622278 0.0014550176 -0.04386235 -0.98895049 0.1416086 0.0036263466
0.0014708183 0.00033958082 0.0013644747 -0.010380602 -0.99796528 0.06290926 0.0068069664
0.0043916493 0.00031069579 0.0014776581 0.027051006 -0.98508 0.16995762 0.0040093591
0.0074980422 0.00044349971 0.0014301405 0.044862166 -0.98220986 0.18234919 0.004624859
0.010412314 0.00060050911 0.0015627989 0.077194691 -0.97525692 0.2071593 0.0061189346
0.013267848 0.00087784976 0.0015749368 0.10801256 -0.9735375 0.20139024 0.0063269832
0.016368631 0.0012699921 0.0014332378 0.13296692 -0.97629046 0.17081198 0.0048729316
0.01918909 0.0016592722 0.0012561469 0.16801049 -0.97058642 0.17243719 0.0040937099
0.022522882 0.0024343056 0.0016171192 0.19221961 -0.9698447 0.14984286 0.003067845
0.024705194 0.0028017694 0.00097815203 0.23523253 -0.96361262 0.12695059 0.0029913913
-0.027549243 0.0057677277 0.002069053 -0.33735999 -0.93567115 -0.10347831 0.0090056071
-0.025401356 0.0053155175 0.0014767909 -0.32320037 -0.93829679 -0.12304748 0.0054474534
-0.022509962 0.0043765618 0.001353701 -0.3206138 -0.94414461 -0.076143011 0.0027659468
-0.019657813 0.0034647651 0.0013252833 -0.29310256 -0.95375454 -0.066656463 0.0026681283
-0.017902065 0.003189909 0.00046775638 -0.24995244 -0.96461499 -0.083914384 0.0019900219
0.02575136 0.003144322 0.0019005645 0.21639194 -0.96236575 0.16439827 0.0053388979
0.028537553 0.0037810605 0.0014756806 0.28046116 -0.95210719 0.12179288 0.0025547592
0.031545788 0.004675495 0.0014860934 0.28553241 -0.9516806 0.11302794 0.0017171496
0.034130823 0.0055379537 0.0013679758 0.31889355 -0.9415645 0.10845837 0.0026625956
-0.034262251 0.0084854113 0.0017340695 -0.38566867 -0.91156393 -0.1425163 0.0044149631
-0.031532668 0.0076770461 0.0013541178 -0.37857556 -0.9118579 -0.15873192 0.0037519755
-0.028741824 0.0066740159 0.0011595649 -0.36447605 -0.91699862 -0.16208273 0.0040814225
-0.026621498 0.0062376256 0.00040834842 -0.31634456 -0.93572003 -0.15605791 0.0031752503
0.035611685 0.0061282394 0.001555543 0.36863533 -0.92273104 0.11258525 0.0024609992
0.037485637 0.0068377047 0.0015379647 0.37242308 -0.92081833 0.11573561 0.0023565744
0.040537454 0.0081021413 0.0014755434 0.38546494 -0.91398489 0.12668261 0.002143671
0.042319871 0.0088684559 0.00083821575 0.40994292 -0.90307707 0.12805702 0.0023542112
-0.042189643 0.011923362 0.002318298 -0.43488556 -0.88894981 -0.14367618 0.014169797
-0.040125102 0.011333592 0.0016717324 -0.43741682 -0.88123572 -0.17913689 0.010049863
-0.037511364 0.010265888 0.0013432605 -0.44290963 -0.87482345 -0.19625247 0.003489652
-0.03499423 0.0095283436 0.00065167667 -0.40871358 -0.89289349 -0.18892962 0.0030525941
0.0436632 0.0095944367 0.0016021209 0.44290781 -0.88733518 0.12833133 0.0023980413
0.046426769 0.010976383 0.001499209 0.447469 -0.88442189 0.13255 0.0020890995
0.048097562 0.011854105 0.00093309261 0.48116705 -0.86656207 0.13247071 0.0024217195
-0.045716479 0.014430231 0.0019930014 -0.54506832 -0.8168593 -0.18878919 0.0083235279
-0.043493424 0.013452443 0.0013570498 -0.5287922 -0.81424594 -0.23954616 0.0073292661
-0.04100132 0.012521021 0.0007765388 -0.45318508 -0.85441279 -0.25416946 0.0050978269
0.049501657 0.012741314 0.0015674205 0.51284277 -0.8482964 0.13185431 0.0022710636
0.051971603 0.014187212 0.0013616149 0.52789789 -0.84175038 0.1130496 0.0024297563
-0.051373251 0.017990489 0.0029853689 -0.58470005 -0.79959601 -0.13701138 0.01485505
-0.049269315 0.017111354 0.0018292457 -0.57378703 -0.79509628 -0.19644451 0.0060301791
-0.04681145 0.015931753 0.0011501728 -0.5505231 -0.80328208 -0.2272933 0.0052268407
-0.044779241 0.015096235 0.00054533407 -0.5442614 -0.80136669 -0.24817547 0.0058372277
0.053493574 0.015284237 0.0017998891 0.55202919 -0.82565296 0.11645213 0.0024161902
0.055465892 0.016608998 0.0014698533 0.5563398 -0.81982541 0.13554494 0.0024712244
0.057295479 0.017799601 0.00086618925 0.59946692 -0.79314184 0.10754222 0.0042171981
-0.054407898 0.020643108 0.0024077492 -0.62014294 -0.75851017 -0.20021249 0.0073160729
-0.052350093 0.019663988 0.001637756 -0.59426826 -0.76266021 -0.25533259 0.0053853649
-0.050176103 0.018626662 0.00089892279 -0.58746517 -0.77197653 -0.24276942 0.0039545577
0.058739968 0.01907674 0.0016652392 0.6219182 -0.77143562 0.13455455 0.0025059828
0.060559776 0.020561215 0.001341591 0.6575489 -0.74338496 0.12250815 0.0026588114
-0.057532679 0.023582801 0.0022568945 -0.68870711 -0.71601647 -0.11403084 0.0067383684
-0.055593356 0.022422133 0.0014765705 -0.62055892 -0.74808013 -0.23512284 0.0047654067
-0.053533126 0.021356991 0.00073897402 -0.58151186 -0.77192611 -0.25685412 0.0043187193
0.061926115 0.021874979 0.0014793803 0.68791401 -0.71758008 0.10887244 0.0020955624
0.063486829 0.023438837 0.0013906673 0.7282325 -0.67111784 0.13884656 0.0039654034
-0.060396094 0.02656775 0.0019761021 -0.7197544 -0.67471164 -0.16345562 0.0010220513
-0.058760535 0.025231084 0.0014751685 -0.67285722 -0.71390176 -0.19392638 0.0019571658
-0.05675989 0.024080362 0.00040456557 -0.62394011 -0.74156785 -0.24652758 0.0045566307
0.065062083 0.025229372 0.0013661602 0.75844717 -0.6383701 0.1313071 0.0031795166
0.06629926 0.026770731 0.0011892845 0.78697443 -0.59847188 0.15000889 0.0034156416
-0.063237958 0.02967778 0.0023612007 -0.77758729 -0.62476069 -0.070937589 0.0030208447
-0.061742872 0.028312504 0.0014643651 -0.74114865 -0.65845698 -0.13089319 0.00093897624
0.067419052 0.028406931 0.0014640797 0.83198357 -0.54120022 0.12208921 0.0026428122
-0.064438567 0.031415213 0.0015890105 -0.78915244 -0.61012447 -0.070614353 0.0012855697
-0.062934242 0.030002473 0.00098629599 -0.75774759 -0.64030427 -0.12581344 0.00086708961
0.068666637 0.030419203 0.0015565665 0.85016382 -0.50954831 0.13259709 0.0026213813
0.069425948 0.031778377 0.0016435329 0.89220625 -0.4325377 0.12992002 0.0031522159
-0.066964842 0.034800321 0.0014572424 -0.82325315 -0.56759179 0.0096930591 0.0012999306
-0.065836377 0.033315655 0.0013212656 -0.80957776 -0.58665848 -0.020385632 0.0010204997
0.020753438 0.03499959 0.0015738602 -0.26731765 0.95576948 -0.12266221 0.0013581816
0.023917329 0.035983592 0.00020090437 -0.28132248 0.95781446 -0.058728948 0.00032643453
0.070643507 0.034421939 0.0014437054 0.91570586 -0.37904072 0.13345759 0.0027957729
-0.069429427 0.038511164 0.0011779481 -0.8603214 -0.50669616 0.055733692 0.0022573061
-0.068462223 0.037013303 0.0014382907 -0.84049219 -0.54061073 0.03623423 0.00163657
0.025738694 0.036494348 0.00068176462 -0.29894152 0.94742262 -0.11412449 0.0012265907
0.027401779 0.037000414 0.00078515854 -0.30454046 0.94563782 -0.11412402 0.00086353527
0.031813201 0.038520653 0.00095565116 -0.37651652 0.91870689 -0.1192181 0.0015170153
0.071844682 0.03768228 0.00091120205 0.95645207 -0.29187503 0.0028961671 0.0073536024
-0.070380799 0.040309433 0.0015933519 -0.8950392 -0.44353127 0.046741895 0.0016968023
0.032917075 0.039026603 0.0009891924 -0.39633951 0.91441566 -0.082213543 0.0018434003
0.034525737 0.039784528 0.00092762173 -0.45287192 0.89038098 -0.046139378 0.00057650299
0.037096292 0.04105401 0.00096301408 -0.47943926 0.87653762 -0.042659592 0.00040651509
-0.072205253 0.044455796 0.00095937261 -0.93469596 -0.35505342 -0.016746193 0.0058434121
-0.071583904 0.043051589 0.0014988206 -0.91909909 -0.39117914 0.047284331 0.0038081501
0.038728297 0.042056397 0.00053979759 -0.49876428 0.8665722 -0.016937304 0.00036067981
0.040953636 0.043346412 0.0011766206 -0.52550727 0.85078901 0.00055530429 0.00023446479
0.042770855 0.044396799 0.0020959841 -0.53794056 0.84293157 0.0092950249 0.00026885333
-0.072843254 0.0465836 0.0015008422 -0.94304401 -0.31961119 0.092285588 0.0049088821
0.044195533 0.045402501 0.0015947929 -0.54929954 0.83298105 -0.066428244 0.0024323666
0.046421066 0.046930186 0.0013086302 -0.55738354 0.82741129 -0.068660505 0.0019592268
-0.07507024 0.050864633 3.6913368e-06 -0.95671672 -0.28993464 -0.025121879 0.013023822
-0.073946208 0.049445145 0.0012303405 -0.9214558 -0.37734592 0.092354104 0.0095926309
0.049457841 0.048984777 0.0012445874 -0.56574678 0.82075369 -0.079335339 0.00094900344
0.051656246 0.050515756 0.00088149292 -0.55899 0.8225497 -0.10460491 0.0013610733
-0.075472787 0.052619122 0.0010923548 -0.94512165 -0.32631108 0.016312886 0.012174218
-0.074712344 0.051577203 0.0017698493 -0.9319824 -0.35311243 0.081978716 0.010321312
0.052849267 0.051299006 0.0010214328 -0.55454338 0.82155448 -0.13240042 0.0026925367
0.055577017 0.053108227 0.0008484337 -0.55888462 0.82288677 -0.10249627 0.00078372261
-0.076059625 0.055384524 0.0014709659 -0.93423331 -0.026358033 0.35568714 0.023354314
0.059223458 0.055707678 0.00079156284 -0.59876198 0.77421987 -0.20510396 0.0030722723
-0.075355835 0.057273965 0.0020885773 -0.95441467 0.093344614 0.28351271 0.029250555
-0.074569464 0.057707623 0.0029288637 -0.8352313 -0.046480529 0.54793084 0.033793274
0.062265456 0.058555037 0.00063173316 -0.72972113 0.62133944 -0.28538471 0.018415699
0.063431665 0.059667185 0.0017690771 -0.78127331 0.57974195 -0.23132534 0.014920787
-0.069882594 0.060213577 0.0010698605 -0.16696998 0.922521 -0.34795985 0.024560509
0.063979596 0.06139281 0.00063736684 -0.8798129 0.42993677 -0.20269105 0.014020573
0.06497094 0.064052217 0.00071175676 -0.93599093 0.25195205 -0.24584785 0.0029181605
0.065645166 0.066775933 0.00054411421 -0.89192688 0.2209142 -0.39454198 0.010963231
0.066071585 0.068804294 0.00026951506 -0.87663192 0.22177091 -0.42700598 0.010279932
0.066607133 0.070874721 0.00046841573 -0.90315837 0.20118302 -0.37924969 0.0063761673
0.075890705 0.070194334 0.0007775994 0.85563362 -0.31679684 -0.40930551 0.020190937
0.067136668 0.073950678 0.00047609737 -0.91598904 0.14236803 -0.37509391 0.0054475558
0.076957084 0.072754718 0.00083200476 0.84625661 -0.23260365 -0.47931752 0.029444247
0.067546867 0.076179773 0.00052785751 -0.85196167 0.15006317 -0.50163972 0.020137316
-0.0184115 0.0029675895 0.0033142059 -0.2284262 -0.96057832 0.15846407 0.0060157776
-0.016314803 0.0026652636 0.0038569309 -0.21239592 -0.95916355 0.18679743 0.0071153915
-0.013453193 0.0023325903 0.0044668647 -0.16713446 -0.94725013 0.27346537 0.0038015861
-0.01055532 0.0018359171 0.0044045374 -0.14151521 -0.94269323 0.3021639 0.0039876755
-0.0075822761 0.0014934154 0.00442959 -0.10029535 -0.94472659 0.31214184 0.0039332309
-0.0045698369 0.0012593612 0.0045142164 -0.067961268 -0.94099867 0.33151588 0.0037483978
-0.0014249259 0.0011044822 0.0044824434 -0.024357665 -0.93630028 0.35035482 0.0032856404
0.0015607597 0.0010907382 0.004481608 -0.0048870798 -0.93528014 0.35387456 0.0024670293
0.0044858828 0.0011814521 0.0045358818 0.030771699 -0.93100965 0.3636952 0.0020247262
0.0075580068 0.0013858423 0.004523986 0.05244023 -0.92407829 0.37858862 0.0019330222
0.010348254 0.0015746048 0.0046340916 0.069167532 -0.92059666 0.38434058 0.0018289192
0.013615934 0.0018403155 0.0045033135 0.11210898 -0.91222048 0.39406264 0.0024441681
0.016632721 0.0022024978 0.004532699 0.1182625 -0.91125321 0.39450172 0.0030955737
0.019430622 0.0024480373 0.0041991533 0.13504729 -0.91174406 0.38792408 0.0041521634
0.02218548 0.0026921884 0.0036698042 0.19933408 -0.91787958 0.34316608 0.0032421912
-0.027643276 0.0058561345 0.0034354585 -0.2889232 -0.95302695 0.090901077 0.011058658
-0.025281923 0.0053962581 0.0042064041 -0.27557179 -0.91956931 0.28009373 0.0046093049
-0.022484997 0.0046364511 0.0044980943 -0.27683496 -0.92176259 0.27150729 0.005690326
-0.019566789 0.0037751349 0.0045878724 -0.27137449 -0.91544276 0.29718763 0.0049112504
-0.016762076 0.0033585394 0.0052902764 -0.22089237 -0.91866112 0.3275184 0.0041424986
-0.0144799 0.0031373857 0.0059038047 -0.16298412 -0.88017446 0.44579038 0.00066892128
0.019907501 0.0033464627 0.0058178408 0.15788767 -0.85789764 0.48896122 0.0052575716
0.022539539 0.0034193001 0.0049973279 0.20628433 -0.89201093 0.40219808 0.0042546829
0.025012583 0.0038187164 0.0046626972 0.22042866 -0.89374632 0.39067724 0.0051842774
0.02772931 0.0043227989 0.0042049764 0.23902646 -0.90324062 0.35640249 0.0050385185
0.031385493 0.0053247502 0.0043126051 0.2817702 -0.89932001 0.33440873 0.0032055373
0.033545818 0.0058120699 0.0036955145 0.32149088 -0.89280576 0.31550199 0.0027984923
-0.034172215 0.0085279485 0.004057413 -0.38344139 -0.91315252 0.13829406 0.011442851
-0.031473607 0.0076675564 0.0044354112 -0.32266 -0.91161859 0.25464115 0.0062796082
-0.028696924 0.0067025824 0.0046127592 -0.35663438 -0.90265584 0.24088225 0.0078455927
-0.026285706 0.0062087281 0.0054501621 -0.301092 -0.89617091 0.32591611 0.003091302
0.032528356 0.0061879749 0.0055313692 0.29239464 -0.88892764 0.35258061 0.0036883599
0.034676328 0.0065666884 0.0045701228 0.34778592 -0.88167363 0.3188991 0.0023122383
0.037453055 0.0075453175 0.0044004889 0.33694798 -0.87667555 0.34337452 0.0028391576
0.040054198 0.0085406825 0.0041988352 0.38929451 -0.87133574 0.29870352 0.0023342976
-0.042115722 0.01195113 0.0032508406 -0.44652683 -0.89449209 0.022308722 0.017577091
-0.040217638 0.01137053 0.0041823052 -0.43530145 -0.8897565 0.13728103 0.020793023
-0.037533734 0.01018896 0.004445279 -0.41638765 -0.88287294 0.21715608 0.0054012882
-0.035118014 0.0093244538 0.0051246341 -0.40379182 -0.8875435 0.22185299 0.0088729579
0.041214935 0.0093457634 0.0048779058 0.40202951 -0.86085826 0.31192222 0.0023058425
0.043610156 0.01032669 0.0045183003 0.41007882 -0.86006784 0.30351064 0.0024993955
0.046001662 0.011425988 0.0042353394 0.44714063 -0.84204262 0.3017109 0.0023017379
-0.04583396 0.014530266 0.0039599827 -0.5357511 -0.84028119 0.083055623 0.02181223
-0.043594211 0.013282923 0.0043828953 -0.52429515 -0.82093805 0.22621948 0.0078782681
-0.041395657 0.012301439 0.0051255547 -0.46477622 -0.84790868 0.25501764 0.006750145
0.047324762 0.012440935 0.004921583 0.47837302 -0.823888 0.30392072 0.002103742
0.049563162 0.013546374 0.0044440022 0.49175695 -0.81295681 0.31189179 0.0027092628
0.051660925 0.014600917 0.0039385688 0.49657199 -0.80133253 0.33359015 0.0021385688
-0.049364142 0.017007612 0.0043418724 -0.57995987 -0.8078481 0.1050145 0.019231645
-0.047077224 0.015612426 0.0046815323 -0.57146442 -0.80791301 0.14389218 0.011109062
0.052957796 0.015834056 0.0047447672 0.54516578 -0.76605219 0.34052676 0.0029347648
0.055266462 0.017225683 0.0042094146 0.54964781 -0.77284622 0.31716889 0.0022868868
-0.054439638 0.02061017 0.0039887717 -0.62903547 -0.77236223 0.088152915 0.02523559
-0.052963704 0.019653628 0.0040524225 -0.60054147 -0.79948092 0.013424029 0.011157081
-0.050538816 0.018264487 0.0052828873 -0.57445168 -0.79207009 0.20647085 0.0097213509
0.056501348 0.018418515 0.0049540093 0.57577503 -0.75658023 0.30995089 0.0019424205
0.0583992 0.019716712 0.0044501056 0.5963214 -0.73333341 0.3265318 0.0020176996
0.060059845 0.020770585 0.0037331078 0.6383847 -0.70399213 0.31122345 0.0018615016
-0.057696749 0.02345396 0.0038522168 -0.66014534 -0.74505651 -0.09538798 0.01275852
-0.056115393 0.022201786 0.0042743417 -0.65145105 -0.75855517 0.014336437 0.008844424
-0.053977344 0.021053221 0.0059468704 -0.58519852 -0.74317467 0.32439819 0.0024309754
0.05973592 0.021372598 0.0055200579 0.61034369 -0.68761712 0.39327264 0.0036237501
0.06150483 0.022530468 0.0044349311 0.67599469 -0.65450287 0.33861068 0.0036005783
0.063245431 0.023555724 0.0030340012 0.72687513 -0.64748865 0.22893456 0.0043752841
-0.060548335 0.02629658 0.0039028141 -0.7417894 -0.67060709 0.0058859251 0.0091961725
-0.059002068 0.024878424 0.0046791774 -0.70829862 -0.69454741 0.12616247 0.010782707
0.06294103 0.024255427 0.0048631523 0.68670237 -0.6405381 0.34373072 0.0032603352
0.06430243 0.02547707 0.0042458228 0.7404018 -0.60302418 0.29692945 0.00088526058
-0.063292347 0.029559793 0.0040466092 -0.79497302 -0.60217726 0.073487453 0.0084766326
-0.062201876 0.028362578 0.0041261627 -0.76749831 -0.63888121 0.052699439 0.0069075725
0.065579765 0.02774043 0.0052061272 0.75300777 -0.52398813 0.39801484 0.003456611
0.066718623 0.028630881 0.004140642 0.77480233 -0.53039312 0.34404159 0.0023084702
-0.064605214 0.031510308 0.0040593934 -0.80858546 -0.5760451 0.11983978 0.0061680186
0.068281263 0.031246591 0.0041767941 0.82568741 -0.45664826 0.33122909 0.0017677491
0.069302306 0.032570206 0.0034321004 0.8513937 -0.45519415 0.26062849 0.0049774828
-0.066744506 0.034776852 0.0040182234 -0.83188874 -0.53256065 0.15601411 0.0047785719
-0.065689951 0.03336611 0.0042909808 -0.8211295 -0.55730188 0.12312976 0.0060318145
0.069870263 0.034621026 0.0042257407 0.88710803 -0.40400869 0.22319564 0.0071967309
-0.069169626 0.038668733 0.0033794516 -0.85768467 -0.45862544 0.23246437 0.0043526129
-0.068113878 0.037392724 0.0044205212 -0.85005689 -0.46474412 0.24782275 0.0039604786
-0.069684379 0.040357329 0.0040385337 -0.87517333 -0.41174689 0.25403973 0.0038184901
-0.068766639 0.039695825 0.0056008184 -0.77838767 -0.29869127 0.55217409 0.0027228303
-0.070703611 0.043523081 0.0046002148 -0.83241308 -0.25728744 0.49080729 0.0051002414
-0.072282679 0.046916541 0.0035881405 -0.84117705 -0.26731014 0.47007066 0.0035791537
-0.071304277 0.04638394 0.0049076118 -0.83477706 -0.21919775 0.5050739 0.0072237328
-0.072737083 0.049586169 0.0040844935 -0.7804988 -0.24286787 0.57605278 0.0077164192
-0.071467414 0.049412299 0.0055338549 -0.66086751 -0.13655627 0.73797458 0.0049581402
-0.073461153 0.052571114 0.004301209 -0.69319266 -0.13396452 0.70819312 0.00820099
-0.071630329 0.052225709 0.0057614162 -0.5591346 -0.058643978 0.82700026 0.0051459246
-0.075094953 0.055533983 0.0033358294 -0.73576343 -0.053692557 0.67510694 0.012111137
-0.073719092 0.055357307 0.0045001535 -0.64337116 0.040817194 0.76446557 0.0085936179
-0.071447454 0.055249013 0.0058007766 -0.52901042 0.066724978 0.84598809 0.0039603058
-0.073612981 0.057558 0.0040728753 -0.64337116 0.040817194 0.76446557 0.0085936179
-0.012239745 0.0028663808 0.0062642656 -0.15846598 -0.86698312 0.47247097 0.00099392084
-0.010233242 0.0027192333 0.0064965254 -0.12308026 -0.86974001 0.47791588 0.0013256954
-0.0075467178 0.0025698636 0.0068271677 -0.086574949 -0.87049133 0.48450962 0.0014070146
-0.0045140255 0.0024204575 0.0069922255 -0.050128613 -0.86740553 0.49507043 0.0015409214
-0.0015045827 0.0023291395 0.0070265559 -0.019709127 -0.86443162 0.50236404 0.0018202022
0.0015744419 0.0023976411 0.0071415226 0.0069627697 -0.86467278 0.50228721 0.0017427222
0.0045611188 0.0023477208 0.0069049587 0.043714885 -0.86226022 0.50457543 0.0015930792
0.007528563 0.0025449169 0.0068600555 0.062466867 -0.85758221 0.51053953 0.0014480562
0.010591555 0.0026330752 0.0066396073 0.081690781 -0.85570359 0.51097739 0.00083238428
0.013130023 0.0028092992 0.0063219494 0.10994387 -0.84310633 0.52638763 0.00050646579
0.015174882 0.0029854719 0.0063146721 0.1236534 -0.83437282 0.53715163 0.0003644285
-0.02432574 0.0059136171 0.0061710565 -0.28186491 -0.86154556 0.42224562 0.00068347761
-0.022260342 0.0055591874 0.0067950995 -0.25967327 -0.85869431 0.44183016 0.00083771837
-0.019465514 0.0050940006 0.007430118 -0.21619658 -0.84350175 0.49169493 0.00082195859
-0.016520588 0.0044019609 0.0074758306 -0.18698671 -0.85210246 0.48883268 0.0013048142
-0.013459929 0.003811497 0.0075372793 -0.16310692 -0.85149741 0.49834558 0.00082009414
-0.010577831 0.003660697 0.0080523286 -0.11565486 -0.83998334 0.53014326 0.0015270943
-0.0076727797 0.0034827767 0.0083139567 -0.079587691 -0.82575226 0.55838966 0.0012138365
-0.004639985 0.0033735186 0.0084973071 -0.042021304 -0.81941634 0.57165647 0.0011917874
-0.0014668618 0.003308011 0.0085347733 -0.012079932 -0.81357169 0.58133912 0.0014618484
0.00087355456 0.0031128516 0.0083481092 -0.0028714682 -0.84143251 0.54035467 0.0021355492
0.0043523395 0.0031942441 0.0083935345 0.045488682 -0.83094645 0.55448973 0.0017096661
0.0076064169 0.0033817822 0.0081954412 0.062263254 -0.83377081 0.54858869 0.0015817075
0.010415037 0.0035287265 0.0080889855 0.08673282 -0.8216843 0.56330478 0.0012811205
0.013517248 0.0037859157 0.0078288745 0.11794361 -0.81986612 0.56027567 0.00096904993
0.016455548 0.0039539933 0.0074301688 0.11893569 -0.8272875 0.54904443 0.00043729096
0.019215925 0.0044885976 0.0075650448 0.14838156 -0.79907817 0.58262932 0.0011453802
0.022272769 0.0045690928 0.0069339955 0.1788232 -0.82437646 0.53705281 0.0042803432
0.025254007 0.0055293669 0.0073894467 0.18850389 -0.80075413 0.56855881 0.0016489846
0.028222471 0.0055043944 0.0065427064 0.21233271 -0.80245888 0.55765092 0.0030372005
0.030783517 0.0058992822 0.0060384916 0.27455878 -0.81285924 0.51368988 0.002615972
-0.031313926 0.0085806306 0.0067822961 -0.31738779 -0.84195536 0.43632114 0.00094452268
-0.028444849 0.0078899162 0.0074106073 -0.28071523 -0.83462447 0.47392073 0.00076965243
-0.02551523 0.0069997776 0.0075665489 -0.26120436 -0.84023708 0.47515681 0.0011405533
-0.022786515 0.0065406081 0.0081671197 -0.24333833 -0.83446383 0.49442551 0.0012247162
-0.020619923 0.0062304838 0.0086628757 -0.22767793 -0.80379486 0.54961497 0.00049372832
0.02333321 0.0062251296 0.0086669382 0.16378647 -0.77418202 0.61140507 0.00080061634
0.025528857 0.0065062884 0.008562305 0.17767733 -0.72150964 0.66921949 0.00040679035
0.028908003 0.0065730801 0.0075336946 0.18091516 -0.82800639 0.53073084 0.0050407504
0.031523857 0.0070379521 0.0073786569 0.24712844 -0.78461713 0.56859791 0.0035285268
0.034476887 0.0079813078 0.0073082293 0.275639 -0.78677166 0.55228031 0.0032602511
0.037385609 0.0085596219 0.0066488297 0.32397056 -0.80273217 0.50066364 0.0020150496
-0.039278757 0.011786684 0.0062854821 -0.40654176 -0.83118105 0.3792913 0.0037250193
-0.037307553 0.011269761 0.0071307495 -0.37920722 -0.81229019 0.44315517 0.0011845049
-0.034587786 0.010197649 0.0074388953 -0.34976846 -0.82039309 0.4523463 0.0011157737
-0.031830128 0.009567555 0.0081820358 -0.30573371 -0.82789761 0.47022599 0.0010993993
-0.029481836 0.0091301734 0.0087976875 -0.28543627 -0.78773415 0.54589474 0.00047934835
0.035181466 0.0092459237 0.0086258426 0.23394024 -0.68830884 0.68666077 0.0014879372
0.037703849 0.009657925 0.0080448501 0.28717867 -0.74449974 0.60270113 0.0051964014
0.040465552 0.010414744 0.0074255359 0.33255145 -0.76588327 0.55030209 0.0035079131
0.043130398 0.011261703 0.0068976437 0.37516549 -0.77862841 0.50297982 0.0024282695
0.045028497 0.011970202 0.0065475316 0.40035123 -0.76687628 0.50161701 0.0025034298
-0.045136753 0.014950144 0.0060385722 -0.5128206 -0.78708047 0.34281123 0.0050332248
-0.043091148 0.014238677 0.0070869913 -0.46225357 -0.7674551 0.44422334 0.0012648308
-0.040543411 0.013008532 0.0074834125 -0.41890898 -0.79140258 0.44519353 0.00094837672
-0.038113527 0.012410596 0.0084103039 -0.3674441 -0.78757346 0.49468461 0.00070654321
0.043767575 0.012487029 0.0082403831 0.34661335 -0.74878383 0.56496203 0.0030649728
0.046474073 0.013382981 0.0074354331 0.40893736 -0.75560117 0.51170021 0.0022539042
0.049007211 0.014458075 0.0068970826 0.45073974 -0.74597704 0.49025699 0.0020739788
-0.048511438 0.017491382 0.0067083836 -0.50974917 -0.74184835 0.4356797 0.0010590197
-0.046436269 0.016502794 0.0073783761 -0.49548766 -0.75854504 0.4232038 0.00093814346
-0.044154078 0.015502866 0.0080808476 -0.47258008 -0.75655872 0.45198119 0.0011679274
0.047782611 0.015284061 0.008947026 0.3875227 -0.64150584 0.66203964 0.0019249367
0.049860105 0.015722591 0.00800958 0.42936602 -0.70153451 0.56876546 0.0042518014
0.052099917 0.016676122 0.0072286595 0.48060632 -0.71085596 0.51351869 0.0030459764
0.054263402 0.017665556 0.0065059378 0.50602382 -0.69516844 0.51056904 0.0026934117
-0.052028935 0.020315414 0.0071325917 -0.54218864 -0.71452183 0.44214255 0.0012161653
-0.049819991 0.019043477 0.0077032354 -0.52980775 -0.72510451 0.43991727 0.0012761061
-0.047796085 0.018204626 0.0086315824 -0.50108331 -0.70515418 0.5016703 0.0011853054
0.053398848 0.018394303 0.0082807867 0.45233697 -0.66959053 0.58910084 0.0044905609
0.055530339 0.019300099 0.007457451 0.50688392 -0.69778156 0.50613195 0.0027417741
0.057828203 0.02038005 0.0064954502 0.56555969 -0.65242094 0.50446928 0.002524073
-0.057061166 0.023921777 0.0063244049 -0.62811941 -0.68334097 0.37217084 0.0083546722
-0.055248931 0.022962088 0.0073092822 -0.58604413 -0.67269045 0.45170769 0.0019820409
-0.053152584 0.021638466 0.0078872461 -0.55218428 -0.70274025 0.44860739 0.0011945071
0.056722958 0.021116566 0.0085203592 0.52617246 -0.62888187 0.57240742 0.0030014657
0.058727082 0.022276036 0.0077773822 0.56425738 -0.60482073 0.5619657 0.0027304713
0.060689203 0.02324152 0.0067393631 0.59941822 -0.59882325 0.5311389 0.0032238658
-0.060003474 0.026731744 0.0063131857 -0.65835822 -0.59631896 0.45931283 0.0012015492
-0.058256648 0.025723085 0.0072708349 -0.63973677 -0.63138056 0.43828705 0.0012343214
-0.056329839 0.024616282 0.0082982872 -0.58544385 -0.62848109 0.51212007 0.00090919749
0.061663054 0.025002396 0.0075022364 0.61941516 -0.55773133 0.552504 0.0028731951
0.06345538 0.025876977 0.0062898234 0.67411834 -0.57395214 0.46491238 0.0011759207
-0.061055414 0.028741082 0.0071451929 -0.68476856 -0.55145842 0.47643018 0.0020579984
-0.05934196 0.027670346 0.0082231686 -0.65627259 -0.57088524 0.49335217 0.0017583431
0.062781669 0.027409825 0.0084739095 0.62766343 -0.53822523 0.56245202 0.0025191882
0.064621821 0.028427269 0.007197137 0.68027389 -0.50260419 0.53349465 0.0020663047
-0.063816026 0.032053232 0.006692986 -0.72581428 -0.50875485 0.46299258 0.0032193267
-0.062230207 0.030836135 0.0077225589 -0.71939981 -0.51209319 0.46928084 0.0040576626
0.067120478 0.031566545 0.0064553795 0.79569978 -0.47584841 0.37474012 0.0019478281
-0.066218197 0.035478257 0.0064369664 -0.74829024 -0.3859306 0.53955472 0.0017076419
-0.06464313 0.034552742 0.0076745297 -0.7524631 -0.45719907 0.4740974 0.005219718
-0.066825666 0.037690744 0.0070874821 -0.74392921 -0.36325461 0.56090593 0.0025158678
-0.065453343 0.037085734 0.008409935 -0.67882496 -0.29829761 0.67098087 0.0016565769
-0.06909921 0.041846935 0.0062630433 -0.74028271 -0.28712967 0.60789639 0.0050603701
-0.067541383 0.040463552 0.0075266482 -0.7298227 -0.22305202 0.64622486 0.0025433053
-0.065938152 0.039222408 0.008812394 -0.71349448 -0.2491686 0.6548593 0.0021843328
-0.06941539 0.043713123 0.006507881 -0.73469436 -0.18955323 0.65137845 0.0032171174
-0.067951433 0.04334946 0.0079196543 -0.65351462 -0.10916623 0.74900031 0.0022402378
-0.069795474 0.046461634 0.0066977888 -0.70843375 -0.11153642 0.69690841 0.0049981442
-0.068025507 0.046494544 0.0081651872 -0.56889415 -0.00084960624 0.82241035 0.0043601091
-0.070145607 0.04941934 0.0066883531 -0.62466002 -0.04203973 0.77976447 0.0061724605
-0.067877039 0.049246162 0.0081508076 -0.5139876 0.045907613 0.85656828 0.0031433159
-0.065947533 0.050006624 0.0088992231 -0.50351089 0.055203129 0.86222357 0.0025416878
-0.070187777 0.052235678 0.006642987 -0.58390003 -0.03577419 0.811037 0.0047037168
-0.068197645 0.052071672 0.0075316336 -0.49697408 0.0074210195 0.86773366 0.0014563455
-0.070405759 0.054530397 0.006316449 -0.52984893 0.0088790068 0.84804559 0.0021013103
-0.018530715 0.0059047472 0.0090745324 -0.21957472 -0.78971726 0.57282948 0.0006207464
-0.016204495 0.0056972993 0.0095112883 -0.17150387 -0.78619313 0.59370589 0.00080643228
-0.013493286 0.0053491588 0.0097677726 -0.13967134 -0.77768856 0.61293757 0.0011048014
-0.010519266 0.005160762 0.010121668 -0.10516443 -0.77166533 0.62727433 0.00095156464
-0.0075014653 0.0048695216 0.010157475 -0.070313051 -0.77220881 0.63146615 0.00063784607
-0.004417046 0.004789595 0.010299167 -0.033051062 -0.7524392 0.65783197 0.0011390684
-0.0014647001 0.0047601201 0.010312697 -0.00038242931 -0.76145935 0.64821249 0.0010023585
0.0015717099 0.0046698563 0.010200646 0.007425752 -0.74934846 0.66213417 0.00097945298
0.0043766238 0.0048166835 0.010306954 0.034451846 -0.74730098 0.66359198 0.0011326924
0.0075947857 0.0048863478 0.010097852 0.060200687 -0.76656961 0.63933313 0.0011215068
0.010455022 0.0049313293 0.00994258 0.082777314 -0.76430261 0.63952279 0.0012151614
0.013884228 0.0053953445 0.0099494085 0.12993115 -0.74609762 0.65303612 0.0019081996
0.015985735 0.0053113643 0.0094272019 0.12737264 -0.77087694 0.6241194 0.0011897647
0.019373525 0.005814407 0.0093280002 0.14761767 -0.74033344 0.65583193 0.00074568542
-0.027549524 0.0087707303 0.0093023237 -0.27735391 -0.78573388 0.55289882 0.00052973977
-0.025353767 0.0084573254 0.0099222101 -0.24935599 -0.783849 0.5686847 0.00079722621
-0.022385828 0.0079111811 0.010328533 -0.20970297 -0.77924091 0.59059995 0.0012469704
-0.019543175 0.0071834372 0.010430953 -0.20190032 -0.7718237 0.60292989 0.00087602931
-0.01659102 0.0068815462 0.01096095 -0.15150203 -0.74538839 0.64918667 0.0010617105
-0.013525533 0.006568375 0.011272801 -0.1256723 -0.73203301 0.6695776 0.0012650286
-0.010617053 0.0063687488 0.011531893 -0.086075306 -0.71853799 0.69014072 0.0011059116
-0.0074761459 0.0062429756 0.011689819 -0.052585889 -0.7258842 0.68580383 0.0010776501
-0.004873815 0.0060718083 0.011682009 -0.027073704 -0.71858072 0.69491637 0.0012091994
-0.00094470516 0.0061957333 0.011807706 0.00065489375 -0.70941526 0.70479047 0.0010477853
0.0016362731 0.0062996866 0.011873614 0.012818127 -0.70433754 0.70974946 0.0012158186
0.0053169862 0.0062195938 0.011733487 0.0417534 -0.7153036 0.69756538 0.00088326074
0.007797163 0.0063634883 0.01167422 0.059896231 -0.67940176 0.73131782 0.0015983803
0.010418719 0.0064359833 0.011503718 0.08040563 -0.68493551 0.72415346 0.0011808315
0.013809966 0.0066931359 0.011272586 0.10762703 -0.6621967 0.74156046 0.0029835487
0.016500344 0.0069609839 0.011205486 0.13330469 -0.65883428 0.74038315 0.001383084
0.019331306 0.0072013829 0.010750411 0.14838144 -0.70813155 0.6903134 0.0012921573
0.022108871 0.0070431428 0.0098678321 0.16670139 -0.74339068 0.64775074 0.00084305916
0.025474977 0.0079937121 0.010091725 0.18319847 -0.67673403 0.71307045 0.00045951721
0.028333817 0.0084049869 0.0097503737 0.19396849 -0.68026346 0.70683658 0.00030819894
0.031252086 0.0085544949 0.0091791414 0.20301799 -0.71054375 0.67372942 0.0009471543
-0.034128558 0.01147687 0.0097499806 -0.33605817 -0.76669657 0.5470295 0.00059034169
-0.031390071 0.010862844 0.010374425 -0.28093734 -0.76607305 0.57810575 0.0010888735
-0.02857196 0.010035256 0.010597945 -0.25893956 -0.77243483 0.57990932 0.00085464958
-0.025693474 0.0095356815 0.011241032 -0.23418282 -0.75699013 0.61001998 0.0010321542
-0.023035128 0.0091703478 0.011709509 -0.19116506 -0.73522931 0.65030277 0.0019042889
0.022438588 0.0091383122 0.011973871 0.16637687 -0.65893155 0.73357213 0.00085935497
0.025898606 0.0096608838 0.011603164 0.18289988 -0.62451082 0.75929826 0.00098374509
0.028649515 0.0099460175 0.011068017 0.19129845 -0.62558514 0.75633866 0.00067593134
0.031564858 0.010365769 0.010641328 0.2009891 -0.62384874 0.75525898 0.000309447
0.034441922 0.010471902 0.0099937543 0.22000812 -0.65802169 0.72014165 0.00093769352
0.037343729 0.011075164 0.0096879415 0.25700024 -0.67993897 0.68675613 0.0018450993
0.04016069 0.011765493 0.0092644645 0.27921695 -0.6585986 0.69877446 0.0028052959
-0.040109891 0.014390977 0.0099184737 -0.39500898 -0.7383036 0.54669523 0.00095408945
-0.037479885 0.013529453 0.0104509 -0.34752941 -0.74693108 0.56684852 0.0008349187
-0.034820937 0.012729362 0.011025555 -0.32323807 -0.73309231 0.59840852 0.0012505944
-0.032416604 0.012346712 0.011831852 -0.27158621 -0.69715828 0.66348416 0.0011633888
0.032953594 0.012214893 0.011758357 0.20327452 -0.58237255 0.78709698 0.00021973999
0.034854539 0.012493653 0.011492515 0.20423017 -0.58659542 0.78370649 0.00013586662
0.037789024 0.012954279 0.011047285 0.22782832 -0.60133916 0.76582336 0.0011147507
0.04062257 0.013345054 0.010460862 0.26677197 -0.61696982 0.74039245 0.002251015
