# .PCD v0.7 - Point Cloud Data file format
VERSION 0.7
FIELDS x y z normal_x normal_y normal_z curvature
SIZE 4 4 4 4 4 4 4
TYPE F F F F F F F
COUNT 1 1 1 1 1 1 1
WIDTH 554
HEIGHT 1
VIEWPOINT 0 0 0 1 0 0 0
POINTS 554
DATA ascii
0.058525085 0.043339577 -0.012544579 0.042724855 0.3734799 -0.9266538 0.0037715808
0.061278399 0.043091971 -0.012338382 0.2120758 0.2708064 -0.93898237 0.0045414264
0.063184768 0.042380035 -0.012051583 0.32943287 0.21175249 -0.92012763 0.0049898485
-0.060324438 0.045342408 -0.012080507 -0.25954565 0.21425638 -0.94166356 0.005472295
-0.058305234 0.045616012 -0.012228093 -0.14582476 0.34696683 -0.92647129 0.0053409566
-0.055551782 0.045611009 -0.012348495 0.010648965 0.45792374 -0.88892764 0.0036106936
-0.052837688 0.045417529 -0.012255783 0.12273629 0.5323084 -0.83760595 0.0029303012
-0.050806869 0.045214262 -0.012085351 0.18080869 0.58250803 -0.79245985 0.0019303948
-0.015317227 0.005792872 -0.009026953 -0.21834783 -0.76546782 -0.6052959 0.0022130474
-0.013277534 0.0056898263 -0.0095018214 -0.17621276 -0.75477964 -0.63186771 0.0011117944
-0.010305469 0.0053868061 -0.0098623168 -0.13858613 -0.74102515 -0.65702021 0.0011818794
-0.0072334977 0.0051930593 -0.010187007 -0.10756493 -0.73563182 -0.66878676 0.0010382665
-0.0044048443 0.0049595749 -0.010313285 -0.077835351 -0.73485178 -0.67374671 0.0011449934
-0.00130848 0.0049977205 -0.010646163 -0.051240996 -0.7194075 -0.69269568 0.0014592896
0.0014053509 0.0048040459 -0.010614013 -0.036791798 -0.71674901 -0.69635993 0.0014944285
0.0045462283 0.0047898432 -0.010691275 -0.005165034 -0.72158062 -0.69231111 0.0013943982
0.0075163185 0.0048828316 -0.010792693 0.0098365936 -0.72317851 -0.69059116 0.0013045089
0.010396366 0.0048701712 -0.010681427 0.031707834 -0.73556441 -0.67671233 0.0016121414
0.013537159 0.0050535053 -0.010639827 0.062272884 -0.74260896 -0.6668238 0.0011011277
0.016356267 0.0051115518 -0.010366691 0.096102946 -0.76929855 -0.63162011 0.0011865029
0.019456336 0.0053234869 -0.010078906 0.12447054 -0.77408695 -0.62072253 0.0010026476
0.022382 0.0055581583 -0.0096775563 0.15558089 -0.7886278 -0.59486198 0.0010967202
0.024960231 0.0058370759 -0.0093203578 0.19359837 -0.79828078 -0.57032222 0.0006795103
-0.024389938 0.0089734234 -0.009271659 -0.27338889 -0.75333369 -0.59811938 0.0019029274
-0.022075865 0.0084547689 -0.0096450923 -0.26507983 -0.72872508 -0.63142103 0.0010094476
-0.019207643 0.0081185121 -0.010365631 -0.23480794 -0.70858037 -0.66541648 0.0012916275
-0.016452035 0.0076501784 -0.010753692 -0.19123827 -0.70370233 -0.68427396 0.0009008029
-0.013500887 0.0072203362 -0.01109498 -0.15670452 -0.69821489 -0.6985268 0.0011876259
-0.010607535 0.0067571797 -0.011256602 -0.12618838 -0.68968809 -0.71302652 0.0011748304
-0.0076262839 0.0065710032 -0.011581508 -0.098705225 -0.69714046 -0.71010739 0.0012739169
-0.0048191766 0.0063841059 -0.011776918 -0.072333463 -0.66723728 -0.74132466 0.001605221
-0.0018839993 0.0062051257 -0.011837386 -0.049621187 -0.67111784 -0.73968822 0.0021774443
0.0020755108 0.00607285 -0.011932623 -0.023468418 -0.66825998 -0.74355751 0.0029828975
0.0087882997 0.0060074218 -0.01194522 0.0084768953 -0.68492752 -0.72856194 0.0030203538
0.010784633 0.0060581295 -0.011925555 0.020854788 -0.69438648 -0.71929997 0.0025044468
0.013546001 0.006184672 -0.011884401 0.050976146 -0.68955642 -0.72243571 0.0017294785
0.016410254 0.0063140579 -0.011762584 0.075234607 -0.69919598 -0.71096051 0.0011340886
0.019590626 0.0065042758 -0.011521715 0.11093652 -0.7086249 -0.69680965 0.0012476586
0.022499248 0.0068601407 -0.011332411 0.14088893 -0.74162728 -0.65585005 0.0015456774
0.025590967 0.0070628687 -0.010735847 0.1831938 -0.77961665 -0.59886384 0.00093597971
0.028532363 0.0077354843 -0.01062136 0.21002531 -0.76887423 -0.60392189 0.0015048808
0.031307753 0.0081519214 -0.010128331 0.2456408 -0.7699526 -0.58892578 0.001194183
0.034026198 0.0085866079 -0.0094681196 0.28880453 -0.77828151 -0.55755711 0.00094080286
-0.030600006 0.011734919 -0.0096547855 -0.30464867 -0.7316063 -0.60987002 0.0010754487
-0.028311852 0.011243543 -0.010126198 -0.28823417 -0.71225345 -0.64001256 0.0011310073
-0.025455181 0.010631758 -0.010658485 -0.26104718 -0.70970535 -0.65434909 0.0015121342
-0.022636967 0.0098088607 -0.010913923 -0.24798875 -0.70182198 -0.66779304 0.0011675687
-0.019649979 0.0094122998 -0.011568162 -0.20913602 -0.66336942 -0.71847278 0.00089658954
-0.017227005 0.0090476209 -0.011975276 -0.18825053 -0.6594938 -0.72775662 0.0020324872
0.029573938 0.0091763251 -0.011989383 0.20389734 -0.71585774 -0.66781259 0.0028647636
0.031938326 0.0094591863 -0.011499368 0.22871915 -0.71506184 -0.66058618 0.0013475713
0.034616124 0.0099871065 -0.011002686 0.27406251 -0.73502845 -0.62017989 0.0014626364
0.037415702 0.010859122 -0.010724848 0.29401529 -0.7300207 -0.61694783 0.0014320735
0.040114347 0.011381394 -0.0099545484 0.34892192 -0.74977958 -0.56221354 0.0010565035
0.042171046 0.011874788 -0.0093231266 0.38102153 -0.75663787 -0.53133965 0.0023544063
-0.037074469 0.014626563 -0.0096279057 -0.36552551 -0.70032763 -0.61313331 0.00087165594
-0.034328219 0.013984727 -0.010376354 -0.31758636 -0.70867288 -0.6300171 0.0013137293
-0.031577084 0.013373187 -0.011008028 -0.29186136 -0.68092918 -0.67167884 0.0011959147
-0.028778514 0.012604623 -0.011419178 -0.26255572 -0.67147517 -0.69295424 0.0011723641
-0.026462302 0.012193867 -0.011893127 -0.24418584 -0.64408714 -0.72493112 0.0025099386
0.038631596 0.012308627 -0.011870848 0.30288866 -0.6860702 -0.66148782 0.001505477
0.040760599 0.01270203 -0.011214029 0.3221353 -0.70007217 -0.63728154 0.0012563784
0.043594681 0.013638996 -0.010634562 0.36785105 -0.71649593 -0.59272188 0.00088771759
0.046249233 0.01442977 -0.0098326206 0.41277012 -0.7042653 -0.57760817 0.00094566576
0.04820874 0.014977037 -0.0091906562 0.4309276 -0.71596599 -0.54926699 0.00089778437
-0.042603459 0.017600806 -0.0093936045 -0.46061763 -0.68332541 -0.56647843 0.0014841596
-0.040283501 0.016965382 -0.010233272 -0.39943632 -0.66677153 -0.62917918 0.0011438584
-0.037709136 0.016137814 -0.01088836 -0.35802963 -0.67677271 -0.64326787 0.0011942107
-0.035006106 0.015519204 -0.011658716 -0.29734722 -0.64140379 -0.70723814 0.0011162659
0.044651251 0.015261108 -0.011851124 0.36751691 -0.66247129 -0.65273505 0.0015356572
0.046753176 0.015898068 -0.011223732 0.39662075 -0.67448086 -0.62270981 0.0010991937
0.049327649 0.016782932 -0.010390705 0.43658212 -0.67102045 -0.59927249 0.001567266
0.051755603 0.017557234 -0.0094087673 0.48014712 -0.66043365 -0.57730937 0.0010589877
-0.045862064 0.020425538 -0.0099348146 -0.46538028 -0.63539487 -0.61619371 0.0008448743
-0.043450147 0.019448241 -0.010676612 -0.42641982 -0.64039826 -0.63879281 0.001223827
-0.040922858 0.018564438 -0.011451359 -0.37746507 -0.62274611 -0.68535197 0.0010358004
0.050259609 0.018435394 -0.011498483 0.44234601 -0.64062166 -0.6276415 0.001086612
0.052571364 0.019472782 -0.010816644 0.4678002 -0.61039132 -0.63920677 0.0011939229
0.054813016 0.020165626 -0.0097272946 0.51712281 -0.6270954 -0.5825249 0.0011016449
-0.051108651 0.023682091 -0.009314632 -0.47404969 -0.63752866 -0.60731721 0.0014768342
-0.04914777 0.023028554 -0.01007379 -0.47363368 -0.62078583 -0.62473673 0.0010744451
-0.046594374 0.022213604 -0.011140096 -0.43956101 -0.58817482 -0.67884946 0.0016792342
-0.04448887 0.021324003 -0.011801718 -0.41905114 -0.58745271 -0.6923117 0.0019534845
0.053527988 0.021280643 -0.011809188 0.48013431 -0.57589209 -0.66167921 0.00089984271
0.05573963 0.022232071 -0.010934584 0.49908948 -0.54657716 -0.67243075 0.0016215217
0.057980031 0.023092529 -0.0098419413 0.56194156 -0.55899537 -0.60970968 0.0015127687
-0.05434747 0.026548551 -0.0095331939 -0.51537758 -0.58076674 -0.63015544 0.001050639
-0.052281246 0.025819825 -0.01042499 -0.47886404 -0.59240562 -0.64787722 0.0015334317
-0.049836025 0.024815142 -0.01128599 -0.44876525 -0.59051955 -0.67074311 0.0017487314
0.001812879 0.026971119 -0.011977767 0.024804832 0.69261444 -0.7208814 0.0013908646
0.0052452786 0.026968399 -0.011978592 -0.012604277 0.69773251 -0.71624756 0.0012640489
0.056772511 0.024297716 -0.011772771 0.52109689 -0.50381809 -0.68893057 0.00095745997
0.058740679 0.025383689 -0.011037942 0.53342897 -0.45969543 -0.71002364 0.0015804046
0.060822915 0.026090622 -0.0097741652 0.59661132 -0.50187951 -0.6262362 0.0012435818
-0.057439949 0.029455164 -0.0094965883 -0.55808145 -0.53495121 -0.63432831 0.00079050066
-0.055335198 0.028655086 -0.010549549 -0.52206969 -0.52963388 -0.66852909 0.0014165922
-0.052992567 0.027679956 -0.011547386 -0.47240466 -0.54037845 -0.69629365 0.0014018842
-0.012699061 0.029749056 -0.011752356 0.19046207 0.69117737 -0.69713569 0.001736041
-0.010317723 0.029412741 -0.011511025 0.16424711 0.68910587 -0.70580167 0.0016309982
-0.0074035977 0.029079437 -0.011182862 0.13486983 0.70246398 -0.69882375 0.0018307264
-0.0044393023 0.028844817 -0.010923877 0.10756954 0.73199815 -0.67276102 0.0014528906
-0.0014562315 0.028637595 -0.010732052 0.080919512 0.73375851 -0.67457432 0.0022225559
0.0015238057 0.028543055 -0.010598495 0.041069616 0.73767042 -0.67391074 0.0023356604
0.0044854186 0.028455583 -0.010623102 -0.0051299334 0.74381804 -0.6683625 0.0023739692
0.0075043808 0.028540649 -0.010603224 -0.038735759 0.74810094 -0.66245341 0.0025424312
0.010480775 0.028717771 -0.010678961 -0.079387181 0.74289364 -0.66468537 0.0020931317
0.013431586 0.02888996 -0.010892988 -0.12034319 0.75027204 -0.65008408 0.0022945481
0.016401256 0.02919426 -0.011175183 -0.15844719 0.74332404 -0.64989519 0.0016176734
0.019238316 0.029570377 -0.011526179 -0.19202837 0.7138297 -0.67347771 0.00091261411
0.021583835 0.029852977 -0.011885353 -0.21218859 0.68876213 -0.6932407 0.0024427157
0.059648983 0.027484298 -0.011703126 0.56290692 -0.39929387 -0.72367138 0.0011229757
0.061491206 0.028537167 -0.010808904 0.57468438 -0.37920275 -0.72521937 0.0015678412
0.063428596 0.029250573 -0.0095032807 0.63506097 -0.42615992 -0.64427125 0.0016120328
-0.060279962 0.032613683 -0.0094327331 -0.58743811 -0.46852398 -0.65984982 0.0017728485
-0.058269963 0.031816114 -0.010529087 -0.53876716 -0.43310055 -0.72260213 0.0019549737
-0.056236144 0.031019634 -0.011581685 -0.48529136 -0.40194306 -0.77648818 0.0019533318
-0.021675751 0.032714561 -0.01176934 0.26179516 0.67504257 -0.68976867 0.0022225624
-0.019256538 0.032318134 -0.011268727 0.24715149 0.70621794 -0.66345489 0.0014355836
-0.016418695 0.031854812 -0.010701596 0.23714584 0.73407781 -0.63631094 0.0017585935
-0.01358227 0.031222997 -0.010449941 0.20165789 0.74396402 -0.63706487 0.0023560796
-0.010575362 0.030807659 -0.010047804 0.18140976 0.74773329 -0.63873732 0.0017427108
-0.0076211803 0.030459164 -0.0096947802 0.14397064 0.76024324 -0.63348448 0.0015995437
-0.004647661 0.030191245 -0.0094237747 0.11424775 0.76993626 -0.62781018 0.0014637411
-0.0020461164 0.030046111 -0.0091855619 0.083646454 0.77777177 -0.62295616 0.001649556
0.00052664155 0.03001656 -0.0090536084 0.066334315 0.78829896 -0.61170632 0.0023038241
0.0087151062 0.030020747 -0.0090769352 -0.041067075 0.78139007 -0.62269014 0.001064728
0.01122871 0.030027738 -0.0091565689 -0.080345087 0.78706264 -0.61161846 0.0017163279
0.013739045 0.030198524 -0.0093608228 -0.12144784 0.79027486 -0.60059643 0.0018914441
0.016645312 0.030502526 -0.0096770255 -0.16661836 0.77364957 -0.61131388 0.0014802638
0.019631516 0.030884573 -0.010125898 -0.20536482 0.75842834 -0.6185562 0.0014825718
0.022537 0.031355198 -0.01055153 -0.22005185 0.75307447 -0.62004524 0.0018664344
0.025390735 0.032016013 -0.01082904 -0.23811674 0.75362587 -0.61265689 0.0010136788
0.028233163 0.032471489 -0.011398115 -0.24530345 0.70930904 -0.66083801 0.00088177779
0.030368995 0.032761049 -0.011886394 -0.2560074 0.68933743 -0.6776976 0.0028327648
0.062268749 0.031210339 -0.011504003 0.57428116 -0.28416267 -0.76775831 0.0017520251
0.064177483 0.03176171 -0.010154511 0.63420463 -0.32559776 -0.70126355 0.0014500857
-0.061050817 0.034945767 -0.010181678 -0.57687128 -0.37988624 -0.72312242 0.001429499
-0.058951911 0.034222398 -0.011410835 -0.50939161 -0.33949354 -0.79073656 0.0014230519
-0.028023144 0.03554656 -0.011553892 0.29896465 0.67292506 -0.67660326 0.001842342
-0.025327362 0.034973875 -0.010902931 0.29895133 0.72378999 -0.62189722 0.0015165374
-0.022588128 0.034270249 -0.010421384 0.27424192 0.7403965 -0.61368102 0.001817773
-0.019761225 0.033680413 -0.0098925363 0.26864541 0.74741668 -0.6076166 0.0014596605
-0.017380036 0.033316761 -0.0092970142 0.24659108 0.76619059 -0.59341788 0.0012699181
0.026038544 0.033332057 -0.0094245272 -0.24954832 0.77738041 -0.57741261 0.0010641735
0.028696805 0.033765782 -0.010012012 -0.26261637 0.76027554 -0.59414959 0.0013463302
0.031562287 0.034371473 -0.010523901 -0.26973882 0.75519073 -0.59743452 0.0015882378
0.034328397 0.035073373 -0.01097504 -0.30244744 0.7357738 -0.60593933 0.0015849689
0.03679179 0.035632942 -0.011570614 -0.32558018 0.68218833 -0.65468812 0.0016020447
0.062822729 0.033448473 -0.011877965 0.56622636 -0.20317027 -0.79881757 0.0017098333
0.06452135 0.034531113 -0.010868625 0.59666353 -0.20221318 -0.77659667 0.00155315
0.066386081 0.035009045 -0.0094300518 0.67370003 -0.2464045 -0.69671589 0.0015233372
-0.063568406 0.037877735 -0.0095863761 -0.59452569 -0.31019756 -0.74183327 0.0019820929
-0.061467733 0.037513081 -0.011014074 -0.53645104 -0.25249898 -0.805273 0.001364016
-0.059710704 0.03652763 -0.011863995 -0.49959344 -0.23936966 -0.83253139 0.0035704747
-0.036229447 0.038969994 -0.011924957 0.30951086 0.64753175 -0.69635171 0.0028494708
-0.034124676 0.038467351 -0.011476536 0.31331995 0.6606161 -0.68221474 0.0012901956
-0.031369671 0.037785124 -0.010779779 0.3270303 0.71828252 -0.61410213 0.0014737212
-0.028655393 0.037013844 -0.010228598 0.32674375 0.73217702 -0.59762472 0.0021074051
-0.026029922 0.036402605 -0.0095305108 0.32009956 0.74512279 -0.58508831 0.0011294734
0.032999974 0.036027066 -0.0090434281 -0.32178986 0.76477325 -0.55818748 0.00065160269
0.034998178 0.036433764 -0.0096454313 -0.32738069 0.74962187 -0.57522947 0.0012334782
0.037688207 0.037130974 -0.010360693 -0.34574789 0.71839529 -0.60362792 0.0017898754
0.040296633 0.037993971 -0.010934445 -0.36312065 0.69193572 -0.62399381 0.0016683862
0.04273596 0.038634438 -0.011637536 -0.34285387 0.64640862 -0.68162096 0.001309327
0.06487406 0.03747683 -0.011210256 0.56550497 -0.096074775 -0.81912988 0.0018495122
0.066832505 0.03768551 -0.0097007817 0.66087157 -0.13772941 -0.73775303 0.0022524591
-0.066153973 0.041645952 -0.0090391263 -0.63637197 -0.26676586 -0.72378635 0.0029988468
-0.06417051 0.040623035 -0.010080355 -0.56164795 -0.19210964 -0.80476421 0.0029363744
-0.061864674 0.040397946 -0.011517133 -0.47763482 -0.11561772 -0.87091762 0.0027930588
-0.042265069 0.041822787 -0.011874172 0.29438594 0.63082111 -0.71791476 0.002364581
-0.040180523 0.041438725 -0.011389126 0.30382594 0.66134006 -0.68579823 0.001398329
-0.037414301 0.040710177 -0.010749278 0.32840812 0.7076565 -0.62559593 0.0012676585
-0.034702681 0.03995337 -0.010122423 0.34635356 0.72631651 -0.59372014 0.0015245228
-0.032334741 0.0393271 -0.0094950087 0.35999271 0.73857838 -0.57000625 0.0014019798
0.041055769 0.03956135 -0.0096698413 -0.40053606 0.70505404 -0.58520901 0.0013977533
0.043644007 0.040317655 -0.010430753 -0.36709693 0.67077178 -0.64444178 0.0015237572
0.046290666 0.041061006 -0.011139567 -0.32535526 0.64075989 -0.69539243 0.0015440359
0.048745338 0.041639298 -0.01173246 -0.27221319 0.60600871 -0.74743116 0.0018433487
0.062948979 0.041885123 -0.011968125 0.3549563 0.15688486 -0.92162532 0.010606567
0.064844422 0.040572036 -0.011361455 0.50084949 0.027185641 -0.8651073 0.0032434633
0.067012087 0.040531415 -0.0098705739 0.62310249 -0.029538522 -0.78158224 0.0031081669
-0.06632328 0.043918706 -0.0092056561 -0.59847546 -0.11918878 -0.79222548 0.0030302166
-0.064444333 0.043570101 -0.010368995 -0.50889575 -0.066391364 -0.85826415 0.0028099157
-0.062040385 0.043619324 -0.011602311 -0.38073012 0.043708581 -0.92365259 0.0048589963
-0.048635166 0.044709768 -0.011818358 0.20888862 0.60877019 -0.76535243 0.0023442004
-0.046214268 0.044283435 -0.011342999 0.26741815 0.64158684 -0.71892554 0.0017246151
-0.043403659 0.043626722 -0.010722391 0.30527377 0.65220481 -0.69385654 0.0011897116
-0.040722523 0.042954635 -0.01006596 0.34962034 0.7047621 -0.61731356 0.0017403341
-0.03841484 0.04235895 -0.009431703 0.36834973 0.71713763 -0.59163511 0.0013941264
0.044869561 0.04216845 -0.0093021682 -0.4086374 0.67918515 -0.6096909 0.002119099
0.046839152 0.042727035 -0.0097937202 -0.37947139 0.67703009 -0.63058048 0.0014369368
0.049567152 0.043431878 -0.010474238 -0.30874053 0.63222092 -0.71061665 0.0013056877
0.052354515 0.043953732 -0.011157177 -0.24874619 0.57536292 -0.77915519 0.0013503459
0.055274546 0.044457182 -0.011647724 -0.17165254 0.53362614 -0.82811749 0.0024401294
0.058292728 0.044784177 -0.011873704 -0.037082125 0.45185545 -0.89132011 0.003801475
0.061962429 0.044322338 -0.011816924 0.15247907 0.30899391 -0.93876135 0.0050776242
0.064541146 0.043513741 -0.011176232 0.40122032 0.16338317 -0.90129244 0.0043047685
0.067049205 0.043458298 -0.0097783776 0.56375837 0.083841391 -0.82167339 0.0037715903
-0.066370696 0.046348695 -0.0092968261 -0.50304002 0.057637639 -0.86233908 0.0053955452
-0.06445767 0.046550561 -0.010274431 -0.38055325 0.15332448 -0.91195983 0.006052895
-0.061474636 0.04659773 -0.011312147 -0.24361511 0.27203554 -0.9309395 0.0067447075
-0.058614779 0.047039837 -0.011602285 -0.05534235 0.40532055 -0.91249794 0.0058008921
-0.055474188 0.047101643 -0.011507007 0.080759399 0.51175416 -0.85532773 0.0026268605
-0.052397434 0.046825882 -0.011202846 0.17375883 0.57239062 -0.80135936 0.0017392099
-0.049512535 0.046494111 -0.010589086 0.2451188 0.62598151 -0.74031341 0.0011812805
-0.046708044 0.045929354 -0.0099771982 0.32513201 0.677917 -0.65933132 0.0018118871
-0.044304367 0.045359071 -0.0093664117 0.35684919 0.69942904 -0.61923957 0.0016469415
0.05058077 0.045213867 -0.0092808949 -0.35898137 0.66446209 -0.65545589 0.0019903837
0.052754011 0.045833722 -0.0097438907 -0.31490976 0.63931835 -0.70150119 0.001929229
0.055568453 0.046451461 -0.010295585 -0.24559085 0.58425504 -0.77351868 0.0025469495
0.058489282 0.046538681 -0.010897784 -0.082948834 0.49596536 -0.86437136 0.0032170278
0.061488125 0.04650351 -0.0110149 0.083404996 0.40067223 -0.91241729 0.0059982445
0.064504109 0.04647838 -0.010456982 0.29860187 0.28948104 -0.90941608 0.0074155889
0.066814959 0.046373129 -0.0094873877 0.49403328 0.18800263 -0.84887344 0.0047906563
-0.066273481 0.04873829 -0.0091209151 -0.37499672 0.22192527 -0.90007037 0.0076963338
-0.064370163 0.049441218 -0.0096078543 -0.26343137 0.29647657 -0.91798991 0.0057744985
-0.061490264 0.049513165 -0.010155506 -0.13566729 0.42940891 -0.8928619 0.006072646
-0.058487568 0.049560413 -0.010198859 0.053007375 0.55397207 -0.83084607 0.003600064
-0.055559684 0.049241886 -0.010032445 0.1454275 0.61221385 -0.77720332 0.0036220504
-0.052643877 0.048692372 -0.0097137364 0.23680837 0.65381557 -0.71864235 0.0024722225
-0.050414562 0.048256606 -0.0093150148 0.30126086 0.68463403 -0.6637153 0.0018924647
0.056500636 0.04825541 -0.0091950214 -0.2897785 0.62610555 -0.72389245 0.003021688
0.058715302 0.04872556 -0.0094995042 -0.18422848 0.58115214 -0.79266769 0.0040272907
0.061602518 0.049108308 -0.0096714525 -0.029355777 0.49686658 -0.86733037 0.0048894379
0.064387701 0.049106896 -0.0095159011 0.1735189 0.3833372 -0.90716255 0.0061997739
0.066388197 0.048577294 -0.0091538848 0.40948948 0.28677204 -0.86607164 0.0066964128
-0.063504443 0.051200591 -0.0090852957 -0.14885473 0.48230562 -0.86326325 0.0094922399
-0.061501238 0.051190827 -0.0091811335 -0.020450061 0.56788683 -0.82285261 0.0049837423
-0.059237354 0.051198114 -0.0091137821 0.084052339 0.63842559 -0.76508039 0.0032361858
-0.0096135084 0.0028220504 -0.0062281769 -0.17226069 -0.89573312 -0.4098638 0.0021119812
-0.0077720266 0.0026541371 -0.0064484612 -0.12448774 -0.85322756 -0.50646377 0.0011806031
-0.0046093338 0.0026661162 -0.0071575856 -0.090351 -0.84373379 -0.52910304 0.0012911031
-0.0014289704 0.0024876178 -0.0072788196 -0.05502893 -0.85289979 -0.51916641 0.0013447828
0.0015467636 0.002290216 -0.0071649854 -0.029119534 -0.84857428 -0.52827424 0.0014538685
0.0044365209 0.0023777192 -0.007430058 -0.0014895034 -0.85219145 -0.52322805 0.0016583225
0.0072322898 0.0026158309 -0.0077583129 0.030200826 -0.85744953 -0.51368111 0.0016165504
0.010264304 0.0022599655 -0.006882465 0.054469123 -0.88147748 -0.46907416 0.001658603
0.013138719 0.0025229366 -0.0069371276 0.079501465 -0.87393624 -0.47949457 0.0014756517
0.016315121 0.002692153 -0.0065750093 0.11161874 -0.89190942 -0.4382225 0.0012670259
0.018590266 0.0028362395 -0.0062367418 0.15981127 -0.89880913 -0.40816969 0.0013386421
-0.019190367 0.0055216602 -0.0068099322 -0.26126629 -0.80549276 -0.53190351 0.00098780578
-0.016306976 0.0052212416 -0.0077501256 -0.22420281 -0.80413944 -0.55053872 0.0011295485
-0.013403283 0.004441929 -0.0076622954 -0.1767972 -0.81546885 -0.5511381 0.0015755333
-0.010532951 0.0039510671 -0.0078242747 -0.1417062 -0.81714189 -0.55874717 0.0012400721
-0.0074861073 0.0036252886 -0.0081052892 -0.11557824 -0.8173449 -0.56443691 0.0013884169
-0.0044708699 0.0034625132 -0.008402816 -0.082556985 -0.82270741 -0.56243831 0.0011061842
-0.0017641495 0.0034205317 -0.0086801182 -0.060698614 -0.81387502 -0.57786083 0.0015802213
0.001704365 0.0032456536 -0.0086747939 -0.028927566 -0.81602275 -0.57729554 0.0014689268
0.004764243 0.0033023867 -0.0088988049 -0.0015402539 -0.83150065 -0.55552161 0.0015943341
0.0076205954 0.0031741676 -0.0086402837 0.02672819 -0.8345443 -0.55029207 0.0014247698
0.010555228 0.0032709588 -0.0085870139 0.049649443 -0.83616084 -0.54623264 0.0013794376
0.0135497 0.0034248882 -0.0084665585 0.066968702 -0.83785003 -0.54177707 0.0015321266
0.016547324 0.0035512901 -0.0081298705 0.10694449 -0.84572017 -0.52280045 0.0013562412
0.019553611 0.0038335759 -0.0078041279 0.15379092 -0.84996462 -0.50389326 0.0013998852
0.022560911 0.0043834448 -0.0077821948 0.18513931 -0.85361803 -0.48688769 0.0013027929
0.025397897 0.0050119823 -0.007771058 0.19723938 -0.85066575 -0.48730323 0.0012819213
0.028211322 0.0055184783 -0.007342245 0.22575763 -0.84658986 -0.48199484 0.0013305275
0.030748818 0.005805234 -0.006393644 0.26300913 -0.86004239 -0.43721065 0.0012760439
-0.028024536 0.0086499369 -0.0064982739 -0.32967064 -0.82572228 -0.45771167 0.00088804576
-0.025180046 0.0083019733 -0.0077634961 -0.30648988 -0.78812081 -0.53378791 0.0015188272
-0.02258086 0.0073593403 -0.0078403046 -0.29830369 -0.79516101 -0.52795249 0.0011756835
-0.019753583 0.0065789609 -0.0082192784 -0.25935215 -0.78594941 -0.56126642 0.0013780022
-0.017344829 0.0062411549 -0.0088282535 -0.22517303 -0.77226526 -0.59405679 0.0013363939
0.026529603 0.006020383 -0.0089053847 0.19795926 -0.800376 -0.56587142 0.0010743876
0.028615503 0.006304095 -0.0085901134 0.22253244 -0.82722336 -0.51592714 0.0012109688
0.031514175 0.0067927768 -0.0078935353 0.26451463 -0.82835937 -0.49381456 0.00087337964
0.034501862 0.0077559534 -0.0077656452 0.3016209 -0.8260259 -0.4761366 0.0012848033
0.03723548 0.0085085016 -0.0072405529 0.33007625 -0.82353419 -0.46134719 0.0011199655
0.039358169 0.0089141857 -0.0064147962 0.36811522 -0.82762212 -0.42371318 0.00087185402
-0.036327295 0.011902299 -0.0060171313 -0.41134584 -0.82578868 -0.38583377 0.0030092469
-0.033973366 0.011522672 -0.0071789827 -0.34530184 -0.7812345 -0.52003777 0.00086181291
-0.031452533 0.010936242 -0.0079704318 -0.32648277 -0.77925539 -0.53494859 0.00082135113
-0.028602133 0.0097918306 -0.0080152974 -0.30677006 -0.78706127 -0.53518838 0.0016106612
-0.026568316 0.0093706697 -0.0085801901 -0.30019358 -0.77612722 -0.5545361 0.0014410854
0.037953485 0.0094383284 -0.0084322728 0.32932726 -0.81306559 -0.48007071 0.0012200251
0.040552359 0.01022873 -0.0078135747 0.35868579 -0.8137545 -0.4573271 0.0010261909
0.043267652 0.011347069 -0.0075140693 0.39828628 -0.79535127 -0.4569293 0.0010420531
0.045355134 0.011883098 -0.0065534469 0.43083334 -0.79977494 -0.41802236 0.0011087181
-0.039858937 0.014438989 -0.0072319456 -0.42583358 -0.74459034 -0.51405346 0.00092393567
-0.037481893 0.013618134 -0.0079083275 -0.3785837 -0.75686932 -0.53275067 0.00091818842
-0.034849916 0.012635538 -0.0083338516 -0.34551144 -0.75507009 -0.55721724 0.00095103588
0.044267807 0.012406874 -0.0085083321 0.40584648 -0.78215283 -0.47278482 0.00086379534
0.046444505 0.013213871 -0.0078581525 0.43461004 -0.77061009 -0.46612689 0.0010128671
0.048993528 0.014422318 -0.0073875519 0.46104091 -0.75823551 -0.4609991 0.00085456803
-0.045386288 0.017587788 -0.0066244481 -0.50370336 -0.73446214 -0.45480582 0.0011607313
-0.043240994 0.016925549 -0.0078549534 -0.45770165 -0.70475215 -0.54206425 0.00095203036
-0.04075744 0.015612106 -0.0082613304 -0.43093356 -0.72742617 -0.53399205 0.0012508424
0.05011408 0.015728282 -0.0083747497 0.46654832 -0.71983314 -0.51397753 0.0012604751
0.05223392 0.016673483 -0.007632345 0.49900073 -0.72211361 -0.47911394 0.001031402
0.05447698 0.017727915 -0.0068078251 0.53285235 -0.71576416 -0.45138675 0.00093649671
-0.04855606 0.020464351 -0.0074825217 -0.51173079 -0.67931443 -0.5259881 0.00067209289
-0.046515778 0.019269738 -0.0079191253 -0.49594831 -0.68297744 -0.53626221 0.00069551414
-0.044507559 0.018231599 -0.0084839128 -0.47786009 -0.67866689 -0.55772847 0.0011411281
0.053576563 0.018295083 -0.0087007284 0.50239342 -0.67406046 -0.54151952 0.0013444286
0.055674683 0.019338001 -0.0078264168 0.54196036 -0.67917061 -0.49498108 0.0011811166
0.057691284 0.020421088 -0.0069748759 0.57215852 -0.66271657 -0.48315781 0.0012305084
-0.051960289 0.023241641 -0.0077658072 -0.51853955 -0.66620475 -0.5359925 0.00088844664
-0.049980238 0.022065764 -0.0082066339 -0.50921875 -0.66668999 -0.54426152 0.0011653022
-0.047982257 0.021137424 -0.0089011174 -0.51157326 -0.66841716 -0.53991801 0.00070248102
0.056800969 0.021157062 -0.0089685479 0.53641117 -0.61250067 -0.58060831 0.0014574522
0.058895938 0.022104092 -0.0078192931 0.58645064 -0.61437017 -0.52784932 0.0015605899
0.06078174 0.023308972 -0.0070107891 0.62126154 -0.5929001 -0.51235098 0.0011956806
-0.057243209 0.026682869 -0.0066115395 -0.59445786 -0.65356112 -0.46848452 0.0010532913
-0.055485059 0.025845883 -0.007520814 -0.54952526 -0.63884777 -0.53841949 0.0010203884
-0.05331355 0.024681266 -0.0083068097 -0.52752733 -0.65739417 -0.53809649 0.00075107632
0.061852574 0.025250971 -0.007889973 0.63642293 -0.54557317 -0.54526669 0.0016903611
0.063571468 0.026398236 -0.0069376631 0.67153788 -0.52501816 -0.52286977 0.0011587245
-0.060324837 0.02981638 -0.0067678113 -0.63736314 -0.59126943 -0.49413434 0.0014755366
-0.058336094 0.02869207 -0.0077640684 -0.59399295 -0.58458245 -0.55266243 0.0013830296
-0.056575421 0.027372684 -0.0082208421 -0.56538624 -0.59996229 -0.56602454 0.0011461038
-0.00085157785 0.029969946 -0.0089671705 0.079842903 0.78448093 -0.61499166 0.0007595747
0.0023027125 0.029846171 -0.00892522 0.020724118 0.78816295 -0.61511761 0.0012191783
0.0045135175 0.029867264 -0.0088587161 0.0015871142 0.82793504 -0.56082171 0.0023686381
0.0070809741 0.029922832 -0.0088394191 -0.023269139 0.79638475 -0.60434252 0.0017498914
0.0097293295 0.029946383 -0.0089154346 -0.07619907 0.79447573 -0.60249639 0.00077321153
0.06282796 0.027373504 -0.0087260744 0.64419901 -0.49363133 -0.58423942 0.002358177
0.064464942 0.028497079 -0.0077584339 0.69229347 -0.45901066 -0.55681139 0.0017072152
0.066170514 0.029482391 -0.0063739545 0.72553521 -0.45222896 -0.5187366 0.0011219592
-0.063203618 0.032811958 -0.0063108094 -0.68758976 -0.57085305 -0.44871724 0.0024267128
-0.061216038 0.031767447 -0.0076470207 -0.63506848 -0.52604496 -0.56565422 0.0015479199
-0.059686091 0.030386059 -0.0080864392 -0.61247104 -0.54523551 -0.57236123 0.0012270022
-0.01535186 0.032902293 -0.0089151207 0.24836175 0.76303369 -0.59673786 0.0012994901
-0.013205919 0.032637741 -0.0085026575 0.2260595 0.80275625 -0.55179667 0.0013679481
-0.010380471 0.032330882 -0.007861211 0.19210888 0.83908945 -0.50894302 0.0015307822
-0.0075230524 0.031897541 -0.0075641689 0.16094053 0.85448378 -0.49391857 0.0015146491
-0.0044991486 0.031385217 -0.007619407 0.12131663 0.85062122 -0.51159149 0.0027006113
-0.0015151737 0.031056808 -0.0075472929 0.085555963 0.8518905 -0.51668447 0.0022102494
0.0014867214 0.030832117 -0.007549915 0.047208589 0.85785478 -0.51171917 0.0021047513
0.0045052827 0.030793168 -0.0074634776 0.0026679758 0.86017752 -0.50998783 0.0021542234
0.0074901953 0.030772192 -0.0075555067 -0.035656918 0.85736161 -0.51347792 0.0020738218
0.010531462 0.030952217 -0.0076188887 -0.07792218 0.85932344 -0.50546157 0.0020259798
0.013448671 0.031273391 -0.0075994995 -0.12662548 0.86019963 -0.49398646 0.0026882824
0.016480286 0.03179808 -0.0076216557 -0.18427536 0.86143827 -0.47325128 0.0016824094
0.019345937 0.03235646 -0.0078723282 -0.22061554 0.84390932 -0.48902535 0.0013864752
0.02203388 0.032700751 -0.008547456 -0.24029797 0.81876099 -0.52142817 0.0012973755
0.024103394 0.032920551 -0.008976277 -0.25526014 0.76880372 -0.58633024 0.0012809322
0.065547474 0.031117402 -0.0084227109 0.69350713 -0.3481859 -0.63072532 0.0016293119
0.066809081 0.031820327 -0.0072855107 0.73032445 -0.38136548 -0.56673324 0.0020141669
-0.063934639 0.034888797 -0.0072933319 -0.66174912 -0.44964939 -0.59991962 0.0014153839
-0.062314752 0.033894017 -0.0083432766 -0.64444393 -0.46211919 -0.60921085 0.001966889
-0.024265271 0.035984781 -0.0089665446 0.3353453 0.74566323 -0.57578629 0.0017830133
-0.021943333 0.035567302 -0.0083460016 0.302571 0.81201178 -0.4990868 0.0019303133
-0.01941753 0.035045665 -0.0076745115 0.29454148 0.83405614 -0.46647143 0.0015151257
-0.016517626 0.034150705 -0.0075502391 0.25527373 0.83533645 -0.4868761 0.001938766
-0.013651206 0.03358224 -0.0071164691 0.22564906 0.84951717 -0.47686794 0.0019360048
-0.011065029 0.033299591 -0.0063760076 0.19745283 0.86840677 -0.45484293 0.001383755
0.020174628 0.033307038 -0.0065466911 -0.22795138 0.86006409 -0.45642954 0.0015114896
0.022670522 0.033627011 -0.0072423066 -0.24215418 0.85152245 -0.46504927 0.0016415571
0.025485182 0.034267422 -0.007619407 -0.25631925 0.84252077 -0.4737713 0.0016416614
0.028410638 0.035129968 -0.0077730534 -0.29131442 0.84054488 -0.45674953 0.0013475493
0.030983949 0.035654224 -0.0084496802 -0.30232841 0.81443423 -0.49527207 0.001498999
0.067592211 0.034439903 -0.0078249443 0.73217076 -0.27017573 -0.6252448 0.0017354469
0.069108531 0.035583965 -0.0063661048 0.79548037 -0.3115263 -0.51977146 0.0030159836
-0.066602685 0.038166359 -0.0066457833 -0.69804299 -0.39664009 -0.59616494 0.001901568
-0.064823657 0.037418995 -0.0081524402 -0.65318775 -0.37266523 -0.65914059 0.0020358318
-0.030336965 0.038883246 -0.0087763835 0.36276913 0.76596272 -0.53075379 0.002083045
-0.028147055 0.038369376 -0.0080105057 0.37031075 0.80057591 -0.4711138 0.0018448468
-0.025518185 0.037466213 -0.0075482279 0.34442922 0.81452888 -0.46680948 0.0022329914
-0.022795351 0.036585856 -0.0071619465 0.32100716 0.82908052 -0.45779905 0.0016366012
-0.020465745 0.036157716 -0.0062412689 0.31674674 0.84452301 -0.43180144 0.0014953692
0.029521307 0.036216475 -0.0064386791 -0.31107047 0.84876531 -0.42758939 0.0013426354
0.031750176 0.036597434 -0.0072518964 -0.31618193 0.83257216 -0.45481053 0.0015667044
0.034544751 0.037507426 -0.0076650758 -0.35558379 0.80962473 -0.46697748 0.0026414285
0.037078038 0.038429823 -0.0081779407 -0.40808916 0.77600473 -0.48091573 0.0024342469
0.039027326 0.038974673 -0.0089209527 -0.41042969 0.71742767 -0.56288981 0.0018693033
0.068314068 0.037409391 -0.0081404541 0.74184686 -0.17410879 -0.64757186 0.0020164093
0.069535457 0.037841294 -0.0067594531 0.77532274 -0.18492788 -0.6038844 0.0018471837
-0.066997305 0.040855311 -0.0077030542 -0.66601992 -0.25813633 -0.69984514 0.0019924841
-0.065636843 0.039837129 -0.0086676171 -0.64477056 -0.25574613 -0.72032279 0.0027655086
-0.036262851 0.041784748 -0.008760863 0.38200524 0.75481236 -0.53322631 0.0027107894
-0.034196634 0.041296907 -0.0079003787 0.39908415 0.79261184 -0.46097535 0.0016581897
-0.031565424 0.040229488 -0.0075408337 0.37300691 0.79766917 -0.47390896 0.0017968309
-0.029099671 0.039425131 -0.0068926043 0.37877023 0.81514233 -0.43826473 0.0014226953
0.037957598 0.039566163 -0.0070763943 -0.42536271 0.77774572 -0.46279392 0.0016460897
0.040477838 0.040658053 -0.0076807509 -0.44298187 0.75745612 -0.47961164 0.0013965765
0.042815041 0.041577306 -0.0083692437 -0.43235308 0.72606206 -0.53470057 0.0020880681
0.068546034 0.040397763 -0.0084852735 0.7107228 -0.072390296 -0.69973767 0.002221138
0.06983041 0.040673498 -0.007067183 0.76856291 -0.096720241 -0.6324209 0.0019611085
-0.06943161 0.044099137 -0.0063804239 -0.7167992 -0.21049948 -0.66474724 0.0019362683
-0.06759762 0.043572359 -0.0080547072 -0.64877701 -0.15984862 -0.74400043 0.0029723772
-0.042327173 0.044815633 -0.0087778037 0.3606016 0.72757006 -0.58361661 0.0014361867
-0.040202454 0.044307902 -0.0079587074 0.39699265 0.77250421 -0.4956148 0.0021177891
-0.037536297 0.043220937 -0.0075029596 0.38342276 0.78889203 -0.48024622 0.0019236752
-0.035191491 0.042392205 -0.0068821548 0.40665168 0.79847276 -0.44393209 0.0014878482
0.041697368 0.042207923 -0.0062995725 -0.47363186 0.76353532 -0.43896082 0.0011205745
0.043843672 0.042886674 -0.0073440638 -0.44256243 0.74109501 -0.50489259 0.0017037862
0.04632346 0.044017714 -0.0078643644 -0.42252192 0.73315036 -0.53288448 0.0023718737
0.04846352 0.04468159 -0.0086046932 -0.40249708 0.69804341 -0.59222591 0.001965791
0.068513893 0.043498054 -0.0086442642 0.67975038 0.031035699 -0.73278666 0.0026824686
0.069855154 0.043514729 -0.0072607375 0.74509549 -0.0049219211 -0.66693956 0.0028710505
-0.069633797 0.046598732 -0.0067433836 -0.6754759 -0.093547247 -0.73142403 0.0036423313
-0.067838877 0.046557568 -0.0082973549 -0.59297711 -0.040129222 -0.80421871 0.0026408744
-0.048403297 0.047833107 -0.0087839998 0.32874295 0.70338202 -0.63022363 0.0021058237
-0.046199489 0.047323555 -0.0080460655 0.36462015 0.75175041 -0.54947561 0.0026872379
-0.043567624 0.046351578 -0.0075127785 0.3818506 0.77971011 -0.49622792 0.0016279765
-0.041108858 0.045494691 -0.006842488 0.41582623 0.78058416 -0.46666563 0.0015653032
0.047313843 0.045455132 -0.0066389143 -0.4457466 0.74221253 -0.50043029 0.001828455
0.049660787 0.046184212 -0.0075281071 -0.39520755 0.7303912 -0.55708128 0.0017593578
0.05223297 0.047203481 -0.0080667855 -0.36973867 0.69002634 -0.62221938 0.002687226
0.05448737 0.047759399 -0.0087957848 -0.31643149 0.6495769 -0.69131827 0.0019747703
0.068258055 0.046599641 -0.0085072992 0.56776047 0.125478 -0.81357437 0.0034509094
0.069939755 0.046464611 -0.0070141968 0.69705445 0.077384047 -0.71283013 0.0032876867
-0.069889672 0.049666826 -0.0067795832 -0.59024662 0.0088114319 -0.80717492 0.0071199681
-0.067535728 0.049638581 -0.0082798414 -0.45218807 0.13287207 -0.88196999 0.0067607476
-0.065441728 0.050661862 -0.0088760285 -0.22355939 0.29860491 -0.92782348 0.0063611539
-0.057252456 0.050935321 -0.0089484537 0.10016809 0.67566806 -0.73036909 0.0036735251
-0.055139426 0.050695658 -0.0086806873 0.20632683 0.68039811 -0.70319819 0.0023566054
-0.052332267 0.050180241 -0.0080355713 0.29320005 0.73739868 -0.60850388 0.0025880521
-0.049559582 0.049344968 -0.0075285309 0.33932045 0.76503533 -0.54734141 0.0017496892
-0.047007784 0.048556045 -0.0068792594 0.39142811 0.76745665 -0.50773442 0.0017429254
0.053024054 0.048680041 -0.0068899984 -0.41783416 0.71216643 -0.56412202 0.002102558
0.055535417 0.049455743 -0.0075892471 -0.33785176 0.68996215 -0.64016289 0.0019701815
0.058339909 0.050120041 -0.0082401792 -0.25635263 0.63092536 -0.7322681 0.0027117066
0.061231002 0.050568327 -0.0087026926 -0.12792206 0.58436865 -0.80134219 0.0047412594
0.064793915 0.050563145 -0.0088077905 0.10456154 0.43104693 -0.89625078 0.0075218715
0.06766215 0.04961637 -0.0081971614 0.4467569 0.22098051 -0.86693478 0.0065312809
0.069796033 0.049373847 -0.0067818896 0.65587533 0.13819656 -0.74211138 0.0054232567
-0.06998051 0.052628044 -0.0065888967 -0.4366352 0.13145372 -0.88998294 0.0095260106
-0.067489877 0.052550867 -0.007620364 -0.26472819 0.29902512 -0.91678947 0.012786777
-0.064497031 0.05257836 -0.0081238663 -0.088019155 0.4864471 -0.86926514 0.010291184
-0.06147996 0.052720513 -0.0079580611 0.07567104 0.61849076 -0.78214008 0.0047055287
-0.058493093 0.052553747 -0.0076535321 0.15196583 0.72294021 -0.67399096 0.0026016627
-0.05559817 0.052084029 -0.007290279 0.25026977 0.75242251 -0.60928273 0.0026495981
-0.052863609 0.051498529 -0.0066903159 0.34335673 0.75889999 -0.55333257 0.0016395041
-0.050813973 0.051033437 -0.0060809404 0.36201349 0.77548218 -0.51727515 0.0018630349
0.056671347 0.051184461 -0.0063225557 -0.40169477 0.7045182 -0.58506018 0.0026919136
0.058765013 0.051783398 -0.0068481136 -0.33753249 0.6751793 -0.65589994 0.0030677486
0.061562698 0.052435029 -0.0073722773 -0.19590506 0.60188121 -0.77418363 0.0040034433
0.064498611 0.052496258 -0.0078632329 0.017753324 0.44583628 -0.89493841 0.0086540487
0.067460351 0.052501719 -0.0074201287 0.31494203 0.30092177 -0.90014309 0.011832443
0.06954357 0.052364241 -0.0064116791 0.58507502 0.18284519 -0.79009807 0.0068649687
-0.069840945 0.055033002 -0.0062755472 -0.29746082 0.28187215 -0.91217601 0.01269402
-0.067476504 0.05523029 -0.0066029709 -0.083578333 0.43504009 -0.89652371 0.0094823157
-0.064617805 0.054935057 -0.0066448399 0.098620147 0.58101767 -0.80789387 0.010404577
-0.061767604 0.05442505 -0.0064419843 0.17760365 0.68484485 -0.7067138 0.0058111944
-0.059603147 0.054143567 -0.0061177807 0.23117794 0.74809176 -0.62202531 0.0036748606
0.062414397 0.054276455 -0.0062474222 -0.32472992 0.61432397 -0.71913606 0.0067330697
0.064742655 0.054936931 -0.0065313112 -0.15148082 0.49450892 -0.8558706 0.010222986
0.067401879 0.055276424 -0.0064768423 0.15621445 0.33863151 -0.9278608 0.016856551
0.069210261 0.05463282 -0.0061494727 0.47693166 0.22361919 -0.85001808 0.011047203
0.067564748 0.057277702 -0.0060041007 0.037639808 0.30479571 -0.95167375 0.020535814
-0.015399653 0.0029739644 -0.0035509244 -0.26583752 -0.91465122 -0.30453843 0.0021657958
-0.013321776 0.0027404446 -0.0042132046 -0.20237207 -0.90228277 -0.38069859 0.0013665702
-0.010240565 0.0023719459 -0.0049017533 -0.16267702 -0.89508462 -0.41516241 0.0013386038
-0.0068550608 0.0019662904 -0.0051427777 -0.11453352 -0.88827074 -0.44481134 0.0010986307
-0.0039695655 0.0016620511 -0.0052040103 -0.084283128 -0.89726073 -0.43338156 0.0010390364
-0.0014309096 0.0012514694 -0.0046807742 -0.056495246 -0.92017907 -0.38739994 0.0017609913
0.0010677947 0.0012343145 -0.0049430202 -0.042109545 -0.89046854 -0.45309225 0.0013473638
0.0047905631 0.001108199 -0.0047288714 0.0087584462 -0.90892363 -0.41687056 0.0011770071
0.0076427162 0.0012597226 -0.0049711345 0.041770507 -0.88871491 -0.45655331 0.0011769388
0.010469608 0.0014462736 -0.0050102235 0.067966416 -0.89822328 -0.43425277 0.0011513237
0.013115377 0.0017467247 -0.0052109663 0.08298938 -0.89817083 -0.43174285 0.0012995453
0.016473081 0.0019624354 -0.0047059227 0.12796034 -0.93479562 -0.33133578 0.0014840839
0.019671712 0.0026215136 -0.0051058051 0.15728813 -0.90072048 -0.4049235 0.0015061911
0.021984333 0.0027132495 -0.0040684305 0.19099428 -0.93874753 -0.2868349 0.0013996381
-0.024483811 0.00598404 -0.0034369761 -0.35775402 -0.88266742 -0.30481178 0.0018609366
-0.021988651 0.0055559338 -0.0047839237 -0.31374183 -0.86008227 -0.4022741 0.0012327164
-0.019262653 0.0047262921 -0.0050674574 -0.27986655 -0.86171103 -0.42323625 0.0012602396
-0.016617512 0.0038389578 -0.0049375794 -0.24105735 -0.87617123 -0.41739121 0.0010456468
-0.013791223 0.0033058778 -0.0054204641 -0.20993996 -0.88028449 -0.42546955 0.0013810283
-0.011548062 0.0030903853 -0.0059756958 -0.15773186 -0.86082226 -0.48384482 0.00076479925
0.020642834 0.0031015202 -0.005925722 0.16206862 -0.92802936 -0.33540311 0.0016132167
0.023272548 0.0032754019 -0.0049728849 0.1948285 -0.89638442 -0.39816689 0.0010186576
0.026055712 0.0039440398 -0.0049622688 0.22251183 -0.89569539 -0.38499111 0.00099903753
0.028330963 0.0044769463 -0.0047579235 0.25290203 -0.91002315 -0.32847896 0.0015025793
0.031430516 0.0053550545 -0.0045887451 0.29030183 -0.90330529 -0.31585515 0.0015039587
0.033240542 0.0056573036 -0.0035735464 0.31728205 -0.9093951 -0.26894721 0.0016907617
-0.030437753 0.0088184793 -0.0046051829 -0.34322098 -0.84866077 -0.40246031 0.0011188845
-0.027773555 0.0080431942 -0.005327153 -0.32453227 -0.83227843 -0.44943452 0.00089878408
-0.025626436 0.0069478326 -0.0048076147 -0.33311403 -0.85396904 -0.39971471 0.0010010839
-0.023296231 0.0063137636 -0.0054982146 -0.32464391 -0.85497242 -0.40451023 0.0013395556
0.032555971 0.0061111008 -0.005751729 0.31376573 -0.90278047 -0.29417431 0.0018640468
0.034659464 0.0065254671 -0.0047962321 0.33844584 -0.88933909 -0.30745798 0.00093687244
0.037770588 0.0077799666 -0.0049733748 0.34686968 -0.85578197 -0.38382101 0.0011322293
0.039875422 0.008568123 -0.0046673338 0.37663928 -0.86018991 -0.3438257 0.00087772217
-0.036938533 0.011658999 -0.0046036374 -0.40328258 -0.83589625 -0.37234476 0.0013764693
-0.034578528 0.01075421 -0.0050695054 -0.37871388 -0.83345062 -0.40241256 0.0012473231
-0.031762846 0.0095990645 -0.0052422779 -0.35716477 -0.84464639 -0.39875519 0.00087995449
-0.029860485 0.0090381503 -0.0058437646 -0.34809572 -0.85732776 -0.37923399 0.0021959262
0.041195687 0.0092331031 -0.0049060886 0.40798432 -0.87158042 -0.27183864 0.0013870109
0.043549322 0.010415448 -0.0051035681 0.40794623 -0.84066468 -0.35617799 0.00084710738
0.046030264 0.011564049 -0.0047592497 0.43439469 -0.82762051 -0.35545114 0.00095913798
-0.042485923 0.014674326 -0.0046514166 -0.47823635 -0.7903378 -0.38295716 0.0010974029
-0.040417761 0.013531257 -0.0047488003 -0.45500976 -0.80641383 -0.37770733 0.0011293192
-0.038184796 0.012463367 -0.0051504392 -0.42107636 -0.8225252 -0.38229167 0.0015658161
0.047135912 0.012380996 -0.0053638322 0.4545888 -0.8122921 -0.36541823 0.00077885797
0.049433947 0.013528625 -0.004880093 0.48635709 -0.81062007 -0.32611644 0.0014139937
0.051539809 0.01458925 -0.0042133005 0.50632894 -0.80974638 -0.29654995 0.001546234
-0.04619877 0.017196456 -0.0046797995 -0.53783542 -0.76405174 -0.35631165 0.0010616564
-0.043894231 0.01582214 -0.0051485277 -0.51007336 -0.77579832 -0.37143245 0.00093778817
0.052712303 0.015727751 -0.0051724403 0.5223518 -0.76938939 -0.36767992 0.0010966543
0.055151433 0.017246362 -0.0047400519 0.54985702 -0.74057168 -0.38627818 0.0011539643
-0.051531982 0.020809036 -0.0037255364 -0.56546307 -0.76657158 -0.3043347 0.001474164
-0.04974331 0.019862451 -0.0047627762 -0.56068271 -0.73856038 -0.37438411 0.0009794418
-0.047424089 0.018366273 -0.0053068609 -0.54150832 -0.74607432 -0.38748142 0.0013445511
0.056495886 0.018415427 -0.0051704124 0.58663476 -0.75603241 -0.29030111 0.0015204954
0.058415737 0.019842802 -0.004789141 0.6035862 -0.70103985 -0.37977216 0.0018244289
0.060166866 0.020754701 -0.0034907283 0.63493782 -0.72562075 -0.26519504 0.0022555562
-0.054523826 0.023477815 -0.0047549838 -0.56949109 -0.72168952 -0.39350232 0.0011550225
-0.052224826 0.021927848 -0.0051513258 -0.55966228 -0.7338044 -0.38510942 0.0010599907
-0.050770998 0.021041837 -0.0055902861 -0.54300195 -0.71951872 -0.43294534 0.00015676819
0.059703488 0.021244535 -0.0055331127 0.64252752 -0.69286871 -0.3272481 0.001963299
0.061450191 0.022578433 -0.0047306581 0.65951467 -0.65269154 -0.3728728 0.0010603035
0.063281931 0.023818091 -0.0034246282 0.70082122 -0.64520121 -0.30424494 0.0015860808
-0.057945535 0.026183054 -0.0045479052 -0.62281412 -0.69379419 -0.36159676 0.0013442555
-0.055707902 0.024555378 -0.0051057595 -0.58345646 -0.7148568 -0.3854326 0.001415706
0.062827393 0.024253709 -0.0052143075 0.68155837 -0.59304708 -0.42868802 0.0016459423
0.064283065 0.02574512 -0.0048137638 0.71651053 -0.57579708 -0.39378989 0.0014977562
-0.060676821 0.028922591 -0.0047065686 -0.66120815 -0.6298781 -0.40750137 0.0011592704
-0.059329718 0.027850728 -0.0052381009 -0.6448248 -0.63907498 -0.4192661 0.0013178561
0.065432735 0.027562309 -0.0052995402 0.74108565 -0.52983099 -0.41239691 0.0016441771
0.066713311 0.028801572 -0.0044452008 0.77788115 -0.49680981 -0.38481292 0.0021521563
-0.063567236 0.032179944 -0.0047309017 -0.70237863 -0.56539786 -0.43242285 0.0013064498
-0.06216656 0.030792361 -0.0051154406 -0.68091559 -0.5841276 -0.44175667 0.0010074017
-0.007052368 0.032848209 -0.0055998913 0.16631213 0.91467786 -0.3683812 0.0023382227
-0.0043447483 0.032660212 -0.0050236676 0.14284758 0.92302454 -0.35723972 0.0021096179
-0.0014353468 0.032431152 -0.0046714451 0.1006633 0.93178147 -0.3487837 0.002539074
0.0015119944 0.032195579 -0.0047160457 0.049706109 0.93084776 -0.36201063 0.0022051644
0.0043991464 0.032126125 -0.0046387371 0.011946206 0.93115449 -0.36442909 0.0021236327
0.0075050024 0.032130539 -0.0046625254 -0.039713338 0.93830115 -0.34353125 0.0025473139
0.010459314 0.032284219 -0.0047724959 -0.086219639 0.92898428 -0.35993668 0.002289301
0.013459244 0.032572061 -0.0048354627 -0.13397422 0.92234212 -0.36240295 0.0021116205
0.016143735 0.032799814 -0.0054764054 -0.19740552 0.91130716 -0.36131752 0.0020875484
0.067929856 0.031169035 -0.0048859436 0.80234927 -0.4390654 -0.40429839 0.001963082
0.069217071 0.032595612 -0.0036970116 0.83067137 -0.42295054 -0.36207443 0.0032012481
-0.066584915 0.035577361 -0.0038920864 -0.75985962 -0.51324069 -0.3989954 0.0020662639
-0.06485343 0.034165602 -0.0052146981 -0.71546853 -0.52934456 -0.45595956 0.001310649
-0.018510628 0.035806574 -0.0055435137 0.30763429 0.8955071 -0.32160258 0.0024868366
-0.016377779 0.035391189 -0.004775139 0.29051137 0.90295541 -0.31666183 0.0019822256
-0.013450954 0.034611717 -0.0046595507 0.24185197 0.9098565 -0.33714798 0.0019803471
-0.010508983 0.033881087 -0.0046773502 0.19695629 0.92160594 -0.33444101 0.001957292
-0.0076138596 0.033440921 -0.0042799846 0.15994924 0.93173319 -0.32602087 0.0020944751
-0.0050405259 0.033257164 -0.003578543 0.13261856 0.94920945 -0.28533089 0.0039172913
-0.0025353311 0.033036698 -0.0031028236 0.099872939 0.96817523 -0.22948243 0.00046498457
0.01406234 0.033123225 -0.0033439139 -0.12920971 0.95563293 -0.26470855 0.0013877728
0.016712623 0.033384617 -0.0041308589 -0.19389285 0.92980039 -0.31285256 0.0020230822
0.019415624 0.033856317 -0.0046854271 -0.22595842 0.91438782 -0.33591321 0.0016565133
0.022473561 0.034695748 -0.0046258662 -0.26407421 0.91016454 -0.31916359 0.001349112
0.025377931 0.035492465 -0.0048544304 -0.28320593 0.89713746 -0.33902612 0.0014661006
0.027451007 0.035837531 -0.0056648967 -0.29639444 0.89132589 -0.3430576 0.0017983859
0.068705536 0.033434235 -0.005599122 0.83161038 -0.34877327 -0.43218213 0.0028440768
0.069707543 0.034828387 -0.0047220434 0.84614551 -0.32416779 -0.42302844 0.0026364978
-0.067229226 0.037297286 -0.0048892172 -0.75467253 -0.46886998 -0.45894495 0.0018478703
-0.065966718 0.036167528 -0.0057986546 -0.68575323 -0.46370482 -0.56099939 0.0018774201
-0.027059726 0.038874697 -0.0059061479 0.40432677 0.82608747 -0.39255485 0.0019202544
-0.025118127 0.038515087 -0.0049397931 0.37374306 0.8714512 -0.31763008 0.0018123877
-0.022456698 0.037549745 -0.004654957 0.34967205 0.8791883 -0.32366237 0.0019555103
-0.01963147 0.036553115 -0.0044991765 0.31123817 0.89878929 -0.30872083 0.0020744421
-0.017496461 0.036139797 -0.0035526815 0.28001255 0.92119521 -0.2701709 0.0014252344
0.026500687 0.036193531 -0.0037247767 -0.28233421 0.91863126 -0.27641276 0.0016977644
0.02863544 0.036635261 -0.0045679482 -0.29928944 0.89708012 -0.32507399 0.0017470272
0.031563845 0.037619289 -0.0047117267 -0.34460518 0.88060391 -0.32524452 0.002177296
0.034035973 0.038563479 -0.0048855143 -0.39918825 0.86262935 -0.31067559 0.0024202229
0.070618987 0.037520435 -0.0047642253 0.85130644 -0.23014614 -0.47149771 0.0024778673
