# .PCD v0.7 - Point Cloud Data file format
VERSION 0.7
FIELDS x y z normal_x normal_y normal_z curvature
SIZE 4 4 4 4 4 4 4
TYPE F F F F F F F
COUNT 1 1 1 1 1 1 1
WIDTH 561
HEIGHT 1
VIEWPOINT 0 0 0 1 0 0 0
POINTS 561
DATA ascii
-0.057519607 0.05391733 -0.0057702749 0.25225484 0.81323487 -0.52442014 0.0034147128
-0.055600114 0.053720463 -0.0049214535 0.35167632 0.88851267 -0.29473543 0.0039293487
-0.052520961 0.052643914 -0.0044132844 0.40242973 0.85357928 -0.33083633 0.0027851553
-0.050133944 0.051526614 -0.0041960222 0.4290477 0.84937769 -0.30736899 0.0029531019
0.053447664 0.051271122 -0.0036273475 -0.50878614 0.80217284 -0.3124986 0.0026707202
0.055512343 0.052300114 -0.0041140937 -0.48812595 0.8057397 -0.335435 0.003800147
0.057924002 0.053362262 -0.0047872029 -0.4832193 0.76628268 -0.42344993 0.0059374082
0.060108028 0.053748127 -0.005896104 -0.40247414 0.6773662 -0.61578381 0.0076290565
-0.075336911 0.056180876 -0.0031841144 -0.81240004 0.43063271 -0.39314336 0.044063359
-0.074270114 0.056035545 -0.0043375618 -0.69043225 0.43020421 -0.58157337 0.041679941
-0.071368165 0.056701101 -0.0058302376 -0.35933995 0.4145152 -0.83609325 0.023340747
-0.066268571 0.056816015 -0.0059083863 0.19182222 0.63578588 -0.74765009 0.009429506
-0.064152338 0.05646776 -0.0054825367 0.29404056 0.68499058 -0.66657943 0.0056074075
-0.061412264 0.055882163 -0.0046246499 0.34430087 0.80219722 -0.48778746 0.0077214823
-0.058774475 0.05517406 -0.0041026687 0.33109012 0.90051436 -0.28187427 0.0058005587
-0.056068912 0.054382533 -0.0038961642 0.35127163 0.89898294 -0.26160643 0.0033908961
0.05903139 0.054626964 -0.0038814545 -0.49709016 0.75374204 -0.42985386 0.005660858
0.061239559 0.055772066 -0.0044689602 -0.54016989 0.68350816 -0.49095112 0.0068514533
0.063412122 0.056602933 -0.0053123981 -0.4903751 0.60530579 -0.62700647 0.0054608057
-0.075134158 0.057157807 -0.0031147362 -0.75158024 0.63809669 -0.16721167 0.059388123
-0.073256843 0.058365941 -0.0036766792 -0.52017379 0.82308632 -0.22792132 0.011739304
-0.070966616 0.059448458 -0.0038324588 -0.38666531 0.89282936 -0.23096688 0.015854724
-0.067320518 0.058856167 -0.0043398244 0.1866376 0.78803855 -0.58665299 0.014523081
-0.064724237 0.058025729 -0.0040662796 0.39663404 0.75819659 -0.51751274 0.0043405057
-0.062557667 0.057351865 -0.0033681942 0.43210015 0.76353025 -0.47990718 0.007826997
0.062465474 0.057604209 -0.0035485523 -0.66448438 0.61133277 -0.42980555 0.0097244307
0.063967288 0.058566876 -0.0041118679 -0.6875363 0.55449575 -0.46885854 0.012606084
0.066548936 0.058899619 -0.0053885328 -0.52673829 0.46991068 -0.70832956 0.012812683
-0.069678746 0.060149688 -0.0032903096 -0.23195298 0.95956337 -0.15948644 0.019800242
-0.068160228 0.060192809 -0.0033161154 0.085704491 0.89374441 -0.44031316 0.034067664
0.065168999 0.061296225 -0.0035089229 -0.77740836 0.37899795 -0.50199282 0.01085275
0.066805825 0.061656222 -0.0044549713 -0.64558434 0.32005316 -0.69338799 0.012297845
0.069204748 0.060473673 -0.0051702932 -0.38617122 0.32466573 -0.86340255 0.0057023284
0.065819718 0.063831292 -0.0031475078 -0.8889187 0.28252411 -0.36056024 0.021797853
0.066699907 0.065008782 -0.003529731 -0.86145031 0.25547656 -0.43890214 0.01196179
0.069369674 0.064308017 -0.0046301559 -0.51319104 0.19017287 -0.83694041 0.012573942
0.067293927 0.067892537 -0.0033586337 -0.87859011 0.2132885 -0.42730248 0.013439316
0.067967303 0.07073956 -0.0034913083 -0.88865983 0.19209692 -0.41639221 0.013730744
0.069503427 0.071334377 -0.0043681245 -0.75242186 0.1103726 -0.64936841 0.0035656276
0.068159938 0.073895968 -0.0033335248 -0.8878864 0.31338167 -0.33682287 0.048052654
0.069432586 0.073406518 -0.0043749409 -0.65031695 0.25629458 -0.71512306 0.053714171
0.068595439 0.076022111 -0.0035145218 -0.58902007 0.68717194 -0.42526469 0.088317499
0.070439652 0.076332249 -0.0038802235 -0.22999108 0.91101116 -0.34229043 0.078418434
0.073063374 0.075853318 -0.0037625576 0.15135595 0.97774637 -0.14526996 0.041671831
0.075234041 0.07521002 -0.0032215894 0.19834648 0.97864431 -0.053981349 0.025558911
-0.010825766 0.0014414974 -0.0010749268 -0.1848042 -0.97804558 0.096302941 0.0051663718
-0.02483757 0.0055751717 -0.0010391799 -0.29447177 -0.94656849 -0.13150869 0.0050294055
-0.022430539 0.0047263009 -0.0016065395 -0.31221849 -0.94656658 -0.080816574 0.0043321154
-0.018740054 0.0035808291 -0.0025856416 -0.23453729 -0.97139263 -0.037266299 0.0033369733
-0.017731713 0.0031149369 -0.0015812349 -0.23453736 -0.97139251 -0.03726656 0.0033369458
-0.03328497 0.0089967782 -0.00056498026 -0.38411823 -0.88895077 -0.24943891 0.0011579603
-0.031732317 0.0084360242 -0.0017004071 -0.37168238 -0.89415449 -0.24967957 0.00086845987
-0.028297311 0.0070406259 -0.0018001415 -0.37207574 -0.90237242 -0.21744806 0.00048397772
-0.02573742 0.0061401608 -0.0026805364 -0.34219804 -0.92446512 -0.1681214 0.0027778724
-0.039142132 0.011725889 -0.00066378783 -0.44698846 -0.85430568 -0.2652604 0.0019734073
-0.037398402 0.010982381 -0.0017839151 -0.41172349 -0.87158239 -0.26613531 0.0020466454
-0.035127252 0.0098474892 -0.0011203546 -0.40156162 -0.87420601 -0.27296904 0.0020577447
-0.043128468 0.014098123 -0.0019346075 -0.50710464 -0.81874287 -0.26926744 0.0010318173
-0.04054454 0.012648314 -0.0022441917 -0.46618509 -0.84549814 -0.2603927 0.0011527981
-0.048514921 0.017754205 -0.0015839585 -0.58475214 -0.7691434 -0.2578437 0.0017544641
-0.046500094 0.016316149 -0.0017373889 -0.56690472 -0.78786653 -0.24059391 0.00094073528
-0.044611439 0.015071135 -0.0021444969 -0.53667843 -0.80408007 -0.25579593 0.00098305801
-0.051902041 0.020264234 -0.0014984442 -0.58851409 -0.77446109 -0.23208012 0.0016868974
-0.05006646 0.018929277 -0.0017453202 -0.59053886 -0.77674025 -0.21894838 0.0015531665
-0.055566978 0.023065006 -0.0016731614 -0.62243682 -0.75880647 -0.19179422 0.000754687
-0.053360611 0.021343898 -0.0012903134 -0.59085655 -0.77623624 -0.21987693 0.0019929062
-0.06018975 0.026837679 -0.00074822764 -0.69620979 -0.69687068 -0.17223014 0.00089677778
-0.058648515 0.025543423 -0.0014001242 -0.66371715 -0.72347605 -0.18989985 0.00086067204
-0.056920748 0.024121389 -0.0017713066 -0.63218242 -0.7486307 -0.19974357 0.0010345073
-0.063166417 0.029877879 -0.00056901202 -0.73902184 -0.66120857 -0.12903465 0.00055808632
-0.061904393 0.028713377 -0.0014468619 -0.72005713 -0.6719383 -0.1732534 0.0014247308
-0.064428836 0.031534962 -0.0013411359 -0.76076096 -0.63346559 -0.1412943 0.0011028716
-0.00067370187 0.032953106 -0.0027054609 0.10299089 0.98897922 -0.10636256 0.0022106795
0.0018887141 0.032906041 -0.0018777262 0.059245478 0.99328178 -0.099404074 0.0030455599
0.0046495562 0.032878898 -0.0016359143 0.01080528 0.99593884 -0.08938197 0.0025099481
0.0073223142 0.032884438 -0.0017305821 -0.041182984 0.99575937 -0.082262874 0.0028745309
0.0099415025 0.032918975 -0.0026244137 -0.083001919 0.98998058 -0.11423285 0.0020701429
0.012028178 0.032959841 -0.0027623256 -0.067093521 0.99255884 -0.10161404 0.0024577924
-0.067014515 0.034771517 -0.0013493865 -0.80037051 -0.58399767 -0.13547622 0.0024417506
-0.065762058 0.033296157 -0.0018935286 -0.77354699 -0.61512887 -0.15245157 0.0027243097
-0.015548651 0.035806142 -0.001558851 0.29915014 0.95241106 -0.058500983 0.0023870918
-0.013428915 0.035275493 -0.0013863019 0.2544921 0.96523023 -0.059702337 0.0023280398
-0.010504552 0.034580667 -0.0013676964 0.22048974 0.9720782 -0.080300748 0.0029833396
-0.007378018 0.033969708 -0.00154274 0.17072645 0.98194414 -0.08147493 0.003246601
-0.0045655495 0.03356633 -0.001398336 0.12375721 0.98957455 -0.073663652 0.0027756076
-0.0014807933 0.033207037 -0.00135112 0.084285915 0.9947055 -0.058794919 0.003182583
0.001283684 0.033067953 -0.00068523386 0.041016806 0.99862355 -0.032690328 0.0034862971
0.0043362812 0.033015557 -0.00027775805 0.013768889 0.99963289 -0.02333531 0.0021284898
0.0084436061 0.033047192 -0.00066811161 -0.035025332 0.99831289 -0.046309408 0.0035796284
0.01065259 0.033151623 -0.001219387 -0.070496246 0.99640208 -0.047044046 0.0036814667
0.013454006 0.033439536 -0.0013598595 -0.12930106 0.98966801 -0.061954901 0.0029310922
0.016473526 0.033981655 -0.0013691148 -0.20760334 0.97585237 -0.0679188 0.0029026249
0.019491922 0.034720622 -0.0013993235 -0.25962391 0.96346462 -0.065812506 0.0019946692
0.022455672 0.03550452 -0.0014905751 -0.27702188 0.95785677 -0.075956546 0.0023176793
0.024235548 0.035907269 -0.0023968015 -0.30970719 0.94698042 -0.085495442 0.0026428036
-0.069439165 0.038224209 -0.0013376952 -0.85468292 -0.50969028 -0.098655626 0.0039966339
-0.068453304 0.03681501 -0.0016510321 -0.82391071 -0.55357742 -0.12133894 0.0030060525
-0.024337858 0.038905002 -0.0012483755 0.40675655 0.91151178 -0.060789395 0.0023535686
-0.022552099 0.038190808 -0.0014790547 0.35761631 0.93131572 -0.069004595 0.0022713523
-0.019462295 0.037066467 -0.0014302838 0.31557912 0.94569182 -0.077954076 0.0023113671
-0.017018428 0.036289524 -0.0012409692 0.27611372 0.95963347 -0.053523976 0.0026226239
0.023776691 0.036017176 -0.00039828575 -0.26678279 0.96299291 -0.038362157 0.0033728532
0.025529748 0.036435749 -0.0013790986 -0.29077664 0.95463324 -0.064221628 0.0028246308
0.028470384 0.037390694 -0.0014357809 -0.32430628 0.94341731 -0.069204427 0.0018021009
0.03140856 0.038427118 -0.0014791189 -0.36738271 0.92626905 -0.083997943 0.0025591936
0.033154529 0.038915548 -0.0027345985 -0.38093531 0.91808438 -0.10958755 0.0030591302
-0.070603386 0.040179372 -0.00137355 -0.89642245 -0.44316283 -0.0057886867 0.0033831825
-0.03062949 0.04170569 -0.0014560292 0.44817662 0.89185232 -0.061131991 0.0022239592
-0.028493226 0.040702026 -0.0015116879 0.41742894 0.9067353 -0.059867691 0.0018463209
-0.025820801 0.039534483 -0.0013472775 0.38017893 0.92269081 -0.064076245 0.0021495298
0.032795433 0.039068371 -0.00093988347 -0.3895891 0.91845202 -0.068309389 0.0033340056
0.034540039 0.039799936 -0.0013980498 -0.43753168 0.89604884 -0.075250424 0.0036124692
0.037228275 0.041251767 -0.0015051174 -0.50401741 0.85825539 -0.096768782 0.0026316838
-0.072367594 0.044202812 -0.0011158834 -0.94150966 -0.3369832 -0.0013746119 0.0053294492
-0.071772002 0.042669278 -0.001231649 -0.92164367 -0.38764501 0.017444316 0.0054000374
-0.036545023 0.044710819 -0.0015795614 0.48530558 0.8711285 -0.074924514 0.0023643195
-0.034463737 0.043629538 -0.0013994609 0.45571631 0.88719034 -0.072221883 0.0023925449
-0.032119956 0.04245263 -0.0012668301 0.42315423 0.90432525 -0.056002539 0.0031588711
0.038718943 0.0421841 -0.001288545 -0.5281533 0.84416384 -0.091877915 0.0028269337
0.040538955 0.043289509 -0.0014602173 -0.52006882 0.8496387 -0.08742106 0.0026335046
0.042635534 0.044637918 -0.0015341458 -0.55677325 0.82694608 -0.078509338 0.0022810863
-0.073103189 0.046480097 -0.0013667764 -0.94887298 -0.31565806 -4.2247004e-05 0.0068305163
-0.042196468 0.047817167 -0.0016661437 0.49051735 0.86805999 -0.076580413 0.002498955
-0.040517606 0.046917912 -0.0013639447 0.48573777 0.87271196 -0.049321666 0.0024987443
-0.0380494 0.045533154 -0.0014352595 0.47100323 0.87972426 -0.065124772 0.0024081764
0.044078842 0.045604061 -0.0013577965 -0.53022033 0.84361744 -0.0847115 0.0027356565
0.046367332 0.047081005 -0.001456811 -0.54853874 0.83040726 -0.097617418 0.003207529
0.048188254 0.047900006 -0.0027680872 -0.54727846 0.81867188 -0.17396158 0.0024194624
-0.075098656 0.05081046 -0.00054470077 -0.92867666 -0.36709368 -0.052933715 0.017364683
-0.074115217 0.049080953 -0.0010828739 -0.91554886 -0.39751136 0.061277784 0.0077920635
-0.048153806 0.05097742 -0.002624084 0.47674525 0.8704834 -0.12236268 0.0041040485
-0.046414718 0.050219979 -0.0014088859 0.49363104 0.86831588 -0.048538946 0.0024271426
-0.043720715 0.048729479 -0.0012337485 0.48143718 0.87544268 -0.042641323 0.0025046035
0.047817517 0.048116986 -0.0010164061 -0.55050147 0.8295809 -0.093507878 0.004248105
0.049501836 0.04916523 -0.0014030357 -0.53808683 0.83619362 -0.10603265 0.0038023919
0.051601585 0.050597206 -0.0015255171 -0.56510323 0.81996804 -0.091163397 0.003240484
-0.075877227 0.052837823 -0.00088092173 -0.97465068 -0.22325248 -0.014644795 0.017323863
-0.074701563 0.051516686 -0.0025437241 -0.88492304 -0.33238599 -0.32623729 0.016125569
-0.052378576 0.053430513 -0.0015230812 0.43148649 0.89885217 -0.076708876 0.0036715579
-0.049551297 0.051927865 -0.0015545081 0.46253189 0.88549304 -0.044344805 0.0023163462
-0.047843043 0.051124934 -0.00082964625 0.47502476 0.87929606 -0.034494497 0.0042030183
0.053075235 0.051627979 -0.001304992 -0.53592688 0.83775729 -0.10461893 0.0043106354
0.055346284 0.053075511 -0.0014436062 -0.55363536 0.82252604 -0.13014898 0.0055940263
0.057236463 0.053867206 -0.0027246543 -0.52723747 0.80681628 -0.26658601 0.007803313
-0.076310046 0.056009673 -0.0010613465 -0.92502481 0.37924889 -0.022348093 0.047499202
-0.060441684 0.056761727 -0.0013663693 0.48550037 0.87312263 -0.04411542 0.011465244
-0.058393702 0.055872388 -0.0013540036 0.39428949 0.91575104 -0.077045366 0.0077813161
-0.055505149 0.054831076 -0.0012302361 0.33805832 0.93991083 -0.047794446 0.0046981173
-0.053714149 0.05413064 -0.00098474289 0.38114753 0.92128426 -0.077213272 0.0063770683
0.056804407 0.054120239 -0.00089190499 -0.55505627 0.82575297 -0.10022265 0.007243494
0.058508631 0.055246595 -0.0013113053 -0.54501516 0.828219 -0.13042952 0.0074453638
0.060377199 0.056624424 -0.0016389139 -0.6815151 0.72488165 -0.10041796 0.011949937
-0.07550393 0.05741578 -0.0011880533 -0.76749086 0.63908976 -0.050219841 0.041809011
-0.073501371 0.058522403 -0.0014476181 -0.52376103 0.84990108 -0.057816043 0.0073276791
-0.071269393 0.059616681 -0.0015529954 -0.40380728 0.91420203 -0.034268837 0.0021407492
-0.066330284 0.059816957 -0.0027591444 0.25705633 0.89608455 -0.36187631 0.016996143
-0.064176455 0.059212383 -0.0011171182 0.49631205 0.86767447 -0.028553689 0.0072059864
-0.06195873 0.05778018 -0.0010573552 0.51054037 0.85968363 0.017103685 0.0087581556
0.061871473 0.058302611 -0.001219022 -0.80694771 0.57387733 -0.13964315 0.018912474
0.063255437 0.059595287 -0.0022628419 -0.77827936 0.59437734 -0.20247634 0.021507503
-0.069761455 0.060339168 -0.0014279537 -0.25649312 0.96587485 -0.036014169 0.0125571
-0.068014823 0.060824718 -0.0010940242 -0.062515616 0.99780828 -0.021690251 0.016453406
-0.065679617 0.060192212 -0.00093182531 0.32569072 0.94204694 -0.080455303 0.020597959
0.062918581 0.060126282 -0.00054086704 -0.83473003 0.54951173 0.035535209 0.018760208
0.063889027 0.061448794 -0.0012856912 -0.89858806 0.42804986 -0.0965029 0.025845692
0.064851023 0.064452983 -0.001113992 -0.95985824 0.27850959 -0.033235051 0.015150964
0.066038691 0.065467887 -0.0027919228 -0.90504348 0.17850885 -0.38604513 0.021311413
0.065504849 0.06737531 -0.00088190864 -0.97194731 0.23519754 -0.00069253537 0.024659986
0.066287234 0.067898802 -0.0022993488 -0.93958628 0.2250867 -0.25790226 0.02233888
0.065884396 0.069515966 -0.00049230602 -0.94955218 0.26119819 0.17356914 0.040984657
0.066450432 0.070739686 -0.0012328214 -0.96846074 0.24802591 0.023811135 0.02491455
0.066933759 0.073571585 -0.001160946 -0.97669524 0.21241525 0.030758789 0.022916744
0.076286897 0.074859925 -0.0010568552 0.28638631 0.95778537 0.025100054 0.0010163783
0.067648545 0.076471172 -0.0012753392 -0.78713197 0.61633569 0.02352589 0.067076199
0.070527822 0.07664834 -0.0013848188 -0.0080548869 0.99419582 -0.10728358 0.051655591
0.073531553 0.075725295 -0.0015327762 0.29030487 0.95693415 0.00046474664 0.0020852934
0.075349309 0.075167052 -0.0017385897 0.32058322 0.94694948 0.022648588 0.0088496692
-0.018394973 0.0028888863 0.0025882646 -0.28317013 -0.9500522 0.13120738 0.010811491
-0.016469765 0.0024085038 0.0026926766 -0.21694344 -0.94597977 0.24095179 0.0042153238
-0.012846103 0.0017108507 0.0028739937 -0.11775247 -0.97592074 0.18361132 0.0043483051
-0.011616598 0.0015547667 0.00063643011 -0.13432084 -0.97964025 0.1492078 0.0025557512
-0.0076516061 0.00097220612 0.0018086361 -0.1008358 -0.97429788 0.20143436 0.0052391021
0.0024331955 0.00060639443 0.0029105823 0.019253409 -0.91763335 0.39696157 0.0002484615
0.0044302237 0.00050171599 0.0024589954 0.035534423 -0.92473459 0.37895021 0.00038738939
0.010172106 0.00073902687 0.0021976237 0.077629387 -0.92459303 0.3729631 0.00058621127
0.014109864 0.0010526925 0.0018385344 0.10087962 -0.90586984 0.41136757 0.0013584518
-0.027214741 0.0055290498 0.0028987406 -0.30853501 -0.91133147 0.27254558 0.00010255273
-0.025513185 0.0049677836 0.0025585652 -0.27994168 -0.94265068 0.18177553 0.0087688621
-0.022368729 0.0039530806 0.002732743 -0.27043533 -0.91502774 0.29931435 0.00052991032
-0.020588424 0.0034194514 0.0027400402 -0.25257266 -0.92980939 0.26769671 0.0005095863
-0.036299445 0.0089896219 0.0023648632 -0.38980666 -0.9107548 -0.13629551 0.019130459
-0.034303036 0.0081662014 0.0028383145 -0.36259511 -0.90766644 0.21134444 0.0062019248
-0.030934725 0.0068593398 0.0026069169 -0.34015694 -0.92682445 0.15902716 0.0073256944
-0.028734719 0.0060319211 0.0026019092 -0.31250793 -0.89162362 0.32763737 0.00059378485
-0.04242716 0.011926308 0.0026107242 -0.47576714 -0.8308 0.28882003 0.0010174777
-0.040709555 0.011065706 0.0026588493 -0.45397949 -0.86546028 0.21185163 0.0055022757
-0.037618831 0.0095787393 0.0027125704 -0.42491895 -0.89354765 0.14497051 0.0083020264
-0.04625519 0.014337007 0.002516787 -0.53146261 -0.84384328 0.074000075 0.0076822364
-0.043400213 0.012752767 0.0023546426 -0.502249 -0.85370016 0.13763022 0.0020965706
-0.041411527 0.012354448 0.00083334767 -0.52158803 -0.84008849 -0.14898719 0.0083330693
-0.051254582 0.017895484 0.0028067408 -0.57398558 -0.80835021 0.1308067 0.0066593732
-0.049395334 0.016625337 0.002496233 -0.56893331 -0.81016499 0.14123592 0.005903136
-0.047279119 0.015424067 0.0021454117 -0.57327384 -0.81831175 0.041508425 0.0036645178
-0.05495017 0.020778492 0.0026976154 -0.61355466 -0.78845888 0.043397695 0.0050585885
-0.052542835 0.019111326 0.002473481 -0.59552872 -0.79663736 0.10351053 0.004276359
-0.049909782 0.018719006 0.00037583365 -0.58650208 -0.74085301 -0.32734114 0.0043559424
-0.057961833 0.023430062 0.0025696626 -0.68934625 -0.71858019 -0.091893174 0.0074171135
-0.055610929 0.022388892 0.0012963822 -0.59302109 -0.77605331 -0.21463284 0.0070800199
-0.053225387 0.021208625 0.00043285979 -0.56633198 -0.78140676 -0.26205274 0.0046316539
-0.060594957 0.026449412 0.0019151536 -0.73404115 -0.67339683 -0.087865837 0.0036513656
-0.059062254 0.025336349 0.0012298077 -0.69314712 -0.70642227 -0.1432295 0.0021011422
-0.063283451 0.029713534 0.0018364646 -0.77047032 -0.63364106 -0.069817342 0.00093889638
-0.062177796 0.028605495 0.0013974715 -0.74944377 -0.65738112 -0.078638949 0.0026906426
-0.064730503 0.031648561 0.0014063445 -0.79135853 -0.60979277 -0.043639891 0.00092276995
-0.0031179106 0.032942891 0.0029408908 0.10272827 0.97867769 0.17786758 0.0021837335
-0.00092667562 0.03290968 0.0026179701 0.093713313 0.97747117 0.18912444 0.0023627451
0.0017710924 0.032848045 0.0018943943 0.070547707 0.98391569 0.16411267 0.0028561654
0.0044816351 0.032826699 0.0015751648 0.01841574 0.98783076 0.15443824 0.002711951
0.0074038859 0.032826427 0.0016875173 -0.047739472 0.98690164 0.1540978 0.0030486148
0.010315419 0.03290309 0.002418566 -0.092411138 0.98079145 0.17177993 0.0028286229
0.012326352 0.032942858 0.0027950017 -0.12828273 0.97453886 0.18389536 0.0025491728
-0.067230493 0.034952473 0.0017010085 -0.83450502 -0.53357255 0.13748324 0.0023006599
-0.06589178 0.033159759 0.0016507258 -0.80270308 -0.59571534 0.028125435 0.0034427431
-0.015732106 0.035782572 0.0017237546 0.30356288 0.94388682 0.13010438 0.0021462284
-0.013491039 0.03521584 0.001544134 0.25453863 0.95706314 0.13870914 0.0021551477
-0.010455914 0.034505021 0.0015027507 0.20925227 0.96362263 0.16626781 0.0033064943
-0.0075285598 0.033932835 0.001516887 0.16454704 0.97669655 0.13779752 0.002952683
-0.0044436157 0.03345079 0.0017175257 0.12313811 0.97735357 0.17209555 0.0024229824
-0.0015821868 0.03318052 0.0013033438 0.083287746 0.9888283 0.12361922 0.0025618712
0.00090088864 0.033058569 0.00067882263 0.049631052 0.99330485 0.10431814 0.0034846528
0.004989217 0.033018008 0.00015001121 0.012391633 0.99977911 0.016973175 0.0010419005
0.0084758271 0.033030976 0.00052004826 -0.042853151 0.99734765 0.058831945 0.0033342533
0.010703514 0.033128977 0.001054665 -0.076785073 0.99300361 0.089710169 0.0040258183
0.013569195 0.033383533 0.001479771 -0.13398892 0.98206204 0.13266923 0.0029583303
0.016473839 0.033902034 0.0015420042 -0.20000139 0.96846604 0.14856985 0.0030113135
0.019487599 0.03464115 0.0015452817 -0.25246292 0.95769131 0.13816573 0.0021722887
0.022478275 0.035437912 0.0016222295 -0.27534997 0.95269448 0.12866855 0.0025407404
0.024350164 0.035855517 0.0024010486 -0.28663749 0.94702196 0.14487308 0.0029840204
-0.069453463 0.03836168 0.001819029 -0.86670977 -0.45487028 0.20471232 0.0033058168
-0.068510249 0.036799837 0.0015318266 -0.85551828 -0.4906114 0.16549571 0.0026681796
-0.024490684 0.038851637 0.0017812513 0.40064842 0.90606719 0.1360997 0.0019148927
-0.022503246 0.038098738 0.00165985 0.36109883 0.92231953 0.13760161 0.0018414662
-0.019480167 0.037008982 0.0015235164 0.31669435 0.93654555 0.15029013 0.0024990758
-0.017216245 0.036281001 0.0014111616 0.28021595 0.95227176 0.12106822 0.0022130238
0.023893943 0.036059435 0.00042001886 -0.27905974 0.95707214 0.078349233 0.0032374759
0.025628986 0.03639676 0.0014716253 -0.28025967 0.95149505 0.12693143 0.0023784344
0.028460452 0.037314497 0.0015208224 -0.31322116 0.94003499 0.13500702 0.0023186628
0.031444807 0.038367823 0.0015749735 -0.36455664 0.92174709 0.13221487 0.0028363084
0.033183474 0.038882859 0.0025570369 -0.41642231 0.90005565 0.12842199 0.0028714165
-0.070652589 0.040554632 0.0018133189 -0.88639253 -0.39766768 0.23699921 0.0032489584
-0.030764991 0.041678388 0.0018110082 0.45305729 0.8819052 0.13031594 0.0017805917
-0.028472099 0.040626243 0.0015657475 0.41679099 0.90067279 0.12277565 0.0017626677
-0.025954247 0.039522033 0.0014837359 0.37607494 0.91764313 0.12844723 0.001871033
0.032847032 0.039077178 0.00085791096 -0.39108148 0.91161901 0.12651476 0.0029760967
0.034567486 0.03974098 0.001505116 -0.42677057 0.89434236 0.13423353 0.0030805322
0.037309516 0.041224595 0.0015785154 -0.49947053 0.85558504 0.13602763 0.0027770028
0.039167497 0.041893404 0.0029122778 -0.51524121 0.83732915 0.18277405 0.0015858928
-0.072289936 0.044222511 0.0013868865 -0.91534382 -0.30888239 0.25833571 0.0054409797
-0.071671531 0.042959888 0.0019902636 -0.89938909 -0.34055611 0.27408171 0.0040063774
-0.036621418 0.044671491 0.0016837534 0.48777199 0.86568558 0.1125471 0.0020610311
-0.034482095 0.043552544 0.0016844269 0.45502788 0.88238215 0.11979761 0.0018019587
-0.032177296 0.042409949 0.0014785557 0.42552659 0.89796454 0.11219042 0.002118231
0.038755015 0.042190194 0.0009812311 -0.53252208 0.83579469 0.13366933 0.0029401074
0.040507618 0.043197662 0.0014963466 -0.52562159 0.84032881 0.13254945 0.0029262991
0.042658817 0.044553977 0.0016989474 -0.55270129 0.82400697 0.12463428 0.0023615614
-0.072982624 0.046530537 0.0016709029 -0.90957141 -0.29163733 0.29601949 0.0062754839
-0.042341944 0.047764998 0.0020825621 0.50203162 0.85420227 0.1352881 0.0023241555
-0.040473901 0.046805717 0.0015395896 0.4819558 0.86900347 0.11203318 0.0024155152
-0.038058549 0.045487471 0.0013715345 0.45975071 0.88016212 0.1180845 0.0023113852
0.044131499 0.045556646 0.0014702397 -0.52667981 0.8387925 0.13796963 0.0030252321
0.046404094 0.047014713 0.0015565712 -0.54555976 0.82542205 0.14506227 0.0031187821
0.048152283 0.047898725 0.0025340565 -0.54566413 0.81694019 0.18670669 0.0032730454
-0.075140253 0.050881118 0.00058746483 -0.8997286 -0.36427 0.24040762 0.011933241
-0.074001148 0.049480934 0.0018056842 -0.86491531 -0.34784722 0.36183405 0.0098801386
-0.048131604 0.050881702 0.0026214325 0.44830337 0.87149489 0.19879837 0.0043451455
-0.046534792 0.050174575 0.00174596 0.49141523 0.85443312 0.1686864 0.0022782278
-0.043749921 0.048653558 0.0014938723 0.46961057 0.87243307 0.1353754 0.0027840855
0.047820553 0.048133519 0.00071514311 -0.54316652 0.82680917 0.1461397 0.0038364406
0.049556449 0.049101796 0.001515088 -0.5293498 0.83221388 0.16495122 0.0039588553
0.051686972 0.050526958 0.0017005404 -0.55861038 0.81597924 0.1487692 0.003359464
0.072295979 0.049498871 0.0027158749 0.83674365 0.055065658 0.54481918 0.001214579
-0.075607091 0.05281049 0.0014891105 -0.90653998 -0.24674411 0.34249479 0.01297987
-0.074702069 0.051763386 0.0025407379 -0.82908154 -0.25871387 0.49567229 0.010088639
-0.054267075 0.053943407 0.0026510451 0.37702119 0.90125698 0.2135199 0.0064596809
-0.05249859 0.053383149 0.0017072193 0.41973585 0.88396901 0.20596281 0.0037464253
-0.049504813 0.051839668 0.0015727701 0.44696081 0.87434042 0.1890898 0.0038771622
-0.047797557 0.05109242 0.00046015307 0.47101805 0.87110335 0.13899958 0.0043541775
0.053161118 0.051584765 0.0014042641 -0.53462994 0.82576728 0.1796643 0.0052234959
0.05543844 0.05300856 0.0015886693 -0.54935908 0.81730419 0.17383483 0.0048390059
0.057219204 0.053845283 0.0024766438 -0.54574168 0.80066937 0.24717335 0.0076925042
0.072302677 0.051497929 0.0026173776 0.82020676 0.06040705 0.56886894 0.001646037
-0.076030105 0.055776969 0.0016525736 -0.88555276 0.28520367 0.36668125 0.038775239
-0.074986562 0.056960225 0.0028369525 -0.61325872 0.74848598 0.252354 0.029854579
-0.060684852 0.056624435 0.0020331831 0.47821516 0.84088725 0.2534146 0.0078414539
-0.058527946 0.055761196 0.0017373833 0.36487117 0.89587867 0.25351623 0.0074308128
-0.055527508 0.054718114 0.0015860789 0.33728698 0.918787 0.20510469 0.0045062229
-0.053679489 0.054138105 0.00070615049 0.40272006 0.89926016 0.17072733 0.0064701512
0.056811444 0.054120611 0.00081738888 -0.53445345 0.82383448 0.18882868 0.007400318
0.058618661 0.05517019 0.0015078284 -0.52809274 0.8183248 0.2268535 0.0076372195
0.060574818 0.056549828 0.0018718606 -0.66620338 0.71222985 0.22113739 0.010694724
0.072379343 0.055863108 0.0024057385 0.69850641 0.049235065 0.71390808 0.0096467091
-0.075422771 0.057400126 0.0012915203 -0.77282339 0.56541157 0.28819039 0.041150879
-0.073545195 0.058476288 0.0015988873 -0.56775671 0.78779805 0.23880219 0.025339738
-0.071229972 0.059632573 0.001455509 -0.38832158 0.90795243 0.1575716 0.0068221581
-0.066529699 0.059745874 0.0026184006 0.28888589 0.86282301 0.41482684 0.015838789
-0.064464718 0.059016827 0.0018218969 0.43809405 0.81664073 0.37572792 0.0074733123
-0.062079445 0.057566188 0.0016767357 0.44355935 0.83047503 0.33699599 0.0083755106
0.062008902 0.058203578 0.0013975125 -0.76585293 0.58585924 0.26502523 0.020339945
0.063470036 0.05946533 0.0022974156 -0.74339974 0.5874033 0.31986585 0.017623575
0.072407328 0.058911603 0.0024198836 0.44812185 0.11698382 0.88628525 0.010795237
-0.069717705 0.060322683 0.0015121544 -0.2329434 0.95515144 0.18281977 0.021677392
-0.067792438 0.060628358 0.0014948384 0.064923041 0.97863883 0.19506681 0.023691222
-0.065723062 0.060171824 0.00071727566 0.32360634 0.92171526 0.21382205 0.016488422
0.062959738 0.060065139 0.00026347127 -0.82727647 0.5454641 0.13447165 0.022405537
0.064298809 0.061539456 0.0016231955 -0.77541739 0.43631589 0.45646068 0.029183472
0.071957707 0.061277974 0.002949426 0.32766783 0.12877592 0.93597567 0.014099666
0.072325669 0.062267739 0.002602265 0.20418984 0.10934465 0.97280538 0.010488212
0.065164797 0.064392291 0.0013791668 -0.81781632 0.29927918 0.49153689 0.021586254
0.066432372 0.06501881 0.0026489599 -0.62776488 0.27109697 0.72966957 0.042882387
0.071809657 0.064033896 0.0029631562 0.06641151 0.055397216 0.99625331 0.0094244713
0.072651744 0.064980738 0.0026006089 0.11880816 0.025600387 0.99258709 0.011821554
0.065614767 0.067280285 0.00080206286 -0.88268214 0.22670859 0.41167399 0.034919724
0.067044891 0.067665771 0.0022604584 -0.63581425 0.26570427 0.72466648 0.033866186
0.069616467 0.068098843 0.0029140704 -0.19874533 0.065824509 0.97783816 0.013035723
0.072927445 0.067074247 0.0027250668 0.048076946 -0.059217211 0.9970867 0.0075254273
0.065897316 0.06945511 0.00037376603 -0.89777851 0.32545072 0.29677558 0.053382602
0.06725394 0.070511147 0.0016683368 -0.69660318 0.15180185 0.70121342 0.03737079
0.069483966 0.070511788 0.0027949784 -0.34248701 -0.034831945 0.93887669 0.013346649
0.074220717 0.070067354 0.002621063 0.14265163 -0.19421585 0.97053117 0.011770022
0.075052105 0.07110998 0.0022120948 0.59097815 -0.14077345 0.79430956 0.05982681
0.067569837 0.073478661 0.0014957279 -0.82502449 0.082427435 0.55905306 0.026249235
0.069213793 0.072865427 0.002807498 -0.54246765 -0.0080435397 0.84003812 0.017248761
0.076112129 0.074688785 0.0010580893 0.33408114 0.93058026 0.14970027 0.05274003
0.06789308 0.076240227 0.001424671 -0.80589604 0.43499234 0.40163821 0.082090266
0.070064731 0.07672102 0.0018881219 -0.35348704 0.75493008 0.55238336 0.097595453
0.073389322 0.075768828 0.0013835096 0.29005298 0.95048487 0.11156936 0.015031612
0.0753683 0.075159706 0.0012157017 0.33195555 0.92889965 0.16416745 0.038727961
-0.018086333 0.002882544 0.0033529506 -0.23070534 -0.91066337 0.34273505 0.0014139309
-0.016037468 0.0028079413 0.0044591278 -0.20209312 -0.89967662 0.38696289 0.0014726892
-0.013760198 0.0026011402 0.0050952979 -0.17283292 -0.87318867 0.45570853 0.00098978728
-0.010467886 0.001940892 0.0048084562 -0.11908464 -0.9508931 0.28569427 0.005264699
-0.0073598726 0.0015910012 0.0048381574 -0.090607353 -0.89285147 0.44114229 0.0014576248
-0.0046038227 0.0013524808 0.0047471975 -0.064459048 -0.88750762 0.45626223 0.0016042507
-0.0016175403 0.0010798055 0.0042889738 -0.0071481001 -0.89957362 0.43671066 0.00076870393
0.001538672 0.0012672679 0.0047922083 0.0067198044 -0.90599 0.42324582 0.00099879492
0.004102963 0.0015144614 0.0053466037 0.042466909 -0.87522596 0.48184654 0.00092090102
0.0078108599 0.0015385206 0.0049172938 0.063575342 -0.88819623 0.45504463 0.00060004962
0.011009334 0.0018747774 0.0051210625 0.090911515 -0.88219678 0.46202162 0.00074203959
0.013880764 0.0021512792 0.005107061 0.10552444 -0.86717981 0.4866865 0.00106185
0.016452761 0.0025052624 0.0051521622 0.11212807 -0.85325223 0.50930136 0.0014212
0.018933501 0.0024482873 0.0042150854 0.11810873 -0.87703335 0.46568531 0.0028702316
0.021261808 0.0028555077 0.0042414134 0.15724568 -0.84074241 0.51809841 0.00039978506
-0.027448516 0.0057654744 0.0033759847 -0.28652763 -0.86758471 0.40644652 0.00028144868
-0.025279462 0.0054406216 0.0045610163 -0.26297075 -0.9017399 0.34309116 0.0042924024
-0.022759613 0.0047105197 0.0047685197 -0.26379475 -0.87602967 0.40371323 0.0006625792
-0.01992796 0.0039459541 0.0049158782 -0.23757921 -0.88067091 0.40984741 0.00069327018
-0.017261147 0.0033652931 0.0051755598 -0.20177951 -0.88189811 0.42607602 0.001175431
0.017756723 0.0030559804 0.0058533172 0.13295895 -0.83530462 0.53346801 0.00076372467
0.019370254 0.003212037 0.0057038809 0.13851638 -0.82232869 0.55189562 0.00044419477
0.022659224 0.0035863752 0.0052101342 0.15714878 -0.80633062 0.57020634 0.00050794974
0.025684513 0.0043640127 0.0054006423 0.16816391 -0.78882498 0.59116501 0.00078730588
0.028550047 0.005288369 0.0057337042 0.19309697 -0.77535933 0.60127491 0.00053280883
-0.036028162 0.0089888806 0.0032197898 -0.26095319 -0.96420157 0.047103647 0.035674389
-0.033963673 0.0084433705 0.0042895805 -0.34769949 -0.85989326 0.37374946 0.00061000691
-0.031316787 0.0076863705 0.0049919668 -0.31918806 -0.86907941 0.37791532 0.00055767788
-0.028871603 0.0069099935 0.0052225171 -0.30094773 -0.87092161 0.38849196 0.00052731484
-0.026655123 0.0062389039 0.0054895752 -0.29627129 -0.87312806 0.38713145 0.00059726712
0.036657043 0.0078810696 0.00544143 0.27169487 -0.75054419 0.60238302 0.0014282698
-0.042208221 0.011946464 0.0034497208 -0.46294636 -0.82817227 0.31592947 0.00086569646
-0.040085413 0.011220626 0.0044316435 -0.43455768 -0.83938801 0.32647714 0.0038725703
-0.037501957 0.010116753 0.0047610514 -0.38931987 -0.85002989 0.35479468 0.00063694466
-0.035341896 0.0094493916 0.0055086063 -0.35658208 -0.85227537 0.38272166 0.00065756921
-0.045860268 0.014392207 0.0041177333 -0.50948286 -0.80416572 0.30617756 0.0033475321
-0.043539904 0.013131409 0.0045208707 -0.47783107 -0.81804997 0.3201119 0.0020533544
-0.041425273 0.012357227 0.0055935914 -0.44731024 -0.82849377 0.33691499 0.004338339
-0.051180288 0.017912909 0.003540758 -0.58512747 -0.78972065 0.18430167 0.017417122
-0.049452771 0.017000083 0.004525119 -0.53763384 -0.78366184 0.31116533 0.0029543666
-0.047144599 0.015645241 0.0051429202 -0.53363633 -0.78344625 0.31850314 0.0027975375
-0.054488506 0.020575183 0.0041351691 -0.57796997 -0.7794736 0.24160208 0.0091293082
-0.052590162 0.019392479 0.0047574569 -0.5728032 -0.75433654 0.32073805 0.0031606248
-0.050720096 0.018382246 0.005566726 -0.57288969 -0.76743102 0.2878316 0.0049452325
-0.057458725 0.023303866 0.0048450613 -0.64945728 -0.67860323 0.34307852 0.0063172677
-0.055816684 0.021926748 0.0049066865 -0.60015965 -0.72582591 0.33613262 0.0047664186
-0.060541712 0.026213516 0.0046492741 -0.69199777 -0.64955056 0.31499705 0.0064788111
-0.058903184 0.024677472 0.0049040695 -0.66802758 -0.66598821 0.33196199 0.006517794
-0.063288376 0.029487163 0.0046917861 -0.75086302 -0.55709058 0.35476038 0.0060759317
-0.061995223 0.028086046 0.0049747936 -0.72544318 -0.60334992 0.33121157 0.0065240632
-0.066056907 0.032965705 0.0037313602 -0.82266158 -0.5143106 0.24230668 0.011119289
-0.06460727 0.031501841 0.0049215881 -0.74814773 -0.52386904 0.40722996 0.0051649832
-0.0092243021 0.032991473 0.0059113861 0.1664713 0.92129099 0.35144034 0.0022647786
-0.0071371361 0.032801315 0.0054446962 0.16799727 0.91393185 0.36946636 0.0022532234
-0.0043404396 0.032583926 0.0049301395 0.13521227 0.91767389 0.37362048 0.0020172365
-0.0015022507 0.032384492 0.0045415801 0.10432407 0.9337616 0.34235331 0.00222625
0.0014551297 0.032154489 0.00455601 0.05326293 0.93946838 0.33847034 0.0024102493
0.0044661425 0.032071117 0.0045456318 0.012995644 0.93395102 0.35716456 0.002807318
0.0075103231 0.032086525 0.0045629092 -0.03658364 0.9411447 0.33601832 0.0027770915
0.010495751 0.032274228 0.0045977538 -0.10138533 0.93466538 0.3407661 0.0026762139
0.013397154 0.032531761 0.0047282972 -0.14717668 0.92120284 0.36017284 0.0027092944
0.016124066 0.032744996 0.0054171314 -0.19758739 0.90926373 0.36633143 0.0027783483
0.018289339 0.032898303 0.0058959345 -0.23066993 0.84858435 0.47612602 0.0014727578
0.067064762 0.031221507 0.0056648157 0.70609725 -0.35404795 0.61325103 0.0011356554
-0.066806659 0.034946632 0.0048618703 -0.81113344 -0.43974918 0.38559464 0.0057674185
-0.065742388 0.033531193 0.0053655081 -0.80650526 -0.4682259 0.36099002 0.0073113698
-0.018672243 0.035758737 0.0053546815 0.31477049 0.89546853 0.31473112 0.0022038908
-0.016473817 0.035314061 0.0046128836 0.28405276 0.90610582 0.31350622 0.0019849741
-0.013384939 0.034436222 0.0046816915 0.23156328 0.90906584 0.34637809 0.0019910855
-0.010430872 0.033782355 0.0045436178 0.19619006 0.92218798 0.33328488 0.001811918
-0.0076006521 0.033367522 0.0041255737 0.1629246 0.93203318 0.32368138 0.0019986054
-0.0049419184 0.033129975 0.0036075243 0.13271862 0.93807161 0.32001153 0.0022982976
0.014212888 0.033130072 0.0033432834 -0.13375396 0.95934528 0.2485286 0.0016647782
0.016745035 0.033390477 0.0040561114 -0.1971312 0.92799914 0.31615943 0.0029208024
0.019557228 0.033902269 0.0045673209 -0.22779344 0.91715705 0.32700625 0.0022348748
0.022555733 0.034712255 0.004571022 -0.26463252 0.90347439 0.33719987 0.0020999669
0.025302494 0.03545614 0.004800105 -0.29140061 0.89544487 0.3365474 0.0021815712
0.027533161 0.035831317 0.0055885296 -0.2998893 0.87902117 0.37065914 0.0026219606
0.068676382 0.034734387 0.0057432824 0.75427282 -0.28633556 0.59083372 0.0012682093
-0.069303006 0.038786847 0.0037160094 -0.83310175 -0.42567995 0.35318273 0.0052553015
-0.068175867 0.037502993 0.0048170579 -0.83141786 -0.41826364 0.36578667 0.0050273277
-0.027153399 0.038905203 0.0056503229 0.39056578 0.85805172 0.33347514 0.0028309091
-0.02521212 0.03842061 0.0047418708 0.37727907 0.87802607 0.29450083 0.0017977555
-0.022518717 0.037410546 0.0045609958 0.32661042 0.89265013 0.31064659 0.0021960491
-0.019604949 0.036447491 0.0042751129 0.3095248 0.90042531 0.30566093 0.0019312418
-0.01764022 0.036087975 0.0032800983 0.29172516 0.92741621 0.23408474 0.0020094896
0.026359128 0.036164965 0.0037059051 -0.28568688 0.91241986 0.29304114 0.0021278893
0.028616929 0.036678206 0.0044084876 -0.30254397 0.89823109 0.31882298 0.0024520031
0.031513322 0.037668996 0.0045105699 -0.34216031 0.8874175 0.30889571 0.0028513058
0.033958141 0.038549971 0.004859189 -0.41553736 0.8540166 0.31302449 0.0030350117
0.070107013 0.037485972 0.0049278932 0.76514792 -0.21484293 0.60695243 0.0009617919
-0.069782093 0.040742829 0.0044882568 -0.84510565 -0.32983789 0.42071766 0.0038175471
-0.068717539 0.039562702 0.0055977791 -0.82390332 -0.33935568 0.45389545 0.0056456896
-0.033381749 0.041872922 0.0056384387 0.40819052 0.84888202 0.33582705 0.0022230719
-0.031313166 0.041195959 0.0047272695 0.41700906 0.85713631 0.30235869 0.0019189098
-0.028549915 0.039962355 0.0045274151 0.38695431 0.87280363 0.29745626 0.0018958626
-0.026439238 0.039248396 0.003865568 0.37241343 0.88232899 0.28775647 0.0017880152
0.035157371 0.039407339 0.0041155536 -0.41526392 0.85584188 0.30836755 0.0029497973
0.037506346 0.040540632 0.0045141266 -0.46052191 0.82435685 0.32917371 0.0032345762
0.039618287 0.041614305 0.0049795876 -0.50784332 0.80509079 0.3064701 0.0023097747
0.070726231 0.040993191 0.0051289573 0.79270935 -0.09650331 0.60191268 0.0019631409
-0.072138578 0.044822015 0.0030587856 -0.85408622 -0.29857776 0.42589679 0.0085359598
-0.07065019 0.043656264 0.0047827354 -0.8279897 -0.26315662 0.49515817 0.0035805015
-0.039256386 0.044863336 0.0057111718 0.43561906 0.81051666 0.39153376 0.0031866417
-0.037272133 0.044201534 0.0047464385 0.45473334 0.83717793 0.30389252 0.001757893
-0.034557346 0.042894229 0.0044678436 0.42543569 0.8531512 0.30188993 0.0020380737
-0.032554369 0.042168923 0.0036504418 0.41822708 0.8625164 0.28487137 0.0015020294
0.040941935 0.042695474 0.0042962581 -0.49227223 0.8091014 0.32097194 0.0025749251
0.043333516 0.044060629 0.0046644285 -0.50019532 0.79468465 0.3439199 0.0027745927
0.045310639 0.044824112 0.0056414441 -0.48382843 0.77419335 0.40808669 0.0043321159
0.071143895 0.043793894 0.0049137883 0.80217028 -0.014232032 0.59692574 0.0015900187
-0.072329663 0.046946071 0.0036057606 -0.82690448 -0.26072219 0.49824989 0.0032822788
-0.071240947 0.046434682 0.0050370907 -0.78609508 -0.17605549 0.59250236 0.0054951534
-0.045143072 0.047850117 0.0058902362 0.41475689 0.79683834 0.4393464 0.0026969763
-0.043305956 0.047389504 0.0048947353 0.44413838 0.8195529 0.36204174 0.0019588878
-0.040568732 0.046049278 0.0045398995 0.44326696 0.83390236 0.3288179 0.0018214101
-0.038536433 0.045239393 0.0037469647 0.45262158 0.83729213 0.3067174 0.0022426655
0.044574175 0.045286357 0.0036653813 -0.50060487 0.80176365 0.32645047 0.0022627995
0.046565551 0.046191081 0.0044717793 -0.50534576 0.78552651 0.35717472 0.0029845892
0.048913371 0.047429521 0.0049394998 -0.50859094 0.77812928 0.36857828 0.0033630028
0.071051665 0.046417743 0.0052698911 0.77339554 0.034106702 0.63300556 0.0021144373
0.072006382 0.046627387 0.0034047035 0.84960353 0.025463887 0.52680683 0.00089162582
-0.072733238 0.049763899 0.0041695787 -0.7375111 -0.20499404 0.64347082 0.0058746464
-0.071477063 0.049391955 0.0055149957 -0.71949691 -0.1248105 0.68318856 0.0063700243
-0.05109046 0.050937779 0.0058741579 0.417292 0.75733125 0.50231135 0.0040925606
-0.049120322 0.050468758 0.0049570855 0.42207223 0.81521058 0.39659378 0.0023000592
-0.046563648 0.049277831 0.0046101501 0.43645269 0.81334323 0.38468426 0.0020834347
-0.044362884 0.04840317 0.0038418011 0.43677169 0.82760704 0.35255787 0.0017586176
0.050067842 0.048586663 0.0041217427 -0.50266945 0.78064686 0.37136763 0.0033528882
0.052374583 0.049832046 0.0046244981 -0.48670223 0.77480376 0.40348482 0.0030063812
0.054548394 0.050704595 0.0054372638 -0.46934581 0.74737215 0.47026527 0.0044405991
0.071029514 0.049582511 0.0051908353 0.80984306 0.069465898 0.58251929 0.0034008641
0.07211978 0.049792401 0.0031191627 0.83773363 0.043601256 0.54433566 0.0020893957
-0.075066909 0.053581554 0.0030942899 -0.83243924 -0.12459307 0.53992724 0.018110111
-0.073272102 0.052640542 0.0045300494 -0.66452938 -0.13349921 0.73524052 0.0059134788
-0.071701504 0.052469555 0.0057542194 -0.56891137 -0.019554429 0.82216632 0.0068828971
-0.057761226 0.053747009 0.0057217241 0.22571638 0.78244919 0.58036667 0.0028178105
-0.05525808 0.053369965 0.0048955614 0.32472172 0.83815914 0.43822959 0.0026645674
-0.052486002 0.052301422 0.0046538417 0.36792544 0.81856889 0.44110754 0.002265353
-0.050214253 0.051445186 0.0040669432 0.41409141 0.82070869 0.39365652 0.0023639747
0.0535914 0.051239539 0.0034462984 -0.4835214 0.78221655 0.39286685 0.0021760452
0.055675697 0.052029226 0.0043354956 -0.45770022 0.77519512 0.43541133 0.0038938595
0.058202367 0.05316329 0.0049056634 -0.42619559 0.74222684 0.51716214 0.0064049191
0.060445119 0.053802252 0.005734961 -0.37155458 0.64917165 0.66371936 0.0029744571
0.070932142 0.052842822 0.0049115545 0.67872697 0.13230175 0.72237533 0.0082737347
0.072085604 0.052838374 0.0031270543 0.8053726 0.067577481 0.58890432 0.0019681361
-0.075187288 0.055621762 0.0032551771 -0.80511624 0.15549907 0.57237035 0.039678197
-0.073545702 0.05557169 0.0046178605 -0.58593184 0.19127782 0.78746223 0.019136434
-0.070983745 0.056006134 0.0057638753 -0.26532465 0.27572176 0.92389411 0.0127445
-0.067252271 0.056653183 0.0057726237 0.056470469 0.54772782 0.83474857 0.0063416925
-0.064357601 0.056213353 0.0053601009 0.23081778 0.66153586 0.71350783 0.006257819
-0.061489519 0.055524413 0.0047485386 0.30202359 0.76199299 0.57284248 0.0074884477
-0.058601886 0.054702278 0.0044764522 0.26460609 0.83021778 0.49063432 0.0038081678
-0.056189511 0.054308269 0.0037555986 0.33085045 0.85783696 0.39326039 0.0029544567
0.059177738 0.054509267 0.0038247204 -0.48709553 0.72859085 0.48155308 0.0046626106
0.061493289 0.05552147 0.0045645521 -0.42797214 0.67282242 0.60344839 0.0055793249
0.064047895 0.056352314 0.0054720715 -0.29615825 0.55672371 0.77611148 0.0076600313
0.067464747 0.056831732 0.0058785737 0.0013077406 0.39443883 0.91892123 0.012853249
0.06975349 0.055958889 0.0054323776 0.17007862 0.35387456 0.91969883 0.012053617
-0.07510832 0.057174496 0.0030249807 -0.80885863 0.44364563 0.38590968 0.045242779
-0.073196389 0.057969157 0.0040442161 -0.50871986 0.63794404 0.5781275 0.019236578
-0.070543252 0.058646664 0.0045758411 -0.19444942 0.66467977 0.72138077 0.026750945
-0.067585371 0.058368418 0.0045143622 0.18827461 0.66634852 0.72147924 0.0088594565
-0.064796276 0.057773959 0.0040073381 0.34209558 0.70329046 0.62317985 0.0062239394
-0.062678292 0.057201795 0.003266515 0.43218309 0.75884467 0.48720899 0.011267783
0.062555887 0.057418779 0.0034262503 -0.5464617 0.59971279 0.58457184 0.0077651278
0.064580046 0.058393747 0.0042678136 -0.49354106 0.48666754 0.72081339 0.016080821
0.067311041 0.058541138 0.0052153226 -0.13486601 0.39497107 0.90874034 0.012135546
0.069967553 0.058547057 0.0046648565 0.073234119 0.35310674 0.93271244 0.010905294
-0.069495276 0.060094967 0.0032203766 -0.11618412 0.88969302 0.44152859 0.027474431
-0.068572946 0.060095146 0.0032343797 0.076648936 0.87713754 0.47408307 0.032630648
0.065422185 0.060932089 0.0034157776 -0.58628458 0.32847282 0.74052417 0.015847215
0.067281149 0.061523143 0.0040750448 -0.31685603 0.31366408 0.89510733 0.023460127
0.069954872 0.061661065 0.0039237798 0.063636824 0.22455497 0.97238135 0.012964074
0.0659445 0.063233681 0.0030463547 -0.66545165 0.3679511 0.64945066 0.01411486
0.067681126 0.06433975 0.0033981437 -0.26621202 0.22411411 0.93749887 0.021550337
0.070342951 0.064614274 0.0033069754 -0.022830246 0.11615758 0.99296838 0.012210285
0.072032452 0.064997211 0.0030119335 0.18745287 0.043595418 0.98130572 0.014099211
0.068307653 0.066497207 0.003095536 -0.3428404 0.15365379 0.92674214 0.026089681
0.070715792 0.067425244 0.0031273616 -0.11206891 0.01456251 0.99359363 0.010320804
0.072418571 0.068173133 0.0031763585 0.019960674 -0.042472366 0.99889827 0.0097267423
0.070813455 0.070695378 0.0033947416 -0.28452066 -0.085548304 0.95484519 0.013617138
0.07268402 0.070609309 0.0035643328 -0.14842869 -0.13809341 0.97923398 0.0093947714
0.068972327 0.074732587 0.0031323158 -0.54905498 0.16010505 0.82030785 0.052683115
0.070455633 0.073630668 0.0037817114 -0.37959406 -0.0008003859 0.92515284 0.029316461
0.072890729 0.07357765 0.0043266676 0.068803735 -0.011156353 0.99756783 0.059614439
0.07537318 0.074396156 0.0032828881 0.53791457 0.50899625 0.67199022 0.079471141
0.068929926 0.075935178 0.0031644995 -0.54686612 0.39514002 0.73810697 0.087002695
0.070384391 0.075870335 0.0038853483 -0.32795131 0.30730364 0.89331543 0.079252101
0.073089868 0.075581677 0.0041072317 0.098528765 0.63397586 0.76705068 0.061058406
0.075132057 0.075174794 0.0031860974 0.49751604 0.59452885 0.63167495 0.071376666
-0.013083888 0.0028911028 0.0061146207 -0.16271633 -0.86816865 0.46883535 0.0011235824
-0.011113817 0.0026953437 0.0062881345 -0.11926392 -0.85241377 0.50908434 0.00090047979
-0.007490369 0.0024994451 0.0066882488 -0.084164806 -0.83735681 0.54013872 0.0012145293
-0.0042653903 0.0021779654 0.0066022398 -0.045596182 -0.83704031 0.54523802 0.0013603079
-0.0013714172 0.0025859547 0.0075384723 -0.025425691 -0.84719837 0.5306679 0.0017501516
0.0013904147 0.0024059773 0.0072570201 0.011941696 -0.84088522 0.54108173 0.0013251326
0.0046219872 0.0024734444 0.0071864445 0.051327355 -0.848288 0.52704173 0.0013083846
0.0069431663 0.0023237327 0.0066649122 0.062316582 -0.84591675 0.52966172 0.00109207
0.010036433 0.0026680217 0.006750185 0.088820554 -0.84647036 0.52497506 0.00075921055
0.013146862 0.0027437173 0.0062576383 0.10585646 -0.83507699 0.53985256 0.0003707743
-0.024332359 0.0059702895 0.0065355618 -0.28282052 -0.84719718 0.44974384 0.001734134
-0.022145692 0.0055413945 0.0069813496 -0.25377366 -0.8538627 0.45444182 0.0010156535
-0.019453721 0.0050704544 0.0074786637 -0.21835266 -0.84513885 0.48791641 0.0012493929
-0.016511878 0.0044248663 0.0075818873 -0.18798892 -0.84302771 0.50394887 0.0012537597
-0.013449434 0.0039822776 0.0078611691 -0.15071574 -0.83346123 0.53162694 0.0010858702
-0.010434008 0.0035705278 0.0080104638 -0.10442114 -0.82998109 0.54793024 0.0011590109
-0.0076616798 0.0033835287 0.0082007796 -0.076673009 -0.82329679 0.5624088 0.0015137678
-0.0046859151 0.0031808794 0.0082389675 -0.054382954 -0.79607743 0.60274637 0.001330185
-0.0016222006 0.0032671008 0.0085606584 -0.019416505 -0.81521964 0.57882637 0.0015269393
0.0017904059 0.0033651756 0.0087556597 0.014487389 -0.81535351 0.5787822 0.0017400018
0.0042840187 0.0032477919 0.0084809177 0.039176732 -0.8238284 0.56548381 0.0012498493
0.00717883 0.0034779178 0.0085143121 0.060687326 -0.7855196 0.61585379 0.0010171849
0.010682794 0.0036502948 0.0082788635 0.097418882 -0.81748372 0.56765294 0.0010606776
0.013613952 0.0038681356 0.0079665491 0.11520113 -0.82605165 0.55169505 0.00040190737
0.016603179 0.0039621056 0.0073816688 0.1283101 -0.81998968 0.55781138 0.00039266501
0.019650087 0.0045877234 0.0075005796 0.15818 -0.80171275 0.57639903 0.00068361603
0.022448059 0.0050209607 0.0073992754 0.163774 -0.79091001 0.58960962 0.00061961322
0.02528617 0.0053767832 0.0071443454 0.17063691 -0.77463603 0.60895157 0.0010464417
0.028000722 0.0055949874 0.0065447865 0.18380415 -0.75570989 0.62858462 0.0009542575
-0.03127848 0.0085377926 0.0069452841 -0.31791249 -0.84343588 0.43306777 0.0012600436
-0.028431877 0.0078566717 0.0075283065 -0.28557098 -0.83906001 0.46306321 0.0010850108
-0.025479831 0.006924781 0.0076124086 -0.27183405 -0.84509212 0.46035385 0.00077607739
-0.022872107 0.0064250841 0.0081789987 -0.24532713 -0.82883084 0.50284594 0.0011856515
