# .PCD v0.7 - Point Cloud Data file format
VERSION 0.7
FIELDS x y z normal_x normal_y normal_z curvature
SIZE 4 4 4 4 4 4 4
TYPE F F F F F F F
COUNT 1 1 1 1 1 1 1
WIDTH 569
HEIGHT 1
VIEWPOINT 0 0 0 1 0 0 0
POINTS 569
DATA ascii
0.072063901 0.05779976 0.0031206759 0.80006075 0.006696885 0.59988165 0.011840925
-0.06959261 0.060099848 0.0033569236 -0.1200984 0.87534851 0.46833891 0.026119282
-0.068432793 0.060082231 0.0033355167 0.11132398 0.84666461 0.52035189 0.025644785
0.065362222 0.061108354 0.003539515 -0.61441505 0.31157479 0.72485536 0.018115144
0.067434132 0.061506134 0.0043063462 -0.18871997 0.27591908 0.94247198 0.029351315
0.070334069 0.061520398 0.0038852638 0.27560538 0.1556821 0.94858032 0.016668003
0.072075173 0.061141841 0.0030613081 0.55994344 0.091985673 0.82340884 0.016725518
0.065849826 0.063316859 0.0030858822 -0.63868678 0.28179935 0.7160086 0.012542358
0.067602165 0.06439776 0.0035290227 -0.22506224 0.2105936 0.95131344 0.021259876
0.070458703 0.064497359 0.0034007032 0.13197452 0.042582471 0.99033803 0.015619944
0.072124504 0.065035582 0.0030487627 0.27909273 0.01733887 0.96010756 0.017718291
0.068239905 0.066879429 0.0031711506 -0.30844563 0.1348635 0.94163316 0.020055251
0.07055334 0.067415692 0.0032352905 0.020644685 -0.024033414 0.99949801 0.015708463
0.072459422 0.067911886 0.0032141358 0.17465039 -0.066063486 0.98241174 0.01592122
0.068703704 0.069217473 0.0030412367 -0.28892511 0.08246123 0.95379364 0.02276
0.070710123 0.070502244 0.003500632 -0.10584363 -0.10212803 0.9891243 0.023026096
0.073014721 0.070650332 0.003567843 0.14228588 -0.18421303 0.97253293 0.01973881
0.068898529 0.074597344 0.0031485234 -0.56989968 0.11808272 0.81318563 0.039081838
0.070493795 0.073494531 0.0039716596 -0.34243429 -0.092790715 0.9349485 0.019577984
0.073313303 0.07352902 0.0043027159 0.28261068 -0.026401395 0.95887125 0.061019395
0.075388283 0.073990479 0.0033620154 0.56974286 -0.013863747 0.82170612 0.073118821
0.068853803 0.075877108 0.0032584171 -0.52098918 0.32879663 0.78769481 0.069216974
0.070433594 0.075816788 0.0041564521 -0.24718267 0.29371092 0.92338216 0.07945627
0.073073968 0.075478166 0.0043900432 0.16206408 0.52850598 0.83331662 0.053409785
0.075115234 0.075123608 0.0032330081 0.44111779 0.68879342 0.57530755 0.069978975
-0.01322891 0.0029096189 0.0061829994 -0.15818408 -0.85488063 0.49412242 0.0010186633
-0.010470243 0.002674866 0.0065790759 -0.11600861 -0.86117125 0.49490005 0.0010180669
-0.0073213726 0.0024452941 0.0068257116 -0.076429442 -0.86129338 0.50232697 0.0012222003
-0.0043612216 0.0023118386 0.0069797137 -0.03935333 -0.8640036 0.5019452 0.0015082335
-0.0014256291 0.0025641348 0.0075742761 -0.020526435 -0.85011351 0.52619934 0.0016785669
0.0014965427 0.0023030776 0.00713414 0.014592871 -0.84500569 0.53455812 0.0014722521
0.0045206328 0.0024299314 0.0071913227 0.04605782 -0.85170758 0.52198941 0.0013846406
0.0071284487 0.0024346297 0.0069118398 0.061489776 -0.84692395 0.52814656 0.0011090237
0.010237092 0.0026253054 0.0067130178 0.090515845 -0.85010707 0.51877248 0.00065535167
0.013154181 0.0027280024 0.0063058576 0.10700459 -0.83644795 0.53749871 0.00040588921
0.015353208 0.0028275899 0.0060683489 0.12442903 -0.87075853 0.47570688 0.0032340765
-0.024351163 0.00581398 0.0063838349 -0.27623579 -0.85574609 0.43748423 0.00084421289
-0.022088379 0.0054111164 0.006928145 -0.24867325 -0.85194892 0.46080875 0.00074706739
-0.019531637 0.0050729956 0.0076104929 -0.21617918 -0.84263271 0.49319029 0.00091300788
-0.016572027 0.0043910658 0.0076610907 -0.17866682 -0.84704131 0.50059879 0.0010012644
-0.013529679 0.0039290194 0.0078948271 -0.15521395 -0.84025943 0.51949281 0.0010402731
-0.010582567 0.003497011 0.0079811802 -0.11170936 -0.84046096 0.53023231 0.0012273469
-0.0075903516 0.0033807303 0.008336287 -0.065025426 -0.83117914 0.55218917 0.0014360483
-0.004561312 0.0032379753 0.0084646996 -0.053200103 -0.81567347 0.57606125 0.001401813
-0.0017718367 0.0031779113 0.0085426318 -0.017566781 -0.82758069 0.56107187 0.0014928544
0.0017651636 0.0033548723 0.0088160392 0.014385174 -0.82300735 0.56784862 0.0019898417
0.0041659619 0.0032558704 0.0085746776 0.038611133 -0.82106888 0.56952178 0.0013791226
0.0076749953 0.0034464928 0.0085038068 0.06844423 -0.82555449 0.56015635 0.001249851
0.010660969 0.0036258437 0.0083159031 0.096586965 -0.81833756 0.5665639 0.0010845918
0.013612202 0.0038087973 0.00795398 0.11469872 -0.82671505 0.55080527 0.00040084368
0.016632963 0.0039974246 0.0075040571 0.12749091 -0.81793737 0.56100321 0.00035109132
0.019603802 0.004536421 0.0075212945 0.15789288 -0.79779679 0.58188498 0.00073381048
0.022577936 0.0050144992 0.0074450057 0.16859522 -0.77796769 0.6052618 0.00084043748
0.0251809 0.0053614527 0.0072262562 0.17943519 -0.77322906 0.60821027 0.0014045846
0.028029291 0.0055773384 0.0065735304 0.20646393 -0.78025562 0.59040141 0.0016277647
0.030186726 0.005848154 0.0060720597 0.27776864 -0.79855323 0.53400135 0.0045288126
-0.033281282 0.0088652447 0.0063431999 -0.33606514 -0.85271096 0.39993027 0.0017481351
-0.031127963 0.0084728552 0.0070790416 -0.30881244 -0.83778334 0.45028204 0.00077885593
-0.028455291 0.0078871772 0.0077471854 -0.28491729 -0.82996625 0.47956041 0.00077018054
-0.025590599 0.0069446601 0.0077512958 -0.27244675 -0.83846015 0.47197184 0.00059752294
-0.022946591 0.0063987356 0.0082578948 -0.24680264 -0.8292374 0.50145167 0.00079420244
-0.020229671 0.0060630785 0.0089474814 -0.22027536 -0.80777442 0.54678994 0.00091590005
0.020889642 0.0060159285 0.008962702 0.16231768 -0.75311077 0.63755566 0.00098817574
0.023157286 0.0063052233 0.0087661725 0.16736226 -0.74478453 0.64597666 0.00067152164
0.025683422 0.0064892736 0.0084000202 0.17744248 -0.74033922 0.64839202 0.00075588678
0.028428849 0.0069819978 0.0082155596 0.19727695 -0.74122661 0.64161122 0.0015916597
0.031560779 0.0076401127 0.0079404647 0.21861067 -0.73525679 0.64156586 0.0019867863
0.034336459 0.0081174243 0.0074165566 0.2521151 -0.75802565 0.60152721 0.002260067
0.037019659 0.0085935444 0.0066447696 0.29452839 -0.75612324 0.58440626 0.0017283096
-0.039435249 0.011612155 0.0063676694 -0.40231025 -0.82256353 0.40191504 0.00088283495
-0.037351321 0.011201532 0.0074625839 -0.37244767 -0.8114475 0.45037279 0.00095844094
-0.03441228 0.010116974 0.0077910679 -0.33484629 -0.82327682 0.4583593 0.00062974991
-0.031836983 0.0094066523 0.0083159963 -0.30252817 -0.81590122 0.49272904 0.00087915809
-0.029644879 0.0090522245 0.0089585567 -0.27894118 -0.77990466 0.56030393 0.0011348589
0.035073787 0.0093341572 0.0086740069 0.23881356 -0.70038211 0.67263138 0.0019369428
0.037417296 0.0098053599 0.0081691435 0.28016853 -0.72892791 0.62463558 0.0023881395
0.040595978 0.010891165 0.007830807 0.30901489 -0.73174292 0.6075049 0.0018871267
0.04323744 0.011628116 0.0071094129 0.36200836 -0.73506916 0.57325679 0.0013013751
0.045155309 0.011976289 0.0061321193 0.42224994 -0.79392993 0.4374702 0.0029745381
-0.045237452 0.014839534 0.0063399174 -0.4795796 -0.78439957 0.39334559 0.0012611811
-0.043175042 0.014223329 0.0074731801 -0.45633972 -0.76478034 0.45482427 0.0010800159
-0.040641904 0.01309327 0.0079743862 -0.41294453 -0.77774948 0.47390133 0.00092701666
-0.038414944 0.012216656 0.0084086442 -0.38656512 -0.79452991 0.46828371 0.00087790715
0.04177767 0.012141925 0.0088413395 0.34682116 -0.70211577 0.62189108 0.0035727313
0.043836284 0.012832569 0.0083943587 0.35665086 -0.70508832 0.61290336 0.001107733
0.046503987 0.013878993 0.0078507401 0.38943535 -0.70684856 0.59051269 0.0012140906
0.048867311 0.014544144 0.0068311202 0.44129589 -0.71784717 0.53847325 0.0013020821
-0.048771191 0.017487822 0.0068584695 -0.51852262 -0.73704088 0.4334802 0.00093398604
-0.046745572 0.016749978 0.007913433 -0.48620838 -0.72750765 0.48408064 0.00083872385
-0.044473082 0.015419165 0.0082261786 -0.46195856 -0.74491441 0.48134899 0.0015874432
0.047728222 0.015281752 0.0087951431 0.38448933 -0.65202165 0.65347975 0.0021004293
0.04981339 0.01605121 0.0081389025 0.44009933 -0.68754566 0.57757556 0.0015122459
0.052358583 0.017148256 0.007327849 0.47368485 -0.6769461 0.56335306 0.0014939699
0.054232374 0.017730203 0.0063480497 0.51899344 -0.71172857 0.47337967 0.0012133749
-0.051973656 0.020133533 0.0073344004 -0.53458321 -0.70357788 0.46818683 0.00086244917
-0.049947672 0.019100223 0.0080712764 -0.51736963 -0.70844913 0.48002958 0.00098238862
-0.047849469 0.01807107 0.0088555608 -0.50135666 -0.71783739 0.48306417 0.00080304831
0.05301106 0.018450836 0.0084441816 0.47816145 -0.64987385 0.59078383 0.0015969902
0.055350587 0.019742042 0.0078024003 0.50264663 -0.63232815 0.58949763 0.0012210433
0.057480466 0.020576924 0.0067052627 0.55255044 -0.65689367 0.51300943 0.0013899573
-0.057200376 0.023654839 0.006254877 -0.6086002 -0.65875357 0.44232273 0.00076405902
-0.055149715 0.022898845 0.0077757193 -0.56473613 -0.65958893 0.49599952 0.0011943781
-0.053283993 0.021691432 0.0082820226 -0.54049605 -0.68100727 0.4940578 0.00099332922
0.0562202 0.021207966 0.0086949095 0.50005227 -0.58484983 0.63866913 0.0015212354
0.058442168 0.022398088 0.0078265769 0.54889554 -0.5851683 0.59690183 0.0010191026
0.060504027 0.023518482 0.0068701417 0.61083895 -0.57655275 0.54264414 0.0012414271
-0.060217917 0.026732167 0.0063626044 -0.65128827 -0.59889895 0.46598676 0.00079170713
-0.058367401 0.02569012 0.0075593116 -0.61677223 -0.62024087 0.48465794 0.00097277702
-0.056370571 0.024456898 0.0084726606 -0.58873367 -0.63820159 0.49607587 0.0013569281
0.059690759 0.024336968 0.0085499501 0.55349022 -0.51209706 0.65681446 0.0015617093
0.061536193 0.025739618 0.0079175895 0.60475606 -0.50343937 0.61710525 0.0017355995
0.063397162 0.0264675 0.0064842822 0.65791106 -0.4920741 0.57010192 0.0014323149
-0.061252516 0.028801288 0.0074368208 -0.67452556 -0.53314495 0.51065814 0.0013562465
-0.059559379 0.027611829 0.0083301794 -0.63968027 -0.56795174 0.51791883 0.0013569628
-0.00066676614 0.029950174 0.0089110537 0.080072314 0.78858525 0.60968995 0.00069622463
0.0016502645 0.029859755 0.0088743037 0.048941564 0.80626428 0.58952749 0.0018567048
0.0040613282 0.029816674 0.0088761039 0.012203868 0.81485528 0.5795359 0.0022465552
0.0074352627 0.029889613 0.0087636877 -0.022224439 0.78049409 0.62476802 0.0014809124
0.0099625662 0.029898444 0.0089290524 -0.076267906 0.77253366 0.63037688 0.0010654361
0.012236084 0.029983517 0.0089853229 -0.089071497 0.75062692 0.65469503 0.0019363251
0.062534027 0.027599091 0.0085044848 0.61773652 -0.45157528 0.6438024 0.0013656429
0.064154595 0.028734131 0.0075648366 0.6753487 -0.44323528 0.58944607 0.0014978186
0.066299826 0.029973419 0.0060053244 0.72628289 -0.47927469 0.49275658 0.0041537038
-0.063767128 0.032014661 0.0072382963 -0.70058805 -0.47004285 0.53687632 0.001299883
-0.062317014 0.03100517 0.0082537578 -0.68874419 -0.47351542 0.54901236 0.0019069992
-0.015223645 0.032888353 0.0088489046 0.25010052 0.78090703 0.57239312 0.0015211157
-0.013188812 0.032639053 0.0084029622 0.21855925 0.83213818 0.50968426 0.0019188911
-0.010390804 0.032285161 0.0078491652 0.19148333 0.8432036 0.50233632 0.001362247
-0.0074901679 0.031824186 0.007596923 0.16045789 0.85603791 0.49137792 0.0015033915
-0.0045193899 0.03135347 0.0075954874 0.12380591 0.8495962 0.51269716 0.0021929808
-0.0015225821 0.031039901 0.0075116768 0.089211799 0.85417289 0.51227915 0.0021142908
0.0014702813 0.030824043 0.0074768406 0.047917098 0.85682994 0.51336765 0.0023059414
0.0045161587 0.030752262 0.0074608289 0.00073788577 0.85380435 0.52059352 0.0022293865
0.0075235344 0.030790327 0.0074221301 -0.031095801 0.85167783 0.52314228 0.0021844332
0.01051359 0.030918421 0.0075170039 -0.078820236 0.84759533 0.52475667 0.0023019069
0.013470569 0.031225927 0.0075861155 -0.13204536 0.84136093 0.52409524 0.0030185615
0.01649495 0.031778384 0.0075836717 -0.18495411 0.84649193 0.49924275 0.0019801771
0.019372372 0.032314505 0.0078874575 -0.21341597 0.82629937 0.52123213 0.0016832645
0.022048242 0.032655146 0.0084869135 -0.23107228 0.78474838 0.57513094 0.0014035687
0.024210632 0.032930914 0.0089479852 -0.24152933 0.7348429 0.63377404 0.0016733131
0.065169953 0.031195747 0.0081761563 0.67412382 -0.36774659 0.64056188 0.0017878632
0.066590562 0.031983688 0.0069824648 0.71586525 -0.37200615 0.59088778 0.0015497007
-0.06637834 0.035525963 0.0065577496 -0.75354517 -0.40277284 0.51956111 0.0021874472
-0.064815648 0.034386743 0.0077954782 -0.70969415 -0.40139857 0.57897609 0.0019207292
-0.062970154 0.033303052 0.0089806169 -0.67893767 -0.40496874 0.6124084 0.0015363893
-0.024258092 0.035915181 0.0089707039 0.32343927 0.76480258 0.55719298 0.0010137573
-0.021988234 0.035560776 0.008216057 0.30664498 0.8171646 0.48806843 0.0014303726
-0.019438906 0.034953598 0.0076748733 0.2948837 0.83794057 0.45923764 0.0013240752
-0.016522942 0.034052487 0.0075760353 0.25116956 0.84111553 0.47899744 0.0016704939
-0.013721141 0.033561178 0.0070299893 0.22253516 0.85346407 0.47125071 0.0017075591
-0.010989479 0.03322475 0.0063787363 0.19596584 0.86990017 0.45262688 0.0012909553
0.01986322 0.033293512 0.0064483806 -0.22449668 0.85227752 0.47246617 0.0016278839
0.022690766 0.033662815 0.0071735443 -0.23762491 0.83679873 0.49325684 0.0018986192
0.025507325 0.034268718 0.0075821471 -0.25366196 0.82274461 0.50867176 0.0022966957
0.028384224 0.035109702 0.0077437186 -0.28387907 0.82255888 0.49275714 0.0017648702
0.031002609 0.035587367 0.0084565487 -0.29726651 0.7760914 0.55616063 0.0018991261
0.033018384 0.035871077 0.0088226078 -0.32375136 0.7209757 0.61268198 0.0016393506
0.065836057 0.033473887 0.0087309806 0.69297427 -0.30327427 0.65407288 0.0021139937
0.067222498 0.034663204 0.0077104364 0.71943051 -0.2845372 0.63360745 0.0018009966
0.069081061 0.035863984 0.0060623772 0.80160713 -0.30673817 0.51316446 0.0085897045
-0.066925809 0.037827097 0.0073375222 -0.72500694 -0.3119652 0.61403799 0.0017148395
-0.065601379 0.037163846 0.0085776281 -0.69935101 -0.2964673 0.65039629 0.0018365107
-0.030398428 0.038820956 0.0086935498 0.37163594 0.78116596 0.50166363 0.0015050885
-0.028198591 0.038271263 0.0079602189 0.35924655 0.80666435 0.46929163 0.0014862345
-0.025477126 0.037291601 0.0075867102 0.33322743 0.81306666 0.47737005 0.0015611919
-0.022789387 0.036509119 0.0070579671 0.31650367 0.83113086 0.45721659 0.0014782553
-0.020608684 0.036113463 0.0061822282 0.31343195 0.86269343 0.39688855 0.0016781514
0.029338077 0.036218815 0.0064229872 -0.30288914 0.83613867 0.45730767 0.0017005695
0.031743076 0.036652338 0.0071806456 -0.31306693 0.81644851 0.48518139 0.0021437313
0.034487937 0.037539098 0.0076094256 -0.36211562 0.7969231 0.48351413 0.0029084643
0.037009452 0.038420815 0.008179686 -0.39500386 0.75152576 0.5283758 0.0030709838
0.039206624 0.038931124 0.0089271469 -0.38774759 0.68159342 0.62054992 0.0035422256
0.067939967 0.037438624 0.0079952963 0.72052383 -0.18814963 0.66741687 0.0020873579
0.069430642 0.038043991 0.0063610836 0.77427804 -0.2080896 0.59765565 0.0014305849
-0.069193535 0.041509811 0.0062689763 -0.77644771 -0.27607456 0.56649065 0.0037789005
-0.067648202 0.040622406 0.0077629997 -0.71561688 -0.21519119 0.66451883 0.0021268034
-0.065877587 0.0393879 0.0089638755 -0.67750108 -0.20041406 0.70769095 0.0031146882
-0.036488164 0.041768279 0.0086737201 0.38767347 0.75682753 0.52623326 0.0012078005
-0.034259524 0.041158129 0.007876399 0.39052519 0.79075235 0.47138181 0.0012055803
-0.031526949 0.040046599 0.0075177713 0.37050435 0.79851609 0.47444567 0.001459753
-0.029102361 0.039368663 0.0066840476 0.37844682 0.81355536 0.4414812 0.0012572878
0.035858467 0.03911477 0.0060923477 -0.46917143 0.79323465 0.38814566 0.0039394638
0.03792027 0.039645974 0.0071129315 -0.43003261 0.76180661 0.4844819 0.0021942065
0.04042026 0.040744312 0.0076477341 -0.43762267 0.75211883 0.49275124 0.0018994302
0.042764489 0.041550577 0.0084611541 -0.41773021 0.68760717 0.59388375 0.0018130494
0.068259418 0.040432416 0.0083771329 0.70843023 -0.10445531 0.69800842 0.002010806
0.069549426 0.040757157 0.0069574071 0.76817763 -0.11408245 0.62999076 0.0019018464
-0.069491424 0.043786135 0.0067310315 -0.71504307 -0.16605541 0.67907214 0.0025382249
-0.068005234 0.04352805 0.0081872651 -0.67745972 -0.11359905 0.72673476 0.0026411954
-0.04237501 0.044728354 0.0087064467 0.39441085 0.73605222 0.55015206 0.0016977726
-0.040293347 0.044191021 0.0079012038 0.39507586 0.7762081 0.49134102 0.0014053878
-0.037604276 0.043063629 0.0074901939 0.38571203 0.78049284 0.49199304 0.0013051587
-0.035324931 0.042357109 0.0066798911 0.416614 0.800475 0.43089736 0.0013342591
0.04160117 0.042228881 0.0064770263 -0.45314711 0.75117677 0.47999075 0.0012184001
0.043741111 0.042980403 0.0073183496 -0.44213554 0.72997344 0.52120531 0.002428045
0.046273168 0.044087037 0.007885064 -0.41823342 0.72097015 0.55252403 0.0025980063
0.048502967 0.044736635 0.0086682364 -0.38779983 0.67290074 0.62993318 0.0019624473
0.068365969 0.043451741 0.0085661076 0.68319386 -0.014785151 0.73008734 0.0030616219
0.069701836 0.043584324 0.0071284352 0.75636458 -0.03543777 0.65318978 0.0021968647
-0.069865547 0.046676192 0.0069115399 -0.67741823 -0.084188096 0.73076463 0.0052499273
-0.06804055 0.046515089 0.0084260767 -0.58259249 -0.01546974 0.81261724 0.0030247131
-0.048465166 0.047771867 0.0086536808 0.34239271 0.72171438 0.60157752 0.0021082161
-0.046274632 0.047233474 0.0079391981 0.37373933 0.75745696 0.53532952 0.0023340906
-0.043595579 0.046142131 0.0075336858 0.38439178 0.76717854 0.51349777 0.0017694252
-0.041194871 0.045418575 0.0066612256 0.41790211 0.78024626 0.46537477 0.0013531321
0.047171444 0.045505356 0.0067091864 -0.45595068 0.73358142 0.50395161 0.0019364911
0.049604628 0.046332341 0.0075085773 -0.39789596 0.72124267 0.56699902 0.0020362295
0.052172791 0.047237992 0.0081960978 -0.36477667 0.68293315 0.6328826 0.0025280321
0.054358218 0.047800902 0.0088269841 -0.32368159 0.64936328 0.68815517 0.0021732517
0.068205185 0.046627585 0.0085802088 0.5566228 0.094775893 0.82534146 0.0040430301
0.069669403 0.04650433 0.0072054965 0.7178238 0.049185768 0.69448519 0.0040854649
-0.070155673 0.049593706 0.0068980553 -0.58081114 0.0041092196 0.81402802 0.0089789303
-0.067710966 0.049653176 0.0083765266 -0.4496263 0.12798294 0.88400036 0.0076658875
-0.06560082 0.050728172 0.0088887978 -0.19905876 0.30287907 0.9320085 0.007160245
-0.057247508 0.050927233 0.008888918 0.15205581 0.68957072 0.70807576 0.0030062997
-0.055082623 0.050589513 0.0086208889 0.21909943 0.69593149 0.68386751 0.0018978788
-0.052350473 0.050075587 0.0079527246 0.31360471 0.74247491 0.59193158 0.0027098365
-0.049606174 0.049173672 0.0075221215 0.34095162 0.75370127 0.56185967 0.0015377315
-0.04716694 0.04849929 0.0067635798 0.38965261 0.76845425 0.50759125 0.0016079178
0.05061971 0.048059791 0.0061420705 -0.42916334 0.72580838 0.53760672 0.0023450824
0.052849468 0.048742291 0.0069522578 -0.42305797 0.70208889 0.5727942 0.0022870519
0.055468414 0.049572844 0.0076553668 -0.33541155 0.66881436 0.66346544 0.0019498329
0.058301184 0.050264269 0.008325994 -0.26579833 0.63364238 0.72653192 0.0029596367
0.061038405 0.050742779 0.0087855281 -0.14408182 0.55955112 0.81617582 0.0045257253
0.064959608 0.050741151 0.0089204907 0.15203933 0.3790459 0.91280234 0.0085410187
0.067608871 0.049708452 0.008385445 0.4328768 0.21170697 0.87624067 0.0062811789
0.069648117 0.049449798 0.0069714147 0.63681293 0.12640861 0.76058537 0.0052029849
-0.070285857 0.052573372 0.0067482833 -0.44001389 0.10445707 0.89189494 0.010156331
-0.067478575 0.052544683 0.0077729467 -0.23812672 0.30227432 0.92299831 0.014366664
-0.064506538 0.052574307 0.0081306081 -0.075497016 0.50118619 0.86203974 0.010841724
-0.061500564 0.052720919 0.0079091042 0.090589337 0.64718169 0.75693423 0.0040617343
-0.058527689 0.052486286 0.0076346123 0.1605428 0.72538078 0.66936433 0.0024851728
-0.055613071 0.051990241 0.0072373319 0.26514116 0.74766809 0.60884523 0.0019057441
-0.053034101 0.051424697 0.0066313581 0.34796146 0.76103759 0.5474894 0.0016280963
0.056459088 0.051302329 0.0063637155 -0.40544617 0.69951594 0.58846486 0.0028158647
0.058716323 0.051958382 0.0069331154 -0.34217721 0.67865294 0.64988071 0.00288355
0.061503891 0.052529976 0.0075667887 -0.22327934 0.59199685 0.77439398 0.0040963269
0.064488739 0.052557316 0.0081059532 0.023664264 0.44309482 0.89616239 0.0095448187
0.067420192 0.052505866 0.0076685729 0.29898295 0.3164205 0.9002707 0.010363378
0.069534607 0.052471567 0.0065425169 0.57026875 0.19878444 0.79704344 0.0082944436
-0.070163973 0.055291325 0.006353253 -0.24112424 0.29643396 0.92411363 0.014738045
-0.067560419 0.055307414 0.0066719945 -0.039744582 0.44791472 0.89319253 0.010896443
-0.064672716 0.054880142 0.0066393237 0.12174159 0.59292376 0.79600275 0.0098388344
-0.061813831 0.05436359 0.0063940021 0.18197373 0.68961114 0.70094365 0.0053217206
-0.059585471 0.05413723 0.0060921367 0.23756152 0.75342113 0.61312401 0.0048554386
0.062280323 0.054446489 0.0063770958 -0.33676317 0.60194075 0.72405654 0.0062539163
0.064625986 0.055173058 0.0066570453 -0.15414841 0.4941048 0.85562766 0.011053178
0.067389138 0.055424187 0.0066152364 0.15433496 0.34688234 0.92512339 0.019128591
0.069337361 0.054803539 0.0061569754 0.40927541 0.26556614 0.87290794 0.011515394
0.066989109 0.057080943 0.0060638376 0.097753838 0.37043568 0.92369998 0.026366627
-0.018567018 0.0057553072 0.0091882804 -0.21044384 -0.79684716 0.56634611 0.00084537995
-0.016144162 0.005531651 0.0095890965 -0.16824518 -0.78340077 0.5983116 0.00096216705
-0.013390876 0.0053057531 0.0099519268 -0.13331747 -0.77753794 0.61454147 0.0010592332
-0.010461228 0.0050367424 0.010155492 -0.1004404 -0.76708156 0.63363838 0.0010763984
-0.0076218857 0.0050463923 0.010510763 -0.064301908 -0.73464465 0.67539805 0.0011039912
-0.0044832006 0.0050435858 0.01072939 -0.025411297 -0.72256923 0.69083136 0.0014441933
-0.0014578436 0.0048728376 0.010630751 -0.0046367124 -0.71973991 0.69422829 0.001207858
0.0014391103 0.0049779299 0.010742364 0.009769991 -0.71364707 0.70043731 0.0015972862
0.0044153067 0.0049073501 0.010557592 0.034663953 -0.71946633 0.69366181 0.001755164
0.0074631558 0.005011918 0.010460056 0.067455061 -0.70966232 0.70130539 0.0014854746
0.01030145 0.0051688761 0.010326922 0.089025572 -0.72085512 0.68734443 0.0012722067
0.013410836 0.0053736819 0.010110483 0.11414684 -0.72810948 0.67588985 0.0012912541
0.016387505 0.0054857237 0.0096619092 0.13844998 -0.74128217 0.65675902 0.0011506411
0.018687675 0.0056244405 0.009223965 0.15625995 -0.75117159 0.6413455 0.00092389277
-0.027801085 0.0087149292 0.0094846645 -0.27290916 -0.7919659 0.54617828 0.00095005264
-0.025333889 0.0082527157 0.0099406214 -0.24588232 -0.7859416 0.56730735 0.00087214552
-0.02232546 0.0079607144 0.010686188 -0.21123736 -0.75026739 0.6264804 0.0010368588
-0.019515594 0.007270785 0.010766253 -0.19246204 -0.75808346 0.62311149 0.0010367752
-0.016666871 0.0068480717 0.011071563 -0.14782517 -0.7363444 0.66026103 0.00085954444
-0.013543378 0.0065888823 0.0114271 -0.11397143 -0.72253245 0.68187785 0.0010200242
-0.010733507 0.0063174339 0.011560926 -0.080675013 -0.68926889 0.71999997 0.00078709255
-0.0077866782 0.0061813788 0.011711053 -0.050251752 -0.70849997 0.70391941 0.0013786691
-0.0050934642 0.0060431953 0.011731126 -0.02821127 -0.70427042 0.70937103 0.0020127189
-0.0019878009 0.0060973736 0.011845874 0.0049220901 -0.61739188 0.78664035 0.00067023071
0.0017335856 0.0061503495 0.011854474 0.011725802 -0.65527803 0.75529683 0.0021063068
0.0050034793 0.006241336 0.011838981 0.035583768 -0.64317906 0.76488858 0.001827013
0.0075876089 0.0063332329 0.011779625 0.054385208 -0.67113698 0.73933578 0.0015590815
0.010653227 0.0064570243 0.011596771 0.079945318 -0.68489724 0.72424066 0.0012998998
0.013590309 0.0067112767 0.011458625 0.10370132 -0.69182152 0.71458316 0.0015798814
0.016538601 0.0069503812 0.011191722 0.12775508 -0.6507386 0.7484771 0.0018880877
0.019566666 0.007381876 0.010974039 0.15872218 -0.6642465 0.73046827 0.0019881972
0.022451296 0.0077655762 0.01062968 0.17666261 -0.69495869 0.69700968 0.0012101922
0.025419539 0.0079532554 0.0099634677 0.1861925 -0.70569146 0.68361682 0.0003322509
0.028415378 0.008311931 0.0095447004 0.19193484 -0.6877352 0.70012945 0.00040398235
0.030852159 0.0086417049 0.0092627108 0.20462607 -0.68118018 0.70293784 0.00080524199
-0.036321431 0.01185625 0.0093784239 -0.35274017 -0.7716046 0.52934003 0.0011103911
-0.034204617 0.0113664 0.0099284491 -0.31497899 -0.76280439 0.56472802 0.00089256559
-0.031288899 0.010783909 0.010608224 -0.27504942 -0.74904746 0.60272366 0.0010139642
-0.028587908 0.01006418 0.01091555 -0.25203666 -0.75461322 0.60583532 0.00088432367
-0.025776546 0.0096435584 0.01149168 -0.21572471 -0.71992093 0.65967923 0.0010266697
-0.023468658 0.0092884656 0.011871653 -0.19861493 -0.70882338 0.6768468 0.001630027
0.023425933 0.0092398496 0.011831717 0.16379866 -0.65711296 0.73578024 0.0018918318
0.025670376 0.0094857197 0.011458466 0.18385679 -0.65550876 0.73246497 0.00074907456
0.028607538 0.0099706557 0.011021229 0.19512966 -0.64975959 0.73466796 0.00045359303
0.031594135 0.010385536 0.010556266 0.20265044 -0.6374414 0.74337155 0.000405898
0.034372658 0.010687225 0.010106051 0.21547064 -0.64425117 0.73383427 0.00088737893
0.037179887 0.011235687 0.0097786561 0.24578685 -0.64810193 0.72080004 0.0015947608
0.039854869 0.011676841 0.009232779 0.29198095 -0.66842824 0.68406928 0.0015176228
-0.042311016 0.014813639 0.0092903702 -0.43427119 -0.73753428 0.51715732 0.00085572217
-0.040377893 0.014356935 0.010055183 -0.38898072 -0.71734905 0.57801765 0.00078936794
-0.03765209 0.013584164 0.010799158 -0.34425715 -0.72977483 0.59069085 0.00077335734
-0.034619607 0.012651434 0.011326904 -0.29334912 -0.71605784 0.63340938 0.00088800245
-0.032498267 0.012207036 0.01187229 -0.27085653 -0.71073151 0.64922833 0.0011179608
0.03254376 0.012209044 0.011789157 0.20731464 -0.60714972 0.76706576 0.00035509991
0.03476363 0.012649307 0.01152755 0.20657605 -0.59947765 0.77327412 0.00035777589
0.03761645 0.013226868 0.011221602 0.21989511 -0.56807858 0.79305291 0.00045698445
0.040377505 0.013700938 0.010742485 0.25390273 -0.58538109 0.7699756 0.0011321007
0.043235101 0.014143948 0.010064559 0.31382409 -0.63105607 0.70942408 0.0021076021
0.045820139 0.014740325 0.0093912371 0.3656863 -0.65439051 0.66185087 0.0022295949
-0.045625545 0.0173692 0.009892555 -0.45777866 -0.68534678 0.56633776 0.00098143343
-0.043467037 0.016578417 0.010592105 -0.42131281 -0.69552529 0.58201379 0.00073725311
-0.040903669 0.015740167 0.01139498 -0.36920983 -0.67673445 0.63695723 0.00068021694
-0.03889652 0.015203058 0.011853322 -0.35931051 -0.66807622 0.65159041 0.0014546906
0.04117918 0.015326589 0.011720863 0.24545006 -0.56618762 0.78688359 0.00083452987
0.043795254 0.016089719 0.011356854 0.27658623 -0.54572946 0.790999 0.0013331893
0.046434067 0.016713046 0.010770744 0.32811031 -0.58057874 0.74516577 0.0021272211
0.049049318 0.017129732 0.0098342896 0.39438349 -0.62618375 0.67257386 0.0018925853
0.051249437 0.017798256 0.009103654 0.4378584 -0.64752483 0.62369192 0.0021313459
-0.051178347 0.020744994 0.0092538036 -0.50530499 -0.66858166 0.54558718 0.0012833815
-0.049195647 0.020162959 0.010263 -0.4858737 -0.65964335 0.57340872 0.0010499384
-0.046827845 0.019101797 0.010977396 -0.45315027 -0.66449201 0.59422666 0.0013685569
-0.044536356 0.018210949 0.011693502 -0.41965312 -0.64414436 0.63950706 0.001265764
0.047199823 0.018535327 0.01178183 0.30173662 -0.51989114 0.79916722 0.0014209504
0.04967561 0.019402657 0.011276172 0.35005578 -0.50856078 0.78665549 0.001465652
0.052174252 0.019798454 0.010258329 0.41941065 -0.55947167 0.71490282 0.0024531861
0.054351017 0.020474056 0.0094810352 0.4580552 -0.57804823 0.67531157 0.001532298
-0.054455262 0.023574291 0.0094880257 -0.54438102 -0.61196816 0.57371092 0.0011754169
-0.052281272 0.022747088 0.01051016 -0.50710768 -0.62078291 0.59788829 0.0013570802
-0.050075073 0.021712925 0.011256142 -0.47013873 -0.63030988 0.61780185 0.0012176352
0.050900556 0.021291122 0.011935012 0.36471438 -0.47988194 0.7979328 0.0012113543
0.052902158 0.022056155 0.011465928 0.38140577 -0.46169576 0.80085373 0.0014447108
0.055384263 0.022721695 0.010496613 0.43833563 -0.49112919 0.75276423 0.0018661048
0.057588842 0.023388572 0.009531795 0.51132417 -0.53809261 0.67007744 0.0014437704
-0.057456691 0.026503345 0.0095928889 -0.58018267 -0.55793715 0.59337533 0.0010193873
-0.055435799 0.025592867 0.010595426 -0.53996831 -0.56280184 0.62585014 0.0017570812
-0.053234082 0.024499347 0.011472693 -0.51761699 -0.58601481 0.62342542 0.00072428666
0.0025348533 0.026894584 0.01192341 0.034387156 0.6927374 0.72036958 0.0012297309
0.004600706 0.026857942 0.011903588 0.011162056 0.68501073 0.72844738 0.0011996835
0.007280611 0.026910441 0.011937542 -0.01555329 0.66439402 0.74722064 0.0026086445
0.009790103 0.026929101 0.011940702 -0.055234805 0.67403156 0.73663461 0.0013874652
0.056022529 0.025048582 0.011565287 0.41218641 -0.41179147 0.81273007 0.0014714991
0.058218613 0.025604505 0.010556907 0.48713502 -0.4340384 0.75783253 0.0020210368
0.060427699 0.026239516 0.0094159301 0.56984174 -0.48111922 0.66618663 0.0018279632
-0.060386509 0.029686039 0.009386478 -0.62864518 -0.49961668 0.59597689 0.0016132712
-0.058397435 0.028646857 0.010487354 -0.58615953 -0.47747931 0.65454608 0.0011725788
-0.056393716 0.02773378 0.011586675 -0.54322571 -0.4716174 0.69460988 0.0012598359
-0.012787674 0.029829534 0.011759326 0.20154704 0.70996165 0.67478389 0.0018945087
-0.010282831 0.029475024 0.011494798 0.16976649 0.68982929 0.70378619 0.0013842796
-0.0073630437 0.029143922 0.011147484 0.14303584 0.73011005 0.66819155 0.0016513016
-0.0044062091 0.028868526 0.010894366 0.11511383 0.74059165 0.66202176 0.0013216677
-0.0014785611 0.028657285 0.010690159 0.091018483 0.73491645 0.67202204 0.0024427385
0.0015151402 0.028452925 0.010618976 0.054458715 0.72948962 0.68182051 0.0025609888
0.0045196055 0.028380843 0.010588124 0.017714623 0.72885138 0.68444276 0.0020474917
0.0074982583 0.028402695 0.010564922 -0.025668098 0.72939301 0.68361318 0.0023925323
0.010494283 0.028511219 0.01063504 -0.074645191 0.71994078 0.69000965 0.0023990807
0.01344559 0.028717758 0.010781053 -0.11540826 0.69395351 0.71071053 0.0024115988
0.016414905 0.028964544 0.011070053 -0.14576021 0.66707051 0.73059624 0.0017977338
0.019359943 0.029333899 0.011405704 -0.17264675 0.67024904 0.72177517 0.0018969834
0.022016393 0.029706428 0.011742073 -0.18604581 0.66676891 0.72166896 0.0018617809
0.024040204 0.029784366 0.011956792 -0.18898313 0.66372722 0.72370684 0.0011750351
0.058935586 0.028181164 0.011469797 0.45228079 -0.34975192 0.82043636 0.0011436366
0.061245143 0.028772224 0.010248363 0.53850925 -0.38026139 0.75193685 0.0016125049
0.063390575 0.029828263 0.0091500217 0.62457842 -0.40631968 0.66693789 0.0020796345
-0.061090142 0.031761635 0.010145085 -0.63383055 -0.41312388 0.65390176 0.0016935831
-0.059274044 0.03118559 0.011447068 -0.58137655 -0.36648151 0.72642446 0.0016383169
-0.021622637 0.032760769 0.011732391 0.26391324 0.68563038 0.67842519 0.0016065883
-0.019271573 0.032328967 0.011281352 0.2499387 0.72821683 0.63814652 0.0012997551
-0.016412187 0.031868886 0.010694251 0.23539518 0.7596665 0.60621434 0.001055244
-0.013567408 0.031229824 0.010441258 0.20369872 0.75866002 0.61882293 0.0019753005
-0.010575462 0.030800698 0.010060172 0.18197435 0.75911647 0.62500197 0.0014675836
-0.0076656952 0.030459663 0.0096975174 0.14796515 0.76946551 0.62131244 0.0015158294
-0.0048395046 0.030198941 0.0094239106 0.11509777 0.77605176 0.62007749 0.0012430652
-0.0019748046 0.030046077 0.0090956176 0.091789857 0.77448201 0.62590104 0.0014651557
0.00031473022 0.03001797 0.0090812258 0.04816689 0.77425307 0.63104057 0.0010176568
0.011210249 0.030021572 0.0090741115 -0.081322074 0.78961569 0.60818899 0.0030276512
0.013858482 0.030185774 0.0092381993 -0.11514675 0.76059568 0.63893306 0.0016916211
0.016717372 0.030454591 0.009545044 -0.1609789 0.74436921 0.64807433 0.0016655885
0.019646183 0.03082674 0.0099589247 -0.19625913 0.73664701 0.64717346 0.0015635149
0.022590687 0.03123077 0.010384996 -0.20542027 0.71975631 0.66313905 0.0025680757
0.025443375 0.031708863 0.010802777 -0.22017963 0.67921221 0.70013684 0.0024325564
0.028322158 0.032185264 0.011262485 -0.22678159 0.66310167 0.71334863 0.0020157436
0.030978331 0.032638509 0.011718453 -0.23193312 0.65657055 0.71772009 0.0019326595
0.033326458 0.03297862 0.011947701 -0.26250944 0.63421339 0.72722912 0.0016064089
0.059840176 0.030618664 0.011922857 0.4573518 -0.26969451 0.84740436 0.0016680853
0.061599609 0.031455461 0.011176078 0.50467229 -0.28618911 0.81449473 0.0011067768
0.063824587 0.031845976 0.0097654676 0.58676827 -0.31911191 0.74422473 0.0019109362
-0.063585646 0.03506355 0.0096313981 -0.65287536 -0.3425861 0.6755653 0.0014955023
-0.061705608 0.034376387 0.010997258 -0.59957945 -0.31138673 0.73725349 0.0019541571
-0.059867568 0.033179838 0.011889353 -0.59756601 -0.33740371 0.72737443 0.0020616581
-0.028049441 0.035580102 0.01150214 0.30503047 0.69890332 0.64690846 0.0013842764
-0.025336573 0.034983475 0.01086111 0.30440333 0.74547869 0.59295869 0.0012053227
-0.022617748 0.034226801 0.010447606 0.276847 0.75563568 0.59360814 0.0017016871
-0.019772289 0.033648297 0.00988515 0.26857555 0.76231033 0.58885491 0.0012270511
-0.01737757 0.033246636 0.0093017863 0.24929437 0.77618134 0.57913291 0.00099153502
0.026043626 0.033258047 0.0093056262 -0.23741621 0.74622834 0.62191385 0.0012527724
0.028686205 0.033702865 0.009813372 -0.25239012 0.72207981 0.64412731 0.001617278
0.031595454 0.034239154 0.010352651 -0.26379392 0.70881891 0.6542083 0.002712656
0.034373924 0.034799464 0.01089538 -0.28468159 0.64604616 0.70822364 0.0020938441
0.037055712 0.035409868 0.011484987 -0.30255458 0.63622773 0.70970058 0.0024403404
0.039313778 0.035876069 0.01194524 -0.28794983 0.587273 0.75643593 0.0024537933
0.062345054 0.034381315 0.011604391 0.4778266 -0.18288292 0.85920632 0.0015065651
0.064356491 0.034595694 0.010332571 0.57167637 -0.23041864 0.78746015 0.0018010762
0.066182643 0.035595078 0.0092060324 0.64522564 -0.25025249 0.72184318 0.0029859552
-0.064193808 0.03769191 0.010164503 -0.63418102 -0.24363978 0.73379433 0.0019274754
-0.062383462 0.037342995 0.011532328 -0.58749259 -0.19309957 0.78585309 0.0021217989
-0.036402836 0.038963474 0.011933231 0.31366026 0.66272688 0.6800077 0.0029341022
-0.034140319 0.038483761 0.011383737 0.32156736 0.69083697 0.64756358 0.0012475995
-0.0314175 0.037751447 0.010745601 0.3298153 0.73324347 0.59462249 0.0012786783
-0.02866918 0.036973637 0.010176753 0.32960424 0.74026525 0.58597636 0.0012401748
-0.026127236 0.036371276 0.009492646 0.32133785 0.7610271 0.56354207 0.0010457664
0.034985956 0.036414735 0.0094919913 -0.31910482 0.7073946 0.6306861 0.0017855224
0.037716143 0.037113499 0.010181107 -0.35044366 0.67329794 0.65104467 0.0025613355
0.040328752 0.037776422 0.010908879 -0.33944309 0.60254699 0.72229874 0.0022822844
0.04300664 0.038417719 0.011603102 -0.30317685 0.5784992 0.75724655 0.0022238402
0.045069613 0.038843483 0.011904569 -0.29113355 0.57066923 0.76783979 0.0014182013
0.062783435 0.037251703 0.011870313 0.46075112 -0.087845989 0.88317126 0.0031424195
0.064365283 0.037552524 0.010978311 0.51262653 -0.11014414 0.85151756 0.0015914409
0.066570215 0.037750002 0.0094458656 0.63336289 -0.1576121 0.75763434 0.0025928351
-0.066303588 0.040927012 0.0092327828 -0.65700352 -0.17283976 0.73380697 0.0021403821
-0.064469635 0.040552445 0.010625632 -0.58595598 -0.11368 0.80232936 0.0028782201
-0.062686823 0.040312406 0.011821709 -0.53491408 -0.05496987 0.8431164 0.0026167997
-0.042304803 0.04184306 0.011849439 0.30444527 0.65267158 0.69378161 0.0018005816
-0.040209282 0.041372817 0.011378442 0.31117237 0.67546368 0.66852111 0.0010953678
-0.037442792 0.040658675 0.010693601 0.33479631 0.71902573 0.60902661 0.0012757225
-0.034755673 0.039852504 0.010121016 0.35088634 0.72650075 0.59082615 0.0012719702
-0.032420788 0.039295182 0.0093860617 0.36183178 0.74651402 0.55838567 0.0010436523
0.041024916 0.039556485 0.0095810825 -0.38941503 0.67388374 0.62788266 0.0021924248
0.043627601 0.040293746 0.010293852 -0.3616707 0.62695891 0.69001222 0.0023526873
0.046315905 0.040834341 0.011106674 -0.30529904 0.56522328 0.76636493 0.0018701424
0.049090277 0.041485753 0.011668119 -0.25500545 0.54022455 0.80195367 0.0023092439
0.051198475 0.04193183 0.011918376 -0.18225397 0.51173919 0.83958715 0.0029290759
0.062793694 0.040495101 0.011947448 0.39602584 0.046060167 0.91708344 0.0032448396
0.064416744 0.040507447 0.011226777 0.44491878 0.0073667015 0.89554071 0.0033902118
0.066694297 0.04072215 0.0097769825 0.58372355 -0.052044176 0.81028283 0.0030283721
-0.066544518 0.043635678 0.0094432803 -0.60965788 -0.057778273 0.79055613 0.0034256624
-0.064439647 0.043495581 0.01084604 -0.48776862 0.033749156 0.87232029 0.0046713832
-0.062515661 0.043999735 0.011821277 -0.39994943 0.097604066 0.91132534 0.0048794649
-0.048684213 0.044694424 0.011809786 0.22808471 0.6299873 0.74235672 0.0018043281
-0.046278376 0.044259038 0.01129626 0.2790013 0.66463208 0.69312507 0.0015775295
-0.043458473 0.04356264 0.010676458 0.31155232 0.68869102 0.65470594 0.00093907438
-0.040744994 0.04286864 0.01000546 0.35299739 0.71938187 0.59823281 0.001233971
-0.038502704 0.042265471 0.0094008269 0.37256241 0.7273562 0.57632482 0.0012069534
0.044786628 0.042108797 0.0092404941 -0.40384552 0.65444201 0.63922954 0.0025945026
0.046810303 0.042735502 0.0097218594 -0.36325136 0.65207374 0.66546851 0.0020168617
0.049562544 0.04345439 0.010363781 -0.31991035 0.59288633 0.73901498 0.0020682521
0.052375097 0.043760225 0.011162676 -0.23268621 0.52794772 0.81677932 0.001434171
0.055304836 0.044315431 0.011581766 -0.1661832 0.46125516 0.8715657 0.0025381551
0.058334079 0.044657078 0.011809512 -0.043094687 0.39110047 0.91933846 0.0038138737
0.061815206 0.044082984 0.011776928 0.17029162 0.23207545 0.95767516 0.0067930636
0.064405419 0.043541696 0.011079405 0.36984721 0.12824714 0.92019874 0.0049673463
0.066851333 0.043424688 0.009772948 0.55505115 0.036900867 0.83099729 0.0038369263
-0.06655097 0.046494007 0.0094477059 -0.52403033 0.078040332 0.8481167 0.0050896881
-0.064505756 0.046544492 0.010494727 -0.39175981 0.18638903 0.90099025 0.0067850761
-0.061623987 0.046737988 0.01143955 -0.24616508 0.30287954 0.92068821 0.0050331452
-0.058570918 0.047261622 0.011627165 -0.016974127 0.47078145 0.88208658 0.0030385188
-0.055431563 0.047197107 0.01150345 0.10534991 0.54967201 0.82871109 0.0022616549
-0.05241115 0.046864841 0.011138714 0.19175597 0.59615284 0.77963543 0.0012717611
-0.04954423 0.046461519 0.010519327 0.25703385 0.64466286 0.71996069 0.0011151581
-0.046701226 0.045835946 0.0099057881 0.32830501 0.68820548 0.64698446 0.0014354222
-0.04438908 0.045273226 0.0093030324 0.36239117 0.70968634 0.60416716 0.0015724917
0.050575852 0.045312334 0.0092514893 -0.3612349 0.63731271 0.68069208 0.0025129861
0.052751686 0.045903195 0.0097294142 -0.30877841 0.61158824 0.72843373 0.0025388978
0.055550411 0.046556696 0.010239858 -0.24946445 0.548226 0.79825795 0.0030357817
0.058480155 0.046533097 0.010900951 -0.084654443 0.44601503 0.89101303 0.0035081969
0.061460208 0.046538245 0.011025157 0.068777017 0.36051399 0.9302147 0.0052789762
0.064476199 0.046515822 0.010491017 0.28919026 0.2507574 0.92384505 0.0072936234
0.0668092 0.046530392 0.0095084216 0.46323127 0.15625899 0.8723532 0.0051230956
-0.066430993 0.04881442 0.0091905557 -0.35808352 0.24503368 0.90096319 0.0083084311
-0.064418755 0.049472943 0.0096882153 -0.24354307 0.32763699 0.91287494 0.005674859
-0.061479121 0.049523801 0.010212128 -0.10935465 0.47206548 0.87475473 0.0047322633
-0.058506843 0.049519718 0.010229666 0.080758706 0.58812827 0.80472547 0.0022435349
-0.055580184 0.049193989 0.010026959 0.1701729 0.63158691 0.75639886 0.0029989611
-0.052702557 0.048642132 0.0096599218 0.25171128 0.67177111 0.69668144 0.001972341
-0.050633729 0.048271108 0.0092399232 0.30892205 0.68558872 0.65919286 0.0022831073
0.056350484 0.04835299 0.0092166988 -0.28855065 0.61550248 0.73341346 0.0028431593
0.058697145 0.04880577 0.0095785148 -0.18951502 0.55522871 0.80981803 0.004274359
0.061573926 0.049305603 0.0097254775 -0.041811228 0.46511203 0.88426393 0.0054067126
0.064433642 0.04936314 0.0095835663 0.15765536 0.34936655 0.92362744 0.0073861084
0.06646882 0.048764005 0.0092208656 0.37929097 0.26717788 0.8858636 0.0061253258
-0.063485608 0.05118119 0.0090660565 -0.13229449 0.49621284 0.85806227 0.0087415371
-0.061425652 0.051187351 0.0091835195 -0.0053556263 0.58924067 0.80793977 0.0044642878
-0.059241544 0.051163174 0.0091029936 0.10853685 0.64993411 0.75220037 0.0026835129
0.063885003 0.051100463 0.009029367 0.064655252 0.4698483 0.88037622 0.0099392245
-0.021345252 0.0089032976 0.012166773 -0.18624587 -0.70047086 0.6889506 0.0010563758
-0.019310368 0.0086886445 0.012431107 -0.16369849 -0.69343901 0.70167309 0.0011919586
-0.016299509 0.0084410692 0.012767552 -0.12502941 -0.65298623 0.7469784 0.001156821
-0.013387933 0.0081681525 0.012956041 -0.094389118 -0.6512807 0.75294363 0.0010987845
-0.010511851 0.0079561705 0.013080216 -0.061017837 -0.63830429 0.767362 0.00097006204
-0.0074264552 0.0077610393 0.013120583 -0.03232453 -0.61958301 0.78426528 0.0011033945
-0.0044526602 0.0077510965 0.013201117 -0.0091209291 -0.59277606 0.80531567 0.0015035785
-0.0014934718 0.0076321391 0.013120404 0.0067111314 -0.58695543 0.80959135 0.0016885442
0.001442489 0.0077197929 0.013133809 0.025393665 -0.56806558 0.82259142 0.0017295509
0.0045307283 0.0078439312 0.01309321 0.041398011 -0.54315472 0.83861142 0.0016775578
0.0074322596 0.0078364527 0.012922809 0.058120634 -0.55167258 0.83203328 0.0014406146
0.010419085 0.00798521 0.01281204 0.072838441 -0.56631505 0.82096398 0.0015065302
0.013424587 0.008251586 0.012699876 0.089620456 -0.56396568 0.82092077 0.0014947677
0.016514039 0.0083971061 0.01242738 0.11013368 -0.59030688 0.79963017 0.0018041781
0.018824479 0.0086742193 0.012278032 0.12903216 -0.60970289 0.78205699 0.0019396716
0.021179806 0.0089238528 0.012032061 0.16321808 -0.66153991 0.73193222 0.0017068645
-0.03067977 0.011869117 0.012197804 -0.25838912 -0.70356047 0.66199529 0.0010089759
-0.028137021 0.011369619 0.012609513 -0.22645491 -0.68687063 0.69059891 0.00092741475
-0.025317276 0.011069223 0.013124887 -0.19378117 -0.6682936 0.71821487 0.0012049266
-0.022389458 0.010773946 0.013581815 -0.1698492 -0.63759321 0.75141615 0.0013335835
-0.019534787 0.010617952 0.014013727 -0.12150981 -0.58704311 0.80038476 0.0013663922
-0.016516114 0.010342089 0.014277269 -0.098330021 -0.55498493 0.82602841 0.0011264452
-0.0135478 0.010047174 0.014399078 -0.073315904 -0.5460422 0.83454335 0.0014779107
-0.010468642 0.0098089827 0.014448914 -0.040551841 -0.52615249 0.84942275 0.001456733
-0.007573213 0.0097668609 0.014518768 -0.017047713 -0.49052054 0.87126285 0.0018480435
-0.0044996361 0.0098335734 0.01457958 0.0030058259 -0.47726557 0.8787539 0.0018343395
-0.0014823517 0.0098340278 0.014538276 0.020180767 -0.46122909 0.88705158 0.0018033972
0.0015395699 0.0098993015 0.014482231 0.035115357 -0.45307323 0.89078146 0.0017746147
0.0045824912 0.010144387 0.01447253 0.047473233 -0.4421792 0.89566946 0.0016930531
0.0075617325 0.010382625 0.014416051 0.056174286 -0.44165474 0.89542484 0.0014319004
0.010522981 0.010506676 0.014279307 0.064452901 -0.44167447 0.89485723 0.0012167509
0.013507242 0.010586898 0.014076091 0.080774263 -0.44504169 0.89185947 0.0012558056
0.01646529 0.010594663 0.013786583 0.09732601 -0.45714948 0.88404864 0.0016683898
0.019493122 0.010632384 0.013436515 0.11542135 -0.48095512 0.86911452 0.0023699654
0.022378201 0.01081151 0.013110244 0.13216279 -0.50423491 0.85339326 0.0021917138
0.025342362 0.011065842 0.012770302 0.15541732 -0.53821886 0.82835132 0.0026816686
0.028167453 0.011479457 0.012453394 0.18288402 -0.580841 0.79320693 0.0019424213
0.030344699 0.011813711 0.012154815 0.19762091 -0.60815579 0.76882541 0.00072582928
-0.036921896 0.014617803 0.012392681 -0.32263827 -0.67635775 0.66215169 0.0008500925
-0.034260664 0.014043742 0.012988448 -0.28044006 -0.65417182 0.70243341 0.0012035363
-0.031420574 0.013813902 0.013780962 -0.22756216 -0.62036574 0.75057435 0.001080487
-0.028620215 0.013246327 0.014133248 -0.19346787 -0.60283989 0.77405059 0.0014272608
-0.025597971 0.01279683 0.014535811 -0.1764473 -0.59462535 0.78440237 0.001676933
-0.022747425 0.012361959 0.014774296 -0.13757564 -0.55182832 0.82253176 0.0019963023
-0.020132426 0.012065566 0.014899943 -0.10876329 -0.55812031 0.82260096 0.0014526319
0.010907985 0.012155633 0.0149286 0.052158386 -0.30560696 0.95072806 0.0028642567
0.01381107 0.012454047 0.014876538 0.070953056 -0.30357304 0.95016265 0.0019518072
0.016722834 0.012727748 0.014738131 0.085249558 -0.33137712 0.93963909 0.0019259803
0.019633556 0.013201763 0.014640245 0.10323966 -0.35575223 0.92886049 0.0017090564
0.02252412 0.013481378 0.014437758 0.10928853 -0.38275248 0.91736394 0.0014843222
0.02547396 0.013587735 0.014117788 0.12044427 -0.39616737 0.91024429 0.0014539751
0.028437659 0.013691563 0.013713875 0.14019407 -0.41780755 0.89765394 0.0017563062
0.031438824 0.013639512 0.013121348 0.17767417 -0.49500617 0.85052973 0.0023494924
0.034240916 0.014133072 0.012777993 0.18800187 -0.5272736 0.82863611 0.0013621002
0.037144322 0.014554555 0.01226106 0.20973465 -0.5426662 0.81334168 0.00048520064
0.039245736 0.014844658 0.012080705 0.24060072 -0.57148618 0.78454757 0.00061951682
-0.042538911 0.017701253 0.012481 -0.39522934 -0.63648647 0.66232818 0.0011379524
-0.040175397 0.017031396 0.013107389 -0.35481736 -0.62161553 0.6983543 0.0012511148
-0.037491258 0.016412582 0.013798508 -0.29071787 -0.59144616 0.7521134 0.00088015327
-0.034674745 0.015908124 0.014475796 -0.24818923 -0.58570397 0.77159119 0.0013128038
-0.032238044 0.01534428 0.014817713 -0.21646032 -0.57052225 0.79224318 0.0021820788
0.02344792 0.01527915 0.014951505 0.080037795 -0.23588555 0.96847928 0.0018233763
0.025821492 0.015572756 0.014844204 0.09799511 -0.26503563 0.9592461 0.0021293985
0.028629391 0.016077915 0.014697311 0.11944718 -0.3131381 0.94216609 0.0021373108
0.031510588 0.016469928 0.014489972 0.12374258 -0.36058471 0.92448163 0.0019976872
0.034467775 0.016571013 0.014096365 0.15427157 -0.39750293 0.90453947 0.0019744609
0.037453551 0.01664863 0.013505152 0.1895857 -0.44276512 0.87636536 0.0015717148
0.0404117 0.016712926 0.012762395 0.21975598 -0.49060315 0.84321755 0.00069553807
0.043189194 0.017392144 0.012396303 0.25130865 -0.50083387 0.82825679 0.00088026613
0.045330424 0.017786631 0.01205903 0.30148754 -0.53728139 0.78767639 0.0014465501
-0.046018492 0.020318223 0.012763817 -0.42847449 -0.586119 0.68765843 0.00096978707
-0.043443233 0.019681625 0.013664105 -0.37032324 -0.56341058 0.73853177 0.00090822042
-0.040815715 0.018890133 0.014350011 -0.32720268 -0.57091409 0.75299102 0.001425607
-0.038710292 0.018345196 0.014861094 -0.29944673 -0.57170844 0.76385933 0.0011141633
0.032324012 0.018348349 0.014949277 0.077060036 -0.19636454 0.97749817 0.0022256379
0.034741141 0.018605772 0.014840656 0.12010279 -0.27849075 0.95289999 0.0024304625
0.037601441 0.019216476 0.01465392 0.14614995 -0.32279536 0.93511671 0.0025709055
0.040454611 0.019560676 0.01424319 0.18857595 -0.37069541 0.90940863 0.0018406833
0.043511208 0.019568427 0.013452932 0.23542361 -0.42060289 0.87616712 0.00074588525
0.046335656 0.019773016 0.012732201 0.26659754 -0.43825081 0.85840666 0.00082777749
0.048679855 0.020493008 0.012365355 0.31841132 -0.47021121 0.82311338 0.0014664219
-0.051228303 0.023671396 0.01225889 -0.46914992 -0.56724942 0.67685044 0.0012392038
-0.04924636 0.02289661 0.01289458 -0.44384074 -0.56446946 0.69597387 0.0013030772
-0.046666671 0.022433365 0.014037833 -0.38245726 -0.5037424 0.77457738 0.0011024183
-0.044181511 0.021521134 0.014694512 -0.34629163 -0.50795311 0.78871143 0.0014000245
-0.0065140575 0.023833942 0.01493915 0.11695274 0.44807941 0.88631076 0.0020270338
