# .PCD v0.7 - Point Cloud Data file format
VERSION 0.7
FIELDS x y z normal_x normal_y normal_z curvature
SIZE 4 4 4 4 4 4 4
TYPE F F F F F F F
COUNT 1 1 1 1 1 1 1
WIDTH 563
HEIGHT 1
VIEWPOINT 0 0 0 1 0 0 0
POINTS 563
DATA ascii
0.032777723 0.036082365 -0.0093329577 -0.31029147 0.81200939 -0.49432781 0.0003772091
0.03504239 0.036861233 -0.0096355993 -0.34479794 0.80079579 -0.48973519 0.00081212755
0.03757092 0.037881896 -0.0099342689 -0.41334277 0.77200133 -0.48286819 0.00040399827
0.039549261 0.03875903 -0.010192305 -0.42471525 0.76342243 -0.4866243 0.00033619849
0.040903606 0.039945155 -0.009681792 -0.43189767 0.74894351 -0.50254166 0.00018390892
0.042772491 0.040983468 -0.0097117722 -0.46250963 0.75479859 -0.46514925 0.0006158991
0.044563957 0.042131968 -0.0095838746 -0.4607622 0.75068569 -0.4734652 0.00052906334
0.051404472 0.045954227 -0.009492442 -0.44594711 0.74551964 -0.49530965 0.0012193661
-0.013757102 0.032864179 -0.0085053779 0.23270392 0.88729 -0.39820272 0.0012712952
-0.0098467283 0.032237835 -0.0079971282 0.17055339 0.8989169 -0.40355912 0.00087268488
-0.0073951609 0.032345962 -0.0069125225 0.12660377 0.92926276 -0.3470479 0.0016315391
-0.0058687092 0.032484271 -0.0061286232 0.11213423 0.94024217 -0.32151303 0.00094287569
-0.0019067604 0.031452101 -0.0071317675 0.10823461 0.94579488 -0.30619833 0.0013096671
0.0016655819 0.031290859 -0.006952872 0.060141843 0.94417584 -0.32390577 0.0012839154
0.0041549802 0.031031931 -0.0073344214 0.01472021 0.92487323 -0.37999058 0.0024981503
0.0074975598 0.031183166 -0.0071628457 -0.025144527 0.92182297 -0.38679478 0.0035775842
0.01019047 0.031416699 -0.0070585334 -0.10020048 0.9012354 -0.42158589 0.0024031133
0.01330232 0.031596683 -0.0073880679 -0.13284402 0.89543641 -0.42490724 0.0018114609
0.01652821 0.03221871 -0.007338149 -0.19135857 0.88013989 -0.43443725 0.0012231133
0.01921854 0.032346662 -0.0083152568 -0.22638319 0.8660816 -0.44570547 0.0010515107
0.021146491 0.032911688 -0.0082718357 -0.21137403 0.87895632 -0.42750072 0.00094276998
-0.018772736 0.035620727 -0.0061699562 0.32832152 0.90574366 -0.26801765 0.0010397102
-0.016453603 0.034398541 -0.0071696774 0.31641015 0.89953667 -0.30119517 0.0016844737
-0.014461627 0.03344227 -0.0078853685 0.25227445 0.89095813 -0.37755963 0.00085499772
0.019401735 0.03331187 -0.0066033737 -0.22519886 0.8849507 -0.40761223 0.00093072699
0.022751868 0.033951748 -0.0071570491 -0.23517208 0.86665922 -0.43999544 0.0011726483
0.025668269 0.034702517 -0.0074332161 -0.28342754 0.85666746 -0.4310334 0.0015413557
0.028280098 0.035400309 -0.0077352626 -0.31711203 0.84913701 -0.42238173 0.0015524789
0.030758511 0.035952356 -0.0083761299 -0.30208769 0.84043163 -0.44990852 0.0018726784
-0.026511423 0.038312271 -0.0067295246 0.38128749 0.88964611 -0.25129592 0.00085484679
-0.022775954 0.036716286 -0.0068868846 0.3473292 0.90531307 -0.24448036 0.0010119082
0.029083772 0.036226138 -0.0066528427 -0.30124018 0.86190605 -0.40788758 0.0015170861
0.031523645 0.036864623 -0.0071502347 -0.32022333 0.85484242 -0.40829095 0.0012357002
0.034296881 0.037894003 -0.0073643932 -0.39735734 0.82486576 -0.40212402 0.0017585339
0.036802359 0.038650051 -0.0082342662 -0.41536048 0.79084861 -0.44948214 0.0013340816
-0.033908539 0.041593291 -0.0071092164 0.43781352 0.86209768 -0.25516075 0.0011870119
-0.031860709 0.040794812 -0.006688701 0.41985211 0.87133586 -0.25396466 0.0012109176
-0.029470367 0.039695852 -0.0065995799 0.39947352 0.8753494 -0.27236792 0.0010099901
0.035634913 0.039121225 -0.0062102666 -0.44714433 0.80201209 -0.39602858 0.0023359405
0.037595887 0.039854228 -0.0068955352 -0.43258181 0.79125255 -0.4321948 0.00218666
0.040186871 0.040979721 -0.0075510493 -0.46796435 0.76250577 -0.44675991 0.0014845737
-0.037355699 0.043563135 -0.0066761998 0.45545298 0.85490501 -0.24839494 0.0014215243
0.041434433 0.042475224 -0.0062574884 -0.46847168 0.7627216 -0.44585881 0.0011036982
0.043509874 0.04311562 -0.0073443828 -0.47278062 0.7659089 -0.43573165 0.0013846282
0.046227559 0.044262446 -0.0080905575 -0.49065563 0.75566077 -0.43385932 0.0005697544
0.046854939 0.045590788 -0.0066453493 -0.48540264 0.76253682 -0.42769372 0.00060477643
0.049384892 0.04687776 -0.0070044217 -0.44988933 0.74869102 -0.48688942 0.0015742575
0.051880732 0.047707591 -0.0078038443 -0.4522301 0.73852742 -0.50006521 0.0011120019
0.052950416 0.049371153 -0.0065316954 -0.4626686 0.73762417 -0.49178088 0.0010263703
0.054836791 0.050195977 -0.0068997405 -0.48339579 0.77044314 -0.41562712 0.0025007133
0.056310035 0.051149003 -0.00669776 -0.47109827 0.77566451 -0.42001325 0.0021325271
0.058497921 0.052599899 -0.0063604414 -0.50335103 0.76602066 -0.39981261 0.0023996793
-0.004322723 0.032577522 -0.0054063224 0.13433604 0.94687951 -0.29218677 0.0018810848
-0.0015388962 0.032754302 -0.0038061813 0.10504983 0.97988683 -0.16966513 0.0013553257
0.0018163158 0.032513749 -0.0038260689 0.041986555 0.98408538 -0.17266455 0.0018697468
0.0043687979 0.032286063 -0.0044113565 0.0083777821 0.96009898 -0.279535 0.0027480307
0.0074872519 0.032387152 -0.0041947188 -0.031685874 0.96121132 -0.27398685 0.0024449874
0.010634356 0.032540213 -0.0044151442 -0.082885832 0.95426071 -0.2872569 0.0021355061
0.013388538 0.032632541 -0.0050821104 -0.14034107 0.94064349 -0.30902147 0.002178851
0.015958467 0.032948051 -0.0054801288 -0.18910353 0.92892468 -0.31833762 0.0025822644
-0.016637526 0.035696477 -0.0038309742 0.29218036 0.9436962 -0.15513894 0.001788018
-0.013725355 0.034789734 -0.0042095301 0.25215688 0.95252299 -0.17063652 0.0021108403
-0.010481995 0.034161471 -0.0036838499 0.20669296 0.95874298 -0.19516645 0.002241144
-0.0075496174 0.033605777 -0.0036147689 0.14358735 0.97525126 -0.16812979 0.0016095927
-0.0044395039 0.033181865 -0.0036246041 0.11243571 0.95832705 -0.26261669 0.0013104645
-0.0025581243 0.033031456 -0.0031486868 0.1050147 0.95739114 -0.26902437 0.0021407621
0.014083831 0.033270836 -0.0032616393 -0.1451824 0.98256522 -0.11613688 0.0027711657
0.01671949 0.033528473 -0.004211037 -0.19439186 0.9442752 -0.26562411 0.0019423297
0.019606408 0.03419961 -0.0043616053 -0.23155791 0.92930204 -0.28771287 0.0024559624
0.022400768 0.034959581 -0.0043668221 -0.28295007 0.9285242 -0.24037905 0.0018690005
0.024917461 0.035644546 -0.0046237814 -0.31161487 0.91446048 -0.2581825 0.0024328458
-0.02488083 0.038563587 -0.0041412879 0.3841275 0.90965801 -0.1580139 0.0014330847
-0.022476513 0.037676096 -0.0039533358 0.35310027 0.92404556 -0.14649244 0.0012644379
-0.019646579 0.036644019 -0.0039487546 0.32341209 0.93238181 -0.1614584 0.0013635871
-0.017524229 0.036188699 -0.003054563 0.26434094 0.95349598 -0.14480792 0.0031373845
0.026363213 0.036276247 -0.0039426135 -0.29113659 0.92392009 -0.24821582 0.0021874767
0.028517345 0.036872268 -0.0044063968 -0.30073297 0.91472703 -0.26987809 0.0017766587
0.031541437 0.037934009 -0.0044391337 -0.3559173 0.90017033 -0.25103039 0.002822466
0.033741079 0.038734205 -0.0048116022 -0.40631333 0.87980121 -0.24669681 0.0022633707
-0.031179233 0.041446149 -0.0040429202 0.42722341 0.88651025 -0.17770715 0.0012408071
-0.028497901 0.04016836 -0.0041188188 0.40220827 0.89318895 -0.20110202 0.00062613457
-0.026335781 0.039330937 -0.0036877296 0.38262248 0.90268612 -0.19687001 0.00058274751
0.035068873 0.039611399 -0.0040553133 -0.41782874 0.86837983 -0.26708725 0.0021139311
0.037352592 0.040955652 -0.0038368921 -0.47974414 0.8655436 -0.14380518 0.0018396396
0.03955004 0.041795868 -0.0051775053 -0.51805729 0.81358069 -0.26401344 0.0017353151
-0.036954872 0.044412982 -0.003932301 0.46578848 0.86951733 -0.16425806 0.0015915864
-0.034749351 0.043121532 -0.0042995382 0.44701159 0.86952251 -0.21002665 0.00085489743
-0.032772344 0.042361021 -0.0036042212 0.44300786 0.87957978 -0.173446 0.0014008227
0.040692341 0.042826749 -0.0042537376 -0.49590382 0.82247341 -0.27859831 0.0021321264
0.043159008 0.044208907 -0.0047452268 -0.52033776 0.81148732 -0.2659643 0.0018574314
-0.042861246 0.047494158 -0.004262262 0.47945109 0.86947 -0.11894815 0.001502292
-0.039958104 0.045964085 -0.0041044299 0.48278451 0.859842 -0.16610517 0.00080733281
-0.038157187 0.04515063 -0.0036360091 0.46638012 0.86964887 -0.16186538 0.0044089989
0.044269338 0.045317113 -0.0036968391 -0.50560308 0.81397963 -0.28601182 0.0015478851
0.046485394 0.046458535 -0.0044122902 -0.506221 0.81370622 -0.28569663 0.0020934071
0.048657753 0.047597278 -0.0049289465 -0.50360221 0.79778552 -0.33154663 0.0040917215
-0.048543852 0.050832178 -0.0036535682 0.47775292 0.87100911 -0.11443464 0.0017389586
-0.046472769 0.049517676 -0.004208711 0.47903052 0.86390758 -0.15554249 0.00076527183
-0.043862872 0.048375033 -0.0033314782 0.48254272 0.86890364 -0.11026799 0.0017320863
0.049750194 0.048737526 -0.0039378856 -0.4939042 0.79976732 -0.34121975 0.0036767048
0.05220833 0.050112739 -0.0044937041 -0.52635229 0.7658875 -0.36928263 0.0032256872
-0.054231327 0.053757142 -0.0036056759 0.38912451 0.89950323 -0.19868591 0.0016460659
-0.052227624 0.052745745 -0.0037117549 0.43826535 0.88704163 -0.14519213 0.0012151677
-0.050182361 0.051525038 -0.0041589751 0.46108729 0.87617624 -0.14040577 0.0017578413
0.053567842 0.051401783 -0.0036151346 -0.50376517 0.78336436 -0.3640891 0.0028792855
0.05556564 0.052267369 -0.0043276688 -0.48980644 0.77762032 -0.39420334 0.0031149122
0.057656717 0.053430963 -0.0045412276 -0.51048684 0.77623349 -0.36995247 0.0037120618
-0.058264911 0.055148214 -0.0037840009 0.40089396 0.91056424 -0.10078131 0.004536571
-0.055391029 0.054166395 -0.00362884 0.38799027 0.91672271 -0.09530481 0.0028951624
0.05894443 0.054684334 -0.0038142095 -0.54742301 0.75668865 -0.35742176 0.0024398749
0.061255634 0.05599495 -0.0043750256 -0.61010915 0.69289929 -0.38426214 0.0038349947
-0.073263399 0.058582995 -0.0034830659 -0.48515689 0.87334126 -0.043564089 0.0023851795
-0.070828661 0.059663456 -0.0036885981 -0.40598497 0.91351593 -0.025786972 0.0018888302
0.062968694 0.057259087 -0.0045228391 -0.66372794 0.64419627 -0.38010058 0.010024697
0.063559026 0.058699101 -0.0037484919 -0.79049003 0.55885047 -0.25062251 0.017677011
-0.069878682 0.060172971 -0.0031610001 -0.24874312 0.96713072 -0.052774444 0.016155181
0.071062028 0.07644628 -0.0037234565 0.12335134 0.9922871 0.012273833 0.035273936
0.073273346 0.075787395 -0.0037229494 0.2965501 0.95501465 0.0022494621 7.4561642e-05
-0.062584363 0.029295616 -0.0017267646 -0.77086389 -0.63503355 -0.050012622 0.00035687978
-0.06488803 0.031823527 -0.0008221133 -0.79416013 -0.60770416 -0.0023215539 0.0018098211
0.001810214 0.032885332 -0.0021466354 0.038988665 0.99657476 -0.072929069 0.002746114
0.0048692906 0.032933764 -0.001234118 0.0059280777 0.99853545 -0.053775173 0.0024477926
0.0072120661 0.032921426 -0.0015613663 -0.046081476 0.99754828 -0.052667648 0.0019861902
0.0099616405 0.032934457 -0.0026837804 -0.092754036 0.98974025 -0.10867787 0.0021309233
-0.067084782 0.034569502 -0.00069144723 -0.80664647 -0.5859434 0.077407777 0.0015309441
-0.01541575 0.035806444 -0.0011933479 0.30106249 0.95151347 -0.063115411 0.0021238662
-0.01357992 0.035314545 -0.0012424429 0.25212198 0.96547139 -0.065570779 0.0021167221
-0.010591483 0.034622084 -0.0011516581 0.22036554 0.97297865 -0.068931982 0.0018797042
-0.0074762115 0.033999979 -0.001340799 0.1689069 0.98478532 -0.040844932 0.0039152168
-0.0045135329 0.033569463 -0.0012911054 0.11631237 0.99205971 -0.047843538 0.0027509159
-0.0014343644 0.033217665 -0.0012748172 0.096454993 0.99259245 -0.073869556 0.0017062916
0.0012037795 0.033067718 -0.00090113655 0.028161637 0.99848872 -0.047193144 0.002908974
0.0039635072 0.033010785 -0.0003296299 0.0097501092 0.99994922 -0.0025499852 0.0012757002
0.0084389402 0.033039153 -0.0010297995 -0.047196809 0.9988808 0.0030980888 0.0024149339
0.010598999 0.033180036 -0.0011908527 -0.073505081 0.9972198 -0.012234684 0.002503841
0.013479259 0.033510111 -0.0009610093 -0.12494329 0.99176878 -0.027998742 0.0027987857
0.016385216 0.034010887 -0.0013201195 -0.19886243 0.97988015 -0.016990548 0.0034809005
0.019622145 0.034820285 -0.0013321085 -0.26081449 0.9641037 0.049798526 0.0019610601
0.022666687 0.035683841 -0.00092522422 -0.27532297 0.95980042 0.054593064 0.0020572941
0.024020722 0.035897914 -0.0024767728 -0.28508618 0.95420331 -0.090675078 0.0028085972
-0.069528021 0.03799478 -0.00081466732 -0.84515595 -0.52742136 0.08682321 0.0013658785
-0.024254514 0.038808383 -0.0017179409 0.39862856 0.91477972 -0.065371715 0.0020193423
-0.022450525 0.038145028 -0.0012853192 0.35998201 0.93039834 -0.069078848 0.0018126124
-0.01954193 0.037069976 -0.001437336 0.31239831 0.94699889 -0.074836135 0.0016956892
-0.017029487 0.036278307 -0.0011842838 0.27168992 0.96177423 -0.03427688 0.0028566956
0.023747563 0.036004528 -0.00055214559 -0.28859988 0.9546839 -0.072724931 0.0036660463
0.025685862 0.036565814 -0.0011125542 -0.28954977 0.95496857 0.064775951 0.0021517843
0.028443031 0.037494853 -0.00084350776 -0.32579198 0.94485968 0.03316338 0.0014554947
0.031010455 0.038354892 -0.0014306178 -0.36162448 0.93124717 0.044792775 0.0023586263
0.033020098 0.038986366 -0.0026337467 -0.35058844 0.92754698 -0.12940033 0.0028616821
-0.071009524 0.040487137 -0.00034452582 -0.88569587 -0.45220655 0.10512921 0.0011246386
-0.030542411 0.041620828 -0.0015575753 0.45123821 0.89002669 -0.065089241 0.0016208107
-0.028437715 0.04064887 -0.0013583361 0.42116666 0.90470159 -0.064294137 0.0016938511
-0.025767788 0.039474942 -0.0013402008 0.37647435 0.92403764 -0.066494837 0.0019766225
0.032663226 0.03906979 -0.00086147041 -0.40066874 0.91602796 0.018901033 0.0024289165
0.034619994 0.03995226 -0.0012150757 -0.44772172 0.89393413 -0.020668294 0.0018644797
0.037179843 0.041383456 -0.0009436757 -0.49653295 0.86801171 0.0032611943 0.0019922128
-0.072580412 0.044129536 -0.00053688051 -0.92783326 -0.35113671 0.12581156 0.00086740497
-0.071898401 0.042309687 -0.00049899 -0.91606033 -0.38966718 0.094831467 0.0027347305
-0.036561579 0.04469179 -0.0014487554 0.48732743 0.87018788 -0.072698779 0.0019518859
-0.034466621 0.043588463 -0.0014319511 0.46187291 0.88401389 -0.072062306 0.0019963293
-0.032052826 0.042390898 -0.0012432481 0.42189512 0.90393752 -0.070010729 0.0018050289
0.038555562 0.042236447 -0.00069633103 -0.52981853 0.84811044 -0.0010452535 0.0018162226
0.040378805 0.043307114 -0.0013066912 -0.53571951 0.84415197 -0.020302711 0.0014310717
0.0422833 0.044575661 -0.0010512021 -0.54484171 0.83835226 0.017691096 0.001234043
-0.073420085 0.046642356 -0.00092734734 -0.91361511 -0.35563144 0.19706278 0.0023289078
-0.042257525 0.047811758 -0.0014118596 0.49106416 0.86804193 -0.073206298 0.0020031244
-0.040498231 0.046847671 -0.001398085 0.48717794 0.86999041 -0.075988933 0.0021677017
-0.038026027 0.045486495 -0.0012680779 0.46412557 0.88357323 -0.062336098 0.0018277059
0.043822795 0.045582537 -0.0011381229 -0.54017049 0.84103203 0.029678239 0.0015295466
0.046177924 0.047119316 -0.00091097626 -0.55262369 0.83338702 0.0085590351 0.0014004385
-0.074219324 0.048659921 -0.0003699568 -0.87548184 -0.38695332 0.28948012 0.00377806
-0.046343058 0.050126709 -0.0014363525 0.4873156 0.87029856 -0.071442597 0.0026058729
-0.043695495 0.048658177 -0.0012316159 0.47215766 0.87774402 -0.081440836 0.0023282361
0.04770406 0.048121814 -0.0010148868 -0.56476742 0.82499319 0.020587627 0.001777127
0.049634207 0.04942444 -0.0010224885 -0.54957902 0.83511943 0.023206936 0.0018845927
0.051431745 0.050674208 -0.00080483186 -0.54691738 0.83714634 0.0082051791 0.0023455149
-0.052427728 0.05342143 -0.0014511484 0.45530191 0.88731575 -0.073286496 0.0025384151
-0.049581565 0.051925272 -0.001379882 0.46359876 0.88440257 -0.053928286 0.0030912883
-0.047876682 0.051126339 -0.00015010848 0.44981545 0.89284474 -0.022233516 0.0075194146
0.052936375 0.051683545 -0.0010345125 -0.54721695 0.835949 0.041746661 0.0020674823
0.05537948 0.053273533 -0.0010618989 -0.56025678 0.82622755 0.05882543 0.003072314
-0.076519683 0.055221252 -0.00032793416 -0.95024347 0.26428595 0.16489477 0.066407397
-0.060542602 0.056766279 -0.0014389069 0.46241599 0.88114309 0.098784104 0.0070162434
-0.058486968 0.055911958 -0.0011741649 0.40949368 0.91187632 -0.028221158 0.0034342755
-0.055501502 0.054816537 -0.0011679801 0.35496855 0.93307883 -0.057977188 0.002390418
-0.053795055 0.054153431 -0.00096071837 0.41368589 0.90729904 -0.075315937 0.0032461747
0.056510255 0.05406265 -0.00054510427 -0.55670965 0.83007282 0.032456353 0.005526212
0.058511779 0.055457413 -0.00073155551 -0.58366799 0.80551058 0.10239299 0.0046404246
0.060386725 0.056643616 -0.0017817349 -0.63205338 0.75806969 -0.16074491 0.010772794
-0.075838223 0.057359558 -0.00061771937 -0.70001721 0.69898856 0.14625645 0.049734838
-0.073526703 0.058571186 -0.0014230759 -0.48630217 0.87330103 -0.029249948 0.0022876144
-0.071351081 0.059669808 -0.0012669243 -0.36201134 0.92690635 0.098956227 0.0076443655
-0.064170539 0.059256651 -0.0007274836 0.50268841 0.85322887 0.13894185 0.0031279922
-0.062028572 0.057798415 -0.00094378274 0.51742184 0.84396362 0.14142187 0.002964878
0.061585426 0.058248088 -0.0008042141 -0.78613949 0.59442484 0.16924472 0.012133464
0.063370183 0.059745304 -0.0024399161 -0.77866143 0.58495688 -0.22696196 0.020828165
-0.070026375 0.060329039 -0.0013578261 -0.20893598 0.9754895 0.069036126 0.019801289
-0.067149565 0.060739018 -0.00098209968 0.13920783 0.99009901 0.018031584 0.020550873
-0.065775529 0.060191356 -0.00079566299 0.31554365 0.94843596 0.030024897 0.025189225
0.062879115 0.060087174 -0.00054988835 -0.80881685 0.57544231 0.1211668 0.019099154
0.063771531 0.061743677 -0.00090991653 -0.90176684 0.40323946 0.15561 0.016338449
0.064591795 0.064421803 -0.00075953896 -0.87556422 0.30587703 0.37393394 0.0074154325
0.06536293 0.067550197 -0.00065266219 -0.8774389 0.22900337 0.42149544 0.0071567022
0.065841839 0.069580376 -0.00064384396 -0.78658426 0.22199361 0.57619792 0.021733858
0.066199869 0.071190976 -0.0005719302 -0.78657991 0.22201751 0.5761947 0.021733031
0.066721231 0.073699459 -0.00080230867 -0.87293649 0.20261624 0.44376621 0.0087564439
0.076298892 0.074849203 -0.0009184205 -0.70283902 0.69790024 0.13766848 0.04631022
0.067875236 0.076755635 -0.00082077296 -0.57980591 0.73603028 0.34940612 0.066789672
0.070589095 0.076613151 -0.0016786535 0.11019927 0.99330753 0.03458719 0.036540002
0.073461749 0.075729646 -0.0014061288 0.32399875 0.9456501 0.027761556 0.0055116792
0.07530354 0.075163379 -0.001295828 0.31533813 0.94746441 0.053601317 0.005827927
-0.0051204348 0.00077304622 0.0023689321 -0.05870688 -0.91534579 0.39836627 0.0013831359
0.0050443048 0.0005622367 0.002702082 0.042219363 -0.92240703 0.38390478 0.00032921584
0.0071539246 0.00047036269 0.0019609868 0.065438248 -0.92843342 0.36569017 0.00061013608
0.011304901 0.00090458995 0.0026829527 0.089524604 -0.92792356 0.36186078 0.0007697597
0.012544869 0.00081177248 0.0015668507 0.093498312 -0.92890811 0.35831258 0.0007772214
0.015504972 0.0012620352 0.0020552189 0.11209694 -0.92535269 0.36215556 0.00063732977
0.018015763 0.001713641 0.0023728264 0.10789733 -0.91073388 0.39865029 0.0017619223
-0.022649931 0.0040343907 0.0028751667 -0.26676968 -0.88753003 0.37566534 0.00073985528
-0.036408704 0.0089894328 0.0029879014 -0.36481833 -0.8648451 0.34489211 0.0004132844
-0.031513616 0.0070288833 0.0028900146 -0.32730564 -0.88194501 0.33918148 0.00032620423
0.035011239 0.0063152164 0.0027633498 0.2988956 -0.84595948 0.44160387 0.0016073051
-0.046237104 0.014242572 0.0028949678 -0.50214523 -0.79598659 0.33801705 0.00058933598
0.06724523 0.028751038 0.0014760427 0.80131507 -0.47520581 0.36341941 0.0013629643
-0.064725302 0.031585 0.00054974249 -0.79937053 -0.60080069 -0.0067278999 0.0017869477
-0.00086405588 0.03291665 0.0027450365 0.096414097 0.96317196 0.2510061 0.0024130847
0.0016596592 0.032883283 0.0020261002 0.053825483 0.98040044 0.18951963 0.0034883718
0.0045175604 0.032879684 0.0015964446 0.017076215 0.97926193 0.2018773 0.0021963308
0.0073744222 0.032880217 0.0017272844 -0.053467136 0.97947866 0.19432676 0.0029207978
0.010240793 0.032908794 0.0026867974 -0.07947658 0.96985501 0.23035802 0.0024220888
0.068134151 0.030471185 0.0020764393 0.82304478 -0.45599058 0.33862957 0.00099068438
0.069004625 0.032050394 0.0022474336 0.81606376 -0.45059714 0.36194211 0.0015577255
-0.067253105 0.034793012 0.0013221242 -0.80669338 -0.58588386 0.077368915 0.0014991607
-0.015609371 0.035760093 0.0018865926 0.29308063 0.93931544 0.17829812 0.0016162927
-0.013652551 0.035215199 0.0019983693 0.25339389 0.94862944 0.18945605 0.0014984276
-0.010619125 0.034512457 0.0019298688 0.20100245 0.95715725 0.20844176 0.0023602389
-0.0072923782 0.033919685 0.0015833698 0.17085351 0.96502763 0.19882348 0.0026986301
-0.0044814018 0.033455472 0.001950865 0.12992319 0.97321188 0.18968044 0.002874099
-0.0019571942 0.033267301 0.00099436648 0.090898007 0.98445588 0.15028015 0.0018347168
0.00084632775 0.033071972 0.00086079974 0.040985633 0.9936077 0.10518552 0.003987093
0.0085346801 0.033047788 0.00074888347 -0.045344591 0.99438292 0.095637225 0.0042633042
0.010615555 0.033153072 0.0012344928 -0.084307134 0.99121922 0.10186654 0.00366724
0.013508558 0.033423886 0.0016147824 -0.13467258 0.97031242 0.20089066 0.0021934959
0.016512545 0.033979326 0.0015858201 -0.20060356 0.96448332 0.17184338 0.0028019419
0.019466711 0.034700479 0.0016982233 -0.25826976 0.953996 0.15227725 0.0023623363
0.022508362 0.03553921 0.0015964255 -0.27771005 0.94994295 0.14312816 0.0021801626
0.024264382 0.035944611 0.0023459147 -0.2912291 0.94270545 0.16276398 0.0026822474
0.069857098 0.03418234 0.0026502272 0.86271495 -0.35453275 0.36059606 0.0021577179
-0.069484718 0.038064431 0.0014438023 -0.85013074 -0.49310479 0.18473075 0.0028571265
-0.068612248 0.03672643 0.0013999608 -0.83763075 -0.53886878 0.089415424 0.0010596017
-0.024615774 0.038877234 0.0019874158 0.39605355 0.90157139 0.17409928 0.0017782198
-0.022459457 0.038078073 0.0017821608 0.35043949 0.92012221 0.17483501 0.0016233264
-0.019390197 0.03698099 0.0016767733 0.30763799 0.93441349 0.179528 0.0019472041
-0.017194979 0.036276333 0.0014186894 0.27315643 0.95576733 0.10906143 0.0021803989
0.023823658 0.036022782 0.00065221684 -0.29377174 0.9490304 0.11419044 0.0031432179
0.025707161 0.036500856 0.0015500505 -0.28725919 0.94606912 0.1497847 0.0019192662
0.028505757 0.037411887 0.0016308526 -0.32069921 0.93644691 0.14219432 0.0022588547
0.031502828 0.038476478 0.0016779666 -0.36199734 0.92209268 0.13675888 0.002689926
0.03324179 0.038918614 0.0029748685 -0.40132296 0.90585399 0.13553056 0.0027175739
0.071090952 0.037311394 0.0022637967 0.90724611 -0.25716975 0.33281875 0.0017989017
-0.07065507 0.040391356 0.0020590865 -0.86652255 -0.36344901 0.3421163 0.00294792
-0.030692579 0.041635327 0.0016990127 0.45373738 0.88496011 0.10472798 0.0018442487
-0.028444815 0.04059431 0.0016015575 0.41852027 0.90184945 0.10727745 0.0018819353
-0.025881963 0.039457906 0.0017455487 0.37863547 0.90856522 0.17647786 0.0019500995
0.032889098 0.039121069 0.0010769067 -0.4291932 0.89588439 0.11482335 0.0030316878
0.034544993 0.039839838 0.0015254781 -0.44132262 0.88591868 0.14276731 0.0026862693
0.037222829 0.041284427 0.0017321914 -0.50200403 0.8517707 0.14992905 0.0022714692
0.071782507 0.040419441 0.0022866495 0.91534978 -0.1392858 0.37780181 0.0014363349
0.072234116 0.041645918 0.0010529489 0.92951334 -0.12332854 0.34755582 0.0008201368
-0.072346479 0.044256553 0.0017866092 -0.88796282 -0.3077386 0.34178784 0.0021934642
-0.071749836 0.042981826 0.0022884305 -0.87698972 -0.33603424 0.34346765 0.0018714131
-0.036685951 0.04468355 0.0016913137 0.48989674 0.86484665 0.10973366 0.0018683842
-0.03427596 0.04343963 0.001702164 0.44522756 0.87561756 0.18725987 0.0017008631
-0.032205891 0.042424235 0.0013235111 0.42541942 0.89882118 0.10554065 0.0021109786
0.038591813 0.042218227 0.00094469631 -0.52975357 0.83852768 0.12740695 0.0029060289
0.040454801 0.043277651 0.0016637021 -0.53174734 0.83494061 0.14184104 0.0027940525
0.042610262 0.044638861 0.0018518526 -0.54261714 0.82711226 0.14646484 0.0021267226
0.072303131 0.043683618 0.0018872287 0.91483724 -0.094856873 0.39252388 0.0015397931
-0.073092058 0.046573922 0.0018162436 -0.87065387 -0.28681591 0.39962283 0.0043131318
-0.042347133 0.047812585 0.0016842445 0.50657392 0.8530184 0.12546907 0.002407751
-0.040513765 0.046803251 0.0017144667 0.47350582 0.85818434 0.19827181 0.0023050283
-0.03819615 0.045479726 0.0018389159 0.4552058 0.87065983 0.18638438 0.0018799665
0.044047594 0.045632049 0.0015077187 -0.53203541 0.83289927 0.15237179 0.0024094845
0.04635625 0.047105681 0.0016918154 -0.54072344 0.8255145 0.16169085 0.0030828249
0.072452031 0.046289265 0.0020637389 0.90822184 -0.064174816 0.41353929 0.0036858688
-0.075141996 0.050863635 0.00082590053 -0.84911996 -0.34187719 0.40263551 0.0063737608
-0.074058808 0.049416218 0.0019802749 -0.8329789 -0.31704214 0.45346498 0.0060741529
-0.048131779 0.050853051 0.0027332748 0.47400689 0.86677098 0.15500192 0.004104509
-0.046455316 0.050133072 0.0016060816 0.50094104 0.8538745 0.14126687 0.0026842845
-0.043835014 0.048675843 0.0015130825 0.46972364 0.87338495 0.12867942 0.0027414644
0.047800157 0.048108961 0.0013067765 -0.53449529 0.82755649 0.17165402 0.0029137933
0.049502935 0.049192432 0.001616632 -0.54819816 0.81581455 0.18418865 0.0032162352
0.051586207 0.050567061 0.0019314424 -0.54292721 0.8189252 0.18598813 0.0031507488
0.072560437 0.049673654 0.0017949087 0.88368607 0.01680918 0.46777824 0.0016558302
-0.075582452 0.052839447 0.0020136905 -0.81349242 -0.13697436 0.56521517 0.011877888
-0.074648038 0.05163642 0.0028111299 -0.79837888 -0.27276793 0.53683215 0.0062644919
-0.05410447 0.053999458 0.0024737543 0.41855454 0.89191693 0.17116155 0.0062284456
-0.052576393 0.053375077 0.0019310542 0.42621565 0.86950415 0.2496053 0.0031209821
-0.049287345 0.051657319 0.0018687361 0.43370533 0.86501163 0.25229847 0.0024662481
-0.047945801 0.051046684 0.001502384 0.47761956 0.86553848 0.15074098 0.0050418624
0.053029519 0.051616434 0.0015199455 -0.52766234 0.82501477 0.20229478 0.0035682907
0.055353392 0.053076599 0.0016993927 -0.55009073 0.81276053 0.19188668 0.0039738216
0.057082228 0.05391933 0.0026474316 -0.55525112 0.79401791 0.24745041 0.0062076403
0.072463199 0.052572582 0.0022576873 0.85039741 0.023135636 0.52563202 0.002719467
-0.076076679 0.055657864 0.0020336222 -0.80956227 0.25532177 0.52860171 0.04896779
-0.060549129 0.056620628 0.0019027926 0.45248851 0.84311426 0.29053858 0.0065598018
-0.058485389 0.055771757 0.0017831881 0.3492122 0.89587861 0.2746861 0.0059467554
-0.05553855 0.054674268 0.0018826531 0.32800269 0.90675551 0.26496935 0.0032663515
-0.053726949 0.054132454 0.00095614576 0.40437081 0.90287572 0.1459441 0.0089518512
0.056847196 0.054221373 0.00097180862 -0.55425966 0.80163515 0.2240027 0.0053152596
0.058568921 0.055257935 0.0016574984 -0.55418068 0.78528005 0.27607816 0.0065957694
0.060449492 0.056608405 0.0019276874 -0.64114475 0.7131924 0.28335509 0.0091792895
0.072659791 0.055577327 0.0017740548 0.80661887 0.0061047664 0.59104037 0.0041351966
-0.075403146 0.057485383 0.0018405368 -0.77594954 0.48493546 0.40341026 0.052645188
-0.073407672 0.058678567 0.0012949184 -0.53562379 0.81030095 0.23773842 0.021641159
-0.071327657 0.059692293 0.00085859135 -0.35233355 0.92519063 0.14100872 0.0093500763
-0.066382639 0.059750784 0.0025711597 0.30771089 0.81378525 0.49301878 0.01119199
-0.064440683 0.058983028 0.0019114328 0.471751 0.80067372 0.3692866 0.0048830123
-0.062097475 0.057548251 0.0017717785 0.45152485 0.82485533 0.34020418 0.0078619048
0.061937597 0.058291197 0.001609413 -0.73247981 0.57391268 0.36619344 0.016120648
0.063428305 0.059637163 0.0024575491 -0.76279056 0.49784169 0.41267937 0.012452361
0.072422877 0.058926042 0.002347705 0.56374764 0.088129736 0.82123178 0.0070007378
-0.069614165 0.060413301 0.0022240074 -0.14454085 0.95608646 0.2549639 0.029077351
-0.067603864 0.060556155 0.001803732 0.098531798 0.96413392 0.24644926 0.029123753
-0.065789707 0.060149454 0.000959164 0.36871451 0.88126457 0.2956728 0.013876339
0.06288965 0.060041592 0.00051355804 -0.78674889 0.57173169 0.23269953 0.014266299
0.064181924 0.061566193 0.0018319503 -0.72788185 0.41615987 0.54497612 0.016955841
0.071941584 0.06013291 0.002994362 0.34522444 0.17462845 0.9221307 0.0093673207
0.07275071 0.061985273 0.0022045281 0.3025361 0.059632268 0.9512707 0.012672052
0.065131754 0.064407773 0.001689491 -0.72716647 0.28534338 0.62434614 0.013300502
0.066348143 0.065195262 0.0027861698 -0.56894368 0.23506023 0.7880671 0.032349307
0.072734289 0.064561583 0.0025049762 0.22163406 0.023154318 0.97485495 0.01316945
0.065506071 0.067185946 0.0010595516 -0.74151158 0.22459413 0.63223249 0.014703254
0.066923231 0.067669757 0.0024466664 -0.56159085 0.24245605 0.79109466 0.026445985
0.069336213 0.068381332 0.0028952083 -0.12722133 0.062111545 0.98992777 0.017957393
0.07342311 0.067374706 0.0024764985 0.20907734 -0.067411624 0.97557282 0.0139741
0.075052142 0.068864353 0.00076970132 0.54399616 -0.21672232 0.81061679 0.015860297
0.065910555 0.069532886 0.00071467692 -0.68561417 0.21198621 0.69641584 0.018291265
0.06740997 0.070466593 0.0020677305 -0.58478183 0.12436281 0.80160093 0.023595378
0.069237642 0.070395678 0.0028815363 -0.32264665 -0.010331182 0.94646311 0.012525685
0.07425487 0.070174567 0.0026701698 0.22731797 -0.19263473 0.95457757 0.019383082
0.075377204 0.070739895 0.0015610489 0.7495662 -0.2184456 0.62484568 0.016252592
0.06763953 0.073430441 0.0018697892 -0.74150127 0.072454348 0.66702783 0.026215538
0.069125652 0.072713926 0.0029580258 -0.48418817 -0.049057759 0.87358755 0.016437329
0.074954197 0.072124392 0.0029551208 0.75077158 -0.077024505 0.65605587 0.067272916
0.076127537 0.07377068 0.001801646 0.2620196 -0.19246389 0.94567621 0.067566119
0.06781432 0.076260664 0.0016570444 -0.6343509 0.55803889 0.53496867 0.084119737
0.070520177 0.076622486 0.0014515367 0.06574443 0.94850379 0.30986822 0.050736271
0.073602229 0.075685248 0.0018439508 0.35960868 0.90946555 0.20869599 0.027619809
0.075420082 0.075123914 0.0014466795 0.48365402 0.83922684 0.24855 0.048989303
-0.016017567 0.0025322628 0.0038948897 -0.18055926 -0.8910774 0.41638857 0.00045711023
-0.013369603 0.002295702 0.0045979549 -0.14897652 -0.89415532 0.42224666 0.00035230033
-0.010194966 0.0017661937 0.0044843471 -0.098292299 -0.91643035 0.38793573 0.0016518063
-0.0075279046 0.001682548 0.0051151696 -0.066277467 -0.91210693 0.40455937 0.0018143125
-0.0042507704 0.0011919939 0.0043997969 -0.039972633 -0.90889591 0.41510302 0.0019816109
-0.00085944129 0.0012122722 0.0048356587 -0.021131469 -0.88203222 0.47071508 0.0010763688
0.0010658201 0.0012865404 0.0049740579 0.0029343506 -0.87728143 0.47996742 0.00069141015
0.0044819913 0.0012603581 0.0046817889 0.053122282 -0.9084208 0.41466826 0.00097697496
0.0075173182 0.001415549 0.0047409018 0.057082165 -0.91205055 0.40608561 0.00089539285
0.010179549 0.0016052612 0.004718204 0.081459515 -0.91440678 0.39651558 0.0015410481
0.013793699 0.0022431293 0.0053194137 0.11432984 -0.86982995 0.47992152 0.0010054593
0.016497128 0.0024100931 0.0050446177 0.11835901 -0.86127865 0.494156 0.0010848005
0.019182574 0.00256962 0.0044388985 0.11796053 -0.89224094 0.43588015 0.00208573
0.02142239 0.0026927479 0.0037161538 0.15835494 -0.87187749 0.463415 0.0016231951
-0.027186828 0.0055530854 0.0031665601 -0.30035424 -0.89010721 0.34277776 0.00047952644
-0.025329141 0.0053237583 0.0043540206 -0.27524 -0.88558447 0.37414321 0.00081401656
-0.022524955 0.0045691798 0.004725805 -0.2592797 -0.88375908 0.38954327 0.00060359901
-0.019439859 0.0036488418 0.0046224301 -0.23986641 -0.88243479 0.40468881 0.00075461797
-0.016647689 0.003199588 0.0052580759 -0.19644259 -0.87205958 0.44824368 0.00064541464
-0.014731899 0.0030940603 0.0059755137 -0.17009652 -0.86532909 0.47145814 0.00090192922
0.020342043 0.0033043262 0.0056128469 0.12922317 -0.85551733 0.50138956 0.0028380735
0.022308167 0.0035098535 0.0052914536 0.1627309 -0.81357771 0.55822033 0.0008278609
0.025327519 0.0041293483 0.0051389458 0.17687483 -0.8114413 0.55702639 0.00090734789
0.028311335 0.0049399938 0.0052216193 0.22889774 -0.79785579 0.55770248 0.0021689986
0.031359408 0.00552662 0.0043638679 0.2564587 -0.82630008 0.50145495 0.0018124364
-0.034017351 0.0083799819 0.0041990448 -0.34367403 -0.86671114 0.36152443 0.00049350882
-0.03154587 0.0075769247 0.004606694 -0.31674913 -0.87434024 0.36769444 0.00032370503
-0.02857101 0.0065286416 0.0046669929 -0.30901673 -0.8792311 0.36257595 0.00041180311
-0.026460335 0.0061265263 0.0055364911 -0.29835773 -0.86641777 0.40037856 0.00062586728
0.031931411 0.0062610125 0.0057279207 0.26950139 -0.8149001 0.51313424 0.002336239
0.034822326 0.0070293257 0.005181063 0.27959976 -0.82842177 0.48532611 0.0014448097
0.037586991 0.008153338 0.0053122938 0.31816897 -0.81104612 0.4908897 0.0015067875
0.039335068 0.0088183787 0.0051515955 0.34042719 -0.80383551 0.48780927 0.00059102586
-0.04226464 0.011883125 0.0032348291 -0.47019836 -0.81389201 0.3413111 0.00075150013
-0.040364079 0.011337304 0.0045405603 -0.40859714 -0.84200025 0.35225558 0.00058728125
-0.037471868 0.0099780839 0.0045941938 -0.38119602 -0.84894586 0.36603358 0.00029755279
-0.035190556 0.0091977343 0.0052000717 -0.34367386 -0.86671102 0.36152503 0.0004933037
0.040985476 0.0095536914 0.0051958244 0.35889629 -0.79220742 0.49355945 0.00050372089
0.043283004 0.010799242 0.0055065453 0.3875168 -0.78768712 0.47893605 0.00062245817
0.045543596 0.011793701 0.0051404964 0.41130275 -0.77550352 0.47898269 0.00043725758
-0.045883883 0.01444181 0.0044358419 -0.50392962 -0.78655201 0.35691857 0.00070526841
-0.043658167 0.013171198 0.0046348055 -0.47593808 -0.81132412 0.33946452 0.00069027697
-0.041722037 0.01242512 0.005584267 -0.44024217 -0.80666363 0.39431041 0.0007122581
0.047044873 0.0126921 0.0053331493 0.42432207 -0.7664631 0.48216721 0.00035015855
0.049214672 0.014031483 0.0054846378 0.44591188 -0.74777913 0.49192381 0.00085522921
-0.049340434 0.016840048 0.0045539592 -0.53342777 -0.7727986 0.34385625 0.00055628276
-0.047214348 0.015495873 0.0048707472 -0.5118255 -0.78259808 0.35436547 0.00062973244
0.052279763 0.015824527 0.0051436718 0.49957061 -0.72614139 0.47238529 0.00024628031
0.054809351 0.017497825 0.0049703661 0.51852268 -0.69825369 0.49353424 0.00075657677
-0.054554369 0.020614842 0.0043626418 -0.56578994 -0.72048974 0.40096912 0.0004566524
-0.052508783 0.019219242 0.0047019245 -0.55271852 -0.73380333 0.39501253 0.0002349514
-0.050757658 0.018202605 0.0053678565 -0.54453945 -0.74000376 0.39480528 0.00030920774
0.055594016 0.018353244 0.0055026114 0.52728552 -0.70061237 0.48074141 0.00052147132
0.058027118 0.019888923 0.0046867523 0.5772301 -0.67475843 0.45989838 0.00061805971
-0.057694059 0.023274736 0.0045748879 -0.6198861 -0.68481141 0.38311175 0.00073354674
-0.055869896 0.021876458 0.0049517034 -0.5830875 -0.71416587 0.38726762 0.00050006312
0.059337564 0.021348298 0.0053767199 0.59625256 -0.64693564 0.47534955 0.00074044708
0.061191101 0.022915253 0.0049403091 0.62797713 -0.62518936 0.46344692 0.00070857862
-0.060628403 0.026162708 0.0046077301 -0.67300355 -0.62372649 0.39753175 0.00071150617
-0.059088919 0.024714489 0.0048706708 -0.6417976 -0.65026927 0.40650424 0.00070825143
0.06258291 0.024697114 0.0054530185 0.65679634 -0.57762307 0.48473728 0.0010599628
0.063951425 0.02615002 0.0052383048 0.69027764 -0.54816806 0.47225913 0.001188556
-0.063460216 0.029586999 0.0047487579 -0.76040971 -0.54241037 0.35716671 0.0054431874
-0.061940916 0.028052736 0.005338815 -0.69108367 -0.56044143 0.45640853 0.00058848393
0.065488309 0.028379411 0.0053332858 0.71800023 -0.46608523 0.51695287 0.0018231648
0.066571333 0.029189637 0.0043473425 0.784455 -0.4849723 0.38656455 0.0015034465
-0.064833716 0.031802908 0.0051931962 -0.76953346 -0.51638627 0.37571722 0.0069667785
-0.0069869296 0.032797366 0.0055332202 0.16475132 0.92128509 0.35226512 0.0022736273
-0.0043840487 0.032645751 0.0049408483 0.13452542 0.92467415 0.35620305 0.0019549986
-0.0015471558 0.032432687 0.0045834612 0.095961764 0.93300688 0.34682795 0.0019575707
0.001469851 0.032187317 0.0046553612 0.045362175 0.93614924 0.34866443 0.0022995279
0.0044906382 0.032161947 0.0045099403 0.011189361 0.93516356 0.35403955 0.002081047
0.0075649507 0.03213406 0.0046732444 -0.048634436 0.93909508 0.3401987 0.0025924956
0.010579777 0.032321632 0.0047260569 -0.088379361 0.92799318 0.36196366 0.0026703421
0.013509519 0.032630015 0.0047821291 -0.1412968 0.92182088 0.36094525 0.0025342619
0.016082101 0.032824632 0.0054797665 -0.2053701 0.91157973 0.35615376 0.0026245881
0.067689955 0.031507064 0.0048272675 0.80998129 -0.41076061 0.41857633 0.0023175383
0.069023304 0.032929346 0.0035144154 0.81010556 -0.41059473 0.41849846 0.0022247029
-0.066840291 0.034732245 0.0048363591 -0.79821867 -0.4179835 0.43374726 0.004691869
-0.065753654 0.033479709 0.0056994352 -0.73972815 -0.45533451 0.49545208 0.0021423046
-0.018599438 0.035711858 0.0055210288 0.31122619 0.89733273 0.3129411 0.0021116445
-0.016492622 0.035318691 0.0047085811 0.28453076 0.90945494 0.30320612 0.001781877
-0.013532865 0.03452279 0.0046517514 0.23398137 0.91718054 0.32254082 0.0017484939
-0.0105022 0.033805754 0.0046463422 0.19391161 0.92618102 0.32339916 0.0015984835
-0.0077066883 0.033415046 0.004175317 0.16138144 0.93600041 0.31282464 0.0020208647
-0.0051343692 0.033242375 0.0034807029 0.13763411 0.94799948 0.28697354 0.0046549463
0.014119973 0.033182204 0.0033645458 -0.12846935 0.97467524 0.18304057 0.0027897088
0.016712477 0.033443186 0.0041789878 -0.20029722 0.92571354 0.32083544 0.0025181673
0.019523986 0.033987466 0.0046232524 -0.22750036 0.9157896 0.33101818 0.0023787029
0.022510843 0.034804266 0.004601005 -0.26229182 0.90883785 0.32437128 0.0022285045
0.025281606 0.035560317 0.0048229829 -0.30257463 0.89919347 0.31606922 0.0022619704
0.027398407 0.03588878 0.0056286128 -0.31365564 0.8818059 0.35219097 0.0031872201
0.068495631 0.033875138 0.0055162236 0.82396764 -0.35289249 0.44333315 0.0016481519
0.069442391 0.035004146 0.0045702695 0.84399825 -0.33480284 0.41901556 0.0020136258
-0.069258787 0.038436819 0.0037195869 -0.84272695 -0.46445936 0.27219263 0.0079769036
-0.067926355 0.037166651 0.0053842836 -0.80325282 -0.36435184 0.4712033 0.0025212134
-0.027120754 0.038908329 0.0057258951 0.40027699 0.84074396 0.36459282 0.0028005119
-0.025234306 0.038448367 0.004760887 0.3768211 0.87756175 0.29646465 0.001588171
-0.022507094 0.037412781 0.0046233083 0.32909712 0.89062685 0.31381375 0.0018025507
-0.019736372 0.036447112 0.004478775 0.30577257 0.90548027 0.29429343 0.0018697707
-0.017720677 0.03608463 0.003530192 0.28461844 0.91865712 0.27397349 0.0012523893
0.026362814 0.036280688 0.0036859028 -0.28515303 0.92720318 0.24286191 0.0018392993
0.028623635 0.036768008 0.0045068376 -0.30242351 0.89994687 0.31406322 0.0023358983
0.031488035 0.037741069 0.0046313829 -0.35118851 0.88093185 0.31721544 0.0029926698
0.033845212 0.038601223 0.0049626203 -0.42337024 0.8524074 0.30685392 0.0029843282
0.070308298 0.03767091 0.0046623629 0.86738062 -0.24316256 0.43419218 0.002117512
-0.069726206 0.040510062 0.0048096874 -0.80436301 -0.29753628 0.51426876 0.0019004635
-0.068790019 0.039344408 0.0056579323 -0.79571825 -0.31564453 0.51691478 0.0033806895
-0.033266772 0.041879073 0.0054964805 0.4107528 0.8599689 0.30287889 0.0023993214
-0.031464726 0.041248243 0.0048384648 0.41414419 0.85652989 0.30796281 0.0018074278
-0.028599897 0.03997086 0.0046362826 0.39330012 0.86536276 0.31058368 0.0018572299
-0.026493549 0.039250974 0.0039474275 0.36987111 0.88538647 0.28157821 0.0018875665
0.035110503 0.039503746 0.0041760523 -0.41832581 0.85402924 0.30925313 0.0029567229
0.037520196 0.040694322 0.0045562424 -0.46719599 0.82062763 0.32908672 0.0030725512
0.039561916 0.041662242 0.0051851156 -0.49278662 0.80536759 0.32946077 0.0027272722
0.070913583 0.040601369 0.0047086263 0.90522945 -0.13637118 0.40244561 0.0020241158
-0.072182499 0.044918526 0.0031256147 -0.86503661 -0.36241153 0.34694317 0.0079095876
-0.070651583 0.04340658 0.0049680159 -0.81200629 -0.24166313 0.53126705 0.0026316289
-0.039121747 0.044712007 0.0058888248 0.41661018 0.81367266 0.40542901 0.0019289989
-0.037291665 0.044232581 0.0047377311 0.44581711 0.83501023 0.32249802 0.0017523589
-0.034559205 0.042834792 0.0046623531 0.42524561 0.85075778 0.30883232 0.0021423891
-0.032692399 0.042166222 0.0038856352 0.41843534 0.86092412 0.28934693 0.0014043426
0.040888414 0.042813513 0.0043414985 -0.4931201 0.80610269 0.3271561 0.0024271673
0.04332168 0.044184249 0.0047665578 -0.49134094 0.79551399 0.35460049 0.0032051268
0.045118894 0.044882361 0.0057170521 -0.46673834 0.7887044 0.40012598 0.0042403922
0.071315438 0.04349567 0.0046415944 0.90926695 -0.10529869 0.40267333 0.0016884467
-0.072462797 0.047005098 0.0037385679 -0.79276264 -0.21762823 0.56935531 0.0024302017
-0.071372397 0.046368942 0.0051243533 -0.7778917 -0.1719036 0.60442829 0.0041340054
-0.045059294 0.047789972 0.0059705963 0.40271607 0.78875035 0.46442729 0.0010019825
-0.043231726 0.047334198 0.0049677859 0.45671713 0.81964797 0.34581289 0.0020199188
-0.040597428 0.046064857 0.0045787604 0.44539294 0.8337853 0.32623193 0.002030445
-0.038577966 0.045267038 0.0037265033 0.44311297 0.84068048 0.31129941 0.0021469276
0.044582341 0.045373037 0.0038876822 -0.50097185 0.79820555 0.33450714 0.0023754581
0.046527073 0.046316896 0.0045219255 -0.50140101 0.7923699 0.34748667 0.0030253732
0.048805609 0.047507867 0.0050165709 -0.51448399 0.77982754 0.35661647 0.0031015333
0.071071111 0.046551924 0.005292628 0.76056188 0.03094021 0.64852786 0.002406979
0.072089359 0.046610821 0.0033092783 0.88619989 -0.0097944308 0.46319962 0.0038071177
-0.072820805 0.049739804 0.0043183765 -0.73151994 -0.19484912 0.65338522 0.0055438285
-0.071633659 0.049375329 0.0056035817 -0.70442265 -0.13045362 0.69768947 0.0064469893
-0.049039137 0.050425958 0.0050143208 0.41494846 0.81544846 0.40356123 0.0023201623
-0.04647607 0.049269941 0.0045612003 0.43851215 0.81608808 0.3764402 0.0020530161
-0.044281095 0.048324037 0.0039552632 0.4433867 0.8265729 0.34667784 0.0017499728
0.0500287 0.048670541 0.0042637349 -0.51252079 0.77305025 0.37378556 0.0029318088
0.052334163 0.049918622 0.0047601373 -0.49513984 0.76109093 0.41901937 0.0040084147
0.054370034 0.05066213 0.0056373323 -0.45851934 0.73548597 0.49881896 0.0036776923
0.07124798 0.048908193 0.0049681743 0.77688241 0.075186372 0.62514061 0.0031641237
0.072018281 0.048349671 0.0035451092 0.8773427 0.012523328 0.47970101 0.0023087729
-0.075224757 0.053758528 0.0031596217 -0.77851981 -0.093090527 0.62067795 0.013997813
-0.073379077 0.052612763 0.0046265298 -0.64833575 -0.11886351 0.75201881 0.0047271857
-0.071777917 0.052177224 0.0058790962 -0.59996998 -0.025759926 0.79960763 0.0068962215
-0.057509024 0.053703289 0.0057966285 0.23758513 0.79852319 0.55309492 0.0023939144
-0.055291381 0.0534188 0.0049320292 0.33928856 0.84240329 0.41861683 0.0025596775
-0.052521426 0.052324262 0.0047090915 0.36657313 0.82761014 0.4250713 0.0021594998
-0.050179005 0.051468033 0.0040131658 0.40286216 0.82421488 0.3979598 0.0018535579
0.053557355 0.051281542 0.0036786885 -0.48590219 0.78075743 0.39283198 0.0020033668
0.055639815 0.052103173 0.00449062 -0.46838775 0.77513719 0.42399919 0.0034404639
0.058126837 0.053238366 0.0050288867 -0.43521222 0.73862123 0.51480967 0.0050685401
0.060357284 0.05385508 0.0058567338 -0.38986528 0.64807117 0.65422386 0.0049884291
0.070762329 0.052951757 0.0051592481 0.65737706 0.14535932 0.73940933 0.0056199227
-0.075308673 0.055479314 0.0033584086 -0.75323206 0.15220362 0.63990277 0.037372433
-0.073478892 0.055527043 0.0048789107 -0.59918666 0.087408781 0.79582351 0.009037626
-0.071336634 0.056123395 0.0058278847 -0.31690687 0.24121204 0.91727138 0.018706614
-0.066923946 0.056673672 0.0058325971 0.09742716 0.56814688 0.81713963 0.0081653334
-0.064224698 0.056272637 0.0053492598 0.2549189 0.67933357 0.68812948 0.0064492044
-0.061495822 0.055662721 0.0046470878 0.30823413 0.78833473 0.53246593 0.0075344327
-0.058609758 0.054765161 0.0044639595 0.26548281 0.8491509 0.45657605 0.0030672897
-0.05617271 0.054319751 0.0038153424 0.33008578 0.85719955 0.39528778 0.0022026154
0.059109632 0.054572374 0.0039638248 -0.49945304 0.72846186 0.46892434 0.005082278
0.06143558 0.055616826 0.0046858615 -0.43938255 0.68251395 0.58405286 0.0069234581
0.063979849 0.056458298 0.0055879098 -0.27280709 0.57060415 0.77458841 0.0093788197
0.068178624 0.056751765 0.0059438236 0.090328865 0.37623236 0.92211169 0.017870674
0.070320137 0.055740479 0.0051165037 0.49104479 0.23981465 0.83747476 0.0090915347
0.072122961 0.055618726 0.00307266 0.79708099 0.050017271 0.6017974 0.0035959454
-0.075171456 0.057056982 0.003001556 -0.79626584 0.41088581 0.4439972 0.035227496
-0.073238477 0.057887763 0.0043213791 -0.50927019 0.56133598 0.65233868 0.022963485
-0.070436865 0.058460381 0.0048889383 -0.13398732 0.60776007 0.78273571 0.017179647
-0.067542389 0.058404464 0.0045726653 0.20306978 0.67561525 0.708736 0.0058238977
-0.064759038 0.057810459 0.0040180129 0.35626757 0.71015304 0.60725284 0.0048519443
-0.062597096 0.057205558 0.0032183605 0.45787436 0.77911383 0.42817375 0.014887439
0.062490523 0.057540793 0.0035282585 -0.5871802 0.59681958 0.5468325 0.0078844782
0.06455192 0.058420464 0.0044669001 -0.4601382 0.50426251 0.7307477 0.016356356
0.067462653 0.058569442 0.0053545162 0.024230877 0.36147419 0.93206722 0.01888592
0.070356272 0.058555648 0.0044945325 0.41447043 0.27273333 0.86823428 0.0083241509
0.072037078 0.057524826 0.003131679 0.76543856 0.029997595 0.64280939 0.0038743173
-0.069614567 0.060074016 0.0033904584 -0.13583016 0.89962614 0.41499764 0.029108798
-0.068465009 0.060041204 0.0033827573 0.17151764 0.7896142 0.58914441 0.021571364
0.065345846 0.061161552 0.003500344 -0.56135809 0.30053598 0.77107406 0.010610101
0.067460187 0.061512277 0.004300152 -0.18449995 0.26335427 0.94689184 0.030623829
0.070455015 0.061496396 0.0038230487 0.26505342 0.1754082 0.94814479 0.017870074
0.06592761 0.063427523 0.0031196224 -0.63759476 0.27592123 0.71926385 0.01433927
0.067577347 0.064383604 0.0035281384 -0.24489851 0.22333737 0.94347507 0.020837739
0.070413716 0.064469866 0.0034015432 0.10032181 0.028439432 0.99454856 0.020655163
0.072139859 0.065044582 0.0030637353 0.23405708 0.0069574029 0.97219795 0.018712964
0.068237565 0.066933759 0.0031582385 -0.3313331 0.15690471 0.93037593 0.020349707
0.070531011 0.067456611 0.0032269843 -0.030988537 -0.041832834 0.99864399 0.016287716
0.07238058 0.067816481 0.0032188904 0.19210973 -0.060972884 0.97947747 0.014576641
0.070739232 0.070560306 0.0035083219 -0.10778719 -0.11187711 0.98785901 0.023784764
0.073054679 0.070670553 0.0035482196 0.1782819 -0.18192029 0.96701634 0.023545614
0.068922669 0.074483685 0.0030447789 -0.62542951 0.013130884 0.78017014 0.039290555
0.070497185 0.073545098 0.0039810264 -0.32434204 -0.11510082 0.93891108 0.012593597
0.07341139 0.073549181 0.0042735324 0.29722169 -0.0051969639 0.95479435 0.056353733
0.075500436 0.073951676 0.0032477141 0.47827008 -0.095525868 0.87300205 0.04135377
0.068805344 0.075747766 0.0031996798 -0.5365994 0.345249 0.76997674 0.076602027
0.070441566 0.07587754 0.0041247695 -0.28330597 0.31074506 0.90729004 0.064786099
0.073110819 0.075450771 0.004451199 0.22651893 0.5009886 0.83528411 0.060147896
0.07516849 0.075048558 0.0032688053 0.11725727 0.97831005 0.17076358 0.059572473
-0.013065378 0.0028774517 0.0062203603 -0.12830818 -0.83332634 0.53768414 0.00025155861
-0.010365524 0.0026807559 0.0065919235 -0.11384497 -0.84878254 0.51634061 0.00068587076
-0.0072378051 0.0025084275 0.0069294306 -0.071486153 -0.84671533 0.52722186 0.00092725613
-0.0041556405 0.0022318163 0.0068291361 -0.029446097 -0.85370326 0.51992655 0.0012865668
-0.0016301003 0.0025437875 0.0075325398 -0.016869919 -0.85480779 0.51867044 0.0017265247
0.0017274634 0.0021186254 0.0067736697 0.013417437 -0.85360253 0.52075195 0.0016078779
