# .PCD v0.7 - Point Cloud Data file format
VERSION 0.7
FIELDS x y z normal_x normal_y normal_z curvature
SIZE 4 4 4 4 4 4 4
TYPE F F F F F F F
COUNT 1 1 1 1 1 1 1
WIDTH 558
HEIGHT 1
VIEWPOINT 0 0 0 1 0 0 0
POINTS 558
DATA ascii
0.013633539 0.016507722 -0.016714545 -0.04211263 -0.081890844 -0.9957512 0.003938789
0.016592385 0.016497964 -0.016824069 -0.038520429 -0.11339461 -0.99280304 0.0039967154
0.019497335 0.016489124 -0.016910572 -0.024371531 -0.16438799 -0.98609465 0.0047433395
0.022519708 0.016459526 -0.016938327 0.0017660453 -0.20653476 -0.97843766 0.0043813088
0.025541404 0.016550472 -0.01690734 0.026398189 -0.25032157 -0.96780282 0.0039106891
0.028574226 0.016477438 -0.016759077 0.052681204 -0.29607058 -0.95371217 0.003626473
0.031543564 0.016489342 -0.016479457 0.09048871 -0.34261835 -0.93510669 0.0032784662
0.034504969 0.016459903 -0.016063891 0.15182133 -0.40001765 -0.90384525 0.0025181873
0.03737881 0.016835062 -0.015671628 0.18761651 -0.44248357 -0.87693113 0.0027493311
0.040022101 0.017467471 -0.015365529 0.23872252 -0.47972095 -0.84432191 0.0019418774
0.042045891 0.017938815 -0.015196066 0.28549653 -0.51916236 -0.80558193 0.0013402649
-0.036200717 0.020932335 -0.015070228 -0.26352865 -0.47832605 -0.83770931 0.0016850817
-0.034205496 0.020452153 -0.015329622 -0.20410366 -0.39987442 -0.89355588 0.0014176052
-0.031350318 0.01985025 -0.01556819 -0.1374106 -0.31738365 -0.93828887 0.0027200738
-0.028442541 0.019460997 -0.015873196 -0.11445551 -0.32344615 -0.93929899 0.0028835319
-0.025453215 0.019587984 -0.016243584 -0.071752116 -0.26820597 -0.96068579 0.0037808337
-0.022469738 0.019479409 -0.016423216 -0.045506325 -0.20850401 -0.97696227 0.0051300447
-0.019507768 0.019533737 -0.016508965 -0.0087043345 -0.12556276 -0.99204749 0.003923953
-0.016531371 0.01946694 -0.01651036 0.01288301 -0.07832735 -0.99684441 0.0056838975
-0.013529494 0.019514421 -0.016444543 0.036429331 0.080131315 -0.99611837 0.0056665111
-0.010502097 0.019495962 -0.016331233 0.036083281 0.12121966 -0.99196965 0.0041546579
-0.0074994438 0.019595176 -0.016189346 0.037281841 0.15445891 -0.98729551 0.0035113804
-0.0045094681 0.019457398 -0.016105404 0.02306244 0.17893119 -0.98359126 0.0030216046
-0.0014699331 0.019548809 -0.016018966 0.011019698 0.19778131 -0.9801842 0.0027465299
0.0014656702 0.019495638 -0.016015017 -0.0037784446 0.20925485 -0.97785383 0.002616127
0.0044778767 0.019431006 -0.016060811 -0.021106524 0.21671107 -0.97600758 0.002579849
0.0074430644 0.019485706 -0.016143238 -0.036609143 0.22047102 -0.97470623 0.0026906158
0.01047805 0.019437162 -0.01630763 -0.051225729 0.21635284 -0.97497046 0.0028653319
0.013503046 0.019432828 -0.016500538 -0.065688372 0.20453493 -0.97665274 0.0034190163
0.01650854 0.019443588 -0.016705545 -0.070310183 0.18676351 -0.97988558 0.004258947
0.019449985 0.019440211 -0.016917842 -0.061675251 0.15640001 -0.98576629 0.0051765996
0.022455253 0.019424206 -0.017099567 -0.049543917 0.05475359 -0.99727005 0.0052327192
0.025404731 0.019549886 -0.017237047 -0.028005712 0.020316027 -0.99940127 0.0043716053
0.028407933 0.019524569 -0.017310264 -0.00099341932 -0.05241923 -0.99862468 0.0042566657
0.031503297 0.01956916 -0.017271506 0.036019109 -0.1872897 -0.98164421 0.0055361143
0.034500252 0.019469464 -0.017083712 0.075289838 -0.24463516 -0.96668768 0.0046432572
0.037506331 0.019537365 -0.016743464 0.12669891 -0.30211979 -0.94481272 0.0040284861
0.040492561 0.019588031 -0.016237164 0.1836801 -0.34907579 -0.91891658 0.0031576215
0.043341171 0.019887803 -0.015629122 0.25493592 -0.41244307 -0.87458462 0.0023163902
0.045727864 0.020672478 -0.015257328 0.3107174 -0.45843479 -0.83264172 0.0025647141
-0.039698862 0.023395805 -0.015194089 -0.27822334 -0.4156788 -0.8659116 0.0030399282
-0.037295789 0.022936864 -0.0155662 -0.19165866 -0.2995187 -0.9346419 0.004008776
-0.034473117 0.022555649 -0.015995698 -0.16136584 -0.27535304 -0.94770342 0.0037308864
-0.031476032 0.022599535 -0.016410187 -0.083500177 -0.20261705 -0.97569162 0.0054283738
-0.028544577 0.022505065 -0.016621338 -0.053068858 -0.16087416 -0.98554713 0.0054701287
-0.025518455 0.022504548 -0.016694752 -0.0025309743 -0.089247823 -0.99600625 0.0063864533
-0.022541678 0.022447372 -0.016648967 0.033277135 0.091230646 -0.99527365 0.0062681795
-0.019549554 0.022532245 -0.016484397 0.056847081 0.14806996 -0.98734176 0.0047368612
-0.016535226 0.022416027 -0.016275987 0.072152585 0.19954214 -0.97722918 0.0035240485
-0.013522039 0.022551054 -0.015974266 0.07338123 0.24189816 -0.96752286 0.002702662
-0.010526031 0.022453688 -0.015733527 0.072044611 0.27895316 -0.95759845 0.0020768205
-0.0075218291 0.022290081 -0.015529276 0.062141199 0.31627271 -0.9466309 0.0023193934
-0.0044941562 0.022061966 -0.015420849 0.044696461 0.34727189 -0.93669868 0.0023421124
-0.0015530586 0.021817425 -0.015370339 0.026133714 0.37313464 -0.92740905 0.0027408451
0.0014574308 0.021752208 -0.015339549 0.0083728796 0.38868022 -0.92133468 0.0026630012
0.0044714692 0.021688424 -0.015378352 -0.016173534 0.39628652 -0.91798443 0.0027556941
0.0075393287 0.021843143 -0.01541689 -0.040977549 0.3919194 -0.91908658 0.0026894722
0.010600713 0.022042662 -0.015527208 -0.057537902 0.37707272 -0.92439467 0.0022052403
0.013547051 0.022241766 -0.015673034 -0.074244492 0.36245602 -0.92903894 0.0022572235
0.016518386 0.022388825 -0.015916368 -0.093955509 0.34591112 -0.93355119 0.0018776819
0.019512437 0.022454081 -0.016224893 -0.10702803 0.32312772 -0.94028372 0.0023676341
0.022495948 0.022474797 -0.016575985 -0.11068984 0.28068152 -0.95339692 0.0028035967
0.025491705 0.022542587 -0.016891841 -0.095431864 0.24497052 -0.96482235 0.0039404226
0.028495146 0.022476913 -0.017175043 -0.079343006 0.19809699 -0.97696584 0.0053598848
0.031582136 0.022602463 -0.017344937 -0.038119964 0.097323537 -0.99452251 0.004146528
0.034485027 0.022497205 -0.017415456 0.0038729322 0.023641424 -0.99971306 0.0051152525
0.037417203 0.022545272 -0.017338252 0.059273265 -0.062208779 -0.99630159 0.0070996773
0.040519379 0.02255396 -0.017063856 0.12061888 -0.20287538 -0.97174722 0.0052570761
0.043489873 0.022509681 -0.016541844 0.17939866 -0.26180205 -0.94830155 0.0039587333
0.046417747 0.022624806 -0.015861632 0.26441157 -0.32307291 -0.9086861 0.0026305148
0.048823342 0.023262866 -0.015315429 0.32447419 -0.36641276 -0.87204254 0.0023919612
-0.045029316 0.026825802 -0.015034633 -0.33049887 -0.40628409 -0.85188252 0.0022000831
-0.042949032 0.026216066 -0.01530638 -0.23498687 -0.27587888 -0.93202579 0.0026508067
-0.040434789 0.025536411 -0.015709089 -0.20949955 -0.27817991 -0.93740374 0.0025967918
-0.037402276 0.025599962 -0.016301833 -0.12315766 -0.16719769 -0.97820097 0.0041401931
-0.034441944 0.025503263 -0.016625315 -0.073193818 -0.11966801 -0.99011225 0.0056805485
-0.031499654 0.025598302 -0.0167365 -0.0059251464 0.018194405 -0.99981683 0.0079387026
-0.028456138 0.025510563 -0.016672203 0.05550627 0.13725165 -0.98897976 0.0065628137
-0.02545771 0.025430506 -0.016476862 0.086089559 0.20101304 -0.97579831 0.0049985289
-0.022505848 0.02547122 -0.01617007 0.093466207 0.2519069 -0.96322745 0.0030305211
-0.019568898 0.025447858 -0.015798779 0.11148138 0.30318445 -0.94638848 0.0026667612
-0.016533965 0.025102666 -0.015494459 0.12049109 0.35607287 -0.9266575 0.002619358
-0.013744466 0.024704704 -0.015250451 0.11526202 0.40798092 -0.90568554 0.002728276
-0.011097005 0.024403913 -0.015156304 0.10610747 0.44023287 -0.89159203 0.0017718694
0.016693413 0.024248466 -0.015105941 -0.11443519 0.45625538 -0.88245994 0.0016554989
0.019841103 0.024638182 -0.015335806 -0.13135329 0.42711768 -0.89460433 0.0020261917
0.022676466 0.025212983 -0.01553351 -0.13913782 0.41357341 -0.89977646 0.0015552957
0.025508337 0.025392799 -0.015921682 -0.12855306 0.3567588 -0.9253093 0.0023791855
0.028533911 0.025324052 -0.016424803 -0.12559608 0.33170319 -0.93498588 0.0029144662
0.031508464 0.025539169 -0.01674065 -0.10853412 0.30008724 -0.94771731 0.0032541987
0.034530502 0.025465449 -0.017078007 -0.081878088 0.24542609 -0.96595138 0.0045628422
0.037507921 0.025519272 -0.017242054 -0.033587035 0.17535529 -0.98393214 0.0059460052
0.040409725 0.025438711 -0.017259181 0.033189584 0.030297728 -0.9989897 0.0060793138
0.043512981 0.02551727 -0.017052675 0.12326328 -0.11268343 -0.98595572 0.0072530974
0.046576653 0.025488561 -0.016570978 0.19961114 -0.16810963 -0.96534687 0.0048178365
0.049478535 0.025520554 -0.015819645 0.25719598 -0.23110859 -0.93831712 0.0033458925
0.051739354 0.026069822 -0.01527864 0.34158242 -0.29446152 -0.89253229 0.0030241273
-0.04830588 0.029981317 -0.015114893 -0.33843806 -0.26878628 -0.90178359 0.0025984363
-0.046063308 0.029037541 -0.015326186 -0.23480982 -0.2341041 -0.94342971 0.0025809554
-0.043370221 0.028533578 -0.015843922 -0.17119145 -0.18246162 -0.96819484 0.0032992968
-0.040463578 0.028558439 -0.016362514 -0.11989703 -0.11503141 -0.9860996 0.0051804977
-0.037540127 0.028552627 -0.016605457 -0.031154823 0.028459042 -0.99910933 0.0085935919
-0.034482554 0.028595105 -0.016596109 0.036556207 0.14325732 -0.98901016 0.0062101148
-0.031568877 0.028568255 -0.016399162 0.080456525 0.22005132 -0.97216463 0.0044540232
-0.028535642 0.02857686 -0.016032437 0.1115093 0.28786033 -0.95115829 0.0031789227
-0.025611356 0.028406734 -0.015618578 0.14196847 0.34461108 -0.92794836 0.0030560268
-0.02281568 0.027848748 -0.01537545 0.15280189 0.41227931 -0.89815217 0.0030622331
-0.020102382 0.027495917 -0.015177671 0.15944956 0.45413199 -0.87655002 0.002123019
0.026408076 0.027198924 -0.015178967 -0.16199039 0.47345749 -0.86579275 0.0012920247
0.028612576 0.027665602 -0.015352716 -0.15323249 0.42941219 -0.89001399 0.001275941
0.031570256 0.02824208 -0.015621324 -0.14618458 0.40565115 -0.90226227 0.0020066937
0.034495737 0.02847063 -0.01604436 -0.14520618 0.35915455 -0.92191279 0.002002669
0.037555844 0.028323114 -0.016563212 -0.099718109 0.31137314 -0.94504124 0.0049550654
0.040530633 0.028417416 -0.016834341 -0.061584476 0.26444617 -0.96243209 0.0053574829
0.043562461 0.028470978 -0.016921768 0.0072684768 0.14345473 -0.98963016 0.0066909753
0.046558853 0.028434182 -0.016771151 0.10742008 0.009254273 -0.99417061 0.007960598
0.049519103 0.028446207 -0.016336387 0.20197178 -0.066188969 -0.97715223 0.0045427266
0.052400202 0.028522283 -0.015594539 0.25884876 -0.14680284 -0.95469695 0.0033085209
0.054341618 0.029366503 -0.015095294 0.33919185 -0.1964501 -0.91997623 0.0030822835
-0.048830684 0.032098342 -0.015265931 -0.23971874 -0.15428367 -0.9585048 0.0027894161
-0.04658578 0.031611636 -0.015729936 -0.16422752 -0.11753963 -0.97939456 0.0048920098
-0.043491039 0.031469114 -0.016193783 -0.11823563 -0.032238573 -0.99246204 0.0075568422
-0.040423594 0.03161386 -0.016356388 -0.020945009 0.12809755 -0.99154043 0.0061681285
-0.037498236 0.031467374 -0.016278686 0.050618947 0.21655501 -0.97495723 0.004720272
-0.034469049 0.031517416 -0.01593826 0.12356842 0.30163136 -0.94538313 0.0026835436
-0.031495575 0.031283349 -0.015511229 0.16797288 0.38005099 -0.90958583 0.0027483627
-0.028844925 0.030752802 -0.015236311 0.17878723 0.4406946 -0.87967235 0.0030345225
-0.026747772 0.030371848 -0.015122695 0.20770755 0.48921087 -0.84707165 0.0018666454
0.035122961 0.0302842 -0.015240831 -0.18750459 0.52253002 -0.83174783 0.002207567
0.037599947 0.030605236 -0.015628628 -0.14303327 0.42419487 -0.89420372 0.0032309263
0.040595744 0.031195054 -0.01589605 -0.15417047 0.37355578 -0.91470629 0.0033125712
0.043534804 0.031467263 -0.016190402 -0.086984411 0.30987567 -0.94678974 0.0041795135
0.046517819 0.031472314 -0.016381828 -0.0025163186 0.22785072 -0.97369283 0.0046001929
0.049511105 0.031455893 -0.01627589 0.092449002 0.1327633 -0.98682672 0.0051400391
0.052459165 0.031505439 -0.015818605 0.17800388 0.013752574 -0.98393369 0.0036801798
0.054856848 0.031700175 -0.015276402 0.27420345 -0.060659409 -0.95975667 0.0035141257
-0.051227272 0.034863532 -0.015110124 -0.25614101 -0.08337909 -0.96303666 0.0048736529
-0.049508378 0.034612205 -0.015398611 -0.16294639 -0.014643202 -0.98652631 0.0041107419
-0.046452496 0.034493204 -0.015800508 -0.077285834 0.10251975 -0.99172413 0.0034843236
-0.043463837 0.034496758 -0.015896736 0.019443138 0.212384 -0.97699279 0.0043767435
-0.04050009 0.034527075 -0.015712796 0.076070108 0.27724433 -0.9577834 0.0039181788
-0.037633404 0.034103941 -0.015466844 0.13695031 0.37236577 -0.91792607 0.0032535091
-0.03508237 0.03347132 -0.015274175 0.18222722 0.4464086 -0.87607801 0.0030087407
-0.03256087 0.033184748 -0.015097281 0.21235824 0.51042843 -0.83328682 0.0020283712
0.041606829 0.033297107 -0.015082205 -0.20256878 0.50246477 -0.84053254 0.0019987819
0.043615576 0.033668239 -0.015344243 -0.15880834 0.40223119 -0.90165955 0.0026139899
0.046611756 0.034310084 -0.015505641 -0.091347337 0.34720197 -0.93333089 0.0031851679
0.049545307 0.034420133 -0.01566999 -0.015184961 0.2465951 -0.96899962 0.0041252375
0.052530836 0.034645956 -0.015528805 0.086490341 0.15199871 -0.98458916 0.003215326
0.054944221 0.034365073 -0.015223291 0.20398255 0.090516329 -0.97478098 0.0028952274
-0.051377729 0.036919113 -0.015083579 -0.15688843 0.1084941 -0.98163897 0.0049376031
-0.049283218 0.037242327 -0.015241504 -0.090421334 0.14828846 -0.98480177 0.0028394938
-0.046476204 0.037114833 -0.015326708 0.0041352198 0.25831148 -0.96605283 0.0042261891
-0.043613661 0.036716279 -0.01529533 0.086717725 0.35786444 -0.92973816 0.0037830754
-0.040951066 0.036325477 -0.015177036 0.152872 0.44161266 -0.88408619 0.0027835248
0.050058529 0.036307056 -0.015076506 -0.078509569 0.38488245 -0.91962039 0.0023925437
0.052431624 0.036477819 -0.015127882 0.038789012 0.26562691 -0.96329528 0.0034382597
0.054651566 0.036434002 -0.015062183 0.14714421 0.18130793 -0.9723559 0.0043170969
0.0039643277 0.0059029711 -0.012017635 -0.024357354 -0.68361712 -0.72943425 0.0024386607
-0.015394969 0.0087044947 -0.01209153 -0.17184976 -0.68146145 -0.71139157 0.0019903861
-0.013234536 0.0084829647 -0.012343751 -0.14899394 -0.63786238 -0.75560069 0.0011325651
-0.010351519 0.0081464946 -0.012595154 -0.11864907 -0.62884086 -0.76842797 0.0012499967
-0.007399966 0.0079812221 -0.01280938 -0.089246035 -0.61742479 -0.78155094 0.0013978188
-0.0039865668 0.0081325723 -0.013195988 -0.063655198 -0.54920596 -0.83325917 0.0011144973
-0.0012791207 0.0078846393 -0.0131841 -0.041720513 -0.55351204 -0.83179551 0.0011748163
0.0016394666 0.0079140253 -0.013368485 -0.03077201 -0.54959291 -0.83486563 0.0014556102
0.004548301 0.0075284098 -0.013177007 -0.01563319 -0.55896622 -0.82904303 0.0015363559
0.0075673615 0.0077993493 -0.013389985 -0.001378761 -0.57620358 -0.81730503 0.0016309201
0.010459508 0.0075504319 -0.013196995 0.010448772 -0.58261269 -0.81268275 0.0012816458
0.013382792 0.0076505286 -0.013142288 0.031388596 -0.59376186 -0.80402827 0.0015543094
0.016529579 0.0078664087 -0.013123947 0.060407642 -0.62250108 -0.78028411 0.00089549943
0.019397184 0.008076313 -0.013001512 0.086575471 -0.62417305 -0.77647454 0.0012084867
0.021987962 0.0083251065 -0.012860754 0.12060183 -0.64433998 -0.75516963 0.0010623451
0.025512397 0.0085640298 -0.012384865 0.1529312 -0.65356326 -0.74126053 0.0010225452
0.027791347 0.0088939555 -0.012214538 0.19064429 -0.69590741 -0.69236386 0.00084808702
-0.024408884 0.011625605 -0.012135444 -0.23201889 -0.66071564 -0.71387821 0.0013439708
-0.022318553 0.011432064 -0.012557181 -0.21506867 -0.61770052 -0.75643349 0.0015983137
-0.019401684 0.010889998 -0.01292678 -0.19714208 -0.59719002 -0.77749544 0.0016285642
-0.01644526 0.010801099 -0.013407347 -0.14237963 -0.51652724 -0.8443504 0.00094453344
-0.013057228 0.010953168 -0.014006007 -0.11148883 -0.49517018 -0.86161292 0.00070726132
-0.010552953 0.010440636 -0.014075041 -0.094619237 -0.48394883 -0.86996591 0.00080383645
-0.0075806663 0.010331797 -0.014274261 -0.071365103 -0.46407342 -0.88291728 0.0010908865
-0.0045636962 0.01020175 -0.014436114 -0.051541165 -0.45738477 -0.88777393 0.001539644
-0.0016421699 0.010051888 -0.014520477 -0.040633295 -0.45603111 -0.88903576 0.0016306642
0.0014617568 0.0099218329 -0.014578383 -0.029926661 -0.45859918 -0.88813919 0.0018928853
0.0045044757 0.0097116875 -0.014571662 -0.019900046 -0.45544985 -0.89003897 0.002142421
0.0074994899 0.0097984578 -0.014664099 -0.010305597 -0.46661574 -0.88440019 0.0022523864
0.010486293 0.0096335998 -0.014615146 0.007765254 -0.4765614 -0.87910688 0.0023250182
0.013563176 0.0097539593 -0.014627268 0.02308009 -0.49386534 -0.86923212 0.0022293017
0.016535083 0.0098161502 -0.014567333 0.045541544 -0.51213884 -0.85769445 0.0019996483
0.019553343 0.0099239359 -0.014393548 0.072223872 -0.55308855 -0.82998598 0.0014556347
0.02256939 0.010150968 -0.01423088 0.10599238 -0.55871063 -0.82256186 0.001583093
0.025624037 0.010500261 -0.01401883 0.12925929 -0.57757741 -0.80603743 0.001364545
0.028630465 0.010681015 -0.013545267 0.1751575 -0.61959141 -0.76513153 0.0013433392
0.031394783 0.010936053 -0.01310067 0.20757647 -0.64597702 -0.7345922 0.0015356824
0.034422517 0.011369986 -0.012504601 0.24135859 -0.65192586 -0.71884549 0.00082379946
0.036576204 0.011718459 -0.012202306 0.2819947 -0.70484626 -0.65089989 0.0014302582
-0.031035926 0.014485363 -0.012371197 -0.268958 -0.64541942 -0.71490937 0.0010318481
-0.028379271 0.014023019 -0.012843592 -0.23911181 -0.62199843 -0.74561614 0.0014523079
-0.025007114 0.01394378 -0.013633358 -0.19835792 -0.51584035 -0.83340442 0.0010288329
-0.022469863 0.013738387 -0.014097 -0.16576511 -0.48616347 -0.85800177 0.00087527715
-0.019562984 0.013130846 -0.014317945 -0.14444783 -0.4668946 -0.87243581 0.0010681007
-0.016865784 0.012589213 -0.014476661 -0.12415569 -0.44155294 -0.88860357 0.0014399228
-0.013615689 0.01245625 -0.014821594 -0.10239244 -0.40263569 -0.90961546 0.0021950873
-0.01188809 0.01212258 -0.014867667 -0.092953689 -0.48121488 -0.87166041 0.0018071494
-0.0087767765 0.012100872 -0.014983604 -0.04995184 -0.32384908 -0.94478917 0.0018579061
0.026970508 0.012339569 -0.014914475 0.12202107 -0.51729435 -0.84706402 0.0033011667
0.028877102 0.012375857 -0.014796342 0.14534973 -0.55291021 -0.82046562 0.0015730126
0.031671241 0.012783102 -0.014490061 0.18426277 -0.54430544 -0.8184002 0.0021270711
0.034595221 0.013273892 -0.014104974 0.21347675 -0.58259255 -0.78422797 0.0011469314
0.037485734 0.01359214 -0.013455968 0.26988527 -0.59957749 -0.75343806 0.0011935037
0.040369716 0.014149751 -0.012786929 0.30984193 -0.64323932 -0.70017231 0.0013433266
0.042494386 0.014768317 -0.012444514 0.33083382 -0.64640826 -0.68753564 0.0014132247
-0.037061863 0.017388646 -0.012394648 -0.32660678 -0.61660486 -0.7163285 0.00099156657
-0.034361184 0.016733266 -0.012944918 -0.29160443 -0.60051346 -0.74454713 0.00093938102
-0.031467132 0.016442996 -0.013739003 -0.24354476 -0.55293059 -0.79683983 0.001342166
-0.028364653 0.015787184 -0.014073593 -0.1855846 -0.47816256 -0.8584398 0.00088357885
-0.025805773 0.015485808 -0.014465461 -0.16439602 -0.44164675 -0.88199896 0.001911608
-0.023540227 0.015264549 -0.01489111 -0.15919141 -0.45499742 -0.8761481 0.0024997697
0.035941478 0.01508262 -0.014852596 0.21296123 -0.55664688 -0.80298924 0.0010878349
0.038020235 0.015429643 -0.014659085 0.23699166 -0.56173837 -0.79264432 0.0010662979
0.040702436 0.016168686 -0.014313708 0.27066082 -0.53575277 -0.79981977 0.001254439
0.043504879 0.016662354 -0.013574556 0.32605392 -0.56042504 -0.76132298 0.00097177131
0.046176773 0.017194269 -0.012699299 0.37374371 -0.61281687 -0.69625509 0.0016906988
0.048346169 0.017834838 -0.012235649 0.39704204 -0.61922586 -0.67743403 0.0019830372
-0.042766262 0.020663016 -0.012227209 -0.39447179 -0.59269053 -0.70221794 0.0015949749
-0.040271722 0.019848952 -0.012860455 -0.35922268 -0.5697763 -0.73913068 0.0010829916
-0.037540331 0.019742152 -0.013873931 -0.25143218 -0.44695672 -0.85849375 0.00063206203
-0.034684181 0.018986646 -0.01438796 -0.25307539 -0.48457646 -0.83734018 0.0016706445
-0.032186467 0.018515455 -0.014741883 -0.18756267 -0.42330033 -0.88636172 0.0023743259
0.044029951 0.018592075 -0.014684919 0.29632157 -0.48894385 -0.82044351 0.0013702245
0.046577621 0.019331926 -0.014127817 0.34465736 -0.50518775 -0.79119951 0.0013788746
0.049304351 0.019743709 -0.013086599 0.40984619 -0.54387754 -0.73227268 0.001908132
0.051482603 0.020594252 -0.012453024 0.4374828 -0.55287939 -0.70917779 0.0016216366
-0.045956306 0.02326626 -0.012479147 -0.42085001 -0.55213892 -0.71974152 0.0013069559
-0.043359689 0.022567099 -0.013297591 -0.36175305 -0.50118589 -0.78609633 0.001389133
-0.040662378 0.022297889 -0.01427471 -0.31784111 -0.46503922 -0.82626599 0.0012548178
-0.038344517 0.021653591 -0.014764657 -0.26174822 -0.41041723 -0.87352484 0.0029877573
-0.0096714441 0.023796104 -0.014933717 0.10330994 0.33846197 -0.93529171 0.0025242844
-0.0069349296 0.023741597 -0.014895111 0.084095299 0.42415857 -0.90167481 0.0028934628
-0.0043106214 0.023560503 -0.014776818 0.067397855 0.43200982 -0.89934695 0.0022562006
-0.0014996474 0.023409495 -0.014689201 0.045507804 0.45395237 -0.88986307 0.0020443422
0.001417609 0.023293292 -0.014662784 0.016035087 0.44077554 -0.89747411 0.0024831565
0.0044239429 0.023260117 -0.014675674 -0.01390782 0.44578367 -0.8950327 0.0026514472
0.0074711735 0.023375938 -0.014707888 -0.047960889 0.47302952 -0.87974024 0.0020979343
0.010079458 0.023513349 -0.014804314 -0.06875629 0.46243346 -0.88398409 0.0020598415
0.012543929 0.023711519 -0.014902212 -0.085009947 0.4510462 -0.88844281 0.0020881288
0.015358505 0.023846213 -0.014952546 -0.11764999 0.4615708 -0.87926728 0.00047558272
0.047574505 0.021324113 -0.014832444 0.32762447 -0.42719293 -0.84271491 0.0036449749
0.049795996 0.02217824 -0.014368164 0.367347 -0.42711821 -0.82621199 0.0014142605
0.052434027 0.02258981 -0.013294842 0.42002651 -0.4847517 -0.76719844 0.0020271873
0.054664027 0.023245642 -0.012427685 0.47654819 -0.49963927 -0.72336882 0.0016787448
-0.051223874 0.026823102 -0.012131574 -0.45967799 -0.54589146 -0.70049894 0.0020262324
-0.049207531 0.026114348 -0.012705261 -0.4209981 -0.51962054 -0.74347508 0.0013779227
-0.046549197 0.025529709 -0.01363758 -0.37457994 -0.47542065 -0.79603082 0.0019337423
-0.043942891 0.024925588 -0.014446572 -0.32402942 -0.40763104 -0.85372239 0.0020926162
-0.04177694 0.024215989 -0.014897684 -0.29873246 -0.40318283 -0.86498702 0.0020913389
-0.018704496 0.026740771 -0.014950542 0.15732339 0.37150499 -0.91500461 0.0027994651
-0.016252717 0.026643164 -0.014805091 0.16742082 0.47818193 -0.86215562 0.0022185934
-0.013377018 0.026064225 -0.014565152 0.14782523 0.45620945 -0.87750822 0.0021029057
-0.010447727 0.025657266 -0.01432179 0.12864286 0.48270211 -0.86628497 0.0013610838
-0.0075590909 0.025537977 -0.013964866 0.1063425 0.50515634 -0.85645097 0.0012283496
-0.0045368182 0.025469733 -0.013685319 0.072456121 0.53049856 -0.84458363 0.0014216084
-0.0015299618 0.025546947 -0.01337703 0.044220492 0.56804675 -0.82180744 0.001740093
0.0016690926 0.025509184 -0.013260356 0.020123037 0.55910504 -0.82885265 0.0013193424
0.0045009125 0.025559247 -0.013208481 -0.0067614764 0.53777099 -0.84306383 0.0016223252
0.0074151014 0.025451122 -0.013368892 -0.04587502 0.54602027 -0.83651495 0.0011648027
0.010596351 0.025336793 -0.01370295 -0.074022658 0.52524769 -0.84772372 0.00080815592
0.013403657 0.025386268 -0.013936214 -0.098586261 0.5131138 -0.85263997 0.00090497156
0.016671538 0.025576824 -0.014307405 -0.13132118 0.50830156 -0.85110766 0.0015639403
0.018889932 0.025863325 -0.014520875 -0.1437391 0.48151061 -0.86457312 0.0014132779
0.021939024 0.026472893 -0.014743717 -0.16975544 0.48095548 -0.86015403 0.0023253951
0.024856316 0.026810771 -0.01491746 -0.17263483 0.49753943 -0.85008931 0.00077863876
0.050678447 0.024105256 -0.014859885 0.37808961 -0.40628022 -0.83185613 0.0014270414
0.052867044 0.025194874 -0.01445432 0.39039266 -0.35197699 -0.85070902 0.0016645525
0.055400953 0.025519649 -0.013256351 0.4580968 -0.40467215 -0.79144663 0.0018749925
0.057555124 0.026285803 -0.012374458 0.498797 -0.42697486 -0.75425065 0.001929727
-0.054198962 0.029832264 -0.012302232 -0.48140758 -0.48545673 -0.72977972 0.0020779276
-0.052128553 0.028919954 -0.012822052 -0.437769 -0.46463946 -0.76971972 0.0021060859
-0.049490735 0.028552419 -0.013939688 -0.37359565 -0.38970625 -0.8417573 0.0013252494
-0.047231082 0.028326964 -0.014711954 -0.27880016 -0.2782433 -0.9191578 0.0018453129
-0.024631511 0.029695742 -0.014773781 0.20813918 0.47655994 -0.85414797 0.0021277093
-0.022262603 0.029146127 -0.014626943 0.19353111 0.4622435 -0.86537665 0.0021728752
-0.019378146 0.028692225 -0.014199194 0.18802202 0.50761771 -0.84081626 0.0015510479
-0.016444618 0.028431328 -0.01369467 0.19022079 0.54210162 -0.81849974 0.0015619
-0.013623971 0.028278207 -0.013153882 0.17797767 0.595312 -0.7835353 0.0017364258
-0.010661814 0.027844548 -0.012907356 0.14695522 0.61179626 -0.77724481 0.0017423878
-0.0075401668 0.027569011 -0.012578159 0.12229691 0.6241737 -0.77165455 0.0016117209
-0.004842524 0.027467906 -0.012290537 0.090353422 0.63556939 -0.76673841 0.0015555564
-0.0018267827 0.027139917 -0.012220537 0.062738985 0.68281436 -0.72789305 0.001735687
0.0013724848 0.027194055 -0.01215531 0.025070868 0.69256002 -0.72092456 0.0014516235
0.0044435915 0.027189083 -0.012093178 -0.0042844457 0.64033079 -0.76808739 0.001615833
0.0080961119 0.0271171 -0.012110991 -0.048363503 0.6794129 -0.73216057 0.0016445881
0.010900607 0.027256208 -0.012265519 -0.075421616 0.69263178 -0.71733731 0.0015636978
0.013721192 0.027450791 -0.012433032 -0.11007155 0.68155247 -0.72344351 0.0016574287
0.01663675 0.027740799 -0.012694856 -0.14643124 0.66669744 -0.7308026 0.001355639
0.019621361 0.02810584 -0.012984589 -0.17850587 0.63873583 -0.74843317 0.0018964666
0.022556979 0.028394803 -0.013467492 -0.1940117 0.61049014 -0.76789403 0.0011817655
0.025442293 0.028596086 -0.014035462 -0.19181432 0.56566 -0.80201995 0.0011864434
0.028336473 0.029084109 -0.014433842 -0.19825748 0.53468364 -0.82146662 0.0017106147
0.030843958 0.029550616 -0.01474941 -0.20130844 0.5734393 -0.79412985 0.0016871439
0.033071261 0.029898115 -0.014856373 -0.20849831 0.5617258 -0.80062014 0.0010402683
0.053630449 0.027520955 -0.014866462 0.33609882 -0.21341696 -0.91732806 0.0037928978
0.055611286 0.028351994 -0.014319421 0.40923309 -0.26921207 -0.87181026 0.0014801036
0.058358211 0.028589934 -0.012992677 0.47620609 -0.3302047 -0.81498015 0.0023923416
0.060291424 0.029517321 -0.012127678 0.54134363 -0.34773862 -0.76552266 0.0018883053
-0.055084147 0.031755 -0.01269398 -0.4558298 -0.37880898 -0.80543339 0.0023170831
-0.052210178 0.031928953 -0.014090265 -0.32913986 -0.23098886 -0.91559327 0.0024490242
-0.050017279 0.031254012 -0.014713335 -0.28645122 -0.20428917 -0.93606174 0.0021932989
-0.031143302 0.032640051 -0.014827444 0.21436499 0.44484901 -0.86957282 0.0022332345
-0.028366769 0.032083366 -0.014369246 0.22654444 0.4894245 -0.84210521 0.0020070346
-0.025444301 0.031564139 -0.013874839 0.23099941 0.53750074 -0.8110069 0.0014052362
-0.022534559 0.031261202 -0.013232742 0.23443353 0.58814007 -0.77403623 0.0024569619
-0.019609494 0.030631086 -0.012910976 0.21774292 0.61748326 -0.75584549 0.001531327
-0.017040996 0.030341601 -0.012393632 0.20566174 0.65268695 -0.72917962 0.0014131786
-0.014635159 0.030013096 -0.012183664 0.18508188 0.636518 -0.74872524 0.0012998612
0.023224879 0.030111738 -0.01218229 -0.20781238 0.6744315 -0.70848864 0.00083538634
0.025782805 0.030530389 -0.012571389 -0.21715467 0.66622269 -0.71343613 0.0012106681
0.028630916 0.031035513 -0.012950253 -0.22784305 0.6481176 -0.72665751 0.0013020778
0.031524591 0.031461343 -0.013465054 -0.23507532 0.599145 -0.76535279 0.0012140565
0.034407694 0.031782061 -0.014067871 -0.2326947 0.57200241 -0.78655344 0.0022602277
0.037247773 0.032350719 -0.014532402 -0.23081398 0.52468628 -0.81940782 0.0014275424
0.039495781 0.032781955 -0.014843236 -0.2087772 0.48652169 -0.84835649 0.001796342
0.056318086 0.031270653 -0.014721901 0.35447678 -0.13121024 -0.9258132 0.0028771434
0.058530692 0.031411905 -0.013736856 0.42549208 -0.17555782 -0.88777018 0.0023194307
0.060866594 0.031696409 -0.012512495 0.50268638 -0.24654922 -0.82856494 0.0029063576
-0.057890806 0.034867309 -0.012398828 -0.47352451 -0.30728865 -0.8254382 0.0034207727
-0.05526486 0.034646865 -0.013541803 -0.35633186 -0.17885299 -0.91708195 0.0025025273
-0.052667577 0.034431994 -0.01452745 -0.29665664 -0.12423338 -0.94686902 0.0021860839
-0.039707184 0.035737429 -0.014912846 0.15196262 0.36466146 -0.91865629 0.0033733824
-0.037078381 0.035551537 -0.014698145 0.20171449 0.43025029 -0.87988406 0.0027528654
-0.034293011 0.034847233 -0.014350757 0.23321024 0.49516737 -0.83691233 0.0018369328
-0.031491179 0.034516357 -0.013688444 0.2634849 0.55468422 -0.78924084 0.0018819608
-0.028759504 0.03414885 -0.013038895 0.27958018 0.60255718 -0.74750233 0.0018447387
-0.026021743 0.033577297 -0.012550692 0.2643078 0.63041896 -0.72987217 0.0014437168
-0.023674086 0.033242423 -0.012122404 0.25395489 0.67329282 -0.69439447 0.00095375889
0.032527015 0.033356443 -0.012147694 -0.25346169 0.67105371 -0.69673818 0.00126882
0.03477677 0.033717353 -0.012619248 -0.2694625 0.66850972 -0.69317007 0.0013801048
0.037838195 0.034010921 -0.013484843 -0.24426508 0.55710602 -0.79370487 0.0014321863
0.040371582 0.034231167 -0.014138314 -0.20424764 0.48944405 -0.84777784 0.0014528224
0.043311708 0.035180345 -0.014433183 -0.22801934 0.48125646 -0.84640384 0.0019542826
0.045868032 0.035709571 -0.014771447 -0.16908227 0.4773412 -0.86229724 0.0023884436
0.048636898 0.035915703 -0.01491834 -0.081852198 0.37081018 -0.9250946 0.0027805052
0.056400806 0.034688842 -0.014835549 0.23202823 0.040019181 -0.97188544 0.0036257699
0.058538064 0.034452621 -0.014149699 0.33851093 -0.031505581 -0.94043487 0.0045195404
0.061388757 0.034575362 -0.012905587 0.45617285 -0.14279406 -0.87835991 0.0027703701
0.063249439 0.03536883 -0.012087356 0.54845333 -0.17652838 -0.81733513 0.0027283523
-0.060264956 0.038582854 -0.012195004 -0.50413781 -0.22720987 -0.83319914 0.0033371267
-0.058287591 0.037654717 -0.01282119 -0.37612066 -0.11473495 -0.91943955 0.003157096
-0.055377811 0.037497945 -0.01401484 -0.28284681 -0.036814988 -0.95845836 0.0034932129
-0.052741665 0.037691504 -0.014696459 -0.18964118 0.060621236 -0.97998023 0.0053943521
-0.049424987 0.038652647 -0.014900529 -0.03910362 0.20182472 -0.97864068 0.0063091903
-0.046672132 0.03863582 -0.014874601 0.086252853 0.33517852 -0.93819821 0.0039240713
-0.043248642 0.03815693 -0.014594536 0.15765201 0.42430958 -0.89168787 0.0027141317
-0.040404677 0.037617046 -0.014302385 0.20142768 0.48838186 -0.84906417 0.0014377049
-0.037571024 0.037502851 -0.013573154 0.23969655 0.5379681 -0.80816817 0.0017741198
-0.034710951 0.037112515 -0.012890349 0.28780487 0.61966115 -0.73019755 0.0015753329
-0.032041535 0.036536291 -0.0123347 0.29238287 0.65172964 -0.69982904 0.0013892927
0.038940631 0.036092561 -0.012004357 -0.31488502 0.62101859 -0.71776277 0.0018958839
0.040992804 0.036647543 -0.01257563 -0.30773291 0.63110936 -0.71204031 0.0016067838
0.043765288 0.037022673 -0.013350148 -0.2444457 0.52143162 -0.81753004 0.0013183816
0.046478033 0.037115354 -0.014088712 -0.18350327 0.47161779 -0.86249828 0.0015806291
0.04950124 0.037606921 -0.014450632 -0.11800709 0.42472234 -0.8975997 0.0016625066
0.052560847 0.037840869 -0.014625289 -0.032869115 0.35171771 -0.93552893 0.0047530774
0.055548072 0.03766435 -0.014568555 0.10469691 0.23147315 -0.96719116 0.0033893699
0.058511257 0.037552141 -0.014090517 0.23881361 0.13363099 -0.96182686 0.0039437888
0.06149913 0.037537508 -0.013073186 0.37236074 0.014681956 -0.9279719 0.0041710138
0.063371487 0.03775442 -0.012185436 0.49154946 -0.047192015 -0.86956996 0.0031356795
-0.060631376 0.040789902 -0.012179145 -0.38498563 -0.029142542 -0.92246234 0.0035009112
-0.058363188 0.040510714 -0.013080016 -0.30591843 0.037967578 -0.95130032 0.0040245056
-0.055525463 0.040557627 -0.013857163 -0.20229349 0.14858392 -0.96798772 0.0068027326
-0.052498553 0.040534694 -0.014293998 -0.08411561 0.24330498 -0.96629566 0.0053222585
-0.049501136 0.040586237 -0.01427718 0.036367066 0.35694867 -0.93341583 0.0051843598
-0.046417832 0.04051001 -0.013930176 0.1191044 0.44471511 -0.88771772 0.0023379785
-0.043518603 0.040425614 -0.013333939 0.21368481 0.52448452 -0.8241691 0.0028250611
-0.040640146 0.040019918 -0.012746749 0.25153384 0.59432882 -0.76387435 0.0025113076
-0.037987288 0.039346743 -0.012343197 0.28547558 0.63893771 -0.7143265 0.0016085863
0.044673305 0.039342821 -0.012069343 -0.33841914 0.5844202 -0.73751307 0.0019234009
0.046856761 0.039685294 -0.012531931 -0.27491766 0.58580244 -0.76240134 0.0023253127
0.049608786 0.040203437 -0.013006985 -0.16889717 0.47845697 -0.86171496 0.0023005381
0.05258435 0.040469475 -0.013446584 -0.10345872 0.43134758 -0.8962341 0.0022522982
0.055539783 0.040517356 -0.013672139 0.021424079 0.34290287 -0.93912655 0.0028445448
0.058527142 0.040511351 -0.013477721 0.14468351 0.2641947 -0.95355541 0.0045964061
0.061472964 0.040560428 -0.0127994 0.27826348 0.15642403 -0.9476819 0.0042417627
0.063298844 0.040329147 -0.0121645 0.42684412 0.091555715 -0.89967865 0.0038296711
-0.060463738 0.043307047 -0.012191947 -0.29572669 0.12668072 -0.94683558 0.0056391037
-0.05843262 0.043369997 -0.012767649 -0.2173461 0.20124586 -0.95512336 0.0046307319
-0.055425599 0.043498065 -0.01319249 -0.093655445 0.30662623 -0.94721121 0.0050099283
-0.052403156 0.04350375 -0.013166727 0.058945231 0.41086718 -0.90978765 0.0057721734
-0.049510419 0.043397989 -0.012863539 0.14366259 0.4891403 -0.86029232 0.0034785019
-0.046736807 0.042813808 -0.01262419 0.21660647 0.56892723 -0.79334956 0.0031096404
-0.044377249 0.042244088 -0.012283406 0.26122767 0.61405337 -0.74478084 0.0017035697
0.050674938 0.042336915 -0.01206712 -0.27310205 0.59953922 -0.75230855 0.001987675
0.052863602 0.042559989 -0.012306844 -0.19248177 0.53944159 -0.81972772 0.0027105319
0.055644918 0.042950436 -0.012566586 -0.039014969 0.42173186 -0.90588087 0.0028152876
0.058577538 0.043228205 -0.012546267 0.05990044 0.35850808 -0.93160284 0.0029979658
0.061287712 0.04305467 -0.012311901 0.19156885 0.28520888 -0.93912578 0.0035635133
0.063405782 0.042468984 -0.012068169 0.42540121 0.15248512 -0.89206618 0.0042095529
-0.060423654 0.045217313 -0.012094388 -0.2732456 0.20556432 -0.93972349 0.0045472183
-0.058295935 0.045401931 -0.012249549 -0.14329453 0.34368241 -0.9280889 0.0058118687
-0.055567328 0.045702253 -0.012279503 0.002807223 0.45351565 -0.89124388 0.0040933462
-0.052899215 0.045313191 -0.012283246 0.12572198 0.50781554 -0.85224259 0.0030313956
-0.050750755 0.045351014 -0.012097809 0.19117174 0.58403146 -0.78889835 0.0020497504
-0.013205008 0.0056258244 -0.0094279032 -0.18858592 -0.75929332 -0.62282342 0.0010384412
-0.010406569 0.0052874433 -0.0097746942 -0.14337191 -0.7581268 -0.63615108 0.0012637037
-0.0074391579 0.0050844718 -0.010037037 -0.11439963 -0.74991632 -0.65156609 0.0014233233
-0.0044459929 0.0048736157 -0.010272959 -0.088160783 -0.74977005 -0.65579921 0.0015900757
-0.0014633983 0.0048369179 -0.01051751 -0.053719226 -0.74520123 -0.66467232 0.0016771491
0.0015281057 0.0047465186 -0.010588816 -0.030372629 -0.75068915 -0.65995711 0.0018363318
0.0045285886 0.0045820121 -0.010536423 -0.0020701985 -0.75696814 -0.65344852 0.0018805827
0.0075144414 0.0047467486 -0.010674473 0.031016624 -0.74931926 -0.6614821 0.0019125289
0.010488256 0.0047430084 -0.010586983 0.046602752 -0.76321214 -0.64446527 0.0015682862
0.013405913 0.0048375847 -0.010429323 0.072851315 -0.78031492 -0.62112904 0.0021246609
0.016404886 0.0049899789 -0.010253303 0.099794224 -0.77851349 -0.61964339 0.0012591062
0.019383568 0.0051814853 -0.0099731106 0.13367835 -0.79047906 -0.59772319 0.0012774818
0.022363588 0.0055948924 -0.0097547136 0.15881795 -0.79632354 -0.58364862 0.0012403212
0.024976317 0.0058196192 -0.0093497485 0.19638783 -0.80374247 -0.56163132 0.001040017
-0.024254285 0.008962973 -0.0092259599 -0.29486969 -0.73372096 -0.61213189 0.0019635772
-0.022131301 0.0084145851 -0.0095807202 -0.2751115 -0.73650783 -0.61795616 0.0012190968
-0.019350521 0.007968992 -0.010207506 -0.24531204 -0.72747898 -0.64077789 0.0014256956
-0.016489137 0.0074919462 -0.010559944 -0.19765691 -0.7358911 -0.64760792 0.0013945467
-0.013579232 0.007038746 -0.010890749 -0.17613941 -0.72321284 -0.66778594 0.00077725132
-0.010570786 0.0066957665 -0.011271643 -0.13164732 -0.69614297 -0.70572931 0.0014011215
-0.0075928546 0.0064171162 -0.011447253 -0.099859983 -0.71995538 -0.68679851 0.0015319554
-0.0048066135 0.0062281815 -0.011665537 -0.079808146 -0.70776379 -0.70192677 0.0013587226
-0.0020227218 0.006072042 -0.011800997 -0.042471278 -0.70516056 -0.70777458 0.0011846799
0.00091408391 0.0061054341 -0.011960309 -0.019157274 -0.66709483 -0.74472648 0.0031883172
0.0075789909 0.0060157552 -0.011996117 0.026460662 -0.68975514 -0.72355902 0.0031247532
0.013886059 0.0061542662 -0.011856409 0.047695838 -0.70634085 -0.70626324 0.0026508181
0.016547 0.0062185982 -0.011668595 0.079212926 -0.72081894 -0.68858212 0.001281173
0.019565245 0.0064421967 -0.011475047 0.11622278 -0.73316556 -0.67004514 0.0012916108
0.022585001 0.0068187416 -0.011291504 0.14354219 -0.74660373 -0.64959872 0.0013122407
0.025580179 0.0070317006 -0.010768849 0.18581015 -0.77564144 -0.60320389 0.0010686427
0.028416507 0.0076944483 -0.010622669 0.2048723 -0.77178627 -0.60197455 0.0020857817
0.031284574 0.0081450455 -0.010149924 0.25273493 -0.77602088 -0.57785523 0.0013646875
0.033888921 0.008573235 -0.0095146615 0.28936893 -0.78326368 -0.55023956 0.0010064999
-0.031000327 0.011756288 -0.0094722304 -0.31769049 -0.74178195 -0.59062022 0.00081752246
-0.028273465 0.011121396 -0.010047056 -0.30104947 -0.72517395 -0.61926728 0.0014284304
-0.02546883 0.010483411 -0.010550253 -0.25846666 -0.71484053 -0.6497677 0.0010135787
-0.022617999 0.0098655364 -0.010999348 -0.24944969 -0.71788269 -0.64993787 0.00155543
-0.019825485 0.0093732877 -0.011529656 -0.2174457 -0.69610125 -0.68422246 0.0014750517
-0.017393984 0.0090620192 -0.011975968 -0.17887689 -0.65160877 -0.73716289 0.0022333832
0.029780867 0.009088154 -0.01183755 0.19562437 -0.71592659 -0.67020911 0.0031056807
0.031948972 0.009539267 -0.011556633 0.21908846 -0.68510067 -0.6947211 0.00082805258
0.034664381 0.010095495 -0.011038885 0.27152279 -0.7266019 -0.63113004 0.0015264506
0.037436359 0.010647672 -0.010510614 0.29423037 -0.75698328 -0.58344221 0.0019508275
0.039904412 0.011204407 -0.0097214878 0.33791718 -0.72716343 -0.59753275 0.0011824863
0.042143498 0.011868377 -0.0093507618 0.3747279 -0.75054651 -0.54429668 0.0014346016
-0.03688021 0.014631698 -0.0096756015 -0.38061336 -0.71383989 -0.58784866 0.00088568497
-0.03431676 0.013897598 -0.01030265 -0.33516458 -0.71028233 -0.61900222 0.0014581871
-0.031660173 0.013158962 -0.010785927 -0.3023296 -0.71907163 -0.62572581 0.0012091495
-0.028779797 0.012505928 -0.01133719 -0.26738599 -0.70469379 -0.65719962 0.0016814662
-0.026604351 0.012103075 -0.011840459 -0.25546888 -0.66945785 -0.69753981 0.0022152013
0.038400967 0.012184643 -0.011819203 0.29965529 -0.67790145 -0.67130947 0.0019247505
0.040628422 0.012703631 -0.011177828 0.31692535 -0.6909427 -0.64973569 0.00082983612
0.043641139 0.013626787 -0.010544446 0.36339012 -0.70844901 -0.60501868 0.0012569067
0.046151131 0.014362308 -0.0097193448 0.41959602 -0.70175833 -0.57573807 0.0013957784
0.048046768 0.014888439 -0.00905398 0.43333501 -0.71375668 -0.55024743 0.00082586828
-0.042345636 0.017520815 -0.0094237057 -0.46250641 -0.67018157 -0.58046919 0.0019644864
-0.040242851 0.016886329 -0.010211026 -0.40740582 -0.67634475 -0.61365968 0.0015725056
-0.037711576 0.01617277 -0.010898628 -0.36244899 -0.69286919 -0.6233483 0.001276016
-0.035175122 0.01548584 -0.011538954 -0.31475142 -0.66437435 -0.67789257 0.0017488636
0.044727497 0.015248506 -0.01169211 0.37186143 -0.66088349 -0.65188342 0.0014415042
0.046865094 0.016005745 -0.01116475 0.39205998 -0.67202598 -0.62822777 0.0013102172
0.049328845 0.016744329 -0.010290399 0.43745601 -0.67260671 -0.59685206 0.0018824587
0.051651731 0.017573468 -0.0095336046 0.48258647 -0.66642398 -0.56832165 0.0010883329
-0.046137735 0.020432653 -0.0097742882 -0.46877399 -0.65060419 -0.59746563 0.0011611418
-0.043554492 0.019417008 -0.010555075 -0.42752463 -0.65209359 -0.62609637 0.0017647308
-0.041108005 0.018630149 -0.011423172 -0.39159933 -0.63629639 -0.66466296 0.00073338859
0.050306033 0.018437561 -0.011413981 0.44772851 -0.63858217 -0.62590098 0.00089488225
0.052563693 0.019464837 -0.010701445 0.46468702 -0.63203901 -0.62015527 0.0012127729
0.054738358 0.020278294 -0.0098388279 0.51317233 -0.61509484 -0.5985921 0.0011168738
-0.051316477 0.02379434 -0.0092042424 -0.49325699 -0.63256902 -0.59712142 0.0014315308
-0.049090877 0.022882413 -0.010028845 -0.48959184 -0.62632251 -0.60664642 0.0017257434
-0.046763994 0.022164432 -0.011052841 -0.44086266 -0.58073491 -0.6843881 0.0013351819
-0.044530675 0.021325661 -0.011797083 -0.42036593 -0.58672988 -0.69212759 0.0033626666
0.053668562 0.021484515 -0.011811249 0.4789367 -0.55400509 -0.68095368 0.0011260145
0.05572385 0.022286976 -0.010916407 0.51484638 -0.53686023 -0.66836691 0.0018885186
0.057747673 0.022984197 -0.0097832335 0.55805701 -0.56508714 -0.60765845 0.0015378227
-0.054481834 0.026663132 -0.0094619058 -0.54031563 -0.61201662 -0.57748997 0.00081725081
-0.052343197 0.025706049 -0.010291567 -0.49190268 -0.59437793 -0.63619697 0.0013337099
-0.049930021 0.02479781 -0.011259897 -0.45195654 -0.59707934 -0.66274548 0.0017876928
0.0018137655 0.026971467 -0.011951083 0.02951457 0.69353485 -0.71981823 0.0015864542
0.0040887869 0.026954895 -0.011937636 -0.013735987 0.69941443 -0.71458435 0.0015559453
0.056770604 0.024434512 -0.011754272 0.51691186 -0.487746 -0.70349562 0.00055899139
0.058718693 0.02525167 -0.010854091 0.52900571 -0.47415918 -0.703794 0.0012222548
0.060770113 0.026099036 -0.0097916983 0.59263104 -0.51191497 -0.62187743 0.0014875823
-0.057420991 0.029345408 -0.0094600134 -0.57487243 -0.55470043 -0.60152239 0.0011775551
-0.055335674 0.028622154 -0.010532483 -0.51377487 -0.52981406 -0.67478329 0.0018004666
-0.053085234 0.027860448 -0.011581788 -0.485511 -0.50395024 -0.71436208 0.0010050978
-0.012540553 0.029560948 -0.01180477 0.18397553 0.6522091 -0.73537493 0.0013142913
-0.010263831 0.029266626 -0.011560922 0.15258358 0.66946912 -0.72700018 0.0013975346
-0.0076418109 0.029096216 -0.011141577 0.1329207 0.67415679 -0.72652924 0.0014340595
-0.0045337151 0.02877794 -0.010948014 0.10548674 0.69951195 -0.70679247 0.0010879724
-0.0014823413 0.028573597 -0.01074304 0.074454501 0.73181349 -0.67742562 0.0013096174
0.0015022729 0.028535247 -0.010559946 0.033211123 0.73862547 -0.67329746 0.0025210949
0.0045297407 0.028477376 -0.010554108 0.0041940296 0.75070167 -0.66062802 0.0024290849
0.0075265588 0.02849832 -0.010608763 -0.036587741 0.75060594 -0.65973639 0.0027136696
0.010465174 0.028682742 -0.010701534 -0.07994929 0.75439411 -0.65153486 0.0018212793
0.013402229 0.028892551 -0.010864604 -0.12164518 0.76376528 -0.63392818 0.0014202611
0.016349323 0.02918178 -0.011190833 -0.156876 0.72320819 -0.67257696 0.0014150995
0.019209176 0.029477339 -0.011580156 -0.18920936 0.69087094 -0.69778019 0.00084815093
0.021594346 0.029679097 -0.011951525 -0.21486646 0.64961952 -0.72926462 0.0014657823
0.059576467 0.027465979 -0.011693317 0.54470736 -0.40190607 -0.73604715 0.0018891558
0.061501652 0.02842574 -0.010674797 0.5781517 -0.39017013 -0.7165947 0.0018021463
0.063359767 0.02927731 -0.0095568923 0.62484324 -0.42265046 -0.65645826 0.0025782243
-0.060197659 0.032320596 -0.0092722261 -0.61199617 -0.50291175 -0.61036092 0.0019306429
-0.05831378 0.031581178 -0.010314339 -0.56340426 -0.47358304 -0.67697471 0.0022586684
-0.056349751 0.031018686 -0.011494514 -0.51059753 -0.42454982 -0.74769485 0.0017589508
-0.022245804 0.032781973 -0.011815165 0.26375064 0.66646141 -0.69732696 0.0021369958
-0.019363945 0.032222722 -0.011331161 0.23927961 0.68905813 -0.68406439 0.0019685023
-0.01633968 0.031607248 -0.010883712 0.22379702 0.70942831 -0.66830111 0.0010070055
-0.013650176 0.031073676 -0.010593885 0.20092544 0.70628542 -0.67881501 0.0014316128
-0.010740749 0.030560628 -0.010330793 0.171215 0.70807505 -0.68506575 0.0013361821
-0.0077423137 0.03039711 -0.0097529422 0.14436913 0.76042134 -0.63318008 0.0015022433
-0.0048429086 0.030203916 -0.0093778297 0.11178683 0.768767 -0.62968326 0.0011480497
-0.0015600823 0.030029058 -0.0092455791 0.082593299 0.77457094 -0.62707114 0.0011462045
0.00029666687 0.03003091 -0.0090339324 0.041542936 0.77541035 -0.6300897 0.00098178908
0.011126783 0.030028377 -0.0091280295 -0.08487951 0.79754609 -0.59725678 0.0022434827
0.013980988 0.030206647 -0.0094207413 -0.12312467 0.78230679 -0.61060327 0.0013871029
0.016623382 0.03048243 -0.0097437222 -0.16483228 0.77522331 -0.6098026 0.0013858071
0.019597955 0.030837249 -0.010168495 -0.20406409 0.75848621 -0.61891562 0.001585159
0.022518359 0.031342804 -0.01055095 -0.22219278 0.74759507 -0.62588495 0.0019429374
0.025333295 0.032053988 -0.010757195 -0.23710388 0.75313705 -0.61365008 0.001021246
0.02822075 0.032506339 -0.011327978 -0.24835612 0.71019232 -0.65874583 0.00052503543
0.030385789 0.0328613 -0.011805261 -0.26631466 0.6976555 -0.66509646 0.0032684645
0.062183995 0.0310855 -0.011396279 0.55141187 -0.29202446 -0.7814517 0.0013142759
0.064173721 0.031684611 -0.010082004 0.63165736 -0.34153625 -0.69596124 0.0017560963
-0.060987025 0.034455344 -0.0099673709 -0.59032786 -0.41603076 -0.69168746 0.0018523521
-0.059019405 0.034082308 -0.011305757 -0.51580483 -0.35613704 -0.77917385 0.0015565812
-0.028158424 0.035581563 -0.011493311 0.30768335 0.64890331 -0.69588464 0.0019188527
-0.025353864 0.034833327 -0.011006221 0.30006403 0.71722394 -0.62892878 0.0017156219
-0.022720478 0.034154493 -0.010570467 0.26870069 0.73649275 -0.62078851 0.0019280436
-0.019737165 0.03352828 -0.010035873 0.25355417 0.73687416 -0.62667906 0.0014851707
-0.017510373 0.033270128 -0.0092889573 0.24756749 0.76015812 -0.60072446 0.0010993714
0.026185336 0.033422373 -0.0094189122 -0.24389397 0.77487171 -0.58317202 0.00095865998
0.028710937 0.03383052 -0.0099446271 -0.26112959 0.76162624 -0.59307408 0.001518694
0.031553514 0.034390278 -0.010502401 -0.27538592 0.76196045 -0.58615601 0.0018324426
0.034330994 0.035139266 -0.010912881 -0.30771741 0.73567861 -0.60339618 0.0015838974
0.036785468 0.03565596 -0.011615064 -0.31084135 0.67281246 -0.67134273 0.0018761632
0.062829778 0.033595383 -0.011884899 0.54286706 -0.20374309 -0.81472945 0.002328017
0.064559005 0.034447286 -0.010787417 0.60218108 -0.20598432 -0.77132893 0.0018017407
0.066422828 0.03506681 -0.0093976101 0.68222457 -0.26190054 -0.68262565 0.0018538366
-0.063520662 0.037628435 -0.0095230043 -0.60152513 -0.34265992 -0.72163129 0.0023740954
-0.061563857 0.037395723 -0.010905002 -0.53908318 -0.26768529 -0.79858243 0.0012170631
-0.059831832 0.036805697 -0.011884907 -0.49926499 -0.23295578 -0.83454543 0.0032818944
-0.036612112 0.038992394 -0.011816987 0.32009408 0.67034662 -0.66945893 0.0012458182
-0.034000676 0.03851198 -0.011290036 0.31577981 0.65060622 -0.69064802 0.0012851635
-0.031265665 0.037796054 -0.010632745 0.3234393 0.70532858 -0.63079208 0.0011931114
-0.028523942 0.036939304 -0.010188048 0.32092866 0.72355801 -0.61112082 0.0018958678
-0.026006047 0.036296442 -0.0095498767 0.31769121 0.74567753 -0.58569384 0.0010364631
0.035058334 0.036538269 -0.0096360771 -0.33228186 0.74864399 -0.57369065 0.0012673133
0.037723947 0.03716819 -0.010361126 -0.34787324 0.72576678 -0.59350389 0.0021601915
0.040346384 0.03799006 -0.010987078 -0.34437951 0.67087358 -0.65675819 0.0013555184
0.042756218 0.038603358 -0.011697641 -0.3331337 0.6297372 -0.70174998 0.0016923815
0.064835824 0.037368666 -0.011196665 0.55898803 -0.094334029 -0.8237921 0.0016644526
0.066802368 0.037622005 -0.0096821385 0.66548109 -0.14257629 -0.73267108 0.002305927
-0.066103756 0.041656535 -0.0090401275 -0.64313543 -0.26811221 -0.7172814 0.0025447726
