# .PCD v0.7 - Point Cloud Data file format
VERSION 0.7
FIELDS x y z normal_x normal_y normal_z curvature
SIZE 4 4 4 4 4 4 4
TYPE F F F F F F F
COUNT 1 1 1 1 1 1 1
WIDTH 555
HEIGHT 1
VIEWPOINT 0 0 0 1 0 0 0
POINTS 555
DATA ascii
0.066260986 0.029731261 -0.0064023733 0.72660118 -0.44749996 -0.52133912 0.0017319125
-0.063285835 0.032732941 -0.0063165599 -0.68551219 -0.54892349 -0.47828445 0.0015602642
-0.061218616 0.031637207 -0.00757964 -0.65345585 -0.5432263 -0.52716285 0.0021128445
-0.059402388 0.03036936 -0.0083964542 -0.60555893 -0.55425572 -0.57105076 0.0020128423
-0.015346818 0.03292365 -0.0087924227 0.25417754 0.77370745 -0.5803194 0.00093855493
-0.013212995 0.032639701 -0.0083501134 0.22009584 0.82424867 -0.52170104 0.0016164468
-0.01040643 0.032285381 -0.0078173755 0.19757958 0.8390981 -0.50682998 0.0014818532
-0.0075308061 0.031797286 -0.0076114791 0.15567276 0.84455967 -0.51233286 0.0024920879
-0.0044743796 0.03131751 -0.007611807 0.12213086 0.84528428 -0.52017158 0.0022255059
-0.0015562323 0.030926587 -0.0076577738 0.093272679 0.84698206 -0.52337527 0.0019052452
0.0013324387 0.030745445 -0.0075896038 0.053966355 0.85044938 -0.52328146 0.0018809016
0.0044987984 0.030763844 -0.0074172504 -0.0034707715 0.86052507 -0.5093962 0.0022499182
0.0074901246 0.030766401 -0.0074691884 -0.045160413 0.86118054 -0.50628906 0.0021488413
0.010449896 0.030913915 -0.007610417 -0.090895295 0.86390662 -0.49538204 0.0019853346
0.013417701 0.03124791 -0.0075867432 -0.12569433 0.86043888 -0.49380752 0.0023979396
0.016402837 0.031766083 -0.0076332637 -0.1865949 0.8632676 -0.46898979 0.0019433541
0.019311888 0.032335341 -0.0078332825 -0.22529478 0.84213156 -0.48995587 0.0017269653
0.02201855 0.032685403 -0.0085530654 -0.24454062 0.81141722 -0.53085023 0.0014924718
0.065485664 0.030961646 -0.008422357 0.67298657 -0.35837692 -0.64703554 0.0015937689
0.066821977 0.031780332 -0.0072301221 0.73634845 -0.38596171 -0.55571979 0.0019359163
-0.063981541 0.034937486 -0.0072940299 -0.6805746 -0.48165259 -0.55211323 0.0019679749
-0.062411923 0.033921957 -0.0083080959 -0.65330356 -0.46511456 -0.5973801 0.0020432393
-0.024305655 0.035984993 -0.0087265242 0.3342596 0.79816002 -0.50120968 0.0015718889
-0.022099219 0.035540517 -0.0083443383 0.30845195 0.79654634 -0.5199725 0.0019773943
-0.019443966 0.035011753 -0.0076131211 0.29366398 0.83434981 -0.46649966 0.0013383041
-0.016563529 0.034118451 -0.0075149387 0.24616167 0.83230746 -0.49665758 0.0016885065
-0.013783709 0.033626184 -0.007032481 0.22972888 0.84280723 -0.48672444 0.001782577
-0.011385517 0.033283681 -0.0064102663 0.20272997 0.87057096 -0.44833782 0.00097320467
0.020164965 0.033316113 -0.0065603838 -0.23410183 0.85975373 -0.45389408 0.0018866363
0.022619324 0.033672389 -0.007225302 -0.24490929 0.85278958 -0.46126932 0.0020281954
0.02548261 0.034269966 -0.0076286988 -0.25561291 0.8464433 -0.4671143 0.0018536804
0.028414493 0.035096221 -0.0077537051 -0.28611049 0.84469497 -0.45236176 0.0014863806
0.030924853 0.035619963 -0.008389865 -0.30391723 0.82112515 -0.48310232 0.0022894437
0.033091325 0.035984993 -0.0087265242 -0.34642282 0.78291184 -0.51675934 0.0035172582
0.065845005 0.033027247 -0.0088724382 0.71157682 -0.33732179 -0.61633801 0.0015479653
0.067645639 0.034402151 -0.0077179628 0.75182283 -0.28540331 -0.59439659 0.0018863032
0.069121949 0.035421126 -0.0063313185 0.7912094 -0.31619886 -0.52345574 0.0024998249
-0.066532917 0.03803606 -0.0066363276 -0.6939218 -0.41522467 -0.58826953 0.002621585
-0.064863473 0.037292637 -0.0080993259 -0.67597121 -0.38816008 -0.62641424 0.0025850893
-0.030409088 0.038843807 -0.0086777629 0.37288135 0.7697078 -0.51817894 0.0011876671
-0.028199444 0.038357977 -0.0079189502 0.37308922 0.80421591 -0.46264586 0.0012572029
-0.025371965 0.037321046 -0.0075876573 0.33391294 0.80406797 -0.49191144 0.0016089763
-0.022741098 0.036594439 -0.0070093013 0.32417962 0.82462937 -0.46356663 0.0013163298
-0.020722872 0.036105659 -0.0064188638 0.31338999 0.83819389 -0.44633809 0.0012708949
0.029594606 0.036152177 -0.0066074049 -0.30939758 0.84563297 -0.43494594 0.0017108545
0.031739458 0.03655218 -0.0072575998 -0.32221347 0.83452624 -0.44692773 0.0018146016
0.034531567 0.037495922 -0.0076910867 -0.36293933 0.80810934 -0.46393359 0.0024728556
0.037039947 0.038445 -0.0080671217 -0.39978027 0.77806532 -0.48455158 0.0026162367
0.039033424 0.038863033 -0.0087790629 -0.42607874 0.76672775 -0.48019317 0.0023928618
0.068279773 0.037284222 -0.0081309816 0.74939173 -0.1841682 -0.63599855 0.0025833705
0.069489188 0.037735693 -0.0067450758 0.78665471 -0.20297626 -0.58307374 0.0019640832
-0.069238096 0.041740008 -0.0060332501 -0.73049843 -0.34472591 -0.58952194 0.0051244027
-0.067211837 0.040590052 -0.0074128942 -0.68658108 -0.27939329 -0.67122704 0.0021783819
-0.065660931 0.039875891 -0.0086566778 -0.6593889 -0.26856351 -0.70219654 0.0022331823
-0.03634733 0.04181027 -0.0086244028 0.4010345 0.76458305 -0.50456327 0.0019309659
-0.034200877 0.04124229 -0.0078474144 0.40472975 0.79344046 -0.45458344 0.0011094247
-0.031609386 0.040176485 -0.0075312671 0.36995634 0.79339099 -0.48338705 0.0014986499
-0.029250715 0.039451569 -0.0068437112 0.37602898 0.80926269 -0.45132706 0.0011056938
0.038031895 0.039604772 -0.0070194383 -0.43244845 0.78476638 -0.44399342 0.0018973909
0.040484786 0.040701214 -0.007607474 -0.44494063 0.7642777 -0.46680552 0.0019148263
0.042822544 0.041547999 -0.0084354496 -0.42609262 0.71990365 -0.54789031 0.0015939072
0.068516009 0.040421829 -0.0084983082 0.70554757 -0.067280799 -0.70546156 0.0021771535
0.069746606 0.040579904 -0.0071306219 0.76559949 -0.089168079 -0.63710797 0.0020565882
-0.069533579 0.044190254 -0.0063192337 -0.71207476 -0.20808512 -0.67055959 0.0022496409
-0.067504473 0.043399446 -0.0081285769 -0.65148395 -0.15853238 -0.7419138 0.0032643853
-0.04235008 0.044809937 -0.0087225493 0.37712607 0.72930741 -0.57086486 0.0017132296
-0.040200654 0.044291992 -0.0078466702 0.40469947 0.77761519 -0.48117873 0.0018609228
-0.03758458 0.043187246 -0.0074650329 0.38990057 0.78461015 -0.48204195 0.0015435887
-0.035238959 0.042417459 -0.0067673125 0.40916297 0.79597658 -0.44610202 0.0010879857
0.041532792 0.04217124 -0.0062436257 -0.46739727 0.76856601 -0.43685925 0.00095488684
0.043849222 0.043069497 -0.0070602051 -0.45099726 0.7534703 -0.47841823 0.0020026807
0.046329878 0.044072513 -0.0077961963 -0.43713588 0.72937465 -0.52623653 0.0023823779
0.048604745 0.044704538 -0.0086280983 -0.3937712 0.69638717 -0.5999909 0.0015182471
0.068486489 0.043522418 -0.0086418455 0.67223787 0.032601386 -0.73961705 0.0028911426
0.069871679 0.043489333 -0.0072128517 0.74529606 -0.0020635317 -0.66673052 0.002914395
-0.069703393 0.04659763 -0.006804788 -0.68307263 -0.12561667 -0.71946663 0.0038121489
-0.067778125 0.046705328 -0.0083595123 -0.53593838 0.0017172231 -0.84425533 0.0034054443
-0.048539501 0.047816183 -0.0087420782 0.3316434 0.70129377 -0.63103062 0.0017817143
-0.046145242 0.047371808 -0.0078423256 0.37128022 0.75423735 -0.54155052 0.0023085624
-0.043633804 0.046424463 -0.0073490571 0.37703556 0.77147299 -0.51251692 0.0018711773
-0.041222062 0.045513995 -0.0068001128 0.42514062 0.77852476 -0.46168673 0.0016976672
0.047353711 0.045382313 -0.0067098662 -0.45658481 0.74424869 -0.48746708 0.0020175097
0.04967111 0.046283055 -0.0074413656 -0.40752712 0.73852116 -0.53712964 0.0019098504
0.05212108 0.047174349 -0.0080821393 -0.38101143 0.69776678 -0.60659039 0.0026586123
0.054417543 0.04779635 -0.008740101 -0.31497857 0.66364902 -0.67849725 0.00234092
0.068205744 0.04669369 -0.0084944898 0.5448029 0.14273801 -0.82632661 0.0036896637
0.069749884 0.046697475 -0.0071749911 0.6664623 0.099654011 -0.73884839 0.0030792477
-0.069957942 0.049659923 -0.0068242503 -0.60634071 -0.0050898409 -0.79518872 0.0064354306
-0.067719661 0.049470264 -0.0082756672 -0.43958029 0.12574364 -0.88935804 0.0045695929
-0.065563843 0.050583944 -0.0088615669 -0.23129104 0.26347145 -0.93652934 0.0097042089
-0.058009796 0.050904926 -0.0088677425 0.098568574 0.63812077 -0.76360083 0.00518848
-0.054811783 0.050601408 -0.0086096385 0.20355873 0.66712886 -0.71659106 0.0023683282
-0.052234691 0.050098918 -0.0080048293 0.29145765 0.71811503 -0.63195193 0.0021546872
-0.04956596 0.049343988 -0.0074406844 0.33859262 0.75525939 -0.56119359 0.0015635123
-0.047079373 0.048602171 -0.0067516174 0.39075366 0.76382542 -0.51369494 0.0018224544
0.052995007 0.04870069 -0.0068871793 -0.4183405 0.70938057 -0.56724811 0.0022540155
0.055517618 0.049442109 -0.0076407129 -0.33806285 0.68315321 -0.64731383 0.0021557906
0.058367312 0.050167665 -0.0082557416 -0.26588166 0.6343199 -0.72590989 0.0034196239
0.061409306 0.050546452 -0.008729835 -0.089713641 0.53399515 -0.84071434 0.0040960331
0.064965405 0.050521955 -0.008825778 0.10896751 0.40761885 -0.90662724 0.0081541613
0.067612685 0.049584556 -0.0081981691 0.45498317 0.22336179 -0.86203235 0.0059164762
0.069787405 0.049127012 -0.0068046064 0.65292108 0.13639492 -0.74504393 0.0048440611
-0.069999084 0.052738957 -0.0066380487 -0.44076568 0.12607935 -0.88872361 0.008593129
-0.067511104 0.052433543 -0.0077304607 -0.28419873 0.27955142 -0.91710532 0.010821832
-0.064504221 0.052605171 -0.0081185056 -0.042439982 0.48391309 -0.87408632 0.0073828576
-0.061605908 0.052694529 -0.0079772184 0.055311464 0.59462219 -0.80210042 0.0040263208
-0.058436792 0.052402545 -0.0076568145 0.16969132 0.70306975 -0.69057786 0.0030363756
-0.055587407 0.051943615 -0.007327233 0.24670909 0.75099498 -0.61248773 0.0027993596
-0.052814092 0.051449418 -0.0066529592 0.33009511 0.75750077 -0.56323165 0.0018342818
0.056465246 0.051215947 -0.0062536006 -0.39928761 0.70355344 -0.58786213 0.0021281713
0.058691956 0.051842414 -0.0067900121 -0.34241626 0.68222129 -0.64600718 0.0033748019
0.061518669 0.052444354 -0.0074435947 -0.21503358 0.59275192 -0.77614802 0.0050610467
0.064674355 0.052288562 -0.0080034733 0.064560659 0.4251563 -0.90281445 0.0070767561
0.06749887 0.052529383 -0.007403607 0.30414402 0.30471861 -0.90257579 0.010222761
0.069453314 0.052468121 -0.0064726537 0.55758023 0.18261729 -0.80978709 0.005930006
-0.069984205 0.055047534 -0.0062738461 -0.30768222 0.26031291 -0.9151879 0.0099176839
-0.067363031 0.055223744 -0.0066144057 -0.071857527 0.45342165 -0.88839477 0.0086932853
-0.0647045 0.054845721 -0.0067223608 0.088489875 0.58562315 -0.80573887 0.0080410186
-0.061774518 0.054407552 -0.0064602369 0.1899154 0.68076259 -0.70745635 0.0051355786
-0.059563003 0.054149676 -0.0061287307 0.23543826 0.73090756 -0.64058012 0.0047100657
0.062334273 0.054230161 -0.0063589746 -0.32954738 0.61966968 -0.71232575 0.0082318122
0.064799644 0.055019557 -0.0065432196 -0.11257713 0.48320743 -0.86823785 0.010296832
0.067571536 0.055224627 -0.0064913011 0.19753687 0.32084426 -0.92630345 0.015040514
0.069316246 0.054964483 -0.0061658649 0.45249495 0.22759086 -0.86223578 0.0094061065
0.066595182 0.057281096 -0.0061420132 -0.17715818 0.40919766 -0.89508229 0.0091747046
-0.015315931 0.0029083265 -0.0032080079 -0.25973266 -0.94088519 -0.21742594 0.00083237205
-0.013017888 0.0026372983 -0.0040681679 -0.2200657 -0.91582721 -0.33590412 0.0018158323
-0.010507056 0.0023569844 -0.0046819299 -0.15736775 -0.92499006 -0.34587407 0.001617502
-0.0075073503 0.0019082922 -0.0046274057 -0.12942226 -0.92858547 -0.3478204 0.0015055221
-0.0044930731 0.0014841972 -0.0046227206 -0.10256657 -0.92541665 -0.36480683 0.0017416541
-0.0015039223 0.0012686034 -0.0046241945 -0.047893919 -0.93559283 -0.34981734 0.0024238701
0.0014328037 0.0011352871 -0.0046089655 -0.033900876 -0.93054491 -0.36460498 0.002858751
0.0044970959 0.0010088097 -0.0044765496 0.0025580921 -0.92797464 -0.37263459 0.0018082235
0.0075189709 0.001107336 -0.0044193431 0.052751731 -0.93366998 -0.35422823 0.0023657
0.010429209 0.0012739492 -0.004534903 0.061329834 -0.93675178 -0.34457907 0.0024809032
0.0135651 0.0016162784 -0.0046474398 0.103936 -0.94012725 -0.32458907 0.0017756978
0.016562045 0.0019819022 -0.0045780097 0.13211232 -0.94033962 -0.31354052 0.0015411224
0.019427322 0.0023864647 -0.0045276671 0.15947381 -0.94359088 -0.29017973 0.0014116616
0.02189075 0.0026546475 -0.0037349376 0.20141192 -0.93808764 -0.28182426 0.0016495332
0.024556749 0.0028936339 -0.0032719516 0.23155776 -0.96228743 -0.14277269 0.0021072463
-0.02435381 0.0058981329 -0.0033768632 -0.36553183 -0.89862251 -0.24261934 0.0023643733
-0.022092078 0.0054128892 -0.0042518997 -0.31641567 -0.88662225 -0.3373161 0.0017447352
-0.019238859 0.004593608 -0.0047318684 -0.26474243 -0.89089304 -0.36908132 0.0018087833
-0.016506068 0.0038186787 -0.0046845255 -0.25050655 -0.90105546 -0.35404181 0.0016030743
-0.013997304 0.003370262 -0.0053580361 -0.22847365 -0.89970708 -0.37192321 0.0016334733
-0.011518431 0.0030592475 -0.0059324745 -0.18938333 -0.88043165 -0.4347114 0.0023733294
0.02063223 0.0031285458 -0.0058780788 0.16716945 -0.92227572 -0.34851384 0.0019484808
0.022860974 0.0032704226 -0.0050893496 0.20298381 -0.92274117 -0.32763749 0.0016185043
0.025532372 0.0036912905 -0.0045598806 0.2377784 -0.92610359 -0.29290536 0.001418689
0.028493745 0.004536334 -0.0046272948 0.26243204 -0.91616672 -0.30293226 0.001733358
0.0313843 0.0053233956 -0.0044154273 0.28308839 -0.91770935 -0.27869442 0.0018192721
0.033336215 0.0057052332 -0.0036257445 0.32048783 -0.90982985 -0.26362321 0.0020514806
-0.030478027 0.0087803872 -0.0045076432 -0.3513976 -0.86104459 -0.36758921 0.0012553689
-0.028189195 0.0079308758 -0.0048034764 -0.33895954 -0.8730731 -0.35049942 0.0015583873
-0.025540043 0.0068882098 -0.0047409809 -0.34157524 -0.87609339 -0.34027454 0.0013199364
-0.023163179 0.0062384722 -0.0054201731 -0.33230051 -0.8679927 -0.36900556 0.0019080425
0.032688152 0.0061335354 -0.0056497366 0.3143875 -0.8825295 -0.34971729 0.0017694138
0.034694098 0.006545844 -0.0046522524 0.34184301 -0.89498651 -0.28660509 0.0013852156
0.037449021 0.0075832335 -0.0046251048 0.34920412 -0.88987035 -0.29357672 0.0014506124
0.039890248 0.0084577985 -0.0042430027 0.38210204 -0.88884336 -0.25289437 0.0017590591
-0.036798812 0.011638157 -0.0046704314 -0.41774711 -0.8402282 -0.34569353 0.0021054102
-0.034378763 0.010603405 -0.0049767108 -0.39393291 -0.85203409 -0.34475324 0.0013488649
-0.031783991 0.0095277373 -0.0050735818 -0.37691548 -0.85737896 -0.35047975 0.0018001754
-0.029912645 0.0090294909 -0.0057419902 -0.33539873 -0.87884539 -0.33932072 0.0029103556
0.041283298 0.0093478942 -0.0049600843 0.41594347 -0.86556572 -0.27890319 0.0015691095
0.043565243 0.010282965 -0.0045311293 0.41578007 -0.86020964 -0.29523942 0.0012576289
0.04601359 0.011452514 -0.0043643387 0.44177455 -0.85434312 -0.27373922 0.0019246831
-0.042417787 0.014610249 -0.0046175076 -0.47407788 -0.79622322 -0.37587067 0.0014276069
-0.040289156 0.013593374 -0.0049473825 -0.44790247 -0.81147498 -0.37535554 0.0013662223
-0.038161252 0.012563503 -0.0051733148 -0.42963269 -0.82177567 -0.37429997 0.0011916475
0.0474017 0.012416163 -0.0048422781 0.47774908 -0.83691186 -0.26708487 0.0016373963
0.049511351 0.013522468 -0.0045291423 0.49731216 -0.81625003 -0.2939668 0.0016416445
0.051491313 0.0145308 -0.0040933751 0.50887996 -0.80622512 -0.301732 0.0016246946
-0.048127986 0.017861158 -0.0031240496 -0.57470644 -0.79709685 -0.18533516 0.00029510743
-0.046227813 0.017087772 -0.0043646358 -0.54570073 -0.78392321 -0.29609975 0.0019149776
-0.043770678 0.015805332 -0.0052198046 -0.51265746 -0.77769083 -0.3638396 0.001188079
0.052949276 0.015775537 -0.0047251023 0.54297274 -0.796709 -0.26539654 0.0012810134
0.055161778 0.017195148 -0.0043786643 0.56321037 -0.77100986 -0.29721692 0.0018484415
0.057027172 0.017877324 -0.0032651913 0.57842922 -0.7952283 -0.18174586 0.002711009
-0.051472589 0.02068566 -0.0039516538 -0.56111407 -0.7720989 -0.29835272 0.0019780456
-0.049966652 0.020059938 -0.0049478821 -0.55394608 -0.73716903 -0.38694394 0.0012295573
-0.047347583 0.018306347 -0.005324333 -0.54038799 -0.75553131 -0.37034205 0.0013443113
0.056357183 0.018297136 -0.0050264183 0.5860945 -0.7580626 -0.2860671 0.0018614412
0.058381163 0.019766007 -0.0045669018 0.61207908 -0.72086436 -0.32513648 0.002287097
0.060142007 0.020776706 -0.003495422 0.64258701 -0.70661378 -0.29627505 0.0026299022
-0.054590937 0.023485253 -0.0046947775 -0.57781506 -0.72413623 -0.37650564 0.0012655472
-0.053299386 0.022535954 -0.0049029593 -0.57054758 -0.728535 -0.37909386 0.0011351734
-0.050605673 0.021093691 -0.0058665662 -0.53531677 -0.70161688 -0.47028673 0.00059170416
0.059698693 0.021271804 -0.0051765442 0.62683886 -0.69606966 -0.35008574 0.0016661912
0.061370142 0.022485107 -0.0045339307 0.66598576 -0.67240953 -0.32299903 0.001750538
0.063315138 0.023734499 -0.0034921288 0.70605749 -0.64859164 -0.28427413 0.0019300734
-0.058165379 0.026346222 -0.0045713992 -0.6291976 -0.69567883 -0.34661424 0.0017594019
-0.055793721 0.024736671 -0.0052202637 -0.58492821 -0.7084595 -0.39489755 0.0012900709
0.062779762 0.024310261 -0.0053911321 0.69299072 -0.62756872 -0.35485396 0.0020547493
0.06431137 0.025616307 -0.0044873604 0.7300095 -0.60522068 -0.31748101 0.0018580934
-0.060948253 0.029205734 -0.0047098054 -0.67592883 -0.63085759 -0.3809711 0.0015422234
-0.05958708 0.02803606 -0.0051437858 -0.65012467 -0.6458984 -0.40019155 0.001395974
0.065545678 0.027687857 -0.0052837147 0.74531436 -0.54361039 -0.38599777 0.00246188
0.066796727 0.028910512 -0.0043664775 0.78616071 -0.51432526 -0.34266746 0.002517171
-0.063437529 0.032001279 -0.0047075772 -0.70437461 -0.56617647 -0.42813617 0.0012992874
-0.062151194 0.030928159 -0.0053635733 -0.69269753 -0.59534776 -0.40710092 0.0013934035
-0.0093249166 0.032959282 -0.0059398604 0.19737677 0.83732682 -0.5098297 0.00087888719
-0.0073108431 0.032836482 -0.0054726861 0.16921009 0.91198993 -0.37368742 0.0024009473
-0.0043989499 0.032638103 -0.004911561 0.14372167 0.92364293 -0.35528558 0.0021462841
-0.0014658179 0.032379072 -0.0046361946 0.10675665 0.93563598 -0.3364349 0.0024241821
0.001479329 0.032165099 -0.0046259682 0.070472278 0.93900055 -0.33661807 0.0027996318
0.0044399495 0.032116972 -0.0045035323 0.022462748 0.94460618 -0.32743633 0.0027006853
0.0075158901 0.032131098 -0.0045195185 -0.050723907 0.94490594 -0.32338819 0.0028368742
0.01053263 0.032221645 -0.0048065106 -0.094692618 0.93751258 -0.33481863 0.003180369
0.013388583 0.0325698 -0.0047055553 -0.14434387 0.93404526 -0.32668689 0.002394639
0.016343879 0.032831404 -0.0053812559 -0.19980095 0.9237507 -0.32674798 0.0027016492
0.018049465 0.032922372 -0.0055623832 -0.19774505 0.9264254 -0.32036364 0.0031684758
0.068118043 0.031420108 -0.004733833 0.82372737 -0.42175594 -0.37893945 0.0029455998
0.069231227 0.032544538 -0.0035353664 0.83784598 -0.4171409 -0.3521471 0.0023585798
-0.066392802 0.035385374 -0.0041382103 -0.75351107 -0.52044976 -0.40168774 0.0021316337
-0.064812608 0.034017727 -0.0050724493 -0.71887249 -0.54064304 -0.43695241 0.0018401021
-0.018706955 0.035783317 -0.0054851281 0.30409527 0.88026929 -0.36421439 0.0024513979
-0.016396591 0.03535552 -0.0048973281 0.27606794 0.89631617 -0.34699252 0.0020112533
-0.013423495 0.034535643 -0.004742289 0.25167128 0.90223861 -0.35018149 0.0023054772
-0.010604284 0.033776611 -0.004798016 0.19978414 0.91597146 -0.34796932 0.0023586545
-0.0077742441 0.033470731 -0.0041651814 0.15702526 0.94113511 -0.29934561 0.0030876561
-0.0052682199 0.033315662 -0.0033767631 0.14480807 0.95514047 -0.25833538 0.0019652557
0.014257964 0.033115994 -0.0034053617 -0.13877766 0.96535087 -0.22099414 0.00078505866
0.016665766 0.033399042 -0.0040354049 -0.1935955 0.9344781 -0.2987833 0.0027565025
0.019510252 0.033850394 -0.0046921261 -0.23289077 0.91806281 -0.32081553 0.0023740476
0.02245985 0.034725592 -0.0045772521 -0.27048028 0.90814203 -0.31955987 0.0016282633
0.025202956 0.035439204 -0.0047660149 -0.28095886 0.89673483 -0.34194848 0.0016794491
0.027285995 0.035757367 -0.0055640754 -0.28917438 0.89167756 -0.34826627 0.0017386392
0.068760544 0.033582788 -0.0055890274 0.8367008 -0.33720559 -0.43153703 0.002525877
0.069774434 0.034692038 -0.0044195037 0.86395818 -0.3247903 -0.38482136 0.002825469
-0.069093689 0.038768161 -0.0033952484 -0.80839801 -0.47229996 -0.35131967 0.0022524276
-0.06698557 0.036929179 -0.0048968913 -0.75032473 -0.479516 -0.45505747 0.0026420371
-0.065833747 0.036051266 -0.0059615187 -0.72201496 -0.48917845 -0.48928404 0.0052809576
-0.02714549 0.038865097 -0.0056880703 0.38246286 0.85169727 -0.35823712 0.0031149318
-0.025191432 0.038505029 -0.0049826829 0.36624062 0.86323333 -0.34741351 0.0018482562
-0.022472154 0.037460875 -0.0047932249 0.34279624 0.87096155 -0.35201809 0.0021130668
-0.019768219 0.036503065 -0.0045805895 0.30228153 0.88900185 -0.34395 0.0024123227
-0.017735984 0.036280382 -0.003564392 0.29157591 0.90653646 -0.30524614 0.0022611318
0.026464522 0.036202013 -0.0036206902 -0.27829197 0.913288 -0.29741994 0.0011684449
0.028577521 0.036566325 -0.0045677992 -0.29687241 0.89555287 -0.33143905 0.0014437789
0.03152382 0.037603069 -0.0045847115 -0.33997813 0.87425542 -0.34654334 0.0016139996
0.034091052 0.038554698 -0.0050064428 -0.38513213 0.85288703 -0.352501 0.0021632768
0.070644774 0.037539411 -0.0045901728 0.88270259 -0.24801019 -0.39915803 0.002974896
-0.069643416 0.040726949 -0.0042237556 -0.82549447 -0.40100792 -0.39717942 0.0032662689
-0.068585336 0.040429562 -0.0056407885 -0.75948834 -0.35798249 -0.54316288 0.0039632749
-0.033217262 0.041880701 -0.0056910929 0.41753635 0.83569229 -0.35676569 0.0027962709
-0.031268582 0.041323014 -0.0047927052 0.4118852 0.85169506 -0.3239848 0.0020921503
-0.028508961 0.040082868 -0.0045832652 0.38228241 0.86843616 -0.3157194 0.0021297226
-0.026357234 0.039350025 -0.0041559213 0.35853058 0.87944752 -0.31309387 0.0019166189
0.035264876 0.039455574 -0.0040395488 -0.40400586 0.85045862 -0.3368969 0.0015793071
0.037471887 0.040384538 -0.0045974557 -0.45075214 0.82292724 -0.34585136 0.0019421233
0.039639812 0.041555826 -0.0048836656 -0.48849052 0.80242658 -0.34276596 0.0014459327
0.071220987 0.040398031 -0.0047389343 0.88522917 -0.16747588 -0.4339599 0.002940895
0.072085992 0.041262742 -0.0032314658 0.94248152 -0.14889918 -0.29926184 0.0046575842
-0.070222035 0.043520417 -0.0049971091 -0.77066898 -0.25629139 -0.58342439 0.0030747761
-0.039124556 0.044881765 -0.0057637873 0.44105652 0.80158651 -0.4036437 0.0022670289
-0.037258357 0.044342928 -0.0047458434 0.44150111 0.83681262 -0.32376131 0.0020003719
-0.034651406 0.043084934 -0.0045681 0.43269148 0.84395128 -0.31705561 0.0021746161
-0.032543879 0.042325042 -0.003934551 0.4204917 0.85688961 -0.29820618 0.0028373741
0.04116153 0.04271245 -0.0043576751 -0.47909433 0.79742634 -0.36685121 0.0015147385
0.043431856 0.044030752 -0.0045979256 -0.50746673 0.7924723 -0.33832687 0.0012522867
0.045352343 0.044808753 -0.0056298147 -0.4916569 0.78431845 -0.37830946 0.0026841154
0.071354836 0.043558411 -0.005141749 0.85650098 -0.031343874 -0.51519281 0.0034038783
0.072191097 0.0434497 -0.0035057943 0.90925479 -0.084651634 -0.40754122 0.0034659167
-0.072358511 0.046963293 -0.0035064253 -0.84404945 -0.28983408 -0.45119482 0.0040790802
-0.07122124 0.046511341 -0.0049768044 -0.76863682 -0.18018989 -0.61378253 0.0047027492
-0.045018423 0.04796527 -0.0057761711 0.42916569 0.80193925 -0.41558433 0.0048158946
-0.043098591 0.047441568 -0.0049109953 0.44915524 0.82192504 -0.35028386 0.0022091635
-0.040542334 0.04622297 -0.0044756057 0.45674145 0.82729775 -0.32705602 0.0021949918
-0.038472071 0.04535998 -0.0037993102 0.45229828 0.84217727 -0.29353651 0.0026319535
0.044846803 0.045301747 -0.0036880677 -0.50536656 0.79110593 -0.34460986 0.0012927754
0.046578206 0.046124078 -0.0044886474 -0.4997851 0.76944602 -0.39770293 0.0018192318
0.049106792 0.047445394 -0.005145737 -0.47249737 0.76863825 -0.43120942 0.0023271199
0.07137306 0.046584953 -0.0050567579 0.83032787 0.033327024 -0.55627769 0.0033103211
0.072257407 0.04668254 -0.003477443 0.91451305 -0.0055189459 -0.40451875 0.0031197092
-0.072597899 0.049990203 -0.0042153206 -0.73988444 -0.17947249 -0.64835221 0.0048187026
-0.071312472 0.049611155 -0.0056084963 -0.68474996 -0.076445222 -0.72475767 0.0047976002
-0.051130008 0.05097308 -0.0058940682 0.40743217 0.75133342 -0.51913124 0.0039492073
-0.048813675 0.050453685 -0.0050492166 0.43218496 0.81333846 -0.38948262 0.0031820084
-0.046504587 0.049466759 -0.0045114844 0.4340699 0.82228661 -0.36800554 0.0022791713
-0.044171385 0.048429966 -0.0039368249 0.44226864 0.83443666 -0.32880688 0.0025134543
0.050110869 0.048524529 -0.0042371703 -0.47863248 0.7739796 -0.41456783 0.001503509
0.052442927 0.049741425 -0.0046946607 -0.48336518 0.76790702 -0.42032948 0.0025740978
0.054563548 0.050579932 -0.0055034063 -0.46812868 0.74890178 -0.46904331 0.0042932625
0.071163535 0.049611658 -0.0052259229 0.76923126 0.074115485 -0.63465744 0.0041936263
0.072293289 0.049412571 -0.0034824866 0.86223519 0.023251375 -0.50597399 0.0038864114
-0.073145546 0.052652013 -0.0044073816 -0.6570586 -0.078057513 -0.74978739 0.006971593
-0.071511894 0.052567579 -0.0057030562 -0.55458409 0.02424656 -0.83177435 0.0068008173
-0.05749042 0.0537166 -0.0057527414 0.25365072 0.78907681 -0.55948114 0.0038171159
-0.055195976 0.053406805 -0.0049054334 0.31062511 0.8425557 -0.44001347 0.0034737824
-0.052463748 0.052493487 -0.0045735692 0.36458454 0.82674646 -0.42844883 0.002526711
-0.050022293 0.05143363 -0.0042413021 0.41689137 0.82984501 -0.37088943 0.0026205156
0.053702824 0.051135551 -0.0035809402 -0.49088821 0.77890426 -0.39030367 0.0028829288
0.055607684 0.051825784 -0.0044878051 -0.45348307 0.76286376 -0.46086013 0.0027581663
0.058286451 0.053101659 -0.004940581 -0.43484834 0.73964405 -0.51364738 0.0056638825
0.060347516 0.053749073 -0.0056969314 -0.40906203 0.68036568 -0.60808784 0.0051573571
0.07098747 0.052557509 -0.0050603733 0.67026335 0.10867921 -0.73412251 0.0067487941
0.072236486 0.052490365 -0.0035257093 0.80080718 0.038198303 -0.59770286 0.0047542676
-0.075213678 0.055412553 -0.0031784226 -0.81060761 -0.097488441 -0.57741785 0.034998827
-0.073318385 0.055602364 -0.004613365 -0.54425913 0.16316533 -0.82289672 0.017929684
-0.070810363 0.056006081 -0.0056881797 -0.25465983 0.2797043 -0.92569637 0.012951264
-0.067034826 0.056678474 -0.0058023911 0.042857081 0.53674012 -0.84265852 0.0085652359
-0.064328842 0.056383565 -0.0053976313 0.23201866 0.67544639 -0.69995666 0.0068210438
-0.061637297 0.055819612 -0.0047366139 0.30623448 0.75650644 -0.57785678 0.007663697
-0.058628581 0.054846767 -0.0044651274 0.28512436 0.82706523 -0.48442453 0.0036739672
-0.056206916 0.054330006 -0.0037864782 0.32257986 0.85554945 -0.40494114 0.0027756048
0.059260324 0.054489091 -0.003933223 -0.4768413 0.71418017 -0.51241493 0.0033083335
0.061571974 0.055424765 -0.0046984171 -0.43357739 0.67427427 -0.59780008 0.0066268486
0.064040236 0.056294724 -0.0054310095 -0.3287991 0.59395349 -0.73424137 0.011670584
0.067701332 0.056606505 -0.0059321211 0.14841779 0.33488908 -0.93049526 0.017071126
0.07071235 0.055562478 -0.004971094 0.53295076 0.14567718 -0.83351159 0.010585916
0.072203875 0.055302057 -0.0034257646 0.74147993 0.055014294 -0.66871589 0.0090231709
-0.073000208 0.057649869 -0.0043279463 -0.45447519 0.42332363 -0.7837407 0.031145338
-0.07037054 0.058396358 -0.004820392 -0.1394179 0.57478756 -0.80633855 0.019058783
-0.067660213 0.058324296 -0.004678878 0.12210304 0.63703877 -0.76109946 0.0098457914
-0.064715832 0.057954032 -0.0039975899 0.31084588 0.72180903 -0.6183579 0.0066891224
-0.062523276 0.057349868 -0.003270901 0.40370834 0.76404458 -0.50324494 0.0098541714
0.06268885 0.057395 -0.0034392932 -0.50356901 0.60451287 -0.61723775 0.0099598709
0.064697146 0.05838301 -0.0042860173 -0.47968996 0.46775365 -0.74236381 0.013156636
0.067766495 0.05860528 -0.0053301947 0.098069385 0.28687716 -0.95293438 0.016497694
0.070462853 0.05861868 -0.0046736379 0.41218761 0.14057897 -0.90018833 0.018476091
0.072229683 0.058736015 -0.0033699984 0.80677158 0.014619574 -0.59068257 0.017848337
-0.06943126 0.060107928 -0.0032111988 -0.11727679 0.88935143 -0.44192794 0.024928343
-0.06841363 0.060101271 -0.0032190406 0.15198503 0.82694018 -0.54135996 0.022396434
0.065508001 0.060922913 -0.0034978441 -0.56517452 0.32103908 -0.75994194 0.010328169
0.067495868 0.061532147 -0.0043559182 -0.27248788 0.26329774 -0.92543215 0.021216922
0.070471078 0.061542928 -0.0043933871 0.26707807 0.109965 -0.95738024 0.022776891
0.072369546 0.061614085 -0.0033574044 0.61513627 -0.0045927777 -0.78840756 0.015838096
0.065813497 0.063767806 -0.0030251257 -0.81826717 0.20950219 -0.53530157 0.02246758
0.067813411 0.06437666 -0.0038718295 -0.32351854 0.13950779 -0.93588102 0.020062674
0.070510395 0.06447763 -0.0041879858 0.20076676 0.041284349 -0.97876877 0.025608748
0.072498605 0.064891405 -0.0034429349 0.46776864 -0.058155023 -0.88193566 0.018851666
0.068105869 0.067395434 -0.0036361131 -0.41913748 0.088480622 -0.90360117 0.018370997
0.07056535 0.067411736 -0.0042377072 -0.015254807 -0.0071577444 -0.99985796 0.020791559
0.07274726 0.067633957 -0.0037078215 0.39515263 -0.10034487 -0.91311848 0.014646924
0.068415985 0.070279054 -0.0034624736 -0.44357625 0.0504972 -0.89481288 0.023587719
0.070595078 0.070521742 -0.0043056454 -0.13343157 -0.053873029 -0.98959267 0.026572365
0.073247209 0.070515446 -0.0039225728 0.31438872 -0.15644418 -0.93631458 0.017402032
0.075203158 0.071589634 -0.0031166046 0.7168299 -0.22121131 -0.66122657 0.016381359
0.068619102 0.073385037 -0.0034003498 -0.63052714 0.11446792 -0.76768011 0.023088656
0.070537433 0.073497869 -0.0045184279 -0.30926889 0.0058322833 -0.9509567 0.024665235
0.073504001 0.073528811 -0.0045916042 0.33023348 -0.050698802 -0.94253677 0.047998581
0.075576976 0.073775709 -0.0035061359 0.5150184 -0.17473252 -0.83918095 0.058922727
0.068777032 0.075861081 -0.0032826769 -0.53529066 0.29244843 -0.79242522 0.048624266
0.070415653 0.075836301 -0.0043260688 -0.2731562 0.21420386 -0.93781793 0.05642451
0.073266283 0.075443879 -0.0046048681 0.21230988 0.24922091 -0.94488806 0.060668588
0.075289167 0.075123675 -0.0034334634 0.50916284 0.76599801 -0.39242873 0.048504665
-0.015786652 0.0027999636 -0.0015582176 -0.24868096 -0.95448291 -0.16468233 0.0013130802
-0.013838494 0.0023448837 -0.001891877 -0.22282507 -0.94395143 -0.24352545 0.0015994217
-0.010600093 0.0016823035 -0.0021672905 -0.16484897 -0.95341992 -0.25261703 0.0018915237
-0.007624493 0.0012385836 -0.002053888 -0.13476101 -0.9561041 -0.26020065 0.0021867454
-0.0044212998 0.00080335123 -0.002076119 -0.08975298 -0.96539944 -0.2448435 0.0028068929
-0.0012508025 0.00051956455 -0.0015084088 -0.059235413 -0.97268993 -0.22442243 0.0023884985
0.0014585264 0.00048002554 -0.0020711764 -0.029026154 -0.97897989 -0.20188102 0.0021423653
0.004785941 0.00036482303 -0.0018359901 0.011440488 -0.98627341 -0.1647234 0.0033344035
0.0073753772 0.0004456623 -0.0015883533 0.041569036 -0.98489541 -0.16808689 0.0020527393
0.010581116 0.00069045782 -0.0020775518 0.085657507 -0.97085607 -0.22383331 0.0027229462
0.013042567 0.00083965983 -0.0014261771 0.10857461 -0.97433203 -0.19720195 0.0029197671
0.016436674 0.0013184665 -0.0016168744 0.13356578 -0.9710921 -0.19783904 0.0021891338
0.019715833 0.0018274375 -0.0017061308 0.17792533 -0.97039449 -0.16333137 0.0016328973
0.022478232 0.002406389 -0.001631209 0.20390919 -0.96644026 -0.15625069 0.0013363824
0.024943789 0.0028827409 -0.0011092715 0.22705746 -0.96413344 -0.13744693 0.0013406829
-0.024831407 0.0057612145 -0.0014254188 -0.34988475 -0.91830736 -0.18518192 0.00058535178
-0.022472586 0.0048671043 -0.0015277637 -0.32836685 -0.92545807 -0.18895139 0.00037725639
-0.01934756 0.0038220305 -0.0018292259 -0.26736435 -0.95011461 -0.16061944 0.0022725114
-0.017180394 0.0033119426 -0.0022089044 -0.26701173 -0.92835021 -0.25859359 0.00075256161
0.025879502 0.0032115467 -0.0021045452 0.24827768 -0.95401305 -0.16797988 0.0016739452
0.028323596 0.0038311894 -0.0014555553 0.27063501 -0.95172745 -0.14481549 0.001099453
0.031444725 0.0047616959 -0.0014631337 0.29249415 -0.944906 -0.14696872 0.0010009817
0.034033325 0.0056229853 -0.0013877802 0.32294658 -0.93500549 -0.14652722 0.0013672628
-0.033023536 0.0089084823 -0.0003239841 -0.36926535 -0.9048093 -0.21204521 0.0033972047
-0.03135439 0.0084089767 -0.0015900958 -0.37853545 -0.90087998 -0.21242915 0.00038265344
-0.028470762 0.0072036781 -0.001667439 -0.35701659 -0.90955108 -0.21273459 0.00091644772
-0.026028212 0.0063559455 -0.0021373066 -0.34554628 -0.90633899 -0.24320249 0.001434217
0.035410587 0.0062147984 -0.0019936785 0.35512367 -0.92433196 -0.13963392 0.0011037075
0.037503142 0.0069663799 -0.0015619457 0.37261671 -0.91960627 -0.1244233 0.0010055326
0.040485531 0.0082027735 -0.0014998078 0.3921763 -0.90987474 -0.13537246 0.0011470334
0.042158201 0.0089072241 -0.00082397211 0.41951573 -0.89655507 -0.14211133 0.001170446
-0.039254062 0.01194098 -0.00066279469 -0.43834102 -0.86247361 -0.25297517 0.002927596
-0.037534632 0.011213541 -0.0016053853 -0.43508536 -0.87012607 -0.23147641 0.0013684304
-0.034821138 0.0099645024 -0.0020018537 -0.39904216 -0.88037258 -0.25633839 0.0010440788
-0.032899167 0.0090865819 -0.0020622155 -0.38624176 -0.89427453 -0.22603196 0.0013778202
0.041801393 0.009013867 -0.0028256034 0.39558834 -0.89720643 -0.19629173 0.0020522159
0.043634165 0.0097067719 -0.0016723654 0.44059616 -0.88529456 -0.14875677 0.0011217807
0.046500839 0.011133487 -0.0014784113 0.46238035 -0.87585855 -0.13811702 0.0010377389
0.04817839 0.011869711 -0.00052445137 0.48438093 -0.86892903 -0.10167315 0.0018028459
-0.043087352 0.014206187 -0.001417646 -0.51111066 -0.83186597 -0.21625207 0.0022662466
-0.040505685 0.012789831 -0.0016300394 -0.46057764 -0.85547596 -0.23670489 0.0012208513
0.049549527 0.012887894 -0.0015859762 0.50415629 -0.85306233 -0.1345772 0.0010285754
0.051968925 0.014308472 -0.001441375 0.52816081 -0.83803201 -0.13692544 0.0012029086
-0.048287295 0.017831258 -0.0016434784 -0.57463229 -0.7855165 -0.22969897 0.0012105261
-0.046497364 0.01658304 -0.0015715165 -0.55289704 -0.79839271 -0.23848273 0.0023805518
-0.044557471 0.015282935 -0.0019737731 -0.55353832 -0.79816705 -0.23774934 0.0025810755
0.053486984 0.015394906 -0.0018272561 0.55775219 -0.81870228 -0.1365252 0.0010793849
0.055428714 0.016705271 -0.0015299233 0.56758791 -0.80988187 -0.14810565 0.0011371846
0.057230551 0.017882327 -0.00097947009 0.5938561 -0.79083425 -0.14804095 0.0016551686
-0.051748432 0.020375356 -0.0014567454 -0.59653133 -0.77688539 -0.20149291 0.0012600041
-0.049878158 0.019006697 -0.0016423437 -0.5734359 -0.78479093 -0.23510551 0.0012771565
0.058680017 0.019141877 -0.0016846975 0.61799192 -0.770778 -0.15487848 0.0018930818
0.060451347 0.020576073 -0.0014229392 0.6542325 -0.74249834 -0.14379188 0.0028268322
-0.055104207 0.022935813 -0.001347048 -0.60830069 -0.76858807 -0.1980978 0.0013020469
-0.053210258 0.021529594 -0.0019040251 -0.60092652 -0.76841426 -0.2200612 0.0019753096
0.061942618 0.022010401 -0.0015755598 0.70137638 -0.70316875 -0.11672598 0.0036559065
0.063429497 0.023490032 -0.0014442885 0.72666913 -0.6772117 -0.11548276 0.0032848157
-0.060111351 0.026928244 -0.00070473785 -0.68013901 -0.70912468 -0.18588479 0.00058269576
-0.058373395 0.025669247 -0.0016804948 -0.64012343 -0.74149519 -0.20106432 0.00085820345
-0.056668151 0.024221106 -0.001771403 -0.6301679 -0.74832189 -0.20712961 0.001231088
0.065007798 0.02541141 -0.0018381013 0.76773387 -0.61497265 -0.17998178 0.0025872127
0.066228144 0.026817543 -0.0012447161 0.7956605 -0.58066905 -0.17247579 0.0023049002
-0.061526645 0.028726414 -0.0018574755 -0.71351719 -0.67340887 -0.19342642 0.0015600926
-0.059930172 0.027174205 -0.0026276326 -0.67037207 -0.70745373 -0.2238538 0.001358903
0.067443505 0.028614696 -0.0016160773 0.81925392 -0.54777509 -0.16960371 0.0023909311
-0.064351313 0.031790536 -0.0016209577 -0.7646994 -0.62430239 -0.15962894 0.0015057216
-0.062813796 0.030199828 -0.0026390767 -0.73018587 -0.65444714 -0.1962845 0.001944871
-0.00080183375 0.032930579 -0.0024759707 0.095584966 0.97733557 -0.18888798 0.0012238926
0.0015325494 0.032883964 -0.0015811345 0.064128421 0.97090197 -0.23073123 0.0023638203
0.004394081 0.032858707 -0.0010755205 0.015303609 0.97225058 -0.23344092 0.0021550129
0.0074741538 0.032859214 -0.00115274 -0.050409798 0.9711405 -0.23311992 0.0023594655
0.010498354 0.032901075 -0.0022268607 -0.096990719 0.963112 -0.25101423 0.0018948966
0.012333603 0.032924831 -0.0026823319 -0.1265723 0.98185933 -0.14117964 0.0024194329
0.068655394 0.030639026 -0.0018147923 0.85413814 -0.49772248 -0.15073301 0.0029863715
0.069517352 0.032052416 -0.0013345385 0.88877231 -0.43359199 -0.14859964 0.0036193994
-0.066820294 0.034906607 -0.0016995426 -0.80170012 -0.57760197 -0.15379496 0.0028961229
-0.065654837 0.033394493 -0.0016618106 -0.78350723 -0.60495043 -0.14195563 0.0017444704
-0.015621026 0.035898183 -0.0019183577 0.2898761 0.94651526 -0.14170596 0.0022207212
-0.013582005 0.035355806 -0.0015858912 0.26841828 0.94957972 -0.16201848 0.0016431808
-0.010430242 0.034512252 -0.0016529731 0.2094169 0.95333034 -0.21749906 0.0022575515
-0.0073778033 0.033939023 -0.0014380508 0.16252393 0.9683373 -0.18949616 0.0015388262
-0.0043321787 0.033462532 -0.0015599395 0.12966482 0.97557378 -0.17732121 0.0014522967
-0.0022445121 0.033322804 -0.00065796502 0.10481452 0.98008519 -0.168662 0.0014164959
0.00076491601 0.033075895 -0.00052077498 0.043771729 0.99887842 -0.018056788 0.0015448026
0.0032787467 0.03301293 -0.00013245446 0.023581317 0.99967003 -0.010189579 0.00068614323
0.0082283095 0.033009328 -0.00017216186 -0.036267389 0.99914098 -0.020050285 0.00097939186
0.011009063 0.033096328 -0.00067126704 -0.075997248 0.99640715 -0.037379935 0.0016259914
0.013780217 0.033364139 -0.0015658049 -0.15092227 0.96404147 -0.21873859 0.0022509282
0.016411262 0.033835806 -0.0014358343 -0.1851671 0.95973349 -0.21124585 0.0025275706
0.019192657 0.034442235 -0.0016687858 -0.23928642 0.95032698 -0.19904938 0.0021216222
0.022463195 0.035334088 -0.0015799777 -0.27297047 0.95529038 -0.11361069 0.0015775257
0.02448231 0.03587909 -0.0018496164 -0.30404985 0.94604313 -0.11205389 0.001692365
0.070549399 0.034453925 -0.0016685609 0.91931432 -0.34949055 -0.18088008 0.0035393334
-0.069286838 0.038525529 -0.0014970844 -0.85123456 -0.49390167 -0.17737235 0.0043391073
-0.068302363 0.037066698 -0.0017351059 -0.82820511 -0.53947294 -0.15180691 0.0034010657
-0.024234951 0.038887378 -0.0021292979 0.38256395 0.91478759 -0.12964754 0.0018016604
-0.022542829 0.038282979 -0.0014305441 0.36754912 0.92004883 -0.13571209 0.001588801
-0.019527605 0.037114006 -0.001485493 0.31358886 0.93639868 -0.15754221 0.0028841181
-0.017039128 0.036377084 -0.0014551765 0.27074832 0.95312935 -0.13505447 0.0022669202
0.02586391 0.036342919 -0.0013700781 -0.28325441 0.95311266 -0.10650419 0.0016934979
0.028435208 0.037156358 -0.0015285078 -0.31196821 0.93925458 -0.14309718 0.0024376884
0.031499874 0.038255163 -0.0014505776 -0.36393902 0.92437726 -0.11434597 0.0024419681
0.033226404 0.038893566 -0.0022088331 -0.43008837 0.89523757 -0.11650608 0.0023768195
0.071533285 0.037341159 -0.0017331812 0.93916738 -0.29452798 -0.17668609 0.003530835
0.072063468 0.038630143 -0.00070661213 0.95885503 -0.2487888 -0.13675226 0.0070408615
-0.070381865 0.040456995 -0.0016487751 -0.8841837 -0.43597761 -0.16775785 0.0040746136
-0.030709766 0.041770417 -0.0019575951 0.45657119 0.87810099 -0.14311334 0.0017608121
-0.028591724 0.040817749 -0.0013971104 0.41187346 0.90125769 -0.13451688 0.001633261
-0.02572521 0.03959015 -0.0015145364 0.37793297 0.9174943 -0.12397931 0.0018492491
0.032881502 0.039014932 -8.1111197e-05 -0.37695375 0.92558831 -0.034528352 0.0051487098
0.034692425 0.039671931 -0.0015113929 -0.42809582 0.89649564 -0.11414693 0.0025111616
0.037435785 0.041085709 -0.0015890588 -0.48446491 0.86575264 -0.12556337 0.0024869256
0.039114051 0.041947961 -0.0022078459 -0.52769655 0.8424269 -0.10887348 0.0029818518
0.071924262 0.039592598 -0.0026343444 0.95381063 -0.1918412 -0.23117571 0.0038697885
0.072329946 0.040615395 -0.0014742352 0.97230983 -0.16241847 -0.16802907 0.0039219512
-0.072192341 0.044458427 -0.0013109484 -0.92315966 -0.33215594 -0.19351652 0.0079638697
-0.071522832 0.043072805 -0.0017580162 -0.90897876 -0.37118104 -0.18968974 0.0057519376
-0.036619872 0.044729646 -0.0021788697 0.4766883 0.8687076 -0.13459316 0.0020598606
-0.034739468 0.043866079 -0.0015186876 0.46382254 0.87709028 -0.12482473 0.0016700046
-0.032023199 0.042520877 -0.0013950876 0.42599913 0.89340526 -0.14265969 0.0018865525
0.038838875 0.042084347 -0.0008061952 -0.51822335 0.84961265 -0.097994886 0.0026331909
0.040503319 0.042970128 -0.0014934118 -0.51703101 0.84679729 -0.12495292 0.0026150765
0.043193143 0.044631876 -0.0021890018 -0.52505249 0.81920916 -0.23068659 0.0014673808
0.072714612 0.043309007 -0.0014560601 0.9773044 -0.088665165 -0.19239172 0.0051859776
-0.072842874 0.046538673 -0.0016236936 -0.92794275 -0.29809603 -0.22374339 0.0096082753
-0.042301469 0.047840539 -0.0019734586 0.49118137 0.86094153 -0.1323653 0.0022890032
-0.040524412 0.046971183 -0.0015043247 0.47870395 0.86632383 -0.14256755 0.0016977274
-0.037975203 0.04555979 -0.0013818414 0.46597943 0.87530106 -0.12927181 0.0017924244
0.044249512 0.045413498 -0.0014099345 -0.54205209 0.83071995 -0.1268221 0.0034526465
0.046510004 0.046906944 -0.0015268949 -0.54765558 0.82596338 -0.13363308 0.0033831759
0.048214316 0.047863513 -0.0024433297 -0.55432892 0.81522799 -0.16769813 0.0037407055
0.072784856 0.046380628 -0.0017636657 0.98143703 -0.04208906 -0.18710913 0.0059708022
-0.073935069 0.0495755 -0.0016784251 -0.88857925 -0.32765421 -0.32104456 0.011026721
-0.048134793 0.05092774 -0.0026965707 0.43660873 0.87961018 -0.18883522 0.0036118571
-0.046297532 0.050201584 -0.0016273517 0.47814474 0.86130041 -0.17186965 0.0022841266
-0.043592352 0.048702247 -0.0014823148 0.47742701 0.86689001 -0.14340565 0.0023143122
0.049742669 0.048988365 -0.0020640236 -0.51974338 0.80968028 -0.27255213 0.002321488
0.051653709 0.050203122 -0.0022482013 -0.53514016 0.80591214 -0.2532402 0.0018938568
0.072947018 0.049589783 -0.0015613568 0.96306664 -0.021966159 -0.26836574 0.0089814458
-0.075465091 0.052905135 -0.0014031951 -0.89117914 -0.2448239 -0.38191757 0.022065908
-0.074501432 0.051777672 -0.002433168 -0.79722857 -0.21377763 -0.56455803 0.008612277
-0.054260015 0.053881984 -0.002699286 0.35947219 0.90440243 -0.22986075 0.0049535893
-0.052303683 0.053388271 -0.0017558067 0.41181427 0.88731092 -0.20757748 0.0024843183
-0.049477458 0.051925614 -0.0017798007 0.44558316 0.86634856 -0.22560087 0.0022322556
-0.047785945 0.051151216 -0.00075535628 0.46650621 0.86686331 -0.17584063 0.0027665042
0.053228397 0.051391456 -0.001763623 -0.51334399 0.81165868 -0.27872571 0.0031374081
0.055432253 0.052773844 -0.0018932688 -0.51380849 0.80752546 -0.28966087 0.0035786186
0.057366468 0.053860545 -0.0025026647 -0.54327422 0.77189624 -0.33019596 0.0042435648
0.073036619 0.052502472 -0.0015238236 0.93627787 -0.013342607 -0.35100663 0.0094732279
-0.075526655 0.055052243 -0.0021349948 -0.80126619 0.019394225 -0.59799367 0.032170985
-0.060571525 0.056773093 -0.0020550555 0.47503006 0.84083378 -0.25950897 0.0075114048
-0.058500405 0.055911057 -0.0017408327 0.39062673 0.88471204 -0.25435287 0.0062152282
-0.055373039 0.054656856 -0.0016719557 0.33828953 0.90573925 -0.25533643 0.0035092041
-0.053760312 0.054108925 -0.00072138594 0.37719271 0.9087953 -0.1783727 0.0048085395
0.058794539 0.055123482 -0.0018374179 -0.54140246 0.75681973 -0.36620662 0.0049759685
0.060928315 0.056496032 -0.0023749503 -0.58768922 0.69141716 -0.42019483 0.0074777612
0.072982438 0.055502336 -0.0018773134 0.87514639 0.042631172 -0.48197663 0.011482595
-0.075298153 0.057223815 -0.0014035787 -0.76529288 0.56078553 -0.31598467 0.066320784
-0.073590115 0.058302626 -0.0016408334 -0.54484916 0.7796495 -0.30868441 0.024086613
-0.071001008 0.0596154 -0.0013013923 -0.34183216 0.91183394 -0.22739743 0.011676283
-0.066367775 0.059641894 -0.002805731 0.33883396 0.82163727 -0.45837072 0.018250551
-0.064328976 0.059131529 -0.001859504 0.4435018 0.82082015 -0.359945 0.0058447635
-0.061913677 0.057694282 -0.0016890639 0.43943495 0.82281643 -0.36037478 0.0076712444
0.062124304 0.057842191 -0.0019016955 -0.64762121 0.60631245 -0.46148887 0.011352702
0.063460164 0.059288062 -0.0022474078 -0.67326444 0.56169373 -0.4808484 0.012762745
0.073058374 0.058375895 -0.0019153729 0.82405597 0.0051242579 -0.56648523 0.016391741
-0.069455743 0.060326703 -0.0016175127 -0.17845044 0.95545447 -0.23507911 0.022545865
-0.067256927 0.060537316 -0.0017475744 0.17532471 0.90780699 -0.38098249 0.024928262
-0.065649435 0.060177695 -0.0011813191 0.3500753 0.87346876 -0.33837792 0.016924914
0.064616904 0.061522633 -0.0019714625 -0.72444284 0.37483308 -0.57851774 0.014442969
0.073453926 0.061425164 -0.0018382594 0.79927683 -0.067075506 -0.59720796 0.016553063
0.065451816 0.064326338 -0.0016831041 -0.72955984 0.24260353 -0.63944191 0.0200032
0.06632328 0.064912543 -0.0027298685 -0.68467093 0.22737993 -0.69247675 0.018851126
0.073737472 0.064449094 -0.0019908031 0.75462943 -0.12650058 -0.64384162 0.012476156
0.065662362 0.066750787 -0.00085124827 -0.81382585 0.203104 -0.54445964 0.017254468
0.066661932 0.067425288 -0.0023141343 -0.66031492 0.15504338 -0.73480999 0.017159678
0.074354537 0.06737078 -0.0021636793 0.77829361 -0.22733207 -0.58530259 0.015468476
0.075293802 0.068209417 -0.00071299216 0.87670457 -0.2369227 -0.41863677 0.020044288
0.065992326 0.069260716 -0.00037172867 -0.91665959 0.22999258 -0.32686183 0.024112424
0.067279346 0.070538379 -0.0021384179 -0.68201095 0.090572886 -0.72571176 0.0099419085
0.074629202 0.069883846 -0.0026269199 0.68369836 -0.24560933 -0.68719178 0.019352391
0.075670429 0.070633814 -0.0015890242 0.79904664 -0.26054165 -0.54188794 0.015644919
0.06766583 0.07361719 -0.0020756063 -0.7439909 0.14224142 -0.65287435 0.020970013
0.074989289 0.072120585 -0.0029957783 0.68889612 -0.40277317 -0.60265744 0.035982024
0.076554805 0.073418386 -0.0017784708 0.82492566 -0.053077616 -0.56274366 0.031075746
0.068100087 0.076235481 -0.0018432611 -0.64742458 0.37003654 -0.666269 0.043195602
0.069953345 0.07684844 -0.0021348491 -0.29553127 0.57229084 -0.76494735 0.050025474
0.073499568 0.075781725 -0.0014125123 0.31826043 0.93935966 -0.1277252 0.017407196
0.07556922 0.075142391 -0.0015019983 0.41418248 0.86936921 -0.26953685 0.06293232
-0.018346906 0.002888781 0.0022617809 -0.24643779 -0.96915579 0.0023457929 0.0081635443
-0.016284585 0.0025281408 0.0017145935 -0.2285852 -0.97350788 -0.005581154 0.0056395801
-0.01366112 0.0019493576 0.0015279287 -0.21576758 -0.97635138 -0.013499929 0.0019105814
-0.010741342 0.0014275383 0.0014652316 -0.14988634 -0.98462707 0.089686096 0.0047469158
-0.0076374598 0.0010532171 0.0015420106 -0.12401666 -0.98509115 0.11922785 0.0053344085
-0.0044626044 0.00064091105 0.0014957552 -0.08747793 -0.99041861 0.10685827 0.0034880668
-0.0015074415 0.00045407153 0.0014375914 -0.04257613 -0.99109054 0.12620103 0.005925687
0.0014764809 0.00034952143 0.0014272978 -0.015674315 -0.99541628 0.094344273 0.0053182822
0.0045505194 0.00029913007 0.0014207459 0.020975409 -0.98706907 0.15891722 0.004410109
0.0075183399 0.00043143152 0.0014670633 0.047511026 -0.9853822 0.16359901 0.007064125
0.010505826 0.00057415135 0.0014542225 0.070683554 -0.97928172 0.18976612 0.0062552961
0.013481673 0.00086285203 0.0014342463 0.1089334 -0.97913688 0.17153555 0.0054393634
0.016467497 0.0012571632 0.0013927587 0.13244054 -0.9809019 0.14244618 0.0059403209
0.01943817 0.0017145548 0.0014361209 0.17360201 -0.97507548 0.13816693 0.0036831005
0.022516776 0.0023544603 0.0013854806 0.19432522 -0.97321844 0.1228153 0.0030670604
0.024872309 0.0028386915 0.0012189083 0.21484004 -0.97136658 0.10144368 0.0029316831
-0.027551424 0.0057993252 0.0021012404 -0.34786206 -0.93087786 -0.11161723 0.0076590665
-0.026004488 0.0054787667 0.0017310242 -0.33209258 -0.92647284 -0.17709498 0.0032832236
-0.02247113 0.0043827128 0.0014407572 -0.31910983 -0.94448012 -0.078270048 0.0027270946
