# .PCD v0.7 - Point Cloud Data file format
VERSION 0.7
FIELDS x y z normal_x normal_y normal_z curvature
SIZE 4 4 4 4 4 4 4
TYPE F F F F F F F
COUNT 1 1 1 1 1 1 1
WIDTH 569
HEIGHT 1
VIEWPOINT 0 0 0 1 0 0 0
POINTS 569
DATA ascii
0.0044795144 0.031996451 0.0047149938 0.01826356 0.93890905 0.3436805 0.002009141
0.0074011078 0.032045506 0.0046713641 -0.026957616 0.93654203 0.34951738 0.002157629
0.010182995 0.032058015 0.0050720223 -0.088156871 0.90248853 0.42159557 0.0020670935
0.013380713 0.032556135 0.0047732336 -0.13830721 0.89977032 0.41386536 0.0016050618
0.016081329 0.03277164 0.0053878427 -0.18590432 0.8926146 0.41070533 0.0022182644
-0.066862725 0.034757134 0.0045114052 -0.83126402 -0.48539534 0.27090847 0.0079969587
-0.065769456 0.033458043 0.0054041669 -0.8198958 -0.51835603 0.24305952 0.0075137033
-0.018903531 0.035698257 0.0055604069 0.29455972 0.88637507 0.35717487 0.0015120303
-0.016488563 0.035294414 0.0048830565 0.27210626 0.89618045 0.35045516 0.0012281582
-0.013594371 0.034509238 0.0046605025 0.25435269 0.89801717 0.35898444 0.0015142811
-0.010546041 0.033757176 0.0046325233 0.19327478 0.91727543 0.3482106 0.0011834665
-0.0076256637 0.033451024 0.0040004663 0.15587294 0.92551661 0.34514135 0.00119256
-0.0049488544 0.033240385 0.0033984645 0.12649339 0.92329639 0.36266124 0.0012200153
0.014387952 0.033214942 0.0034674271 -0.15062861 0.9297148 0.33606759 0.0027466153
0.016944813 0.033402782 0.0042902962 -0.19236822 0.90248394 0.38537917 0.0019589344
0.019471774 0.033845469 0.0047757817 -0.22770265 0.89703727 0.3787818 0.0019568128
0.022456458 0.03474256 0.0046339668 -0.25910917 0.88889486 0.37779406 0.0014427941
0.025242731 0.035589468 0.0045158425 -0.2852917 0.89214617 0.35026249 0.0016857577
0.027377792 0.035824209 0.0055546383 -0.29453656 0.88927883 0.34990209 0.0023058876
0.067937173 0.033112634 0.0058098026 0.76079905 -0.3265484 0.56084841 0.0012270745
-0.069247492 0.038563807 0.0037115153 -0.84200341 -0.41714653 0.34208059 0.0053003165
-0.068188488 0.03732175 0.0047593885 -0.83955586 -0.40226591 0.36514121 0.0073045511
-0.027543165 0.038888976 0.0059728078 0.37153083 0.85756058 0.35574543 0.00071989902
-0.02537068 0.038427792 0.0050225235 0.36313024 0.86434817 0.3479062 0.00076478766
-0.02245616 0.037375968 0.0046547381 0.33648327 0.87109023 0.35774422 0.00098718738
-0.019707285 0.036408 0.0045404416 0.29764071 0.89208943 0.3399801 0.0014261985
-0.017730117 0.036100358 0.0039373646 0.26647526 0.90589178 0.32916722 0.0021611913
0.026592089 0.036252428 0.0038574201 -0.27441797 0.91561782 0.29383451 0.0014112435
0.028644079 0.03670992 0.0044837962 -0.30354601 0.88868737 0.34364903 0.0020603044
0.031635553 0.037762702 0.0045679682 -0.35988265 0.86562836 0.34809765 0.0027519714
0.034032509 0.038715016 0.0048706378 -0.41527566 0.84805459 0.32916501 0.0019024193
0.070200071 0.037679568 0.0047986116 0.76391375 -0.20989069 0.61023092 0.0016989292
-0.069825225 0.040627375 0.0044993605 -0.84409255 -0.32586205 0.42581889 0.0040614051
-0.068800636 0.039429724 0.0055626817 -0.83411968 -0.35637212 0.4210026 0.0063776821
-0.033154294 0.041842245 0.0053689578 0.39697525 0.84622878 0.35539764 0.0011927926
-0.031318173 0.041067854 0.0050284015 0.41822022 0.83714825 0.35252607 0.00076216774
-0.028538391 0.039849028 0.0047974954 0.38194329 0.85516727 0.35044006 0.0010323629
-0.026345741 0.039394885 0.0035606767 0.36019897 0.86818314 0.34134266 0.0008522924
0.035327978 0.039666329 0.0039835894 -0.41648224 0.85414428 0.31141612 0.0019103418
0.03758169 0.040683378 0.0044845953 -0.45776671 0.83316767 0.31029242 0.0030534563
0.039653331 0.04171839 0.0049982392 -0.50674361 0.80245191 0.31509012 0.002670692
-0.072126836 0.044927739 0.0031265535 -0.91907853 -0.28391516 0.273289 0.005161792
-0.070822924 0.043539483 0.0046004448 -0.84921676 -0.26557714 0.45639861 0.0045075826
-0.039121721 0.044669639 0.0057638343 0.41378057 0.79967862 0.43508604 0.00073130778
-0.037429117 0.044204373 0.0048839049 0.42499021 0.81207651 0.39989391 0.0008877482
-0.034755297 0.042938478 0.0046790871 0.41622636 0.83409816 0.36198881 0.00099332049
-0.032827899 0.042094618 0.0044559054 0.41286495 0.84048128 0.3509042 0.00079493586
0.041035052 0.042846788 0.0043018274 -0.49977905 0.80518198 0.31922221 0.0027448405
0.043325778 0.044155836 0.0046805539 -0.49737495 0.79537535 0.34640473 0.0033883539
0.045094218 0.044928811 0.0056808582 -0.45616853 0.79491103 0.40003344 0.0042633922
-0.072344624 0.04681683 0.0036289643 -0.83568656 -0.26186475 0.48275748 0.0039719762
-0.071339376 0.046356384 0.0050455066 -0.82283872 -0.20408043 0.53036559 0.0071136244
-0.04323623 0.047366939 0.0047748098 0.42187598 0.80335045 0.42029598 0.00055112992
-0.040611729 0.046064641 0.0044927299 0.4111788 0.7979328 0.44072133 0.00060078152
-0.038201194 0.045048594 0.003838897 0.43470073 0.82489234 0.3613694 0.0012210795
0.044605482 0.045381416 0.0037119288 -0.51265264 0.79648328 0.320627 0.0019909681
0.046515953 0.046272818 0.0045287255 -0.49743807 0.78091991 0.37778226 0.0034326569
0.048757855 0.047404215 0.0051890626 -0.50259495 0.77238292 0.38835937 0.0038024203
-0.072805263 0.049590748 0.0041559949 -0.7770797 -0.23294058 0.58471012 0.0072736419
-0.071542956 0.049275618 0.0055835745 -0.72071427 -0.1372266 0.67951441 0.0070386515
-0.051087182 0.050991219 0.0058419108 0.34049562 0.79173541 0.50716645 0.0038316026
-0.049017385 0.050492827 0.0047581843 0.40498522 0.79733419 0.44748753 0.0013896466
-0.046558239 0.049244642 0.0046127299 0.4202815 0.79666847 0.4343763 0.00072510267
-0.044347927 0.048416808 0.0037727957 0.426682 0.80478537 0.41262934 0.00041602337
0.049901217 0.048608795 0.0042146966 -0.48770136 0.77851903 0.3950386 0.0031215332
0.052289367 0.04988727 0.0046849879 -0.47509411 0.77047586 0.42503223 0.0038417692
0.054352775 0.050682962 0.005512537 -0.4806954 0.74264979 0.46626511 0.0048020491
-0.075222597 0.053785205 0.0030260943 -0.85972899 -0.14707381 0.48911691 0.023632441
-0.073408127 0.052587796 0.0044860863 -0.67824417 -0.13360082 0.72258955 0.0081398077
-0.0717666 0.052349914 0.0058136224 -0.63294113 -0.039629463 0.77318501 0.0088808797
-0.057668656 0.053735312 0.0055822954 0.28935996 0.83059925 0.47578958 0.0028986372
-0.055359907 0.05329778 0.0049856864 0.33073613 0.84174025 0.42671657 0.0012931133
-0.052569322 0.052339189 0.0046375087 0.35994568 0.81648242 0.45143721 0.0014750806
-0.050168112 0.051433209 0.0039738966 0.40632659 0.81202763 0.41893899 0.0010510026
0.05357793 0.0512226 0.003692843 -0.47790161 0.78671068 0.39076388 0.0020789423
0.055661637 0.052103356 0.0044283234 -0.45311001 0.77342349 0.44329166 0.0044855238
0.058145236 0.053243939 0.0049954075 -0.43937027 0.73946589 0.51004314 0.0074307229
0.060254738 0.053937405 0.0056249183 -0.37906536 0.65032023 0.65832603 0.0017725881
0.070262045 0.053566985 0.0057253297 0.47051889 0.21037965 0.85694361 0.0014667306
-0.075251117 0.055523779 0.003276851 -0.80670667 0.081949659 0.58524221 0.031559277
-0.07364279 0.055449832 0.0046725492 -0.6091333 0.14048377 0.78052604 0.014332381
-0.071310654 0.055858728 0.0058073439 -0.32945558 0.21958791 0.91828108 0.011808646
-0.067403309 0.056703683 0.0058247447 0.022346608 0.51604933 0.85626727 0.0076157362
-0.064382516 0.056248389 0.005403481 0.25089416 0.68770981 0.68125421 0.006967999
-0.061453529 0.055631489 0.0046831528 0.32161859 0.77210587 0.54810041 0.0058611976
-0.058700137 0.054675668 0.0045540323 0.28977153 0.83254606 0.47212237 0.0026959353
-0.056363553 0.054268293 0.0037611593 0.32555079 0.84627879 0.42169768 0.0013623694
0.05913052 0.054622233 0.0039287438 -0.49045771 0.73087674 0.47462663 0.0054056016
0.061464425 0.055588737 0.0046464531 -0.45455682 0.67693114 0.5789147 0.0069395122
0.063995242 0.056431681 0.00547595 -0.29201916 0.5605408 0.77493149 0.0069540306
0.068063803 0.056791723 0.0058748387 -0.028060034 0.3831346 0.92326623 0.012108706
0.069641888 0.056011461 0.0055243606 0.083351098 0.35673037 0.93048167 0.0076322826
-0.073252469 0.0578137 0.0042400924 -0.5750792 0.41362181 0.70583349 0.017953141
-0.070553385 0.058367014 0.0048804902 -0.2418053 0.5727573 0.78324914 0.020012757
-0.067828707 0.058275819 0.0047164154 0.076264843 0.6053831 0.79227203 0.0081407456
-0.064855151 0.057806984 0.0040544346 0.33353031 0.70123982 0.63009548 0.0053631677
-0.062981419 0.057255242 0.0034845201 0.38751018 0.71545649 0.58134145 0.0050713443
0.062467616 0.057384264 0.0035388127 -0.53794301 0.63630879 0.55292708 0.0085858805
0.06455221 0.058461413 0.0043378528 -0.48908061 0.48464844 0.72520071 0.013787896
0.067336112 0.058588278 0.0052506835 -0.074390993 0.3693257 0.92631769 0.0099679921
0.069926046 0.059098687 0.0045935703 0.026920566 0.33620685 0.94140333 0.0058291727
-0.069361404 0.060150571 0.0031228354 -0.15010814 0.88871568 0.43318817 0.023818133
-0.068706229 0.060050208 0.0033519345 0.0048987982 0.84660757 0.53219521 0.038510304
0.065388203 0.061084133 0.0034818624 -0.5225808 0.32541302 0.78804547 0.014212725
0.067300491 0.061620772 0.004119392 -0.23727028 0.29581693 0.92530817 0.025008032
0.070033044 0.061741769 0.0039161006 -0.026267178 0.26413602 0.96412766 0.011441558
0.067521475 0.064331293 0.003435205 -0.26885524 0.2208962 0.93750823 0.020685848
0.070327997 0.064510472 0.0033659812 -0.020864351 0.14345111 0.98943746 0.011212916
0.068242438 0.066674359 0.0031194675 -0.27684158 0.19968124 0.93993944 0.023231855
0.07050281 0.067455955 0.0032066945 -0.084785692 0.024448829 0.99609917 0.010156504
0.07230971 0.067719728 0.0031960488 -0.091749884 -0.013875469 0.99568546 0.0097017996
0.070592359 0.070503719 0.0034085878 -0.24317633 -0.11211132 0.96348131 0.016264439
0.072762482 0.070704274 0.0035933109 -0.13084856 -0.14128754 0.98128313 0.012948683
0.068849199 0.074584454 0.0030386383 -0.61335969 -0.062565431 0.78732169 0.021968827
0.070456892 0.073534913 0.0039085951 -0.37301251 -0.11933545 0.92011994 0.012582517
0.073065639 0.073513232 0.0042894264 -0.23228127 -0.12851089 0.96412152 0.020818288
0.075532638 0.073747225 0.0031242457 0.21796003 -0.19339782 0.95660377 0.017216234
0.068770915 0.075776279 0.0031571439 -0.73675686 0.090728432 0.67004299 0.045459233
0.070164032 0.075716279 0.0040254015 -0.47154137 -0.03800837 0.88102442 0.016297186
0.072709009 0.075366199 0.0046376879 -0.25170863 -0.091964461 0.96342379 0.022882946
-0.012163222 0.0028124365 0.0061344397 -0.15769534 -0.86979324 0.46753818 0.00115379
-0.010215368 0.0026574596 0.0063793547 -0.12423158 -0.86754161 0.48159942 0.0011249972
-0.0074606901 0.0025589857 0.0068206415 -0.085001945 -0.86912733 0.48722932 0.0013430815
-0.0043426948 0.0023610489 0.0068857055 -0.041053966 -0.86621606 0.4979803 0.0014716438
-0.001501041 0.0024375017 0.0071866848 -0.01239693 -0.86551332 0.50073248 0.001810753
0.0014844695 0.0023615956 0.0070452527 0.0078756977 -0.86572033 0.50046611 0.001842492
0.0044247024 0.0024338863 0.0070061339 0.045602314 -0.86579013 0.49832514 0.0016410428
0.0072995508 0.0025326002 0.0068060067 0.062561393 -0.85849911 0.50898463 0.00144849
0.010428447 0.0026661297 0.006651747 0.084586456 -0.86749583 0.49020004 0.00074309815
0.013230819 0.0027713901 0.0061461665 0.11354641 -0.87695795 0.46696034 0.002201749
0.015684869 0.002971027 0.0060698902 0.1358688 -0.86239499 0.48766249 0.0027059822
-0.024478167 0.0059514572 0.006255405 -0.29441798 -0.87481749 0.38472387 0.0056456658
-0.0223103 0.0055272854 0.0067377775 -0.25783002 -0.8500815 0.45922235 0.0011145201
-0.019609258 0.0051391902 0.0074802539 -0.22738071 -0.84529829 0.48349652 0.00097776961
-0.016621523 0.0045611705 0.0077293008 -0.18968371 -0.84764242 0.4955022 0.0012542371
-0.013530322 0.0038843192 0.0076359906 -0.15908143 -0.85011888 0.50198704 0.0010886086
-0.010639734 0.0036838932 0.0080813607 -0.11668108 -0.83802211 0.53301454 0.0015476873
-0.0075772158 0.0035207123 0.0083729662 -0.076285668 -0.83285993 0.5482015 0.0016248621
-0.0045327428 0.0033760623 0.0085032554 -0.033843935 -0.80157077 0.59694123 0.00080358534
-0.0011822808 0.0032970465 0.0085125072 -0.010159809 -0.78358465 0.62120199 0.00050632376
0.0014350492 0.0033661213 0.0086526638 0.0060078395 -0.79571301 0.60564405 0.0011733882
0.0045878855 0.0034650236 0.0086722886 0.037476629 -0.78646511 0.61649662 0.0012877126
0.0075726984 0.003489221 0.0083217714 0.065283157 -0.81553823 0.57500923 0.0011937016
0.010615097 0.0035573104 0.0080384295 0.087675162 -0.83062506 0.54988641 0.00079288031
0.013654238 0.0038435485 0.007797448 0.11711296 -0.82931238 0.54637486 0.00043569983
0.016537189 0.0040757414 0.0075249025 0.12631507 -0.82023233 0.55790997 0.00034736661
0.019445676 0.0046079219 0.0075827092 0.15579735 -0.79719323 0.58327532 0.00095547695
0.022426587 0.0049620168 0.0073324675 0.16915503 -0.7974357 0.57920879 0.00166491
0.025368672 0.0053615291 0.0070658159 0.18818019 -0.7961086 0.57515162 0.0019136528
0.02819271 0.0057257814 0.0065654628 0.22858974 -0.80457455 0.54809356 0.0022241082
-0.031164343 0.0086216899 0.0070906444 -0.3113313 -0.84113437 0.44222817 0.0010539097
-0.028383994 0.0078799026 0.0075099892 -0.2827307 -0.83373618 0.47428617 0.00095266727
-0.025486983 0.0069350023 0.0075370246 -0.26436627 -0.84535784 0.46419892 0.0011343254
-0.02272415 0.0064726956 0.0081622647 -0.24457741 -0.83149379 0.49879849 0.00132323
-0.020250726 0.00617084 0.0088576516 -0.21442294 -0.802544 0.55672789 0.00039876159
0.022934485 0.0062940093 0.0087917596 0.16604222 -0.73203987 0.66071755 0.00027473358
0.025628213 0.0065272865 0.0083717909 0.18055201 -0.74414963 0.64315027 0.00094695768
0.028589031 0.0069582728 0.0080267405 0.2049012 -0.76201445 0.61428779 0.0025225452
0.031407952 0.0075484514 0.0077967783 0.23094584 -0.77581382 0.58717716 0.0038515865
0.034320224 0.00813499 0.0072738603 0.27163321 -0.77930748 0.56470817 0.0023760758
0.03713797 0.008789273 0.0067286883 0.3172642 -0.80410302 0.50275409 0.0026827161
-0.039508983 0.011825915 0.0063578007 -0.40928566 -0.82591158 0.38775685 0.00098184112
-0.037168916 0.011246261 0.0073529668 -0.37319604 -0.80988431 0.4525618 0.0011346713
-0.034554809 0.010195311 0.0075717624 -0.35211927 -0.82239944 0.44684571 0.00097689091
-0.03189135 0.0095203323 0.0081599811 -0.30501583 -0.82845831 0.46970433 0.00099174527
-0.029714607 0.0091171227 0.0087417169 -0.28788319 -0.81038177 0.51029855 0.0013504681
0.034857027 0.0093076956 0.0085618794 0.2431471 -0.75387514 0.6103701 0.0029977716
0.037777849 0.009936058 0.0079997703 0.30971542 -0.77327514 0.55328286 0.0017830809
0.040492706 0.010900101 0.0076885596 0.34288409 -0.76684272 0.54257053 0.0020600234
0.042973228 0.011431623 0.006778569 0.38060609 -0.76921415 0.51327235 0.0015455189
-0.045010347 0.014816646 0.0061254678 -0.48938832 -0.79186988 0.3652961 0.0024007347
-0.043076415 0.014258475 0.0073355138 -0.45606825 -0.76722014 0.45097128 0.0011044479
-0.040578172 0.013081622 0.0077340496 -0.40312785 -0.79337656 0.45611581 0.0011680885
-0.038169108 0.012374528 0.0084458785 -0.36725956 -0.79345745 0.4853304 0.00068144599
0.041871481 0.012203969 0.008632753 0.326152 -0.72591442 0.60553545 0.0032166019
0.043642372 0.012765568 0.0082699694 0.35853821 -0.73665541 0.57340145 0.0024554774
0.046402991 0.013887549 0.007700772 0.38720751 -0.73938721 0.55079663 0.0015738463
0.049028456 0.0146215 0.0065809097 0.41037947 -0.7164582 0.56415981 0.0017777424
-0.048629269 0.017530108 0.0068964381 -0.5132283 -0.73955315 0.43549722 0.0012217857
-0.046485882 0.016532907 0.0075787995 -0.48745215 -0.75365978 0.44089383 0.0010491237
-0.044292014 0.015533471 0.0081912437 -0.46525723 -0.75151408 0.46772036 0.0010196525
0.047344562 0.015281845 0.0088992426 0.39585018 -0.66007435 0.63843912 0.0017930568
0.049536742 0.016033649 0.0081624612 0.41593924 -0.67292112 0.61169577 0.0027085925
0.052077148 0.01710855 0.0072953538 0.49563864 -0.71044523 0.4996098 0.0016970375
-0.052062076 0.020256922 0.0072362344 -0.53930032 -0.71473438 0.44532001 0.0011873973
-0.04980078 0.018968498 0.0078381449 -0.52715749 -0.72094339 0.44982833 0.0012036166
-0.047826122 0.018201793 0.0088052293 -0.4916392 -0.71295434 0.49998704 0.00066801161
0.053391922 0.0187684 0.0082711047 0.49088261 -0.64448375 0.58623797 0.0047877952
0.055492435 0.019515384 0.0072348458 0.50923353 -0.66024029 0.55205441 0.0027947319
0.057276849 0.020602059 0.0067797741 0.53672558 -0.6503191 0.53759718 0.0026247257
-0.057178721 0.023741022 0.0062623252 -0.62132436 -0.68697298 0.37686089 0.0058091688
-0.055262115 0.02282689 0.0073585124 -0.57625061 -0.68712783 0.44248211 0.0014092391
-0.053195819 0.021695688 0.0081994906 -0.55136138 -0.69221789 0.46565542 0.0018094331
0.056438051 0.021414556 0.0085496418 0.48722103 -0.56817585 0.66316807 0.0016503145
0.05844174 0.022268794 0.0075219837 0.53776777 -0.57740563 0.61433589 0.0013069723
0.060529359 0.023327382 0.0064514726 0.57817489 -0.56148767 0.59198439 0.0011615444
-0.060188714 0.026789397 0.0062840278 -0.66492158 -0.60412693 0.43921512 0.0031277845
-0.058316246 0.025699632 0.0074588382 -0.62920284 -0.62860334 0.4571231 0.0014341649
-0.056394953 0.024559135 0.0084190918 -0.59289002 -0.62287974 0.51039416 0.0011537179
0.059208535 0.024356877 0.008955149 0.52511156 -0.53631443 0.66077584 0.0022100715
0.061278444 0.025335575 0.0076882243 0.5941934 -0.51895934 0.61450422 0.001233632
0.063186035 0.026071841 0.0062181777 0.63730901 -0.4917441 0.59331697 0.00093257165
-0.063131839 0.029988229 0.0060238554 -0.70656896 -0.53514892 0.46300751 0.0007306512
-0.061149448 0.028761631 0.0073570902 -0.6880995 -0.54998368 0.47332552 0.0015951527
-0.05941692 0.027616074 0.0083824871 -0.62921661 -0.58329219 0.51366985 0.0020765087
-0.00036970922 0.029943716 0.0089493329 0.09131594 0.76486331 0.63768762 0.0014843385
0.0021675057 0.029828772 0.0088561289 0.038046129 0.74998897 0.66035521 0.0012817291
0.0043984395 0.029881606 0.0086973757 0.007729711 0.77608913 0.63057584 0.0011966436
0.0074701104 0.029852822 0.008813398 -0.017941879 0.78787166 0.61557806 0.0014250996
0.010663042 0.029920384 0.008919185 -0.067899674 0.78577882 0.61476934 0.0014523523
0.062471196 0.027751312 0.0086094514 0.62606806 -0.42881861 0.65127063 0.0019715766
0.063984655 0.028508654 0.0074347896 0.65070695 -0.44268209 0.61693841 0.00091240049
-0.063742511 0.031909261 0.0070076655 -0.71008748 -0.48188746 0.5133813 0.0017309632
-0.062326696 0.031086734 0.0081609813 -0.70361227 -0.47644067 0.52719456 0.0026038087
-0.013153556 0.032668982 0.0083107259 0.22556928 0.84287906 0.48854211 0.0015868112
-0.010380779 0.032298058 0.0077445405 0.19426739 0.85223162 0.48575863 0.0013789576
-0.007438058 0.031733423 0.0076474389 0.15422679 0.85350293 0.49774173 0.0027464961
-0.0045490135 0.031277217 0.0076503353 0.12626089 0.85483462 0.50330508 0.0020280154
-0.001481802 0.030943481 0.0075851968 0.092623308 0.8560515 0.50852406 0.0022469203
0.0015205932 0.030710885 0.007573491 0.046966434 0.85792381 0.51162577 0.0023440472
0.0046806936 0.030565158 0.0077299089 0.0086110216 0.84118968 0.54067153 0.0019781284
0.0077461614 0.03062059 0.0076714628 -0.043277178 0.83864796 0.54295188 0.0022470113
0.010504785 0.030754859 0.0077642077 -0.068743996 0.84390312 0.5320732 0.0023272934
0.013579141 0.031133136 0.0076813041 -0.12248579 0.83660901 0.53393114 0.0025993676
0.016651655 0.031671334 0.0077128406 -0.18249112 0.83518851 0.51880354 0.0025749814
0.019325757 0.032243922 0.0078302799 -0.21663424 0.82413638 0.52332479 0.0016562358
0.022176242 0.032662835 0.008331283 -0.22907421 0.79438931 0.5625571 0.0021799405
0.024227176 0.032884888 0.0088670133 -0.25263852 0.72969067 0.6353938 0.0015911105
0.065019362 0.031138221 0.0081726108 0.67641008 -0.37098959 0.63626736 0.0010578613
0.066767335 0.031929497 0.0065688514 0.6784991 -0.3647908 0.63762587 0.0012526943
-0.066309765 0.035475921 0.0064780316 -0.74745083 -0.41570026 0.51818001 0.0016567711
-0.064756624 0.034364834 0.0077044866 -0.7294358 -0.41681081 0.54239482 0.0023162144
-0.022096761 0.035574555 0.0082096476 0.31741911 0.82857537 0.46120271 0.0010747196
-0.019464053 0.034904107 0.0076690712 0.29305115 0.84595692 0.44550866 0.00082588114
-0.016551048 0.033996582 0.0076018446 0.25572693 0.84554416 0.4686777 0.001334483
-0.013802871 0.033453688 0.0071313921 0.23479599 0.85424423 0.46382931 0.0013814736
-0.011663485 0.033240139 0.0063513713 0.19345042 0.88329369 0.42704707 0.0012396341
0.020347055 0.033372238 0.0063927192 -0.2242205 0.85631818 0.46523583 0.0010346072
0.022646755 0.033576969 0.0072073024 -0.23556519 0.83524501 0.49686491 0.0015103207
0.025546433 0.034210451 0.0075433366 -0.24713185 0.8225382 0.51220763 0.0023812097
0.028417869 0.03501787 0.0077651148 -0.28153771 0.81880194 0.50029975 0.0020804305
0.031058913 0.035568103 0.0083471993 -0.30366781 0.78674334 0.53742051 0.002997386
0.033340171 0.035996519 0.0088866698 -0.32421842 0.70416063 0.63169628 0.0017416489
0.06580881 0.033583142 0.0086815031 0.69206834 -0.30129424 0.65594453 0.0011872633
0.066988409 0.034472797 0.0078126285 0.70711803 -0.29024661 0.6447798 0.0011407108
-0.066898428 0.037705049 0.007162171 -0.74686617 -0.34837592 0.56641424 0.0030269912
-0.065539978 0.0370625 0.0084679313 -0.69724715 -0.29236156 0.65450066 0.0020882394
-0.030346954 0.038808204 0.0087247174 0.37822032 0.80552536 0.45615596 0.0015605707
-0.028270505 0.038284644 0.0079188794 0.35777342 0.81471413 0.45633209 0.0013901687
-0.025428208 0.037156757 0.0077088466 0.33666223 0.82205898 0.45921418 0.0013840348
-0.022787211 0.036468364 0.0069489311 0.32311743 0.83354211 0.44811016 0.0010031143
0.029597169 0.036377747 0.0061601587 -0.32384747 0.83462238 0.44556499 0.0020622499
0.031802204 0.036627207 0.0071549318 -0.32077593 0.81131536 0.48874348 0.002172352
0.034521226 0.037557345 0.0075647295 -0.36143932 0.78691953 0.50011927 0.0029771868
0.037193548 0.038402114 0.0082252799 -0.39472362 0.74714041 0.5347659 0.0037092536
0.067822099 0.037274648 0.0079852231 0.73865205 -0.20721659 0.64144713 0.0015690901
0.069100581 0.038141433 0.0068024285 0.74706769 -0.22036724 0.62715882 0.0019360178
-0.069117814 0.041485917 0.0062612132 -0.75155795 -0.28105894 0.59679699 0.004610857
-0.067603856 0.04043813 0.0076010167 -0.73252463 -0.22737685 0.6416443 0.0024905244
-0.065890148 0.039231494 0.0089501198 -0.69350851 -0.22703704 0.68373984 0.0031341817
-0.036451459 0.0417872 0.0086227069 0.3924996 0.78600389 0.47764203 0.0015955144
-0.034195021 0.041100383 0.0078905262 0.40852499 0.80110121 0.43742907 0.00099259999
-0.031650461 0.039938286 0.0077518178 0.3799904 0.8001169 0.46413395 0.001436902
-0.029553466 0.039346777 0.0069302712 0.38189092 0.80791253 0.44881696 0.0010861231
0.037949141 0.039688181 0.0069608544 -0.43223149 0.76295412 0.48070458 0.0023187923
0.040501792 0.040755451 0.0075782463 -0.42662105 0.75237346 0.50192499 0.0023620278
0.042758673 0.041546017 0.0083630076 -0.42118984 0.69703877 0.5802896 0.0028604504
0.06829349 0.040365275 0.008273269 0.73508829 -0.12475202 0.66639495 0.00357982
0.069696829 0.040915698 0.0067528486 0.73508829 -0.12475202 0.66639495 0.00357982
-0.069508791 0.043718904 0.006552659 -0.73162359 -0.18700732 0.65555722 0.0033003232
-0.068020701 0.043417767 0.0080246627 -0.66823846 -0.11570293 0.73489469 0.0025815219
-0.042683814 0.044672303 0.0088207349 0.36346453 0.71863264 0.59284121 0.00078877667
-0.040436782 0.044084385 0.0080787307 0.38745937 0.77763224 0.49513972 0.0021061129
-0.037573814 0.042958282 0.0076144305 0.38166898 0.79052216 0.47896093 0.0015935156
-0.035060883 0.042097837 0.0068675228 0.40591547 0.80162615 0.43889424 0.00089510548
0.041756906 0.042301822 0.0063932594 -0.45822352 0.7423963 0.48875245 0.001827443
0.043802995 0.042951327 0.0072932593 -0.44568089 0.73010272 0.51799482 0.002523985
0.046324607 0.044089898 0.0078142816 -0.41541779 0.71374786 0.5639078 0.0025198446
0.048487727 0.044792999 0.0084933499 -0.39410955 0.67076457 0.62829328 0.002304903
0.067953721 0.043353736 0.0088924998 0.61661118 -0.023215137 0.78692549 0.0037632438
0.069172539 0.043400869 0.0077059348 0.68780529 -0.048146658 0.72429675 0.0024993639
-0.0698511 0.046689387 0.0068166615 -0.70151037 -0.099587291 0.70566678 0.0064532259
-0.067991957 0.046517387 0.0083139474 -0.57622898 -0.021465803 0.81700641 0.0029947471
-0.048574083 0.047652252 0.0087858504 0.32063064 0.70320952 0.63458049 0.0013679456
-0.046247158 0.047179595 0.0078752339 0.36791849 0.75682229 0.54023701 0.0020972625
-0.043563187 0.046020798 0.0076003675 0.39189205 0.77204037 0.50037414 0.0020008439
-0.04135688 0.045456178 0.0067072622 0.41251501 0.7807579 0.46930632 0.0012952157
0.047314703 0.045578886 0.00664633 -0.46358958 0.72640169 0.50737095 0.0023833166
0.049611796 0.04638426 0.0073899184 -0.41763544 0.71810079 0.55669731 0.0019072603
0.052216452 0.047200814 0.0081727114 -0.35573557 0.6662119 0.65544945 0.0019148929
0.054448135 0.047854267 0.008737728 -0.32517329 0.66097909 0.67629063 0.0012673904
0.068070322 0.046367809 0.0086799907 0.55419636 0.10224601 0.82608235 0.0033098878
0.06923002 0.046420638 0.0076014525 0.55406791 0.1022677 0.82616591 0.0033511927
-0.070107765 0.049542848 0.0068432554 -0.59547096 -0.016596762 0.80320537 0.0093905814
-0.067689203 0.04958709 0.0083116367 -0.44435251 0.13617069 0.88544255 0.008459677
-0.06544289 0.050666809 0.0089180348 -0.20487246 0.32023862 0.92491865 0.0060829758
-0.058498394 0.050960612 0.0089567108 0.11086322 0.68586004 0.71923941 0.0037261473
-0.0548894 0.05067867 0.0083612381 0.20456716 0.69596171 0.68832368 0.0014705773
-0.052912135 0.05005607 0.0081864772 0.26320213 0.7155295 0.64710289 0.0019316245
-0.049732421 0.049261369 0.0073867184 0.34889385 0.77643007 0.52481371 0.0020069454
-0.047186248 0.04851754 0.0066993851 0.40299827 0.77917778 0.48007745 0.0013392752
0.052800357 0.048748851 0.006833049 -0.42826465 0.69303554 0.57990623 0.0020466808
0.05544119 0.04946956 0.007668674 -0.33208743 0.66989452 0.66404766 0.0022080515
0.058218215 0.05014978 0.0083158305 -0.26264432 0.60894126 0.74847072 0.0029039553
0.060782198 0.050597426 0.0087696742 -0.13449752 0.52652031 0.83945626 0.0039993073
0.064642563 0.05067721 0.0089054434 0.10524946 0.3978352 0.9113999 0.007869523
0.067388564 0.049747542 0.0084013278 0.32595471 0.26438868 0.90766299 0.0028139451
0.069643475 0.049473088 0.0068498352 0.51438147 0.16611078 0.84131974 0.0013907162
-0.070313282 0.05246048 0.0066664466 -0.4509733 0.10116526 0.88678557 0.010432869
-0.067563899 0.052453846 0.0077092177 -0.24890926 0.29017833 0.92403501 0.013679187
-0.064555816 0.052447159 0.0081489794 -0.10565351 0.44187614 0.89083266 0.0086875269
-0.061527267 0.052516941 0.0080077648 0.028515182 0.58189917 0.81276089 0.003670689
-0.058595628 0.052021161 0.007967623 0.14304945 0.69643188 0.70322078 0.0023602208
-0.055698328 0.051914282 0.0072572296 0.26207176 0.75732434 0.59814566 0.0024620548
-0.05306346 0.051487178 0.0064620213 0.34699383 0.76386464 0.54415631 0.0020020683
0.056352701 0.051178932 0.0063677169 -0.398303 0.69807333 0.59501964 0.0021713164
0.058818821 0.051925723 0.0069540949 -0.34839812 0.67200053 0.65347844 0.0026620114
0.061525106 0.052455228 0.0075924187 -0.2502999 0.59760439 0.76172107 0.0030246731
0.064429462 0.052521139 0.0080701215 -0.014387025 0.45945695 0.88808352 0.0066281571
0.067146622 0.05250157 0.0076983296 0.14621928 0.39647448 0.90632659 0.0058066831
0.06956929 0.052510004 0.0064673889 0.46193817 0.21198845 0.86120498 0.0016602527
-0.070137605 0.055112969 0.0063327677 -0.24320491 0.32678321 0.91327107 0.012893688
-0.067570671 0.055205617 0.006658107 -0.088896863 0.41367677 0.90607339 0.0084159868
-0.064766727 0.054792758 0.0066745454 0.054376941 0.54045588 0.83961344 0.0070831194
-0.061946027 0.054380909 0.0064045028 0.19208601 0.68270284 0.70499629 0.004938392
-0.059924543 0.054074511 0.0061272779 0.27383173 0.76798099 0.57898307 0.0061174962
0.062137514 0.054310184 0.006345151 -0.33271757 0.61606729 0.71397489 0.0054156217
0.064549141 0.055075798 0.0066141612 -0.17096573 0.52399427 0.83438647 0.010500767
0.067096114 0.055504084 0.0065623336 0.0023104837 0.416298 0.90922529 0.012063679
0.06930615 0.054688819 0.006148803 0.18812524 0.35542241 0.91557842 0.0055386033
-0.018342014 0.005868338 0.0090842675 -0.20922087 -0.79734045 0.56610495 0.00075376336
-0.016085282 0.0056570005 0.0095324153 -0.17069502 -0.79667735 0.57980037 0.00082887406
-0.013414481 0.0053458661 0.0097989542 -0.13585012 -0.77876174 0.61243355 0.00095985871
-0.010410933 0.0051875529 0.010181502 -0.10348966 -0.77076709 0.62865561 0.0010395922
-0.0075307861 0.0049772779 0.010288837 -0.064456761 -0.75898236 0.64791292 0.0013278173
-0.0044701765 0.0049003656 0.010422748 -0.031522378 -0.7483691 0.6625331 0.00089770387
-0.0012635562 0.0048509217 0.010399687 -0.0074362331 -0.75348669 0.65742123 0.0010141217
0.0017387093 0.0048496178 0.010393129 0.0098120896 -0.73785126 0.67489195 0.0010783062
0.0045049111 0.0049565043 0.010420847 0.042972703 -0.73096973 0.68105549 0.001310099
0.0074598636 0.0048861224 0.01007698 0.063123226 -0.72470951 0.68615711 0.00092535774
0.010369435 0.0051550306 0.010146424 0.077627487 -0.731161 0.67777395 0.0012916044
0.013354013 0.0053249393 0.0099325674 0.11610329 -0.74747264 0.65406781 0.0014673059
0.016181085 0.0054861298 0.0095491465 0.13580897 -0.74916136 0.64831567 0.0010535743
0.018843703 0.0058971811 0.0093616452 0.14847608 -0.73795003 0.65831953 0.00076477986
-0.027562141 0.0086722784 0.0092379823 -0.27806476 -0.79624176 0.53728873 0.00057318667
-0.025326878 0.0083241053 0.0097977268 -0.24749129 -0.78804487 0.56367826 0.0006254348
-0.022355786 0.0079011265 0.010385406 -0.21543758 -0.77323765 0.5963977 0.0011885549
-0.019546276 0.0072747977 0.010604727 -0.19397718 -0.77586067 0.60034412 0.0006973166
-0.016545424 0.0068839192 0.011024761 -0.15714787 -0.76075649 0.6297254 0.00091369473
-0.013532043 0.0066212541 0.011368248 -0.11955961 -0.7041772 0.69988573 0.001445876
-0.010573246 0.0064103375 0.011600249 -0.082847938 -0.70509386 0.70425773 0.0013962471
-0.0075010969 0.006220533 0.011682112 -0.051181599 -0.72543794 0.686382 0.0010987659
-0.0045340322 0.006125214 0.01176053 -0.023090022 -0.71469784 0.69905216 0.0011024986
-0.001679036 0.0061221588 0.011813433 0.0025500935 -0.7122643 0.70190668 0.0010780781
0.0014795506 0.0062520634 0.011877857 0.012743112 -0.70279115 0.71128207 0.0011177693
0.00459872 0.0063210875 0.011854912 0.037866123 -0.68556839 0.72702271 0.0016845907
0.0075822123 0.006378639 0.011675729 0.05786062 -0.68088132 0.73010468 0.0017794931
0.010747013 0.0066072955 0.011582091 0.074986205 -0.68266487 0.72687393 0.0015736226
0.013755355 0.0067123403 0.011261343 0.10186334 -0.62592226 0.77320445 0.0019095609
0.016877567 0.0070802369 0.011103763 0.12532949 -0.62681466 0.76902276 0.0014365135
0.019564137 0.0073444881 0.010799998 0.15934122 -0.6802699 0.71543229 0.0016756624
0.022271404 0.008103787 0.010873646 0.15392877 -0.63700753 0.75533259 0.0010726835
0.025418971 0.0079795942 0.0099086408 0.18747769 -0.70425504 0.68474591 0.00025485852
0.028362337 0.0084423069 0.0096225645 0.19006921 -0.68985283 0.69855332 0.00041784538
0.031055063 0.0087281074 0.009220019 0.21227255 -0.69981331 0.68205702 0.0013229885
-0.036101092 0.01177867 0.0090218456 -0.36142957 -0.7640267 0.53444535 0.0006683743
-0.034160282 0.011433779 0.0097883111 -0.33271518 -0.76558644 0.55061609 0.00078672497
-0.031470854 0.010906468 0.010481882 -0.27188343 -0.7669192 0.58130395 0.0011060323
-0.028585764 0.010118389 0.010783729 -0.25644016 -0.77341479 0.57971376 0.00080942299
-0.025750926 0.0095836287 0.011346516 -0.22493702 -0.73922718 0.6347807 0.0012663476
-0.023141377 0.0092419786 0.011820885 -0.20109212 -0.70942146 0.67548734 0.0017611791
0.023175508 0.009350393 0.011850907 0.14865683 -0.60097575 0.78532118 0.00095300918
0.025799613 0.0096459901 0.011449917 0.18130164 -0.66232538 0.72694898 0.00064367219
0.028611619 0.010059329 0.011020859 0.19500652 -0.64665353 0.73743594 0.00087380235
0.03146787 0.01042354 0.01056491 0.20548742 -0.63277602 0.74657178 0.00049530034
0.03462055 0.010746579 0.010001049 0.21237725 -0.61968148 0.75557309 0.0010804104
0.037373919 0.0112468 0.0096333725 0.24707761 -0.62500805 0.74048477 0.001957387
0.03934668 0.011711545 0.0093031945 0.28906146 -0.68899113 0.66463125 0.0030861096
-0.042210586 0.014902669 0.009181981 -0.43835622 -0.73392498 0.51884288 0.0012119412
-0.040180966 0.014363614 0.0099684065 -0.3949593 -0.73256773 0.55439305 0.00081794057
-0.037454005 0.013533376 0.010597597 -0.34424824 -0.74762827 0.56793052 0.00079667306
-0.034730565 0.012669162 0.011126161 -0.32022735 -0.74265784 0.5881443 0.0012029675
-0.032429636 0.012124305 0.011671177 -0.27735946 -0.74097222 0.61158139 0.0016360563
0.032128535 0.012209573 0.011832191 0.19573234 -0.6009813 0.77492607 0.00045835215
0.034590062 0.012628153 0.011519397 0.20828824 -0.60819113 0.76597625 0.00044461846
0.037641149 0.01359506 0.011370159 0.21226019 -0.56076616 0.80030435 0.00089756766
0.040311228 0.014060053 0.010926235 0.24938889 -0.57819599 0.77684909 0.0013507261
0.043304615 0.014176073 0.0099443328 0.32882556 -0.65588844 0.67947334 0.0024361161
0.045774244 0.014818378 0.0093064979 0.37926301 -0.67189842 0.63616991 0.0019356085
-0.045697916 0.01749815 0.0097085508 -0.46560425 -0.69830596 0.54367411 0.00073019578
-0.043430075 0.016691847 0.010495089 -0.42239186 -0.70935678 0.56426769 0.00089841086
-0.040949564 0.015745452 0.011233351 -0.37747315 -0.69825822 0.6082347 0.0014448577
-0.038956605 0.015205743 0.011890317 -0.36394295 -0.67767334 0.638987 0.0016453989
0.040923718 0.015247126 0.01164963 0.22774759 -0.54882449 0.80431509 0.0011416058
0.043461572 0.016342128 0.011526261 0.26212999 -0.52094895 0.81234229 0.001315911
0.046456337 0.01662536 0.010554207 0.33223504 -0.5832482 0.74124312 0.0013266841
0.048834696 0.017127123 0.0098091587 0.39082411 -0.63092941 0.67021233 0.0027916187
0.051277161 0.017993568 0.0090438267 0.39701062 -0.62197179 0.67493242 0.0022223541
-0.051324092 0.020911328 0.0090749059 -0.50503236 -0.66827452 0.54621565 0.00038898067
-0.049084146 0.020153662 0.010105041 -0.49430841 -0.66069669 0.564924 0.00091489666
-0.046771243 0.019081153 0.010835648 -0.45421275 -0.67484951 0.58160889 0.0011261926
-0.044481669 0.018259527 0.011648819 -0.43540505 -0.66593546 0.60576606 0.0010068346
0.047043465 0.018437728 0.011679764 0.30300951 -0.51648664 0.80089116 0.0014560397
0.049550869 0.019233543 0.011077051 0.36087868 -0.52623147 0.76996559 0.0013680543
0.052261665 0.019842725 0.010060061 0.40270263 -0.54597956 0.7346679 0.0017894257
0.05464232 0.020651188 0.0092976177 0.44041422 -0.55393058 0.70653814 0.0012792515
-0.054353427 0.023509227 0.0092754895 -0.54796165 -0.6345163 0.5450936 0.00082007499
-0.0523424 0.022796879 0.010332641 -0.50047696 -0.6371246 0.58616978 0.0018523413
-0.050007124 0.021768652 0.011196394 -0.4691419 -0.64197206 0.60644686 0.0012416284
0.050799645 0.021221988 0.011830325 0.38305929 -0.47421825 0.79270595 0.001277825
0.052764934 0.022131497 0.011460514 0.38960767 -0.46460465 0.79520339 0.0011084448
0.05531425 0.022707082 0.010334393 0.44708255 -0.51145661 0.73384559 0.0013604949
0.057640024 0.023385189 0.0093298107 0.48584908 -0.50703841 0.71194291 0.0014656386
-0.05736855 0.026542882 0.0095049432 -0.58129573 -0.56014037 0.59020174 0.0011758766
-0.055339526 0.025536681 0.010467163 -0.53500271 -0.5634585 0.62951314 0.0015187762
-0.053274769 0.024656447 0.011489645 -0.51582605 -0.57805485 0.63227844 0.001394123
0.0019991228 0.026933825 0.011958076 0.047735184 0.68637455 0.72567993 0.0012821701
0.004084656 0.026914828 0.011917209 0.013152563 0.68744057 0.7261216 0.0012936326
0.0075185685 0.026911996 0.011903751 -0.023361821 0.68457645 0.72856659 0.0014490511
0.055753034 0.025082644 0.011547714 0.43013743 -0.42170164 0.79821646 0.0010727014
0.058091853 0.025643308 0.010507821 0.46714813 -0.42574972 0.77492565 0.0013103262
0.060252585 0.026526723 0.0095800832 0.52256972 -0.44084471 0.72977859 0.0017231756
-0.060248721 0.029620245 0.0092798891 -0.62644088 -0.5068422 0.59218472 0.0015724157
-0.05836457 0.028699644 0.010408048 -0.59228921 -0.46646556 0.65696526 0.0012581324
-0.056379154 0.027688868 0.011473193 -0.57143843 -0.5144878 0.6393438 0.0012951405
-0.012580641 0.029627049 0.01191752 0.19712475 0.66845334 0.71715546 0.0011269508
-0.010187041 0.029565439 0.011344366 0.16788122 0.65394336 0.73768145 0.0010970101
-0.007331653 0.029118786 0.011133955 0.13859515 0.71164465 0.68873304 0.0013304269
-0.0045912545 0.028822169 0.010946829 0.11280324 0.7135033 0.69151163 0.001026776
-0.0015637964 0.028549289 0.0107794 0.095900752 0.71616459 0.69131124 0.0016512586
0.0015060861 0.028397439 0.010643185 0.053639658 0.72790921 0.68357223 0.0017340356
0.0044951825 0.0283268 0.010607976 0.018077213 0.71696979 0.69686979 0.0015512869
0.0075404439 0.028332004 0.010614726 -0.020900089 0.72397387 0.68951064 0.0022943087
0.01041478 0.028452436 0.010674357 -0.077362187 0.72032946 0.68930441 0.00200291
0.013464699 0.028645962 0.010793489 -0.10785865 0.71936309 0.68620938 0.0027461539
0.016400451 0.02892823 0.011089936 -0.14436844 0.70484966 0.6945104 0.0016395474
0.019406445 0.029245442 0.011389666 -0.16097929 0.65733087 0.73620778 0.002034764
0.022314766 0.029606141 0.011710507 -0.18506159 0.67759162 0.71177363 0.0017031474
0.058873035 0.028341971 0.011475794 0.45287502 -0.35437435 0.81812161 0.00098359003
0.061199583 0.028269004 0.0099047311 0.50269032 -0.38900396 0.77199644 0.001892342
-0.061064016 0.031799283 0.010041103 -0.63979453 -0.43037397 0.63674271 0.0016973941
-0.059207723 0.031122575 0.011331812 -0.58422965 -0.37715593 0.71862996 0.0017748206
-0.02169187 0.032832865 0.011662702 0.27240455 0.72197396 0.63604194 0.0016816147
-0.019249938 0.032259829 0.011331784 0.24853018 0.71573985 0.65264785 0.001687746
-0.016400345 0.031873479 0.010668991 0.23541895 0.75764263 0.6087327 0.0012313004
-0.013519624 0.031214684 0.010421915 0.20259555 0.77298933 0.60120094 0.0018585994
-0.010559128 0.030737432 0.010110017 0.18146886 0.76104498 0.62279975 0.001592556
-0.0075933165 0.030428605 0.0096988063 0.14695813 0.771088 0.61953741 0.001671925
-0.0047760881 0.030218879 0.0093601057 0.11752878 0.7747491 0.62124938 0.0013909193
-0.0023498137 0.030058336 0.0091084028 0.10717464 0.7640695 0.63616931 0.0014114412
0.014127371 0.030110069 0.0092128981 -0.11087161 0.75594229 0.64518118 0.0010381684
0.01661508 0.030326501 0.0095319459 -0.15723369 0.74583393 0.64730936 0.0011960798
0.019663082 0.0307614 0.0099112382 -0.18329462 0.72889203 0.6596359 0.0015291342
0.022597617 0.031154418 0.01034844 -0.20335567 0.71812063 0.66554421 0.0023423468
0.025457792 0.031693969 0.010690481 -0.22212629 0.68743545 0.69144225 0.0018341863
0.028509989 0.032123715 0.011224168 -0.22537068 0.64817268 0.72737902 0.0016282749
0.031140616 0.032649487 0.011624309 -0.23818864 0.66092092 0.71165287 0.002391523
0.059736375 0.03074502 0.011875946 0.44616094 -0.26181698 0.85579926 0.0022888056
0.061561376 0.031462327 0.011098523 0.47829744 -0.28759691 0.82977086 0.0023067577
0.063577384 0.031714257 0.0098339189 0.5801419 -0.34389728 0.73835635 0.0014661443
-0.063533537 0.035055611 0.0095147863 -0.65782171 -0.3620919 0.66042417 0.0017765259
-0.061731789 0.034402262 0.010864531 -0.59838015 -0.3014085 0.74235719 0.0018172069
-0.059925079 0.0332007 0.011882248 -0.58039159 -0.32026038 0.74871814 0.0025918179
-0.028046157 0.035564311 0.011503778 0.3039943 0.69541752 0.65113896 0.0014198435
-0.025393836 0.03492697 0.01094809 0.299449 0.74653155 0.59415567 0.0012550572
-0.022630867 0.034192372 0.010486968 0.28675422 0.76463073 0.57715839 0.0020200892
-0.019712146 0.033678673 0.0098056123 0.26931763 0.76204163 0.58886385 0.0016013025
-0.017391708 0.033189353 0.0093728472 0.25111482 0.77870691 0.5749408 0.0010523442
0.026557393 0.033227697 0.0094216289 -0.24073945 0.72677845 0.64330208 0.0015128047
0.028774716 0.033664949 0.0097989086 -0.25389388 0.71689165 0.64931059 0.0016602934
0.03167446 0.034204707 0.010311809 -0.26861063 0.70754838 0.65362352 0.0026500374
0.034371454 0.034814242 0.010792058 -0.28440037 0.63877779 0.71489805 0.0027006678
0.037267108 0.035459664 0.011460122 -0.29719225 0.64189643 0.70685625 0.0023752893
0.06229841 0.034656335 0.011624342 0.44702923 -0.15303002 0.88133234 0.0023145715
0.064677492 0.034919735 0.010140352 0.52828652 -0.17894204 0.82999587 0.0020615556
0.066071518 0.035577871 0.0092355311 0.67600226 -0.28339097 0.68022829 0.0026445424
-0.064154476 0.037675995 0.010065534 -0.64110118 -0.25698105 0.72315282 0.0029378205
-0.062256485 0.037315287 0.011488012 -0.55687636 -0.1921269 0.80806929 0.0019904727
-0.034169719 0.038444467 0.01143139 0.31724378 0.68739545 0.65333295 0.0014062929
-0.031449534 0.037764221 0.010736616 0.33237082 0.73458534 0.59153521 0.0011823431
-0.028609447 0.036851648 0.010290967 0.32341763 0.75582236 0.56932735 0.0019692066
-0.02597959 0.036283266 0.009527633 0.32607624 0.76262879 0.55863363 0.0011941376
0.035330735 0.036504563 0.0095627373 -0.32311463 0.69875288 0.63823301 0.001974175
0.037742671 0.037132669 0.010078846 -0.33633825 0.68538988 0.64584613 0.0025944251
0.040320944 0.037753861 0.010820265 -0.34205842 0.60332394 0.72041386 0.0022551063
0.04301798 0.038334217 0.011564364 -0.30004606 0.53372669 0.79063785 0.0022262882
0.045043364 0.038720947 0.011931883 -0.30322313 0.58174878 0.75473446 0.001533702
0.062562622 0.037175063 0.011875903 0.38352102 -0.048740674 0.92224509 0.0020637647
0.064429604 0.037199054 0.010846889 0.51689464 -0.12457445 0.84693635 0.0010702215
0.066501789 0.037824832 0.0094807539 0.64156502 -0.16566311 0.74896604 0.0021666533
-0.066234082 0.041102886 0.0092209056 -0.66118747 -0.18286172 0.72759384 0.0026431812
-0.064507686 0.040498689 0.010454391 -0.5767799 -0.13190706 0.80617946 0.0040126084
-0.062571891 0.040460642 0.011757492 -0.52397239 -0.05634062 0.84986985 0.0029364601
-0.042248618 0.0418543 0.011814924 0.31086051 0.66864079 0.67548895 0.0025038987
-0.040156856 0.041333802 0.011372122 0.31043994 0.69468445 0.64887637 0.0018188714
-0.037376866 0.040607892 0.010694388 0.32668969 0.72113746 0.61092937 0.00099434832
-0.034743715 0.039800972 0.010173786 0.35449168 0.73835653 0.57372934 0.0018573848
-0.032641724 0.039424665 0.0093528898 0.37659433 0.74451935 0.55124199 0.0010045554
0.041229308 0.03957409 0.0095667541 -0.38645706 0.66936296 0.63451093 0.0021346621
0.043655802 0.040298883 0.010202937 -0.37228698 0.62642235 0.68483388 0.0023965414
0.046284687 0.04076783 0.011042845 -0.30629131 0.57571638 0.75811362 0.0022195599
0.049081717 0.041454721 0.011606921 -0.24779406 0.50070977 0.82939005 0.0021086335
0.062931769 0.040733125 0.011918637 0.41459945 0.046681933 0.90880591 0.0038851551
0.064619452 0.040428281 0.011031933 0.38392428 0.036215652 0.92265403 0.0033732213
0.066638641 0.040318113 0.0097470861 0.5687533 -0.074208423 0.81915373 0.0030342094
-0.066496961 0.04352355 0.009345687 -0.61462611 -0.055961464 0.78683096 0.0037721747
-0.064534426 0.04346389 0.010662928 -0.49656716 0.028578216 0.86752772 0.0031829029
-0.062353194 0.043644041 0.011770013 -0.40743971 0.089141272 0.90887111 0.0036575047
-0.048827268 0.044756226 0.011762394 0.21630391 0.62743765 0.74802047 0.0020885856
-0.046360441 0.044213831 0.011352414 0.28631026 0.63992089 0.71311134 0.0020553598
-0.043484554 0.043518007 0.010687714 0.31904322 0.69640404 0.64283198 0.0010685057
-0.040705487 0.042728856 0.01001771 0.35237074 0.72469056 0.5921641 0.00072253938
-0.038502157 0.042360038 0.0091672782 0.36577579 0.74619722 0.55623531 0.0010403898
0.044728924 0.042009894 0.0090172105 -0.39196977 0.6555813 0.64542454 0.0027679908
0.046953332 0.042743076 0.0096926047 -0.36390823 0.63592464 0.68056649 0.0021575382
0.049558703 0.043434769 0.010298233 -0.34579512 0.595406 0.72520161 0.0022666934
0.052301724 0.043725401 0.011073195 -0.2308253 0.52983713 0.81608343 0.0014941283
0.055353422 0.044263363 0.011520316 -0.16001602 0.45946541 0.87366259 0.0024142477
0.058485549 0.044542413 0.011773528 -0.039537705 0.37730119 0.92524624 0.0037249457
0.061615344 0.044028759 0.011732132 0.13836981 0.26674789 0.95378166 0.0049632941
0.0639847 0.043687012 0.011132487 0.30560529 0.16089432 0.93846595 0.0051956107
0.066547617 0.04287836 0.0099342242 0.48422629 0.049716417 0.8735292 0.0059002796
-0.066502228 0.046369385 0.00929299 -0.52667201 0.069877051 0.84719175 0.0047713113
-0.064531855 0.046481188 0.010337162 -0.39245534 0.19167723 0.8995769 0.0072222459
-0.061650455 0.046597887 0.011383331 -0.24790879 0.31724614 0.91536659 0.0057691955
-0.058626097 0.047124546 0.011596155 -0.036651023 0.45327985 0.89061445 0.0023045924
-0.05548868 0.047085542 0.01148593 0.10018031 0.53810197 0.83690512 0.0029720466
-0.05253616 0.046884503 0.01102956 0.18622917 0.5974009 0.78001982 0.0011514275
-0.049770404 0.046679813 0.01034438 0.22168155 0.62790275 0.74605328 0.00079343648
-0.046774052 0.045746043 0.010002356 0.32908988 0.68844324 0.64633256 0.0013829335
-0.04458034 0.045243032 0.0093132127 0.3662205 0.69921809 0.61398417 0.0014842008
0.050662544 0.045325395 0.0092215128 -0.36123383 0.64741713 0.67108959 0.001718873
0.052834094 0.0458543 0.0097202547 -0.30073529 0.61253995 0.73099458 0.0028382849
0.055555534 0.046547297 0.010166547 -0.24623857 0.538185 0.80605429 0.0032088
0.058477968 0.046583593 0.010789008 -0.081769213 0.45338321 0.88755703 0.0030755799
0.061404467 0.046555903 0.010901615 0.059983078 0.36276588 0.92994779 0.0046568438
0.064303607 0.046466742 0.010426145 0.23552945 0.27068833 0.93340975 0.0063621202
0.066564515 0.046373948 0.0096173286 0.3342835 0.2263768 0.91488141 0.0029760941
-0.066293001 0.048685115 0.0091468636 -0.3797825 0.22397862 0.89755154 0.0075309896
-0.064426124 0.049369197 0.009582133 -0.25786707 0.3110548 0.91474009 0.0062386692
-0.061519209 0.049449231 0.010098051 -0.12076399 0.45543662 0.88203943 0.0061996095
-0.05856644 0.049452718 0.010196739 0.025985647 0.5456782 0.83759183 0.0030823753
-0.055878591 0.048807278 0.010313368 0.14800045 0.61223 0.77670479 0.0027689056
-0.052735403 0.048665199 0.0095417695 0.22424218 0.64962214 0.72643411 0.0016076561
-0.050523728 0.048210625 0.0092261722 0.30276847 0.69694805 0.65007275 0.0023497976
0.056334019 0.048358779 0.0091501307 -0.29347077 0.6136052 0.73305082 0.0028384689
0.058595601 0.048763648 0.0094891749 -0.18740402 0.54370511 0.81808585 0.0042539444
0.06155147 0.049256515 0.0096615627 -0.038975857 0.46165243 0.88620418 0.0050815418
0.064389326 0.049285352 0.0095378505 0.10076424 0.36575794 0.92523926 0.005383743
0.066222012 0.048965789 0.0091858869 0.3012799 0.27209136 0.91389096 0.0041232323
-0.063824408 0.051130276 0.0090544289 -0.143815 0.45600274 0.87828171 0.0087309573
-0.06172359 0.051110458 0.009094351 -0.045417324 0.52701533 0.84864128 0.0050617494
-0.059683755 0.051210891 0.0090006925 0.099679112 0.65619385 0.74797976 0.0027314143
-0.021309372 0.0089526819 0.012068418 -0.1832356 -0.7085439 0.68146193 0.0029952135
-0.018967697 0.0086353412 0.012363154 -0.16861862 -0.70969039 0.68403739 0.0012473728
-0.016322488 0.0083591919 0.012599339 -0.13193744 -0.69205171 0.70968789 0.0014646631
-0.013355747 0.0080795186 0.012780797 -0.10101816 -0.67177486 0.73383504 0.0013277414
-0.010456172 0.0078509152 0.012926062 -0.065044567 -0.64963758 0.75745636 0.00115328
-0.0074214046 0.0078051127 0.013056253 -0.035332762 -0.61993283 0.78385895 0.0010350483
-0.0044649453 0.007647811 0.013050209 -0.013895871 -0.6179142 0.7861228 0.001244211
-0.0015069029 0.0077379947 0.013127934 0.010387921 -0.58614618 0.81013876 0.0016274418
0.0014274375 0.0076936721 0.013041545 0.025930271 -0.5824784 0.81243253 0.0022688229
0.0043438147 0.0077557079 0.012983748 0.045006622 -0.57646817 0.81587929 0.0019695202
0.0074062892 0.0078879939 0.012890846 0.060641926 -0.58683372 0.80743343 0.0023103929
0.010367909 0.0079621421 0.012725205 0.076892123 -0.58170617 0.80975646 0.0017841473
0.01343888 0.0082808994 0.012619833 0.096920028 -0.57273221 0.8139928 0.0018098237
0.01589931 0.0085318005 0.012505035 0.10701442 -0.58257151 0.80570364 0.0020339545
0.018788101 0.0087146526 0.012177524 0.12738217 -0.60040021 0.78948933 0.0015085173
-0.030443318 0.011824312 0.012130613 -0.25499916 -0.73937315 0.62313944 0.0013617554
