# .PCD v0.7 - Point Cloud Data file format
VERSION 0.7
FIELDS x y z normal_x normal_y normal_z curvature
SIZE 4 4 4 4 4 4 4
TYPE F F F F F F F
COUNT 1 1 1 1 1 1 1
WIDTH 568
HEIGHT 1
VIEWPOINT 0 0 0 1 0 0 0
POINTS 568
DATA ascii
-0.051176809 0.017921496 0.0036244548 -0.55754423 -0.81223261 0.17153005 0.013082034
-0.049447197 0.017020691 0.0045546852 -0.53347915 -0.78458446 0.31595457 0.0047554434
-0.047036864 0.015566122 0.0049236361 -0.53559226 -0.79786432 0.27668309 0.0047584083
0.05274047 0.016006032 0.0045298152 0.52078831 -0.76967162 0.36930352 0.0016065496
0.055054329 0.017447887 0.0041324729 0.56190127 -0.76648778 0.31106842 0.0022124571
-0.054493494 0.020578925 0.0042247064 -0.60206354 -0.76314139 0.23480776 0.010495816
-0.052568749 0.01936602 0.0047258204 -0.57218748 -0.75661838 0.31643331 0.0043874159
-0.050641738 0.018243005 0.0054019201 -0.54861689 -0.77481341 0.31413943 0.0046517281
0.055902064 0.018394798 0.0048991083 0.55566943 -0.73417491 0.3901521 0.0029394582
0.058269486 0.020044632 0.0043865684 0.60145164 -0.72014445 0.34590161 0.0023743627
-0.057626996 0.023363089 0.0046189833 -0.65495455 -0.71070355 0.25677809 0.010823198
-0.055770341 0.02189737 0.0048851832 -0.61245221 -0.72657323 0.31143788 0.0052637164
0.059673883 0.021337755 0.0045430851 0.61284405 -0.69399315 0.37788317 0.0032447036
0.060777634 0.022586705 0.004888637 0.64261901 -0.65377897 0.39951706 0.0029398163
-0.060630333 0.026291149 0.004594842 -0.72258759 -0.65389919 0.22423862 0.011043004
-0.059133157 0.024892502 0.0049306238 -0.68208784 -0.68509245 0.25574288 0.0096725551
0.062530957 0.024491888 0.0051011248 0.70104605 -0.62537861 0.34268948 0.0019205334
0.064067446 0.026305776 0.005073003 0.68914998 -0.53630108 0.48729202 0.0020438791
-0.063408084 0.029546849 0.0045267311 -0.77448821 -0.57775658 0.25761485 0.010694231
-0.06210199 0.028155774 0.0049336399 -0.74587822 -0.62406981 0.23281431 0.0066960477
0.06504599 0.028007263 0.0056049116 0.69227946 -0.48583665 0.53358406 0.0026471987
0.06637869 0.02885583 0.0042142076 0.77258676 -0.50305676 0.38735458 0.003533592
-0.066028349 0.032955997 0.0034770779 -0.82453948 -0.53733408 0.17721958 0.0092231622
-0.064707451 0.031515967 0.0047795014 -0.78042537 -0.55939412 0.27931055 0.0091474615
-0.0092224497 0.032844473 0.0059616007 0.20576371 0.86531478 0.45704666 0.0012390217
-0.0072250613 0.032750353 0.0054497556 0.1592692 0.9052707 0.39385051 0.00075648387
-0.0044208542 0.032604873 0.0048437808 0.12985127 0.91207016 0.38893032 0.00089053466
-0.0016169348 0.032322723 0.0046883924 0.10184827 0.92024398 0.37785959 0.0011619524
0.0015669274 0.032097634 0.0046691909 0.058989253 0.92786545 0.36822012 0.0016358608
0.0045290682 0.032004312 0.0046757814 0.020816334 0.93747824 0.34742072 0.0020547027
0.0075680208 0.032003507 0.0047751195 -0.046820346 0.92777359 0.37019455 0.0020878101
0.010423384 0.032183453 0.0048064124 -0.098496318 0.920825 0.37733257 0.0020424579
0.013481818 0.032581292 0.0047464529 -0.13945603 0.90932935 0.39201036 0.0018843738
0.015998175 0.032729663 0.0054409062 -0.19359054 0.89437932 0.40324727 0.0022133088
0.067339405 0.031270083 0.005143038 0.7464627 -0.3936677 0.53648776 0.0015609545
-0.066859737 0.034798991 0.0046165898 -0.8301546 -0.46780512 0.30331767 0.0069325655
-0.065762721 0.033494815 0.0054737362 -0.8045454 -0.5149821 0.2958042 0.0080831284
-0.018807409 0.035649195 0.0055934084 0.29679382 0.87082696 0.39188504 0.0012102337
-0.016381843 0.035239458 0.0049250908 0.26534376 0.88225931 0.38885891 0.00081163656
-0.013446587 0.034423478 0.0047866483 0.24699654 0.89015007 0.38291726 0.0010543395
-0.010496649 0.033680961 0.0047978377 0.19601646 0.90367699 0.38071698 0.0010709516
-0.0077163163 0.033454537 0.0040250085 0.15720901 0.91671681 0.36730874 0.0010219199
-0.0053750114 0.033249382 0.0035693909 0.13517272 0.92351884 0.35894459 0.001286269
0.013973865 0.033149414 0.0035272513 -0.14517003 0.92821836 0.34254393 0.0021028097
0.016865274 0.033431448 0.0041761561 -0.19296348 0.91174501 0.36261004 0.0020853945
0.019527648 0.033872288 0.0047348025 -0.22656018 0.89925337 0.37418428 0.0018564217
0.022556685 0.034778759 0.0045925193 -0.25977141 0.89293998 0.36766425 0.0014387877
0.025270795 0.035473946 0.0047901114 -0.28129074 0.88669682 0.36693898 0.0017591871
0.02749899 0.035856742 0.005554195 -0.29409319 0.88365823 0.36422148 0.0019832484
0.06842678 0.033922821 0.0055426895 0.77193844 -0.31513846 0.55208582 0.0011299298
0.069568902 0.034991249 0.0041838447 0.8289234 -0.31109384 0.46487287 0.00163557
-0.069272541 0.038642157 0.0037444429 -0.83682573 -0.41690975 0.35483646 0.0057148351
-0.06821657 0.037380088 0.0047656796 -0.83587176 -0.41782513 0.35600644 0.0057809656
-0.02742964 0.038905811 0.0057765502 0.36491463 0.86353022 0.34807009 0.001361705
-0.025373233 0.038390297 0.0050867237 0.36152714 0.85360312 0.37504646 0.00086014607
-0.022333538 0.037255984 0.0048109326 0.33064103 0.8621521 0.38388824 0.00082986639
-0.019490525 0.036340065 0.0045553008 0.29454347 0.87640554 0.38099554 0.0010722496
-0.017559709 0.03609981 0.003634721 0.26937005 0.91069031 0.31318194 0.001873841
0.026387898 0.036193058 0.0038436041 -0.28484666 0.90609789 0.31280842 0.0017176562
0.028603075 0.036673382 0.0045242892 -0.29945168 0.89036554 0.3428964 0.0017708839
0.031572632 0.037746191 0.0045194989 -0.35176763 0.87461108 0.33363909 0.0024718649
0.033914629 0.038608022 0.0049725557 -0.40873963 0.84535879 0.34394819 0.0022345094
0.070084326 0.037576199 0.0049493411 0.79360747 -0.23032813 0.56314832 0.0014136167
-0.069860227 0.04068264 0.0044748727 -0.84491938 -0.3241258 0.42550412 0.0039073364
-0.068800829 0.039528776 0.0056361468 -0.82869202 -0.34143814 0.443497 0.0065852986
-0.033290904 0.041786987 0.0056245397 0.40364704 0.82858473 0.38796434 0.00094977219
-0.031400856 0.041075636 0.0050734435 0.40869433 0.83100837 0.37735122 0.00073469133
-0.028251018 0.039741352 0.0047554811 0.37574717 0.84361726 0.38356745 0.00096751837
-0.026492422 0.039279193 0.0040599671 0.36486542 0.85615838 0.36587709 0.00084385264
0.035099652 0.03950306 0.0041028205 -0.41591763 0.85042858 0.32215494 0.0021743951
0.037527755 0.040618952 0.0045366413 -0.45658168 0.82705224 0.32789892 0.0026846312
0.03960913 0.041638017 0.0051001357 -0.49361587 0.80495375 0.32923052 0.002457008
0.070744976 0.040592708 0.0049523702 0.83366668 -0.11746412 0.53963143 0.0025972466
-0.072099023 0.044913705 0.0031148754 -0.88031232 -0.30522144 0.36316669 0.010556689
-0.070826299 0.043564778 0.0046126959 -0.84863245 -0.26390144 0.45845297 0.0042788191
-0.039306819 0.044795647 0.0056728572 0.4207322 0.81936544 0.38939011 0.0022756993
-0.037175503 0.044160459 0.00467923 0.42362374 0.81513613 0.39508986 0.00085839099
-0.034805827 0.04281513 0.0050107394 0.4082036 0.82921016 0.38181195 0.0010350916
-0.032703206 0.042157888 0.0040891385 0.4191736 0.84558219 0.33058169 0.0012031705
0.040978491 0.042811561 0.0042898227 -0.49268177 0.80082053 0.34051591 0.0022890812
0.043452855 0.044205826 0.0047452836 -0.50490451 0.78632188 0.35604665 0.0024610073
0.045212749 0.044865452 0.0057346821 -0.47986606 0.76867306 0.42293048 0.0043744608
0.071124464 0.043604244 0.0049629156 0.81563896 -0.044780049 0.57682574 0.0026703333
-0.072349638 0.046929922 0.0036801074 -0.83442777 -0.25586206 0.48812389 0.0042076465
-0.071338572 0.046381116 0.0050579626 -0.81850785 -0.1994397 0.53876597 0.0064140842
-0.043348603 0.047416028 0.0047897175 0.43176442 0.80853754 0.39980805 0.0010835124
-0.040632196 0.046033788 0.0045741894 0.42733896 0.81272483 0.3960551 0.00113785
-0.038349628 0.045188233 0.0036108361 0.43438292 0.84999752 0.29801962 0.0020431865
0.04458179 0.045354936 0.0037053709 -0.50408721 0.79074836 0.34729388 0.0023904836
0.046471659 0.046277832 0.0044340147 -0.50351775 0.7774179 0.37694997 0.0027270697
0.048858911 0.047450457 0.0051941941 -0.48638982 0.77430278 0.4048211 0.0037013181
0.071268782 0.046606429 0.0048378566 0.78252333 0.034149189 0.62168407 0.0015553272
-0.07282529 0.049647063 0.0041549322 -0.7750929 -0.23241392 0.58754981 0.0072912187
-0.071563177 0.049393941 0.0055909711 -0.69094545 -0.13217357 0.71072108 0.0064443494
-0.051087182 0.050991219 0.0058419108 0.34049562 0.79173541 0.50716645 0.0038316026
-0.049381133 0.05042246 0.0052998899 0.3793191 0.78364003 0.49196067 0.0012926123
-0.046562593 0.049243119 0.0046096807 0.42678005 0.80144286 0.41898462 0.0013357088
-0.044416178 0.048418984 0.003820891 0.43410555 0.81575972 0.38221511 0.00097318186
0.049913421 0.04859345 0.0042436752 -0.49044323 0.77553767 0.3975006 0.0030589991
0.052362837 0.049920704 0.0046873204 -0.4845643 0.77203625 0.41128764 0.0030302727
0.054469526 0.050721809 0.0055364263 -0.46302488 0.74664676 0.47762594 0.003841684
0.071182191 0.04957347 0.0048841364 0.76719463 0.071316592 0.6374374 0.0030764577
-0.07510443 0.053739652 0.0031486396 -0.86662322 -0.14639364 0.47700438 0.022077341
-0.073410787 0.052574351 0.0044877059 -0.69228303 -0.15794776 0.70412827 0.0070689637
-0.071743324 0.052419778 0.0058374354 -0.5915882 -0.028660322 0.80573064 0.0073700449
-0.05810643 0.053767517 0.0057493192 0.24292444 0.77743161 0.58016187 0.002150221
-0.055653971 0.05329993 0.005171014 0.28363723 0.80485463 0.52130497 0.00145584
-0.052672494 0.052153699 0.0051032081 0.33978099 0.79582226 0.50121444 0.0015237145
-0.050176334 0.051377673 0.0041023898 0.40386045 0.81231356 0.4207654 0.0024032269
0.053569105 0.051260743 0.003610892 -0.47357866 0.78060287 0.40790001 0.0019437767
0.055619795 0.052026067 0.0045108651 -0.44911784 0.7695666 0.45393869 0.0040781875
0.058128115 0.05320349 0.0050155353 -0.42767122 0.7337411 0.52794063 0.0064947736
0.060329132 0.053824268 0.0058397665 -0.37205663 0.65045303 0.66218174 0.0036825985
0.07035803 0.053108752 0.0056178495 0.41665557 0.25205907 0.87342107 0.0069331704
0.072089866 0.05195877 0.0032354009 0.74957842 0.10379134 0.65372729 0.0052101687
-0.075259022 0.055546835 0.0032666444 -0.81436068 0.087648682 0.57370239 0.033815213
-0.073589563 0.0554928 0.0047111432 -0.58719015 0.14086671 0.79709744 0.013012008
-0.07120543 0.055957094 0.0058073993 -0.28080103 0.25010684 0.92660528 0.01319031
-0.067262404 0.056698468 0.0058214734 0.029373888 0.53823787 0.84228092 0.0082350764
-0.064494103 0.056289118 0.0054062349 0.22731556 0.6594463 0.71656001 0.0063222637
-0.061564252 0.055527564 0.0048833247 0.27735132 0.72988361 0.6247769 0.0042896392
-0.058649983 0.05459163 0.004693558 0.2501775 0.78450304 0.56742066 0.0022851403
-0.056525446 0.054190349 0.0040497622 0.3006832 0.82439011 0.47955242 0.0012179819
0.059099708 0.054550931 0.0039903461 -0.47409052 0.73040158 0.49168256 0.0056283623
0.061497245 0.055637773 0.0046240031 -0.45307165 0.66166383 0.59743375 0.0068235793
0.06399738 0.056339245 0.0055369702 -0.29799324 0.56771439 0.76739848 0.0077764015
0.067723654 0.056841165 0.0058947406 0.00010612735 0.37759322 0.92597163 0.016958777
0.069919825 0.056025393 0.0053379568 0.28985021 0.28276905 0.91434592 0.0098373592
-0.075092487 0.057270549 0.0030572361 -0.75271153 0.12867448 0.64565343 0.045375608
-0.073285528 0.057826862 0.0042108591 -0.54595125 0.5044511 0.66892928 0.020464549
-0.070614614 0.058389559 0.0048675663 -0.22914647 0.60991555 0.75861377 0.023749175
-0.067822583 0.058213782 0.0047637196 0.10470859 0.62532747 0.77330559 0.010047693
-0.064917512 0.057778403 0.0041287672 0.29697189 0.68123269 0.66912603 0.0052717244
-0.062634103 0.057127692 0.0033492087 0.3536514 0.72142994 0.59537345 0.0068923803
0.062578715 0.057546061 0.0034685123 -0.58670789 0.58932841 0.55539703 0.0075729266
0.064533986 0.058430012 0.0043496015 -0.47471577 0.49778536 0.72584754 0.015643826
0.067305937 0.058562431 0.0052531995 -0.12307421 0.39826041 0.90897828 0.013136235
0.069878787 0.058696914 0.0047212895 0.069598421 0.35215104 0.93335181 0.010179533
-0.069495685 0.060115155 0.0032185677 -0.16517001 0.89695746 0.41010514 0.029923929
-0.068487406 0.060116891 0.0032274285 0.047957994 0.87149471 0.48805439 0.031185223
0.065354645 0.061006665 0.0034849402 -0.57219684 0.34908405 0.74211264 0.014924493
0.067296654 0.061560709 0.0041478518 -0.28219199 0.30790836 0.90860337 0.023387199
0.07013084 0.061650861 0.0038997182 0.063422158 0.2405661 0.96855855 0.013649913
0.072077125 0.061984513 0.0030380478 0.40413868 0.039781503 0.91383225 0.033848174
0.065760106 0.063225344 0.0030724085 -0.55033606 0.31042051 0.77509314 0.033949979
0.067566909 0.06438335 0.0034267914 -0.25499389 0.21839489 0.94195634 0.021172374
0.070545785 0.064555667 0.0033394359 -0.011731217 0.11257843 0.99357361 0.012637008
0.07209184 0.064839169 0.0030671638 0.24684672 -0.0053312927 0.96903992 0.016500961
0.068127789 0.066675298 0.0031240911 -0.31956229 0.15513703 0.93477935 0.022138676
0.070525974 0.067435198 0.003216899 -0.048121493 0.0017861102 0.99883986 0.012765835
0.072403699 0.06789504 0.003201273 0.018562062 -0.042530749 0.99892277 0.011892432
0.070663668 0.070568867 0.0034561984 -0.2573871 -0.10166937 0.96094495 0.014169832
0.072770342 0.070613571 0.0035803874 -0.11433951 -0.13668558 0.98399371 0.012464784
0.068898134 0.074548692 0.003146094 -0.55200917 0.010311469 0.83377433 0.02624898
0.070419699 0.073535353 0.003885343 -0.38809067 -0.12156665 0.91356838 0.015012759
0.073001266 0.073545158 0.0043136948 -0.14761625 -0.11604155 0.98221374 0.026759708
0.075398453 0.073854499 0.003302444 0.43186876 -0.14335208 0.89047146 0.042711716
0.068876937 0.075875923 0.0032220925 -0.66741693 0.15255925 0.72888982 0.058915865
0.070224442 0.075666852 0.004059623 -0.45537359 0.027163429 0.88988602 0.037191108
0.072687723 0.07543873 0.0046022255 -0.18302408 0.041707903 0.98222339 0.037037257
0.07502161 0.075196467 0.0031793239 -0.11035757 0.82205099 -0.55861741 0.10377657
-0.012525178 0.0028517782 0.0061057722 -0.15741654 -0.88588041 0.43638977 0.00098608772
-0.010395943 0.0027252445 0.0064782985 -0.12461412 -0.86535138 0.48542595 0.0011624789
-0.0074256472 0.0025557124 0.006825292 -0.081728362 -0.86868006 0.48858508 0.0013672428
-0.0045056548 0.0023651673 0.0068736672 -0.04491375 -0.88101256 0.47095603 0.0015250491
-0.0014599886 0.0024419851 0.0071984059 -0.016316811 -0.86171705 0.50712681 0.001816739
0.00146223 0.0023889579 0.0070965844 0.0069259307 -0.85990804 0.51040202 0.0017541373
0.0044074077 0.0024049217 0.0069597098 0.046797119 -0.86056411 0.50718772 0.0014909306
0.0073052254 0.0025422403 0.0068291915 0.065230288 -0.85587126 0.51305884 0.0012990319
0.010273208 0.0026551746 0.0066534076 0.084774189 -0.85557759 0.51068616 0.00081154698
0.013074541 0.0027817087 0.0061976751 0.10726772 -0.85756856 0.50306046 0.0015176568
0.015894994 0.0029472238 0.0060494156 0.12752421 -0.85061479 0.51009023 0.0016231107
-0.024218753 0.0058254004 0.006201257 -0.26731697 -0.88582778 0.3792766 0.0032899585
-0.022168921 0.0055028601 0.0068020965 -0.25463888 -0.85964835 0.44290376 0.00098077755
-0.019488238 0.005129708 0.0075492738 -0.21828365 -0.84439111 0.48924011 0.00093266886
-0.016582565 0.004495 0.0076528816 -0.18589686 -0.85007566 0.49276137 0.0011180119
-0.013521976 0.0039239461 0.0077187079 -0.15650465 -0.84882975 0.50496966 0.00096908404
-0.010625103 0.003686324 0.0081147766 -0.11627779 -0.83829987 0.53266579 0.0013110993
-0.0076616365 0.0034379365 0.0082714986 -0.078069188 -0.83356941 0.54687041 0.0013637219
-0.0046019326 0.0033228097 0.0084450431 -0.039694652 -0.79935402 0.59954768 0.00089743285
-0.0015727167 0.0033234314 0.0085631693 -0.015331755 -0.80154264 0.59774101 0.0008270882
0.0014411662 0.0033530346 0.0086686723 0.010223573 -0.79287058 0.60930431 0.00094932981
0.0045513567 0.0033729125 0.0085765822 0.043945052 -0.79333562 0.60719645 0.00099374377
0.0074952263 0.0033851748 0.008165068 0.065453812 -0.82965118 0.55443186 0.0013658204
0.010461549 0.0036087984 0.0081471028 0.088750981 -0.82982218 0.55092502 0.00073560991
0.013613419 0.0038503867 0.0078240819 0.11729418 -0.82295328 0.55586863 0.00067888969
0.016550023 0.0040328056 0.0074638682 0.12079968 -0.82403153 0.55351561 0.00043121414
0.019496642 0.0046242755 0.0075990986 0.15035498 -0.79535139 0.58720493 0.00090757676
0.022479549 0.0049995347 0.0073774266 0.16665736 -0.78733963 0.59356683 0.0011770739
0.025223441 0.0053090937 0.0070543769 0.18100046 -0.78818488 0.58822066 0.001621313
0.027917275 0.0057158838 0.0066670165 0.20547956 -0.7841779 0.58552814 0.0017073305
0.030148359 0.0059156185 0.0060841199 0.27325082 -0.80029047 0.5337314 0.00420292
-0.033239581 0.0089799892 0.0064284084 -0.33366442 -0.86977661 0.36353371 0.0027265307
-0.031156458 0.0085666468 0.006984822 -0.30924785 -0.84885961 0.42872268 0.0010433585
-0.028419208 0.0078935316 0.0075437147 -0.28093272 -0.83726537 0.46910939 0.0008251082
-0.025516553 0.0069703818 0.007598652 -0.26577467 -0.8434369 0.46688113 0.0011125759
-0.022741187 0.006478895 0.0081798136 -0.24468969 -0.83396387 0.49460211 0.0012394732
-0.02041132 0.0061164927 0.0086856168 -0.22116257 -0.81442785 0.53646481 0.00070957537
0.020957679 0.0060390565 0.0088830898 0.13992576 -0.74751419 0.64934069 0.00075313426
0.022941846 0.0062726121 0.0087680677 0.16407567 -0.73890918 0.65352315 0.00037016065
0.025852514 0.0065373974 0.0083285728 0.18559219 -0.74747658 0.63783562 0.0010320731
0.028381504 0.0070054838 0.0081395935 0.19348651 -0.74693024 0.63612747 0.0018699165
0.031329051 0.0075692469 0.0078543629 0.22454976 -0.75006747 0.62207419 0.0022871625
0.034303121 0.0081218025 0.0072862287 0.27179056 -0.76920772 0.57831603 0.0023076115
0.037247952 0.0087880781 0.0066756834 0.30631861 -0.78695804 0.53559864 0.0020931682
-0.039545551 0.011870471 0.0063842204 -0.41020173 -0.83059162 0.37663239 0.0017830268
-0.037228856 0.011273645 0.0073601659 -0.36943761 -0.81091684 0.45379484 0.0010200483
-0.034563001 0.010199138 0.0075987428 -0.34792179 -0.82207078 0.4507218 0.00095443265
-0.031778112 0.009505013 0.0082243076 -0.3056145 -0.82320827 0.47846416 0.00092559023
-0.029695094 0.0090907933 0.0087502291 -0.28902027 -0.80355233 0.52035654 0.0008805453
0.034849685 0.0092975106 0.0085679153 0.24531266 -0.7261315 0.64230424 0.0022762846
0.037454009 0.0099020619 0.0081405323 0.29372418 -0.75157434 0.59064555 0.0026686331
0.040413611 0.010894898 0.0077362917 0.31463081 -0.74350268 0.59009427 0.0018605093
0.043099377 0.01143762 0.0067396211 0.37935519 -0.76302803 0.52333337 0.001618376
-0.045146037 0.014851698 0.0061607049 -0.48760432 -0.79076064 0.37005368 0.0024711646
-0.043143932 0.014249677 0.0072791097 -0.45942077 -0.76943445 0.44373772 0.0011627964
-0.040610407 0.013090284 0.0077435104 -0.41595092 -0.79518789 0.44120401 0.00084177835
-0.038228665 0.012372208 0.0084227948 -0.3754904 -0.79573774 0.47519302 0.00085272524
0.041657217 0.012256678 0.0088084238 0.30872527 -0.6791383 0.66592777 0.0018922873
0.043638438 0.012785407 0.0083338404 0.3511306 -0.70441937 0.61684734 0.0018890651
0.046885367 0.014195742 0.0077872695 0.38028568 -0.701123 0.6031661 0.0013698668
0.048889752 0.01449044 0.0065492899 0.43209702 -0.7348249 0.5228045 0.0020119252
-0.048574824 0.017483246 0.0068874438 -0.51822662 -0.73633534 0.43503034 0.0013615526
-0.046474572 0.016565885 0.0076594283 -0.48513654 -0.74986273 0.44983155 0.0012071746
-0.04413994 0.015522414 0.0083261225 -0.45673043 -0.74394375 0.48779604 0.00091676664
0.047676247 0.015325025 0.0087484913 0.38003147 -0.64095223 0.66690058 0.0014013333
0.049127012 0.015918529 0.0083382884 0.40845427 -0.66398132 0.62633365 0.0019424997
0.052151591 0.017216312 0.0074049379 0.48164162 -0.70695567 0.51791406 0.0020610944
0.05418811 0.017827637 0.0063105649 0.4839609 -0.69413304 0.53288013 0.0015271888
-0.051976237 0.020237088 0.0073176487 -0.54002851 -0.71367323 0.44613868 0.0012504102
-0.049817726 0.019024594 0.0079024192 -0.52351624 -0.72275937 0.45116472 0.0011695074
-0.047805887 0.018140664 0.0087845773 -0.48736203 -0.72188604 0.49128285 0.0010873466
0.053245313 0.018722661 0.008378542 0.48407111 -0.66948211 0.56344378 0.0025176224
0.055137422 0.019934585 0.0081041399 0.48363656 -0.59503061 0.64189881 0.001738167
0.057302758 0.020566076 0.0067500733 0.56083173 -0.65423006 0.50739598 0.0018203262
-0.057185743 0.023740347 0.0062324894 -0.61421436 -0.68275625 0.39570782 0.0035333154
-0.055208981 0.022828335 0.0074319635 -0.57639748 -0.68075812 0.45203355 0.0015352983
-0.053218756 0.021724703 0.0082028443 -0.54398715 -0.69950449 0.4634344 0.0014687568
0.056284688 0.021359162 0.0086969333 0.49631596 -0.59075409 0.63614476 0.0020584487
0.058154475 0.022582153 0.0081828041 0.5222699 -0.54136759 0.65890455 0.0017123682
0.060591396 0.023547871 0.0066641178 0.60182858 -0.58841109 0.5399766 0.0013805948
-0.060173657 0.026769191 0.0063022529 -0.66299528 -0.60576534 0.43987003 0.0031501448
-0.058356453 0.025719734 0.0074380389 -0.63136899 -0.62708455 0.45622158 0.0013941523
-0.056419436 0.024538511 0.008380794 -0.59150189 -0.64061689 0.4896279 0.0014403077
0.05947176 0.02437019 0.0086864065 0.53400689 -0.50667286 0.67684507 0.0011179511
0.061458468 0.025533585 0.007700142 0.60525626 -0.52733642 0.59630632 0.0020621493
0.063289568 0.026237216 0.0062840595 0.64332688 -0.50464815 0.57572633 0.0014862432
-0.063111454 0.029913345 0.0060269171 -0.72459108 -0.56051892 0.40098172 0.0072598932
-0.061178315 0.028804431 0.0073688813 -0.68708551 -0.54609329 0.47926551 0.0016945837
-0.059458565 0.027669147 0.0083935428 -0.63919091 -0.57655966 0.50893408 0.0015914807
-0.00050060992 0.029973736 0.0089284601 0.084434777 0.78837526 0.60937285 0.0010453131
0.0019250951 0.029858811 0.0088740652 0.042894658 0.77764809 0.62723488 0.0016201603
0.0041481783 0.029828737 0.008829427 0.0097634187 0.78866184 0.61474961 0.0017129853
0.0073694354 0.029868191 0.0087609226 -0.019946722 0.77672589 0.62952286 0.0013799013
0.010201524 0.029905193 0.0088913813 -0.070764646 0.77186364 0.63183773 0.0011740933
0.012209605 0.029934438 0.008905476 -0.10414368 0.77898681 0.61833137 0.0005661191
0.062140636 0.027356351 0.0086088702 0.58160287 -0.43640786 0.68650293 0.0013741816
0.063772365 0.02892418 0.0080133909 0.60344225 -0.40733758 0.68551695 0.0015529452
-0.063767724 0.031975683 0.0070392173 -0.71645349 -0.4817268 0.50461239 0.0021314642
-0.062339913 0.031088637 0.0081457654 -0.70346844 -0.48064962 0.52355331 0.0024685909
-0.015294027 0.032838207 0.0089215748 0.25273904 0.77562284 0.57838756 0.0014874509
-0.013248388 0.032641981 0.0084034661 0.22935435 0.82498574 0.51652229 0.0021571235
-0.010422831 0.032236952 0.007870324 0.19593686 0.85240173 0.4847886 0.0013270985
-0.0074537876 0.031713139 0.0076880637 0.15711854 0.85938168 0.48659736 0.0021645834
-0.004491841 0.031263262 0.0076593449 0.12154943 0.85651875 0.50159889 0.002171577
-0.0014607736 0.030921638 0.007616818 0.084088609 0.85699648 0.5084154 0.0024670209
0.0014663765 0.030697998 0.007608139 0.049657714 0.85546672 0.51547134 0.0023579453
0.0045840694 0.030628979 0.0075932541 0.016212622 0.85047221 0.52577007 0.0021941396
0.0076532573 0.030641213 0.0076263845 -0.039120115 0.84475392 0.53372312 0.0023992534
0.010520242 0.030829746 0.0076184487 -0.071969613 0.84636581 0.52771711 0.0022749251
0.013578235 0.031120032 0.0076937783 -0.12509674 0.83208573 0.54035568 0.0025033625
0.016593423 0.031671878 0.0076776971 -0.18373995 0.83481175 0.51896918 0.0023885826
0.019286113 0.03217135 0.0079107992 -0.21305801 0.81493151 0.53897393 0.0021801903
0.022070067 0.032553658 0.008425938 -0.23012927 0.78241175 0.57868159 0.0015795727
0.024370888 0.032897022 0.0088290758 -0.25151598 0.7326234 0.63245767 0.0015266916
0.065039657 0.031458467 0.0083776591 0.66380006 -0.3673602 0.65147209 0.0020996751
0.066732436 0.031944942 0.0066607273 0.70385045 -0.36622334 0.60866654 0.0017083795
-0.066337414 0.035505578 0.0064642928 -0.75298011 -0.42153087 0.50530452 0.002884804
-0.064797804 0.034441169 0.0077119763 -0.72526604 -0.40909028 0.55374563 0.0027735743
-0.062937416 0.033183802 0.0088925147 -0.67638183 -0.40266174 0.61674237 0.0012315852
-0.022142133 0.035524581 0.0083754491 0.31406525 0.81489348 0.48714641 0.0019215352
-0.019339526 0.034780201 0.0078316908 0.28600436 0.82791376 0.48245236 0.001525324
-0.016479902 0.033894338 0.0077532879 0.25258568 0.83619559 0.48680338 0.0012752558
-0.013621543 0.033457849 0.0070079244 0.23395377 0.84718156 0.47702098 0.001469282
-0.011226989 0.033183545 0.0062446157 0.1963684 0.87811422 0.4362967 0.00088920241
0.019993661 0.033202268 0.0065411655 -0.22320257 0.8464967 0.4833467 0.0015003118
0.022713542 0.03359032 0.0071892845 -0.23521192 0.834077 0.49898988 0.0018135395
0.025526257 0.034177251 0.0075834985 -0.25803992 0.81982142 0.51118314 0.0026552812
0.028348381 0.034984674 0.0077625085 -0.2823225 0.81067508 0.51293266 0.0017635673
0.031060565 0.035520501 0.0084034493 -0.30296612 0.76877528 0.56320167 0.0023926271
0.033196628 0.035926081 0.008839692 -0.32973069 0.70999557 0.62224108 0.0016611151
0.065766118 0.033482619 0.0087069804 0.69107747 -0.30266064 0.65636009 0.0011827785
0.066878513 0.034181274 0.0078206789 0.69499552 -0.28835568 0.65865946 0.0018017826
-0.066914804 0.037743006 0.0071674269 -0.74485099 -0.3441093 0.5716517 0.0028856052
-0.065532893 0.037116949 0.0085045826 -0.69304848 -0.29198447 0.6591121 0.0019768237
-0.03047269 0.038814679 0.0087399399 0.37136346 0.77981836 0.50395679 0.0015264726
-0.02817869 0.038231235 0.0079382192 0.36877963 0.80841726 0.4587625 0.0016016884
-0.025250874 0.037044793 0.0077878013 0.3359898 0.81849557 0.46602139 0.0013404097
-0.02255561 0.036392227 0.0069035804 0.31997761 0.83243012 0.45240954 0.001067649
0.029454729 0.036211397 0.0064068302 -0.30959153 0.83483887 0.45518923 0.0017200101
0.031869899 0.036587495 0.0072449408 -0.31803873 0.80312777 0.50382239 0.0023108651
0.03448759 0.037472174 0.0076644546 -0.35949919 0.78377634 0.50641388 0.0027405964
0.037161183 0.038402978 0.0081892321 -0.38579911 0.74860483 0.53921217 0.0030715999
0.039347682 0.038929999 0.0089581823 -0.38434169 0.66652012 0.63877422 0.0018100092
0.067918487 0.037309557 0.0079262564 0.74589998 -0.2121622 0.63136393 0.0019184086
0.069240741 0.03813066 0.0065914202 0.76373142 -0.2177909 0.60768533 0.0020674227
-0.069160216 0.041593481 0.0062521119 -0.75997448 -0.28119311 0.5859772 0.0041558933
-0.067612231 0.040494394 0.0076172426 -0.73188472 -0.22741333 0.64236116 0.002452173
-0.065839149 0.039282851 0.0089531764 -0.67806977 -0.2220373 0.70065743 0.0035371303
-0.036408339 0.041761618 0.0086266808 0.39355245 0.76933002 0.50323731 0.001238961
-0.034223977 0.041016068 0.0080837179 0.39784226 0.78789073 0.47005287 0.001477199
-0.031574786 0.039868679 0.0077871112 0.36808729 0.79828554 0.47670949 0.0015466636
-0.029572064 0.039240241 0.0071636927 0.3892099 0.80429637 0.44902459 0.0010896198
0.035960138 0.039137222 0.0061239437 -0.46383128 0.79182041 0.39734244 0.0030746909
0.037927598 0.039647721 0.0069847377 -0.42407581 0.76575094 0.48351333 0.0022686655
0.040462095 0.040749174 0.0075450423 -0.4388532 0.75330001 0.48984382 0.0019235787
0.042737942 0.041563351 0.0083119078 -0.41940412 0.69162601 0.58800822 0.0026114674
0.068015046 0.040234528 0.00854393 0.64539379 -0.072521746 0.76039946 0.0021106238
0.06957408 0.040741343 0.0068964181 0.76556146 -0.12634961 0.63083392 0.0025264863
-0.069491424 0.043720964 0.0065778675 -0.73396909 -0.18916552 0.65230805 0.0033455535
-0.067986615 0.043476436 0.0080654444 -0.65821064 -0.11239117 0.7443971 0.0025301327
-0.042443674 0.04469385 0.0086364625 0.37741956 0.72890961 0.57117879 0.00097792502
-0.040269613 0.044011638 0.0080750482 0.38360509 0.76194221 0.5218153 0.0011107677
-0.037543174 0.042743139 0.0079557914 0.37945062 0.79064518 0.48051798 0.0016417875
-0.035256527 0.042219616 0.0068163099 0.40807199 0.79772425 0.44397452 0.0010049834
0.041691884 0.042263523 0.0063907439 -0.45589221 0.74941027 0.48015252 0.0014745222
0.043777954 0.0428803 0.0073643508 -0.44194281 0.72707629 0.52540141 0.0024820289
0.04629745 0.044100847 0.0077719376 -0.41481605 0.7189734 0.55767816 0.002651538
0.048557159 0.044716597 0.0086020995 -0.39449176 0.67352188 0.62509561 0.0018661822
0.068195499 0.043397769 0.0086970106 0.65607148 -0.014763577 0.75455433 0.0032509789
0.069516316 0.043584973 0.0073277075 0.74583179 -0.041184232 0.66485995 0.0023454179
-0.069855504 0.0465854 0.0068005933 -0.69984877 -0.099487893 0.70732868 0.0062816273
-0.068013333 0.046541333 0.0083060618 -0.57622629 -0.020049382 0.8170442 0.0030036711
-0.04856047 0.047667291 0.0087567009 0.324671 0.71366131 0.62070626 0.0017662029
-0.046285938 0.0470879 0.0080239587 0.36566067 0.73995447 0.56458801 0.0016742086
-0.043704409 0.046023555 0.0077117658 0.37880382 0.75235581 0.53895128 0.0012078916
-0.041435119 0.045400091 0.0068940911 0.39466399 0.76293343 0.51202828 0.00080134999
0.047307182 0.045510408 0.0067320555 -0.45639035 0.72444922 0.5166055 0.0024755404
0.049597356 0.046342093 0.0074265227 -0.40147945 0.71761638 0.56907028 0.0020052011
0.052196786 0.04716127 0.0081990035 -0.36353812 0.66547489 0.65190727 0.002251819
0.054310542 0.047730602 0.0087788263 -0.31987143 0.63578898 0.70246321 0.0027761399
0.068115316 0.04695794 0.0085377106 0.48162952 0.15589438 0.86239785 0.0028099816
0.069565944 0.046515841 0.0072366674 0.68038738 0.067184009 0.72976661 0.0036204455
-0.070129193 0.049551647 0.0068272422 -0.59439915 -0.015642464 0.80401802 0.0092544528
-0.067707472 0.049593996 0.008301585 -0.44887689 0.13300307 0.88363999 0.0086006811
-0.065477461 0.050744772 0.0088691777 -0.16950311 0.32237959 0.93131095 0.0093532978
-0.057594944 0.050899923 0.0089000771 0.13226861 0.69269896 0.70899451 0.0030095428
-0.05515524 0.050638683 0.0084958393 0.21365029 0.70361298 0.67770368 0.0021293499
-0.052512635 0.049952175 0.0081217485 0.28124297 0.72278273 0.63125867 0.0019195335
-0.049691465 0.049175162 0.0074773165 0.33993465 0.74941707 0.56817114 0.0014988844
-0.0472982 0.048421122 0.0069191977 0.37856036 0.75714242 0.53237903 0.0012400455
0.050898846 0.048078749 0.0062697623 -0.41507289 0.72084761 0.5550614 0.0012809946
0.052834857 0.048697222 0.0069127064 -0.42291367 0.69541788 0.58098024 0.0022834919
0.05547243 0.049483921 0.0076676174 -0.33591938 0.66173989 0.67026746 0.0020199467
0.058263253 0.05018115 0.0083054267 -0.26760131 0.61863405 0.73870254 0.0030965202
0.061049055 0.050695047 0.0087523023 -0.14009725 0.54005665 0.82988656 0.0042633028
0.064850099 0.050690781 0.0088909725 0.088678949 0.39077571 0.91620427 0.0093104094
0.067277789 0.049863704 0.0084367758 0.33184439 0.27537835 0.90224499 0.0040484313
0.069717176 0.049499765 0.0067805182 0.62354332 0.1208785 0.77238727 0.0044573392
-0.070275351 0.052499566 0.0066849049 -0.45352125 0.10252406 0.88532889 0.0097615067
-0.067570202 0.052486867 0.0077011217 -0.25575221 0.28074563 0.92507988 0.013370697
-0.06460879 0.052431066 0.0081620989 -0.096891716 0.44239366 0.89157158 0.0089652026
-0.061623439 0.052514639 0.0080132103 0.03877677 0.58117324 0.81285548 0.0041694134
-0.058629371 0.052237928 0.007751917 0.147762 0.71472341 0.68362045 0.0021925508
-0.055770118 0.051922891 0.0072689387 0.25084186 0.74781746 0.61469299 0.0018373629
-0.053157881 0.051422134 0.006613065 0.32635301 0.75649101 0.56675833 0.0014046404
0.056441184 0.051258326 0.006314693 -0.40799165 0.69821399 0.58825177 0.0029229866
0.058692042 0.051921461 0.0068929023 -0.34113395 0.67281044 0.65647072 0.0028224653
0.061455503 0.052521706 0.0075172004 -0.24332026 0.58691758 0.7722196 0.0036589161
0.06435895 0.052620281 0.0080168433 -0.039043427 0.46592087 0.8839646 0.0056145391
0.067213967 0.052648451 0.007615387 0.16936117 0.38075253 0.90903485 0.0065247105
0.06948112 0.052599203 0.0065078614 0.40160081 0.26959282 0.87523508 0.0068827434
-0.070144348 0.055106819 0.0063401088 -0.2522963 0.30642089 0.91785234 0.011780308
-0.067649774 0.055227999 0.0066491789 -0.081379704 0.40489608 0.910734 0.010030123
-0.06488248 0.054735485 0.0067208726 0.048923299 0.53105295 0.84592509 0.0073972014
-0.061972167 0.054386154 0.0064109368 0.19384322 0.67896092 0.70812213 0.004600157
-0.059943721 0.054053906 0.0060699806 0.26408276 0.76097906 0.59259695 0.0042162645
0.062246174 0.054348055 0.0063573811 -0.33189353 0.61537421 0.71495539 0.0054115881
0.064569205 0.055033416 0.0066476162 -0.17764044 0.52229142 0.8340596 0.0096644489
0.067126088 0.05539814 0.0065940805 0.01527133 0.40176046 0.91561747 0.013429969
0.069257036 0.055044126 0.0060948394 0.26498342 0.29767725 0.91715431 0.0082792239
0.066906869 0.057030573 0.0060985992 0.071507081 0.41871068 0.90530002 0.024655817
-0.018504173 0.0058939373 0.0091316001 -0.21662939 -0.79292172 0.56951451 0.00068622141
-0.016072875 0.005642904 0.0095355716 -0.16897935 -0.79105937 0.58793801 0.00081263017
-0.013389623 0.0053926078 0.0098883593 -0.13696948 -0.77883804 0.61208719 0.00099036924
-0.010459965 0.0051745889 0.010176077 -0.10264013 -0.76967508 0.63013124 0.0010587643
-0.007546864 0.0049538747 0.010273133 -0.066034883 -0.75881416 0.64795089 0.0010313033
-0.0044673323 0.0048385989 0.010368175 -0.030690692 -0.75128758 0.65926099 0.0016041388
-0.0014410487 0.0048503643 0.010424288 -0.007680051 -0.75049019 0.66083694 0.0010444184
0.0015851964 0.0048652114 0.010440118 0.0068639652 -0.73967063 0.67293411 0.0012781663
0.0044026142 0.0048598894 0.010345504 0.044995908 -0.74050122 0.67054707 0.0014579061
0.0074239685 0.0048935167 0.010113682 0.063934542 -0.74311745 0.66609961 0.0012874082
0.010397671 0.0051128585 0.010125493 0.080967963 -0.74368566 0.66360819 0.0014900966
0.013383706 0.0053376481 0.0099398214 0.11707571 -0.74657339 0.65492094 0.0014142289
0.016379559 0.0055314098 0.0095608905 0.14105424 -0.74882883 0.64757937 0.0010388022
0.019050755 0.0058470848 0.0092849741 0.15039399 -0.74079818 0.65467525 0.00067789643
-0.027504297 0.0086990353 0.0093286205 -0.27562529 -0.78715849 0.5517357 0.00067330297
-0.025318872 0.0083320271 0.00983088 -0.24671562 -0.78470725 0.56865281 0.00078330975
-0.022441663 0.0079758624 0.010476021 -0.21292722 -0.77072173 0.60054141 0.0011342703
-0.019560216 0.0072498219 0.01058933 -0.19402066 -0.77517426 0.6012162 0.00071896834
-0.016584707 0.0068870182 0.011039016 -0.15515794 -0.75310898 0.6393379 0.0010999424
-0.013575939 0.0066466182 0.011404091 -0.11924503 -0.70790344 0.69617045 0.0013868202
-0.01064406 0.0064159725 0.011614572 -0.083649203 -0.71624064 0.69282186 0.0012393876
-0.0075819562 0.0062209484 0.011693954 -0.050853226 -0.71750498 0.69469452 0.0011755239
-0.0046580662 0.0060942862 0.011745878 -0.017020172 -0.70351136 0.71048021 0.001876426
-0.0014790462 0.0061356486 0.011838763 0.00052608992 -0.71241343 0.70175976 0.0010504329
0.0017375455 0.0062046219 0.0118772 0.011059281 -0.67364299 0.73897421 0.001756754
0.0046677976 0.0062650712 0.011830246 0.040661503 -0.6911388 0.72157735 0.0013442988
0.0075523732 0.0063409223 0.011662516 0.058926545 -0.70362031 0.70812857 0.0016241297
0.010593691 0.0065217046 0.011543271 0.078033142 -0.69978422 0.71007949 0.0013375003
0.013667216 0.0067291125 0.01131813 0.10620409 -0.68168342 0.72389817 0.0017437076
0.016640127 0.0070196865 0.011113361 0.13327682 -0.65943557 0.73985273 0.0025525803
0.019537909 0.0073314491 0.010793137 0.16056228 -0.68535376 0.7102887 0.0014197268
0.022420334 0.0078213625 0.010566872 0.16727372 -0.67645454 0.71723694 0.00097336463
0.025396883 0.0080092354 0.0099585569 0.18734024 -0.70151836 0.68758684 0.00028089678
0.028308567 0.0084172152 0.0096119344 0.19036157 -0.69445968 0.69389361 0.00051471055
0.031027324 0.00870529 0.0092081893 0.20808488 -0.68519258 0.69800562 0.0008794684
-0.036312167 0.011945933 0.0091594514 -0.36512053 -0.7653954 0.52995938 0.00068598706
-0.034166332 0.011464267 0.0098445406 -0.33116189 -0.76692426 0.54969001 0.00074796076
-0.031467404 0.010914881 0.010512494 -0.2726973 -0.76643836 0.58155692 0.00097445142
-0.02860691 0.010047314 0.010698339 -0.26668307 -0.77620536 0.57130152 0.00063815998
-0.025743652 0.0095505631 0.011334368 -0.22473007 -0.7466976 0.62605035 0.0012902212
-0.023363398 0.0093117664 0.011847457 -0.21075232 -0.70850754 0.67349881 0.0018968962
0.023043223 0.0092379637 0.011830625 0.15904099 -0.63961607 0.7520619 0.0011457897
0.025627891 0.0096583925 0.011514471 0.18238157 -0.65872025 0.7299484 0.00085137709
0.028667744 0.010037788 0.010987374 0.19270328 -0.6470421 0.73770046 0.00060997746
0.031559624 0.010470804 0.010579657 0.20463189 -0.63098037 0.74832445 0.000511922
0.034475338 0.010819246 0.010124488 0.21552186 -0.63638079 0.74065495 0.0012541738
0.037232891 0.011245559 0.0097036827 0.25528896 -0.65703267 0.70932043 0.0018139718
0.039698005 0.011850568 0.0093019539 0.28902799 -0.6720804 0.681741 0.0016067532
-0.042192791 0.014879573 0.0091249468 -0.4367981 -0.73120552 0.5239712 0.0010140338
-0.040279597 0.014364603 0.0099021122 -0.39931366 -0.73010063 0.55452824 0.00079279632
-0.037528664 0.013610731 0.010664944 -0.34491104 -0.7478534 0.56723154 0.0007377271
-0.034734886 0.012743869 0.011226754 -0.31324434 -0.72868472 0.60901278 0.001184308
-0.032576494 0.01228792 0.011811501 -0.28467596 -0.71482164 0.63874066 0.0017769927
0.032323543 0.01224049 0.011813357 0.19693495 -0.60007733 0.77532178 0.0004461499
0.034756914 0.012690151 0.011524823 0.20713507 -0.60028774 0.77249575 0.00043969942
0.037661262 0.013350901 0.011214391 0.21912244 -0.57488441 0.7883485 0.0007251057
0.040272124 0.013767714 0.010740852 0.25734544 -0.59453624 0.76177424 0.0015984256
0.043133605 0.014158376 0.010014305 0.31105307 -0.61933649 0.72088021 0.0015117987
0.045463275 0.014776551 0.0094288969 0.34586823 -0.63832104 0.68769276 0.0023287698
-0.045724023 0.017476695 0.0096776737 -0.46403208 -0.69789499 0.54554278 0.0007949089
-0.043353412 0.01671032 0.010575932 -0.42231762 -0.70696169 0.56732094 0.00086592761
-0.040909048 0.015779288 0.011303919 -0.38088867 -0.69425553 0.61068237 0.0010706143
-0.038824093 0.015233973 0.011911088 -0.35964972 -0.67640138 0.64275438 0.0017916894
0.041083563 0.015369582 0.011707773 0.23823926 -0.5612976 0.79258251 0.00099585741
0.043705806 0.016250297 0.011408745 0.27561179 -0.53675622 0.79745269 0.0011903702
0.046485037 0.016711798 0.010627162 0.33412847 -0.58657879 0.73775572 0.0017340203
0.049172614 0.01716274 0.0096511096 0.39326704 -0.61200196 0.68614477 0.0019938634
0.051167767 0.017951 0.0091159064 0.40932626 -0.61497533 0.6739862 0.0019535169
-0.051271066 0.020842576 0.0091141779 -0.50920808 -0.67690241 0.53151691 0.00050387136
-0.049129788 0.020136587 0.010050896 -0.49059364 -0.66701084 0.5607267 0.00096767908
-0.046761002 0.019103363 0.010878411 -0.45585042 -0.67794049 0.57671237 0.0010172914
-0.044426348 0.018231368 0.011661013 -0.43009907 -0.66917408 0.60598749 0.0012521823
0.047223672 0.018547034 0.011694128 0.30816361 -0.52189988 0.79539657 0.0020034525
0.049587194 0.019400088 0.011186238 0.36066329 -0.51896554 0.7749818 0.0010583429
0.052303858 0.019772902 0.0099899247 0.40378052 -0.54701483 0.7333048 0.0016932845
0.054539401 0.020622224 0.0093774833 0.45550114 -0.58115369 0.67437315 0.0015336553
-0.054427017 0.023639841 0.0093719391 -0.54703563 -0.62076682 0.56160527 0.00094137731
-0.052331824 0.022760294 0.010307825 -0.50377595 -0.63855892 0.58176649 0.0016197519
-0.049968619 0.021762183 0.011227462 -0.47452012 -0.63929802 0.60508561 0.001206623
0.050667197 0.021214392 0.011908292 0.3744396 -0.50326449 0.77879387 0.0012809936
0.052743908 0.022157803 0.011499281 0.3924292 -0.46726087 0.79225409 0.0011429961
0.055375248 0.022678101 0.010297081 0.44759071 -0.50284994 0.73946226 0.001583401
0.057668529 0.023548367 0.0094370507 0.48212284 -0.50641853 0.7149111 0.0013260843
-0.057371665 0.026495986 0.0094605032 -0.58203584 -0.55996799 0.58963561 0.00091832574
-0.055404484 0.025587305 0.010462062 -0.53717959 -0.57365084 0.61835492 0.0018079864
-0.053290501 0.024626084 0.011453359 -0.52068526 -0.58700436 0.61992955 0.001056898
0.0019539667 0.026932456 0.011945657 0.045789856 0.68635404 0.72582459 0.0012894934
0.0046779071 0.026888529 0.011912274 0.012796606 0.68546081 0.727997 0.0012152904
0.0076986537 0.026942383 0.011891628 -0.016449163 0.66940272 0.74271762 0.0022448492
0.009956697 0.026984837 0.011907908 -0.05647682 0.67902166 0.73194259 0.001492086
0.055899099 0.025090566 0.01148787 0.4206109 -0.42406085 0.8020342 0.0011227186
0.058257915 0.025693763 0.010459135 0.48220995 -0.44078216 0.75708961 0.001481236
0.060307227 0.026354022 0.0094718765 0.54730874 -0.46337274 0.69694966 0.0018159121
-0.060245145 0.029625131 0.0092910761 -0.62676382 -0.50440657 0.59392011 0.0016404561
-0.058352232 0.028687842 0.0104147 -0.59175301 -0.47148508 0.65385795 0.0014079179
-0.056346472 0.027695879 0.011513301 -0.5603537 -0.51078004 0.65200263 0.0012948273
-0.012599315 0.029691067 0.011850719 0.19337478 0.6791653 0.70805413 0.0019151063
-0.010265641 0.02949157 0.01144655 0.17117858 0.69402456 0.69930524 0.001078758
-0.0072778398 0.029103145 0.011143798 0.14279926 0.71511155 0.68426883 0.0014967658
-0.0044713868 0.028829655 0.010918507 0.11575024 0.71942425 0.68485808 0.0014763104
-0.001534261 0.028625552 0.01069904 0.095904909 0.7273789 0.67950141 0.0022138334
0.0015400898 0.028398579 0.010639031 0.055075582 0.73471326 0.67613834 0.0020420919
0.0044478578 0.028218737 0.010719684 0.0090597142 0.70112693 0.71297902 0.0019482811
0.007685022 0.028274588 0.010675426 -0.02599938 0.71178979 0.70191121 0.0021222066
0.010589863 0.028375546 0.010766621 -0.073351435 0.70610452 0.70429832 0.0020365666
0.013412484 0.028612874 0.010810427 -0.11091077 0.70116329 0.7043215 0.0029314959
0.016338544 0.028910249 0.011093804 -0.13901861 0.6809271 0.71903557 0.0021139933
0.019407386 0.029242432 0.011390998 -0.15786175 0.67918229 0.71679223 0.0018338199
0.022168292 0.029594628 0.011685126 -0.18467519 0.66098952 0.72731549 0.0014208449
0.024607586 0.029935068 0.011929903 -0.20498875 0.64159662 0.73914361 0.00095677702
0.056763593 0.027030008 0.011971707 0.46672484 -0.37798893 0.79955751 0.002434057
0.058878019 0.028212182 0.011429969 0.45809248 -0.35282835 0.81588203 0.0013388402
0.061180539 0.028577844 0.010106181 0.52589071 -0.37639925 0.76273358 0.0014062198
0.063520394 0.02981697 0.0090125985 0.63457304 -0.40560722 0.65787524 0.0019887919
-0.061044943 0.031799201 0.01006363 -0.63367498 -0.42156482 0.64864403 0.0016832455
-0.059195429 0.031134406 0.011351108 -0.58031464 -0.37946951 0.72058153 0.0017020316
-0.02167099 0.032813851 0.011675496 0.27240431 0.70662874 0.65304798 0.0019456843
-0.019345781 0.032317407 0.011311011 0.25056541 0.73469812 0.63042498 0.0014811605
-0.016514689 0.031877242 0.010705084 0.23791136 0.75572908 0.61014086 0.0011075059
-0.013581844 0.031149067 0.010522997 0.20757276 0.75786018 0.61851549 0.0021849605
-0.010547331 0.030774662 0.010061938 0.18171354 0.76523674 0.6175701 0.0015202933
-0.0075918585 0.030402839 0.009728644 0.14834443 0.76953584 0.62113494 0.0016056547
-0.004851704 0.030222025 0.0093715591 0.11669331 0.77778184 0.61760676 0.0016716863
-0.002138576 0.03005206 0.0090915812 0.1004976 0.7874769 0.60809571 0.002350634
0.014197679 0.030096833 0.009217374 -0.11239634 0.75517231 0.64581871 0.0010524504
0.016659068 0.030344982 0.0095090261 -0.15915723 0.74934679 0.64276624 0.0013661566
0.019648558 0.030751629 0.0099146031 -0.18389009 0.72686821 0.66170019 0.0015618157
0.022615284 0.031140475 0.010369887 -0.20281078 0.70740974 0.67708141 0.0021976361
0.025443086 0.031581298 0.01079823 -0.21640798 0.68184566 0.69875175 0.0018408647
0.028386155 0.032078318 0.011223949 -0.2256584 0.64644903 0.72882229 0.001804127
0.031018702 0.03256603 0.011655095 -0.23351425 0.65280116 0.72063971 0.0021177295
0.03322351 0.032982945 0.011944612 -0.25657552 0.62487018 0.73736435 0.0018189978
0.059734061 0.03084871 0.011925354 0.43988433 -0.26177141 0.85905617 0.0021879151
0.061437197 0.031402729 0.011164902 0.49786898 -0.29301119 0.8162542 0.0016255437
0.063610539 0.031792898 0.0098430505 0.56149572 -0.3284992 0.7594806 0.0017992266
-0.063528374 0.035074361 0.0095313648 -0.65654653 -0.36048269 0.66256982 0.0018558101
-0.061721634 0.034424279 0.010885111 -0.59917557 -0.30655169 0.73960435 0.0018467815
-0.059890594 0.033240233 0.011880673 -0.58671927 -0.31838396 0.74457508 0.0021904346
-0.028053991 0.035577983 0.011496797 0.30123386 0.70061809 0.64683264 0.0016793995
-0.025296336 0.034988385 0.010826092 0.30167991 0.74370205 0.59657067 0.0011648944
-0.022504516 0.03410273 0.010537971 0.27933949 0.75497115 0.5932858 0.00219045
-0.019849814 0.033716671 0.0098185362 0.27174327 0.75476342 0.5970661 0.001396758
-0.017398246 0.033231933 0.0093226861 0.25244555 0.78012311 0.5724327 0.0013528885
0.026192022 0.033162627 0.0093403719 -0.23919526 0.73122889 0.63881916 0.0014125301
0.028752685 0.033610329 0.009849635 -0.24904312 0.71910816 0.64873791 0.0015210323
0.031623442 0.034145158 0.010349281 -0.26745731 0.70237243 0.65965104 0.0027338443
0.034372125 0.034748685 0.010854383 -0.28793183 0.64627796 0.70669657 0.0022424981
0.037069604 0.035391521 0.011437695 -0.29513618 0.6373958 0.71177334 0.0026362892
0.039407354 0.03576158 0.011936177 -0.26855499 0.55033022 0.79057884 0.0037917644
0.062263414 0.034535434 0.011621695 0.45213071 -0.17295925 0.87502164 0.0020084372
0.064406812 0.034742601 0.01028535 0.53566492 -0.19956578 0.82050991 0.001691091
0.066173613 0.035676524 0.0091966977 0.66063863 -0.26466331 0.70250267 0.0032370929
-0.064160913 0.037697267 0.010070723 -0.64122629 -0.24740247 0.72637522 0.0026994105
-0.062257711 0.037328962 0.011492855 -0.56672293 -0.19095577 0.80147427 0.0019812526
-0.034171417 0.038504466 0.011368057 0.31965014 0.69847155 0.64028221 0.0013090374
-0.031508058 0.037727363 0.010817885 0.33311996 0.72570699 0.60198051 0.0017874951
-0.028767217 0.0369673 0.010228194 0.32609469 0.74294168 0.58455104 0.0016897917
-0.026234025 0.036360245 0.0095682312 0.31813902 0.76104546 0.56532949 0.0010338138
0.035160515 0.03641437 0.0095695658 -0.32369044 0.70089823 0.63558334 0.0016514664
0.037734848 0.037042405 0.010157658 -0.34217718 0.67098701 0.65779263 0.0026574088
0.040338024 0.037729073 0.010850056 -0.33797267 0.60541898 0.72058469 0.0023777441
0.043106515 0.038351443 0.011584874 -0.30399498 0.55995357 0.77073926 0.0021534113
0.045203142 0.038843855 0.011891788 -0.2847845 0.55294466 0.78303891 0.0014878244
0.062714994 0.037732415 0.011874954 0.42393324 -0.053853676 0.90409094 0.004395688
0.06404984 0.037506875 0.011112839 0.47389504 -0.086034998 0.87636834 0.0021848807
0.066398166 0.037494481 0.0094815055 0.58405453 -0.15164311 0.79742372 0.0027161103
-0.066279769 0.041242264 0.0092165098 -0.66285247 -0.1815802 0.72639877 0.0024881836
-0.064531378 0.040520098 0.010442595 -0.58507019 -0.13380645 0.79986793 0.0032377162
-0.062604763 0.040506098 0.011739689 -0.51958448 -0.054399777 0.85268551 0.0027916657
-0.042412765 0.041882541 0.011841341 0.30794325 0.67075199 0.67473161 0.0019978627
-0.040274996 0.041320175 0.01144735 0.30587864 0.67782319 0.66857612 0.0014380943
-0.037481036 0.040504619 0.010860289 0.32155889 0.70756584 0.62924588 0.00087185402
-0.034810282 0.039871734 0.010130496 0.35168988 0.72618467 0.59073693 0.0013613272
-0.03237544 0.039281212 0.0093751373 0.36996949 0.75615716 0.53976738 0.0018859791
0.04102743 0.039532516 0.0094923154 -0.38608617 0.66712302 0.63709056 0.0020983331
0.043644007 0.040250439 0.010237879 -0.36192825 0.62933666 0.68770874 0.0022637167
0.046303138 0.040778883 0.011042573 -0.30376968 0.56632489 0.76615924 0.001852978
0.049103905 0.041450951 0.011617016 -0.25011066 0.51573515 0.81942779 0.0021625704
0.051204726 0.041867185 0.011870734 -0.18108928 0.50900602 0.84149832 0.0027791578
0.062747441 0.040751621 0.011922074 0.33472216 0.053668991 0.94078732 0.0035796827
0.064428046 0.040457539 0.011157835 0.42280734 0.02717576 0.90581208 0.0035953452
0.066549636 0.040674023 0.0098254019 0.53180462 -0.032686036 0.84623605 0.0022153605
-0.066452086 0.043581266 0.0093884831 -0.61369115 -0.053909153 0.78770363 0.0037839401
-0.064511448 0.043510526 0.010682185 -0.49443296 0.029852305 0.86870301 0.003042483
-0.062366586 0.043735046 0.011761621 -0.40181923 0.094206922 0.91086024 0.0037011867
-0.048846919 0.044713665 0.011802047 0.22036624 0.62813586 0.74624664 0.0018660608
