# .PCD v0.7 - Point Cloud Data file format
VERSION 0.7
FIELDS x y z normal_x normal_y normal_z curvature
SIZE 4 4 4 4 4 4 4
TYPE F F F F F F F
COUNT 1 1 1 1 1 1 1
WIDTH 560
HEIGHT 1
VIEWPOINT 0 0 0 1 0 0 0
POINTS 560
DATA ascii
0.0032125339 -0.016322095 0.0025357092 0.73700458 -0.044216104 -0.67443985 0.038640246
-0.0022230886 -0.013576256 0.00049836427 0.35455394 -0.019722285 -0.93482751 0.0059842933
0.0018645448 -0.01345388 0.0018408856 0.78355157 0.01228558 -0.62120533 0.018270202
0.0033321844 -0.013426916 0.0025760937 0.86519533 -0.0099110343 -0.50133705 0.034074824
-0.0012504854 -0.010357619 0.000661219 0.54102761 -0.01602065 -0.8408522 0.01107575
0.0017548511 -0.010633689 0.0019066543 0.799034 0.013253801 -0.60113972 0.0192191
0.0033074142 -0.01054726 0.0025475095 0.89299119 -0.030091858 -0.44906703 0.03344674
-0.0010538138 -0.0075653237 0.00067175372 0.57034475 -0.012982184 -0.82130283 0.013547386
0.0019619355 -0.0074382531 0.0018191627 0.82299691 -0.008169421 -0.56798702 0.018787839
0.0032828469 -0.0076425509 0.0025187018 0.92413902 -0.011415484 -0.38188589 0.030219324
-0.0010115751 -0.0046641082 0.00065675279 0.54990315 0.0037627078 -0.83521992 0.012834257
0.0018591585 -0.0044009769 0.0017435115 0.82644767 0.026351243 -0.56239653 0.016632147
0.0032578353 -0.0047118976 0.0024896185 0.93879575 0.020505637 -0.3438634 0.028787388
-0.0010088411 -0.0015317596 0.00061799696 0.65039015 -0.036364842 -0.7587294 0.01114405
0.0017040158 -0.0015031922 0.0018061427 0.86720562 -0.0090033738 -0.49786878 0.016352719
0.003232616 -0.0017551614 0.0024602818 0.915986 -0.0037643008 -0.40119267 0.026618972
-0.0034092127 0.0027722924 6.1502396e-06 0.52399564 -0.011590556 -0.85164207 0.0082092267
-0.00086425693 0.0014917599 0.00064283377 0.5588659 0.0060512298 -0.82923597 0.0063670673
0.0016866857 0.0014631879 0.0018614862 0.86076701 -0.012065523 -0.50885606 0.020963827
0.003235952 0.0015332478 0.0026036915 0.90957427 -0.014053607 -0.41530383 0.027115708
-0.00314798 0.0050041457 7.00456e-05 0.37392071 0.010134147 -0.9274053 0.0028950879
-0.00096747355 0.0045240168 0.00063392665 0.66662627 0.018273793 -0.74516815 0.0077331401
0.0016615088 0.0044456348 0.0018574824 0.85786635 0.0048395698 -0.51385015 0.025383273
0.003251628 0.0044103363 0.0026478439 0.84816182 -0.02302576 -0.52923661 0.032020841
-0.0033786995 0.0075015821 3.238341e-05 0.23835462 0.020897651 -0.97095335 3.7713533e-05
-0.00090860575 0.0074847839 0.00068269437 0.54446846 0.019180864 -0.83856201 0.0066939048
0.0016715747 0.0074481941 0.0018432299 0.76812398 0.0027564212 -0.64029527 0.028711459
0.003202453 0.0074107791 0.0025943925 0.89085782 0.009123316 -0.45419076 0.029285863
-0.00350526 0.0091364356 9.0630947e-06 0.231874 0.019965917 -0.97254092 4.1516803e-05
-0.0011861315 0.010559801 0.00064678054 0.53687727 0.011067825 -0.8435877 0.0078417296
0.0016821512 0.010555438 0.0018235311 0.75585806 0.0014340895 -0.65473384 0.029301668
0.0031579013 0.010425405 0.0025432711 0.91583765 0.011575698 -0.40138179 0.02879188
-0.0011662592 0.01346073 0.00067938812 0.62262815 -0.0044795065 -0.7825051 0.0096509336
0.0019886431 0.013767848 0.0019877253 0.80368072 -0.0049620047 -0.59504008 0.030173492
0.0031155497 0.013208722 0.0024976276 0.91436082 0.014409644 -0.40464383 0.029316103
-0.0011722668 0.016120935 0.00068775815 0.53574198 -0.0076190829 -0.84434736 0.010934926
0.0018469889 0.016529307 0.0019051605 0.85468191 0.002759662 -0.51914471 0.026523247
0.0031517304 0.016928209 0.0025790001 0.83713537 -0.012675416 -0.54684883 0.031073207
-0.0018755188 0.019645862 0.00060759357 0.38091576 9.9130693e-06 -0.92460978 0.005649277
0.0015161815 0.019539246 0.0018505231 0.78624606 0.085988186 -0.61190134 0.033266611
0.0031191178 0.01950104 0.0025441782 0.8141886 -0.021929663 -0.58018613 0.025271406
-0.0033931895 0.023037869 0.0004068049 0.20691736 0.042476565 -0.97743595 0.0014142604
-0.0018420374 0.021997318 0.00062827981 0.42638797 0.026032005 -0.90416569 0.0078879604
0.0014513239 0.022375766 0.0018487505 0.89610708 0.042201247 -0.44182697 0.025374586
0.0032474885 0.02288729 0.0026818234 0.82248139 -0.045401476 -0.56697708 0.02922287
-0.0044818581 0.025660997 0.00035908641 0.17388323 0.053626154 -0.98330516 0.00060388388
-0.00077668851 0.025401201 0.00091387815 0.60549289 0.021000141 -0.79557365 0.007968762
0.0018764235 0.025207445 0.0019800023 0.80778027 0.0021351955 -0.5894798 0.027815187
0.0032164499 0.025123356 0.002648579 0.80398071 -0.044402838 -0.59299535 0.03093493
-0.0049486742 0.028513586 0.00031741284 0.14988229 0.038207598 -0.98796535 0.00020559743
-0.00062780414 0.028559925 0.0009289342 0.64161682 0.038685147 -0.76604921 0.0045779175
0.0016690512 0.028580826 0.0018527783 0.85976851 0.013353181 -0.51050931 0.032074668
0.0033018794 0.028375912 0.0026823487 0.87628496 0.00057595369 -0.4817929 0.032341279
-0.0065888846 0.032109953 0.00024990313 0.106194 0.00069620024 -0.99434519 0.00040493102
-0.0013162815 0.031324625 0.00085638324 0.6061725 -0.014695283 -0.79519743 0.0086401058
0.0016034577 0.031579524 0.0018006471 0.75472486 0.0086486647 -0.65598446 0.03394074
0.0032796971 0.031388134 0.0026597299 0.86552423 -0.0083280029 -0.50079787 0.032455567
-0.0074842745 0.034196794 0.00021154007 0.10470662 -0.036338389 -0.99383903 0.0016311558
-0.00065575889 0.034473959 0.00089236849 0.61304927 -0.035008926 -0.78926867 0.029074859
0.0019282585 0.034449406 0.0019183642 0.81571734 -0.023840057 -0.57795924 0.046093062
0.0032942446 0.034874309 0.002703341 0.8007462 -0.15967569 -0.57732934 0.044847015
-0.0077319341 0.037731893 0.00016459076 0.12069322 -0.16922554 -0.97815943 0.01088201
-0.0055433097 0.038906869 0.00018130562 0.057139955 -0.26229399 -0.96329486 0.013163566
-0.00087622867 0.036993969 0.00083812879 0.33000132 -0.21888423 -0.91825312 0.051495597
0.0017221983 0.037765946 0.0016909814 0.4376291 -0.60824209 -0.66221017 0.04121805
0.0039020479 0.0378998 0.0024210047 0.26881757 -0.77450573 -0.57260638 0.045249321
0.0076114843 0.038689282 0.0023996066 0.10994016 -0.92816752 -0.35555336 0.0041402592
0.009806646 0.03890115 0.0024053003 0.16520022 -0.95320922 -0.25318193 0.0033008722
-0.0041015935 0.039145693 0.00019890389 0.0090208659 -0.4257395 -0.90480083 0.0067740078
-0.0015923303 0.040284395 0.00053249323 -0.038131785 -0.52465737 -0.85045904 0.02708099
0.0016338063 0.039636701 0.00049391395 0.048274256 -0.63473481 -0.77122068 0.031185307
0.005302893 0.039548833 0.00073311542 -0.0012764287 -0.86989927 -0.49322778 0.0064732102
0.0077045606 0.039329071 0.00094982516 0.04922745 -0.91794467 -0.39364228 0.0049891686
0.011009114 0.039394319 0.0013633056 0.15164202 -0.95797032 -0.24351099 0.0036305625
0.013609071 0.039769471 0.0016466435 0.24226321 -0.95610929 -0.16481394 0.003884916
0.016631229 0.040537849 0.0016240936 0.29179502 -0.95471966 -0.058017891 0.003394621
0.019497544 0.041463085 0.0015475899 0.32599488 -0.94504917 0.024685742 0.0036483405
0.021190163 0.041975535 0.0012800191 0.36904252 -0.92664069 0.071727067 0.0038688798
-0.051618017 0.042649992 0.0017382267 -0.93685019 -0.34417167 -0.062109374 0.0072515993
-0.0018948499 0.042335104 1.5651494e-05 -0.22401167 -0.77449411 -0.59158909 0.011565147
0.020788027 0.042074829 0.0025972894 0.37338263 -0.92306542 0.09238863 0.0031924797
0.022561166 0.042676479 0.0016356652 0.39638844 -0.90659398 0.14478821 0.0024999164
0.025491482 0.044015057 0.0015370935 0.42892084 -0.86799121 0.25023621 0.0025552474
0.027446836 0.044754755 0.00074609183 0.454842 -0.83753788 0.30273589 0.0035748922
0.026801471 0.045142341 0.0027612152 0.4969095 -0.78706574 0.36552474 0.0035726803
0.028725149 0.045840368 0.0016930486 0.48008779 -0.80431014 0.35014403 0.0017401112
0.031171165 0.047139503 0.0012171431 0.50466013 -0.74080616 0.44331071 0.0030470155
0.033291247 0.047712129 0.00023305273 0.50961816 -0.71456212 0.47926015 0.003946736
0.032218263 0.048617329 0.0022509522 0.53017449 -0.66853017 0.52151942 0.002907898
0.034310386 0.049597111 0.0013406728 0.54000717 -0.62206173 0.56694931 0.0045920084
0.036466531 0.050513364 0.0003860085 0.54641461 -0.59008223 0.59433502 0.0014272541
0.035299405 0.051864121 0.0024521099 0.57514489 -0.4027442 0.71204317 0.0028708032
0.03735292 0.052556351 0.0012486979 0.57281148 -0.44513869 0.68828666 0.0048556034
0.039251741 0.053459462 0.00029357613 0.59259844 -0.43773797 0.67617488 0.0026126362
0.037828218 0.055334769 0.0022015178 0.56987447 -0.23574825 0.78718859 0.0026989477
0.039885417 0.055552933 0.0007147211 0.60942847 -0.26485854 0.74729306 0.0034877583
0.03818861 0.058469284 0.0024315363 0.56565589 -0.025932305 0.82423365 0.0016848292
0.040310062 0.058429312 0.00093845272 0.61137456 -0.058179222 0.78919971 0.0023010967
0.037926614 0.061526716 0.0023582911 0.54500645 0.085673168 0.8340432 0.00020158206
0.040213052 0.061451804 0.00083749869 0.59082556 0.080720074 0.80275118 0.00059814588
0.035940524 0.065652847 0.0029172734 0.52977216 0.13342717 0.83757907 0.00013243171
0.037649602 0.064577989 0.002112099 0.53657258 0.13051476 0.83370006 9.6664415e-05
0.039835893 0.064421706 0.00068303919 0.58483869 0.13416293 0.79997754 0.0004171599
0.035657108 0.068008728 0.002765205 0.51562649 0.1620957 0.84134078 0.00012562485
0.03750138 0.06755089 0.0016879941 0.53826743 0.16164033 0.82712793 0.00014526655
0.039523661 0.067148998 0.00040487834 0.59035271 0.16824548 0.78941572 0.00045628462
0.035175491 0.070632108 0.0024986782 0.50225908 0.21023655 0.83877075 0.00037643229
0.037488375 0.070462398 0.0010737323 0.55092764 0.20848809 0.80809122 0.0004084456
0.039200995 0.069515295 0.00010716626 0.59609944 0.21295445 0.77415496 0.0004678407
0.032566682 0.074509405 0.0025288034 0.40658626 0.38506055 0.82850224 0.0030039696
0.03464913 0.073405594 0.0019713617 0.47340283 0.31991699 0.82069653 0.0023147888
0.036918834 0.073153235 0.00070305931 0.53224313 0.30560949 0.78950626 0.001881742
0.026312659 0.077363633 0.0026091293 0.22016376 0.71125317 0.66756785 0.0037994515
0.028779482 0.076963678 0.0022246249 0.29856756 0.63083249 0.71617573 0.0025925834
0.031552188 0.076408066 0.0016681018 0.36180252 0.52906758 0.7675848 0.0021644109
0.034283891 0.075965255 0.00074705842 0.4290702 0.49012113 0.75873584 0.0029427863
0.036195178 0.07540644 0.00013041943 0.48776558 0.48790661 0.72390044 0.0035439278
0.017135903 0.078313135 0.0029668065 0.11417978 0.85621232 0.50384873 0.00080232712
0.0196149 0.078744315 0.0016973126 0.1106217 0.85943109 0.49914026 0.00095545419
0.023098219 0.078861542 0.0010494108 0.16606934 0.80951369 0.56312388 0.0015914319
0.025738485 0.078553498 0.0011295018 0.18435813 0.76568085 0.61623454 0.0014770463
0.028311966 0.078458145 0.00062950439 0.2395453 0.70716459 0.66523409 0.0018280607
0.030888939 0.078251056 0.00017931919 0.27698776 0.67860496 0.68027431 0.001098038
-0.00056598207 -0.075225428 0.0050849351 -0.28743073 -0.95704126 -0.038152631 0.0054066046
0.0016121748 -0.075781867 0.004626127 -0.22864039 -0.97273922 -0.03875633 0.0040316535
0.0044966224 -0.076416992 0.0046079517 -0.17133902 -0.98340535 0.059638422 0.003490234
0.0076678144 -0.076926053 0.0045096651 -0.10799997 -0.98098594 0.16125283 0.0043957033
0.010715424 -0.077136345 0.0047620912 -0.038198341 -0.96035153 0.27616253 0.0035125215
0.01360913 -0.077276744 0.0045834775 0.0069860523 -0.94057465 0.33951521 0.0037000307
0.016565144 -0.077185072 0.0045867488 0.050979033 -0.90500665 0.42233187 0.003143301
0.019577801 -0.076874174 0.0045828354 0.11551144 -0.8597753 0.49743688 0.0023483462
0.022492161 -0.076321408 0.0045630895 0.20475689 -0.775343 0.59742594 0.0033098115
0.025352538 -0.075943641 0.0040573296 0.23498867 -0.70300573 0.67124021 0.0035367429
0.028143736 -0.075516798 0.0034416083 0.29496083 -0.64582723 0.70420545 0.0031046346
0.030251535 -0.075104058 0.0030425366 0.34192023 -0.59798467 0.72491711 0.0051666829
-0.0061347494 -0.072000049 0.005762767 -0.39314145 -0.75660986 -0.52247626 0.0023322757
-0.0037735878 -0.072479174 0.00411731 -0.44885936 -0.78986067 -0.41790596 0.0044726585
-0.0019276593 -0.074560419 0.0052754795 -0.33626077 -0.93030393 -0.14650325 0.0097249625
0.023632295 -0.074823819 0.0058290744 0.26766673 -0.68864518 0.67388606 0.0036936679
0.025843231 -0.074227355 0.0054407455 0.30552036 -0.58287221 0.75293911 0.0036420787
0.028522583 -0.073522963 0.0047176364 0.36990708 -0.47153124 0.80051672 0.0039914325
0.031207865 -0.07316985 0.0036362431 0.40148282 -0.41499716 0.81644899 0.0031124223
0.033323344 -0.07223992 0.0030655025 0.44799852 -0.34770328 0.8236503 0.0023120157
-0.012522902 -0.069225132 0.0051531205 -0.36645731 -0.82553697 -0.42918262 0.0090553081
-0.010207147 -0.069784269 0.005038444 -0.40104702 -0.80112201 -0.44425756 0.0082418537
-0.007466462 -0.070665754 0.0043460224 -0.3734782 -0.82143229 -0.4310025 0.0079339184
-0.0053723184 -0.071351245 0.0035929 -0.41748574 -0.80093306 -0.42919907 0.0062868176
0.029254712 -0.07082402 0.0056059542 0.4612419 -0.2752409 0.84350365 0.0016000903
0.031515844 -0.070514716 0.0044723484 0.46029541 -0.2617203 0.84831047 0.0014282869
0.033649612 -0.070227869 0.0033589022 0.47347835 -0.24750739 0.84531552 0.0011937773
-0.022326222 -0.066359036 0.0047203782 -0.24022287 -0.88442045 -0.40011677 0.014641944
-0.0194581 -0.066631421 0.0046639019 -0.20641293 -0.85261101 -0.48005015 0.017187789
-0.016512197 -0.067260824 0.0048231031 -0.30443147 -0.83650774 -0.45560545 0.0093570221
-0.013850361 -0.06797336 0.0048058932 -0.32553419 -0.82908213 -0.45458817 0.009392661
-0.011342556 -0.068264909 0.0038536706 -0.37959826 -0.81489336 -0.43801135 0.011729299
0.029651511 -0.06850595 0.0058834376 0.48111805 -0.19012742 0.85579026 0.00024942559
0.031577129 -0.067567967 0.0051139449 0.48728535 -0.17906615 0.85468614 0.00017017928
0.034139503 -0.067389332 0.0036626195 0.49848047 -0.1667928 0.85070401 9.65258e-05
-0.03382184 -0.063368276 0.0048661558 -0.23872837 -0.92206556 -0.30463719 0.005984575
-0.031591821 -0.063495457 0.0043024323 -0.21433872 -0.9270578 -0.30760801 0.012443678
-0.028480422 -0.064076193 0.0045844154 -0.21764578 -0.91259974 -0.34610987 0.0132077
-0.025722628 -0.064763054 0.0044810032 -0.26360393 -0.89930743 -0.34893999 0.011194425
-0.022643592 -0.065135911 0.0044741142 -0.2426168 -0.88163102 -0.40480101 0.016471306
-0.019747168 -0.065259732 0.0041186828 -0.19971731 -0.83919716 -0.50582713 0.017872214
-0.017113024 -0.06570071 0.0038062371 -0.27421096 -0.80332762 -0.52865213 0.015488314
0.03201304 -0.064610884 0.0054046498 0.5029695 -0.13848001 0.85313827 5.0269944e-05
0.034478318 -0.064457215 0.003978733 0.50621939 -0.13521343 0.85173899 4.993445e-05
0.036242831 -0.063632101 0.0030968979 0.52099288 -0.13447608 0.84290129 8.8739296e-05
-0.045700282 -0.06021988 0.0048463633 -0.26161101 -0.96046573 -0.095211215 0.01380318
-0.043279871 -0.060558219 0.0040500043 -0.16367593 -0.98637247 -0.016718457 0.014704047
-0.040368371 -0.061136927 0.0043276665 -0.24788415 -0.93455017 -0.25528294 0.0059219697
-0.037573826 -0.061685666 0.0044832779 -0.28140184 -0.9387722 -0.19879591 0.0063796854
-0.034579061 -0.062300205 0.0044444716 -0.25639299 -0.93511927 -0.24457017 0.010748511
-0.031969488 -0.062652819 0.0042418414 -0.21783568 -0.92741287 -0.30406082 0.012493728
-0.02890568 -0.062637947 0.0038302429 -0.15980172 -0.8792271 -0.44880193 0.022309383
-0.025683917 -0.062943056 0.0032846821 -0.21225041 -0.91312462 -0.34807071 0.015953608
0.032383081 -0.061566263 0.0056357509 0.51019609 -0.10465275 0.8536672 7.2512812e-05
0.034504432 -0.061521497 0.0043720319 0.51022571 -0.10047884 0.85415089 7.4340736e-05
0.036400307 -0.061369207 0.0032523412 0.52297622 -0.099681869 0.84649837 0.00010555357
-0.05155699 -0.058068536 0.0046476764 -0.32728902 -0.91758597 -0.22564997 0.012346591
-0.049158167 -0.058835201 0.0048797112 -0.29762605 -0.92779708 -0.22496942 0.00690387
-0.04698284 -0.059403878 0.0044267564 -0.24713202 -0.94907105 0.19542275 0.0064617125
-0.043752246 -0.059583202 0.0049063694 -0.21500739 -0.9715578 -0.09923356 0.018500581
-0.041408151 -0.059841715 0.0040942384 -0.21668376 -0.95987856 -0.17799243 0.019984048
0.032653455 -0.058692675 0.0057647186 0.51908129 -0.046015225 0.85348535 0.00038729588
0.034499064 -0.058522034 0.0046637119 0.52459949 -0.035043739 0.8506276 0.00055241497
0.036594398 -0.058411304 0.0034116209 0.53207344 -0.017795511 0.84651124 0.00093268539
-0.0527936 -0.055240761 0.0054095821 -0.86685658 -0.4951058 -0.058565006 0.041200478
0.032667343 -0.055294409 0.0057986942 0.54241163 0.086718448 0.83562523 0.0023907339
0.034496006 -0.055563252 0.0046240534 0.53731698 0.10323194 0.83703858 0.0022998487
0.036494348 -0.055714384 0.0033261839 0.54752266 0.16525337 0.82031113 0.0033588328
-0.052882675 -0.05366344 0.0059868931 -0.86679703 -0.49521264 -0.058543716 0.04122619
0.032208528 -0.052332398 0.0053582639 0.56748188 0.26556215 0.77938509 0.0024835824
0.034227513 -0.052767456 0.0040159393 0.56520313 0.33207408 0.75516367 0.0030618042
0.036340732 -0.053864647 0.0030112958 0.56119388 0.33414915 0.75723571 0.0023929612
0.029467924 -0.048902884 0.0055354321 0.57913607 0.47404894 0.66323376 0.0030877499
0.031359054 -0.049791612 0.0045596277 0.57017803 0.47744319 0.66853946 0.0037602184
0.033395045 -0.050547544 0.0034263583 0.55040503 0.49510852 0.67225134 0.0024470575
0.025968552 -0.045567296 0.0052670483 0.52888685 0.67673004 0.51216722 0.0022144655
0.02845631 -0.047020815 0.0045882245 0.54608852 0.61833614 0.56519723 0.0029627476
0.030356029 -0.047623672 0.0034566855 0.54849678 0.60830343 0.57368827 0.0018667583
0.020604879 -0.042290758 0.0056643337 0.47564736 0.8171131 0.32570812 0.0021032298
0.022555444 -0.043093842 0.0048653847 0.49748224 0.76006401 0.41810781 0.0020186116
0.025347633 -0.044552241 0.0043049855 0.51931047 0.71396226 0.46965367 0.0016887932
0.014578265 -0.039323419 0.0052161678 0.41873771 0.89770538 0.13705364 0.0016631441
0.016478932 -0.040044785 0.0047145034 0.40827489 0.90039265 0.15034829 0.0019827464
0.019570112 -0.041401625 0.0045619234 0.45497668 0.84455144 0.2823635 0.0027110418
0.004593337 -0.036530219 0.0041707549 0.65613592 0.48170874 -0.58089799 0.027189348
0.0085252924 -0.037272006 0.0058313562 0.36314145 0.86566752 -0.34459856 0.017607162
0.010577281 -0.038053144 0.0048381658 0.3937701 0.91920888 -0.00011921556 0.0039519938
0.012974039 -0.038759388 0.0045885374 0.34541821 0.93797481 0.029825775 0.0025170066
0.0022234139 -0.034424178 0.0034279271 0.8342467 0.16475061 -0.52620316 0.017706973
0.0034339826 -0.033980962 0.0048396117 0.7784248 0.077828579 -0.62289453 0.012091102
0.0023999172 -0.031708114 0.0036213936 0.86173624 0.037224807 -0.50598913 0.01073816
0.0032976978 -0.031838633 0.0047642309 0.7624498 -0.0017630373 -0.64704496 0.0055418797
0.0025753807 -0.028438363 0.0038127922 0.85548729 0.0078144642 -0.51776487 0.0047423523
0.0039014705 -0.028079055 0.0053554205 0.8220349 0.0010222775 -0.56943613 0.0055073192
0.0025746035 -0.024996147 0.0036822201 0.86471242 -0.0039808387 -0.50225151 0.012434062
0.003675187 -0.025525177 0.005090097 0.87828463 0.036847532 -0.47671622 0.012036654
0.0024600269 -0.022451028 0.0035630185 0.89997226 0.030053155 -0.43490997 0.019693593
0.0036029124 -0.022500711 0.0049989899 0.87766498 0.038319372 -0.47774038 0.0158235
0.0024067441 -0.019535996 0.0035035915 0.90979749 0.018880267 -0.41462287 0.020133361
0.0035423124 -0.019439043 0.0049228151 0.87898153 0.0087851044 -0.47677493 0.013365221
0.0025000339 -0.016520588 0.0036249815 0.78741354 -0.037052941 -0.61531049 0.026508799
0.0036647941 -0.016877599 0.005078631 0.90843964 0.016515234 -0.41768965 0.015445813
0.0024445986 -0.013607233 0.003567175 0.79730588 0.0016560325 -0.60357326 0.02204846
0.0036092116 -0.013478128 0.0049863793 0.8285023 0.01854836 -0.55967844 0.011343134
0.0026072799 -0.010534256 0.0037986431 0.82275307 0.022250578 -0.56796324 0.017799748
0.0037361761 -0.010215938 0.0052189054 0.84148419 0.0099073872 -0.54019094 0.0088837091
0.0025654989 -0.007540138 0.0037475603 0.87268251 -0.0027586205 -0.48828039 0.010846567
0.0037657372 -0.0073629217 0.005257261 0.84575099 -0.022021793 -0.53312314 0.0087292204
0.0025298398 -0.0045503001 0.0037037036 0.8655768 0.015229101 -0.50054461 0.011372631
0.0037753452 -0.004387185 0.0052700141 0.83648169 -0.0040913294 -0.54797953 0.007196473
0.002500646 -0.001444982 0.0036656451 0.84805876 0.012402585 -0.52975714 0.014085218
0.0037245806 -0.0014160101 0.0052064215 0.84419775 -0.01877076 -0.53570312 0.0095973546
0.0025045988 0.001652776 0.0036610842 0.84660518 -0.036016982 -0.53100139 0.017012388
0.0037169242 0.0015531776 0.0051973984 0.84953666 -0.038204495 -0.52614433 0.013955785
0.0025208939 0.0044911224 0.0036827459 0.83587027 -0.026707424 -0.54827696 0.023706155
0.0037209268 0.0045757731 0.0052030915 0.85257155 -0.00020030598 -0.52261055 0.014362218
0.0024750074 0.0075900587 0.0036281524 0.8689239 -0.014214681 -0.49474159 0.018868018
0.0036857172 0.0075439964 0.0051590195 0.86248177 -0.010992179 -0.50596875 0.015760899
0.0024353035 0.010663884 0.0035825705 0.9092012 0.012695989 -0.41616347 0.021899851
0.0037144877 0.010480751 0.0051960656 0.8608619 -0.012602306 -0.50868255 0.014672259
0.0023760335 0.013575046 0.0035161464 0.89759052 0.019413138 -0.44040251 0.022825694
0.0036667134 0.013407657 0.00513602 0.85832411 -0.0026332056 -0.51310116 0.019092314
0.0023785909 0.016626002 0.0035254236 0.88302845 -0.021561362 -0.46882385 0.025776086
0.0036675523 0.016369605 0.0051377858 0.83849496 0.0015159142 -0.54490727 0.019208303
0.0024080926 0.019469693 0.00356309 0.8279233 -0.0056983181 -0.56081241 0.022419337
0.0037633358 0.019369705 0.0052107349 0.83238536 -0.0037172157 -0.55418485 0.0095903762
0.0026317935 0.022608822 0.0037802167 0.87524074 -0.0048661148 -0.48366302 0.022603938
0.0037172737 0.022505334 0.0051532839 0.83340418 -0.012497948 -0.5525226 0.0098342001
0.00268865 0.025601685 0.0038526554 0.87119555 -0.00037777418 -0.49093598 0.023146329
0.0037324335 0.025627548 0.0051733344 0.84595335 0.0099990182 -0.53316313 0.012532932
0.0026795014 0.028540663 0.0038430721 0.85781199 0.01430486 -0.51376438 0.021998651
0.0037589546 0.028666599 0.0052076676 0.84196031 -0.010702948 -0.53943342 0.011350012
0.0026231054 0.031579945 0.0037750651 0.83646595 -0.041242581 -0.54646474 0.023722112
0.0037423547 0.03146163 0.0051873466 0.81452823 -0.01173782 -0.58000505 0.013464046
0.0026017507 0.034567207 0.0037488968 0.78352743 -0.10662021 -0.61214119 0.037163418
0.0037064853 0.034363274 0.0051423251 0.80535346 -0.13163598 -0.57799459 0.025654361
0.0026185475 0.036898483 0.0037187298 0.61447179 -0.42974854 -0.6616196 0.056152064
0.0047131861 0.037243247 0.0043336502 0.43816811 -0.73000979 -0.52449447 0.055132445
0.0077780155 0.037958127 0.0045790523 0.18714203 -0.9510743 -0.24583648 0.0071159857
0.01064411 0.038620517 0.0047380514 0.25730982 -0.95839357 -0.12358513 0.0047987667
0.012188147 0.038942717 0.0053485897 0.26865584 -0.9585343 -0.095058315 0.0039682123
-0.051651355 0.041568678 0.0048439912 -0.92651248 -0.37513852 -0.029082784 0.015306138
-0.050519515 0.041567892 0.0047483481 -0.92651749 -0.37512708 -0.029069077 0.015308083
0.011666408 0.039043285 0.0033734648 0.22222328 -0.96699762 -0.12462892 0.0032564045
0.013652747 0.039496887 0.0046159802 0.31212953 -0.94958431 -0.029407544 0.0043080105
0.016630173 0.040590826 0.0046074833 0.36120024 -0.92854822 0.085630126 0.0030769492
0.019017128 0.041551456 0.0042718668 0.39892453 -0.89988393 0.17626159 0.0037312175
-0.052730452 0.043504383 0.0055500157 -0.94770277 -0.3190347 -0.0087384162 0.016437445
0.020311303 0.042329993 0.0049622911 0.45286202 -0.8581025 0.24202518 0.0027951009
0.022514602 0.043413345 0.0045464723 0.46597552 -0.82701409 0.31450668 0.0023332213
0.024769701 0.044483494 0.0040136259 0.48668027 -0.78646082 0.38029167 0.0035410672
-0.053244304 0.046498995 0.0055424012 -0.94772482 -0.31896958 -0.008725279 0.016390922
0.025949836 0.045735955 0.0048774648 0.50367659 -0.74689347 0.43411988 0.001596387
0.028235387 0.047004197 0.0042322334 0.53231037 -0.67473084 0.51125729 0.0037992902
0.030122781 0.047644928 0.0032072614 0.53353524 -0.66193062 0.52648646 0.002846203
-0.053427186 0.049065884 0.0054989285 -0.95510352 -0.28991008 -0.061069366 0.011007159
0.029206365 0.048774984 0.0052755694 0.56049198 -0.53238344 0.63436311 0.0030918703
0.03125912 0.049717698 0.0042363168 0.55943334 -0.53269136 0.63503873 0.0045482079
0.033309504 0.050646581 0.0032597126 0.53972566 -0.54054165 0.64537656 0.0021844441
0.032033183 0.052260149 0.005264285 0.57162941 -0.32505071 0.75338036 0.0027123534
0.034121737 0.052714776 0.003884034 0.5647828 -0.37072691 0.73728001 0.0032407397
0.032665953 0.055211078 0.0057355911 0.55210918 -0.13253208 0.82317108 0.0035391347
0.034494784 0.055443522 0.0045415829 0.54909861 -0.16270694 0.81976652 0.0032808895
0.036440387 0.055840138 0.0033138774 0.55270272 -0.21424884 0.80536765 0.0036417528
0.032629516 0.058757234 0.00581103 0.52525043 0.031404953 0.85036796 0.00066485268
0.0345405 0.058464695 0.004694961 0.52673841 0.013661255 0.84991771 0.00078082591
0.036655143 0.058416869 0.0034022958 0.53504699 -0.0058946903 0.84480178 0.0013737465
0.0324554 0.061686039 0.0056518577 0.50790131 0.099220157 0.85568196 7.5182812e-05
0.034464192 0.061455477 0.0044756127 0.51243418 0.094296239 0.85353357 7.413749e-05
0.036478106 0.061396252 0.0032716349 0.52542096 0.090659998 0.84599859 0.00011867096
0.032049511 0.064550012 0.0054895249 0.50126594 0.13386267 0.85487622 5.569253e-05
0.034516733 0.064497545 0.0040427861 0.50684607 0.1309454 0.85203302 7.1110895e-05
0.036219344 0.063907497 0.0031146095 0.52315205 0.12645166 0.84280598 0.00012010081
0.029780351 0.06849432 0.0059216297 0.46705458 0.19093698 0.86336732 0.00055135984
0.031705137 0.06756594 0.0051417388 0.48955765 0.17179285 0.85488039 0.00011277189
0.034204666 0.067363665 0.0037376671 0.50031364 0.16129026 0.85068899 8.8492983e-05
0.029459294 0.070822641 0.0056359596 0.45773721 0.25390643 0.85206109 0.0013543387
0.031518236 0.070446998 0.0046117334 0.47290069 0.22922096 0.85077775 0.00068167649
0.033726886 0.070247501 0.0034207576 0.48310384 0.22301179 0.84668559 0.00061422447
0.026467174 0.074171998 0.0055342251 0.38049057 0.46227798 0.80095315 0.0017343076
0.028713327 0.073212445 0.0050608246 0.41546464 0.39446232 0.81962705 0.0026874684
0.031609107 0.073121682 0.0036911867 0.42994243 0.34447166 0.83455908 0.0023654478
0.033420842 0.072346441 0.0031189483 0.45571342 0.3046982 0.83635169 0.0026777501
0.013306946 0.077540107 0.0052019996 0.1378556 0.85246998 0.50427252 0.0008025688
0.016754949 0.077574812 0.0047093323 0.128105 0.85133177 0.50874692 0.0014332167
0.019819308 0.076821804 0.005322584 0.24070293 0.71025085 0.6615178 0.0016224911
0.022729293 0.076313883 0.0050466224 0.26659012 0.67163944 0.69125259 0.0020335934
0.025645103 0.075719424 0.0046275565 0.3472226 0.5474757 0.76138479 0.0021552772
0.028590566 0.075591736 0.0035921824 0.34895721 0.53267157 0.77103168 0.0021233442
0.030188262 0.075342886 0.0030836358 0.33969358 0.57614774 0.74341255 0.003586899
0.018466868 0.078107417 0.003345185 0.14682969 0.8401475 0.52210468 0.0017156586
-0.00079127937 -0.075190067 0.0073338351 -0.22002117 -0.96934623 0.10935525 0.004214678
0.0015682565 -0.075720258 0.0076708877 -0.16062216 -0.97321707 0.16446619 0.0029535175
0.00451844 -0.076119304 0.0075077661 -0.087545313 -0.97371918 0.21025413 0.0031864413
0.0074964971 -0.076211266 0.0076827272 -0.0098640937 -0.94946933 0.31370479 0.0030295399
0.01054804 -0.076198854 0.0075958017 0.04227091 -0.9221465 0.38452435 0.0032069769
0.013491848 -0.07600157 0.0075009526 0.10578962 -0.87831652 0.46622816 0.003821986
0.016431253 -0.075785019 0.007156027 0.15563849 -0.81784928 0.55398482 0.003606041
0.019293927 -0.075524941 0.006661607 0.19627139 -0.75871933 0.62114614 0.0041272361
0.021645801 -0.075196095 0.0062472485 0.25264674 -0.69811571 0.66992849 0.0028141013
-0.0099258842 -0.072709836 0.0087594213 -0.23003967 -0.9725796 0.034214906 0.017746484
-0.0073886164 -0.073361121 0.0082241781 -0.26783383 -0.96313483 0.025223862 0.014008083
-0.0044188309 -0.07417047 0.0078771198 -0.24219449 -0.96556425 0.095013492 0.0067694094
-0.0021708156 -0.074786633 0.0077264127 -0.24994242 -0.96306717 0.10015248 0.0037280677
0.014607864 -0.074944273 0.0088786334 0.15710603 -0.78093767 0.60452795 0.0027301321
0.016846104 -0.074643068 0.0085550034 0.21408926 -0.7442233 0.63269061 0.0023684946
0.019688331 -0.074060403 0.0081057148 0.26294413 -0.66625988 0.69782388 0.0044744867
0.022460794 -0.073470928 0.0074581928 0.31093708 -0.57503438 0.75673884 0.0030110525
0.025183737 -0.072946452 0.0066337497 0.36045864 -0.51092166 0.7804029 0.0032957904
0.027283981 -0.072153658 0.0061817719 0.39711237 -0.45697114 0.79591405 0.0025166161
-0.015519815 -0.069236755 0.0082560712 -0.32480609 -0.82129121 -0.46902221 0.0017707879
-0.013425361 -0.069543652 0.0071259309 -0.36147916 -0.80983186 -0.46206617 0.0033890752
-0.010869225 -0.070313841 0.0066578877 -0.3779456 -0.80329812 -0.46029258 0.0087023024
-0.007991543 -0.071541429 0.0065981974 -0.36307791 -0.82754338 -0.42818978 0.010838418
0.023226812 -0.071110234 0.0085911918 0.41359752 -0.36054277 0.83602995 0.002931159
0.025527606 -0.070527643 0.0076690167 0.42971307 -0.32522976 0.84236115 0.0024399802
0.027940264 -0.070214011 0.0065047038 0.44181815 -0.2918261 0.84831262 0.0020186529
-0.024889022 -0.066224277 0.0084230285 -0.28356752 -0.88410902 -0.37140378 0.0039015911
-0.022281617 -0.066719726 0.007766807 -0.29790431 -0.88204032 -0.36504504 0.0076768636
-0.019402049 -0.067479327 0.0073858337 -0.26020312 -0.87211114 -0.4143869 0.008563037
-0.016640762 -0.068349436 0.0071811005 -0.28876746 -0.84288138 -0.45405319 0.0044986191
-0.014287408 -0.068655334 0.006169559 -0.32806051 -0.82052481 -0.4680976 0.0062860139
0.023836244 -0.068856157 0.0089597758 0.47158167 -0.23891619 0.84884018 0.0011052324
0.025835885 -0.067590617 0.0083282953 0.46960747 -0.20695198 0.85827714 0.00044770652
0.028455725 -0.067473367 0.0069007832 0.47547981 -0.19268286 0.85836601 0.00017862547
0.030227866 -0.066400044 0.0061667906 0.48236626 -0.18526691 0.85615349 0.00014189142
-0.03651521 -0.063071311 0.0086725093 -0.30370063 -0.89222038 -0.3342284 0.011139454
-0.034177959 -0.063423544 0.0081211766 -0.24805412 -0.93342423 -0.25920731 0.0081623523
-0.031435173 -0.063944288 0.0075818654 -0.25844443 -0.9267382 -0.2726956 0.0082564596
-0.028536864 -0.064689666 0.007435373 -0.2399406 -0.91835934 -0.31471357 0.0052847145
-0.025760008 -0.065361492 0.007168408 -0.24851106 -0.91355336 -0.32196662 0.0039232457
-0.02317578 -0.065762222 0.0064482847 -0.27909583 -0.89268851 -0.35385415 0.010348598
0.026350288 -0.064658195 0.008626977 0.48424083 -0.15530564 0.86104059 4.8026966e-05
0.028518667 -0.064494759 0.00744886 0.48843166 -0.14948507 0.85970271 6.5622393e-05
0.030568488 -0.064247876 0.0063168039 0.4952848 -0.14605346 0.8563652 7.6888275e-05
-0.048712477 -0.06012677 0.0085483519 -0.19488281 -0.93834662 -0.28552815 0.015547641
-0.045580745 -0.060179483 0.0085184528 -0.20234022 -0.91104782 -0.35923576 0.014174196
-0.043427899 -0.060535271 0.0076699485 -0.27044034 -0.94785011 -0.168648 0.015634749
-0.040601484 -0.061329003 0.0074821999 -0.28390065 -0.92826557 -0.24025699 0.0045373929
-0.037670989 -0.062149655 0.0074397717 -0.24661548 -0.93321598 -0.26132107 0.0023574808
-0.034907259 -0.062642157 0.0068034339 -0.2411114 -0.93871975 -0.2463139 0.0087021347
-0.032533135 -0.062974073 0.0060361521 -0.25446132 -0.95054728 -0.17807131 0.0092010796
0.026721841 -0.062024117 0.0088439565 0.49003777 -0.1216066 0.86317718 8.7415217e-05
0.028499277 -0.061470583 0.0079364255 0.49643281 -0.11550112 0.86035687 0.00010587274
0.030877225 -0.061413419 0.0065529156 0.50319499 -0.10942744 0.85721666 8.1381149e-05
-0.051322117 -0.058286387 0.0065019471 -0.47953576 -0.85725921 -0.18748859 0.011036784
-0.049115751 -0.059368063 0.006952127 -0.28339216 -0.92600334 -0.24941264 0.010538702
-0.046589021 -0.059455838 0.0073381392 -0.17372766 -0.96969986 -0.17175815 0.01688754
-0.044474144 -0.059806492 0.0064568985 -0.22089534 -0.9681536 -0.1178302 0.018726179
0.026829198 -0.059702389 0.0089410581 0.50185329 -0.088276893 0.86043614 0.00027948138
0.028649598 -0.058501843 0.0081752213 0.5104059 -0.071993664 0.85691464 0.00018793058
0.031205853 -0.058448654 0.0066605471 0.51388025 -0.056383532 0.85600698 0.00029594704
-0.052009556 -0.056097042 0.007040292 -0.88597471 -0.4627561 -0.030093279 0.033100985
0.028814221 -0.055487316 0.0082429228 0.53737378 0.026393216 0.84293109 0.001151368
0.031178696 -0.05556808 0.006766614 0.53070277 0.057453703 0.84560841 0.0021004602
-0.052947994 -0.052739996 0.0061402721 -0.86679703 -0.49521264 -0.058543716 0.04122619
0.026871471 -0.051320858 0.0087707257 0.57384616 0.22532067 0.78735703 0.0047400221
0.028653739 -0.052529413 0.0079929316 0.55955416 0.19788185 0.80482423 0.0027220387
0.030794816 -0.052810654 0.0065688267 0.55727792 0.24291979 0.79399705 0.0033985174
0.02616138 -0.049142994 0.008437695 0.56507558 0.36379024 0.74050403 0.0024223994
0.028199501 -0.049823042 0.0072019203 0.56996465 0.40334633 0.71585751 0.0034326226
0.030284222 -0.050671451 0.0061262506 0.56179494 0.43049029 0.70644498 0.0029701267
0.023174755 -0.045640066 0.0082144355 0.55499125 0.58638471 0.59003186 0.0022745614
0.025325218 -0.046786431 0.0073624598 0.55578011 0.55535036 0.61862296 0.0029685418
0.027374549 -0.047674019 0.0063795606 0.5456388 0.55908912 0.62425774 0.0024525281
0.0198335 -0.043000102 0.0081509426 0.53184026 0.70177966 0.47397387 0.0017633988
0.022023877 -0.044089954 0.0074302903 0.53025579 0.66181517 0.52993345 0.0020312981
0.024163861 -0.044834234 0.0063057682 0.52910417 0.68020976 0.50730997 0.002626582
0.014396772 -0.039583277 0.0075478279 0.468844 0.84558535 0.25528559 0.0020954702
0.016690185 -0.040869754 0.0078059607 0.4749997 0.81935376 0.32099018 0.0029283608
0.018668979 -0.041679617 0.0069951792 0.50724506 0.75029248 0.42398545 0.0023343123
0.0082758348 -0.036665387 0.0074258321 0.55997688 0.810058 -0.17387368 0.020404011
0.010388766 -0.037758876 0.0077798157 0.51317596 0.85728031 -0.041484453 0.036285147
0.012461551 -0.038678594 0.0073838406 0.44970325 0.88586903 0.11403116 0.0065109697
0.0048420541 -0.033899717 0.0066492981 0.70130533 0.33885995 -0.62717205 0.0099915573
0.0070946743 -0.035168424 0.0082213823 0.62900889 0.624075 -0.46354967 0.021929506
0.0053892015 -0.030869722 0.00724083 0.66572756 -0.077446327 -0.74216497 0.014245818
0.0063531972 -0.031612258 0.0084833801 0.49844855 -0.14816976 -0.85416317 0.012613565
0.0051368237 -0.028511137 0.006942037 0.61135989 -0.15973271 -0.77506423 0.016837552
0.006300244 -0.028591566 0.008259655 0.53939509 -0.15519333 -0.82762796 0.032679144
0.0093654264 -0.027516415 0.0085543795 0.27176476 -0.13004903 -0.95353615 0.01365738
0.0049188859 -0.025478274 0.0066663027 0.84794647 0.045579296 -0.52811873 0.0028533142
0.0062508876 -0.025864931 0.0081971716 0.43908983 -0.040146388 -0.89754581 0.034355536
0.009726787 -0.025428811 0.0085530104 0.26894063 -0.052787609 -0.96170914 0.0051077413
0.0049866256 -0.022444811 0.0067311223 0.80017573 0.00039486401 -0.59976542 0.0010130769
0.0061066737 -0.022421842 0.0080152033 0.42391673 0.0075022033 -0.90567011 0.027408164
0.0096629346 -0.022629475 0.0085506765 0.30956632 -0.0054260548 -0.95086235 0.0080506159
0.0049781995 -0.019482031 0.0067208409 0.79883558 -0.00054032524 -0.60154921 0.00098425103
0.0061018942 -0.019292422 0.0080100661 0.63477302 0.03537653 -0.77188843 0.024742903
0.0092973271 -0.020939495 0.0085489182 0.33607131 0.093327545 -0.9372012 0.0063643726
0.0051405332 -0.016517021 0.0069270739 0.78506315 6.1885847e-05 -0.61941576 0
0.0062735467 -0.015914686 0.0083632134 0.69804955 0.047925103 -0.71444392 0.010248666
0.0050947722 -0.013466008 0.006869562 0.78504241 7.9385303e-05 -0.61944199 8.2945832e-08
0.0062580733 -0.013447167 0.0083437711 0.69322073 0.032201879 -0.72000551 0.0090394001
0.0051238332 -0.010509074 0.0069066659 0.78505236 7.9137419e-05 -0.61942947 2.4206514e-07
0.0062411595 -0.01041203 0.0083225388 0.78504306 7.3587275e-05 -0.61944127 0
0.0051068864 -0.0072018136 0.0069094854 0.78505927 0.00014462056 -0.61942059 0
0.0062480951 -0.0074983528 0.00833169 0.78504688 8.3807347e-05 -0.61943644 8.7472088e-08
0.0052282237 -0.004475391 0.0070637553 0.78505397 0.00013044606 -0.61942738 3.5321396e-08
0.006242651 -0.0045193583 0.0083253952 0.78505754 8.1802376e-05 -0.61942291 0
0.0052283346 -0.0014628982 0.0070645208 0.7850439 0.00013426358 -0.61944014 1.0512841e-07
0.0063876901 -0.0015333589 0.0085337562 0.75195587 -0.0030212225 -0.65920657 0.0017161883
0.0051713958 0.0015066311 0.0069929473 0.78504115 0.00013184243 -0.6194436 3.3286963e-07
0.0063658156 0.0015320005 0.008506746 0.75179684 0.001697322 -0.6593926 0.0012294595
0.0051736054 0.0044196281 0.0069964342 0.7850408 0.00010839834 -0.61944407 0
0.0063439212 0.0046199346 0.008479598 0.7589789 -0.011173299 -0.65101928 0.0012282269
0.0051158159 0.007432926 0.006923771 0.78496414 0.00010692482 -0.61954117 3.545189e-07
0.0063248067 0.0074831271 0.0084557915 0.75830781 -0.00014173458 -0.65189666 0.0013309891
0.0051603857 0.01047112 0.0069809351 0.78483629 0.00011709269 -0.61970317 7.1466019e-07
0.0063048191 0.010460881 0.008431226 0.75875151 0.0095728235 -0.65130985 0.0012198809
0.0051961448 0.013581595 0.0070264651 0.78459263 8.4213389e-05 -0.62001163 1.9756437e-06
0.0062846667 0.013459028 0.0084065236 0.75074196 0.005595542 -0.66057181 0.0017655982
0.0051536094 0.016562959 0.0069728042 0.78445864 0.00014137519 -0.6201812 3.2469127e-06
0.006276045 0.016318006 0.0083956691 0.73206282 -0.018444436 -0.68098742 0.0045074872
0.0051391697 0.01952252 0.00695469 0.80273563 0.0077057616 -0.59628528 0.0027981671
0.0063077314 0.018933101 0.0083801858 0.60318404 -0.10547744 -0.7905969 0.025583183
0.009864768 0.020067893 0.0089627532 0.42461553 -0.22820064 -0.87614274 0.0023943272
0.0049975789 0.022415271 0.0067762486 0.80183494 -0.00013697158 -0.59754556 0.0041547739
0.0062719509 0.022516098 0.0082261777 0.50824487 -0.11826863 -0.85305321 0.03297808
0.0094247041 0.022606233 0.0085133985 0.25735268 -0.10418388 -0.96068484 0.011625069
0.0048312242 0.025345875 0.0065660686 0.81956279 0.0033337758 -0.57297963 0.0047158096
0.0060424772 0.025517292 0.0079365736 0.51779795 0.070966378 -0.85255444 0.028405836
0.0095623592 0.025246553 0.008511371 0.30824623 0.01360346 -0.95120937 0.0077630877
0.0048255841 0.028040627 0.0065596662 0.80639225 -0.00027645929 -0.59138101 0.0037935711
0.0060384902 0.028724412 0.0079313135 0.6213699 0.072301194 -0.78017431 0.023367526
0.0051284991 0.031580091 0.0069166711 0.78072745 -0.0010098115 -0.6248709 0.00014491346
0.0062938584 0.031528492 0.0082561942 0.57145733 0.089698076 -0.8157149 0.01882218
0.0051520877 0.034515232 0.0069468329 0.75776678 -0.19807422 -0.62173635 0.025115553
0.0062978901 0.034716554 0.0082360609 0.70830095 -0.16738792 -0.68577766 0.027180333
0.005340308 0.036339644 0.0065296539 0.52827239 -0.67211598 -0.51883364 0.043267038
0.0079528131 0.037018061 0.0074454532 0.39516857 -0.87914652 -0.26635164 0.018292641
0.010628027 0.038391575 0.0076026451 0.40024599 -0.91622043 -0.018528897 0.0097763045
0.012296972 0.038950961 0.0064547188 0.392883 -0.91942561 -0.01730681 0.0096381288
-0.05157518 0.041374478 0.0071986788 -0.91296089 -0.40792382 -0.010028424 0.014518308
-0.050567631 0.040470414 0.0078982497 -0.90066224 -0.42410415 -0.094568565 0.018531092
0.011830668 0.039111044 0.0084189503 0.52542818 -0.84865671 0.060884461 0.0075434647
0.013529355 0.039676487 0.0076119332 0.43516204 -0.89142019 0.12650692 0.0048923614
0.016493306 0.041092221 0.0074471119 0.45290065 -0.84762788 0.27642009 0.0035878902
0.018475628 0.041816697 0.0064638136 0.47924238 -0.81923044 0.31494164 0.0035049312
-0.05211376 0.043275069 0.0071299043 -0.92656636 -0.37500823 -0.029046522 0.01526178
0.017736334 0.042227346 0.0085046077 0.50106007 -0.79157275 0.34978762 0.0040838262
0.019664373 0.043080922 0.00768092 0.49580702 -0.78672391 0.36775118 0.0018915121
0.022033779 0.044314418 0.0070725083 0.51878273 -0.72071552 0.45981905 0.0025844441
0.024021911 0.044938643 0.0062287035 0.52868015 -0.69868022 0.48201996 0.0030079123
-0.052462768 0.045612313 0.0073731565 -0.94792402 -0.31719992 -0.028711038 0.015773259
0.02306316 0.045822319 0.0080378624 0.54217172 -0.64990687 0.53260773 0.0034894063
0.025155215 0.046871401 0.007156353 0.5536657 -0.60593224 0.57122713 0.0039071012
0.027180417 0.047617484 0.0061275493 0.53299272 -0.62257093 0.57299578 0.0030526246
0.02611416 0.049053136 0.0081545357 0.56062889 -0.42139465 0.71282661 0.0023832629
0.028142544 0.049731839 0.0069266902 0.57463682 -0.46646583 0.67245984 0.0027807339
0.030241355 0.050889876 0.0061027999 0.55682302 -0.46135029 0.69072717 0.0023413426
0.026786815 0.051393058 0.0088165198 0.56986839 -0.22520624 0.79027349 0.0044170138
0.028601712 0.052371774 0.0078523895 0.55704468 -0.23891711 0.79537404 0.0029499941
0.030684205 0.052830085 0.0065149381 0.5579558 -0.29353699 0.77622253 0.0035046779
0.028894721 0.055445053 0.0081956452 0.54594022 -0.054601453 0.83604306 0.001587896
0.031201214 0.05550598 0.006730488 0.53431845 -0.088125452 0.84067684 0.0025463558
0.028725481 0.058513902 0.0081762113 0.51252598 0.062400475 0.85640138 0.00026459654
0.031247836 0.058461282 0.0066801445 0.51347417 0.044601541 0.85694516 0.00052375422
0.026745453 0.062053714 0.0088594919 0.49481049 0.11592534 0.86123395 6.9424015e-05
0.028529944 0.061527822 0.007955879 0.49872923 0.11018694 0.85972553 7.6035845e-05
0.03098269 0.061433781 0.006551492 0.50085121 0.10466444 0.85918188 7.6183271e-05
0.026440507 0.064673305 0.0086564664 0.48746169 0.14760341 0.86057794 5.2910833e-05
0.028480638 0.064552762 0.0075339526 0.49041036 0.14130402 0.85995984 4.6315909e-05
0.030563707 0.064295076 0.0063867779 0.49440479 0.1390703 0.85803467 6.0489307e-05
0.025952822 0.067584701 0.0083858632 0.47428933 0.19122991 0.85934895 0.00022557336
0.028516121 0.06744308 0.0069877659 0.48012283 0.18125038 0.85827172 0.00013518974
0.030357821 0.066791937 0.0061246268 0.48575994 0.17415175 0.8565678 0.0001202804
0.023257097 0.071154729 0.0087618725 0.43479151 0.31377742 0.8440972 0.0016749023
0.025481373 0.070351057 0.0079349754 0.44679525 0.2805672 0.84950334 0.0015404583
0.028062852 0.070172302 0.0065973001 0.45819432 0.25248834 0.85223681 0.00097943051
0.017213374 0.07479997 0.0087533649 0.25507686 0.67119735 0.69600999 0.0031436873
0.019670259 0.074277893 0.0083698202 0.32466316 0.55165535 0.7682904 0.0023165869
0.022680957 0.073255807 0.0078695659 0.37063402 0.48822176 0.79010761 0.0023593502
0.025362428 0.073020272 0.0067626555 0.40233359 0.42349714 0.81165129 0.0022489433
0.027362984 0.072428577 0.0061569563 0.43373227 0.39304835 0.81079543 0.0026001781
0.0077258842 0.076472864 0.0083646383 0.11394579 0.85113615 0.51242912 0.00088392152
0.010566032 0.076386064 0.0081537711 0.15023081 0.84874427 0.50701475 0.0020363012
0.013631567 0.076339193 0.007639233 0.17461909 0.81337833 0.55490893 0.0029994387
0.016623817 0.075630911 0.0079447674 0.24605238 0.70072836 0.6696552 0.0019208717
0.019613722 0.07567168 0.0069175316 0.26253861 0.67726326 0.68730479 0.0028370391
0.022125231 0.075187691 0.0065125911 0.2785472 0.63887578 0.71711165 0.0022911285
-0.0003079786 -0.075083695 0.0091413874 -0.21272333 -0.96797955 0.13328271 0.0028205256
0.001750424 -0.075266965 0.0099842465 -0.13309246 -0.93265444 0.33532381 0.0032693455
0.0045450949 -0.075416334 0.010136594 -0.017638618 -0.92520899 0.37904757 0.0027816396
0.0073589948 -0.075398944 0.0099069634 0.060443427 -0.89677966 0.43832973 0.0036535242
0.010288477 -0.075327389 0.0094867265 0.11623283 -0.85040736 0.51312494 0.0035338821
0.012767518 -0.075175889 0.0091580795 0.15937504 -0.80409336 0.57274204 0.0028254408
-0.012192665 -0.072079584 0.0098124603 -0.28000236 -0.95588464 0.088787198 0.024442187
-0.010346255 -0.072412558 0.010583756 -0.19507599 -0.94648516 0.25712103 0.0071322918
-0.007460515 -0.073068455 0.010648036 -0.19191712 -0.93873948 0.28624481 0.0033485186
-0.0045452798 -0.073709421 0.010683048 -0.19965577 -0.93237066 0.30136779 0.0031177059
-0.0014337399 -0.074344389 0.010753015 -0.20128669 -0.92637688 0.31829163 0.0026136683
0.0013667132 -0.074694254 0.011307904 -0.10869976 -0.90813094 0.40432981 0.0030877241
0.0046959613 -0.074793398 0.011648522 0.016668731 -0.88780963 0.45990887 0.0035078225
0.0076438929 -0.074644573 0.011317122 0.12442974 -0.85589343 0.50195974 0.002969804
0.010629189 -0.074264728 0.011040621 0.17435822 -0.81101042 0.55844533 0.0024205938
0.013563129 -0.073713049 0.010701786 0.21605252 -0.744627 0.63154727 0.0027490936
0.016374793 -0.073243305 0.010139574 0.25504637 -0.64509839 0.72027737 0.0031656334
0.01916624 -0.072700791 0.0094916802 0.33157262 -0.57954872 0.7444346 0.0025638794
0.021159587 -0.072240211 0.0091330968 0.33772933 -0.56921905 0.74961889 0.0036204681
-0.022079067 -0.069419459 0.01165576 -0.20775674 -0.97802579 0.017397242 0.011701394
-0.019393343 -0.070138842 0.011365749 -0.20074648 -0.97210777 0.12127347 0.014386948
-0.016276732 -0.070862949 0.011118365 -0.21846259 -0.96187675 0.16452137 0.015381187
-0.013404755 -0.071640693 0.01087964 -0.25280458 -0.95240772 0.1703212 0.016989252
-0.011672994 -0.071893074 0.011705322 -0.20408918 -0.93046236 0.30428186 0.0025716692
0.014754936 -0.071861193 0.011903615 0.31339353 -0.61647552 0.72231746 0.0016831798
0.016914979 -0.071124546 0.011514511 0.35415167 -0.45830023 0.81519169 0.0048183794
0.019495808 -0.07054165 0.010652333 0.37882206 -0.40590656 0.83170527 0.0034048203
0.022093827 -0.07022173 0.0095505333 0.41352743 -0.36070877 0.83599305 0.0028629911
0.024009671 -0.069429964 0.0090201087 0.43093464 -0.34627426 0.83330035 0.0032667159
-0.027976692 -0.066993177 0.011306305 -0.27814019 -0.91139668 -0.30330539 0.004199828
-0.025409108 -0.067485489 0.010777021 -0.27979243 -0.9012689 -0.33080268 0.0041870838
-0.022967175 -0.067630976 0.010035197 -0.29944 -0.84538537 -0.44233391 0.0061512291
-0.019595945 -0.068265349 0.0093735335 -0.29210937 -0.84330112 -0.45112669 0.0094858361
-0.017945154 -0.068887487 0.0093805389 -0.26247722 -0.89873588 -0.35125437 0.015441271
0.017989764 -0.068774022 0.011989905 0.3926636 -0.28711209 0.87371737 0.0036156429
0.019931683 -0.06770768 0.011461027 0.4406749 -0.24450892 0.86372507 0.00088108418
0.022508109 -0.067520238 0.010155422 0.45353097 -0.23178415 0.86057299 0.00061745604
0.024439679 -0.067001253 0.0092358878 0.46140128 -0.21869241 0.85981536 0.00047281044
-0.042945065 -0.063313618 0.011711429 -0.30326933 -0.90189171 -0.30760196 0.012527156
-0.040304556 -0.063906536 0.011683361 -0.23791523 -0.84063715 -0.48654452 0.0077699618
-0.037224434 -0.063471258 0.010363235 -0.25520122 -0.83300847 -0.49088618 0.0039825034
-0.0345635 -0.06407015 0.010059671 -0.23859572 -0.84662265 -0.47571224 0.0035291458
-0.031470194 -0.064909033 0.01003878 -0.23430367 -0.86223435 -0.44905874 0.0038208796
-0.028754303 -0.065617949 0.009860862 -0.25510046 -0.86211598 -0.43781254 0.0026693684
-0.026679287 -0.065944128 0.0091476208 -0.27280736 -0.87681472 -0.39594457 0.00036576451
0.020521665 -0.064932704 0.011769609 0.46236947 -0.16834943 0.87055898 9.5469084e-05
0.022493213 -0.064501166 0.010809154 0.47034609 -0.16222289 0.8674435 0.00010381139
0.024869347 -0.064402893 0.0095060114 0.47669354 -0.15838133 0.8646841 6.5773966e-05
-0.048716731 -0.060677279 0.010224861 -0.34301993 -0.8836351 -0.31863201 0.012623416
-0.046474695 -0.061500978 0.011091774 -0.30654356 -0.88621366 -0.34735629 0.011244895
-0.043909829 -0.06171295 0.010613854 -0.29670385 -0.85726517 -0.42078891 0.0092072673
-0.040598977 -0.062164299 0.0098433802 -0.22600289 -0.85524994 -0.46633705 0.0066072391
-0.038241368 -0.062809408 0.0095079681 -0.2262149 -0.86470711 -0.44845116 0.0035025536
0.020607898 -0.062747277 0.011962731 0.4672353 -0.13402067 0.87391633 7.5922486e-05
0.022581184 -0.0615426 0.011237553 0.47790888 -0.13149472 0.8685115 5.7592479e-05
0.025326617 -0.061476801 0.009722434 0.48461744 -0.12525 0.86571264 6.3661057e-05
