# .PCD v0.7 - Point Cloud Data file format
VERSION 0.7
FIELDS x y z normal_x normal_y normal_z curvature
SIZE 4 4 4 4 4 4 4
TYPE F F F F F F F
COUNT 1 1 1 1 1 1 1
WIDTH 561
HEIGHT 1
VIEWPOINT 0 0 0 1 0 0 0
POINTS 561
DATA ascii
0.072387785 0.061547391 -0.0031512086 0.85736978 -0.045636084 -0.51267385 0.023533503
0.071076132 0.064527631 -0.0038544631 0.63422924 -0.076904304 -0.76931071 0.0052008801
0.072444879 0.064741977 -0.003242288 0.63431841 -0.076931722 -0.76923454 0.0051772455
0.071047194 0.067385301 -0.0040994151 0.55379176 -0.15360013 -0.81836528 0.0041644648
0.07290259 0.067464806 -0.0033841445 0.62552476 -0.17261878 -0.76086903 0.0086305365
0.071752496 0.069362819 -0.0041067493 0.51398808 -0.16574745 -0.84163183 0.0046887314
0.073773116 0.07097099 -0.0034213022 0.81218588 -0.25094852 -0.52666771 0.015265703
0.0718171 0.072506301 -0.0045850766 0.56400698 -0.22352935 -0.79494071 0.0089656012
0.074019089 0.073214009 -0.0040330878 0.81589615 -0.2234671 -0.53326917 0.030857317
0.07529626 0.07330168 -0.0032444419 0.87367761 -0.29758686 -0.38487592 0.032687087
-0.015883075 0.0027696274 -0.0013195891 -0.24458037 -0.95490885 -0.16831397 0.0011020488
-0.013503492 0.0021436829 -0.0014486579 -0.21543781 -0.96084511 -0.17425081 0.0014954614
-0.010554205 0.001558469 -0.001591275 -0.16232555 -0.97142458 -0.17316128 0.0021747947
-0.0075128363 0.0011037146 -0.0014728071 -0.13162126 -0.9730379 -0.18940234 0.0037069053
-0.0044237175 0.00068066875 -0.0014930046 -0.099496551 -0.97733092 -0.18688154 0.0040991958
-0.0014879544 0.00049291918 -0.0014810221 -0.052121673 -0.98104918 -0.18661675 0.0044198423
0.0015066415 0.00037505594 -0.0014880187 -0.026375232 -0.99103236 -0.13099276 0.0043319245
0.0045451154 0.00031516197 -0.0014939625 0.0083881542 -0.98874748 -0.149359 0.0026252663
0.0074507296 0.00044845862 -0.0015260676 0.046393517 -0.98470312 -0.16795051 0.0037080732
0.010508207 0.00060161931 -0.0015044855 0.073462449 -0.98103893 -0.17934823 0.0042786542
0.013545621 0.0009164231 -0.0015510801 0.11232026 -0.97828406 -0.17419699 0.0038961505
0.016486868 0.0012999071 -0.0014778418 0.14143457 -0.9772507 -0.15804231 0.0029549457
0.019538043 0.0017715935 -0.0015031607 0.17579205 -0.974886 -0.13672769 0.0021026514
0.022518137 0.0024018579 -0.0014937794 0.19406341 -0.97309047 -0.12423496 0.0018589552
0.02470476 0.0028517283 -0.0012894212 0.21709782 -0.96965104 -0.11245161 0.0018106838
-0.024903426 0.0057598613 -0.0013271921 -0.34090185 -0.91929638 -0.19667214 0.00064113055
-0.02254059 0.004859312 -0.0014394406 -0.32815102 -0.92284018 -0.20170024 0.00056548527
-0.019429745 0.0037792993 -0.0015274725 -0.29006666 -0.9404068 -0.17747201 0.00069363805
-0.017346971 0.003214516 -0.0016049877 -0.27429548 -0.94560409 -0.17491399 0.00080843706
0.0261185 0.0032287382 -0.0017087242 0.26012102 -0.95766497 -0.1233485 0.001998055
0.028521612 0.0039111557 -0.0015238802 0.28277028 -0.95221728 -0.11542612 0.0014540864
0.031450231 0.0047823014 -0.0015165469 0.28959715 -0.95136094 -0.10509924 0.0011623007
0.033958327 0.0056166314 -0.0013601943 0.32506686 -0.93994731 -0.10406973 0.0016996536
-0.033095624 0.0089573376 -0.00056985178 -0.37986359 -0.89700025 -0.22604033 0.0033588412
-0.031327821 0.0083401399 -0.0013412921 -0.38152131 -0.90140641 -0.20471436 0.0017093363
-0.028454082 0.0071542803 -0.0015344856 -0.36244506 -0.90822858 -0.20917575 0.00053420098
-0.02626422 0.0063353055 -0.0017354557 -0.36055523 -0.91037834 -0.20300557 0.00039383481
0.035467442 0.0062311753 -0.0017065589 0.36568534 -0.9246251 -0.10650244 0.0015486469
0.037482321 0.0069732512 -0.0014655925 0.37292939 -0.92145205 -0.10885696 0.0014886596
0.040435571 0.0082144039 -0.001484689 0.39248192 -0.91235667 -0.11646125 0.0016165687
0.042194653 0.0089200474 -0.00081852457 0.41643581 -0.90120441 -0.1200494 0.001489262
-0.039260764 0.011909272 -0.00070788525 -0.43465036 -0.86337429 -0.25624973 0.0025868504
-0.037411213 0.011099123 -0.0016452596 -0.42443725 -0.87890905 -0.21765114 0.0034897339
-0.034524288 0.0097042853 -0.0015102414 -0.38654965 -0.89297557 -0.2305949 0.0029282232
-0.032684546 0.0090384288 -0.0022000172 -0.38004962 -0.89785606 -0.22229868 0.0024376528
0.041914452 0.00907725 -0.0021037485 0.42717093 -0.89800155 -0.10544334 0.0024097993
0.043566376 0.0096994089 -0.0015485594 0.44064882 -0.88993013 -0.11769854 0.001700654
0.046446074 0.011152908 -0.0014866614 0.46080559 -0.87916058 -0.12138747 0.0018021857
0.04805908 0.011945886 -0.00043766512 0.47887662 -0.87207013 -0.10085087 0.002634583
-0.042663749 0.014009683 -0.0020337459 -0.48744383 -0.83923548 -0.24100281 0.0024398183
-0.040883485 0.012929427 -0.0014085507 -0.44370008 -0.85985732 -0.25253838 0.0021699623
-0.038806703 0.012067639 -0.0025291038 -0.44362199 -0.86802709 -0.22299892 0.0015773876
0.047883347 0.012112399 -0.0023339184 0.49502668 -0.86019081 -0.12255795 0.0020136028
0.049544562 0.012935103 -0.0015454317 0.50828499 -0.85178185 -0.12694106 0.0017049863
0.051958039 0.014358818 -0.0013720893 0.52973276 -0.84161544 -0.10519794 0.0017468937
-0.048300385 0.01770341 -0.0014915189 -0.57349283 -0.78823763 -0.22313096 0.0015456236
-0.04656259 0.016506515 -0.0015100447 -0.5542239 -0.80743295 -0.20220754 0.00084786949
-0.044792801 0.015315756 -0.0017489817 -0.5578177 -0.8055203 -0.19994129 0.00089247082
0.053417806 0.015398681 -0.0016556651 0.56001556 -0.82166868 -0.10603362 0.0017303108
0.055483039 0.016814288 -0.0015041021 0.5628317 -0.81686991 -0.1262691 0.0021260672
0.057195406 0.017884433 -0.00062355323 0.59345025 -0.79554689 -0.122155 0.0020982702
-0.051844202 0.020359129 -0.001575182 -0.58578426 -0.78652644 -0.19553269 0.0011263688
-0.049789216 0.018803068 -0.0015482196 -0.5765866 -0.7847501 -0.22741 0.0013168645
0.056871802 0.018049402 -0.0025911464 0.5829531 -0.79728138 -0.15655079 0.0024364812
0.058606789 0.019159159 -0.0015704077 0.62639427 -0.76965219 -0.12355446 0.0019087711
0.060416032 0.02063838 -0.0012507155 0.66300011 -0.73553473 -0.13935415 0.0037946359
-0.055205069 0.022903556 -0.0014590692 -0.61635911 -0.76517433 -0.18603703 0.00097191404
-0.053361189 0.021495393 -0.0016365425 -0.60587651 -0.7706039 -0.1976952 0.00062105648
0.061886396 0.022085564 -0.0015570201 0.69776529 -0.70555413 -0.1237617 0.0027509753
0.063390203 0.023577651 -0.0012988803 0.72724086 -0.67220008 -0.13880859 0.0034370283
-0.060176566 0.026993753 -0.00080668967 -0.683267 -0.70679939 -0.18325095 0.0009491542
-0.058493644 0.025641648 -0.0016088407 -0.64498645 -0.74140429 -0.18523547 0.000898864
-0.056789845 0.024147505 -0.0011928397 -0.62964779 -0.7520299 -0.19492239 0.0011864521
0.064870447 0.025315678 -0.0015301829 0.76738167 -0.62795156 -0.1296232 0.0025478683
0.066127762 0.026782088 -0.00090407551 0.79306227 -0.60009718 -0.10457326 0.0023237977
-0.061491068 0.028487908 -0.0013995743 -0.70381266 -0.68786478 -0.1774538 0.00082802074
0.065968864 0.02717784 -0.0026423619 0.79877263 -0.57657558 -0.17182238 0.0026530933
0.067222588 0.028447261 -0.0014610199 0.82974964 -0.53976792 -0.14200735 0.0028694905
-0.06412372 0.031287566 -0.001176732 -0.75010717 -0.64202213 -0.1585775 0.001559453
-0.06295605 0.030375578 -0.0027228249 -0.72760427 -0.66431957 -0.1710894 0.0015506715
0.068596743 0.030698849 -0.0015929732 0.85512978 -0.50103915 -0.13308953 0.0026033402
0.069431901 0.032130752 -0.0012978321 0.88874 -0.43738249 -0.13725017 0.0033732841
-0.066688932 0.034447122 -0.0010175573 -0.80130202 -0.58433276 -0.12833691 0.00064794457
-0.065502852 0.033360273 -0.0024869905 -0.78646374 -0.58896512 -0.1859974 0.0022228162
0.070439711 0.034465984 -0.0014812825 0.91504812 -0.36105528 -0.17979443 0.0038683694
-0.06913349 0.037972055 -0.00093632762 -0.82569563 -0.55215186 -0.11556432 0.0013393513
-0.068376362 0.037247717 -0.0020497686 -0.82575357 -0.55206203 -0.11557916 0.0012618183
0.071450807 0.037451025 -0.0015342518 0.94152123 -0.28029105 -0.18701568 0.0036866274
0.072073773 0.038800463 -0.00056901708 0.96687841 -0.22482571 -0.1208282 0.0087578185
-0.069738701 0.039282937 -0.0017670005 -0.8257907 -0.55200189 -0.11560123 0.0012492595
0.071878433 0.039812323 -0.0023165075 0.96172148 -0.20003106 -0.18729487 0.0043913904
0.072260596 0.040631022 -0.0011323133 0.9766953 -0.17031144 -0.13061526 0.0041235895
0.071984462 0.042390905 -0.0029276886 0.95118868 -0.088374302 -0.29568586 0.0011624757
0.072566353 0.043373514 -0.0014097338 0.98176789 -0.089175589 -0.16786745 0.0039350521
0.072732605 0.046574678 -0.0013881515 0.98830605 -0.042485919 -0.1464451 0.0059240344
0.07281965 0.049507927 -0.0013979279 0.98796803 -0.047734149 -0.14710744 0.006035639
0.072920062 0.052314568 -0.0013816212 0.99433196 -0.060704667 -0.087286398 0.0088383062
0.073055796 0.055271488 -0.0012095359 0.99810708 -0.046595 -0.040140025 0.0091715315
0.073229343 0.058519762 -0.0011087152 0.99650615 -0.015942167 0.081982821 0.016826544
0.073553018 0.06150784 -0.0011978775 0.99085772 -0.093474068 0.097281128 0.013434826
0.073963679 0.064799808 -0.0012864495 0.97408152 -0.22433183 0.028988548 0.027902655
0.074435078 0.067072578 -0.0014595632 0.9454217 -0.25172791 -0.20690779 0.021352166
0.075172447 0.068296231 -0.00064007664 0.96908933 -0.19795227 -0.14724427 0.031579737
0.07462769 0.069844432 -0.0023250608 0.84705281 -0.28559223 -0.44826186 0.020074578
0.075665757 0.070670031 -0.0011621412 0.91494763 -0.26987314 -0.3000654 0.023470411
0.076544754 0.073026709 -0.0013811301 0.94994187 -0.21376233 -0.22785132 0.045628697
-0.018270154 0.0028022907 0.0026988394 -0.25211281 -0.96753055 -0.017994506 0.0075082052
-0.0164026 0.0025325294 0.0016989576 -0.23126714 -0.97276896 -0.015365954 0.0057241102
-0.013460122 0.0018709982 0.0015258471 -0.20013063 -0.97976691 -0.0021349792 0.001608987
-0.010423593 0.001351146 0.0014548079 -0.15333475 -0.98494238 0.079856321 0.0049072281
-0.0074963081 0.00097814144 0.001501951 -0.12536807 -0.98629767 0.10723699 0.0056705736
-0.0045221909 0.00058605161 0.001497571 -0.088082246 -0.99526525 0.041091952 0.0027413319
-0.0015708714 0.00040803337 0.0015282199 -0.043095738 -0.99582636 0.080452845 0.0044066655
0.0014891647 0.0002981002 0.0014883857 -0.0156417 -0.99874181 0.047646005 0.0050110645
0.0045440383 0.0002495769 0.0014968221 0.016283453 -0.99613911 0.086265579 0.0039034504
0.0074957106 0.0003746422 0.0015079323 0.049792483 -0.98223668 0.18091887 0.0071876827
0.010531421 0.0005217595 0.0014789961 0.075538456 -0.98133028 0.17687486 0.0068853614
0.01349251 0.00082585419 0.0015003259 0.11104321 -0.97901595 0.1708717 0.0067509091
0.016477205 0.0012238754 0.001473623 0.13484409 -0.97866958 0.15499333 0.0055538802
0.019501053 0.0016908908 0.0014998812 0.17482652 -0.97629023 0.12764435 0.0040245424
0.022494985 0.0023189574 0.0014395009 0.19281079 -0.97542059 0.10667036 0.0035351729
0.024841987 0.0028160841 0.0013347389 0.21481425 -0.97321534 0.081895493 0.0028901843
-0.027584199 0.0056875087 0.0026053893 -0.30225971 -0.9513973 -0.059011117 0.014115631
-0.025220169 0.0052100583 0.0018145168 -0.29654062 -0.9505837 -0.091947965 0.0060714856
-0.02232481 0.0043494222 0.0014048674 -0.32013801 -0.94500142 -0.066962287 0.0020299889
-0.01959881 0.003460088 0.0013881018 -0.30224171 -0.95075911 -0.06860768 0.0020881814
-0.017675322 0.0030973349 0.00047696315 -0.23272008 -0.96804553 -0.093429826 0.0015741599
0.026312126 0.0031998444 0.0016410695 0.27429587 -0.95764029 0.087675691 0.0026864605
0.028486779 0.0038241867 0.001472565 0.28534162 -0.95394295 0.092590667 0.0024585235
0.031502318 0.0047206371 0.0014353323 0.2902585 -0.95297086 0.087157592 0.002118007
0.034071952 0.0055955611 0.0013963077 0.3201603 -0.94395894 0.080242068 0.0026485592
-0.036326122 0.0089889122 0.0029164047 -0.41153944 -0.90314662 -0.12231705 0.01398234
-0.034410007 0.008418601 0.0022939036 -0.36341432 -0.92772436 -0.08519078 0.01022328
-0.031974968 0.007723534 0.0018374793 -0.34590837 -0.93162066 -0.11149152 0.0082572801
-0.028706169 0.0066617765 0.00139407 -0.37362215 -0.91376245 -0.15951395 0.0037367798
-0.026684839 0.0062488765 0.00058215612 -0.32417572 -0.93456066 -0.14665116 0.0046381056
0.035560247 0.006183343 0.0016054359 0.3703883 -0.92518938 0.082686216 0.0024193481
0.037511129 0.0069176317 0.0014717054 0.37491447 -0.92308217 0.0857815 0.0022968454
0.040452335 0.0081530483 0.0014537526 0.3904511 -0.91615885 0.090558559 0.0024197281
0.042173356 0.0089068757 0.00083820923 0.41740939 -0.90379053 0.094509773 0.0027831141
-0.042356819 0.011959488 0.0026912035 -0.50746679 -0.84692156 -0.15874967 0.020559637
-0.040103573 0.011278607 0.0020623552 -0.41262123 -0.89203531 -0.18443634 0.011773409
-0.037461765 0.010137924 0.0017478684 -0.45208496 -0.87679291 -0.16386999 0.0085836155
-0.034674942 0.0095852409 0.00056794996 -0.40329653 -0.89396423 -0.1953966 0.0032519009
0.041972391 0.0090184696 0.0019840673 0.42452273 -0.90143269 0.084850453 0.0036584111
0.043643076 0.0096677644 0.0015169391 0.44309643 -0.89110672 0.09795066 0.0025820369
0.046461806 0.011092079 0.0014202938 0.46813646 -0.87996894 0.080641024 0.0028686046
0.048090696 0.011880612 0.00064580445 0.48084655 -0.87278402 0.083873071 0.0032506294
-0.045743842 0.014290683 0.0024566718 -0.58563435 -0.80420876 -0.10139396 0.013643458
-0.042883527 0.012847114 0.0019435583 -0.4774403 -0.86679649 -0.14392561 0.020623937
-0.04063049 0.012560014 0.00062509591 -0.41797608 -0.87025177 -0.2606872 0.0054553552
0.047847908 0.012046056 0.0024799118 0.45719939 -0.87914693 0.13442227 0.0032784468
0.049549639 0.012866955 0.001467561 0.51864702 -0.8498587 0.093517594 0.0020100249
0.051997993 0.014328402 0.0014095645 0.52844161 -0.8448754 0.083276801 0.0022307583
-0.048741221 0.017093755 0.001599465 0.58909094 -0.30236509 -0.74936455 0.010220762
-0.047261745 0.016681165 0.0010750981 0.76715171 -0.47420582 -0.43198037 0.0051065306
-0.044868059 0.01508468 0.00088448013 -0.57424253 -0.78658682 -0.22699521 0.005821825
0.053473543 0.015367511 0.0016157279 0.56006873 -0.82417506 0.084013872 0.0022023655
0.055509765 0.016761027 0.001437943 0.55770361 -0.82347554 0.10418575 0.002393649
0.05722256 0.017859915 0.00076676533 0.59390646 -0.79834884 0.099570349 0.0030885348
-0.052311867 0.019813929 0.0015811314 -0.60356098 -0.75880015 -0.24481952 0.0033080315
-0.050060321 0.01876477 0.00071408116 -0.58263642 -0.77293658 -0.25120485 0.0036600165
0.058642883 0.019113047 0.0014869832 0.62362826 -0.77386367 0.11055669 0.0027397431
0.060452785 0.020597192 0.0012010373 0.66328609 -0.74272311 0.091726884 0.0031340804
-0.057674907 0.023818249 0.0023877006 -0.6560902 -0.73905754 -0.15277347 0.0059744474
-0.055475842 0.02252502 0.0013100938 -0.61780226 -0.75486946 -0.22021022 0.0019803778
-0.053710312 0.021381054 0.0010366492 -0.62749749 -0.74882621 -0.21332198 0.0014682041
0.06191355 0.022033611 0.0015120707 0.69440669 -0.71476412 0.083135992 0.0025578251
0.06342113 0.023538632 0.0013120485 0.73467958 -0.67269152 0.087932378 0.0029184727
-0.06046452 0.026798058 0.0017577216 -0.70757085 -0.6900292 -0.15232587 0.0006002126
-0.058568407 0.025262991 0.0011312191 -0.64553392 -0.73892617 -0.19306517 0.0018570591
-0.056879904 0.024039188 0.00085135549 -0.6137591 -0.76608723 -0.19081469 0.0019741948
0.064928204 0.0252933 0.0014772381 0.76615191 -0.63657635 0.088214494 0.002642733
0.066173784 0.026799837 0.0011234162 0.79688048 -0.59589386 0.099458441 0.0046213293
-0.06309849 0.02973423 0.0014167298 -0.75581145 -0.64706081 -0.10030679 0.00070642075
-0.061744947 0.028413882 0.0013056083 -0.73058653 -0.66961169 -0.13365468 0.0010826846
0.065995306 0.027055707 0.0025699192 0.80223799 -0.57459474 0.16203408 0.0034031037
0.067299448 0.028454013 0.0014199117 0.8308903 -0.54538065 0.11036877 0.0037464779
-0.064511441 0.031491291 0.0013443895 -0.7714467 -0.63257414 -0.068701722 0.00045313616
0.06862592 0.030631458 0.0016090289 0.85665792 -0.50602019 0.100404 0.0029458913
0.06943924 0.032044422 0.0013904357 0.89279944 -0.43835574 0.10369852 0.0037894926
-0.066978499 0.034658905 0.001286515 -0.82953513 -0.55784041 -0.02618322 0.0024110051
-0.065887876 0.033140399 0.0016763064 -0.7941094 -0.6055848 -0.05154898 0.00086567103
0.070513658 0.034455922 0.0014485751 0.93205667 -0.3473399 0.10307913 0.0028217304
-0.069508165 0.038443107 0.0014613904 -0.82620162 -0.56265479 -0.028468348 0.0028446186
-0.068449952 0.036769416 0.0013220856 -0.83627546 -0.54830831 0.0012040728 0.0018224095
0.071530558 0.037414979 0.0014753117 0.95656955 -0.26142341 0.12896699 0.0052538388
0.072062135 0.038685277 0.00085301255 0.97122133 -0.22296388 0.083762877 0.008271521
-0.070350334 0.039844785 0.0015047484 -0.84054732 -0.53337985 0.094795279 0.015234706
0.071848556 0.039372027 0.0026126211 0.96907538 -0.16814514 0.18061034 0.0048912438
0.072287701 0.040626761 0.0014001067 0.98018765 -0.15345694 0.1252328 0.0045694928
0.072638966 0.04339236 0.001605976 0.98957294 -0.08263123 0.11797204 0.0036420589
0.072789975 0.046476215 0.0015441552 0.9906916 -0.036186386 0.13122788 0.0052500647
0.07294175 0.049541969 0.0014257369 0.98790044 -0.026110645 0.15287575 0.0068961107
0.073012456 0.052482169 0.0015576523 0.98418969 -0.025964078 0.17520407 0.0084144352
0.073112048 0.055454973 0.0015312303 0.97427905 -0.030926904 0.22321244 0.011900582
0.073263027 0.058579117 0.0014398308 0.94778693 -0.022556588 0.31810549 0.019628873
0.073514089 0.061470121 0.0015210742 0.93136007 -0.075115301 0.3562668 0.024600303
0.073945113 0.064483725 0.0015224465 0.88380057 -0.1934481 0.42599806 0.035424169
0.066798382 0.068198644 0.0025775055 -0.2126783 0.096219935 0.97237325 0.0040233396
0.0744057 0.067197479 0.0019220071 0.85489619 -0.3069723 0.41823512 0.047864962
0.075190082 0.068148665 0.00080327963 0.94145948 -0.25917295 0.21560018 0.036611255
0.06786567 0.070885994 0.0027298196 -0.40268993 -0.040678836 0.91443211 0.010161206
0.074727453 0.069731183 0.0026358196 0.79519898 -0.36600539 0.48342383 0.017024377
0.075743347 0.070677273 0.001396485 0.89645135 -0.29674026 0.32912013 0.022724682
0.068673298 0.072471768 0.0029142336 -0.12105054 -0.080914967 0.98934293 0.025084889
0.076646864 0.072939128 0.0015651096 0.94439024 -0.16692002 0.28331044 0.054901745
-0.018373115 0.0029261352 0.0035388349 -0.25228491 -0.96241701 0.1005281 0.0080912402
-0.016265048 0.002625556 0.0042209062 -0.19785963 -0.9541567 0.22458094 0.006377073
-0.0135341 0.0022136492 0.0045848642 -0.17501606 -0.95180553 0.25186417 0.0044010626
-0.010537625 0.0017087357 0.0045400658 -0.12845992 -0.95724517 0.25919044 0.0041984986
-0.0075331987 0.0013571936 0.0045092511 -0.10051235 -0.95276505 0.28659377 0.004201232
-0.004481927 0.0010892689 0.0045374199 -0.071191542 -0.94841033 0.30894932 0.0040253587
-0.0014828943 0.00095546286 0.004552444 -0.030383211 -0.94393504 0.32872999 0.0037004575
0.0015136661 0.00091044913 0.0044826218 -0.0023464246 -0.94098949 0.33842745 0.0029491682
0.0045308112 0.00097583799 0.0044868169 0.03196257 -0.93660015 0.3489393 0.0024499651
0.0075019584 0.0011780956 0.0045220577 0.051845297 -0.93109351 0.36107752 0.0024338525
0.010492042 0.0013325572 0.0045630704 0.072217748 -0.92969441 0.36118242 0.0023636252
0.013503556 0.0016186401 0.0045472668 0.1012303 -0.92818606 0.35808262 0.002916269
0.016530631 0.0019799275 0.0045595863 0.11821415 -0.92892075 0.35090122 0.0033601793
0.019467628 0.0023620799 0.0044291741 0.15616637 -0.93053913 0.33122337 0.0037350513
0.022248464 0.0027124817 0.0038363384 0.20092526 -0.92710513 0.31639391 0.0043500341
0.024199061 0.0029119414 0.0031786677 0.2063078 -0.96550512 0.15886122 0.0037737726
-0.027671603 0.0057797246 0.0035411629 -0.27819738 -0.95656246 0.087146409 0.013168462
-0.025456158 0.0053822505 0.0044979663 -0.27285123 -0.93166661 0.23989464 0.0087994235
-0.022535348 0.0044951369 0.0045815851 -0.28827488 -0.92547166 0.24576345 0.0069297608
-0.019602267 0.0036142431 0.0046630423 -0.27820075 -0.92151624 0.27094677 0.0067569986
-0.017113948 0.0032843733 0.0054367767 -0.22430727 -0.93030721 0.29019788 0.0060664937
0.020299533 0.0031358066 0.0058352654 0.1506312 -0.86900818 0.47131208 0.0021221798
0.022776878 0.0033446774 0.0052465 0.19164929 -0.90402794 0.38210469 0.0045567262
0.02553382 0.0036777949 0.0045210007 0.25011152 -0.91385245 0.31987178 0.0026712094
0.028463846 0.0044884058 0.0045016096 0.25544417 -0.90581197 0.33801341 0.0039905799
0.031406824 0.0053167529 0.004409411 0.28594723 -0.90688449 0.30950719 0.0034897998
0.033518773 0.0057737958 0.0036384484 0.32003361 -0.90825838 0.26952767 0.0022799855
-0.03616472 0.0089274896 0.0033122564 -0.38322487 -0.92103124 0.069571875 0.018423595
-0.034088023 0.0084591322 0.0044191969 -0.35590723 -0.92203784 0.15223742 0.012343976
-0.031451333 0.0075544403 0.00463705 -0.34742615 -0.8985647 0.26809803 0.0060096276
-0.028760241 0.0065635946 0.0046837833 -0.33592263 -0.89956021 0.2791906 0.0068309866
-0.026529536 0.0061677578 0.0056639644 -0.2884132 -0.89947665 0.32826743 0.0049706595
0.032593325 0.0061111362 0.0055612582 0.29357821 -0.88462758 0.36227867 0.0029466071
0.034721937 0.0065644658 0.0046664327 0.35591012 -0.8886205 0.28927767 0.002376477
0.037510555 0.0075522792 0.0044837287 0.33221576 -0.8952722 0.29685074 0.0022282004
0.040073048 0.0085299416 0.0041946303 0.382038 -0.88172972 0.27676633 0.0025758562
-0.042057343 0.011857485 0.0032262579 -0.42573544 -0.90441775 -0.027889978 0.027078286
-0.040194143 0.011270308 0.0043992088 -0.41357926 -0.89085138 0.18797849 0.018490126
-0.037428457 0.0099925771 0.0045345114 -0.42132828 -0.87895161 0.22344258 0.0068079568
-0.035395142 0.0092965355 0.005284687 -0.40926194 -0.88984352 0.20170079 0.010040786
0.041256528 0.0093380827 0.0049503343 0.42190525 -0.86176658 0.28169879 0.0022726625
0.043477248 0.010229117 0.0044937916 0.41137764 -0.86663866 0.28232238 0.0023309633
0.046001825 0.011403085 0.0042055338 0.44406745 -0.8510201 0.28030139 0.0024400409
-0.045960158 0.014633499 0.0045562522 -0.39725393 -0.88487267 0.24328929 0.011670454
-0.043569699 0.013145952 0.0045668217 -0.49813324 -0.818434 0.28640735 0.0049299481
-0.041536283 0.012272276 0.0054028654 -0.40148503 -0.8590458 0.31756908 0.0039194296
0.047313761 0.012387946 0.0048533008 0.48561302 -0.82918745 0.27681813 0.0021244104
0.049494833 0.013503243 0.0044667604 0.50208664 -0.8140322 0.29199433 0.0024321431
0.051609293 0.014593023 0.004009156 0.50612479 -0.80824941 0.30094954 0.0024512268
-0.051220573 0.017893037 0.0036190362 -0.56555903 -0.82470679 0.0013221413 0.023504386
-0.049473457 0.016886564 0.0044662068 -0.53693628 -0.81007707 0.23553041 0.013305187
-0.04727935 0.015590409 0.0049650827 -0.54313928 -0.80704272 0.23169319 0.0080432231
0.052909877 0.015755504 0.0046555712 0.53973985 -0.79343307 0.28132707 0.0019636985
0.055201221 0.017208626 0.0042899372 0.55512381 -0.78153712 0.28467053 0.0024751441
-0.054624103 0.020645021 0.0043883142 -0.63808513 -0.73367304 0.23360504 0.01161688
-0.052593507 0.019297253 0.0048133745 -0.57863295 -0.76391393 0.28569117 0.0079429625
-0.050611544 0.018156344 0.005613348 -0.54096866 -0.77908647 0.31682357 0.0047090645
0.056461826 0.018427121 0.0050750454 0.58183521 -0.76200688 0.28427666 0.0019546782
0.058385506 0.019662224 0.004363196 0.61342531 -0.74015719 0.27545753 0.0018899433
0.060227748 0.020797299 0.0034068769 0.64183116 -0.71318799 0.28180778 0.0021837577
-0.05773716 0.023363752 0.0043174578 -0.65908098 -0.75207198 5.2914213e-05 0.021230582
-0.055859908 0.021924557 0.005074094 -0.6122511 -0.74588412 0.26230797 0.0084922519
0.059729818 0.021294899 0.0053900797 0.64110643 -0.69307595 0.329588 0.0025554739
0.06149137 0.022509841 0.0044191498 0.67991722 -0.68147475 0.27074862 0.0019244849
0.063226856 0.023765922 0.0033670564 0.70545745 -0.64578778 0.29204103 0.0021185132
-0.060559548 0.026205402 0.0047613527 -0.73715919 -0.64319867 0.20710364 0.012103535
-0.058996052 0.024769364 0.0052092141 -0.68445736 -0.68514591 0.24918506 0.0077616679
0.062713124 0.024328269 0.0054462948 0.69015193 -0.62256485 0.36892179 0.0034417808
0.06432125 0.025568468 0.0043517277 0.74319595 -0.60265499 0.29063177 0.0020218969
0.066027001 0.026903342 0.0030242461 0.76788539 -0.56991351 0.29249057 0.0021463905
-0.063376628 0.02965036 0.0046867467 -0.7547397 -0.64317656 0.12919751 0.012294432
-0.062526375 0.028761633 0.0051627904 -0.736543 -0.60964805 0.29297373 0.0050296742
0.065559059 0.027585983 0.0050289663 0.7602188 -0.56410241 0.32226679 0.0028153046
0.066787459 0.028808782 0.0042292601 0.78959453 -0.51969779 0.32627395 0.003312801
-0.064721905 0.031483341 0.0046247896 -0.80088741 -0.57785869 0.15703095 0.010912797
0.068122506 0.031324401 0.0046013719 0.82823473 -0.42667472 0.36328486 0.0031029291
0.069217987 0.032517176 0.0035228692 0.84447885 -0.42086345 0.33125442 0.0026896482
-0.066841893 0.034681343 0.0042028325 -0.8355093 -0.50290108 0.22139296 0.0066716499
-0.065926164 0.033088483 0.0039913435 -0.82536876 -0.53719389 0.17375056 0.0089546517
0.068839364 0.033651534 0.0055790418 0.82020587 -0.34477812 0.45649809 0.0024566248
0.069796294 0.034605 0.0043051853 0.86419344 -0.34696218 0.36439931 0.0038081326
-0.068405785 0.037469991 0.0044590868 -0.8513369 -0.46092546 0.25054601 0.0043021869
0.070718229 0.037491966 0.0044381642 0.89436072 -0.2507672 0.3704522 0.002831849
0.071307041 0.040307995 0.0046265488 0.90342969 -0.18271551 0.38785279 0.0031390581
0.072071873 0.041433278 0.0033150082 0.9244011 -0.1778733 0.33740735 0.0032177304
0.071573094 0.043202732 0.0049282811 0.90072155 -0.086347446 0.42572862 0.003524801
0.072192125 0.043719534 0.0035800952 0.92587048 -0.082195394 0.36879244 0.0036044894
0.071554966 0.046486501 0.0051357844 0.88398099 -0.0060358229 0.46748385 0.0034816505
0.072278567 0.046515521 0.0036092987 0.91788077 -0.021323649 0.39628306 0.0035653792
0.07147485 0.049533989 0.0052094148 0.87087399 0.015761601 0.49125344 0.0041979821
0.072300158 0.049615156 0.0036704137 0.90438175 -0.006533911 0.42667443 0.0041056201
0.071459807 0.052717805 0.0050733997 0.84690988 0.043534972 0.52995139 0.0048828153
0.072326899 0.05267857 0.0036536448 0.88638049 0.0055069919 0.46292487 0.0044732355
-0.072281063 0.056323923 0.0058588986 -0.077113606 0.31823003 0.94487208 0.0097492775
-0.064054936 0.0563186 0.0057089105 0.15474579 0.61559713 0.77271849 0.010756567
0.071221046 0.055595566 0.0049714553 0.78730482 0.068906881 0.61270136 0.0071454123
0.072336853 0.055608589 0.0035325659 0.87281919 0.033749182 0.48687544 0.0099121202
-0.070326 0.057856452 0.005733415 -0.0076303277 0.39913681 0.91685969 0.010440267
-0.067237817 0.058378905 0.0049477522 0.11907317 0.61039585 0.78309542 0.015630161
-0.063938722 0.05769375 0.0041468907 0.19803126 0.68474984 0.70135677 0.0029165386
-0.062510975 0.057276949 0.0035604048 0.1760183 0.65939152 0.73090386 0.0053249057
0.065668732 0.05783901 0.0057105818 0.189311 0.36389011 0.91200078 0.014988865
0.067684874 0.058710307 0.0055998592 0.22627507 0.26089945 0.93847275 0.0097909989
0.07088799 0.058733586 0.0046487343 0.72504878 0.064822972 0.68563992 0.010173509
0.072317652 0.058452088 0.0033924067 0.90191644 0.01478404 0.43165752 0.0209303
0.067988664 0.061489381 0.0047072018 0.1121342 0.30047002 0.94717675 0.01862862
0.071117431 0.061498474 0.0039976235 0.70780957 0.026914729 0.70589036 0.017878521
0.072400928 0.061519098 0.0032757213 0.86008167 -0.026908986 0.5094462 0.027842917
0.065760493 0.06309326 0.0032405683 -0.066459306 0.25335568 0.96508765 0.0096297152
0.068147533 0.064574987 0.00390603 0.0071563534 0.12937067 0.99157047 0.018140785
0.071149103 0.06466534 0.0037057903 0.54241902 -0.0087206867 0.84006286 0.013298354
0.072536178 0.06455221 0.0032879275 0.72558218 -0.057130177 0.6857599 0.038006499
0.068235584 0.067456953 0.0033805838 -0.1369824 0.090230398 0.98645544 0.0075972164
0.071077563 0.0675615 0.0036798965 0.37849748 -0.017229566 0.92544198 0.031135879
0.072937042 0.067640997 0.0034455776 0.56500715 -0.17100617 0.80717027 0.020002035
0.068591811 0.070170335 0.0030752274 -0.23131421 -0.016353676 0.97274166 0.013719517
0.07088609 0.070541397 0.0039564949 -0.094072357 -0.049348649 0.99434149 0.023411712
0.073614918 0.070577301 0.0037654273 0.50441831 -0.30126703 0.80919731 0.021229059
0.075189672 0.071698189 0.0032092137 0.68419415 -0.37060574 0.62811601 0.036606908
0.068876505 0.073469698 0.0031110481 -0.2409559 -0.22503899 0.94408566 0.012596702
0.070676617 0.07342732 0.0043803649 -0.12495318 -0.14460294 0.98156852 0.021985564
0.073664211 0.073362201 0.004613223 0.522053 -0.23849258 0.81889057 0.043240543
0.07555633 0.073410429 0.0036154303 0.77702552 -0.17014462 0.60603803 0.078541227
0.068952516 0.075142346 0.0034800344 -0.0062561659 -0.061089955 0.99811268 0.031374842
0.070668556 0.075263262 0.0048258114 -0.12454542 -0.27521709 0.95328069 0.029988982
0.072966173 0.07517761 0.0051521999 0.078324549 -0.3527315 0.93244076 0.071292557
-0.015057754 0.0029954589 0.0060602953 -0.22844064 -0.90586585 0.35668182 0.0093245134
-0.012854007 0.0028367667 0.0063730795 -0.16590075 -0.87831128 0.44838184 0.0011988351
-0.010354087 0.0026155992 0.006740523 -0.12187198 -0.88039756 0.45830923 0.0016014464
-0.0074210227 0.0024382847 0.0070813787 -0.084848471 -0.88083416 0.46575955 0.001755119
-0.0044560567 0.0023241038 0.0073022475 -0.050930694 -0.87942022 0.47331411 0.0017412538
-0.0015057129 0.0022185629 0.0073189843 -0.019907558 -0.87691987 0.4802241 0.0018124612
0.0014633274 0.0022224961 0.0073332242 0.0083907694 -0.87513238 0.48381081 0.0018352051
0.0044462313 0.0022749864 0.0072846599 0.043985639 -0.8749091 0.48228556 0.0015427377
0.0074702366 0.0023792225 0.0070568286 0.058871761 -0.86742818 0.49406731 0.0015812907
0.010550208 0.0025079474 0.0069158203 0.078227103 -0.86481011 0.49596775 0.00089274923
0.013277187 0.0026685821 0.0065559302 0.10366058 -0.85392696 0.50996399 0.00073624006
0.016260615 0.0028331422 0.0063187308 0.1131436 -0.85244673 0.51042444 0.00061010412
0.018331334 0.0028750617 0.0061985273 0.15764882 -0.8386066 0.52142668 0.0020794079
-0.024524966 0.0058425884 0.0063457335 -0.28683126 -0.87581939 0.38816026 0.0020578138
-0.022283198 0.0054837377 0.0070791636 -0.25857237 -0.85685307 0.44603038 0.0012137989
-0.019440291 0.0048490572 0.0074920221 -0.22893521 -0.85604203 0.46344438 0.0011445043
-0.016502282 0.0041494947 0.0075407121 -0.18969026 -0.86174256 0.47055006 0.0012331748
-0.013598092 0.003658145 0.007740438 -0.15821223 -0.85477984 0.49428767 0.0011951589
-0.010618646 0.0034125566 0.0081882486 -0.11669801 -0.85256863 0.50941968 0.0016199813
-0.0076637068 0.0032849312 0.0085491976 -0.080961272 -0.82690144 0.55648839 0.0012072743
-0.0047579948 0.0032154268 0.0087825833 -0.042236988 -0.82089061 0.56952143 0.001226229
-0.0015192205 0.0031844804 0.0088873198 -0.015053866 -0.81553692 0.57850915 0.0012423754
0.0014983051 0.0031132654 0.0088732131 0.0074694986 -0.81416112 0.58059102 0.0012927825
0.0048389747 0.0031593265 0.0087630367 0.045327697 -0.82913172 0.55721271 0.0017046196
0.0076317731 0.0033156369 0.0085819643 0.06468834 -0.81565148 0.57491565 0.0011532097
0.010610214 0.003393065 0.0083500603 0.084021315 -0.82776481 0.55474854 0.0009322376
0.01358775 0.0035740465 0.0079821544 0.11209792 -0.83418912 0.53996533 0.00064177572
0.016554616 0.0038512051 0.0077674971 0.12217776 -0.82455349 0.55243462 0.00069677155
0.01952382 0.0041440711 0.007529851 0.14985935 -0.81753266 0.5560419 0.00090117002
0.022485616 0.0046816827 0.0075142235 0.16552927 -0.8036359 0.57163739 0.0020774289
0.025411787 0.0050630155 0.0072247605 0.19200864 -0.80995774 0.55416703 0.002677558
0.028293533 0.0055050417 0.0068001249 0.22104581 -0.82236063 0.52427244 0.0031981978
0.030611157 0.0058811065 0.0063465391 0.27490646 -0.83147877 0.4827728 0.0029642719
-0.033287212 0.0089237746 0.00649748 -0.35413912 -0.8552075 0.37842521 0.0024348912
-0.031218149 0.0084968442 0.0071502994 -0.30858579 -0.84732074 0.43222973 0.001145061
-0.028521216 0.0077413586 0.0075689419 -0.29475948 -0.84412849 0.44784364 0.0011131107
-0.025658293 0.0068196501 0.0076744421 -0.27964473 -0.84995061 0.44652304 0.00086202117
-0.022919379 0.0064026709 0.0084061269 -0.2508634 -0.8375085 0.48543489 0.00096098921
-0.020522526 0.0060163555 0.0087767206 -0.22415955 -0.80042541 0.55594218 0.00050728855
0.023192219 0.0060709435 0.0089557692 0.16997714 -0.73445785 0.65702325 0.00018143919
0.026015768 0.0063726828 0.0086613521 0.17711556 -0.73493373 0.65460104 0.00032622973
0.028720314 0.0066322014 0.0081948712 0.19831644 -0.76925862 0.60738111 0.0023848449
0.031620115 0.0070446697 0.0076573864 0.23432033 -0.79884487 0.55402243 0.0027064325
0.034437705 0.0078479806 0.0074302456 0.26959911 -0.79302889 0.54627973 0.0033004277
0.037224878 0.0084921541 0.0068606082 0.32332897 -0.81565094 0.47976229 0.0027736546
0.039152678 0.0088739442 0.0061533428 0.34950897 -0.79976386 0.48807922 0.0029202017
-0.039432123 0.011783245 0.0066012139 -0.39661968 -0.81734502 0.41789958 0.001353877
-0.037303831 0.011209524 0.0075063985 -0.3746478 -0.81836247 0.43580034 0.001206373
-0.034426223 0.0098933578 0.0074956119 -0.34431386 -0.83125383 0.43642312 0.0011151554
-0.031874806 0.009431418 0.0084532881 -0.30732813 -0.83037978 0.46477824 0.0011901631
0.035383638 0.0091771493 0.0088041425 0.24685714 -0.7010358 0.66903687 0.0019092252
0.03776576 0.009567908 0.0082043661 0.28900582 -0.7533884 0.59066188 0.0022242318
0.040514763 0.010319703 0.0075231125 0.34676558 -0.79683644 0.49477804 0.0025139444
0.043238703 0.011309809 0.0071212724 0.38066432 -0.79036152 0.48002419 0.0027109284
0.04531059 0.011768651 0.0061982106 0.43671805 -0.79153275 0.42749646 0.00321737
-0.045425732 0.014902341 0.0061379024 -0.51288366 -0.79022598 0.33540031 0.0044394648
-0.043074042 0.013970527 0.0070988 -0.47087735 -0.78985578 0.3929407 0.0011791029
-0.040661708 0.012887117 0.0076682563 -0.40921515 -0.80158746 0.43589053 0.0013040499
-0.038548093 0.01239816 0.0085953996 -0.38925326 -0.79459053 0.46594819 0.00096103828
0.044030029 0.012465828 0.0083444612 0.35223189 -0.76350361 0.5412901 0.0032507945
0.046565298 0.01332821 0.0075191837 0.42042175 -0.77286184 0.47532114 0.0020236548
0.049091268 0.014364797 0.0068932679 0.4627443 -0.75514513 0.46435279 0.0018342078
-0.048612088 0.017396946 0.0070135877 -0.51788241 -0.74602991 0.41861328 0.0012939972
-0.046383735 0.016173868 0.0073354212 -0.28794342 -0.74764174 0.59843165 0.0054152571
-0.044242669 0.015403665 0.0083968611 -0.46153241 -0.75797045 0.46094325 0.0010420064
0.047878217 0.015081454 0.0088643078 0.39439911 -0.67027193 0.62863731 0.0015968303
0.049925316 0.015626844 0.0080499751 0.4411594 -0.74095809 0.50631952 0.0033027977
0.052330639 0.016755911 0.0073190928 0.48671979 -0.73289067 0.47536826 0.0021032591
0.054470915 0.017671404 0.0064752731 0.51362169 -0.72316629 0.46176112 0.0013219427
-0.052257046 0.020253865 0.0073363157 -0.54385674 -0.72037375 0.43044338 0.0012107585
-0.049932379 0.018814914 0.007824501 -0.52522147 -0.7373544 0.42479518 0.00098261121
0.05346946 0.0184082 0.0084755262 0.49394646 -0.65562332 0.57111722 0.0019810267
0.055611607 0.019289091 0.0075692846 0.51252574 -0.69995236 0.4973771 0.0028714063
0.057707381 0.020332443 0.0067337132 0.56976455 -0.66389954 0.48436126 0.0015802522
-0.057411358 0.023799617 0.0062497198 -0.66041648 -0.68995482 0.29633167 0.012343839
-0.055391997 0.022734635 0.0073798057 -0.58919472 -0.69462335 0.41273239 0.0010203508
-0.05340182 0.021487169 0.0080404691 -0.55665481 -0.7142213 0.42429155 0.0011192469
0.056684099 0.021099478 0.0086815394 0.54420549 -0.63509959 0.54816866 0.0021138743
0.058780838 0.022124389 0.0077623338 0.57645148 -0.63324225 0.51643765 0.0028343841
0.06075212 0.023236975 0.0068482994 0.61305249 -0.60240352 0.51115227 0.0012329103
-0.060035571 0.026520396 0.0064375256 -0.67898071 -0.60099518 0.42165148 0.0016510917
-0.058283616 0.025490258 0.0075462228 -0.62663269 -0.6395244 0.44535366 0.0013926867
-0.056415666 0.024338068 0.0085280482 -0.58082277 -0.65282077 0.48628181 0.0018498624
0.059814729 0.024213709 0.0087874224 0.59191883 -0.5598582 0.5798198 0.0014729905
0.061841082 0.025252515 0.0077453554 0.6460371 -0.54367936 0.5357694 0.0039193109
0.063582748 0.026237288 0.0066810027 0.67231387 -0.55012071 0.49533942 0.0021832164
-0.061151613 0.028503962 0.0073460806 -0.68107688 -0.55002367 0.48333037 0.0017472855
-0.05969578 0.027517388 0.0082684513 -0.64437711 -0.58089787 0.49732876 0.0017395841
0.062693037 0.027233353 0.0087052276 0.62488484 -0.49356559 0.60490668 0.0021469486
0.064535707 0.028425122 0.0074942503 0.70543748 -0.45504621 0.54340684 0.0025503731
0.066274673 0.029628305 0.0063369293 0.72511852 -0.46096918 0.51157653 0.0022596268
-0.063738853 0.03150557 0.0069027068 -0.71431255 -0.46519107 0.52283353 0.0022988748
-0.062248122 0.030844174 0.0084262826 -0.67928618 -0.46179533 0.57036424 0.0030220149
0.065481208 0.030890165 0.0083043417 0.68209153 -0.36240476 0.63514882 0.0016741691
0.066879973 0.031755123 0.0070946976 0.73319906 -0.40263882 0.54799742 0.0026887513
-0.066406876 0.03502338 0.0062375758 -0.77027261 -0.45867833 0.44305113 0.0033770194
-0.064832039 0.034149546 0.0077397786 -0.74926382 -0.44270381 0.49256185 0.0067365216
0.065987445 0.033130098 0.0088333022 0.67254418 -0.32810611 0.6633482 0.0041646482
0.067727454 0.034427781 0.0076311324 0.7581473 -0.30145389 0.57821977 0.0022859559
0.069148622 0.035375852 0.0061892024 0.8004083 -0.32242656 0.50535887 0.0022319991
-0.066519365 0.036528602 0.0071952716 -0.76084638 -0.38077942 0.52547103 0.0050938465
-0.06546174 0.036598016 0.0086739454 -0.72071862 -0.39315388 0.57095951 0.0067761755
0.068330437 0.037352804 0.0081739239 0.75650865 -0.20846166 0.61986971 0.0024030295
0.069485351 0.03750772 0.0067413761 0.80004525 -0.23079289 0.5537709 0.0023550107
-0.067923188 0.039237928 0.0069611981 -0.83269948 -0.31790814 0.45337188 0.0075995973
0.068614066 0.040234398 0.008608263 0.67997837 -0.11219969 0.72459686 0.0024213206
0.069933906 0.040513758 0.0070564137 0.79968375 -0.13782084 0.58438963 0.0025178187
0.068749286 0.043514844 0.0087784296 0.68594015 -0.024154369 0.72725701 0.0028636819
0.070083551 0.043419417 0.0072877929 0.78994578 -0.045869522 0.61145866 0.0028329089
-0.067706488 0.047415774 0.0089071011 -0.36287826 0.19750026 0.91066629 0.0021693734
-0.045370944 0.047606867 0.0072238529 0.35340148 0.72893178 0.58631551 0.00013288666
-0.044652727 0.047290653 0.0071424167 0.34837312 0.728953 0.58929092 7.9959456e-05
0.068691932 0.046370011 0.0087618362 0.67348284 0.08098045 0.73475373 0.0064588101
0.070101142 0.046355009 0.0072513279 0.75993508 0.035793111 0.6490128 0.0036208583
-0.069121815 0.049854752 0.0079371836 -0.31272736 0.21241072 0.92578793 0.0038752405
-0.067754626 0.049482699 0.0086945333 -0.35237169 0.1982893 0.91461229 0.002643771
-0.054482926 0.050826076 0.0085527385 0.23038971 0.69107562 0.68508041 0.0012894839
-0.052476082 0.050514944 0.0078243483 0.28580201 0.70956445 0.6440773 0.00095686334
-0.049670365 0.049812656 0.0070813163 0.33057767 0.70869428 0.62327433 0.00078600354
-0.047029242 0.048436742 0.007210975 0.35135031 0.72985327 0.58640188 0.00012709646
0.068281412 0.049281012 0.0085259648 0.57215691 0.14964113 0.80637705 0.0053314143
0.070170797 0.049284983 0.0069271773 0.74407196 0.06229382 0.66518903 0.0045708665
-0.070035055 0.052433793 0.0072216499 -0.23823054 0.24423908 0.93999654 0.002022679
-0.067184575 0.052737217 0.0081195645 -0.20601946 0.30828097 0.92871892 0.007487034
-0.06462317 0.052315515 0.008647033 -0.16612458 0.4230935 0.89072698 0.0088432562
-0.061800547 0.053062569 0.0080618216 0.068860605 0.60589737 0.79255706 0.0019371245
-0.058568228 0.052489273 0.0079690171 0.11718144 0.65477598 0.74668396 0.0013845064
-0.056696717 0.052458402 0.0074718576 0.20731299 0.70121533 0.6821425 0.0014342417
-0.053246565 0.051848724 0.0065573417 0.26332399 0.72402608 0.6375317 0.0011474758
0.065241717 0.052317057 0.0085804788 0.24634723 0.34301016 0.90645307 0.0053020008
0.067875803 0.052140236 0.0080139451 0.51598579 0.20177665 0.83249319 0.0067420094
0.070099972 0.052053753 0.0066681807 0.74707019 0.066816121 0.66137856 0.0057211728
-0.070535496 0.055090219 0.0066436543 -0.077082328 0.31820038 0.9448846 0.0097585488
-0.067834869 0.055760752 0.0068043522 -0.0076391199 0.39913151 0.91686195 0.010442168
-0.064874314 0.054980543 0.0070206174 0.10936992 0.57934207 0.80771351 0.0054500746
-0.061533183 0.054769635 0.0063207513 0.10505324 0.65915233 0.74463552 0.0050488561
0.064827286 0.05505722 0.0070669726 0.21642944 0.346542 0.91272503 0.0080601266
0.06782037 0.055485863 0.0068664625 0.26950186 0.33880845 0.90143085 0.012451552
0.069661319 0.054835342 0.0063936561 0.63740861 0.16172029 0.75336367 0.005448943
-0.070486568 0.057348847 0.0060279737 -0.0076055704 0.39903995 0.91690207 0.010460407
0.068103552 0.057551071 0.006121316 0.22618727 0.26090899 0.93849128 0.0098014381
-0.018668359 0.0057972837 0.0093559148 -0.21797016 -0.79934818 0.55993885 0.00081165746
-0.016346693 0.0055094748 0.0096968031 -0.17741479 -0.79718506 0.57707876 0.00083780679
-0.013462096 0.0051988657 0.010061245 -0.1431787 -0.78930032 0.59708029 0.0010562409
-0.010462493 0.0049358946 0.010320962 -0.10122686 -0.78454703 0.6117509 0.0012757616
-0.0074368976 0.0047417548 0.010481786 -0.073007308 -0.770253 0.63354576 0.0014236815
-0.0044761286 0.0045935609 0.010554333 -0.033271991 -0.76770717 0.63993651 0.0011811202
-0.0014930367 0.0045233723 0.010528926 -0.012544307 -0.77078402 0.63697302 0.0010471545
0.0014952287 0.0045501459 0.010561691 0.010644467 -0.75727493 0.65300941 0.0013995363
0.0045010569 0.0045530829 0.010496867 0.038434062 -0.7549426 0.65466356 0.0018039144
0.0074822032 0.0047654621 0.010464684 0.06445238 -0.75276506 0.65512651 0.0017139536
0.010543652 0.0047704466 0.010228782 0.086025536 -0.75768393 0.64692718 0.0013476514
0.013505354 0.0050681322 0.010112382 0.11372265 -0.75418192 0.64674324 0.0013344235
0.016447702 0.0053247325 0.009836386 0.13238022 -0.76465607 0.63069528 0.00087867893
0.019273931 0.0056060082 0.0094386907 0.1527838 -0.75370234 0.63921034 0.0005611282
0.02168184 0.0058536506 0.0091188708 0.16014314 -0.74692947 0.64532977 0.00042443082
-0.027617881 0.0085443817 0.0094288616 -0.27478242 -0.80601156 0.52425188 0.00064061064
-0.025230808 0.0082426621 0.010148962 -0.2501967 -0.78771389 0.56294614 0.00089872023
-0.022454148 0.0077185058 0.010535207 -0.21254312 -0.78646916 0.57990658 0.0015244059
-0.019577025 0.0069589731 0.010632862 -0.20379288 -0.78395545 0.58641469 0.00083263655
-0.016632842 0.0066031534 0.011139725 -0.15803508 -0.7752474 0.61156887 0.0011808715
-0.013819613 0.0063816179 0.011539727 -0.12433319 -0.71731997 0.68556064 0.0014012555
-0.010893836 0.0062166196 0.011834826 -0.086494103 -0.7003271 0.70856243 0.0013855924
-0.0081059914 0.0060674697 0.011930162 -0.048725519 -0.72142637 0.6907748 0.0017332272
0.0079945019 0.0060786167 0.011868369 0.052416857 -0.69788402 0.71429008 0.0023236228
0.01057747 0.0061584706 0.011694578 0.073818125 -0.70446968 0.70588481 0.0020064421
0.013660158 0.0064967633 0.011619463 0.10384645 -0.69901931 0.70752239 0.001874735
0.016683383 0.0067355582 0.011377364 0.13291915 -0.70558077 0.69605196 0.0016508809
0.019608697 0.0069538974 0.010940152 0.15589368 -0.70868433 0.68808693 0.00091510237
0.022536159 0.0073064622 0.010553596 0.17194457 -0.69996911 0.69316542 0.001057681
0.025385687 0.0077578933 0.010239291 0.18433535 -0.69774455 0.69222325 0.00068172673
0.02840168 0.0081315404 0.0098454366 0.19585139 -0.70079243 0.68595356 0.00058460532
0.031363275 0.0085144117 0.0094733015 0.20983517 -0.70915222 0.67310649 0.0012130748
0.033714548 0.0088463984 0.0091037396 0.24291323 -0.72272754 0.64703798 0.0014081938
-0.036373951 0.011754951 0.0092764106 -0.37142429 -0.77657658 0.50889379 0.00066801655
-0.034100264 0.011330359 0.010054915 -0.33320782 -0.77149284 0.54200679 0.00063865265
-0.031480882 0.010653175 0.010521953 -0.28855836 -0.78310055 0.55089712 0.0010433669
-0.028609773 0.0097837932 0.010734531 -0.26471472 -0.78005487 0.56695729 0.00086162548
-0.025967749 0.0094212219 0.011517833 -0.23025361 -0.73826414 0.63399476 0.0011065971
-0.023768783 0.0091146091 0.011918258 -0.22053358 -0.72184271 0.65597868 0.0017818172
0.025915032 0.0093231061 0.011672315 0.18421422 -0.66572803 0.7230984 0.00049033033
0.028615363 0.0097692907 0.011299404 0.1914385 -0.64989972 0.73551458 0.00056908251
0.031539988 0.010206611 0.010895976 0.20007339 -0.62951851 0.75078428 0.00032000744
0.034441546 0.010494358 0.010384171 0.22657806 -0.66247565 0.71399474 0.0015604567
0.037408121 0.010987259 0.0099395178 0.265643 -0.68173784 0.68166506 0.0020167984
0.040031705 0.011566904 0.0094349338 0.30504203 -0.68631291 0.66024536 0.0021934723
-0.042207792 0.014720072 0.0092853839 -0.42965487 -0.73021281 0.53121179 0.00064483774
-0.04004759 0.014158751 0.010141117 -0.39520174 -0.74335736 0.53966224 0.0011538175
-0.03751738 0.013236075 0.010522623 -0.35427433 -0.75540143 0.55123353 0.00077541225
-0.034884084 0.012507888 0.011227794 -0.31886128 -0.73943102 0.59293282 0.0012082941
0.034997065 0.012290345 0.011694208 0.20880102 -0.61412519 0.76108629 0.00043831734
0.037678856 0.012767721 0.01132952 0.22878687 -0.598077 0.76808882 0.00085082656
0.040614266 0.013298308 0.010799788 0.2574338 -0.59848017 0.75864971 0.00085379323
0.043395177 0.013795936 0.010141399 0.33380708 -0.66263074 0.67044264 0.0022218097
0.045904595 0.014457236 0.0094715189 0.38346699 -0.6655826 0.64027554 0.0029089509
-0.045948777 0.017317239 0.0095768133 -0.47007272 -0.7190367 0.51187688 0.0017625549
-0.043647181 0.016554793 0.010475025 -0.44740766 -0.72120774 0.52885336 0.00079961756
-0.040938355 0.015538994 0.011348019 -0.39960718 -0.71261406 0.57662398 0.00075378036
0.041598529 0.01515622 0.01191995 0.24840789 -0.56984633 0.78330624 0.00065932493
0.043794621 0.015708843 0.011553268 0.2878617 -0.55835688 0.77805746 0.0012567063
0.046648245 0.016273126 0.01076381 0.33410639 -0.58001316 0.74293852 0.0012076943
0.049299706 0.016935572 0.0099815568 0.40882304 -0.64160901 0.64900047 0.0026790928
0.051522318 0.017707257 0.0093049416 0.45409548 -0.65102839 0.60824287 0.0018581663
-0.05134277 0.020922776 0.0094271377 -0.50010753 -0.67125845 0.54708731 0.00088092609
-0.049197726 0.019967508 0.0101653 -0.49252418 -0.68008345 0.54305291 0.00086696103
-0.046817552 0.018806651 0.010883389 -0.46656108 -0.69006079 0.55329639 0.0013847349
-0.044820119 0.01818813 0.011784405 -0.43033436 -0.66876918 0.60626733 0.0026067849
0.047484364 0.01822206 0.01187682 0.31832969 -0.54860228 0.7731117 0.0011182909
0.04983132 0.018921087 0.01132039 0.35858822 -0.52603233 0.77117085 0.0012811864
0.052440211 0.019581331 0.010363236 0.41598934 -0.57509595 0.70442712 0.0025861079
0.054813012 0.02033961 0.0095487814 0.48961809 -0.61325788 0.61982965 0.0022373023
-0.05438783 0.0235734 0.0096877636 -0.53789955 -0.63161331 0.55832672 0.00095355231
-0.05236876 0.022576291 0.01043992 -0.51038539 -0.65511668 0.55707175 0.0013058173
-0.050147928 0.021594387 0.011295825 -0.47085541 -0.6488803 0.59770346 0.0017711329
0.05313389 0.021658497 0.011599675 0.38366067 -0.47891584 0.78958482 0.0013030496
0.055590156 0.022404967 0.010588348 0.4526794 -0.49242282 0.74337149 0.0012336938
0.057966072 0.023165831 0.0095795542 0.52871364 -0.55125511 0.64542985 0.0020139778
-0.057625461 0.026439961 0.0095101073 -0.60907876 -0.5757575 0.54545987 0.00087803195
-0.055521142 0.025375362 0.010511944 -0.55970854 -0.59521723 0.5765785 0.0020201534
-0.053559355 0.024652597 0.011661418 -0.5255 -0.56952882 0.63204956 0.0016885153
0.056263011 0.024671277 0.011661719 0.41616899 -0.41372758 0.80971152 0.0016553643
0.058589499 0.02538217 0.010665591 0.47509563 -0.45380563 0.75388628 0.0013511927
0.060809951 0.026114514 0.0095526138 0.57656759 -0.49950802 0.6465767 0.001691672
-0.060249791 0.029419694 0.0094566839 -0.62441838 -0.50807089 0.59326696 0.0025786958
-0.058582902 0.028493777 0.010380388 -0.60400915 -0.49566236 0.62409276 0.0015621437
-0.056799214 0.027444441 0.011285065 -0.57534659 -0.5287866 0.62398803 0.0010179696
-0.0071108299 0.029832536 0.010719285 0.14180508 0.65112394 0.74560648 0.00058094191
-0.0035852646 0.029239995 0.010727611 0.11935437 0.66044736 0.7413258 0.00077468192
