# .PCD v0.7 - Point Cloud Data file format
VERSION 0.7
FIELDS x y z normal_x normal_y normal_z curvature
SIZE 4 4 4 4 4 4 4
TYPE F F F F F F F
COUNT 1 1 1 1 1 1 1
WIDTH 542
HEIGHT 1
VIEWPOINT 0 0 0 1 0 0 0
POINTS 542
DATA ascii
0.039843407 0.02492395 -0.079451121 0.15722331 0.98754978 -0.005127775 0.00035373884
0.016655756 -0.072400376 -0.076447621 -0.26183787 -0.96465582 0.029664727 0.00034100481
0.019547559 -0.073104829 -0.076516241 -0.2102872 -0.97721481 0.028819378 0.0003993095
0.022523049 -0.073600382 -0.076512031 -0.14915581 -0.98839247 0.02885823 0.00034709991
0.025507275 -0.073922783 -0.076500133 -0.074827187 -0.9967429 0.030075826 0.00030266671
0.028461255 -0.07409732 -0.076485455 -0.035571352 -0.99879402 0.033842556 0.0003325268
0.031494498 -0.074111357 -0.076526351 0.025654184 -0.99928343 0.027831204 0.00048325694
0.034517474 -0.073956579 -0.076489441 0.092824854 -0.99519062 0.031291466 0.00041695155
0.037410699 -0.073576875 -0.076476984 0.17444898 -0.98430264 0.026757555 0.0003648444
0.040428273 -0.072973058 -0.076554894 0.21951991 -0.97524428 0.026638288 0.00034627132
0.042999886 -0.072323129 -0.076420337 0.27281895 -0.96190089 0.017790612 0.0002394761
0.0082996255 -0.069295913 -0.07644026 -0.4338783 -0.90003586 0.041049995 0.0006822102
0.010501368 -0.070233569 -0.076404244 -0.38129658 -0.92373478 0.036427464 0.00034227053
0.013476882 -0.071437284 -0.076485112 -0.33374745 -0.9419747 0.036004599 0.00049785519
0.01520996 -0.07193552 -0.076514684 -0.29234269 -0.95559001 0.037196428 0.00051842426
0.044635057 -0.071830526 -0.076434411 0.292568 -0.95599425 0.021885535 0.0002254814
0.046598241 -0.071165569 -0.07667546 0.33778194 -0.94106334 0.017412215 0.00017780933
0.049335852 -0.070118949 -0.07676328 0.38436016 -0.92304522 0.015963145 0.00024371003
0.051253136 -0.069251373 -0.076170728 0.43918276 -0.89797598 0.027526105 0.00034110586
0.0027608711 -0.066123299 -0.0766486 -0.5514273 -0.83357626 0.032840975 0.00038605399
0.0048162322 -0.067374684 -0.076237068 -0.5155583 -0.85616165 0.034450747 0.00049043726
0.006722711 -0.06845092 -0.076838069 -0.48613268 -0.87308758 0.037325613 0.00051190844
0.052903891 -0.068427823 -0.076324247 0.46073577 -0.88728142 0.021312773 0.00030502392
0.055319287 -0.067101315 -0.076620057 0.50373036 -0.86373752 0.01460202 0.00024190525
-0.00080118247 -0.06365259 -0.0765526 -0.61205041 -0.78989273 0.03825926 0.00057253148
0.0012058542 -0.065021209 -0.076473147 -0.57422805 -0.8179599 0.03469602 0.00036421083
0.058223244 -0.065195501 -0.076288521 0.53864485 -0.84185606 0.033764869 0.00026361994
-0.0039101397 -0.06088838 -0.076502085 -0.68290597 -0.72977662 0.032642722 0.00035604605
-0.0020375426 -0.062569849 -0.076530628 -0.64826614 -0.76052505 0.036778312 0.00049823249
-0.0067561171 -0.057922691 -0.076500535 -0.74458843 -0.66676712 0.031776272 0.00024203067
-0.0055126809 -0.059297811 -0.076529555 -0.72041667 -0.69278115 0.03246833 0.00030363357
-0.0094797006 -0.054767247 -0.076522678 -0.78419781 -0.61967254 0.032245904 0.00038196836
-0.0082104355 -0.056245279 -0.076478489 -0.75931245 -0.64988506 0.033077661 0.00021342041
-0.01209259 -0.051195301 -0.076865122 -0.83482182 -0.5497933 0.028281935 0.0003847465
-0.011029958 -0.052653413 -0.076456748 -0.82224476 -0.56817853 0.032966167 0.00036650433
-0.013034846 -0.049470093 -0.076519974 -0.86360323 -0.503295 0.029726742 0.00033757254
-0.015197493 -0.045323119 -0.076694973 -0.90062624 -0.43361884 0.029105602 0.00034838801
-0.014450893 -0.04686819 -0.076513767 -0.88888651 -0.45739052 0.02597443 0.00034021112
-0.015958954 -0.043506693 -0.076475225 -0.92428952 -0.38055733 0.029411124 0.00014568363
-0.017149966 -0.04048498 -0.076468289 -0.93625623 -0.34960759 0.034623913 0.00012243459
-0.018325444 -0.037048165 -0.076563247 -0.96157956 -0.27284381 0.030347688 0.00036026226
-0.017794479 -0.038406335 -0.076276809 -0.95362562 -0.29886913 0.035713632 0.00037402345
-0.018966787 -0.034420583 -0.076594085 -0.97760433 -0.20787303 0.032841444 0.00036360414
-0.019486438 -0.031481337 -0.076440342 -0.98767132 -0.15342973 0.031058598 0.00026930196
-0.019825527 -0.028496014 -0.076451957 -0.99577588 -0.084676437 0.035502125 0.00026114332
-0.020027502 -0.025512347 -0.076463528 -0.99855369 -0.040669054 0.035164744 0.00029221378
-0.020101482 -0.02259074 -0.076528512 -0.99953562 0.0091066901 0.029077662 0.00047756184
-0.01990184 -0.019511009 -0.07636708 -0.99447709 0.10278881 0.021209167 0.00030519959
-0.019446895 -0.01646967 -0.076457642 -0.98426664 0.1759968 0.015631424 0.00018375168
-0.018857487 -0.013540181 -0.076569386 -0.97563648 0.2189713 0.013602748 0.00014755454
-0.018249845 -0.011069677 -0.076582976 -0.96409887 0.265228 0.012939474 0.00014380265
-0.017781001 -0.0098343994 -0.076729551 -0.95777655 0.28700545 0.017087551 0.0002019293
-0.01715217 -0.0074843508 -0.076478541 -0.94163465 0.33638373 0.013044893 0.00025922962
-0.015975563 -0.0045415079 -0.076511838 -0.92056715 0.39047974 0.0090370076 0.0002377192
-0.015137907 -0.00274864 -0.077106506 -0.88470936 0.46613419 0.0028665911 0.0003598422
-0.014422213 -0.0013046252 -0.07661429 -0.87853444 0.47763386 0.0065666107 0.00029892501
-0.012735825 0.0015211893 -0.076807298 -0.8548007 0.51885718 0.010146816 0.00026137425
-0.011903496 0.0026813205 -0.07608106 -0.83830911 0.54508686 0.010866798 0.00017774732
-0.011048558 0.0038051612 -0.076989166 -0.83326519 0.55273253 0.012486255 9.8609707e-05
-0.0092156492 0.0062487922 -0.076337099 -0.79433429 0.60708749 0.021857765 0.00010923197
-0.007923061 0.0082244892 -0.076640397 -0.7954427 0.60520953 0.031501729 0.00029889451
-0.0064587784 0.0097821439 -0.07641416 -0.74419856 0.6672858 0.029969869 0.0004541231
-0.0050948299 0.011171411 -0.07645981 -0.69930398 0.71450227 0.021457788 0.0002754516
-0.0036869384 0.012553326 -0.076508015 -0.68094087 0.73213536 0.017245864 0.00023328952
-0.001924158 0.014094144 -0.076572321 -0.64178252 0.76673079 0.015462006 0.00018129453
-0.00028302727 0.015419989 -0.076634459 -0.61325574 0.78960329 0.021073394 0.00015710456
0.0014083523 0.016705154 -0.076656625 -0.57894272 0.81504631 0.022908576 0.00019391002
0.0030077756 0.017835572 -0.076511249 -0.55889624 0.82887506 0.024519023 0.00027391489
0.0047397125 0.018900804 -0.076329365 -0.50782871 0.8611452 0.023215689 0.00030655079
0.007546369 0.020453855 -0.076448046 -0.46158755 0.88674122 0.025038939 0.00035109231
0.010344296 0.021768197 -0.076571189 -0.38264227 0.92351222 0.02664914 0.00037927806
0.013458947 0.022967238 -0.076596171 -0.34114563 0.93950683 0.030767348 0.00021183163
0.015841741 0.023762802 -0.07612168 -0.29485819 0.9549545 0.033475533 0.0002753289
0.017080627 0.024172336 -0.07648167 -0.26780018 0.96284521 0.034816433 0.00039752133
0.019628908 0.024794769 -0.076484986 -0.20797187 0.97760278 0.032256596 0.00031138124
0.022686416 0.025317585 -0.076634757 -0.1598971 0.98627496 0.041166075 0.00045891994
0.025361827 0.02568748 -0.076503865 -0.10384359 0.99423957 0.026536828 0.00054657698
0.028703487 0.025894174 -0.076407403 -0.030824518 0.99922645 0.024421405 0.00039371155
0.031826541 0.025897605 -0.076567322 0.012975238 0.99933761 0.034000181 0.00035764914
0.034149464 0.025843818 -0.076418348 0.069489352 0.99664879 0.043156326 0.00073846494
0.038416214 0.025292968 -0.076646328 0.14695187 0.98874515 0.028075961 0.00038714067
0.039408486 0.025036406 -0.075067222 0.13811308 0.98976052 0.036040574 0.00053182314
0.016853712 -0.072289176 -0.07373333 -0.26743478 -0.96138644 0.064921625 0.00029366717
0.019440573 -0.072905898 -0.073501207 -0.21164905 -0.97535658 0.062323801 0.0003417221
0.022481371 -0.073468611 -0.073513433 -0.15972938 -0.98540115 0.058916476 0.00053307688
0.025424078 -0.073782995 -0.073475018 -0.089398235 -0.99502403 0.043989446 0.00085761672
0.028512157 -0.073932096 -0.073543921 -0.012603357 -0.99798983 0.062108934 0.00026827946
0.031491 -0.073928587 -0.073460527 0.036133368 -0.99725282 0.064662009 0.00039234647
0.034319013 -0.073816493 -0.073566295 0.073556602 -0.99471128 0.071686596 0.00064053119
0.03736807 -0.073378846 -0.073463291 0.17042114 -0.98278803 0.071304418 0.00033556914
0.040393125 -0.072808303 -0.073559284 0.21477418 -0.97469604 0.061964851 0.00025752734
0.042832099 -0.072228089 -0.073632866 0.2648333 -0.96270907 0.055268969 0.00022834787
0.0086194947 -0.069214992 -0.074077904 -0.4420251 -0.89435512 0.068868414 0.00040219465
0.010476175 -0.069969043 -0.073435247 -0.39186543 -0.9170633 0.073731668 0.00027527651
0.013462786 -0.071156897 -0.07337676 -0.33793598 -0.93853283 0.070394784 0.0002430664
0.015477046 -0.071813561 -0.073033497 -0.28097153 -0.95689487 0.073533356 0.00024535955
0.044251956 -0.071810991 -0.073387228 0.28836456 -0.95588756 0.055900708 0.00027682167
0.046509735 -0.071067527 -0.073503315 0.33433798 -0.94094515 0.053295374 0.00022630036
0.049274042 -0.069974251 -0.073316343 0.3857539 -0.92059004 0.060892865 0.00022827808
0.051170342 -0.069151364 -0.073284447 0.43469268 -0.89762962 0.072824039 0.00062429602
0.0028618029 -0.066078782 -0.074041888 -0.55154562 -0.83077198 0.074935637 0.00026215275
0.0046132966 -0.066980578 -0.073464848 -0.52549297 -0.84863073 0.060687099 0.00061326212
0.0072543551 -0.068417437 -0.073355138 -0.45747611 -0.88569307 0.079141147 0.00025907267
0.052372746 -0.068515822 -0.073224574 0.45634454 -0.88711077 0.069167353 0.00031282281
0.054985326 -0.067123622 -0.073647514 0.50418442 -0.86120409 0.064230494 0.00041164388
-0.00072440977 -0.063399725 -0.07382483 -0.61904007 -0.78179973 0.074690141 0.00033789474
0.00143848 -0.064862795 -0.073448673 -0.56884891 -0.81846881 0.080745183 0.00026562184
0.0033291187 -0.065881774 -0.072342537 -0.55547976 -0.82986373 0.052616481 0.0011361075
0.058354735 -0.064770855 -0.073250465 0.53841913 -0.84238267 0.022279946 0.0010754082
-0.0038268191 -0.060671505 -0.073552676 -0.68061888 -0.72953975 0.067302831 0.00030873198
-0.0021007403 -0.062184677 -0.07340505 -0.6484381 -0.75756288 0.07501062 0.00033909929
0.060992409 -0.062825829 -0.073443942 0.54721791 -0.83667618 0.022923768 0.00079931173
-0.0066480539 -0.057774793 -0.073559009 -0.73366755 -0.67741096 0.053351063 0.00028398429
-0.005340558 -0.059252556 -0.073476687 -0.7092728 -0.70224994 0.06145779 0.00036151029
-0.0094489865 -0.054501783 -0.073551796 -0.7898404 -0.61064267 0.057162467 0.00038613111
-0.0081605222 -0.055984661 -0.073406808 -0.76290011 -0.64438438 0.052461412 0.00020387408
-0.012153886 -0.05111523 -0.074121319 -0.83183044 -0.55145139 0.062924765 0.00031227397
-0.010853116 -0.052543569 -0.073440216 -0.82025898 -0.56841087 0.063909151 0.00023605779
-0.012941592 -0.049339484 -0.073598146 -0.86353147 -0.50058401 0.061066836 0.0002530608
-0.011848722 -0.050715119 -0.072798386 -0.83447361 -0.54830587 0.054904286 0.00035875512
-0.015171561 -0.04522647 -0.074239321 -0.90134507 -0.43038762 0.04840992 0.00026186381
-0.014357221 -0.046634927 -0.073425412 -0.88875306 -0.45459744 0.058815081 0.0002709477
-0.015845725 -0.043464616 -0.07349246 -0.92166048 -0.38488212 0.049069218 0.00023647689
-0.017000495 -0.04050127 -0.073421068 -0.93787885 -0.34310818 0.051576022 0.00016140523
-0.018243983 -0.036860738 -0.07375738 -0.9592967 -0.27660227 0.056930773 0.00034108397
-0.017759873 -0.038320821 -0.073282577 -0.95387459 -0.29444826 0.058510564 0.00028041055
-0.01882343 -0.034467384 -0.073576473 -0.97549635 -0.21379991 0.051928338 0.00031288798
-0.019302955 -0.031459305 -0.07342758 -0.98573166 -0.1607137 0.050040521 0.00044728818
-0.019668296 -0.028534256 -0.073376469 -0.99481672 -0.097526886 0.028779525 0.00057139248
-0.01984084 -0.025494933 -0.073406488 -0.99875081 -0.040494032 0.029278072 0.00069226028
-0.019933766 -0.022478504 -0.073449023 -0.99909949 0.024712797 0.034486774 0.00066172081
-0.019795887 -0.019518057 -0.073408283 -0.99540633 0.090215117 0.032056317 0.00072302477
-0.019380528 -0.016547887 -0.073403567 -0.98380691 0.17588283 0.034485225 0.00026594856
-0.018785492 -0.013502411 -0.073469587 -0.97587252 0.21673168 0.026459588 0.00022318412
-0.018271321 -0.011356626 -0.073859863 -0.96137673 0.27392736 0.026805697 0.00031560598
-0.017805157 -0.0098588001 -0.073454261 -0.95447659 0.29668337 0.030877987 0.00031501334
-0.017060153 -0.0075742044 -0.073470823 -0.94204432 0.33378902 0.033724964 0.00020014704
-0.015941467 -0.004622268 -0.073498808 -0.9209227 0.38854346 0.030585386 0.0004137246
-0.015118609 -0.0027105873 -0.074060157 -0.89235872 0.45072964 0.023209766 0.00032740083
-0.01399471 -0.00080709782 -0.07300429 -0.8753438 0.4833833 0.01066392 0.00040847503
-0.012785365 0.0012739727 -0.072958007 -0.86233622 0.50618917 0.012196803 0.00042134957
-0.01169947 0.0027867574 -0.072770908 -0.83612722 0.54848796 0.0072280746 0.00036246027
-0.010524983 0.0044342573 -0.073281638 -0.80168205 0.59755838 0.015165219 0.000432742
-0.0092344573 0.0061677676 -0.074019343 -0.78630614 0.61732101 0.025248207 0.00019954724
-0.0078934208 0.0077166916 -0.073342904 -0.77388251 0.63224214 0.037091404 0.00026004628
-0.0064164703 0.0095664654 -0.073525377 -0.74419802 0.66687381 0.038061298 0.0003984482
-0.005125518 0.010955501 -0.073422886 -0.73396027 0.67821288 0.036464859 0.00044798199
-0.0035982004 0.012494093 -0.073584497 -0.68635708 0.72635287 0.036408167 0.00046243248
-0.0018162346 0.014009469 -0.073527947 -0.6322208 0.77375627 0.039977424 0.00010390858
-0.00030298013 0.015294729 -0.073868953 -0.60536695 0.79458678 0.046506159 0.00014773598
0.0014183697 0.016553016 -0.073617399 -0.57386559 0.81733322 0.051426485 0.00015795074
0.0031867742 0.017781733 -0.073738806 -0.55971754 0.82693589 0.053790059 0.00013432813
0.0047869552 0.018759811 -0.073422089 -0.51309747 0.85683054 0.050719298 0.00025796081
0.0075273728 0.020270744 -0.073318414 -0.46577704 0.88376826 0.044782285 0.00036519128
0.01057502 0.021702349 -0.073507845 -0.37671191 0.92551231 0.038925335 0.00069424062
0.013491283 0.022846408 -0.073727027 -0.32670844 0.94443637 0.036077317 0.00032520204
0.016123746 0.023647012 -0.073399231 -0.28159901 0.95850086 0.044476051 0.00032014973
0.017854117 0.024203518 -0.074063294 -0.2485794 0.96736938 0.049039785 0.00094009383
0.019444007 0.024522057 -0.0733677 -0.22234525 0.9743436 0.034888454 0.00073399534
0.022297392 0.025074946 -0.073546 -0.16581337 0.98547262 0.03673809 0.0005117628
0.025492668 0.025458893 -0.073534019 -0.098139152 0.99467164 0.031576395 0.00025111428
0.02836645 0.025709499 -0.073470399 -0.020972127 0.99870437 0.046365418 0.00056168006
0.031462964 0.025718261 -0.07360927 0.046305358 0.99727434 0.05744303 0.00089735101
0.03415554 0.025621587 -0.073517807 0.10149945 0.99293309 0.061495923 0.00034330017
0.0367576 0.025166051 -0.072773315 0.093337126 0.99539065 0.022039127 0.0015809942
0.017417651 -0.072198167 -0.070525289 -0.27829471 -0.96047992 -0.0055207773 0.0018842854
0.019506551 -0.072691239 -0.070519075 -0.22070253 -0.97533542 -0.0033457177 0.0014285564
0.022500001 -0.073244348 -0.070498742 -0.16929403 -0.98554409 -0.0065155756 0.0016670401
0.025481109 -0.07359384 -0.070572734 -0.078827918 -0.99685299 -0.0083874827 0.0011761271
0.028519288 -0.073716491 -0.070512012 -0.012649331 -0.9996205 -0.02447312 0.0017477097
0.031568311 -0.073696896 -0.070381761 0.041744076 -0.99873596 -0.027997434 0.0023222724
0.034450941 -0.07350982 -0.070621185 0.085056528 -0.99636096 -0.0054907072 0.0026290254
0.037447967 -0.07314159 -0.070490599 0.18121251 -0.98329908 -0.016883051 0.0017630695
0.040544733 -0.072577968 -0.070564047 0.21787244 -0.97589612 -0.012581619 0.0015018862
0.04249854 -0.072114773 -0.070663378 0.26669458 -0.96368319 -0.01373584 0.0013551181
0.0088462243 -0.069120973 -0.07024125 -0.46720517 -0.88410509 -0.0088117523 0.0013257425
0.010433069 -0.069788784 -0.070555598 -0.39768595 -0.91750002 -0.0062997108 0.0014697374
0.013471916 -0.070953168 -0.070532605 -0.32436424 -0.9457503 -0.018552426 0.0016430904
0.015947038 -0.071768835 -0.070509747 -0.26724964 -0.96358597 -0.0089269541 0.0020567696
0.043835659 -0.071731895 -0.070409395 0.27197331 -0.9622193 -0.012828261 0.0020573044
0.046604685 -0.070799038 -0.070572034 0.33986911 -0.94041085 -0.010789338 0.0015714096
0.04948619 -0.069664732 -0.070388183 0.39582586 -0.91806346 -0.021941291 0.0014282556
0.051006708 -0.069012038 -0.070323467 0.45967248 -0.88808233 -0.0033144273 0.0024399178
0.0047576097 -0.066802822 -0.070486479 -0.5348013 -0.84497452 -0.0023579118 0.0013723808
0.0073664123 -0.068308488 -0.070497729 -0.45424005 -0.89087731 0.0019010741 0.001189134
0.052402914 -0.068314351 -0.07035698 0.45248017 -0.89159429 -0.017925182 0.0016390304
0.055005111 -0.066824496 -0.070604831 0.50532132 -0.86289901 -0.0074596787 0.0019667798
-0.00043751718 -0.063293807 -0.07046736 -0.6203419 -0.7843067 -0.0062420946 0.0021187095
0.0012371175 -0.064500518 -0.070505202 -0.56566435 -0.82463443 0.0013652529 0.0017189375
0.0032129593 -0.06589897 -0.070655026 -0.56465977 -0.82526386 0.0099413823 0.0017676578
0.057996467 -0.064935997 -0.07068415 0.54334372 -0.83928823 -0.019310853 0.0014968086
-0.0035510308 -0.060677852 -0.070429504 -0.67311627 -0.73933166 -0.017410655 0.0018234309
-0.0019505783 -0.062047478 -0.070557319 -0.63032764 -0.77622545 -0.01269279 0.0023300396
-0.0066632624 -0.057555158 -0.070389815 -0.76037717 -0.64924735 -0.017450003 0.0013259243
-0.0051590013 -0.059111144 -0.070559263 -0.70234054 -0.71165776 -0.016152712 0.0018116822
-0.0092658568 -0.054394126 -0.070433818 -0.78168321 -0.62351048 -0.014358839 0.0013638325
-0.0081953676 -0.055876788 -0.070507489 -0.77256137 -0.63473302 -0.016213126 0.0013256975
-0.010691934 -0.052464183 -0.070525728 -0.83523345 -0.54981095 -0.0096476823 0.0016622352
-0.012742728 -0.049200296 -0.070524573 -0.85738051 -0.51457828 -0.010381672 0.0016601341
-0.011808146 -0.05074057 -0.070174225 -0.83076501 -0.55645251 -0.013784461 0.0018292959
-0.01517224 -0.045213282 -0.0704455 -0.8860414 -0.46336702 -0.014887699 0.0017588614
-0.014225756 -0.046542864 -0.070464239 -0.89206225 -0.45166808 -0.014864138 0.0014685657
-0.015702283 -0.043431949 -0.070478529 -0.91928965 -0.39316508 -0.018104961 0.0013032667
-0.014928796 -0.044959795 -0.070926212 -0.88655823 -0.46257481 -0.0062411595 0.0020472351
-0.016839022 -0.040518712 -0.070458114 -0.94447976 -0.32804674 -0.018532023 0.0013062792
-0.018127037 -0.036507074 -0.070862062 -0.9582786 -0.28578815 -0.0052223718 0.00169507
-0.01767919 -0.037888069 -0.070539556 -0.96083492 -0.27690688 -0.010909876 0.0017442936
-0.018602937 -0.034482539 -0.070491694 -0.97438359 -0.22461328 -0.011201429 0.001375859
-0.019225588 -0.031494074 -0.070532493 -0.98568571 -0.16791363 -0.01511995 0.0014836114
-0.019513728 -0.028523961 -0.0704097 -0.99490553 -0.099929713 -0.013304929 0.00084979105
-0.01978907 -0.02556625 -0.070483238 -0.99912733 -0.039950121 -0.012187661 0.00088932161
-0.019823372 -0.022478811 -0.070435889 -0.99952102 0.028799461 -0.011328271 0.0010898034
-0.019653322 -0.019561961 -0.070472777 -0.99595082 0.08988589 0.001575943 0.001112048
-0.019226719 -0.016468059 -0.070424445 -0.98433757 0.17619252 -0.005983036 0.0006888393
-0.018682459 -0.013503432 -0.07043045 -0.97573984 0.21885043 -0.0060095405 0.00067638938
-0.018203856 -0.011395018 -0.070082888 -0.95881093 0.28386721 -0.010049651 0.00084591488
-0.017726347 -0.0098827966 -0.070600718 -0.958606 0.28455549 -0.010132399 0.00083114905
-0.016862614 -0.0074179317 -0.070524327 -0.94391739 0.33009762 -0.0074517075 0.00058635784
-0.01579039 -0.0046042157 -0.070492767 -0.91779953 0.39691898 -0.0099641848 0.0011024036
-0.014981448 -0.0030045509 -0.070037216 -0.90250129 0.43053669 -0.011385863 0.00070503767
-0.015028045 -0.0029872782 -0.070331581 -0.90250182 0.43053558 -0.011385871 0.00070540566
-0.014318007 -0.0014506794 -0.070190534 -0.88455027 0.46618864 -0.015456159 0.00088021933
-0.012718689 0.0011439933 -0.070275024 -0.85225552 0.52224463 -0.030348167 0.00053337391
-0.01178554 0.0026788285 -0.070326291 -0.8188675 0.57332426 -0.027484763 0.00061317097
-0.010623584 0.0043195244 -0.069991589 -0.83106494 0.55535644 -0.030170351 0.00098612811
-0.0092685223 0.0061356658 -0.0695059 -0.79246962 0.60884541 -0.036043268 0.00075138925
-0.0078837918 0.0076732491 -0.070438363 -0.77396744 0.63240606 -0.032204006 0.00076566974
-0.0063590743 0.0094870115 -0.070442103 -0.73702908 0.67518628 -0.030194415 0.0010243891
-0.0050659454 0.010900006 -0.070472889 -0.7371558 0.67543346 -0.019775787 0.00097529235
-0.0036048132 0.012377105 -0.070366368 -0.69657779 0.71711248 -0.023003731 0.0012291234
-0.0017813266 0.013864152 -0.070619963 -0.62643713 0.77907872 -0.024758866 0.0016250928
-0.00021277426 0.015135287 -0.07060536 -0.63053566 0.77563512 -0.028548302 0.0016335421
0.0015437115 0.016437497 -0.070656866 -0.55496633 0.83158684 -0.021810431 0.0018364715
0.0034264522 0.017709643 -0.070713945 -0.57078785 0.82083744 -0.020667886 0.0019031671
0.0048108823 0.018577661 -0.070575677 -0.52394265 0.85150385 -0.020622706 0.0016556995
0.0075918445 0.020176401 -0.070335932 -0.47367489 0.88018131 -0.030217487 0.0013636106
0.010685912 0.021670664 -0.070436254 -0.37482187 0.92666227 -0.028385075 0.0013011289
0.013537349 0.022782857 -0.070464842 -0.32534945 0.94515485 -0.028811116 0.00087337993
0.016205736 0.023617573 -0.070702471 -0.27878335 0.95977604 -0.033313818 0.0010186734
0.017898904 0.024191232 -0.069384396 -0.28064319 0.95920509 -0.034132924 0.0010372653
0.019197579 0.024441456 -0.07056921 -0.22119956 0.97472221 -0.03142406 0.00088101946
0.022460679 0.025108324 -0.070326634 -0.16744857 0.9853093 -0.033563212 0.00067566341
0.025609652 0.025475474 -0.070504181 -0.070748247 0.99698275 -0.031938583 0.00097301672
0.028268268 0.025657116 -0.070733391 -0.014028816 0.99949163 -0.028631741 0.00092661323
0.031275932 0.02562966 -0.07039196 -0.0017183982 0.99978322 -0.020750189 0.00088934036
0.033342291 0.025501737 -0.071010567 0.063876182 0.99791712 0.0090132384 0.0026428821
0.03713534 0.02506789 -0.070624292 0.084642887 0.99625027 -0.017915804 0.00085419108
0.016826406 -0.072281331 -0.067383289 -0.25316891 -0.96576667 -0.056569777 0.00027054377
0.019462734 -0.072931528 -0.067506604 -0.21145989 -0.97589707 -0.053940341 0.00026787177
0.022464324 -0.073514134 -0.067499027 -0.1664899 -0.98433989 -0.057932608 0.00047684403
0.025546663 -0.073842317 -0.06749478 -0.08211913 -0.99563092 -0.044446215 0.00073670805
0.028531298 -0.074009098 -0.067497507 -0.023259141 -0.99811554 -0.056783538 0.00064854563
0.031474918 -0.074112676 -0.067379713 0.017009586 -0.99756092 -0.067697249 0.00067250076
0.034495384 -0.073921666 -0.067528188 0.10669813 -0.99184412 -0.069719143 0.00074221304
0.037527125 -0.073410973 -0.067500964 0.17264913 -0.98225451 -0.073268585 0.00030828046
0.040345024 -0.072908446 -0.067492425 0.2177645 -0.97365052 -0.067700587 0.00035348965
0.0429838 -0.072276451 -0.067326382 0.26199672 -0.96336609 -0.057301454 0.00030545547
0.0086678779 -0.069158554 -0.067382529 -0.44205114 -0.8957268 -0.047584735 0.00042622542
0.010402489 -0.070080929 -0.067516662 -0.39890054 -0.91551006 -0.052151538 0.00048400759
0.013500109 -0.071250424 -0.067584716 -0.33484381 -0.9405371 -0.057180665 0.00040428876
0.015332796 -0.071864083 -0.067950636 -0.28346148 -0.95695281 -0.062377345 0.00040127622
0.04445231 -0.071808472 -0.067658827 0.29140243 -0.95477301 -0.059103232 0.00035064388
0.046446577 -0.07116811 -0.067569941 0.33951226 -0.93889546 -0.056629099 0.00039666577
0.049339443 -0.070013575 -0.067479111 0.39028421 -0.91871428 -0.060351007 0.00032818556
0.051225513 -0.069205478 -0.067180946 0.43498251 -0.89872241 -0.055572327 0.00053641899
0.0028707774 -0.066030338 -0.067372367 -0.55145258 -0.83207399 -0.059606619 8.1731319e-05
0.0045100697 -0.066971831 -0.067511551 -0.50665092 -0.86012703 -0.059045345 0.00030604436
0.0071634087 -0.068443269 -0.067509852 -0.46291631 -0.88484627 -0.052493893 0.00015417187
0.052905019 -0.068355836 -0.067512296 0.45771414 -0.88687319 -0.062878869 0.00047446336
0.055083387 -0.067120254 -0.067313001 0.50984699 -0.85823488 -0.059066892 0.00036324322
0.057262667 -0.066009708 -0.066279352 0.53162456 -0.84566575 -0.047166847 0.0005664042
-0.00070561486 -0.063415378 -0.067347929 -0.60468584 -0.79410177 -0.061297882 0.00042590176
0.0016644001 -0.065026827 -0.067455031 -0.57179356 -0.81812078 -0.061077025 0.00021737284
0.0031693995 -0.065907881 -0.068264462 -0.55343205 -0.83200413 -0.038498454 0.00032119988
0.059161291 -0.064472415 -0.067376763 0.54130304 -0.83927739 -0.051034506 0.00045954884
0.060904015 -0.063130744 -0.068938449 0.55414718 -0.83226192 -0.016156191 0.0013954057
-0.0039791479 -0.060683731 -0.06739407 -0.67573822 -0.73480028 -0.058705784 0.00051771261
-0.0024156987 -0.062088165 -0.06754721 -0.65312135 -0.75509989 -0.057067335 0.0004980783
-0.0067381919 -0.057843566 -0.0675354 -0.7412082 -0.66929269 -0.051552996 0.00027923685
-0.0053988248 -0.059286337 -0.06756971 -0.70727897 -0.70466775 -0.056566421 0.00036444995
-0.0094440132 -0.05460019 -0.067524806 -0.78928494 -0.61154008 -0.055208549 0.00025527604
-0.0082539059 -0.056083653 -0.067586787 -0.77043849 -0.63535976 -0.052368332 0.00031204149
-0.012076225 -0.051152606 -0.066737346 -0.84082741 -0.53755289 -0.063609794 0.00048765325
-0.010921438 -0.052573759 -0.067538209 -0.81812322 -0.57106751 -0.067500591 0.00037592193
-0.012968954 -0.049367886 -0.067469627 -0.8656801 -0.49697393 -0.060123671 0.00036474215
-0.011878083 -0.050751127 -0.068520546 -0.83847338 -0.54213744 -0.055221308 0.00055501482
-0.015167214 -0.045291144 -0.067795724 -0.89685017 -0.43899322 -0.054265972 0.00054463482
-0.014399655 -0.046769965 -0.067395188 -0.88390702 -0.46461642 -0.053291176 0.0003784954
-0.015950382 -0.043512542 -0.067426927 -0.9187007 -0.39111063 -0.054967463 0.00043989287
-0.017141892 -0.040468503 -0.067502797 -0.94039375 -0.33589566 -0.053231817 0.0003572414
-0.018253647 -0.036882717 -0.067409508 -0.96363497 -0.26224041 -0.051358227 0.0002367428
-0.017805623 -0.038385212 -0.067850091 -0.9552809 -0.29078454 -0.053690355 0.00031415303
-0.018845249 -0.034483273 -0.067506112 -0.97498822 -0.21753779 -0.0455558 0.00024591948
-0.01945826 -0.031530071 -0.06750194 -0.98745698 -0.15222378 -0.041911859 0.00068729109
-0.019745013 -0.028469289 -0.067457549 -0.99600327 -0.084541246 -0.02881497 0.00026462571
-0.01996352 -0.025517188 -0.067481279 -0.99799579 -0.055229992 -0.030885268 0.00032850911
-0.020056494 -0.022596821 -0.067436025 -0.99929368 0.014714485 -0.034576222 0.00053201127
-0.019824751 -0.019476445 -0.067438982 -0.99403787 0.10548966 -0.027577439 0.00042782965
-0.019405454 -0.016508574 -0.067414418 -0.98521006 0.16888735 -0.028951861 0.00023259809
-0.018834529 -0.01346529 -0.06743414 -0.97671133 0.21314481 -0.024580197 0.00025896527
-0.018222805 -0.011011958 -0.067342408 -0.96331942 0.2673825 -0.022853186 0.00024973281
-0.017801279 -0.0095889578 -0.067112662 -0.95701933 0.28886992 -0.025848892 0.00026058298
-0.017109742 -0.0075128111 -0.067550838 -0.94081515 0.33736637 -0.032415397 0.00019697899
-0.015911361 -0.0044262633 -0.067426659 -0.92119491 0.38750404 -0.035222203 0.00030818788
-0.015275321 -0.0027779057 -0.066840097 -0.89875644 0.43691325 -0.036655884 0.00031915394
-0.014354745 -0.0013801402 -0.067321636 -0.88632232 0.46155423 -0.037422854 0.00029821345
-0.012940553 0.0012712873 -0.067909032 -0.86386907 0.50289375 -0.028779311 0.00032686058
-0.011914278 0.0027242161 -0.068091802 -0.8222031 0.56729043 -0.046515703 0.00036810723
-0.010838851 0.0043643219 -0.06774985 -0.82903212 0.55779445 -0.039637767 0.00023342855
-0.0093930922 0.0063092713 -0.067388184 -0.79012835 0.61066204 -0.052811891 0.00035916988
-0.0080477353 0.007951891 -0.067412645 -0.75737137 0.65086615 -0.052553389 0.00032594064
-0.0064618769 0.0097523248 -0.067369804 -0.73594713 0.67498559 -0.052690901 0.00032151327
-0.0051242779 0.011128599 -0.067520641 -0.71919549 0.69330329 -0.045699563 0.00018785778
-0.0036675492 0.012547093 -0.067501917 -0.6860292 0.72580308 -0.050733227 0.00031361546
-0.0019955847 0.014116574 -0.067538418 -0.65909439 0.74976921 -0.058658369 0.00043867595
-0.00041753837 0.015437729 -0.067460626 -0.62114984 0.78095835 -0.06539803 0.00059894042
0.0014924918 0.016809061 -0.067592196 -0.57867485 0.81242609 -0.07141006 0.00037101129
0.0031130293 0.017803913 -0.06842307 -0.55491966 0.82888895 -0.070762441 0.00054192095
0.0046565048 0.018850029 -0.067630596 -0.51183909 0.85730362 -0.055237915 0.0003931727
0.0074736918 0.020451086 -0.067499876 -0.46462893 0.88350505 -0.059487581 0.00050474575
0.010315736 0.021776346 -0.067345209 -0.3971079 0.91654062 -0.047524523 0.00033622564
0.013471532 0.023012152 -0.067433394 -0.34473556 0.93707895 -0.055140909 0.00030434143
0.015718803 0.023796853 -0.067682751 -0.29133755 0.95494545 -0.056583572 0.00042962565
0.017056851 0.024178911 -0.067418762 -0.26336098 0.96318692 -0.053962477 0.00038498041
0.019649217 0.024789207 -0.067614168 -0.20700671 0.97725487 -0.046055891 0.00022346836
0.022636704 0.025330942 -0.067442924 -0.16542079 0.98469979 -0.054793201 0.00040781198
0.02540944 0.025674829 -0.067528054 -0.10798465 0.99311423 -0.045425046 0.00038162988
0.028757093 0.025880136 -0.067367814 -0.020136774 0.99894536 -0.041264355 0.00032300199
0.032080587 0.025831258 -0.067473717 0.02008442 0.99875504 -0.045662433 0.00017869768
0.03475751 0.025685804 -0.06756141 0.09864334 0.99305958 -0.064048357 0.00048081373
0.03839229 0.02529915 -0.066593416 0.13657492 0.99031544 -0.024952684 0.00082463975
0.039539695 0.02500248 -0.067447662 0.14056721 0.98951149 -0.033284917 0.00090425997
0.016641412 -0.07234405 -0.064511254 -0.25496024 -0.96680284 -0.016959196 0.00017071555
0.019403461 -0.072989762 -0.064542994 -0.21126747 -0.9773078 -0.015348507 0.00020036384
0.022442402 -0.073586702 -0.064500228 -0.15895762 -0.98716831 -0.015203981 0.00037054269
0.025498768 -0.073993482 -0.064504899 -0.082627349 -0.99633765 -0.021999527 0.00035703304
0.028558271 -0.074127473 -0.064406283 -0.033508886 -0.99928939 -0.017259263 0.0002171277
0.031444281 -0.074151322 -0.064552307 0.018220711 -0.99965435 -0.018952023 0.00052183738
0.034518566 -0.073992282 -0.064541437 0.096959457 -0.99522734 -0.011017282 0.00066824036
0.037494585 -0.073596105 -0.064487793 0.16976815 -0.98513651 -0.02617085 0.00045250455
0.040441975 -0.072995737 -0.06446749 0.22274233 -0.97462273 -0.022281084 0.00025143323
0.043113731 -0.072305024 -0.064474359 0.27659482 -0.96087235 -0.014823156 0.00023663405
0.008609917 -0.069192886 -0.06438002 -0.44733858 -0.8943311 -0.0077573969 0.00010697812
0.010494375 -0.07015872 -0.064537302 -0.4032954 -0.91502142 -0.0094138859 0.00035347469
0.013502629 -0.071373463 -0.064447016 -0.34041429 -0.94022965 -0.0092913443 0.00025803363
0.015227626 -0.071956471 -0.064667121 -0.27835733 -0.96033192 -0.016728189 0.00027259963
0.044663686 -0.071857184 -0.064385518 0.28969726 -0.95698941 -0.015708325 0.00017415558
0.046373613 -0.071264587 -0.064421609 0.33472177 -0.94217056 -0.016614815 0.00012905309
0.049454004 -0.070060223 -0.064500287 0.39120173 -0.92023301 -0.011505255 0.00018088665
0.051827718 -0.069054939 -0.065307073 0.43684205 -0.89942455 -0.014302362 7.2724542e-05
0.0028338842 -0.066125125 -0.064606138 -0.55247849 -0.83323801 -0.021954138 0.00033021398
0.0044834428 -0.067118779 -0.064522922 -0.50409949 -0.86346757 -0.017533734 0.00051086646
0.0070485831 -0.06849131 -0.064488679 -0.45846954 -0.88863909 -0.011231924 0.00012049997
0.052695815 -0.068525657 -0.064542606 0.44954467 -0.89317203 -0.012386491 0.00033920852
0.055173952 -0.06717933 -0.064505301 0.5068351 -0.86179578 -0.0206427 0.0003197724
0.057310794 -0.066001154 -0.064797059 0.52466911 -0.85055512 -0.035753127 0.00065167074
-0.00090857985 -0.063384824 -0.064459622 -0.60837817 -0.79349053 -0.015770886 0.00050757296
0.0014866642 -0.065088734 -0.064482398 -0.5742358 -0.81831676 -0.0247181 0.00021412008
0.058302782 -0.065166548 -0.06380713 0.52667731 -0.84977931 -0.022052109 0.00027886906
-0.004058165 -0.060652718 -0.064456344 -0.68526256 -0.72824037 -0.0090092598 0.00015047118
-0.0024697266 -0.062095027 -0.064537041 -0.65748632 -0.75340962 -0.0092511708 0.00029860254
-0.006763902 -0.057921369 -0.064557672 -0.73844057 -0.67425084 -0.0095580025 0.00020737642
-0.0054519069 -0.05929558 -0.064543195 -0.71378183 -0.70029247 -0.01029379 0.00019748452
-0.0094532911 -0.054745775 -0.06454853 -0.78684449 -0.61700988 -0.013210854 0.00021896749
-0.0082129957 -0.056246262 -0.064515799 -0.7596519 -0.65025723 -0.009728767 0.0001366424
-0.012167112 -0.05135278 -0.064391211 -0.83625787 -0.5480296 -0.018340541 0.00045645217
-0.011035847 -0.052650511 -0.064507186 -0.82417369 -0.56603861 -0.018385895 0.00042995776
-0.013016257 -0.049425375 -0.064467959 -0.8653965 -0.50074863 -0.01843209 0.00017054488
-0.015216191 -0.045461789 -0.064608514 -0.89446062 -0.4468573 -0.016084258 0.000243161
-0.014447528 -0.04678775 -0.064384334 -0.88731313 -0.46093726 -0.014572668 0.00018493862
-0.016006136 -0.043515027 -0.064511374 -0.9199062 -0.39183593 -0.015402607 0.00023625977
-0.017197646 -0.040473927 -0.06454885 -0.94083434 -0.33836228 -0.018486021 0.00018961403
-0.018274937 -0.037068587 -0.064535141 -0.96337593 -0.26779351 -0.013905336 0.00016762881
-0.017834639 -0.038572215 -0.064731456 -0.95895696 -0.28311855 -0.015667701 0.00012104336
-0.018935164 -0.034472518 -0.064554505 -0.97595924 -0.21783324 -0.0072270399 0.00023164503
-0.019474579 -0.031490054 -0.064443953 -0.98861307 -0.15035892 -0.0060378443 0.00056494604
-0.019741951 -0.028495386 -0.064455681 -0.99675441 -0.080388814 -0.004291351 8.8868488e-05
-0.019957751 -0.02559828 -0.064551942 -0.99832779 -0.057553902 -0.0054067369 0.00011063412
-0.020092795 -0.022574497 -0.064443059 -0.99992198 0.011287821 -0.0053561875 0.0005484182
-0.019871337 -0.019525694 -0.064404011 -0.995161 0.098103844 -0.0054958942 0.00049214216
-0.019415805 -0.016486423 -0.064443536 -0.98386133 0.17892917 -0.0010799553 0.00023686771
-0.018831844 -0.013486695 -0.064436816 -0.97617579 0.21697825 0.0010662427 0.00016293372
-0.018249782 -0.011075265 -0.064417996 -0.96415806 0.26532763 0.00064059021 0.00022005253
-0.017819114 -0.0095650172 -0.064224787 -0.95864207 0.28461203 -0.0012275646 0.00023493248
-0.017121099 -0.007513437 -0.064494342 -0.94210738 0.33530426 -0.0021544478 0.00017330986
-0.015978912 -0.0045382404 -0.064502783 -0.92332554 0.38399562 -0.0041602282 0.00017997033
-0.015218798 -0.0026212186 -0.064333461 -0.90767491 0.41964486 -0.0049421312 0.00039021109
-0.014536803 -0.0013617595 -0.06464538 -0.88802582 0.45950845 -0.016188972 0.00032575228
-0.012970306 0.0014365161 -0.064571083 -0.85837889 0.51261461 -0.020298518 0.000230019
-0.010841451 0.0044484632 -0.064388767 -0.8146857 0.57984 -0.0085337805 0.00024182606
-0.0094310259 0.0063221958 -0.064407595 -0.78016651 0.6254701 -0.011289701 0.00019453681
-0.0081215305 0.0079766354 -0.064425938 -0.755413 0.6551773 -0.009694282 0.00012983967
-0.0064778086 0.0097884266 -0.064451724 -0.73174 0.68148923 -0.011359594 9.6833057e-05
-0.0051686042 0.011195292 -0.064472616 -0.70563501 0.70843917 -0.0138992 0.00014711155
-0.0037530942 0.012574465 -0.064496703 -0.69388944 0.71992934 -0.014804244 0.00013621101
-0.0020473257 0.01413283 -0.064526789 -0.66691309 0.74502558 -0.012797053 0.000135361
-0.00046962101 0.015477731 -0.064555608 -0.62476486 0.78075659 -0.0093879728 0.00039770131
0.001580128 0.016952721 -0.0645959 -0.57012099 0.82150859 -0.0092575774 0.00040114881
0.0046748212 0.018920066 -0.064659379 -0.51820099 0.85518372 -0.011338081 0.00016248702
0.0074009146 0.02046163 -0.064661764 -0.45920956 0.88804102 -0.022577867 0.00032758995
0.010295162 0.021820173 -0.064452082 -0.38862923 0.92131776 -0.011874641 0.00029594588
0.013334375 0.023050606 -0.064335883 -0.34816056 0.93733448 -0.013721343 0.00016079027
0.01546527 0.023790473 -0.06438379 -0.29063249 0.95674944 -0.012779667 0.00029833408
0.016880972 0.024202889 -0.064416461 -0.26364958 0.96454024 -0.012291345 0.00027146254
0.01949149 0.024832083 -0.064477891 -0.21099629 0.97739083 -0.013704135 0.00019231462
0.022499124 0.025367871 -0.064550526 -0.17153122 0.98500609 -0.018441368 0.0002737022
0.025230536 0.025722342 -0.06461814 -0.10745577 0.99408847 -0.015538857 0.00059478323
0.028481048 0.025952801 -0.064434282 -0.021693243 0.99962413 -0.016765388 0.00020017957
0.031857394 0.025889549 -0.064520605 0.010891845 0.99943781 -0.031709716 0.0002204729
0.033877689 0.025914442 -0.064571671 0.064573482 0.99708396 -0.040667836 0.00083535089
0.038790945 0.025196079 -0.065790683 0.13917518 0.98992872 -0.025910985 0.00087488728
0.039663203 0.024970543 -0.064181767 0.15765479 0.9874897 0.0030120374 0.00021924268
0.016803827 -0.072411701 -0.061520424 -0.25908235 -0.96585214 -0.0024440398 0.00025635096
0.019539736 -0.073058426 -0.061515495 -0.21297237 -0.9770444 -0.0051942584 0.00030985032
0.022503857 -0.073555991 -0.061516169 -0.16268361 -0.98666984 -0.0040845862 0.0002190348
0.025568686 -0.073949084 -0.061502457 -0.083195232 -0.99651259 -0.0064216834 0.00047325317
0.028487116 -0.074165888 -0.061416514 -0.014829212 -0.99988532 0.0030789231 0.00036575529
0.031513356 -0.074120402 -0.061510455 0.022701183 -0.99973649 0.0034250345 0.00039547854
0.034492083 -0.073940158 -0.061565861 0.077788346 -0.99696755 0.0021777053 0.00029388949
0.037490085 -0.073591754 -0.061483048 0.15263517 -0.98826152 -0.0064562289 0.00066640624
0.040529653 -0.07301864 -0.06152688 0.23206978 -0.9726693 -0.0076145791 0.00035251066
0.043168619 -0.072320208 -0.061384484 0.28255561 -0.95924914 -0.001857265 0.00010519144
0.0085602161 -0.069159657 -0.061379649 -0.45313129 -0.89135331 -0.012701097 0.00015159071
0.010419856 -0.070127323 -0.061540231 -0.40635696 -0.91365892 -0.010070742 0.00041619421
0.013505818 -0.071360335 -0.061404284 -0.33897892 -0.94079387 -0.00039803475 0.00014564331
0.015279895 -0.071931958 -0.061483063 -0.27785173 -0.96062291 -0.0014501528 0.00029659522
0.044661008 -0.071859382 -0.061344367 0.29081234 -0.95677847 -0.0017847435 0.00017646574
0.046388544 -0.071271554 -0.061350103 0.336366 -0.9417311 -0.00071202964 0.00015188842
0.049532652 -0.070032053 -0.061454702 0.3970156 -0.91774797 -0.010832166 0.00033138288
0.051604033 -0.069135077 -0.060983501 0.44615951 -0.89491248 -0.0085645132 0.00014376224
0.0029082841 -0.066095293 -0.061767697 -0.55678636 -0.83065486 -0.0012334272 0.0002170128
0.0044876924 -0.067065582 -0.061480839 -0.50579458 -0.86265039 -0.0024900583 0.0003955547
0.0070763952 -0.068467401 -0.061504014 -0.45669121 -0.88957477 -0.0094774831 0.00019928761
0.052951358 -0.068404377 -0.061495401 0.45603564 -0.8899045 -0.010079108 0.00024483417
0.055008821 -0.067285284 -0.061585955 0.50276202 -0.86440754 -0.0054769898 0.00018187723
-0.0008002902 -0.063436635 -0.06153518 -0.61451852 -0.78887355 -0.0067523015 0.00045767557
0.0015062873 -0.065106437 -0.061476249 -0.57548708 -0.81779987 -0.0042430521 0.00023111491
0.058043711 -0.065356523 -0.06120944 0.52709001 -0.84980941 0.00029234856 0.00018495663
-0.0040114853 -0.060711991 -0.061432678 -0.68892294 -0.72481287 -0.0056152013 0.00027128411
-0.0024425553 -0.062126178 -0.061642051 -0.65980607 -0.75141627 -0.0054343557 0.00019953225
-0.0067710648 -0.057904679 -0.061520051 -0.73714316 -0.67573649 -0.00018310163 0.00025168099
-0.005492413 -0.059294011 -0.061458871 -0.70768523 -0.70652103 -0.0031077119 0.00029248194
-0.0094261952 -0.054749127 -0.061420698 -0.77857292 -0.62755293 -0.0012651143 0.00014696685
-0.0081725409 -0.056228083 -0.061474193 -0.75802749 -0.65222222 0.00068395265 6.9418609e-05
-0.012108273 -0.051118135 -0.06218376 -0.83242196 -0.55414206 0.00061360298 0.00040550635
-0.011059633 -0.052623879 -0.06145126 -0.8187874 -0.57408744 -0.0032865892 0.00065032853
-0.013026264 -0.049447954 -0.061549306 -0.8621828 -0.50652713 -0.0084285047 0.00013742708
-0.015246915 -0.045465477 -0.061452862 -0.89389223 -0.44796965 -0.01672928 0.00027135955
-0.014462662 -0.04687807 -0.061465587 -0.88647586 -0.46252367 -0.015244947 0.0002494471
-0.016070232 -0.043512199 -0.061575796 -0.91997141 -0.39172682 -0.014236839 0.00025154185
-0.017251104 -0.04048698 -0.061549883 -0.94295382 -0.33267832 -0.012780434 0.00024950388
-0.018293621 -0.037024129 -0.061494973 -0.96508968 -0.26189849 -0.0033468362 0.00011278937
-0.017855555 -0.03855643 -0.061938118 -0.96110386 -0.27609259 -0.0072379936 0.00017424433
-0.018922709 -0.034463923 -0.061522398 -0.97655749 -0.21524037 -0.002668171 0.00025580314
-0.019466842 -0.031421673 -0.061494425 -0.98907709 -0.14739916 3.9775114e-05 0.00056642486
-0.019743638 -0.02848996 -0.061536703 -0.99675679 -0.080383442 0.0037887788 0.00023098088
-0.019955616 -0.025533611 -0.061541412 -0.99884778 -0.04687009 0.010309644 0.00022825056
-0.020060509 -0.022579946 -0.061505925 -0.99970514 0.020460691 0.013080603 0.00061677332
-0.019868573 -0.019543285 -0.061425358 -0.9945128 0.10419607 0.0093587665 0.00026705975
-0.019418461 -0.016522581 -0.061460257 -0.98434788 0.17622599 0.0018874112 0.00016524631
-0.018827669 -0.013546251 -0.0614595 -0.97585261 0.21842323 0.0017678177 0.00013857166
-0.018256111 -0.01115077 -0.061361223 -0.96440291 0.26441264 0.0035939484 0.0002291823
-0.017827241 -0.0096241804 -0.06143849 -0.95958763 0.28139451 0.0029820704 0.00025256549
-0.017129226 -0.0075583248 -0.061396066 -0.94277602 0.33338705 0.0051590125 0.00020121831
-0.015981736 -0.0045806873 -0.061580863 -0.92466187 0.38078055 0.0025640146 0.0001633466
-0.01526281 -0.0028280569 -0.060798123 -0.90994257 0.4146938 0.0057980996 0.00042063685
-0.0145073 -0.0013131178 -0.06147014 -0.89019972 0.45557004 0.00063557731 0.00033397056
-0.012992782 0.0014126078 -0.061860178 -0.86985809 0.49330077 -0.001135094 0.00022968794
-0.011354448 0.0040610959 -0.061997347 -0.84135932 0.54042125 -0.0076982775 0.00023094565
-0.009452804 0.0063296184 -0.061428059 -0.78034115 0.62526888 -0.010319419 0.00030388185
-0.0081219813 0.0079768226 -0.061442204 -0.75300092 0.65792394 -0.011212397 0.00018752555
-0.0064840359 0.009790468 -0.061461285 -0.73066211 0.6826874 -0.0084134582 6.9664893e-05
-0.0051803892 0.011199135 -0.061476767 -0.72594965 0.68768555 -0.0092597092 9.7410149e-05
-0.003714626 0.012667134 -0.06139487 -0.69514996 0.71879798 -0.0098012323 0.00023742135
-0.0019984634 0.014192398 -0.061589438 -0.6656552 0.74619997 -0.009422916 0.00020458239
-0.00045525047 0.015473285 -0.061539117 -0.62249959 0.78259856 -0.0058099879 0.00035351407
0.0015839753 0.01695154 -0.061568871 -0.56719714 0.82357758 -0.0027091298 0.00044159661
0.0046508079 0.018927168 -0.061615534 -0.51454639 0.85745478 0.0036567529 0.00013859346
0.0074576139 0.020479681 -0.061660182 -0.46150723 0.88713616 0.00071190082 0.00013790793
0.010153885 0.021787884 -0.061648738 -0.3916339 0.9200964 -0.0067415657 0.00044329063
0.013323011 0.023053806 -0.061501004 -0.34571505 0.93829536 -0.0091036679 0.00026324223
0.015466779 0.023790058 -0.061537515 -0.28300807 0.95910561 -0.0047941119 0.00029075018
0.01690758 0.024219917 -0.061420869 -0.26638335 0.96386695 -0.00066494575 0.00026636737
0.019477848 0.024835791 -0.061347537 -0.21327788 0.97699118 -0.00088240032 0.00024826857
0.022423198 0.025388213 -0.061399668 -0.17117915 0.98523986 -0.00039468426 0.0003400617
0.02501308 0.025780126 -0.061445847 -0.10581362 0.99436647 0.0062375721 0.00067853049
0.028597012 0.025922259 -0.061512902 -0.027724326 0.99961466 -0.0014053803 0.00017599468
0.031616777 0.025952389 -0.061570406 0.020498985 0.99977893 0.0046947775 0.00050471828
0.033675045 0.025967101 -0.061609004 0.027619014 0.99961853 0.00029241922 0.00058618182
0.040259719 0.024816306 -0.061470628 0.15977046 0.98699856 0.01752813 0.00019962684
0.016699506 -0.072409973 -0.058465689 -0.26054591 -0.96485364 0.03425334 0.00050085434
0.019475171 -0.073036104 -0.058478825 -0.20704827 -0.97764301 0.036675625 0.00046304945
0.02251542 -0.0736169 -0.058548659 -0.16075845 -0.98623484 0.038698602 0.00052719988
0.02552112 -0.074024953 -0.058459356 -0.086724199 -0.99550575 0.038041975 0.00071647356
0.028466798 -0.074173048 -0.058482297 -0.022259351 -0.99907088 0.03690486 0.00056695996
0.031486094 -0.074118026 -0.058465101 0.028129585 -0.99891078 0.037228394 0.00021428146
0.034497365 -0.073935591 -0.058577903 0.083595216 -0.99596965 0.032501426 0.00040202006
0.037409507 -0.073666632 -0.058454316 0.14045487 -0.98957652 0.031792644 0.00062794646
0.040433325 -0.073097035 -0.058627289 0.22447304 -0.97409564 0.027377609 0.00060606131
0.043232348 -0.072280616 -0.058287717 0.28565708 -0.95790631 0.02855886 0.00027838128
0.0084525719 -0.069250986 -0.058448888 -0.44301343 -0.89612681 0.026380517 0.00067505089
0.010497116 -0.070222259 -0.058540434 -0.39110866 -0.91985434 0.030033914 0.0006371137
0.013452049 -0.071367979 -0.058473315 -0.3379541 -0.93990821 0.048576195 0.00060764275
0.015172174 -0.071916118 -0.058741763 -0.2886737 -0.95652878 0.041475311 0.00055653695
0.044683583 -0.071843341 -0.058238678 0.29918778 -0.95394987 0.02159499 8.9926994e-05
0.046495337 -0.071250737 -0.058505364 0.33902028 -0.94051689 0.022208337 0.00025865092
0.049627069 -0.070040405 -0.058524407 0.39340284 -0.91919261 0.01786557 0.00032570507
0.051612541 -0.069135316 -0.058313467 0.42838436 -0.90338504 0.019552689 0.00050569687
0.002827649 -0.066110596 -0.058420248 -0.54420209 -0.83857465 0.025233394 0.00052595785
0.004488409 -0.06711939 -0.058533501 -0.49737686 -0.86711025 0.027129473 0.00059174735
0.0069262334 -0.068485908 -0.058474101 -0.47106466 -0.8817398 0.025160186 0.00059119548
0.053040791 -0.068409756 -0.058413215 0.46275923 -0.88625091 0.020326637 0.00038728042
0.055126235 -0.067238182 -0.058066405 0.50524509 -0.86264372 0.02394148 0.00039052957
-0.00090306759 -0.063405193 -0.058448356 -0.61469275 -0.7879017 0.036928847 0.00055968791
0.0013557216 -0.065045275 -0.058499288 -0.58021903 -0.8140884 0.024613086 0.00050071505
0.056956775 -0.06599623 -0.058062479 0.53445083 -0.8444829 0.034798432 0.00038436719
0.058368519 -0.065296911 -0.058778502 0.53262323 -0.84578323 0.031037882 0.00025795729
-0.0038881477 -0.060887832 -0.058497231 -0.68123269 -0.73100328 0.039448503 0.00052088685
-0.0020278448 -0.06252417 -0.058378283 -0.63274139 -0.77338141 0.038982175 0.00062267092
-0.0067379293 -0.057934467 -0.058555678 -0.74225736 -0.66918361 0.035318706 0.00036782832
-0.005500088 -0.059280787 -0.058455329 -0.72056693 -0.69244897 0.036026228 0.00038888431
-0.0094763143 -0.054735627 -0.058489922 -0.7844494 -0.61931521 0.032981269 0.00041800644
-0.0081887702 -0.056258976 -0.058530826 -0.76279229 -0.64588058 0.031404652 0.00027882724
-0.012146679 -0.051347364 -0.058567215 -0.83599108 -0.54822373 0.023869136 0.00060754764
-0.011073921 -0.052639786 -0.05849592 -0.81925797 -0.57229513 0.035980608 0.00061043067
-0.013003352 -0.049524385 -0.058560368 -0.86223328 -0.50558567 0.030609887 0.00036446148
-0.01199719 -0.05099199 -0.059142925 -0.83950734 -0.54203475 0.037759215 0.00040199366
-0.015174072 -0.045597125 -0.058457483 -0.8949126 -0.44527605 0.02933996 0.00057303818
-0.014458521 -0.047033966 -0.058567658 -0.88360828 -0.46760738 0.024076825 0.00049695856
-0.016105553 -0.043524098 -0.058555204 -0.92416668 -0.38084513 0.029547736 0.00054151681
-0.01801635 -0.03904172 -0.058721412 -0.95802486 -0.28428343 0.037031036 0.00057346869
-0.017271433 -0.040487189 -0.058524933 -0.94370109 -0.32858083 0.038247302 0.00054999482
-0.018297058 -0.037076112 -0.058616702 -0.96676785 -0.25161073 0.045298908 0.00049560657
-0.017798347 -0.038358271 -0.058395743 -0.95793062 -0.28386647 0.042293508 0.00046220334
-0.018940464 -0.034452129 -0.058506597 -0.97751194 -0.20739375 0.038187005 0.00042874683
-0.019503536 -0.031413879 -0.058480728 -0.98813134 -0.1495678 0.035014026 0.00060714717
-0.019747185 -0.028521007 -0.058459729 -0.99571717 -0.085668206 0.034760777 0.0004124213
-0.019875696 -0.025447488 -0.058436114 -0.99857128 -0.039901018 0.035543319 0.00018849298
-0.019996854 -0.022464894 -0.058497414 -0.9991731 0.016435593 0.037188109 0.00053396844
-0.019843495 -0.019446269 -0.058476966 -0.99578708 0.086358681 0.030823028 0.00054545567
-0.019414345 -0.016471826 -0.058473278 -0.98528558 0.16935787 0.023024026 0.00028080682
-0.01882823 -0.013514691 -0.058507297 -0.97606587 0.21676867 0.017513959 0.00017317256
