# .PCD v0.7 - Point Cloud Data file format
VERSION 0.7
FIELDS x y z normal_x normal_y normal_z curvature
SIZE 4 4 4 4 4 4 4
TYPE F F F F F F F
COUNT 1 1 1 1 1 1 1
WIDTH 545
HEIGHT 1
VIEWPOINT 0 0 0 1 0 0 0
POINTS 545
DATA ascii
0.063909963 -0.06079071 -0.09757641 0.67923301 -0.7338711 -0.0086969221 6.2436382e-05
-0.006892371 -0.057877194 -0.097376339 -0.74355024 -0.66867936 -0.0010654384 0.00015283655
-0.0055230735 -0.059322435 -0.097376987 -0.72589761 -0.68778861 -0.0044251489 0.00017194494
0.065273128 -0.059512306 -0.097414255 0.68662375 -0.7269761 -0.0073173293 0.00016691895
0.066788025 -0.058040917 -0.097489595 0.7217676 -0.692083 -0.0085203424 0.00036280529
-0.0095735053 -0.054665234 -0.097601034 -0.79249108 -0.60987622 0.0029734054 0.00027922241
-0.0082727382 -0.056268167 -0.09760052 -0.75790054 -0.65236938 0.00095646869 0.00014688107
0.06834837 -0.056232546 -0.097482182 0.76736832 -0.64107454 -0.013009056 0.00042716024
0.069501936 -0.054796215 -0.097520337 0.79229283 -0.60999346 -0.013415934 0.00030045334
-0.012131498 -0.051160723 -0.097525805 -0.82944667 -0.55858481 0.0011448982 0.00014594491
-0.011166058 -0.052447122 -0.0974558 -0.82463348 -0.56565517 0.0037210758 0.00016701291
0.070923328 -0.05277878 -0.097478569 0.82503438 -0.56492376 -0.013393491 0.00039491849
0.072303876 -0.051065933 -0.097784244 0.84594512 -0.53319478 -0.0089613935 0.00043435374
-0.013091692 -0.049493343 -0.097591661 -0.86244905 -0.50614387 0.00018990462 0.0003315791
-0.011987363 -0.05094488 -0.098273322 -0.84352136 -0.53708529 0.0033439377 0.00053368596
0.071842544 -0.050947379 -0.097982623 0.8479799 -0.529989 -0.0064643249 0.00030129871
0.073053032 -0.04939267 -0.097563922 0.86509484 -0.50159723 -0.0033317641 0.00028174004
-0.015197254 -0.04550514 -0.097511247 -0.89837056 -0.43922806 -0.003019423 0.00017006687
-0.014455951 -0.046987232 -0.097377427 -0.89135844 -0.45328745 -0.0032545086 0.00016175494
0.074348971 -0.04706613 -0.097324371 0.89148229 -0.45305461 0.00097239227 0.00041607779
0.075425841 -0.045368601 -0.097440585 0.90258271 -0.43050313 -0.0034025053 0.00044298143
-0.016106434 -0.043493468 -0.097486287 -0.91676033 -0.3994343 -0.0016416449 0.00015466983
0.075916067 -0.04359889 -0.097549967 0.92595947 -0.37760743 -0.0034187918 0.00026021327
-0.018069152 -0.039096251 -0.097553581 -0.94844449 -0.31688023 -0.0063219625 0.00036040042
-0.017272832 -0.04060949 -0.097487651 -0.93818396 -0.34613404 -0.0014796404 0.00021170148
0.077011839 -0.040638477 -0.097386606 0.94587404 -0.3245326 0.00097027246 0.00038605684
-0.018395396 -0.03717747 -0.097397305 -0.96239197 -0.2716558 -0.0021903843 0.00022848975
-0.017865431 -0.038627572 -0.097390972 -0.9585796 -0.28480428 -0.0034265723 0.00024884407
0.077406034 -0.038394962 -0.097340807 0.96556878 -0.26002127 -0.0081201447 0.00025322757
0.07837148 -0.036885399 -0.09768337 0.96955991 -0.24477884 -0.0060846261 0.00021755301
-0.01904629 -0.034477267 -0.0976092 -0.97619444 -0.21689442 -0.0010723934 0.00034390634
0.078317255 -0.034913544 -0.097530156 0.96807104 -0.25014332 -0.016334359 8.7690772e-05
-0.019556876 -0.031420775 -0.097522356 -0.98967057 -0.14335589 -0.0011020215 0.00038014277
-0.019885218 -0.028542135 -0.097492635 -0.99612784 -0.087860122 -0.0031541281 0.00034402721
-0.020045176 -0.025552159 -0.097461239 -0.99943596 -0.033270508 -0.0045562871 0.00022091639
-0.020076595 -0.02252073 -0.097432226 -0.99956912 0.028967386 -0.0047435858 0.0002940266
-0.01985025 -0.019470582 -0.097500883 -0.99483126 0.10152231 -0.0020189723 0.0003614657
-0.019404113 -0.016415477 -0.097565547 -0.9842605 0.17668532 -0.0036951224 0.00023339076
-0.01882886 -0.01342087 -0.097451866 -0.97596842 0.21790905 -0.0011235415 0.00021523042
-0.018243477 -0.011043931 -0.097595543 -0.96305907 0.26928726 0.0012305505 0.00023226024
-0.0178032 -0.0096605923 -0.097512163 -0.95735818 0.28887343 0.0041889204 0.00027968708
-0.017117769 -0.0075019882 -0.097516164 -0.93991983 0.34136987 0.0041475189 0.00023545515
-0.015898926 -0.0044693621 -0.09750668 -0.92094499 0.38968337 0.0027013388 0.00011346922
-0.014975758 -0.0030556277 -0.09829095 -0.91661692 0.39975742 0.0027451576 0.00013390339
-0.015167537 -0.0025632994 -0.097441263 -0.89571333 0.44462803 0.0018903632 0.00037125993
-0.014428754 -0.001241524 -0.097468928 -0.88851953 0.45883703 0.0013112939 0.00031327494
-0.012901167 0.001471288 -0.097576343 -0.85909504 0.51181424 0.0013628976 0.00029812372
-0.011874583 0.0027617833 -0.097573549 -0.83098006 0.55630219 0.00023142379 0.00037698762
-0.012016743 0.003320859 -0.098263539 -0.82020104 0.57206392 -0.0036312996 0.00036748263
-0.010885764 0.0044911164 -0.097499199 -0.81681412 0.57689357 -0.0029269543 0.00034333946
-0.0093860477 0.0064602862 -0.097441405 -0.77897829 0.62703973 -0.0037478418 0.00016524896
-0.0081130192 0.0079833902 -0.097527824 -0.75693858 0.6534633 -0.0054552462 0.00011825825
-0.0066008125 0.0096904291 -0.09743049 -0.73643452 0.67649966 -0.003512372 0.00011929505
-0.0053460081 0.011022565 -0.097451925 -0.71645737 0.69762897 -0.0016253828 0.00014663997
-0.003719409 0.012647278 -0.097424559 -0.69069612 0.72313941 -0.0028723986 0.0002150942
-0.0017045336 0.014428906 -0.097670697 -0.64517623 0.76402354 -0.003943129 0.00038866076
-0.00050861586 0.015346612 -0.097229213 -0.6185565 0.78573704 -0.0022402371 0.00025761942
0.0013778823 0.016766086 -0.097542726 -0.584719 0.8112359 -3.4578989e-05 0.00039511811
0.0031520051 0.017851209 -0.097389527 -0.56127983 0.82756793 0.0098087844 0.00020215847
0.056864686 0.017703978 -0.096808039 0.53520018 0.84471238 0.0046762452 0.00041157729
0.057827525 0.017174711 -0.098255105 0.51522934 0.85704839 -0.0026180092 0.00013927222
0.0045199459 0.018768439 -0.09743721 -0.51476544 0.85725886 0.011124782 0.00038023345
0.0073641473 0.020250695 -0.097331449 -0.45396852 0.89096624 0.0095837377 0.00032265583
0.052600186 0.020228622 -0.097365431 0.44893074 0.8935445 -0.0062830066 0.00018609095
0.055288725 0.018754624 -0.097523235 0.50196999 0.86488008 -0.002936386 0.00016372917
0.0088101681 0.021067958 -0.09728834 -0.43395939 0.90091813 0.0050746715 0.00038396826
0.010154637 0.021600282 -0.097436257 -0.40461779 0.91446459 0.0062469398 0.00026643922
0.013471227 0.022859879 -0.097554713 -0.34931603 0.93699259 -0.0048195743 0.00017472429
0.016232058 0.023813743 -0.097423539 -0.32454741 0.94580716 -0.010857635 0.00012636629
0.044002123 0.023726262 -0.097757824 0.31773469 0.94816101 -0.0059411912 7.4084368e-05
0.046391495 0.022887483 -0.09752956 0.34482864 0.93861651 -0.0096090166 8.3316838e-05
0.04931476 0.021752033 -0.097524561 0.38851568 0.92139786 -0.0090334173 0.00023584603
0.017465016 0.024206221 -0.097408414 -0.29102787 0.9565894 -0.015481354 0.0001426392
0.019548863 0.02479043 -0.09746445 -0.24321374 0.96995908 -0.0051314426 0.00022011712
0.0224244 0.025411583 -0.097576022 -0.19188491 0.98140156 0.0055810106 0.00046194557
0.025339812 0.025820183 -0.097444661 -0.11442266 0.99328917 0.016854556 0.00057424599
0.028346546 0.026046535 -0.097537152 -0.041770104 0.9988277 0.024467282 0.00021093567
0.031494875 0.026115177 -0.09755116 0.013613217 0.99966568 0.021981157 0.00067155465
0.033941001 0.026052468 -0.097254001 0.072403058 0.99698645 0.027854227 0.00087782118
0.037300456 0.025587944 -0.097455204 0.17055093 0.98493356 0.028604344 0.00058475579
0.040664203 0.024786334 -0.097626083 0.26657534 0.96380901 0.0031211236 0.00023753371
0.042548589 0.024202231 -0.097650558 0.30865362 0.95117366 0.0012966435 8.7461733e-05
0.014829692 -0.072072983 -0.094524466 -0.31710976 -0.94747859 0.041541804 0.00053406408
0.016293421 -0.07248833 -0.094647735 -0.28859162 -0.95659858 0.040422827 0.00042592321
0.019413164 -0.073257096 -0.094407581 -0.20556213 -0.97740817 0.049167302 0.00062316831
0.022392778 -0.073733471 -0.094489515 -0.12864941 -0.99067986 0.044751953 0.00046293694
0.0253236 -0.074000515 -0.09457422 -0.07210397 -0.99707949 0.025169466 0.00027527337
0.028598087 -0.074152164 -0.094526179 -0.022013677 -0.99958014 0.018840289 0.00021369944
0.031692855 -0.07414718 -0.094541118 0.038186152 -0.99916071 0.014819806 0.00043142933
0.034653034 -0.073939815 -0.094530955 0.086108714 -0.99611652 0.018359952 0.00049388566
0.037483532 -0.073590636 -0.09446957 0.16033766 -0.98700875 0.010274129 0.00041953559
0.040541265 -0.072986983 -0.094589025 0.21815996 -0.97580427 0.014572458 0.00021606671
0.043215722 -0.072327092 -0.094407938 0.26649472 -0.96374089 0.013570944 0.00015721943
0.0083640814 -0.069312394 -0.094441205 -0.44038898 -0.89771932 0.012555147 0.00029548421
0.010506129 -0.070286177 -0.094642438 -0.39977041 -0.9164741 0.016092742 0.00032370703
0.013424289 -0.071510583 -0.094441086 -0.3646628 -0.93063623 0.030614743 0.00040012598
0.044523131 -0.071912892 -0.094390392 0.28788054 -0.95759392 0.011776444 0.00019484072
0.046538305 -0.07127098 -0.094545364 0.33904254 -0.94070101 0.011477218 0.00024040342
0.049572095 -0.07007882 -0.094502099 0.39165428 -0.92006648 0.0091962209 0.00027743884
0.051614784 -0.069183275 -0.094468519 0.43870446 -0.89855212 0.011938739 0.00046915986
0.0027409508 -0.06619034 -0.094309889 -0.55006701 -0.83499724 0.014350778 0.00028004879
0.0044398122 -0.067203507 -0.094562076 -0.50924772 -0.86053807 0.011871064 0.00028269616
0.0067718979 -0.06849964 -0.09472397 -0.47181815 -0.88165087 0.0089082224 0.00024965242
0.053058259 -0.068439052 -0.094544873 0.46304882 -0.88626921 0.010616846 0.00031431194
0.055401076 -0.06711822 -0.094574884 0.51157331 -0.8591674 0.011138863 0.0002793516
0.057270061 -0.066218011 -0.094614565 0.55089396 -0.83450139 0.011105938 0.00013368529
-0.00082526793 -0.063623987 -0.094593659 -0.61753386 -0.78637356 0.016385267 0.000233447
0.0012271716 -0.065106563 -0.094502531 -0.57456344 -0.81831253 0.015537776 0.00019854633
0.058446098 -0.065127537 -0.094273716 0.55614805 -0.83087409 0.018645303 0.00021459168
0.060751297 -0.06359534 -0.09455213 0.62003756 -0.78453737 0.0073846821 0.00028127714
-0.0039972127 -0.060915839 -0.094413593 -0.6872412 -0.72621995 0.017438786 0.00037412581
-0.0022344126 -0.062445439 -0.094524182 -0.64657587 -0.76269239 0.015489782 0.00024609434
0.06229569 -0.06229059 -0.094506651 0.65934014 -0.75184137 0.0022704962 0.00011303079
0.063927934 -0.06082179 -0.094448514 0.67472172 -0.73807162 0.00096326176 5.742989e-05
-0.0068222387 -0.057986267 -0.09431719 -0.74598539 -0.66549766 0.024873598 0.00030691142
-0.0055269431 -0.059363622 -0.0945777 -0.72470701 -0.68887013 0.016055131 0.00028630346
0.065329358 -0.059516817 -0.094611377 0.68907332 -0.72469068 0.0011807912 6.9742498e-05
0.06691014 -0.057957079 -0.09450756 0.72407734 -0.68971121 0.0032239195 0.00041212572
-0.0095684659 -0.05471202 -0.094523832 -0.79067332 -0.61175418 0.024344109 0.00028542933
-0.0082987305 -0.056256972 -0.094555929 -0.76325697 -0.6455521 0.026483905 0.00022641693
0.068506286 -0.056128561 -0.094460487 0.7777738 -0.62853295 0.0037669998 0.00029043481
0.069644086 -0.054709427 -0.094476976 0.79381537 -0.60814321 0.0043707183 0.0003737887
-0.012189184 -0.051146071 -0.094524585 -0.83333552 -0.55241632 0.019702142 0.00023506556
-0.010991951 -0.052693278 -0.0946436 -0.82261068 -0.56821001 0.021191893 0.00021213286
0.071095355 -0.052610867 -0.094501913 0.82727683 -0.56178689 0.0029178374 0.00015718753
-0.013078571 -0.049520906 -0.094513752 -0.85947901 -0.51090723 0.016421864 0.00030459749
0.072925344 -0.049700323 -0.094528638 0.86232954 -0.50634021 0.0027171832 0.00034421938
-0.015200667 -0.045514558 -0.094587207 -0.89835966 -0.43922946 0.0052366587 0.00019919388
-0.014467061 -0.046989348 -0.094457507 -0.88682246 -0.46198481 0.010770544 0.00028949245
0.074414663 -0.046924815 -0.094539553 0.89359576 -0.44885916 0.0034788866 0.00015555564
0.075284034 -0.045099117 -0.095076062 0.91695577 -0.39897859 0.0028862157 0.00046654767
-0.016062096 -0.043582354 -0.094498657 -0.91780967 -0.39697847 0.0057886271 0.00016355945
0.075892478 -0.043694373 -0.094313674 0.92269754 -0.38544741 0.0077178576 0.00018944537
-0.018017896 -0.039299622 -0.095347837 -0.94779694 -0.31883091 0.0052704792 0.00018806671
-0.017286131 -0.040576808 -0.094500311 -0.93814433 -0.34615928 0.0076814978 0.00017540266
0.076994494 -0.04069443 -0.094397783 0.94686377 -0.32163119 -0.0015453836 0.00035697254
-0.018392392 -0.037189376 -0.094492942 -0.96373153 -0.26657087 0.012704297 0.00030727769
-0.017862486 -0.038674016 -0.094340131 -0.9572553 -0.28902063 0.011376008 0.0002580955
0.077279568 -0.038880013 -0.095232099 0.95785737 -0.28721753 -0.0039255768 0.00019431196
0.07828413 -0.036234684 -0.094106123 0.96470171 -0.26334244 0.0011689662 0.00016706109
-0.01904412 -0.034404866 -0.094504215 -0.97778505 -0.2093678 0.010071238 0.00028845255
0.078404546 -0.035748683 -0.094126031 0.96354699 -0.26753581 -0.001339806 0.0001120017
-0.01956645 -0.031387083 -0.094455279 -0.98799723 -0.15426376 0.0080085099 0.00034002273
-0.01993393 -0.028470865 -0.094549321 -0.99648124 -0.083780847 0.0024247365 0.00025059839
-0.020063728 -0.025553972 -0.094466105 -0.9993422 -0.036202651 0.0021451672 0.00026810783
-0.020093545 -0.022528168 -0.09438844 -0.99962205 0.02733242 0.0029624142 0.00031387463
-0.01986425 -0.019450039 -0.094506875 -0.9938249 0.11093861 0.0021896954 0.00021975453
-0.019425031 -0.016465295 -0.094552457 -0.98397142 0.17826605 0.0046395953 0.00021830553
-0.018850697 -0.013448487 -0.094466791 -0.97569889 0.21899377 0.0073037818 0.00015092341
-0.018236104 -0.011062362 -0.094505541 -0.96277094 0.27009922 0.010887936 0.00019342736
-0.017808389 -0.0097289979 -0.09447787 -0.95625448 0.29226688 0.012548683 0.0002067688
-0.017120132 -0.007524129 -0.094549172 -0.93990791 0.34124562 0.011157828 0.00023423792
-0.015904192 -0.0044737756 -0.094487593 -0.9221859 0.38654235 0.012580227 0.00013527441
-0.014993246 -0.0030909928 -0.094930768 -0.91634458 0.40023226 0.011258997 0.00011364836
-0.015159931 -0.0026897006 -0.094456725 -0.90263546 0.4302375 0.012044935 0.00036606533
-0.014396057 -0.0012125361 -0.094505191 -0.88785732 0.46001855 0.0096028503 0.00026214588
-0.012938028 0.0014147226 -0.094482735 -0.85929096 0.51140153 0.0093508121 0.00028365603
-0.011791392 0.0028506974 -0.094650686 -0.82775366 0.56104177 0.0074907951 0.00022827712
-0.012077748 0.0030931639 -0.095181927 -0.82475805 0.56543922 0.0072519667 0.0002508022
-0.010880383 0.0044836928 -0.094613664 -0.81713569 0.57639867 0.0073407385 0.00023051567
-0.0094550597 0.0064602215 -0.094189748 -0.78834963 0.6151827 0.0074141677 0.00017123095
-0.0081648314 0.0079838065 -0.094581746 -0.757577 0.65272975 0.0045758625 0.00015217639
-0.0066957539 0.009642995 -0.094471134 -0.73974162 0.6728766 0.0044089057 0.00013048653
-0.005339649 0.011038592 -0.094451085 -0.71264535 0.70150721 0.004922037 0.0001040571
-0.00370197 0.012652599 -0.094563916 -0.68507832 0.72843617 0.0069668051 0.0001687909
-0.0018378058 0.014351006 -0.094607547 -0.65060347 0.75934649 0.010396804 0.00039674461
-0.00042365241 0.01543476 -0.094373815 -0.61432093 0.78900445 0.0090454947 0.0003189308
0.0013147771 0.016737306 -0.094617225 -0.58837783 0.80855119 0.0075114896 0.00023195369
0.0031572478 0.017855322 -0.094139203 -0.55408138 0.832416 0.0087996135 0.00015265289
0.056472342 0.017956499 -0.093908399 0.51486564 0.85666895 0.032121506 0.00048992835
0.059050329 0.016474297 -0.094546273 0.52586162 0.85049522 0.011289647 8.2886807e-05
0.060573071 0.015107743 -0.094875969 0.56808352 0.82286644 0.013115569 0.00016826561
0.0046022926 0.018773846 -0.094507903 -0.51033741 0.85994673 0.0068840743 0.00027875215
0.007329063 0.020297747 -0.094510481 -0.45496464 0.89044994 0.01030143 0.00029544049
0.0090610981 0.020988069 -0.093897462 -0.42243576 0.90638721 0.0032113635 0.00060666865
0.050999813 0.020965688 -0.095548131 0.44366342 0.89612883 0.010763514 0.0003136239
0.052513421 0.020296175 -0.094598167 0.4544169 0.89071876 0.011193799 0.0002670805
0.055142447 0.018870782 -0.094626814 0.49696499 0.86768609 0.01211009 0.00021748294
0.0088926675 0.021087207 -0.094055921 -0.43927521 0.89831257 0.0084787086 0.0003596895
0.010765688 0.021845881 -0.094136983 -0.39563963 0.91839159 0.0051239873 0.00018282441
0.013589538 0.022920355 -0.094554283 -0.34555471 0.93836063 0.0084351189 0.00013789671
0.015908405 0.023739351 -0.094426356 -0.30478039 0.95234847 0.011888033 0.00016572299
0.044073068 0.023720045 -0.09438844 0.31160539 0.95011371 0.013637683 0.00014308581
0.04640907 0.022936556 -0.094117969 0.3414847 0.93972343 0.017553229 0.00022315086
0.04943148 0.021736797 -0.094433174 0.392239 0.91972435 0.015993573 0.0003399881
0.017283535 0.02417095 -0.094644815 -0.28176686 0.95925969 0.020697892 0.00032337705
0.019522551 0.02476055 -0.094479151 -0.22726679 0.97333503 0.031121645 0.00029044715
0.022472555 0.025372626 -0.094532691 -0.18265754 0.98240477 0.038949888 0.0003668702
0.025297001 0.025754713 -0.09445592 -0.10527062 0.99334586 0.046712603 0.00042502987
0.028442048 0.025970852 -0.094486445 -0.039120421 0.99807501 0.048124086 0.00020933159
0.031348754 0.026048511 -0.094508052 0.012097083 0.99830604 0.056910045 0.00041030356
0.034108855 0.025949674 -0.094409682 0.075832307 0.9952479 0.061083354 0.0008081675
0.037334878 0.025544325 -0.094466485 0.1780684 0.98236167 0.05707179 0.00068637152
0.040440269 0.024821699 -0.094714373 0.25381398 0.96681184 0.029212881 0.00032313447
0.042664334 0.02416354 -0.09473823 0.28870144 0.95717251 0.021729568 0.0001772996
0.014892546 -0.072070532 -0.092387192 -0.30691323 -0.94791061 0.085262723 0.00027672728
0.016680164 -0.072404318 -0.091571026 -0.267232 -0.95986146 0.085164495 0.00041958209
0.019429695 -0.073048517 -0.091614552 -0.20206977 -0.97515464 0.090781569 0.00053257158
0.022527141 -0.073530801 -0.091401353 -0.14150734 -0.98787314 0.06389305 0.0014757166
0.025518045 -0.073897645 -0.09151832 -0.073529758 -0.99482936 0.0700562 0.00092800072
0.028526502 -0.074011154 -0.09153451 -0.025605844 -0.99729353 0.068919666 0.00036167176
0.03149775 -0.074010246 -0.091548078 0.035419345 -0.99722034 0.065552182 0.00061956642
0.034433447 -0.073895201 -0.091569118 0.079744399 -0.99505788 0.059165619 0.00075719599
0.037003439 -0.073491469 -0.091103934 0.14240043 -0.98888218 0.042826254 0.0017396699
0.040539213 -0.07289926 -0.091579959 0.2162786 -0.97461379 0.057892911 0.00027760249
0.043019719 -0.072303243 -0.091556229 0.25905591 -0.96420312 0.056590512 0.00026792378
0.0084449574 -0.069261089 -0.091543891 -0.43977538 -0.89636415 0.055937413 0.00042708297
0.010455844 -0.070183739 -0.091528252 -0.39001372 -0.91867471 0.062658601 0.00029444124
0.013456389 -0.07129351 -0.091544069 -0.33776459 -0.93772072 0.081210069 0.00020622513
0.015476706 -0.071833171 -0.09069296 -0.28252923 -0.95656025 0.071901292 0.001250632
0.044578098 -0.071810298 -0.091276035 0.28582996 -0.95681953 0.052892309 0.00043773587
0.046479706 -0.071221277 -0.091612644 0.33500704 -0.94079375 0.051744532 0.0003094743
0.049473774 -0.070039481 -0.091515258 0.39019582 -0.919321 0.050951805 0.00030011649
0.051358085 -0.069303311 -0.09205547 0.43456063 -0.89948392 0.045669783 0.00044444297
0.002810532 -0.066149868 -0.09182442 -0.54219151 -0.83854103 0.053640604 0.0003969032
0.0045843972 -0.067168191 -0.091723561 -0.5074501 -0.86044908 0.046061948 0.00030490221
0.0070688403 -0.068577483 -0.091597944 -0.47323975 -0.8794955 0.050317511 0.00030503853
0.052769601 -0.068484023 -0.091553316 0.45804831 -0.88734514 0.053012427 0.00030763281
0.055305239 -0.067082316 -0.091292158 0.51000005 -0.85899931 0.044945683 0.00030131303
0.057346523 -0.066122085 -0.091765113 0.54046363 -0.83999962 0.047955543 0.00059128745
-0.00082006294 -0.063483521 -0.091635145 -0.62322623 -0.77997035 0.056880411 0.00040452852
0.001297809 -0.065049313 -0.091409773 -0.5789488 -0.81365663 0.052735686 0.00054059725
0.05878948 -0.064782701 -0.091479033 0.56764889 -0.8219468 0.046671018 0.00029885946
0.060869105 -0.0634031 -0.091571108 0.61330414 -0.78833014 0.048925292 0.0003018438
-0.0040089949 -0.060786724 -0.091583997 -0.68872613 -0.72207361 0.065314323 0.00054102798
-0.0022092813 -0.062325556 -0.091517076 -0.64338285 -0.76258695 0.067229003 0.00036884
0.061793014 -0.062474519 -0.091056228 0.61610007 -0.78712642 0.029199092 0.00042207772
0.0638486 -0.060845017 -0.091509923 0.66961426 -0.74183321 0.036057919 0.00014740683
-0.0067585558 -0.057807453 -0.091495045 -0.74587464 -0.66352516 0.058355507 0.00021590781
-0.0054403674 -0.059334531 -0.091517955 -0.72152859 -0.68952632 0.062848739 0.00034692229
0.065381229 -0.059418362 -0.091576025 0.70084828 -0.71243227 0.035382237 0.00023220203
0.066858098 -0.057937704 -0.091631278 0.73264337 -0.67964053 0.036365189 0.00031461462
-0.0094860084 -0.054596946 -0.091756269 -0.78837299 -0.61326033 0.048783053 0.00026333061
-0.0081284298 -0.05614515 -0.091299251 -0.76417053 -0.64263266 0.055377409 0.00011361831
0.068240695 -0.056292284 -0.091284625 0.75570673 -0.6536839 0.040058114 0.00020805115
0.069476739 -0.054803278 -0.091659218 0.79338187 -0.60747319 0.039006289 0.0003016197
-0.012174092 -0.051088948 -0.091967814 -0.83465528 -0.54833692 0.051740132 0.00022196273
-0.010912625 -0.052627835 -0.091489047 -0.82221067 -0.56738335 0.045230769 0.00030650385
0.071019545 -0.052632451 -0.091451958 0.82811981 -0.5594753 0.034711719 0.00029922515
0.072031558 -0.051417109 -0.090505213 0.82918793 -0.55768967 0.037810031 0.00014388113
-0.013046239 -0.049347181 -0.091685645 -0.85738587 -0.51229763 0.049401544 0.00031028825
-0.01189533 -0.050873615 -0.090659961 -0.83323282 -0.55174923 0.035996761 0.00043271156
0.072997995 -0.04951977 -0.091579258 0.86378664 -0.50328189 0.024081912 0.00022344876
-0.015243019 -0.045450546 -0.091432728 -0.8922084 -0.45030087 0.034544628 0.00045578307
-0.014479407 -0.046862129 -0.091516621 -0.88137251 -0.47033387 0.044368222 0.00028952552
0.074477196 -0.046692923 -0.0916657 0.89586675 -0.44413149 0.013037631 0.00020989979
0.075081803 -0.046081081 -0.091254242 0.90148783 -0.43250918 0.0159867 0.00047553092
-0.01607872 -0.043512803 -0.091508381 -0.91697848 -0.39787641 0.029065832 0.00023465492
0.075823121 -0.04373619 -0.091297887 0.92279512 -0.38498849 0.01526353 0.00034559122
-0.01805239 -0.039065905 -0.092451148 -0.95801765 -0.28575334 0.023393199 0.0002213406
-0.01725507 -0.040478509 -0.091500819 -0.93830323 -0.3449899 0.023852468 0.00025653595
0.076908752 -0.040944424 -0.091415241 0.94543511 -0.32515511 0.020653296 0.00028588032
-0.018363768 -0.037048854 -0.091563098 -0.96305662 -0.26836559 0.022400338 0.00026891052
-0.017801464 -0.038591735 -0.091333404 -0.95768678 -0.2868157 0.023933686 0.00028138526
0.077906415 -0.037670325 -0.091543615 0.95727265 -0.28909606 0.0072450889 0.00029074028
-0.018923342 -0.034542501 -0.091448613 -0.97558224 -0.21906376 0.015822619 0.00033037283
0.078794219 -0.035203516 -0.09176416 0.96870548 -0.2470772 0.023719745 0.00036537176
-0.019539857 -0.031515241 -0.0915296 -0.98755288 -0.15678425 0.012569186 0.00043139726
-0.019880222 -0.028489698 -0.091597863 -0.99660063 -0.081860565 0.0092745656 0.00023014066
-0.020038916 -0.025556743 -0.091486558 -0.99937975 -0.032929398 0.01247623 0.0003399468
-0.020058876 -0.022521582 -0.091512509 -0.99938315 0.032388452 0.013577627 0.00025895942
-0.019849814 -0.019459393 -0.091499887 -0.99425471 0.10619429 0.013430138 0.00039386033
-0.019389611 -0.016416896 -0.091554582 -0.98316485 0.18128042 0.02289502 0.00027630047
-0.018770307 -0.013429952 -0.091492243 -0.97376883 0.22576231 0.028383523 0.00016268951
-0.01820391 -0.011150181 -0.091580614 -0.96122956 0.27338785 0.036011767 0.00026391068
-0.017798189 -0.0097672492 -0.091380835 -0.95491421 0.29463598 0.036448926 0.00030732292
-0.017021984 -0.0075118616 -0.091524556 -0.93939936 0.34070116 0.038099371 0.00019086307
-0.015813436 -0.0044788728 -0.091482289 -0.92451841 0.37980878 0.03179552 0.00019105448
-0.01495916 -0.0031739422 -0.090738848 -0.92266005 0.38492966 0.022968758 0.00021282636
-0.015157902 -0.0026466514 -0.091528036 -0.90174335 0.43173152 0.021604573 0.00052211172
-0.014331122 -0.0012048254 -0.091506496 -0.89104557 0.45361486 0.0164751 0.00034847413
-0.012870615 0.0014270123 -0.091441013 -0.85975605 0.51057863 0.01135752 0.00033178023
-0.011914178 0.0028598334 -0.091122389 -0.83093417 0.55629218 0.0093553727 0.00053583493
-0.012160862 0.0030861176 -0.091749445 -0.84201992 0.53941077 0.0062067532 0.0005320356
-0.010762309 0.0045733261 -0.091482565 -0.80815399 0.5886752 0.018672001 0.00032910588
-0.0092767831 0.0065210829 -0.091602467 -0.7766118 0.62956667 0.022802763 0.00015862127
-0.0080375951 0.0080274269 -0.091391914 -0.75569987 0.65440959 0.025803093 0.0001139057
-0.0066115912 0.009665383 -0.091696717 -0.73239052 0.68047595 0.02359141 0.00016286377
-0.005282132 0.011039714 -0.091479361 -0.71351689 0.70028281 0.022306984 0.00015696486
-0.0038360718 0.012458837 -0.091593876 -0.69070357 0.72277451 0.022926854 0.00013306127
-0.0019150228 0.014180096 -0.091605842 -0.64447385 0.7643643 0.020016486 0.00040931487
0.061608575 0.014260403 -0.092631839 0.56492794 0.82472926 0.026040645 0.00019232956
-0.00044408505 0.015369487 -0.091577373 -0.62110853 0.78340608 0.022339324 0.00028508992
0.0013879451 0.016723052 -0.091450043 -0.58914268 0.80799204 0.0077283634 0.00024077937
0.0031879705 0.017838662 -0.091283612 -0.55512124 0.83172596 0.0085026752 0.00020706777
0.056756951 0.017695213 -0.091734558 0.53798515 0.84249932 0.027692469 0.00059647317
0.058302719 0.016802069 -0.091701999 0.54638875 0.83723271 0.022376457 0.00014918338
0.0046030399 0.018766116 -0.09157981 -0.50731522 0.86171603 0.0087583521 0.00037533746
0.0073101465 0.020227192 -0.091439277 -0.45862392 0.88854176 0.012556065 0.00038326179
0.0090504196 0.020914748 -0.091269642 -0.44002387 0.89779818 0.018369153 0.00021370199
0.052544333 0.020131387 -0.091351084 0.44663563 0.89433581 0.026080258 0.00024279117
0.054974739 0.018882826 -0.091617137 0.50723666 0.86110431 0.034791216 0.00036295754
0.0087920893 0.021089491 -0.091504753 -0.42395845 0.90560102 0.012084006 0.00027538877
0.010225167 0.021534165 -0.091788799 -0.39549312 0.91826195 0.01949884 0.00035000232
0.01345181 0.022828715 -0.091622211 -0.33782935 0.94086534 0.025371091 0.00018308981
0.016094387 0.023688139 -0.091389358 -0.29396397 0.95529294 0.031631947 0.00033760854
0.043731492 0.023736984 -0.091154531 0.28822488 0.95684731 0.037009135 0.00051502022
0.04639272 0.022805344 -0.091214702 0.34481218 0.93815267 0.031211041 0.00026426784
0.049409498 0.021606125 -0.091411062 0.40009743 0.91587722 0.033029571 0.00015134385
0.017647997 0.024157381 -0.091508277 -0.27166057 0.96161813 0.038614452 0.00035688121
0.019559866 0.024583468 -0.091569565 -0.21298818 0.97575289 0.050421473 0.00033761581
0.022517739 0.025167545 -0.091470741 -0.17263028 0.98277652 0.06594792 0.0002256406
0.025490507 0.025607748 -0.091488771 -0.092227556 0.993173 0.071424671 0.00063498673
0.028565718 0.02574013 -0.091617525 -0.024868559 0.9971993 0.070533611 0.00034317313
0.031387188 0.025770919 -0.091505714 0.022477455 0.99714881 0.072034575 0.0011287178
0.034361437 0.025645301 -0.091528565 0.090169854 0.99155021 0.093260728 0.00048415549
0.037359655 0.025218273 -0.09136539 0.16074309 0.98257184 0.093350232 0.00054238556
0.040038854 0.024774944 -0.09186992 0.19530524 0.97831529 0.068956636 0.00046615806
0.042486221 0.024100449 -0.091754168 0.2764852 0.96005017 0.043123398 0.00064445531
0.017202023 -0.072181962 -0.088298999 -0.27763507 -0.96059853 -0.013010911 0.0035017936
0.019398121 -0.072678745 -0.088540681 -0.21172374 -0.97732764 -0.0019396929 0.0031517989
0.022380415 -0.073162675 -0.088579603 -0.16847515 -0.98565537 -0.0099774757 0.0032027415
0.025313044 -0.073519148 -0.088459693 -0.10036897 -0.99474359 -0.020281306 0.0028380849
0.028434444 -0.073714867 -0.088514067 -0.0059590419 -0.99993145 -0.010074391 0.002507362
0.031483125 -0.073736332 -0.088554367 0.051464997 -0.99862105 -0.010365899 0.0023684001
0.034265347 -0.07357166 -0.088519774 0.082903594 -0.99655491 -0.0023030567 0.0027698211
0.037557907 -0.073175184 -0.088751413 0.15258452 -0.98829007 0.00087044179 0.002667086
0.040015642 -0.072661161 -0.088274531 0.20447995 -0.9787128 -0.017586712 0.0017905489
0.042495903 -0.072183952 -0.088800341 0.27278468 -0.96207261 -0.0021683702 0.0024142552
0.0087335836 -0.069125749 -0.088618837 -0.45494685 -0.8904773 -0.0085698366 0.0026557909
0.010579172 -0.069904201 -0.088484339 -0.39011773 -0.92070848 -0.010193408 0.0020838261
0.013582787 -0.0710802 -0.088513389 -0.32584217 -0.94506878 -0.02592073 0.0027303637
0.015749419 -0.071807429 -0.088658258 -0.25234345 -0.96748239 -0.017339414 0.003501453
0.044032458 -0.071714014 -0.088300802 0.26444209 -0.96439528 -0.0034863483 0.0021378156
0.046619758 -0.070901141 -0.088441476 0.3240996 -0.94602287 -0.00052554812 0.0018609449
0.049465399 -0.069774777 -0.088437922 0.39722872 -0.91770083 0.0058779335 0.001474668
0.05130155 -0.069082737 -0.088891461 0.45490122 -0.89053613 0.003212193 0.0017012081
0.0028234432 -0.066033401 -0.088346191 -0.56680781 -0.8238079 0.0083333598 0.0017865663
0.0045575728 -0.066891521 -0.088534899 -0.51527447 -0.85700482 0.00590601 0.0012045833
0.0072734733 -0.068413816 -0.088360906 -0.44974861 -0.89309877 -0.010042607 0.0022679945
0.052612461 -0.068312712 -0.088512406 0.45461434 -0.89068013 0.0038333512 0.0014194838
0.055532645 -0.066738337 -0.088734217 0.51583749 -0.85668576 -0.0010868881 0.0013612387
-0.00048466501 -0.063376732 -0.088484503 -0.62603045 -0.77977407 -0.0061948751 0.0022648799
0.0013807074 -0.064878576 -0.088419154 -0.58132493 -0.81367105 0.00084990368 0.0020713676
0.0030917379 -0.065930836 -0.088397846 -0.57448763 -0.81851143 0.0017591459 0.0018860083
0.056744084 -0.065921478 -0.0876555 0.53783923 -0.84272146 -0.023440091 0.0017368736
0.058502592 -0.06475459 -0.088447496 0.5646565 -0.82528555 0.0081702787 0.0012416057
0.060512792 -0.063365579 -0.088563189 0.61976749 -0.78476584 0.0055549406 0.0013774844
-0.0036907424 -0.06068955 -0.088591501 -0.68158025 -0.73174125 -0.0017771571 0.0021293184
-0.0019475362 -0.062118165 -0.088500261 -0.63943815 -0.76882881 -0.0045754923 0.0024819938
0.061962299 -0.062218979 -0.088483222 0.63968468 -0.76862711 0.0039747409 0.0011863257
0.063717015 -0.060765982 -0.0885306 0.64978528 -0.76009947 0.0052783652 0.00093770382
-0.0066233128 -0.057745259 -0.088491999 -0.74454921 -0.66753399 -0.0066949259 0.0015853858
-0.005194813 -0.059214674 -0.08867234 -0.71735418 -0.69670641 0.0017584673 0.001882348
0.065218538 -0.059360288 -0.088433236 0.69760978 -0.71647155 0.0030226195 0.00095960178
0.066725112 -0.057771772 -0.088513508 0.74938565 -0.66212994 0.0022520961 0.0010703888
-0.0094154496 -0.054413892 -0.088610962 -0.78576255 -0.61848783 -0.007069929 0.0012551375
-0.008150043 -0.055877905 -0.088526353 -0.77432072 -0.63270205 -0.010754581 0.0011935359
0.06811887 -0.056235578 -0.088496804 0.74814069 -0.66353309 0.003056128 0.0010131404
0.06926614 -0.054790787 -0.088658102 0.78159332 -0.62378627 -0.0016004152 0.0011127342
-0.012021642 -0.051019371 -0.088287175 -0.82289815 -0.5681777 0.0035837085 0.0012768639
-0.010774065 -0.052539241 -0.088544726 -0.82573938 -0.56405067 0.0011173836 0.0012141456
0.070761025 -0.052718528 -0.088529617 0.82605326 -0.56358135 -0.0034792956 0.0010849023
0.072108582 -0.051151678 -0.089092977 0.85531408 -0.51808506 -0.0050755823 0.00084948633
-0.012818933 -0.049329948 -0.088633478 -0.85628188 -0.51646096 0.007027559 0.0011372076
-0.011850169 -0.050779417 -0.088535756 -0.83784997 -0.54589927 0.0012214844 0.00096798711
0.072846003 -0.049491547 -0.088363022 0.86063272 -0.50918496 -0.0064908285 0.00069419446
-0.01518677 -0.045222536 -0.08869227 -0.88743114 -0.46092999 0.003081202 0.0012912194
-0.014319543 -0.046696398 -0.088597126 -0.88308901 -0.46919879 0.0025208499 0.0013205949
0.07427749 -0.046961308 -0.088611044 0.89421064 -0.4476434 0.001672297 0.00078961556
0.075219296 -0.045786463 -0.088477537 0.89730966 -0.44135681 -0.0062935771 0.00090086402
-0.015927123 -0.043450478 -0.088518381 -0.91272289 -0.40852752 -0.0064947931 0.0009924476
-0.014985663 -0.044901602 -0.08796075 -0.90111524 -0.43353721 -0.0060679941 0.00099159451
0.075966328 -0.043215379 -0.088297799 0.92524052 -0.37929547 -0.008064623 0.00048677903
-0.017164774 -0.040520038 -0.088529527 -0.93830347 -0.34563208 -0.011182146 0.00081151625
0.077000305 -0.040362664 -0.088594958 0.94877416 -0.31590512 -0.0056162784 0.00044341109
-0.018300654 -0.037009403 -0.088472255 -0.96261144 -0.27060908 -0.012245462 0.00061636715
-0.017823908 -0.038385354 -0.088586695 -0.95957214 -0.28120935 -0.011941437 0.00071442977
0.077813223 -0.036596093 -0.088626444 0.96084285 -0.27708495 -0.0022359539 0.00012346964
0.078172185 -0.037330098 -0.088574544 0.96553975 -0.26001316 0.011230818 0.0014478401
-0.018956989 -0.034338631 -0.088511474 -0.97499913 -0.22199799 -0.0096717095 0.00043161868
-0.019515462 -0.031557474 -0.088651396 -0.98749155 -0.15761983 -0.004043208 0.00049462408
0.07934197 -0.031753164 -0.087423153 0.98386419 -0.17874141 -0.0079260413 0.00050285604
-0.019847047 -0.028510302 -0.088601582 -0.9956094 -0.093553901 -0.0031064108 0.00050792494
0.079531878 -0.029595638 -0.088434704 0.98379928 -0.17927042 -0.001056915 0.00051319523
-0.020001035 -0.025564035 -0.088478081 -0.99944746 -0.032896258 -0.0047460166 0.00039345832
-0.019994516 -0.022540934 -0.088463202 -0.99934042 0.035856619 -0.0057432153 0.00050661026
-0.019773463 -0.019524455 -0.088557199 -0.99466002 0.10320531 8.0976552e-06 0.0005532084
-0.019298565 -0.016422445 -0.088596657 -0.98181254 0.18963185 -0.0091571007 0.00069759192
-0.018661398 -0.013456364 -0.088498771 -0.97199136 0.23483674 -0.0091880783 0.00072770886
-0.017994395 -0.012141374 -0.088934831 -0.97311932 0.23023386 -0.0055860728 0.00087752985
-0.01820543 -0.011412609 -0.088512398 -0.95664001 0.29117909 -0.0073870448 0.0010883724
-0.017696938 -0.009998749 -0.08858043 -0.95720196 0.28940251 -0.003260775 0.0010612459
-0.016830232 -0.0074784383 -0.088553175 -0.94063139 0.33942798 -0.0011156049 0.00076783088
-0.015715487 -0.0045448504 -0.08847779 -0.92569035 0.37828198 -0.00012349087 0.00045749004
-0.014906372 -0.0031144656 -0.088443816 -0.92165065 0.3880206 0.00045232783 0.00046398281
-0.015099672 -0.0026988217 -0.088611528 -0.90437037 0.42674655 0.0012908039 0.00054719194
-0.014389117 -0.0013591768 -0.088485092 -0.89584136 0.4443447 0.0050990921 0.00063109456
-0.012901952 0.0013325746 -0.08844918 -0.86044365 0.50954205 0.0019085956 0.00036694223
-0.01190073 0.0028428682 -0.088232867 -0.82143039 0.57028162 -0.0055620782 0.00059058052
-0.010767623 0.004505353 -0.088596672 -0.81942183 0.57304925 -0.012745732 0.00056387042
-0.0092117041 0.0064716437 -0.088601574 -0.77143055 0.63606822 -0.017667821 0.00060874375
-0.0079352707 0.0079945568 -0.088471361 -0.75309068 0.65773576 -0.015433757 0.00064805918
-0.0065124133 0.0096365968 -0.088517249 -0.73058927 0.68277305 -0.0077593517 0.00065705541
-0.0052280878 0.01096675 -0.088646144 -0.72093111 0.69297206 -0.0069306274 0.00056594843
-0.0037837345 0.012395764 -0.088474743 -0.69071478 0.7230559 -0.010160234 0.00059264293
-0.0021680302 0.013883042 -0.088632643 -0.64968288 0.76016194 -0.0081230048 0.00083082798
-0.00059669814 0.015178418 -0.088543259 -0.63210839 0.77474421 -0.014504232 0.00056381326
0.0013593825 0.016678497 -0.088474661 -0.58753014 0.80913723 -0.010259718 0.00042639161
0.003180583 0.017822988 -0.088573769 -0.56787539 0.8229664 -0.015614878 0.00041532208
0.056841027 0.017719015 -0.088900037 0.49864966 0.86680049 0.0023459187 0.0006190486
0.057871036 0.016876662 -0.088494346 0.55431378 0.83225501 -0.00937007 0.00080575381
0.0044009229 0.018632386 -0.088196583 -0.5201605 0.85361987 -0.027680758 0.00076354638
0.007445686 0.020168075 -0.08836709 -0.45313126 0.89087439 -0.031857993 0.0007343014
0.0091582481 0.020905714 -0.088505447 -0.38376731 0.92279875 -0.034133989 0.0011801864
0.052567959 0.020031627 -0.088420138 0.4533695 0.89098608 -0.024493782 0.00069368421
0.055207267 0.018608894 -0.088817939 0.50364524 0.86382627 -0.012070067 0.00077199406
0.0088147456 0.021026276 -0.087398998 -0.41533941 0.90901768 -0.03435291 0.00053289824
0.010349653 0.021526812 -0.08825098 -0.39577287 0.91800761 -0.025018265 0.00092693698
0.013253804 0.022625346 -0.088181376 -0.33683634 0.94141024 -0.016970908 0.00071264524
0.016103275 0.023605146 -0.088489302 -0.27830932 0.96031171 -0.018584965 0.0012378631
0.043512158 0.023749366 -0.088288441 0.27262226 0.96203518 -0.012859217 0.0013247395
0.046460822 0.022719275 -0.088523909 0.33453044 0.94215679 -0.020738117 0.00083663419
0.049560159 0.021451276 -0.08835239 0.40210089 0.91517657 -0.027689863 0.00054840092
0.017789865 0.024101971 -0.088429905 -0.2586517 0.96578211 -0.019085955 0.0013748282
0.019495891 0.024419548 -0.088507824 -0.21422558 0.9765982 -0.019063763 0.0012958137
0.022425687 0.0249376 -0.088538885 -0.17323501 0.9847312 -0.017150417 0.001354596
0.025455395 0.025345838 -0.088491835 -0.10035086 0.99491507 -0.0085904282 0.0019944001
0.028467054 0.025550595 -0.088613711 -0.024161434 0.99965644 -0.010157127 0.0017556091
0.031242615 0.025598878 -0.088549025 0.02865305 0.99957383 -0.0055743363 0.0025518534
0.034325626 0.025299221 -0.088412143 0.10058168 0.99488735 -0.009080234 0.0031523306
0.03764008 0.024879815 -0.0885083 0.16705434 0.98583645 -0.014816828 0.0023523474
0.040075842 0.02440249 -0.088834397 0.18610966 0.98252803 0.001429223 0.002120944
0.042142693 0.024062261 -0.088352345 0.23535764 0.97189349 -0.00546228 0.0013414323
0.014766588 -0.072037488 -0.084954411 -0.30853927 -0.94858474 -0.070643835 0.0011119222
0.016466947 -0.072380684 -0.085399441 -0.25896129 -0.96403539 -0.059790321 0.00095162954
0.019418111 -0.073089801 -0.085431524 -0.20471425 -0.97613293 -0.072502978 0.00065204391
0.022356544 -0.073598601 -0.085532911 -0.14619088 -0.9877544 -0.054492861 0.0015379653
0.025352832 -0.073929831 -0.085491829 -0.087724097 -0.99374253 -0.069139607 0.00092979235
0.028428746 -0.074121714 -0.085340574 -0.021833934 -0.99757928 -0.066022091 0.00064533838
0.031556368 -0.07404349 -0.085611857 0.040535759 -0.99774235 -0.053545274 0.00097854738
0.0346631 -0.073883317 -0.085188694 0.093776762 -0.99373448 -0.060809467 0.00041280221
0.037415449 -0.073471852 -0.085699484 0.14786595 -0.9873808 -0.056699716 0.00091714034
0.039933916 -0.073093019 -0.085026957 0.19849324 -0.97884375 -0.049653649 0.0005552441
0.043026514 -0.072337061 -0.085294738 0.26871571 -0.96133876 -0.060162812 0.00050886301
0.0083799381 -0.069305323 -0.085392304 -0.4381609 -0.89694756 -0.059162546 0.00061846443
0.010510697 -0.070186689 -0.085465163 -0.38354611 -0.92143631 -0.06202843 0.00043450962
0.013371794 -0.071318902 -0.085532054 -0.35484448 -0.93305975 -0.059033222 0.00054171041
0.015392986 -0.07195279 -0.0862296 -0.29658654 -0.95354718 -0.052765545 0.0012100654
0.044527918 -0.071866065 -0.085410245 0.292124 -0.95490843 -0.053041469 0.00069695234
0.046563648 -0.071181729 -0.085160255 0.33493304 -0.94097143 -0.048913945 0.00029818743
0.049549729 -0.070023172 -0.085285217 0.3897258 -0.91941345 -0.052846055 0.00037224451
0.0514974 -0.069202878 -0.085425533 0.44477811 -0.89402795 -0.053725854 0.00022197777
0.0028479097 -0.066129252 -0.085169494 -0.54602247 -0.83638579 -0.048147343 0.00013920719
0.0046321061 -0.067191944 -0.085385844 -0.51934159 -0.85326076 -0.047227696 0.0003558422
0.0068183416 -0.068466395 -0.085661136 -0.47850728 -0.87658274 -0.051317777 0.00053660659
0.053016268 -0.068329602 -0.085543185 0.45757249 -0.88777429 -0.049842849 0.00026188765
0.055294905 -0.06709227 -0.085366115 0.49903783 -0.86523241 -0.048312135 0.00033882033
0.057136875 -0.066159576 -0.084404595 0.55800211 -0.82825053 -0.05133019 0.00034134733
-0.00079971645 -0.0635188 -0.085640132 -0.61700386 -0.7849592 -0.056082249 0.0006368605
0.0012327634 -0.064993821 -0.085464559 -0.57546794 -0.8163687 -0.048772167 0.00043571345
0.058378037 -0.065125398 -0.085678227 0.56961858 -0.82010549 -0.054421891 0.00026932475
0.060515478 -0.063675649 -0.085220277 0.59547448 -0.80168003 -0.052146055 0.00020969119
-0.0040223012 -0.060820699 -0.085302487 -0.68751585 -0.72417635 -0.053764988 0.00066609471
-0.0022668815 -0.062353563 -0.085547358 -0.65271026 -0.7552228 -0.06006493 0.00069488276
0.062129851 -0.062364299 -0.085330419 0.61112118 -0.79001069 -0.049133658 0.0002805918
0.063860342 -0.060807757 -0.085450672 0.668634 -0.74216259 -0.046078969 0.00011057427
-0.0067676404 -0.05785995 -0.085506037 -0.74562413 -0.66449529 -0.049907479 0.00022462834
-0.0054527796 -0.059284765 -0.08546675 -0.72132623 -0.69074857 -0.050545707 0.00028226504
0.065478377 -0.059292875 -0.08554481 0.70140791 -0.71160221 -0.04061 0.00019125768
0.066835433 -0.057921231 -0.085516043 0.72423464 -0.68845844 -0.038847499 0.00018504568
-0.0094268015 -0.054747991 -0.085386142 -0.78554434 -0.61709952 -0.045917489 0.00036964734
-0.0082101393 -0.056250088 -0.08558096 -0.7612043 -0.64678484 -0.047299832 0.00024793865
0.068391427 -0.056117471 -0.085516326 0.7640729 -0.64395356 -0.038940094 0.00034015483
0.069580063 -0.054643065 -0.085270777 0.79924506 -0.59977996 -0.038357977 0.00020592811
-0.012083177 -0.051150024 -0.085146777 -0.84014839 -0.5410493 -0.037634492 0.00019138477
-0.010889634 -0.052669886 -0.085655384 -0.82682502 -0.56113708 -0.038542453 0.00025542104
0.070883192 -0.052844226 -0.085556805 0.8194406 -0.5718925 -0.038159303 0.00024911211
0.072227187 -0.051228326 -0.085647322 0.83833927 -0.54433841 -0.029714616 0.00017739506
-0.012945093 -0.049426422 -0.08555048 -0.85817331 -0.51187962 -0.038957879 0.00014785572
-0.011937683 -0.050900608 -0.086446427 -0.83303696 -0.55222988 -0.033039473 0.00043821803
0.071941108 -0.050851841 -0.084745049 0.85253489 -0.52206153 -0.025219303 0.00042276026
0.07310164 -0.049250863 -0.085568741 0.86504686 -0.50091773 -0.027844915 0.00021007482
-0.015193271 -0.045475647 -0.085605592 -0.89074922 -0.45339084 -0.031662054 0.00046580323
-0.014377381 -0.04701801 -0.085525125 -0.87785786 -0.47757003 -0.035951465 0.00031484081
0.074470773 -0.046840627 -0.085572436 0.88992035 -0.45570841 -0.019277649 0.00039572653
0.075361572 -0.045547735 -0.08543124 0.9036485 -0.42802027 -0.014768984 0.00056548504
-0.01614779 -0.043411668 -0.085429035 -0.91593277 -0.40040451 -0.027263936 0.00031375486
0.075974852 -0.043516859 -0.085422553 0.92659366 -0.37567568 -0.017090211 0.00018181404
-0.018114408 -0.039196774 -0.084661469 -0.94637889 -0.32223052 -0.023120217 0.00052240433
-0.017308079 -0.040553633 -0.085529335 -0.93562078 -0.35206759 -0.025731361 0.00034634778
0.077098668 -0.040455416 -0.085527502 0.94637471 -0.32281429 -0.012881319 0.00057215802
-0.018365199 -0.037343606 -0.085498795 -0.96388388 -0.26527184 -0.023637252 0.00030824772
-0.017869264 -0.038619529 -0.085654378 -0.95722389 -0.28814834 -0.026324103 0.00045129907
0.07752534 -0.03825843 -0.085377105 0.96261996 -0.27041426 -0.015461034 0.00015836478
0.078259841 -0.037621383 -0.085648239 0.96572179 -0.25948328 -0.0070654391 0.00081738824
-0.01901325 -0.034520876 -0.085495263 -0.97645777 -0.21509291 -0.016288308 0.00025585873
0.078439206 -0.034523092 -0.08499717 0.96540093 -0.26070365 -0.0058834828 7.2174902e-05
-0.019556303 -0.031460844 -0.085577056 -0.98922896 -0.14628918 -0.0050514475 0.00024716617
0.079391748 -0.031907141 -0.085804567 0.98540068 -0.17017505 -0.0050968439 0.00025523783
-0.019903209 -0.028420281 -0.085520528 -0.99685061 -0.079055957 -0.0062465025 0.00028998088
-0.0200908 -0.025509495 -0.085472643 -0.99944311 -0.031562205 -0.010828501 0.0002377409
-0.020067712 -0.022492781 -0.085446477 -0.99945843 0.027992152 -0.01729873 0.00039288378
-0.019884655 -0.01949048 -0.085498184 -0.99465066 0.10211125 -0.015603288 0.00039662886
-0.019452624 -0.016466521 -0.085583642 -0.98264468 0.18339343 -0.027862495 0.00031850202
-0.018849572 -0.013457479 -0.08553797 -0.97306842 0.22836618 -0.031414021 0.00023678594
-0.018246101 -0.011155961 -0.085356064 -0.96016943 0.27752012 -0.032515049 0.00027287839
-0.017804738 -0.0097869318 -0.085806869 -0.95254678 0.30252233 -0.033689689 0.00027755802
-0.017051453 -0.007574711 -0.085500881 -0.9391098 0.34203517 -0.032936208 0.00014705364
-0.015838956 -0.0044725807 -0.085479513 -0.92106962 0.3889524 -0.018619848 0.00038640201
-0.014947705 -0.0031405124 -0.086450621 -0.91826069 0.39585555 -0.0097845327 0.00051679398
-0.01513661 -0.0026288887 -0.08557117 -0.89862496 0.43867072 -0.0064111999 0.0004754338
-0.01432843 -0.0012602338 -0.085444964 -0.88908303 0.45773223 0.0035612984 0.00024974675
-0.012897989 0.0013590773 -0.085503958 -0.86717272 0.49792489 0.009073616 0.00018479966
-0.011938217 0.0028375981 -0.08543843 -0.83675462 0.54757774 -0.00060965627 0.00022107456
-0.012092414 0.0031263225 -0.084126733 -0.83399475 0.55165535 0.011364643 0.00025513596
-0.01095059 0.0044944501 -0.085539475 -0.82724422 0.56178308 -0.0081650801 0.00043511111
-0.0094914651 0.0064627272 -0.085271589 -0.78141356 0.62365472 -0.021156374 0.00046566979
-0.0081353365 0.008064515 -0.085603103 -0.75778019 0.6519751 -0.02641472 0.00033111771
-0.0066917841 0.0096349595 -0.08552736 -0.73419225 0.6785264 -0.023741657 0.00018955089
-0.0051955301 0.011192496 -0.08528164 -0.71092713 0.70296514 -0.020559609 0.00013143288
-0.0036901394 0.01268208 -0.085456483 -0.68957698 0.72389251 -0.021524707 0.00017382266
-0.0020182303 0.014190357 -0.085725382 -0.65430248 0.75591111 -0.02206159 0.00032639626
0.061054215 0.014802477 -0.086275704 0.55509746 0.83163422 -0.015855206 0.00076880492
-0.00040314428 0.015397796 -0.085586026 -0.61986107 0.78435135 -0.02377408 0.00027664672
0.0011677917 0.016684396 -0.085403681 -0.59040052 0.80684698 -0.020619012 0.00032148906
0.0031697713 0.017904401 -0.086138546 -0.55201691 0.83328229 -0.030296605 0.00039274228
0.056845497 0.017770551 -0.086181529 0.50459772 0.86235958 -0.041438226 0.00042909759
0.057707038 0.017278437 -0.08518973 0.5380199 0.84213942 -0.036548451 0.00044935133
0.060893901 0.015263027 -0.084318534 0.5554902 0.83075184 -0.035806421 0.00045543868
0.0044950838 0.018924061 -0.085247591 -0.53316736 0.84580559 -0.018587576 0.00049045973
0.0071644066 0.02031572 -0.08566469 -0.46408981 0.88489968 -0.039664302 0.00041914891
0.052698188 0.020116195 -0.085605487 0.45504546 0.88912988 -0.048802987 0.00026246006
0.055038691 0.018959772 -0.085200332 0.49973086 0.86555469 -0.032926403 0.00046596746
0.0086295418 0.021087945 -0.085220598 -0.43547869 0.89906991 -0.045074087 0.00062605902
0.010423452 0.021822931 -0.085532099 -0.38402906 0.92217433 -0.046001039 0.00055165496
0.013389776 0.022930153 -0.085411988 -0.3438215 0.93796718 -0.044770051 0.00027111184
0.015889337 0.023719713 -0.085717104 -0.31057426 0.94949591 -0.044733956 0.00035662486
0.044030778 0.023703139 -0.085565262 0.29069319 0.95588517 -0.042201735 0.00032128874
0.046380557 0.022946309 -0.085511103 0.34283224 0.93841273 -0.042983767 0.00029713803
0.049140267 0.021871161 -0.085433692 0.40027389 0.9151786 -0.047212638 0.00034138063
0.051034577 0.021156143 -0.0841114 0.44526216 0.89431608 -0.04405041 0.00024054831
0.017425261 0.024239827 -0.085020572 -0.28708279 0.95700651 -0.041497022 0.00031797256
0.019507648 0.02470999 -0.085480832 -0.20540406 0.97715276 -0.054604564 0.00041338694
0.022466926 0.02527778 -0.085559495 -0.16214606 0.98508471 -0.057591021 0.00049283128
0.025450319 0.02566549 -0.085451216 -0.09972991 0.99391389 -0.046786457 0.00062659924
0.028416106 0.025860855 -0.085400797 -0.042658526 0.99818271 -0.042561576 0.00058415456
0.031386565 0.025870537 -0.085579909 0.030788967 0.99857807 -0.043519251 0.0011647864
0.034476344 0.025733443 -0.085445166 0.098419316 0.99421382 -0.043039866 0.0014557372
0.037670497 0.025314758 -0.085068077 0.16748156 0.9833113 -0.071053959 0.00076708308
0.040649295 0.024633294 -0.085407615 0.20248897 0.97766548 -0.056288082 0.00059462507
0.042594407 0.024134219 -0.085270256 0.25980321 0.96431589 -0.050961941 0.00040397444
0.016418256 -0.072390579 -0.082518779 -0.26768011 -0.96350324 0.0029706308 0.00034715488
0.019440696 -0.073124565 -0.082542129 -0.21406873 -0.97681481 -0.0027263467 0.00028508977
0.022385772 -0.073703513 -0.082462005 -0.14725325 -0.9890976 -0.0015477398 0.00041697695
