# .PCD v0.7 - Point Cloud Data file format
VERSION 0.7
FIELDS x y z normal_x normal_y normal_z curvature
SIZE 4 4 4 4 4 4 4
TYPE F F F F F F F
COUNT 1 1 1 1 1 1 1
WIDTH 553
HEIGHT 1
VIEWPOINT 0 0 0 1 0 0 0
POINTS 553
DATA ascii
0.04056463 0.014013531 -0.012882303 0.31076664 -0.65172535 -0.69186568 0.0023371477
-0.039139297 0.017824845 -0.012285282 -0.3518512 -0.62029922 -0.70102042 0.0016983548
-0.037102476 0.017320069 -0.012745931 -0.33165607 -0.61803198 -0.71276975 0.00092127483
-0.034548331 0.01649555 -0.013089374 -0.29693598 -0.61367404 -0.73159629 0.0011002334
-0.031710323 0.016019925 -0.013700446 -0.26612908 -0.60705435 -0.7487725 0.0007662616
-0.029016525 0.015464024 -0.014101888 -0.23809041 -0.57340097 -0.783916 0.0010652102
-0.025937116 0.015403458 -0.014839794 -0.17910753 -0.49832037 -0.84829086 0.0020439124
0.038151376 0.015043228 -0.014714672 0.18366314 -0.4913373 -0.85138452 0.0034058916
0.040279716 0.015684532 -0.014425159 0.28750786 -0.60589164 -0.74177802 0.0035258573
0.04402665 0.016249254 -0.01324964 0.35153797 -0.66849357 -0.65539104 0.0024063345
-0.043025825 0.020451654 -0.012377484 -0.40400854 -0.59173179 -0.6975891 0.0010105597
-0.040537678 0.019699007 -0.013028125 -0.37525621 -0.59009492 -0.71482217 0.0010338174
-0.037887953 0.018984381 -0.013671647 -0.32676241 -0.57449359 -0.75045544 0.00079468824
-0.034466673 0.018324802 -0.014475358 -0.27028745 -0.55801153 -0.7845813 0.0013466249
-0.032757174 0.01814815 -0.014832167 -0.23449814 -0.53711432 -0.81025851 0.0009516119
-0.048269067 0.023913402 -0.012084894 -0.44211856 -0.57397902 -0.68926001 0.0009674083
-0.046207856 0.023099896 -0.012624419 -0.43090525 -0.56692946 -0.70207673 0.0012386979
-0.043730777 0.022392059 -0.013402791 -0.39078405 -0.53709966 -0.74753708 0.00075700553
-0.040840261 0.021911031 -0.014421776 -0.35321409 -0.50005716 -0.79068488 0.0015270039
-0.038654037 0.021355685 -0.01491254 -0.27251208 -0.48319814 -0.83201963 0.0023262154
0.0019789843 0.023769915 -0.01477256 0.01567946 0.46486998 -0.88524014 0.0043901391
0.0044152671 0.02383006 -0.014743286 -0.015612599 0.52037787 -0.85379332 0.0020465958
0.0070637842 0.023838621 -0.014823047 -0.042763654 0.49749112 -0.86641437 0.0032954731
-0.051428486 0.026577756 -0.012225882 -0.44421253 -0.54566115 -0.71058363 0.002098473
-0.049508095 0.025838513 -0.012778633 -0.43289247 -0.53685433 -0.72414881 0.0019220809
-0.046720278 0.025237696 -0.013791495 -0.37758917 -0.47747943 -0.79337239 0.0011797362
-0.044159938 0.024467349 -0.014530167 -0.36006939 -0.46386719 -0.80943024 0.0018114046
-0.009010979 0.024828311 -0.014945954 0.100274 0.34209287 -0.9343006 0.0021423821
-0.0072265691 0.026134944 -0.013951024 0.083202042 0.37230623 -0.92437303 0.0020135634
-0.00446939 0.025315305 -0.014135749 0.052858673 0.38947821 -0.91951764 0.0015153581
-0.0012836488 0.025213055 -0.013966646 0.02661483 0.50994521 -0.85979503 0.0011144298
0.0015856657 0.025193196 -0.013873953 0.0054301489 0.58993649 -0.8074314 0.0028955978
0.0044794939 0.025676409 -0.013514862 -0.018989487 0.5970667 -0.80196679 0.0026569292
0.0076397685 0.025477439 -0.013752203 -0.027894532 0.57629871 -0.81676292 0.0017096291
0.010503865 0.025446661 -0.013981652 -0.077244446 0.59510595 -0.7999264 0.0022533627
0.01342611 0.025749717 -0.014093313 -0.11736242 0.58553571 -0.80210596 0.0028009303
0.016301863 0.02604115 -0.01432557 -0.14067018 0.55555159 -0.81949633 0.002630627
0.019193646 0.026486579 -0.014553767 -0.15538782 0.54278791 -0.82537019 0.0026305299
0.021023437 0.026928399 -0.014620624 -0.17558885 0.55841178 -0.81076807 0.0021614172
-0.054613084 0.029555615 -0.012274519 -0.48360586 -0.49932587 -0.71888745 0.0015219279
-0.052534528 0.028650612 -0.012930537 -0.45828077 -0.50023019 -0.73467571 0.001440027
-0.049585674 0.028161272 -0.014134415 -0.38561362 -0.45325613 -0.80365485 0.0013322146
-0.047525991 0.027470425 -0.014698121 -0.33093706 -0.3696126 -0.86825526 0.003233498
0.0015825941 0.027422734 -0.012109958 -0.036965713 0.67534363 -0.73657626 0.0049606492
0.0039491802 0.027168533 -0.012304071 -0.0040291138 0.64308101 -0.76578754 0.0012973496
0.007432512 0.027234612 -0.012338421 -0.03815221 0.64762592 -0.76100266 0.001260411
0.010565571 0.027512154 -0.012327516 -0.075950257 0.69270551 -0.71721029 0.0014992745
0.013467208 0.027520068 -0.012693573 -0.10898876 0.67376769 -0.73086149 0.0019639395
0.016577724 0.02796571 -0.012837067 -0.1485415 0.66720766 -0.72991055 0.0019103193
0.019538749 0.028332239 -0.013168855 -0.18471235 0.64426923 -0.742158 0.002305004
0.022475701 0.028628577 -0.013670128 -0.19465065 0.6149115 -0.76419568 0.0014462774
0.025429204 0.028890138 -0.014241072 -0.21144336 0.60251737 -0.76958728 0.0027862713
0.028218104 0.029461784 -0.014547689 -0.20438015 0.57820809 -0.7898761 0.0016105857
0.030492142 0.029901883 -0.014828624 -0.19762282 0.57576865 -0.79336983 0.0013389135
-0.05738185 0.032533769 -0.012193847 -0.52442181 -0.41980916 -0.74077129 0.0020035105
-0.055476774 0.031638406 -0.012871899 -0.48396489 -0.41682684 -0.76943707 0.0017515691
-0.052920554 0.031136675 -0.01397835 -0.42174941 -0.37741718 -0.82442933 0.001484769
-0.050629422 0.030313162 -0.014689465 -0.33983481 -0.30239162 -0.89054573 0.0028136261
0.022617167 0.030301891 -0.0122113 -0.208837 0.71597123 -0.66616237 0.0012715964
0.025579097 0.0307962 -0.012654571 -0.22267501 0.69516474 -0.68349236 0.0011343604
0.028932581 0.031638261 -0.012937713 -0.23752837 0.6754778 -0.69807595 0.0014763916
0.031473551 0.031746268 -0.013659977 -0.2328912 0.64130545 -0.73108751 0.00096374418
0.034388889 0.032021541 -0.014343514 -0.24140944 0.59957087 -0.76304406 0.0013441403
0.037021704 0.032683376 -0.014651586 -0.24030781 0.58166397 -0.77712238 0.0015838982
-0.058180034 0.034630705 -0.012577727 -0.50293523 -0.32585838 -0.8005451 0.0021762329
-0.055820182 0.034176838 -0.013679498 -0.42931107 -0.2750155 -0.86026651 0.0013494949
-0.053439807 0.03387057 -0.014650849 -0.34142995 -0.18772784 -0.92096901 0.0035542066
0.032073762 0.033417489 -0.012327842 -0.25396857 0.68774819 -0.68007535 0.0011187926
0.034554571 0.033839837 -0.012851599 -0.28210217 0.67278558 -0.68394291 0.0013169775
0.037367102 0.034861062 -0.013022467 -0.30779034 0.66078395 -0.68456537 0.0016357641
0.040154163 0.035007901 -0.013999804 -0.29647362 0.5783205 -0.76003218 0.0013541986
0.042889319 0.035538457 -0.014541592 -0.23159866 0.515055 -0.82527596 0.0029306277
-0.060468305 0.037963461 -0.012295239 -0.51142651 -0.26449779 -0.81760865 0.0018188363
-0.058704823 0.0372492 -0.013063521 -0.47756761 -0.24856965 -0.84269941 0.0017965132
-0.056083012 0.036823694 -0.014142807 -0.42855713 -0.20891917 -0.8790288 0.0018941633
-0.053516138 0.037623312 -0.01496308 -0.24296947 0.0017397727 -0.97003239 0.0044733309
0.038365562 0.036246441 -0.012236149 -0.33545935 0.66210318 -0.67013907 0.00091278483
0.040739913 0.036905874 -0.012713959 -0.33895162 0.63554841 -0.69367862 0.0013601686
0.043174341 0.037594702 -0.013170194 -0.32964531 0.62747198 -0.7054168 0.0011998101
0.046145543 0.03772644 -0.014090009 -0.25357693 0.54557449 -0.79877859 0.00092517864
0.049192429 0.03815046 -0.014558135 -0.15977615 0.45218995 -0.87749404 0.0023930229
0.052228503 0.038426101 -0.014823969 -0.094879478 0.40700579 -0.90848452 0.0019334278
0.055645611 0.038422678 -0.014831027 -0.0012363846 0.3345395 -0.94238091 0.0020386688
-0.061134361 0.039749507 -0.012270259 -0.51175261 -0.21077028 -0.83287764 0.0017426988
-0.058609962 0.040395167 -0.013448782 -0.38233462 -0.058762755 -0.92215353 0.0025790725
-0.055951271 0.040095162 -0.014265473 -0.32305008 -0.030739155 -0.94588256 0.0030720069
-0.052722529 0.040677767 -0.014602154 -0.065846987 0.25359076 -0.96506786 0.0022174236
-0.049924638 0.040513292 -0.014709616 -0.035256941 0.26541194 -0.96349025 0.0034586957
-0.046418093 0.039632261 -0.014728829 -0.0055500483 0.26717117 -0.96363312 0.0015702882
0.044217099 0.03924888 -0.012280761 -0.33422971 0.63136256 -0.6997655 0.0015842846
0.046549886 0.040190838 -0.012491708 -0.32403585 0.62981254 -0.70592982 0.0016249981
0.049380705 0.040818196 -0.012980823 -0.25794706 0.56410491 -0.78437805 0.0016874684
0.052394301 0.040651627 -0.013763286 -0.11796296 0.46050003 -0.87978655 0.0019513281
0.055405729 0.040660463 -0.014031902 -0.10351322 0.44743487 -0.88830572 0.0012515238
0.057721108 0.040654663 -0.013968006 -0.067219205 0.37741801 -0.92360014 0.0028944286
-0.061091721 0.043087866 -0.012464317 -0.42737451 -0.019189062 -0.903871 0.0023897104
-0.058936447 0.043304816 -0.013088442 -0.29821998 0.08230298 -0.95094216 0.0034018126
-0.055644717 0.0432695 -0.013617442 -0.12227229 0.28448972 -0.95084971 0.0033058731
-0.052663226 0.043149304 -0.013696097 -0.039419711 0.34513289 -0.93772566 0.00089236547
-0.050199423 0.042381391 -0.013893948 -0.011095486 0.29213461 -0.95631289 0.0016023979
0.050538763 0.042468097 -0.01218304 -0.27877182 0.60701138 -0.74419314 0.0013240353
0.052751407 0.042967811 -0.012475359 -0.25545597 0.58859211 -0.76700819 0.0016653092
0.055398896 0.04339157 -0.012718365 -0.13854255 0.50320482 -0.85298938 0.0022021276
0.058245331 0.043882713 -0.012688641 -0.11081506 0.49587384 -0.8612951 0.0012336747
-0.060741354 0.045619451 -0.012154171 -0.22858648 0.29415581 -0.92801976 0.0040039187
-0.058689587 0.045789696 -0.012446919 -0.10584296 0.34529871 -0.93250531 0.0048085507
-0.055550467 0.045611784 -0.012660241 -0.055218175 0.38826948 -0.91989005 0.0011032912
-0.015838861 0.0058093606 -0.0092701502 -0.21641155 -0.77190822 -0.59776562 0.00099251873
-0.013376758 0.0055561373 -0.0096920673 -0.18516317 -0.78695744 -0.58856827 0.00093606178
-0.010969822 0.0051493607 -0.0097979773 -0.15945804 -0.7915898 -0.58988023 0.0011111527
-0.007437042 0.004905825 -0.010167809 -0.11408989 -0.76358998 -0.63554209 0.0011909516
-0.0045161322 0.004537934 -0.01014148 -0.083355442 -0.76760173 -0.63548362 0.001523449
-0.0013816291 0.0044248672 -0.010308834 -0.050331369 -0.78154337 -0.62181723 0.001574462
0.0018534422 0.004273301 -0.010335884 -0.02484837 -0.79190487 -0.61013865 0.0012823213
0.0045617353 0.0041230517 -0.010204935 -0.0094457231 -0.79542482 -0.60597867 0.0013737114
0.0073268376 0.0041431068 -0.010196537 0.014225766 -0.80330241 -0.59540153 0.0013213943
0.010477916 0.0044344929 -0.010404318 0.051666696 -0.79906732 -0.5990175 0.0013311534
0.013637531 0.0045154747 -0.010195544 0.077121593 -0.81055743 -0.58055913 0.0015735489
0.016651988 0.0048765582 -0.010290928 0.10308558 -0.79528546 -0.59740633 0.0018814286
0.019423828 0.0051292195 -0.01008277 0.12350066 -0.79705334 -0.59114593 0.0013848689
0.022012917 0.0053549227 -0.0097425161 0.16959612 -0.80736816 -0.56514937 0.0021185724
0.024790449 0.0057043121 -0.0094049005 0.20077519 -0.80989057 -0.55115026 0.00072333717
-0.024537591 0.0087731471 -0.0093169529 -0.29242092 -0.77933079 -0.5541963 0.0010686984
-0.022457022 0.0082488637 -0.0096522253 -0.27481642 -0.75740522 -0.59229499 0.0009361048
-0.019468993 0.0076620844 -0.010154894 -0.23987275 -0.75679767 -0.60804468 0.0011323361
-0.016097663 0.007295426 -0.010869011 -0.21382882 -0.74914992 -0.62693828 0.001012215
-0.014018935 0.006523707 -0.010616527 -0.18666647 -0.76277155 -0.61914068 0.0008059236
-0.010932446 0.0065976763 -0.011393827 -0.13512091 -0.71247095 -0.68856919 0.0010696705
-0.0078803552 0.0064071296 -0.011724582 -0.10191579 -0.72462839 -0.68156207 0.0012955911
-0.0051453989 0.0060705226 -0.011750782 -0.059880525 -0.68282908 -0.72812009 0.0023633093
0.01488581 0.0060600946 -0.011966057 0.040028829 -0.72116143 -0.69160968 0.0024672828
0.016229134 0.0061100796 -0.011874393 0.077874199 -0.71790886 -0.69176769 0.0019317998
0.020000085 0.0064036748 -0.011618339 0.1162665 -0.73466021 -0.6683985 0.0022570663
0.023000592 0.0065948758 -0.011151756 0.16223021 -0.75105262 -0.640001 0.001527364
0.025664892 0.0068459343 -0.01066329 0.18868764 -0.77725941 -0.60022062 0.0016677543
0.02796326 0.0072773951 -0.010440611 0.21596822 -0.78114891 -0.58580202 0.0018656785
0.031450372 0.0081383307 -0.01024254 0.25519878 -0.77951908 -0.57203472 0.00140638
0.03372851 0.008669314 -0.0099166604 0.29403433 -0.78162563 -0.55009568 0.0012692716
-0.031052651 0.011567684 -0.0096448725 -0.31770617 -0.75376564 -0.57523918 0.0010367384
-0.028348211 0.010811354 -0.010026309 -0.29687905 -0.74803674 -0.59355193 0.0014497623
-0.02571604 0.010097512 -0.010368046 -0.28341568 -0.74535739 -0.60342193 0.001338321
-0.02299626 0.009781885 -0.011157786 -0.26658207 -0.70698255 -0.65506464 0.00080365792
-0.020237152 0.0092954654 -0.011665311 -0.23416469 -0.70316482 -0.67136139 0.00099064875
0.032281499 0.0096366312 -0.011823338 0.20832299 -0.67136747 -0.71124339 0.0010838551
0.034772079 0.0098774116 -0.011017307 0.27967906 -0.76389992 -0.58158106 0.0016572693
0.037434619 0.010424452 -0.01036 0.30647275 -0.75432283 -0.58057863 0.0014431216
0.040312137 0.011024334 -0.0094287694 0.36028883 -0.77345008 -0.52150458 0.0013684187
-0.039182782 0.014973147 -0.0092203543 -0.41412011 -0.71946627 -0.55755973 0.0015517299
-0.037236881 0.014416319 -0.0097523928 -0.37663689 -0.72466028 -0.57707208 0.00094134972
-0.034414269 0.013498263 -0.010202633 -0.33190069 -0.72848839 -0.5992884 0.001294981
-0.031815287 0.012734289 -0.010636403 -0.30790555 -0.73937708 -0.5987618 0.0012116849
-0.029084679 0.012531268 -0.011641786 -0.27035218 -0.70073467 -0.66021258 0.0014737557
0.040138718 0.012140297 -0.011077113 0.34170842 -0.7246263 -0.59845823 0.0024399136
0.043189544 0.01312298 -0.010386907 0.39017415 -0.73161125 -0.55902523 0.0013180103
0.046360604 0.014491899 -0.0099495426 0.42041242 -0.74440646 -0.5187605 0.0023496905
-0.042730939 0.017399423 -0.0095296055 -0.46467763 -0.688034 -0.55739039 0.001156709
-0.040482208 0.016668256 -0.010273179 -0.39835444 -0.6848278 -0.61018401 0.0013203479
-0.037706979 0.015897047 -0.01110854 -0.36076424 -0.68286669 -0.63524979 0.0013133741
-0.035230365 0.015204518 -0.011686243 -0.31143168 -0.65607387 -0.68744266 0.0012412467
0.046644896 0.015958985 -0.011508778 0.39133337 -0.70444661 -0.59212595 0.0018621408
0.051040392 0.016941128 -0.0092843249 0.49532548 -0.76459616 -0.41236559 0.0028230972
-0.048066393 0.020858455 -0.0091387872 -0.4901571 -0.6657266 -0.56263137 0.00060086692
-0.046223275 0.020124756 -0.0098594064 -0.48438033 -0.66559899 -0.56776202 0.0012508188
-0.043653138 0.019034091 -0.010626377 -0.43925977 -0.65829962 -0.61130387 0.00099989935
-0.041347671 0.018351885 -0.011470848 -0.41048482 -0.65846103 -0.63081801 0.00098433974
-0.051560324 0.023701122 -0.009393245 -0.50282341 -0.64978099 -0.5700469 0.0014886089
-0.04921367 0.022672974 -0.010170483 -0.4883948 -0.64644784 -0.58615333 0.0012840225
-0.04672949 0.02176597 -0.01115122 -0.45791537 -0.61509746 -0.64184767 0.00094555732
-0.044970945 0.021091871 -0.011751479 -0.43794414 -0.59314698 -0.67556018 0.0022175284
-0.054608349 0.026348703 -0.0096431188 -0.53855944 -0.61060685 -0.58061445 0.0011432276
-0.052474782 0.025458114 -0.010457198 -0.49207914 -0.6177637 -0.61337268 0.0019660937
-0.050238036 0.024609584 -0.011325952 -0.46940494 -0.61918479 -0.6294992 0.001289856
-0.057742078 0.029237082 -0.0096007278 -0.575369 -0.56932169 -0.58721656 0.0012671405
-0.055686399 0.028347125 -0.010550759 -0.52644539 -0.54363316 -0.65369576 0.0013691854
-0.053499095 0.027489243 -0.011559301 -0.49382952 -0.5633527 -0.66239429 0.0018342353
0.0020939345 0.02878339 -0.010656225 -0.03078701 0.74847829 -0.66244435 0.0027507567
0.0041092131 0.028626746 -0.010788923 -0.00033257063 0.72276449 -0.69109434 0.0026205345
0.007560824 0.028753914 -0.010735545 -0.045465808 0.73903441 -0.67213166 0.0025871238
0.010426817 0.028844945 -0.010939937 -0.0891513 0.7531212 -0.65181327 0.0018702028
0.013392968 0.029094201 -0.011058489 -0.11730199 0.76409107 -0.63435405 0.0013633542
0.016443588 0.029467989 -0.011301318 -0.1645034 0.7233026 -0.67065036 0.0011544009
0.019044641 0.029802872 -0.011652717 -0.19269955 0.71541035 -0.67160624 0.0014110723
-0.060510926 0.032312665 -0.0095552718 -0.61117917 -0.50657296 -0.60814792 0.0012974117
-0.058548246 0.031341601 -0.010532716 -0.56064349 -0.48421752 -0.67172343 0.0013727337
-0.056448501 0.030623222 -0.011713291 -0.51841086 -0.45735776 -0.72254688 0.001895114
0.010585109 0.030144699 -0.009319149 -0.087993182 0.77975732 -0.61986756 0.00090663834
0.013996259 0.030285258 -0.0097118597 -0.11209625 0.78277242 -0.61212885 0.0015807496
0.016673794 0.030654706 -0.0099040465 -0.1684963 0.78178 -0.60035753 0.0016399855
0.019771293 0.031429511 -0.0099218925 -0.21745834 0.82038432 -0.52884918 0.00083376397
0.022504216 0.03210707 -0.01004549 -0.23147164 0.81342417 -0.53363097 0.00098284706
0.025297012 0.032437854 -0.010770857 -0.24042562 0.79262102 -0.56031013 0.0010174495
0.02771483 0.032575529 -0.011563954 -0.25378236 0.7516287 -0.60880935 0.0010211194
-0.063178614 0.035562027 -0.0092759831 -0.64567661 -0.43969887 -0.624313 0.0017666293
-0.061500337 0.034519132 -0.010122737 -0.60091144 -0.41856399 -0.68096226 0.0018498299
-0.05943644 0.033911198 -0.011438143 -0.55784577 -0.37893835 -0.73838598 0.0014285857
0.023397787 0.033038452 -0.0090755299 -0.24677229 0.79587448 -0.55288988 0.0011980006
0.025645742 0.033428136 -0.0095803216 -0.24765173 0.79501885 -0.55372721 0.00093914539
0.028704166 0.034096286 -0.010042878 -0.27025077 0.78962457 -0.55086982 0.0012220872
0.03152955 0.034898032 -0.010336565 -0.29367015 0.77416825 -0.56073284 0.00095561205
0.034200516 0.035334509 -0.01109727 -0.30479208 0.72630316 -0.61610514 0.0019295951
0.03665293 0.035811067 -0.011799692 -0.31919235 0.69060737 -0.64898205 0.001495161
-0.064002275 0.03762614 -0.0096488083 -0.63125372 -0.36389738 -0.6849069 0.0025049841
-0.061946418 0.037259277 -0.011103682 -0.54888022 -0.29151943 -0.78341997 0.00085996703
0.032838546 0.036097653 -0.0093191043 -0.3216621 0.76745456 -0.55456913 0.0011982188
0.034804106 0.036626264 -0.0097955614 -0.33692738 0.76350582 -0.55094355 0.0017572285
0.03760948 0.037556756 -0.010316777 -0.36863974 0.72844988 -0.57746476 0.0017314375
0.040295858 0.038332917 -0.011100312 -0.36644724 0.68200052 -0.63292319 0.0010470396
0.04247671 0.038796496 -0.011853562 -0.34440988 0.6403687 -0.68652004 0.0013898928
-0.066337481 0.041406062 -0.0091777574 -0.65464413 -0.2675375 -0.70701116 0.0030265411
-0.064648911 0.040369168 -0.010159651 -0.60782224 -0.25882125 -0.75070882 0.0024186734
-0.062375765 0.040111344 -0.011660269 -0.5312832 -0.19785661 -0.82376623 0.001554564
0.03896201 0.039042845 -0.0093159899 -0.42010468 0.72630626 -0.54405087 0.0015068384
0.040738992 0.03971165 -0.0098102503 -0.40181762 0.71997422 -0.56584424 0.0016362519
0.043188341 0.040626075 -0.010351091 -0.3813985 0.69221932 -0.61267245 0.0013993828
0.045892835 0.041395973 -0.011139085 -0.34949815 0.67146146 -0.65344512 0.0011316437
-0.06652157 0.043614328 -0.009525178 -0.61323333 -0.13393953 -0.7784633 0.0037007027
-0.0647135 0.04332101 -0.010674293 -0.543024 -0.097883366 -0.83399272 0.0021936879
-0.062471565 0.043451592 -0.011872042 -0.45653507 -0.03493502 -0.88901931 0.002456717
0.044419914 0.042168811 -0.0093938624 -0.40789658 0.70617014 -0.57874358 0.0014177036
0.046366498 0.042902302 -0.0098450072 -0.39079276 0.69486707 -0.60368931 0.0013119592
0.04933342 0.043889977 -0.010445 -0.35113078 0.66371202 -0.6604495 0.0013511882
0.052313816 0.044294775 -0.011344071 -0.28867486 0.61483979 -0.73392022 0.0016178405
0.054393657 0.04455851 -0.011812282 -0.18657018 0.55241293 -0.81242329 0.0022730846
-0.066846006 0.046290051 -0.0094828065 -0.58704871 -0.039530374 -0.80858594 0.0026845392
-0.06480597 0.046258219 -0.010593866 -0.53312719 -0.024511494 -0.84567994 0.0023393258
-0.062116072 0.04629875 -0.011606157 -0.36456487 0.14586151 -0.9196831 0.005043536
-0.058791332 0.047403079 -0.011763606 -0.0732283 0.38469464 -0.92013466 0.0014224575
-0.05608895 0.047300443 -0.011758302 -0.055220056 0.38827646 -0.91988707 0.0011039084
0.050219648 0.04536736 -0.009424774 -0.37831184 0.68187374 -0.62604177 0.0015322287
0.052470818 0.045944009 -0.0099914661 -0.33331624 0.65421504 -0.67889839 0.0017971108
0.055329844 0.046825718 -0.010377484 -0.291513 0.62079823 -0.72775668 0.0015006503
0.058514655 0.04681585 -0.011160763 -0.14491305 0.54490006 -0.82588381 0.0010164258
0.061398007 0.047038756 -0.011177938 -0.14719431 0.54130936 -0.82783931 0.00087465125
-0.066751473 0.048920844 -0.0092798555 -0.48656997 0.082985014 -0.86969137 0.0039338642
-0.065415606 0.048772205 -0.0098713692 -0.47236773 0.098686814 -0.87585938 0.0027568256
-0.061744776 0.049211405 -0.010617046 -0.18068521 0.37936401 -0.90743363 0.003321266
-0.059169061 0.049237009 -0.010769144 -0.076052025 0.43935904 -0.89508647 0.0014627086
-0.05689048 0.04846533 -0.011125471 -0.073250979 0.38468352 -0.92013747 0.0014259919
0.056123048 0.048427448 -0.009368577 -0.31691262 0.65477622 -0.6861738 0.001638214
0.058432881 0.049059037 -0.0096215997 -0.25633666 0.63899314 -0.72524428 0.003069615
0.061321579 0.04993356 -0.0095561026 -0.18185729 0.5750801 -0.79762828 0.0022015949
0.06386859 0.05015903 -0.0095259082 -0.17882885 0.54826808 -0.8169592 0.0020091841
-0.064247705 0.051400363 -0.0091591263 -0.22054796 0.3675223 -0.90348548 0.004979054
-0.062823735 0.051014178 -0.0095565934 -0.16253339 0.39926744 -0.90231282 0.0020573114
-0.0097363284 0.00266898 -0.00625784 -0.1589338 -0.89434147 -0.41820249 0.0019426228
-0.0073366957 0.0025724471 -0.0067886719 -0.12688448 -0.88914871 -0.43967581 0.0028261053
-0.0045686071 0.0024316788 -0.0070931879 -0.078338787 -0.87748355 -0.47316557 0.0015610673
-0.001674286 0.0022471964 -0.0071417494 -0.060180511 -0.90647602 -0.41794682 0.0021493484
0.0015470521 0.0021546532 -0.0072434391 -0.023380948 -0.87600935 -0.48172709 0.001559048
0.0045216004 0.0021025336 -0.0072220364 -7.3210897e-05 -0.87994677 -0.47507226 0.0013937287
0.007468034 0.0021723015 -0.0072328104 0.028416071 -0.88968992 -0.45568007 0.0021697974
0.010518979 0.0023723203 -0.0073040975 0.058569692 -0.88725317 -0.45754933 0.0015796148
0.013570301 0.0024933452 -0.0069941743 0.085116409 -0.89024401 -0.44746035 0.0016535718
0.016320661 0.0026287725 -0.0066287648 0.12267051 -0.89925331 -0.41987541 0.0021707169
0.018574141 0.002799683 -0.0062974882 0.15156162 -0.89444989 -0.42069998 0.0011051265
-0.021313863 0.0057684258 -0.006426387 -0.31376451 -0.83675438 -0.4487693 0.0021636505
-0.019408694 0.0053966558 -0.006940614 -0.27428958 -0.85367554 -0.44272256 0.0015134504
-0.016501648 0.0047884556 -0.007389884 -0.23296244 -0.85208184 -0.46870565 0.0016134791
-0.013488372 0.0039814748 -0.0072897743 -0.2007926 -0.86393154 -0.46184912 0.0013888171
-0.010449233 0.0035704742 -0.0076441979 -0.15951538 -0.86029494 -0.48419768 0.0012955219
-0.0076970081 0.0035829353 -0.0083764233 -0.12935446 -0.857822 -0.49740219 0.0016194098
-0.0044502793 0.0033504639 -0.0086013349 -0.082521573 -0.82804143 -0.55456078 0.0011332883
-0.0017362982 0.0032377988 -0.008791429 -0.054158643 -0.82630628 -0.56061107 0.001865319
0.00074424717 0.0031166554 -0.0087861391 -0.031311609 -0.82797462 -0.55989069 0.00079726987
0.0042943629 0.003058244 -0.0088625923 -0.0011146722 -0.80483347 -0.59349972 0.00081770087
0.0083019929 0.0030848857 -0.0087888334 0.022243373 -0.80431718 -0.5937838 0.00087531935
0.010664766 0.0032276448 -0.0088219782 0.051442705 -0.82900095 -0.55687624 0.0014107563
0.013930912 0.003214797 -0.0083465446 0.082141109 -0.869003 -0.48794124 0.0016841363
0.016469717 0.003367004 -0.0080562923 0.11355527 -0.87145388 -0.47715127 0.0016144597
0.019633926 0.00362172 -0.0075890752 0.15322414 -0.87882417 -0.45187438 0.0010563679
0.022959327 0.0042097098 -0.0074498001 0.18700616 -0.88122022 -0.43414238 0.0016469876
0.025843123 0.004857196 -0.0073951758 0.21518131 -0.86984742 -0.44391716 0.0013781097
0.028090671 0.0054301824 -0.0074272146 0.24128449 -0.86677432 -0.43644482 0.0029706638
0.030281872 0.0056957901 -0.0064742621 0.27357659 -0.89479971 -0.35283047 0.002074498
-0.028030772 0.0085553499 -0.0068225488 -0.33241621 -0.8330245 -0.44223264 0.001236286
-0.025431365 0.0078605218 -0.0073875184 -0.31151584 -0.81873655 -0.4823156 0.0014005149
-0.022590209 0.0068558473 -0.0075112246 -0.30444226 -0.82351196 -0.47868884 0.0014535956
-0.020075291 0.006400953 -0.0082725026 -0.2656495 -0.80542588 -0.52982968 0.0019706697
-0.017641976 0.0060602631 -0.0088571608 -0.24174356 -0.77602726 -0.5825305 0.0013513295
0.028213702 0.0062396736 -0.0087604122 0.24472065 -0.88544255 -0.39509895 0.0015255467
0.031052424 0.006350846 -0.0073355096 0.27614829 -0.88961393 -0.36377081 0.001771858
0.034476291 0.0076019494 -0.0076163798 0.30428591 -0.85379058 -0.42243543 0.00165022
0.037019547 0.0085002463 -0.0074761435 0.33622295 -0.84922022 -0.40715986 0.0014517682
0.0390292 0.0088548195 -0.0065039024 0.36784631 -0.84177685 -0.39509606 0.0015949187
-0.036352597 0.011853181 -0.0063644582 -0.39561188 -0.81339186 -0.42647964 0.0014861288
-0.034362312 0.011348477 -0.007115142 -0.35967484 -0.81899542 -0.44707999 0.0016160182
-0.031507656 0.010284982 -0.0073855645 -0.34563804 -0.81637836 -0.46266684 0.0016241114
-0.028881747 0.0095733413 -0.008000249 -0.32799706 -0.81543738 -0.47694844 0.0020152666
-0.026556287 0.0092318421 -0.0088707069 -0.30657646 -0.77078438 -0.55848223 0.00079763244
0.038023215 0.0093551092 -0.0083302138 0.33306241 -0.81983387 -0.46577024 0.0015383919
0.040625103 0.010013491 -0.0073931119 0.40018019 -0.82092488 -0.40735516 0.0020078213
0.043226548 0.011155845 -0.007176341 0.40961397 -0.82283747 -0.39389721 0.0011676992
-0.042292692 0.01486965 -0.0061534629 -0.48187107 -0.77325255 -0.41216588 0.0016458444
-0.040164705 0.014288846 -0.0072625568 -0.43651149 -0.77650523 -0.45441973 0.0016010375
-0.037645601 0.013072348 -0.0074613891 -0.40085268 -0.80441821 -0.43843865 0.0015564435
-0.035269108 0.012385757 -0.008215989 -0.35556078 -0.77925289 -0.51608282 0.0011583046
0.044738688 0.01237565 -0.0081190392 0.42007518 -0.80920225 -0.41076595 0.0011269863
0.046599966 0.012972133 -0.0072338236 0.45431587 -0.77748406 -0.43487427 0.0021200848
-0.045704894 0.017524248 -0.0067729261 -0.5262419 -0.73301768 -0.43099239 0.0016011656
-0.043579303 0.016432526 -0.0073657879 -0.49361518 -0.7468099 -0.44566679 0.0012826544
-0.041185617 0.015515857 -0.0083265509 -0.43057778 -0.73922998 -0.51782411 0.0016539934
0.049872179 0.015146764 -0.0077034906 0.47268537 -0.76693857 -0.43402049 0.0015425269
0.052418824 0.016034015 -0.0061952993 0.51827383 -0.80458862 -0.28987846 0.0029540102
-0.049084939 0.020202696 -0.0071015665 -0.53992486 -0.71596843 -0.44257247 0.0016675802
-0.046818152 0.018898692 -0.0076692146 -0.52609158 -0.72396433 -0.44621003 0.0012674037
-0.044783551 0.01826708 -0.0088582626 -0.48467121 -0.67953426 -0.55075127 0.0014584417
-0.054318972 0.023747947 -0.0064301728 -0.55146909 -0.71021682 -0.43757728 0.0010084227
-0.052371133 0.022812754 -0.0073132026 -0.54189008 -0.71708548 -0.43834192 0.0019546961
-0.050238024 0.021597184 -0.0079063978 -0.53502148 -0.71419579 -0.45130524 0.0017474896
-0.0574455 0.026525287 -0.0067462642 -0.59403217 -0.65962088 -0.46046299 0.0011373952
-0.055511195 0.025379293 -0.0074730464 -0.57038015 -0.68897647 -0.44718897 0.0013956536
-0.053452298 0.024455138 -0.0084962361 -0.52174431 -0.65478188 -0.54684895 0.0010121554
-0.060522147 0.029466331 -0.0066554449 -0.64668202 -0.59750402 -0.47412163 0.0010841149
-0.058752246 0.028290886 -0.0074444972 -0.63556463 -0.62908912 -0.44755381 0.0016251089
-0.056669578 0.027221084 -0.0085698385 -0.55845344 -0.61259246 -0.55933911 0.00069212745
-0.0634339 0.032595564 -0.0063687041 -0.68363816 -0.53842473 -0.49268401 0.0012977826
-0.061702617 0.031465314 -0.0074115917 -0.67696309 -0.56017512 -0.47741467 0.0021424023
-0.059699979 0.030326823 -0.0086565735 -0.60442263 -0.54993737 -0.57640451 0.00086455303
0.0025685963 0.030675134 -0.0080689015 0.0067561544 0.82533574 -0.56460196 0.0027157187
0.0045572706 0.030962458 -0.0075336262 -0.017254211 0.83329558 -0.55255836 0.0030878873
0.0082796356 0.031146729 -0.007321103 -0.050027754 0.88510251 -0.46269935 0.0013759612
0.010755351 0.031571299 -0.006897164 -0.098526776 0.91190284 -0.39840388 0.0019653141
0.013929402 0.031616844 -0.0075440621 -0.12512872 0.89903557 -0.41961622 0.0016542797
0.016588066 0.032241918 -0.0073242229 -0.1881464 0.87733883 -0.44144934 0.0014048795
0.019269386 0.03258929 -0.0079415524 -0.22169313 0.86539328 -0.44938469 0.0012951675
0.02198875 0.032917652 -0.0086773522 -0.24136031 0.8357532 -0.49321568 0.00095588068
-0.066108324 0.035920233 -0.0060989773 -0.71324229 -0.47536317 -0.5150876 0.0016645212
-0.064355403 0.034625292 -0.00720703 -0.70783663 -0.49738479 -0.50157309 0.0021636863
-0.062572949 0.033536609 -0.0084014991 -0.63819379 -0.4755871 -0.60541356 0.0014364271
0.019953515 0.033411875 -0.0067106429 -0.22278361 0.87433493 -0.43116802 0.0013537362
0.022694372 0.033859856 -0.0073209275 -0.24165823 0.86588001 -0.43801042 0.0014447835
0.025641177 0.034678426 -0.0074657779 -0.2819342 0.85358739 -0.43806586 0.0020203742
0.028307661 0.035438765 -0.0076950174 -0.30046445 0.85411721 -0.42450556 0.0014750494
0.03044052 0.035863798 -0.008310819 -0.31592712 0.82690769 -0.46520284 0.0010817848
-0.066865362 0.037841499 -0.0067320736 -0.72429162 -0.45188829 -0.52076721 0.0022257541
-0.065281898 0.037094805 -0.0080837086 -0.68515104 -0.3987644 -0.60955316 0.0023222268
0.029164404 0.036331758 -0.0064922841 -0.29870361 0.87000984 -0.3922486 0.0022574239
0.031640042 0.036854368 -0.0072255535 -0.31057212 0.84822744 -0.42901644 0.0019648871
0.034513574 0.037924632 -0.0074778507 -0.38377911 0.81886399 -0.42682001 0.00235238
0.036867194 0.038631584 -0.0082776053 -0.41244531 0.77015871 -0.48656395 0.0017106539
-0.06920892 0.041653331 -0.0062556253 -0.74342042 -0.34794173 -0.57119399 0.0035596471
-0.06770888 0.040318213 -0.0073112259 -0.73646748 -0.34054446 -0.58450413 0.001980077
-0.065821223 0.039336246 -0.0088248933 -0.65739048 -0.29194197 -0.69469965 0.0023387868
0.035677128 0.039089933 -0.0061930362 -0.41412631 0.8114211 -0.41242608 0.001724107
0.03800983 0.040024351 -0.0069770468 -0.44976401 0.80132693 -0.39444584 0.001720941
0.040313873 0.040953442 -0.0076681315 -0.4538528 0.76917315 -0.4498781 0.0017799581
0.042652786 0.041766152 -0.0085443622 -0.43498319 0.72100091 -0.53939527 0.0010408812
-0.069665246 0.043693669 -0.0066000195 -0.76392478 -0.26151693 -0.58993882 0.0026886407
-0.068134502 0.043245926 -0.0080681583 -0.66562533 -0.1923486 -0.72107214 0.0019329682
0.041444 0.042333189 -0.0064397794 -0.46073541 0.77254689 -0.43691438 0.001168385
0.043594692 0.043118037 -0.0073625338 -0.45559445 0.7623499 -0.45962629 0.0016779772
0.046080954 0.044320144 -0.0078279572 -0.4364664 0.74591583 -0.50309706 0.0026047032
0.048372868 0.04477201 -0.0089220032 -0.37351248 0.67600018 -0.63522619 0.0018948059
-0.070071749 0.046504326 -0.0068694125 -0.73090392 -0.13676189 -0.66863716 0.0039338311
-0.068326205 0.046347123 -0.0084417323 -0.62332141 -0.062525094 -0.77946204 0.0035351967
0.047117393 0.04574861 -0.0066468162 -0.47631395 0.77709258 -0.41140276 0.0017150907
0.049617466 0.046765935 -0.0073485631 -0.44890884 0.76754898 -0.4575471 0.0022098129
0.051869173 0.047408756 -0.0081574526 -0.39924902 0.69772983 -0.59478843 0.0018940252
-0.0702269 0.049444355 -0.007021185 -0.68378389 -0.083991081 -0.72483456 0.0055467174
-0.068067022 0.049164116 -0.0085332291 -0.57290441 0.015459061 -0.81947643 0.0034226088
0.050720908 0.048079543 -0.0064942287 -0.4618521 0.75278854 -0.46904373 0.0010697896
0.052105963 0.048820432 -0.0065892949 -0.45697844 0.76080149 -0.4608165 0.0027274515
0.0549348 0.049688447 -0.0075680269 -0.41923207 0.73363024 -0.53481877 0.0014314611
0.057921764 0.050310671 -0.0083884122 -0.32862651 0.6669699 -0.66869706 0.002658844
-0.070679136 0.052206337 -0.0066994834 -0.62349153 -0.061343703 -0.77941984 0.0036872569
-0.068248279 0.052153092 -0.00789396 -0.48466486 0.090551123 -0.87000024 0.0037962806
-0.065120555 0.052508175 -0.0084596975 -0.19853623 0.34044188 -0.91906625 0.0047451719
-0.062197588 0.052331682 -0.0086681703 -0.16162288 0.39823559 -0.90293217 0.0021824352
0.056539454 0.051528092 -0.0064034825 -0.44273818 0.7471689 -0.49570307 0.0023475902
0.058633745 0.052008014 -0.0070427484 -0.36891359 0.68891442 -0.62393892 0.0029396499
0.061160173 0.05316098 -0.0070861345 -0.37843984 0.67295742 -0.63554037 0.0035314232
0.063966066 0.052862585 -0.0080592204 -0.27625069 0.58255309 -0.76440656 0.0029054713
-0.071091123 0.054789782 -0.0062816036 -0.54333508 0.029258214 -0.83900589 0.004903168
-0.068338126 0.054755237 -0.0070282347 -0.42325747 0.1213274 -0.89784896 0.0047945799
-0.065818787 0.054294869 -0.0074752215 -0.22599538 0.29007459 -0.92993701 0.0039191269
0.062232453 0.054575633 -0.0063959383 -0.40394706 0.65008545 -0.64359587 0.0058692042
0.06440717 0.055187181 -0.00672541 -0.33277655 0.5829618 -0.74122548 0.0044704946
0.066654466 0.056257546 -0.0065593049 -0.39103743 0.50702506 -0.76812452 0.0062131481
0.066740304 0.057695739 -0.0060120588 -0.46725059 0.44788703 -0.76228213 0.0091157379
-0.015651336 0.0028480291 -0.0033407551 -0.25823554 -0.93410355 -0.24650542 0.0021722557
-0.013352551 0.0025391749 -0.0041165766 -0.20020086 -0.93815255 -0.28247029 0.0017991127
-0.010551544 0.0020734246 -0.004355662 -0.1617787 -0.94539422 -0.28294405 0.0019031987
-0.0076344484 0.0016141444 -0.0043957224 -0.13458863 -0.94403571 -0.30113539 0.0027202957
-0.0046831248 0.0012554444 -0.0043546432 -0.089757897 -0.95253861 -0.29088444 0.0018924577
-0.0014701872 0.0009934582 -0.0042479322 -0.055480156 -0.96564245 -0.25388306 0.002719851
0.0015234073 0.00085642294 -0.0042692884 -0.038557444 -0.96951014 -0.24199882 0.0029503691
0.0045460975 0.00076971325 -0.0040114485 -0.0035325438 -0.97315592 -0.23011947 0.0036772988
0.0076275477 0.00094268611 -0.004291255 0.043810613 -0.95901871 -0.2799353 0.0022444529
0.010539015 0.0011710965 -0.0044757701 0.067446187 -0.9461937 -0.31649399 0.0020465686
0.013575577 0.00152375 -0.0046620155 0.096808068 -0.94470549 -0.31330457 0.001734307
0.016438775 0.0018610392 -0.0045569902 0.12578343 -0.94662338 -0.29678726 0.0017558028
0.019563928 0.0024147057 -0.0047175167 0.16056812 -0.93593168 -0.31344822 0.0022331546
0.022031298 0.0026470311 -0.0038444654 0.20152092 -0.94402814 -0.26115176 0.0016645966
-0.024357617 0.0057648541 -0.0035231728 -0.3531684 -0.89983106 -0.25607827 0.0029386862
-0.022405814 0.0053349249 -0.0043968596 -0.32113242 -0.89884967 -0.29823357 0.0021704356
-0.019504102 0.0043294779 -0.0044039632 -0.29074222 -0.90495998 -0.31067106 0.0015233622
-0.016739223 0.0035708626 -0.0046619959 -0.26782811 -0.91039664 -0.31535071 0.001724883
-0.01389178 0.0031753504 -0.0055391681 -0.2074174 -0.91532284 -0.3451986 0.0019385519
0.022767151 0.0032306493 -0.0052646114 0.21114892 -0.93401349 -0.28815785 0.0023839979
0.02517519 0.003637092 -0.0047158576 0.22562906 -0.93295175 -0.28052181 0.0019796945
0.02845305 0.0044329395 -0.004481778 0.25838366 -0.92420733 -0.28120932 0.0022752851
0.031592306 0.0054367734 -0.0045576673 0.29784274 -0.92204821 -0.24721807 0.0011503756
0.033679232 0.0058968267 -0.003668901 0.3003881 -0.92706609 -0.22431119 0.0022452115
-0.030983455 0.0086298706 -0.0041012312 -0.36067924 -0.88854349 -0.28355059 0.0020104696
-0.028568732 0.0077790413 -0.0044821505 -0.34957996 -0.88823551 -0.29804611 0.0017661889
-0.025597785 0.0066074636 -0.0045685712 -0.35893404 -0.88842797 -0.28611538 0.0018771818
-0.023375489 0.0061803437 -0.0056914138 -0.31438509 -0.87486976 -0.36846307 0.0016466872
0.034537107 0.0063265581 -0.0040361816 0.3215411 -0.92676252 -0.19422284 0.0025724242
0.037535794 0.0076336926 -0.0047609499 0.35687384 -0.88853532 -0.28835055 0.0015237575
0.039807387 0.0084333587 -0.0042054639 0.36612344 -0.88888818 -0.2753751 0.0017312549
-0.039241061 0.01198367 -0.0030704215 -0.44654256 -0.8680734 -0.2169064 0.0017459072
-0.037290238 0.011441584 -0.0042053591 -0.41377154 -0.86714441 -0.27722499 0.0018286114
-0.034480177 0.010209351 -0.0043466631 -0.38740003 -0.87816662 -0.28061464 0.0016264995
-0.032127235 0.0093579963 -0.004865359 -0.38311303 -0.87681121 -0.29056233 0.0018438053
0.041429024 0.0091533866 -0.0041869208 0.41459107 -0.87272125 -0.25782159 0.0010001186
0.043630838 0.010173675 -0.0038341254 0.45358831 -0.87873185 -0.14862019 0.00099744298
0.045656018 0.011323044 -0.0044402927 0.44631332 -0.85384369 -0.26787204 0.0012870115
-0.042990595 0.014514704 -0.0041511771 -0.50110304 -0.81767267 -0.28338504 0.0016888675
-0.040521562 0.013199483 -0.0044801198 -0.46108711 -0.84358555 -0.27524918 0.0018426531
-0.038357105 0.012298007 -0.0052219317 -0.4270857 -0.85142308 -0.30442828 0.0019635269
0.047624081 0.012583713 -0.0050993338 0.4640221 -0.82141763 -0.33159706 0.0026258987
0.049066324 0.013100951 -0.003726959 0.49942476 -0.85520226 -0.1385787 0.0010208276
-0.048196658 0.017876036 -0.003447162 -0.56982392 -0.78150409 -0.25407088 0.0014584428
-0.046416752 0.016882163 -0.0043161102 -0.55639869 -0.78432071 -0.2743383 0.0019452017
-0.044280998 0.015514361 -0.0045708506 -0.53471494 -0.7974543 -0.27954698 0.0015732484
0.052484006 0.015447753 -0.0046431944 0.53450847 -0.80855066 -0.24606204 0.0059281569
-0.051557057 0.020598065 -0.0040201163 -0.57391441 -0.76824331 -0.28359213 0.0016343805
-0.049577948 0.019283792 -0.0044856952 -0.5857296 -0.76248664 -0.27483633 0.0017509653
-0.04770885 0.018221222 -0.0053573078 -0.56229854 -0.76540393 -0.31301314 0.0026065307
-0.05495416 0.023268633 -0.0043334314 -0.58135885 -0.7632736 -0.28184292 0.0015891585
-0.052913927 0.021795034 -0.0044898456 -0.57943648 -0.76612794 -0.27803135 0.0017005934
-0.058232751 0.025900234 -0.0042418591 -0.64322513 -0.71151686 -0.28285205 0.0018901847
-0.056366175 0.024514189 -0.0047225012 -0.60818124 -0.74160075 -0.28309685 0.0016505958
-0.06123253 0.028785788 -0.0042379447 -0.68924308 -0.66308469 -0.29199785 0.0020555118
-0.059555091 0.027420953 -0.0049548759 -0.66402793 -0.68708354 -0.29492903 0.0018565953
-0.063978165 0.031846631 -0.0041850167 -0.7343666 -0.60573286 -0.3062571 0.0023957854
-0.062542513 0.030518383 -0.0048302282 -0.71704978 -0.6340552 -0.28950584 0.0019487021
-0.0011628635 0.032839481 -0.0037240491 0.10216442 0.9928298 -0.062060103 0.0012868972
0.001986665 0.032672755 -0.0034107822 0.047010273 0.9915362 -0.12102094 0.0012138042
0.0048876014 0.032143969 -0.0049443445 -0.0060256831 0.95691395 -0.29030904 0.0030821855
0.0078312438 0.032388039 -0.0043377872 -0.049724028 0.96201724 -0.26842198 0.0017627699
0.010595893 0.03266269 -0.0041145552 -0.085409895 0.97079074 -0.22421055 0.0021804122
0.013385348 0.032656234 -0.0050868918 -0.13652639 0.94574541 -0.29483232 0.0023222116
0.015929027 0.032909606 -0.005607082 -0.18669061 0.93481666 -0.30210021 0.0028908912
-0.066616304 0.035173953 -0.0040898002 -0.76494384 -0.55462539 -0.32749265 0.0020302499
-0.065307267 0.033802919 -0.0046806773 -0.75139606 -0.58144832 -0.31196448 0.0020053755
-0.0058750366 0.033542249 -0.0030810623 0.15697628 0.98757887 0.0068184016 0.0022753263
0.014020081 0.033186387 -0.0036806453 -0.13136336 0.95492035 -0.26621565 0.0018580729
0.016911844 0.033438347 -0.004638711 -0.19003096 0.92672235 -0.3241511 0.0018499915
0.01936735 0.034065526 -0.0046089045 -0.23252518 0.91598749 -0.32695416 0.0018017503
0.022598865 0.035008311 -0.0043985965 -0.2657302 0.92154121 -0.28310627 0.001691104
0.02517174 0.035664756 -0.0047754659 -0.29698172 0.90799445 -0.29554674 0.0018283403
0.027197361 0.035961442 -0.0057456009 -0.28860378 0.89461869 -0.34112349 0.0016970963
-0.069228075 0.038646758 -0.0034880373 -0.8106904 -0.47576332 -0.3412188 0.0026414494
-0.06794706 0.037359431 -0.0044701281 -0.78586257 -0.50410599 -0.35818604 0.0033162152
0.026397854 0.036330961 -0.0037966869 -0.29131204 0.93451864 -0.20448045 0.00196849
0.028444299 0.036906727 -0.0041913101 -0.30612874 0.92223102 -0.23616764 0.0016998604
0.031733256 0.038057137 -0.0043035611 -0.36404872 0.90427899 -0.22304258 0.0024428489
0.033684835 0.038679283 -0.0048493193 -0.41256377 0.86745352 -0.27805689 0.0027038017
-0.069961265 0.04063271 -0.0041988292 -0.83278322 -0.39999649 -0.38272032 0.0026591746
-0.068691365 0.039526187 -0.0055124331 -0.80612856 -0.41228369 -0.42447484 0.0042480608
0.03503634 0.039582156 -0.0040451875 -0.42300344 0.87255746 -0.24435958 0.0021694382
0.03766524 0.041004591 -0.0041720457 -0.48380449 0.84862679 -0.21392907 0.0018274095
0.039452668 0.04168649 -0.0052569965 -0.4941695 0.82369488 -0.27807078 0.0019800882
-0.072084531 0.044822611 -0.0033118576 -0.87541199 -0.32012358 -0.36218053 0.013001394
-0.071039923 0.043422297 -0.004406367 -0.85647768 -0.3083047 -0.41399795 0.0035698956
0.040861458 0.043037232 -0.0039539463 -0.514938 0.83884174 -0.17658833 0.0016916246
0.043064788 0.044270352 -0.0044223792 -0.51446891 0.82446891 -0.2357388 0.0028128831
-0.072466247 0.046741739 -0.0036994703 -0.86349684 -0.2734544 -0.42378765 0.0041376827
-0.07149677 0.046163917 -0.0050331187 -0.8464222 -0.23462263 -0.47803941 0.004584935
0.044445828 0.045356777 -0.0039228532 -0.51409149 0.82203794 -0.24487461 0.0014457279
0.046463482 0.046506114 -0.0042567905 -0.51368457 0.81820506 -0.25820258 0.0021663951
0.048614889 0.047573373 -0.0049221809 -0.50715554 0.80436164 -0.30950853 0.0022033502
-0.073121779 0.049531158 -0.0039418712 -0.8313694 -0.30086112 -0.46723393 0.005805518
-0.07167495 0.048985466 -0.0055861659 -0.73379016 -0.17212977 -0.65720874 0.0048732404
0.04991829 0.048785303 -0.0040843766 -0.54068142 0.78389043 -0.30525288 0.0023489923
0.052229606 0.050126359 -0.0044755219 -0.5126093 0.78866571 -0.33946753 0.0039799162
0.054363079 0.050782375 -0.0057038176 -0.4504002 0.76773673 -0.45576292 0.0064963289
-0.075156301 0.053468421 -0.0032182522 -0.87220258 -0.20435996 -0.44440931 0.018314062
-0.073784232 0.05239727 -0.0042810095 -0.7627154 -0.23538789 -0.60237682 0.0064956443
-0.07192488 0.051352538 -0.0057695704 -0.67105049 -0.13760951 -0.72852921 0.0055934689
0.053378731 0.051204927 -0.0038378674 -0.49678367 0.79959106 -0.33743179 0.0031236194
0.055509217 0.052385338 -0.0040687397 -0.49122375 0.79542875 -0.35495391 0.0034652797
0.057823263 0.053300858 -0.0048895353 -0.49865726 0.77525425 -0.38771361 0.0048500733
0.06022292 0.053906366 -0.0058655962 -0.36069512 0.65688306 -0.66212064 0.0051036468
-0.075342931 0.055539504 -0.0033370636 -0.85135949 0.10983896 -0.51295465 0.040156405
-0.074015975 0.05518391 -0.0045927125 -0.72704577 0.060686883 -0.68390173 0.025907403
-0.071657561 0.056461949 -0.0058352179 -0.56551409 0.0312226 -0.8241474 0.0093994737
0.059003234 0.054596361 -0.0040057548 -0.53351521 0.75207514 -0.38696837 0.0045444253
0.061245445 0.055917352 -0.004376397 -0.55506349 0.69759017 -0.45306998 0.0053218924
0.063679978 0.056442413 -0.0056174337 -0.4265008 0.59381056 -0.6822654 0.0047403532
-0.073550709 0.058130376 -0.0037480206 -0.65474361 0.60378349 -0.45470476 0.03152018
-0.071182333 0.059253864 -0.0038664932 -0.4317728 0.84265822 -0.3217133 0.022237305
0.062214486 0.05755588 -0.0034113466 -0.66456622 0.65321457 -0.36285329 0.0094760917
0.064194337 0.05865892 -0.0042772181 -0.67426974 0.55262446 -0.48986378 0.012017628
0.066635817 0.05895533 -0.0053988844 -0.54796714 0.4479996 -0.70641935 0.0097358646
-0.069965065 0.060076792 -0.0034851816 -0.40668359 0.91353732 -0.0076195351 0.0028769546
0.065115228 0.061338618 -0.003500985 -0.78013366 0.38077849 -0.49638614 0.012539524
0.066886395 0.061658721 -0.0045548826 -0.70291978 0.33403745 -0.62795132 0.010384717
0.069143474 0.062819891 -0.0048526363 -0.40431735 0.21424739 -0.88917124 0.005464735
0.065845579 0.063611314 -0.0032981113 -0.8049736 0.27274683 -0.52690285 0.01352481
0.066837624 0.06463442 -0.0037557366 -0.7636624 0.24955378 -0.59543478 0.0097882375
0.070010439 0.064735427 -0.0046411366 -0.50279367 0.18039246 -0.84537399 0.014418713
0.067489304 0.067727081 -0.0035545707 -0.80018932 0.20701312 -0.56288773 0.0085197948
0.069493257 0.068095863 -0.0044047241 -0.61523956 0.13689512 -0.77636331 0.0073979283
0.067929089 0.070367999 -0.0035217192 -0.77988821 0.13028805 -0.61220866 0.0093276436
0.069407322 0.070833929 -0.004392344 -0.73906457 0.11058898 -0.66449499 0.0057932124
0.068151563 0.073615476 -0.0034217334 -0.91676569 0.13262482 -0.37676427 0.030259611
0.069479823 0.073501505 -0.0044452841 -0.85365069 0.093828239 -0.51232481 0.028523734
0.072553776 0.073891938 -0.0052131764 -0.58950067 0.065916397 -0.80507398 0.018028887
0.068442143 0.075856462 -0.003512322 -0.96025872 0.15227044 -0.23391671 0.036666524
0.069544084 0.075784482 -0.0044507026 -0.87594044 0.16173832 -0.45449865 0.035685156
-0.016218722 0.0026717654 -0.0013704423 -0.24321912 -0.96118015 -0.13029678 0.001233984
-0.013596099 0.0020434873 -0.0014589487 -0.2001092 -0.96977139 -0.13964158 0.0016807411
-0.010593667 0.0014367658 -0.0014123303 -0.16571258 -0.97865599 -0.12153888 0.0026863315
-0.0074706497 0.00094607117 -0.0013657049 -0.13413797 -0.98107553 -0.13963446 0.0036297236
-0.004613738 0.00064368715 -0.0015657248 -0.093898855 -0.98745346 -0.12695953 0.0042981454
-0.0014655699 0.00039990377 -0.0014125514 -0.058353633 -0.99577248 -0.070936956 0.0038873851
0.0017498391 0.00028994583 -0.0014369003 -0.023698986 -0.99752343 -0.06622234 0.0032617068
0.0043924693 0.00029569809 -0.0016945681 0.013953344 -0.99299526 -0.11732768 0.004728327
0.0072069252 0.00033989744 -0.0012402778 0.026860297 -0.99923652 -0.028368598 0.0039217491
0.01047615 0.00058517011 -0.0017573404 0.078321971 -0.98679167 -0.14180192 0.003096821
0.013326807 0.00085937529 -0.0015969966 0.1035721 -0.9875648 -0.11827335 0.0044147233
0.016299931 0.0012397073 -0.0016844806 0.14094579 -0.97645593 -0.16330361 0.0027441748
0.019390225 0.0017514433 -0.0016240169 0.17335819 -0.97883832 -0.10873082 0.0026636256
0.022903219 0.0024330937 -0.0012637839 0.21476404 -0.97281337 -0.086663321 0.0022092117
0.02460885 0.0028400563 -0.0015092989 0.22337814 -0.97050714 -0.090653732 0.0026683118
-0.025002468 0.0056483727 -0.0013846749 -0.34760857 -0.92237377 -0.16850823 0.0013059264
-0.022527233 0.0047287103 -0.0014713808 -0.31931275 -0.93412083 -0.15955432 0.00072087359
-0.019438513 0.0036720049 -0.00160573 -0.29306081 -0.94525951 -0.14352638 0.0009080217
-0.017662369 0.0031561665 -0.0019644042 -0.27814507 -0.95087516 -0.1359103 0.001238146
0.026319707 0.003335811 -0.0019858952 0.22784521 -0.97338551 -0.024640733 0.0028973634
0.028449165 0.0038821101 -0.0015900354 0.27865741 -0.95804429 -0.067091458 0.0018055034
0.031279273 0.0047423197 -0.0014619479 0.29680455 -0.9521206 -0.073303968 0.0013334642
0.033877246 0.0056101857 -0.0013721881 0.32021114 -0.94489491 -0.068106316 0.0019213553
-0.033227347 0.0089402124 -0.00080490543 -0.39305943 -0.89083475 -0.22785468 0.0020787283
-0.031560577 0.0083112456 -0.0015453135 -0.38766134 -0.89772654 -0.20929824 0.001013109
-0.028509531 0.0070644491 -0.0015284787 -0.35734355 -0.91018069 -0.20946762 0.00099371129
-0.026355045 0.0062298984 -0.0017482258 -0.36241478 -0.91127664 -0.19552559 0.0015069334
0.035333987 0.00622149 -0.0020870066 0.35415471 -0.93247592 -0.071155742 0.0019663353
0.037616439 0.0070840986 -0.0016827716 0.37077829 -0.92712605 -0.05441292 0.0012235125
0.040617637 0.0083622392 -0.0016256121 0.41133007 -0.91116607 -0.024166159 0.0016300266
-0.039311301 0.01179232 -0.0010172124 -0.45842123 -0.85464281 -0.24379456 0.0025749134
-0.037468981 0.010945037 -0.0015439388 -0.42899242 -0.87858284 -0.20989941 0.0019380277
-0.034665599 0.0096358433 -0.0014586434 -0.39261475 -0.88669205 -0.24419416 0.0021819072
-0.032895811 0.0090719657 -0.0028534997 -0.40509713 -0.88072389 -0.24540102 0.003520366
0.043365255 0.0096368296 -0.0015266126 0.43337125 -0.901173 -0.0087454598 0.0015335092
0.046573233 0.011270823 -0.001286632 0.47637269 -0.87834966 -0.039636277 0.0017043825
-0.043301173 0.014132868 -0.0015401391 -0.51590866 -0.83082402 -0.20873336 0.0021209172
-0.040744092 0.012658125 -0.0017097145 -0.46065912 -0.85081702 -0.25279161 0.002697434
0.050230272 0.013360009 -0.0010464748 0.52194244 -0.85296935 0.0044101775 0.0029251981
0.051520605 0.014145496 -0.0011470532 0.51472014 -0.8564257 -0.039976664 0.002694183
-0.048437782 0.017654654 -0.001428438 -0.5876888 -0.77612746 -0.22857809 0.0021676444
