# .PCD v0.7 - Point Cloud Data file format
VERSION 0.7
FIELDS x y z normal_x normal_y normal_z curvature
SIZE 4 4 4 4 4 4 4
TYPE F F F F F F F
COUNT 1 1 1 1 1 1 1
WIDTH 563
HEIGHT 1
VIEWPOINT 0 0 0 1 0 0 0
POINTS 563
DATA ascii
0.065494418 0.031590302 -0.0082760043 0.70810384 -0.36785322 -0.60272127 0.0026763934
0.066666476 0.031757306 -0.0068900101 0.74053681 -0.39283529 -0.54523903 0.0015280235
-0.024372848 0.035845544 -0.008811539 0.32614744 0.76380664 -0.55698049 0.00098950625
-0.022184163 0.035482377 -0.0081729935 0.31029728 0.81707621 -0.4859032 0.0016055624
-0.019495828 0.034924801 -0.0074684359 0.29798126 0.83476382 -0.46300822 0.0018123668
-0.016576394 0.034027997 -0.0073905531 0.2487637 0.83949733 -0.48307431 0.0016216087
-0.013693258 0.033515066 -0.0068832315 0.22670662 0.85315722 -0.46981573 0.0017707208
-0.011262049 0.033149153 -0.0063196686 0.20047741 0.87180549 -0.44694969 0.0012534297
0.02011524 0.033308964 -0.0065900069 -0.23935889 0.8691349 -0.43279544 0.0017523217
0.022663951 0.033762738 -0.0071278024 -0.24520041 0.86005604 -0.44741517 0.0019227582
0.025515111 0.034412812 -0.0074302726 -0.25952619 0.85156691 -0.45549956 0.002081577
0.028383 0.035193086 -0.0076359208 -0.29244113 0.84582621 -0.44615716 0.0013570915
0.031027077 0.035685036 -0.0084145227 -0.31166661 0.81074643 -0.49553409 0.001667134
0.033091385 0.035983957 -0.0087261451 -0.34631735 0.78299958 -0.51669711 0.0035067205
0.067406431 0.034575291 -0.0075880298 0.75833839 -0.28359297 -0.58693945 0.0018774008
-0.030516885 0.038770776 -0.008572462 0.37397349 0.77516794 -0.50917429 0.0011259819
-0.028235339 0.038252402 -0.0077513433 0.36570501 0.81053185 -0.45749098 0.0015679501
-0.025521204 0.037264626 -0.0074137985 0.32886767 0.81754076 -0.47272947 0.0016062296
-0.022848159 0.036501843 -0.0068824631 0.32422191 0.83199978 -0.45017383 0.0014784634
-0.020708196 0.03610152 -0.0060916892 0.31082258 0.85594153 -0.4132233 0.00090686872
0.02943027 0.036212381 -0.0064557972 -0.3065989 0.8581205 -0.41185713 0.0015558157
0.031721596 0.036682863 -0.0071091992 -0.32892385 0.83367264 -0.44362032 0.0017639397
0.034541503 0.0377726 -0.0073658773 -0.37659875 0.8208856 -0.42932546 0.0019641139
0.036945984 0.038438983 -0.008156932 -0.40545383 0.76703399 -0.49725848 0.0021244723
0.039033387 0.038863033 -0.0087790629 -0.42614305 0.76663536 -0.48028359 0.0024079531
0.068274423 0.037688032 -0.0077287517 0.77762276 -0.14265819 -0.61233288 0.0036289035
0.069325969 0.037953306 -0.0065045403 0.79294795 -0.21278135 -0.57092702 0.0017101403
-0.036659881 0.04174196 -0.0085672298 0.38711822 0.75054133 -0.53556246 0.0010311891
-0.034316838 0.041149031 -0.0077130343 0.39395434 0.79487115 -0.46149746 0.0015265391
-0.03159738 0.040066201 -0.007306153 0.37171212 0.80169064 -0.46810487 0.0015550441
-0.029273501 0.039337475 -0.006639041 0.37872019 0.82290816 -0.42354822 0.0010776338
0.035827562 0.039061274 -0.0063443505 -0.42924809 0.83398002 -0.34673244 0.0021205808
0.037738912 0.039635509 -0.0069098622 -0.43206918 0.79078555 -0.43356025 0.0017844591
0.040422026 0.040759549 -0.0075905961 -0.44444931 0.7658565 -0.4646813 0.0018127727
0.042553488 0.041521922 -0.0083666751 -0.44050369 0.73065954 -0.52162558 0.0023205867
0.068315506 0.040708877 -0.0083386693 0.70501357 -0.045396775 -0.70773929 0.0036423586
0.069605663 0.040845525 -0.0069160787 0.76989967 -0.066218667 -0.63472015 0.0024039205
-0.066556253 0.043666687 -0.0088141039 -0.44796443 0.057703793 -0.8921873 0.0021732834
-0.042452652 0.044715453 -0.008619858 0.39285496 0.7343086 -0.55358452 0.0015914032
-0.040248279 0.044177935 -0.0076840967 0.40691546 0.78199589 -0.47212517 0.0016449763
-0.037624214 0.043069292 -0.0072998684 0.39101064 0.78666359 -0.4777773 0.0016095742
-0.035348672 0.04234473 -0.0065509416 0.41827783 0.79919702 -0.43165702 0.0011828368
0.041525461 0.042273369 -0.0062851021 -0.46978074 0.76427978 -0.44179454 0.0012042464
0.04366539 0.042930759 -0.0072374572 -0.45305672 0.74926466 -0.48305494 0.0019973775
0.046244621 0.044109028 -0.0077939136 -0.4343954 0.73684067 -0.51804096 0.0020174147
0.04861363 0.044770807 -0.0086521935 -0.39697877 0.69837165 -0.59555423 0.0014911199
0.068286799 0.043695666 -0.0084294481 0.64192885 0.046141312 -0.7653746 0.0033773568
0.069689743 0.043567516 -0.0070036985 0.75357169 0.0075336914 -0.65732253 0.0026256873
-0.067369193 0.046643596 -0.0084425462 -0.45257118 0.09938807 -0.88617224 0.0031593624
-0.048694398 0.04771094 -0.008708897 0.33583346 0.71075261 -0.61809909 0.0012798031
-0.046242788 0.047188383 -0.0078420993 0.37858617 0.76251477 -0.52463681 0.0023008776
-0.043598164 0.046153825 -0.0073500262 0.39497429 0.77225959 -0.49760473 0.0020008164
-0.041252092 0.045406874 -0.0065937936 0.42860824 0.78394723 -0.44913435 0.0016481718
0.047251884 0.045492351 -0.0066470858 -0.45825589 0.73966813 -0.49284121 0.0020519395
0.049568772 0.046367526 -0.0073604006 -0.40723389 0.73602647 -0.54076403 0.0015739539
0.052142002 0.04726069 -0.0080746235 -0.37385291 0.70153087 -0.60670292 0.0021108855
0.054406982 0.047780383 -0.0087555172 -0.304741 0.6534344 -0.69293314 0.0022825229
0.067967549 0.046720415 -0.0083238576 0.54823047 0.13852115 -0.82477587 0.0047956072
0.06971848 0.046383671 -0.0068179443 0.71096581 0.083598971 -0.6982398 0.003490024
-0.069766574 0.049829543 -0.0067366823 -0.49985576 0.10374627 -0.85987264 0.00090161111
-0.066861562 0.050321434 -0.0084635522 -0.17728962 0.37089422 -0.91159523 0.0043618856
-0.065043569 0.050576191 -0.0088099297 -0.11491928 0.40831375 -0.90557909 0.0073391758
-0.06084092 0.050908871 -0.0089790979 -0.0004296659 0.57694697 -0.81678146 0.0033012826
-0.057709277 0.050851818 -0.0088380482 0.12076093 0.6622867 -0.73945457 0.0038137625
-0.054977503 0.050611164 -0.0084668621 0.2293596 0.69138259 -0.68511635 0.0021831866
-0.052299101 0.050100222 -0.0077711758 0.31263649 0.7477873 -0.585724 0.0022384913
-0.049589425 0.049200568 -0.0073382072 0.34444547 0.76667017 -0.54182488 0.0019668478
-0.047076464 0.048435975 -0.0066216551 0.40565753 0.77362394 -0.48677301 0.0018674537
0.050722878 0.048227616 -0.0060994406 -0.47226435 0.7304222 -0.49340624 0.0016281598
0.052787673 0.048752747 -0.0067578438 -0.44251093 0.72754568 -0.52427232 0.0017395429
0.055461776 0.049568046 -0.0075127571 -0.34285685 0.68294579 -0.64500719 0.0016370559
0.058242608 0.050188351 -0.0081902798 -0.27055576 0.6305269 -0.72748572 0.0026074904
0.061178401 0.050552592 -0.008668025 -0.14494053 0.54597723 -0.82516736 0.0047565936
0.064384587 0.050454065 -0.0088000456 0.076815203 0.43426153 -0.89750564 0.0044126492
0.067578867 0.04967453 -0.0079029603 0.46487242 0.21180703 -0.85966939 0.0070119835
0.069511637 0.04923515 -0.0066425586 0.67922211 0.1248595 -0.72323394 0.0065866588
-0.069835223 0.05316006 -0.0066826511 -0.23430103 0.33167005 -0.91383696 0.0059265331
-0.066980176 0.05303701 -0.0075693354 -0.010662374 0.51009101 -0.86005437 0.0035169374
-0.064248525 0.052667163 -0.0080246832 0.051769603 0.57295567 -0.81794965 0.0044461512
-0.061381981 0.052793365 -0.0077405223 0.15344957 0.66911244 -0.72714627 0.0049864673
-0.058534261 0.052594587 -0.0073089222 0.20067729 0.74501866 -0.63614136 0.0032945471
-0.055606451 0.051984414 -0.0070800767 0.26848862 0.76394093 -0.58677775 0.0024706505
-0.053058386 0.051441763 -0.0065031364 0.34809113 0.775105 -0.52729958 0.0017726274
0.056447823 0.051205609 -0.0063378098 -0.4037472 0.70619738 -0.58161277 0.002941347
0.058557738 0.051856875 -0.0067488989 -0.35293749 0.68114358 -0.6414659 0.0036996044
0.061413936 0.052514274 -0.0073291012 -0.24388905 0.58904797 -0.77041584 0.0033443654
0.063939832 0.05257066 -0.0077780229 -0.089482434 0.48942161 -0.86744416 0.006277855
0.067465618 0.052589457 -0.007123047 0.40501598 0.25360709 -0.87843359 0.010655241
0.069329038 0.052485179 -0.0062116436 0.59937137 0.17288046 -0.78157932 0.006228318
-0.06962838 0.055252906 -0.0062804031 -0.10047307 0.4772698 -0.87299412 0.0052879327
-0.067261085 0.055207156 -0.0065561431 0.064238854 0.55944538 -0.82637417 0.0045392201
-0.064455718 0.054775316 -0.0065842951 0.14897065 0.62799162 -0.76382869 0.0063309683
-0.061717018 0.054350492 -0.006330316 0.21540305 0.71545714 -0.66462219 0.0045325081
-0.059509054 0.054212227 -0.0060789287 0.27720311 0.75718355 -0.59146565 0.0021274441
0.062499676 0.054327238 -0.0063154758 -0.34215349 0.60598916 -0.71812826 0.0045313886
0.064242914 0.054790221 -0.0065111723 -0.22739728 0.53495568 -0.81370318 0.0066020368
0.067240953 0.055108596 -0.0064390958 0.13818003 0.34889627 -0.92691833 0.017472209
-0.068423048 0.057050377 -0.0060013342 -0.055385955 0.5428021 -0.83803242 0.010291739
0.067539029 0.057685878 -0.0060251029 -0.47408658 0.44470534 -0.75992048 0.014370863
0.064193651 0.025862033 -0.0043653031 0.74959016 -0.57637048 -0.32544082 0.0067873541
0.065349981 0.027997123 -0.0054017743 0.73719764 -0.47830585 -0.47724539 0.0021677329
0.066523939 0.029027168 -0.0044364869 0.78031635 -0.48480597 -0.39505631 0.0024913102
-0.0093563851 0.032903701 -0.0058218138 0.20750511 0.91014868 -0.35856813 0.0025575054
-0.0071973181 0.032725554 -0.0053760628 0.16141464 0.92330444 -0.34850293 0.0025481596
-0.0043104966 0.032543968 -0.0047782315 0.1422139 0.92837167 -0.3433674 0.0020773497
-0.0014962535 0.032330245 -0.0044729831 0.10595873 0.94399744 -0.31247663 0.0027605395
0.0014931062 0.032111082 -0.0044756369 0.046184361 0.94557738 -0.32210317 0.0026862423
0.0044665341 0.032034926 -0.0044763004 0.0085023874 0.94158399 -0.33667102 0.0027495397
0.0074344627 0.032068353 -0.0044784774 -0.040865876 0.9420473 -0.3329818 0.0028262322
0.010529864 0.032283977 -0.0044876365 -0.11222454 0.94831723 -0.29681647 0.0029717684
0.013386642 0.032548476 -0.0047032419 -0.15944397 0.93363672 -0.3207804 0.0023277511
0.016145987 0.032766782 -0.0054341457 -0.19920877 0.92113107 -0.33441481 0.0026507797
0.018049436 0.032922372 -0.0055623832 -0.19774812 0.92637652 -0.32050321 0.0031390944
0.068141446 0.031857736 -0.0044790297 0.82125509 -0.42102966 -0.38506383 0.002956226
-0.018838564 0.035712425 -0.0053462232 0.30216762 0.8958115 -0.32590866 0.0027426828
-0.016409928 0.035318751 -0.0045476495 0.29094821 0.90921491 -0.29778755 0.0021888625
-0.013510306 0.03449114 -0.0044715274 0.2484313 0.91315848 -0.32314616 0.0027344695
-0.010542379 0.033747431 -0.0044417488 0.204504 0.92970365 -0.3063156 0.0024098479
-0.0077380165 0.033368722 -0.0039848951 0.15619642 0.94101119 -0.30016765 0.0026491145
-0.0050820508 0.033136863 -0.0034659617 0.13299038 0.95193499 -0.27592281 0.0020310392
0.014175882 0.033139382 -0.0034210812 -0.14697371 0.95775473 -0.24719355 0.0015109116
0.016645996 0.033371951 -0.0040459232 -0.19559 0.93751496 -0.28776759 0.0025147297
0.019494792 0.033957247 -0.0044362028 -0.23985474 0.92504889 -0.29454058 0.0021951308
0.02250663 0.034790616 -0.0044805226 -0.27201426 0.91961819 -0.28339121 0.0015107495
0.025295733 0.03548431 -0.0047802064 -0.2889545 0.90926576 -0.2995683 0.0018384064
0.027455598 0.035815958 -0.0055922596 -0.29647103 0.89502335 -0.33322379 0.0020563456
0.068671107 0.034250736 -0.0055797258 0.83015531 -0.31807271 -0.45789948 0.0034178242
0.069791734 0.035188857 -0.004040339 0.88369226 -0.30720416 -0.35314804 0.0056898072
-0.027326141 0.038812857 -0.0057160151 0.3798992 0.85101712 -0.36255559 0.0031269477
-0.02523159 0.038410004 -0.0047239624 0.37786046 0.87840444 -0.29262105 0.0020643929
-0.022465384 0.037360154 -0.004471011 0.33884525 0.89170712 -0.30007049 0.0022797764
-0.019739209 0.03646639 -0.0041428246 0.29794562 0.91047293 -0.28682312 0.0025936647
-0.017686095 0.036104806 -0.0034166807 0.28025511 0.92401165 -0.2601144 0.0024781644
0.026358092 0.036206342 -0.0035728686 -0.28448212 0.92485821 -0.25240266 0.0017827839
0.028599262 0.036633842 -0.0045091496 -0.30639163 0.90440255 -0.29695159 0.0020019019
0.031491306 0.037642617 -0.0045936997 -0.3580966 0.88817269 -0.28795162 0.0019698914
0.033943791 0.038546599 -0.0050851749 -0.40883547 0.86143714 -0.30129641 0.0023454442
0.07052587 0.03797299 -0.0042719482 0.90850186 -0.22932051 -0.34933722 0.003129865
-0.033373039 0.04177019 -0.0055905525 0.41866955 0.84399086 -0.3352538 0.0031139515
-0.031358283 0.041191529 -0.0045456239 0.43450391 0.85757095 -0.27527896 0.0018992646
-0.028574683 0.039926801 -0.0044021364 0.38181332 0.87849128 -0.28717878 0.0024867391
-0.026376748 0.039270271 -0.0036992116 0.36453366 0.88823193 -0.27956983 0.0020003116
0.035145003 0.039381724 -0.0042863931 -0.41268319 0.86114782 -0.29684505 0.0020385762
0.03755876 0.04056083 -0.0045966418 -0.45950896 0.83527321 -0.3019439 0.0023383021
0.039633848 0.041603781 -0.0050718202 -0.48609743 0.815292 -0.31465563 0.0025213587
0.0710143 0.040789835 -0.0044902069 0.9080199 -0.12961839 -0.3983703 0.0031731818
-0.039288316 0.044829931 -0.005543502 0.43186048 0.83295172 -0.34595945 0.0035622048
-0.037289724 0.044159696 -0.0046075634 0.45101625 0.84542459 -0.28607976 0.0020315587
-0.034585457 0.042894606 -0.0043357285 0.4271152 0.85748953 -0.2868526 0.0023578261
-0.032594152 0.042211343 -0.0034925903 0.43967539 0.85791886 -0.26582116 0.0031930383
0.038938884 0.042044252 -0.0032838923 -0.51953179 0.83017373 -0.2022334 0.004418687
0.040859062 0.04265286 -0.0043152333 -0.49946064 0.8144514 -0.29531011 0.0021881219
0.043297846 0.044075228 -0.0046166722 -0.51657432 0.79826051 -0.30972761 0.0018160316
0.045216825 0.044870391 -0.0055846563 -0.49546894 0.78040755 -0.38141146 0.0033989241
0.071276642 0.04388677 -0.0046970812 0.87660384 -0.032289054 -0.4801282 0.0025776078
0.072071694 0.043771956 -0.0031171765 0.90908843 -0.080069013 -0.40883645 0.0028111772
-0.045237526 0.047888383 -0.0058132797 0.41989633 0.78882575 -0.44882178 0.0019936091
-0.04322879 0.047334004 -0.0047131837 0.45892695 0.83006096 -0.31683567 0.0023082236
-0.040590912 0.046020839 -0.0043907445 0.45415017 0.83947283 -0.29838407 0.0024038171
-0.038545791 0.045200679 -0.0036227321 0.45276797 0.84116256 -0.29571405 0.0022431111
0.044636313 0.045341607 -0.0035965231 -0.51024431 0.80259585 -0.30901542 0.0020830005
0.046559464 0.046209339 -0.0045202575 -0.50247216 0.7902357 -0.35078385 0.0027714605
0.048818339 0.047467407 -0.0049370546 -0.50003868 0.78764755 -0.35996193 0.002640401
0.071240075 0.046619132 -0.0047607133 0.85168803 0.027713995 -0.52331573 0.0032080214
0.072042167 0.04626862 -0.0031627584 0.93111342 -0.023153096 -0.36399421 0.0065890551
-0.070981085 0.050673384 -0.0057777404 -0.43068889 0.15192856 -0.8896206 0.0062812185
-0.051385012 0.050956417 -0.0059392327 0.37120822 0.75906509 -0.53481275 0.0027407219
-0.049037695 0.05041888 -0.0048211282 0.42831916 0.82673085 -0.36477238 0.0029020782
-0.046536263 0.04924576 -0.0044611315 0.44328707 0.82429427 -0.35218683 0.0024943997
-0.044367459 0.048335988 -0.0037863767 0.44467491 0.83481264 -0.32457978 0.0020960688
0.050110612 0.04861271 -0.0042467569 -0.49910462 0.78082138 -0.37578261 0.0024364749
0.052442171 0.04989716 -0.004640006 -0.49011078 0.778005 -0.39306453 0.0029909906
0.054588191 0.050660856 -0.0055774739 -0.43297765 0.73889768 -0.5162949 0.0026502009
0.071229361 0.049472526 -0.0045780372 0.84003532 0.0412689 -0.54095995 0.0053138551
0.072138369 0.049365707 -0.0032030561 0.89402211 0.0043652067 -0.4480015 0.0057917694
-0.072743393 0.053418875 -0.0047130501 -0.58598733 0.071338989 -0.80717385 0.0051223598
-0.071394891 0.05202334 -0.0054806503 -0.40109587 0.12038567 -0.90809113 0.005246385
-0.057811011 0.053784177 -0.005508604 0.26533258 0.81177062 -0.52021831 0.0041601025
-0.055275533 0.053352833 -0.0046873833 0.31918883 0.8524164 -0.41413146 0.0031499502
-0.052499995 0.052348595 -0.0044338177 0.38241577 0.83271849 -0.40042233 0.0027923083
-0.050185397 0.051393967 -0.0039540925 0.41393146 0.83455199 -0.36357096 0.0025772857
0.053694807 0.051226813 -0.0035878252 -0.4994795 0.78322476 -0.37024203 0.0023084586
0.055659059 0.052004039 -0.0043748566 -0.45633197 0.76967096 -0.44650611 0.0031901405
0.058168441 0.053196978 -0.0048765424 -0.46680814 0.73885459 -0.48598769 0.0040290481
0.060275905 0.053756118 -0.0057817674 -0.37100521 0.63818872 -0.67458898 0.0052075679
0.07088013 0.052483331 -0.0047818613 0.71117383 0.10771087 -0.6947158 0.011136504
0.072066359 0.052353948 -0.0032882621 0.8519274 0.045169897 -0.52170795 0.011577504
-0.07529223 0.056271624 -0.0031795173 -0.45201328 0.86016017 -0.23623839 0.030346878
-0.074125938 0.056468531 -0.0040160264 -0.50959772 0.62946945 -0.58658183 0.029814543
-0.070577711 0.056216404 -0.0057715829 -0.16497914 0.51432294 -0.84157819 0.012968275
-0.067154616 0.056523044 -0.0057615582 0.10527448 0.56615496 -0.81754875 0.0058850548
-0.064168029 0.056280404 -0.0052406318 0.28704867 0.70380944 -0.64981186 0.0075445264
-0.061414126 0.055699933 -0.0044868966 0.33510038 0.78781134 -0.5167796 0.0075490526
-0.058623072 0.054785941 -0.0042180722 0.30070972 0.8416329 -0.44858405 0.004383008
-0.056273233 0.054273855 -0.0035046169 0.34362888 0.86476505 -0.36619762 0.0029359721
0.059240669 0.054549973 -0.0039600106 -0.48207629 0.73177117 -0.48178151 0.0049745105
0.061424218 0.055479944 -0.0046115844 -0.44077298 0.66174108 -0.60648 0.0068007163
0.063868612 0.05625518 -0.0053947996 -0.35197255 0.55517548 -0.75358844 0.0083469944
0.067804947 0.056388505 -0.0058031916 0.11598895 0.34990066 -0.92957842 0.016583771
0.070798352 0.055611569 -0.0044612754 0.73861265 0.08378806 -0.6689027 0.012242109
0.072124369 0.054600477 -0.0032915655 0.67986757 0.10464157 -0.72583073 0.0068911682
-0.073103204 0.058228403 -0.003780657 -0.46831056 0.76388681 -0.44402942 0.02474748
-0.070444465 0.059101302 -0.004126803 -0.1653695 0.81235999 -0.55921757 0.02472955
-0.067366458 0.058664333 -0.0041488907 0.22813247 0.74888426 -0.62219602 0.0097842729
-0.064631075 0.057844814 -0.0038080243 0.37120771 0.74081087 -0.55982494 0.0069020423
-0.062693074 0.057207968 -0.0032348582 0.45288929 0.77796483 -0.43550211 0.011740721
0.062630191 0.057418805 -0.0035279898 -0.5845328 0.57868165 -0.56872576 0.007475229
0.064175263 0.058280356 -0.0041013788 -0.520423 0.51886183 -0.67819047 0.014944293
0.067175493 0.058717459 -0.0051413351 -0.15620926 0.35800156 -0.92056155 0.015979087
0.070488296 0.058259588 -0.004347086 0.56025791 0.054186538 -0.82654393 0.018615808
0.072041169 0.059217509 -0.0030840926 0.91943711 -0.076353408 -0.38575336 0.020798627
-0.069468327 0.060092613 -0.0031434246 -0.11241945 0.90635121 -0.40729508 0.027669391
-0.068337969 0.060072422 -0.0031353303 0.12613009 0.9007374 -0.41564801 0.026570521
0.065425232 0.061096013 -0.0034374497 -0.59324712 0.33556262 -0.73174834 0.01327313
0.067655757 0.061487127 -0.0043328768 -0.20884055 0.20150408 -0.95696485 0.021840852
0.070476167 0.061435632 -0.0041163899 0.34757033 0.056620575 -0.93594283 0.019144971
0.072134688 0.061885234 -0.0032283491 0.5525552 -0.046555113 -0.83217508 0.028218299
0.065782428 0.063127346 -0.0032287755 -0.83460963 0.28374949 -0.47213671 0.02785881
0.067614675 0.064380601 -0.0037141081 -0.38552403 0.1432291 -0.91151345 0.014978577
0.070601091 0.064348236 -0.0039055345 0.2754119 -0.065812215 -0.95907092 0.02351056
0.072283566 0.06470985 -0.0032552693 0.37609163 -0.072092995 -0.92377359 0.015567881
0.068076 0.067697547 -0.0035505511 -0.50089228 0.086820588 -0.86114401 0.017265027
0.070439309 0.067664817 -0.0041208854 -0.025493953 -0.017064322 -0.99952936 0.018961484
0.072642766 0.067635164 -0.0034692909 0.36137956 -0.12198401 -0.92440504 0.011362229
0.068311505 0.070291936 -0.0033969085 -0.66192955 0.091555744 -0.74395347 0.026788563
0.070779502 0.070131391 -0.0040613599 0.096877813 -0.11235151 -0.9889347 0.026914746
0.073142819 0.070461087 -0.0036935273 0.37164164 -0.18545198 -0.90966481 0.012387213
0.068530135 0.073255867 -0.0033546484 -0.7318185 0.26203579 -0.62910956 0.040667042
0.070075594 0.073237427 -0.0042383238 -0.345276 0.26264367 -0.90100098 0.055298831
0.074322701 0.074499264 -0.0041342215 0.40200877 0.79411077 -0.4558256 0.036359791
0.075358033 0.074619047 -0.0033737761 0.36861926 0.9144128 -0.16723953 0.032844812
0.068771765 0.076346129 -0.0032929457 -0.11486195 0.98669118 -0.11509681 0.083188169
0.070776351 0.076311864 -0.003800422 0.12004263 0.94285452 -0.31082967 0.041610446
0.073315062 0.075605795 -0.003856766 0.28221163 0.90047473 -0.3309105 0.032031372
0.075222224 0.075092435 -0.0032041078 0.38229483 0.91484362 -0.13004524 0.016988203
0.065020867 0.025792008 -0.0017427128 0.76989406 -0.61504012 -0.17026114 0.0030164889
0.067195795 0.028652826 -0.0013552647 0.82776546 -0.53618646 -0.16525277 0.002161772
-0.0031394302 0.032982577 -0.0024929359 0.095617935 0.9854154 -0.14076142 0.0023297232
-0.0011439957 0.032886978 -0.0021810182 0.098813407 0.98253286 -0.1576864 0.0017556036
0.0015621501 0.03277244 -0.0015952577 0.067761838 0.98919219 -0.13002799 0.0023793762
0.0044520297 0.032707084 -0.0015244409 0.022836799 0.9916079 -0.12724872 0.0019886168
0.0074531925 0.03272881 -0.0015605954 -0.054161027 0.98978001 -0.1319171 0.0020321342
0.010320292 0.032862972 -0.0019892307 -0.098191947 0.98395026 -0.1489978 0.0020743292
0.012397288 0.032952797 -0.0025848465 -0.14177634 0.97865987 -0.14874238 0.0027611363
0.068628892 0.031009896 -0.0016052732 0.86911768 -0.45370546 -0.19694118 0.0045832782
0.069467239 0.032632094 -0.001343546 0.91864097 -0.37359068 -0.12856431 0.0056981635
-0.015773557 0.035780407 -0.0017580157 0.30579695 0.94617325 -0.10603995 0.0017377533
-0.013495703 0.035147008 -0.0015041237 0.26988259 0.95600396 -0.11497699 0.0018035184
-0.010479403 0.034377363 -0.0015079286 0.21221043 0.96502447 -0.1539302 0.0029783314
-0.0075368285 0.033803452 -0.0015315468 0.15942077 0.97743833 -0.13856217 0.0023535152
-0.0045345565 0.033364203 -0.0014918613 0.12780994 0.9834041 -0.12876701 0.0019107579
-0.0017748162 0.033125408 -0.00086127716 0.087601557 0.99259758 -0.084119551 0.0038114374
0.0005657213 0.033037234 -0.00033172395 0.050337512 0.9979592 -0.039287545 0.0023150975
0.0087885084 0.033027127 -0.00028001665 -0.059879001 0.99548858 -0.073599957 0.0037655411
0.010944664 0.033089112 -0.00063476566 -0.083721876 0.99591815 -0.033730131 0.0021623177
0.013598646 0.033333514 -0.0013991612 -0.13881266 0.98297167 -0.12040651 0.0022633686
0.016457558 0.033819061 -0.0015345663 -0.19690694 0.9717049 -0.13044992 0.002947527
0.019496184 0.034562398 -0.0014912806 -0.25529385 0.96028852 -0.11256512 0.0016582863
0.022506224 0.035390623 -0.0015179532 -0.27209508 0.95717168 -0.098927163 0.0017822388
0.024417557 0.035885859 -0.001970168 -0.30737823 0.94608462 -0.10218845 0.002057326
0.070350714 0.034667615 -0.0012102689 0.93899828 -0.33460718 -0.07949993 0.00563093
-0.02448619 0.038805973 -0.0018070047 0.40345249 0.90909392 -0.10379985 0.0017518377
-0.022512665 0.038029656 -0.0015012861 0.36432654 0.92485964 -0.10909119 0.0017618089
-0.019490754 0.036903959 -0.0015118569 0.30614984 0.9422527 -0.13576514 0.0032272607
-0.017173393 0.036249131 -0.0013266021 0.27155489 0.95744491 -0.097760826 0.0017939354
0.023820149 0.036003441 -0.00035404231 -0.25513208 0.96660125 -0.024284257 0.0036203791
0.025764985 0.036355212 -0.0013743432 -0.28566781 0.95349908 -0.096090794 0.0021886672
0.028501088 0.037244458 -0.0014848191 -0.3082251 0.94552517 -0.10478289 0.0015845295
0.031455215 0.038304921 -0.0015194229 -0.37523085 0.92015326 -0.11189168 0.0023889199
0.033213399 0.038890857 -0.0023388113 -0.42343533 0.89901179 -0.11171577 0.0021791134
0.071243979 0.037477203 -0.0015702163 0.95401132 -0.26249102 -0.14477876 0.0035307847
-0.030796573 0.041596726 -0.0016174059 0.45961255 0.88229543 -0.10154294 0.0015495681
-0.028511159 0.040525507 -0.0014906713 0.40305308 0.90948254 -0.10193037 0.0016644661
-0.025901213 0.039447211 -0.001403276 0.37298185 0.92217273 -0.10238136 0.0018818449
0.032884181 0.039060257 -0.00076893065 -0.38730958 0.9171232 -0.09421467 0.003013572
0.034589346 0.039724376 -0.0015158155 -0.42726555 0.89601308 -0.12085024 0.0026123484
0.03732932 0.041168105 -0.001580896 -0.49498048 0.86062622 -0.11965287 0.0027113517
0.039152045 0.041928023 -0.0020460887 -0.54288864 0.83277035 -0.10846945 0.0031328541
0.071816415 0.040094793 -0.0019002825 0.96443176 -0.20577526 -0.16591541 0.0047657178
0.072161861 0.041074775 -0.00089614169 0.97883272 -0.16286813 -0.12393752 0.0059146825
-0.036731265 0.044614423 -0.0016378668 0.48031044 0.8706128 -0.10646707 0.0017989742
-0.034484018 0.043492436 -0.0014908855 0.4396024 0.89288372 -0.097511172 0.0013788659
-0.032249849 0.042376757 -0.0013387427 0.43386954 0.89506519 -0.10303164 0.0018056048
0.038760282 0.04213883 -0.0010291787 -0.51948303 0.84818399 -0.10354337 0.0031880911
0.040491402 0.043123089 -0.0014796309 -0.5158664 0.8488887 -0.11519551 0.0026407095
0.042700391 0.044541735 -0.0015714529 -0.56068105 0.82263231 -0.094407462 0.0020147488
0.071938716 0.043020532 -0.0029009248 0.99262184 -0.096278511 -0.073705249 0.0050898753
0.072360665 0.043669194 -0.0015198786 0.99359453 -0.087303169 -0.071750164 0.0052303951
-0.042440891 0.047750164 -0.001749772 0.4970907 0.85981667 -0.11668767 0.0022047332
-0.040513936 0.046701144 -0.0014934182 0.48242533 0.86997664 -0.10201219 0.0020510468
-0.038225662 0.045433063 -0.0013750385 0.46337414 0.87836158 -0.11732628 0.0023197995
0.044177193 0.045536507 -0.0013985669 -0.5383817 0.83671463 -0.10026847 0.0028194564
0.046426855 0.047025237 -0.0014983128 -0.55557418 0.82343411 -0.11529846 0.0031319365
0.048120171 0.047882725 -0.002514567 -0.53291786 0.83083099 -0.16036984 0.0032469991
0.072535351 0.046626411 -0.0011198594 0.99313998 -0.03950176 -0.11005743 0.0046087503
-0.048263572 0.050912999 -0.0023138307 0.47880787 0.86653012 -0.14095615 0.0039567859
-0.046483312 0.050055604 -0.0015172515 0.48171455 0.86730182 -0.12545326 0.0028619536
-0.043903325 0.048619449 -0.0014252989 0.47193208 0.87328935 -0.12101985 0.0025047688
0.047819067 0.048118189 -0.0009105365 -0.53769249 0.83712941 -0.10050459 0.0034729363
0.049559105 0.049132869 -0.0014527588 -0.54253078 0.83164626 -0.11842687 0.0035963806
0.051694799 0.050521098 -0.0016610028 -0.55769569 0.82273781 -0.10989997 0.0031970716
0.07257469 0.049129792 -0.001515816 0.99392277 -0.056659639 -0.094377622 0.005267092
-0.05430828 0.053879224 -0.0024026199 0.3689014 0.91184109 -0.18015975 0.0051664943
-0.052431505 0.053252727 -0.0015055692 0.41255668 0.89667898 -0.16051111 0.0038659212
-0.049613904 0.051787902 -0.0014274692 0.45759293 0.87837154 -0.13810201 0.0037500488
-0.047839202 0.051065672 -0.00039010425 0.44907671 0.88870704 -0.092357583 0.005042661
0.053153418 0.051543441 -0.0013261206 -0.52988052 0.83839703 -0.12773813 0.0045387857
0.055387653 0.052961864 -0.0014888558 -0.56826061 0.81352502 -0.12351854 0.0042693624
0.057242021 0.053847425 -0.0026384692 -0.55179328 0.78849733 -0.27165443 0.0070443358
0.072743408 0.052333485 -0.0011345604 0.99759448 -0.011676696 -0.068329267 0.0099053085
-0.075927809 0.056615703 -0.0013681063 -0.69838083 0.70696837 -0.11162446 0.040493295
-0.060694683 0.056668233 -0.0017667223 0.49318337 0.85327381 -0.16939285 0.0086046644
-0.058490578 0.055728886 -0.0014732176 0.39065266 0.9060533 -0.16265905 0.0078786258
-0.055599425 0.054579701 -0.0013944054 0.35312685 0.9238742 -0.14750548 0.0054775155
-0.053851776 0.054059945 -0.00045866217 0.35131407 0.93084639 -0.10051531 0.0065594655
0.056850232 0.054158766 -0.0005835616 -0.55596811 0.82660389 -0.087324493 0.010428435
0.058545541 0.055200588 -0.0013452894 -0.56055355 0.81690383 -0.13582288 0.0074456572
0.060493667 0.05652643 -0.0017253418 -0.63904053 0.74824375 -0.1782092 0.013262594
0.072749987 0.055426847 -0.0017162192 0.92618531 0.031573135 -0.37574446 0.014323536
-0.075473867 0.057369974 -0.001169498 -0.50919348 0.86005527 -0.032046586 0.012449883
-0.073401533 0.05855814 -0.0014256928 -0.44698167 0.89037138 -0.086291209 0.0085516991
-0.071223788 0.059623774 -0.0015705065 -0.34442827 0.93048477 -0.12476902 0.0080963075
-0.066510595 0.059687566 -0.0025748976 0.28546432 0.87655282 -0.38751158 0.013726387
-0.064385541 0.059007611 -0.0015251454 0.5101645 0.83004606 -0.22529028 0.0087012909
-0.062071428 0.057595562 -0.0012994582 0.46954817 0.86299843 -0.18643562 0.010394556
0.06173113 0.057971634 -0.0012917793 -0.76731938 0.6099782 -0.19785762 0.015681539
0.063484773 0.059411928 -0.0024683641 -0.74412882 0.58677197 -0.31932887 0.02236734
0.072819144 0.058265414 -0.0016996237 0.89677709 -0.055596579 -0.43897599 0.019863477
-0.069673873 0.060332283 -0.0014896295 -0.13634157 0.9777078 -0.15968195 0.019168446
-0.06751439 0.060569927 -0.0013320451 0.15906292 0.96845531 -0.19181585 0.017450923
-0.065789305 0.060161341 -0.00049645937 0.33668655 0.93758929 -0.086997971 0.018743558
0.062951729 0.060147081 -0.00051393418 -0.83014172 0.55731517 -0.016267098 0.023043577
0.06391634 0.061137781 -0.0013998295 -0.88448924 0.3909938 -0.25456381 0.021900777
0.07324475 0.061580695 -0.001470346 0.94548649 -0.086209849 -0.31404325 0.023533246
0.064822726 0.06427449 -0.00099179323 -0.96678466 0.25558907 0.0012609517 0.019379415
0.066301756 0.064916193 -0.0027769681 -0.7243892 0.19193754 -0.66213316 0.020579737
0.0734253 0.064112782 -0.0017247987 0.85339773 -0.2052231 -0.47916147 0.017467106
0.065454043 0.067469373 -0.00048939546 -0.95854861 0.21773539 0.18378215 0.021692073
0.066479877 0.067738026 -0.0022652787 -0.90007424 0.23185281 -0.36893165 0.040001325
0.074428737 0.067402087 -0.0013164718 0.95116687 -0.2993857 -0.075165376 0.019373132
0.075075597 0.068436585 -0.00057471165 0.94753236 -0.29789162 -0.1159438 0.025636537
0.065891236 0.069726057 -0.00058063993 -0.91247982 0.16613829 0.37386984 0.02690585
0.06665571 0.070451602 -0.0014384924 -0.97404701 0.18734385 -0.12702231 0.020291487
0.074523114 0.069939047 -0.0023662271 0.77006829 -0.23394452 -0.59351897 0.029817495
0.075549096 0.070393793 -0.00077307224 0.9701556 -0.24016291 -0.033464313 0.02395869
0.067083254 0.07360024 -0.0012105275 -0.93072712 0.28986484 -0.22299215 0.030786026
0.076215386 0.074568607 -0.0012739195 0.55995721 0.82498509 -0.076469295 0.030252168
0.068254925 0.076925747 -0.0012718864 -0.26221436 0.96330029 -0.057411555 0.072596394
0.070522316 0.076549232 -0.0014817325 0.12421421 0.98494929 -0.12019018 0.037784435
0.073524177 0.075628072 -0.0015132274 0.32835716 0.94218284 -0.066880919 0.0067871814
0.075266503 0.075090297 -0.0014668553 0.3636699 0.93073547 -0.03841541 0.0089195371
0.065512411 0.026467592 0.0019309826 0.77368134 -0.59279424 0.22363389 0.0040126326
0.066115946 0.026979521 0.00054468808 0.80821502 -0.5589307 0.18543172 0.0026367751
0.067335173 0.028888524 0.0013107317 0.82536805 -0.53011495 0.19428252 0.0018959179
-0.0030911912 0.032939773 0.002939506 0.08858227 0.98451936 0.15124434 0.0045981142
-0.0009440016 0.032914713 0.0025638805 0.10165702 0.98194194 0.1595488 0.002886099
0.0016797264 0.032844383 0.0016889271 0.085956745 0.99039394 0.1083112 0.0038354087
0.0044778325 0.03279246 0.0015155204 0.024002213 0.99250937 0.11978748 0.0035737343
0.0074257865 0.032811631 0.0015528593 -0.060162473 0.99158633 0.11461731 0.003721698
0.010138962 0.032897897 0.0022945341 -0.098769315 0.98516697 0.14032331 0.0037378827
0.012248638 0.032946788 0.002765544 -0.13692844 0.98015219 0.14336094 0.003561608
0.068494715 0.030900409 0.0015991953 0.87049556 -0.45683622 0.18313406 0.005175388
0.069386423 0.032493923 0.0015967288 0.91657734 -0.38764066 0.09808524 0.0051075337
-0.015619664 0.035827648 0.0017619246 0.31154934 0.94634646 0.085821591 0.0032294833
-0.013507467 0.035238501 0.0015071487 0.2721082 0.95751989 0.095461041 0.003270861
-0.010472227 0.034477223 0.001502477 0.21984985 0.96808022 0.12036081 0.004594496
-0.007517599 0.033965878 0.0015292313 0.15898883 0.98065251 0.11420602 0.0048876046
-0.0045070504 0.033490296 0.0015061056 0.11871304 0.98900092 0.088229798 0.0044467668
-0.0016026081 0.033150684 0.0012016116 0.077521086 0.99475408 0.066744931 0.0058114049
0.00056806469 0.033040442 0.00052121567 0.047898524 0.99696469 0.061377112 0.004971954
0.0034662087 0.033014573 5.6061235e-05 0.030750142 0.99585968 -0.085544974 0.0026701041
0.0086094886 0.033037655 0.00051694951 -0.049022283 0.99580091 0.077313535 0.0053307135
0.01085754 0.033105571 0.0010135215 -0.079432122 0.99537665 0.053999763 0.0053406465
0.013550244 0.033396479 0.001459476 -0.13187188 0.98579216 0.1040363 0.0041297926
0.016453512 0.033898514 0.0015163347 -0.19480439 0.97351277 0.11968347 0.0045587565
0.019486887 0.034631468 0.0014906613 -0.2593402 0.95975959 0.10772254 0.0031140705
0.022396946 0.035419229 0.0015884604 -0.26826257 0.95886725 0.092783645 0.0036524918
0.024286568 0.035911825 0.0020685182 -0.31575668 0.9445281 0.090357848 0.0038371184
0.070371218 0.034665488 0.0014086303 0.93324232 -0.34242636 0.10864092 0.0047041262
-0.024405481 0.038857192 0.0018817816 0.40934309 0.90852976 0.083736867 0.0030807469
-0.022499057 0.038110293 0.0015272386 0.36716369 0.92594635 0.088397674 0.0031115944
-0.019492244 0.036994543 0.0014958204 0.30086845 0.94730824 0.10993272 0.0043475539
-0.017018694 0.036280297 0.0013694498 0.26310691 0.96178132 0.075837821 0.0032057262
0.023960173 0.036046915 0.00067945593 -0.26646051 0.95981532 0.088052787 0.0044805743
0.025669696 0.036388844 0.0014623344 -0.28238323 0.95554274 0.08484026 0.0039413203
0.02849539 0.037306577 0.0015127354 -0.30957675 0.94522792 0.1034719 0.0032364319
0.031410698 0.038348161 0.0015624181 -0.37776199 0.91929442 0.11042526 0.003711486
0.033156563 0.038915928 0.0023512607 -0.43034115 0.89548647 0.11362453 0.0037947018
0.071315378 0.037535604 0.0015577081 0.95751852 -0.26324806 0.11772324 0.0040876558
-0.03071297 0.041646764 0.0016177911 0.46454489 0.88180345 0.081367329 0.0027060695
-0.028516578 0.040614992 0.0014968136 0.41264829 0.90727907 0.081031129 0.0030312587
-0.025800372 0.039491307 0.0013828115 0.3675333 0.92641461 0.081701659 0.0032028614
0.032824218 0.039075654 0.0010357524 -0.37372166 0.92216372 0.099730194 0.0040916447
0.034547448 0.039772354 0.0015011179 -0.42118293 0.90036023 0.10934568 0.0035915263
0.037324116 0.041210562 0.0015492419 -0.49186176 0.86302179 0.11517525 0.00354124
0.039148763 0.041914575 0.0026714136 -0.51501834 0.84083074 0.16661288 0.0036298549
0.071854159 0.040112913 0.0021385404 0.96265763 -0.20234528 0.17985187 0.0054012351
0.072166048 0.040995266 0.0010676226 0.98388797 -0.15306753 0.092384212 0.0057771429
-0.036674365 0.044671733 0.0016162387 0.48549059 0.87004191 0.085591972 0.0029598477
-0.034500975 0.04358777 0.0014669895 0.45318013 0.88851637 0.07187859 0.0025710317
-0.032161962 0.042408958 0.0013944054 0.42913052 0.8994745 0.082416624 0.0030475736
0.038729064 0.042116024 0.001135234 -0.5238784 0.84426671 0.11298285 0.0034047544
0.040493693 0.04313539 0.0014809933 -0.51738858 0.84844714 0.11156407 0.0031602466
0.042693581 0.044545885 0.001596401 -0.56303108 0.82054484 0.098499082 0.0022960487
0.071963646 0.042528152 0.002800226 0.95623076 -0.12297606 0.2655175 0.0090416921
0.072420217 0.043942522 0.0014809499 0.9849121 -0.092283383 0.14639658 0.0052556866
-0.042393167 0.047799394 0.0017379125 0.50006533 0.86032563 0.098865949 0.0034048446
-0.040510911 0.046778962 0.0014878894 0.48380929 0.87100005 0.085366942 0.0033675667
-0.038155917 0.045473944 0.0014129024 0.45264477 0.8871364 0.090009727 0.0033208176
0.044201288 0.04556141 0.0014170953 -0.54443306 0.83108085 0.11356626 0.0031575074
0.046411894 0.047022507 0.0015453964 -0.55058557 0.82442439 0.13107266 0.0037025088
0.048120286 0.047890462 0.0025246209 -0.54065549 0.82449538 0.16703002 0.0037666166
0.072526097 0.046668105 0.0015783845 0.9907307 -0.032266609 0.13195269 0.0055672601
-0.048206549 0.050907362 0.0023845192 0.46705869 0.87477785 0.12891819 0.0049089054
-0.046459664 0.050112206 0.0014967076 0.48259574 0.86730176 0.12202065 0.0039938088
-0.043839604 0.048658807 0.0014037421 0.46896869 0.8771202 0.10357854 0.0037899185
0.047845639 0.048123896 0.0010150544 -0.54128999 0.83056897 0.13099714 0.0040430473
0.049545374 0.049134079 0.0014770068 -0.53147745 0.83659279 0.13283134 0.0041932655
0.051673565 0.050526489 0.0016663466 -0.55892903 0.82025021 0.12160605 0.0036382445
0.072646394 0.049321551 0.0014995834 0.99243796 -0.032216344 0.11844418 0.0054067997
-0.05430869 0.053889774 0.0025665583 0.36734155 0.90867639 0.19841225 0.0061573745
-0.052413169 0.053294644 0.0015387763 0.42000997 0.89615345 0.14317989 0.0043063234
-0.049556617 0.051817313 0.0014409815 0.45439273 0.88252574 0.12114327 0.0051693092
-0.047854263 0.051051248 0.00074005703 0.45721635 0.88620383 0.074805588 0.0065783435
0.053169705 0.051559031 0.0014098538 -0.54015607 0.82979298 0.14026809 0.004993483
0.055414189 0.052985381 0.0015521393 -0.56833488 0.81087804 0.13954267 0.0046761069
0.0571963 0.05389189 0.0025999492 -0.56918257 0.78754997 0.2362126 0.0052996571
0.072675243 0.052379802 0.0017221065 0.96850342 -0.00018139103 0.24900043 0.0068675866
-0.075783491 0.056554697 0.0021353588 -0.54936296 0.78427988 0.28827998 0.03801474
-0.074929893 0.056952391 0.0028368358 -0.58576393 0.77807766 0.2268829 0.02348201
-0.060625061 0.056675706 0.0017450769 0.50151432 0.85086751 0.15655012 0.009319975
-0.058509011 0.055759478 0.001501707 0.39135882 0.907507 0.15254277 0.0081792464
-0.055604219 0.054613311 0.0014351882 0.35401556 0.92637295 0.12847596 0.0065179425
-0.053849146 0.054078858 0.00074112229 0.35210276 0.93162924 0.089948252 0.0071377801
0.056796934 0.054134283 0.00073677831 -0.57786834 0.80757022 0.11789227 0.0085760513
0.058583066 0.05522174 0.001469851 -0.55715203 0.80987924 0.18351327 0.0078997007
0.060491189 0.056559205 0.0017906919 -0.6547696 0.73340756 0.1827296 0.012111782
0.072744191 0.055505566 0.0016027384 0.93516511 0.02603724 0.35325378 0.01245282
-0.075434074 0.057432406 0.0010633108 -0.52915365 0.84244269 0.10142386 0.015879797
-0.073441543 0.058538761 0.0015011838 -0.47382045 0.87008423 0.1358223 0.010373104
-0.071257673 0.059610173 0.0014996998 -0.38235033 0.91531652 0.12650646 0.0063405614
-0.066444822 0.059774023 0.0026195238 0.29434887 0.87069064 0.39402622 0.014692637
-0.064381287 0.059037369 0.0015710151 0.53329802 0.825418 0.1851441 0.0076513174
-0.062051911 0.057611078 0.0013137632 0.46618867 0.86720604 0.17499094 0.010975617
0.0617733 0.058007918 0.0014682405 -0.7439962 0.61322445 0.26537788 0.017658502
0.0633891 0.059531294 0.0022837271 -0.73995358 0.55257195 0.38357928 0.018063186
0.072691135 0.058511563 0.0019515519 0.82478839 -0.0066691195 0.56540215 0.013992716
-0.069718003 0.060315501 0.001645645 -0.17521578 0.97263187 0.15259996 0.020159215
-0.067483574 0.060579166 0.0014015809 0.19746096 0.95671237 0.21380052 0.016241258
-0.065738715 0.060135882 0.00060878141 0.32333854 0.94425422 0.061937563 0.018972183
0.06295307 0.060113724 0.00055064022 -0.87411171 0.47310403 0.11000585 0.029927868
0.064129248 0.061408855 0.0017568094 -0.75292808 0.4226214 0.50447053 0.02426661
0.071945608 0.062475096 0.0029554875 0.31842929 0.056982335 0.94623244 0.01695225
0.072996296 0.061458025 0.0018438792 0.73492509 -0.020998411 0.67782313 0.01851175
0.065118819 0.064302281 0.0015215359 -0.84380937 0.27857667 0.45867288 0.018317379
0.0663452 0.065342829 0.0027079857 -0.57479352 0.21715169 0.78895986 0.035934094
0.071905077 0.063225158 0.0029480546 0.22090848 0.0052702161 0.97528034 0.0083174165
0.072966322 0.064163521 0.0022248733 0.55475247 -0.046057675 0.83073962 0.02575697
0.065583505 0.067303188 0.00098763139 -0.88323092 0.22292405 0.4125627 0.02251499
0.066879123 0.06783592 0.0023712972 -0.55599749 0.21775776 0.8021524 0.024325106
0.069503449 0.068159126 0.0029109891 -0.23868446 0.084590055 0.96740597 0.0093581686
0.074018888 0.067205377 0.0018084375 0.74797946 -0.24190035 0.6180703 0.019016305
0.075104132 0.068473481 0.0004951859 0.94042152 -0.28383574 0.18720214 0.022672158
0.065765865 0.069199547 0.0005743457 -0.79452157 0.19558454 0.57487583 0.028257733
0.067372285 0.070250705 0.0020620972 -0.64509726 0.13322634 0.75239646 0.026857523
0.069422781 0.070570596 0.0028245326 -0.41096276 0.016576344 0.91150147 0.015637748
0.074517123 0.069830514 0.002392866 0.63808328 -0.28914675 0.71361321 0.036149338
0.075617328 0.070666991 0.0011160864 0.94230121 -0.25429395 0.21772256 0.018660383
0.067319237 0.073360994 0.001501323 -0.87774444 0.26481476 0.39929664 0.040857632
0.069299415 0.072637141 0.0028213048 -0.46480885 0.022672212 0.88512075 0.016166389
0.076235391 0.07451757 0.0013394667 0.63395602 0.76417106 0.11892155 0.041309357
0.068229705 0.076865852 0.0012652437 -0.19944894 0.97115839 0.13065794 0.073895596
0.070484705 0.076549292 0.0014782586 0.026386423 0.97763431 0.20864998 0.066671208
0.073504113 0.075634211 0.001507739 0.33269227 0.93831319 0.094256513 0.0090701031
0.075263903 0.075091749 0.0014566043 0.4084489 0.90900505 0.082941853 0.018192435
0.058263175 0.020051654 0.0046194335 0.57734513 -0.6574809 0.48413992 0.00090178102
0.059484188 0.02133362 0.005090157 0.59942055 -0.63684911 0.48488992 0.00090412854
0.062061202 0.023273673 0.0041279085 0.69527304 -0.62422431 0.35628554 0.0059643071
0.062299401 0.02437944 0.0055068368 0.6625126 -0.58719188 0.46506208 0.0012013698
0.064327091 0.026290208 0.0048950519 0.71584296 -0.53578103 0.44778067 0.0026446662
0.065488175 0.027761102 0.0047651832 0.77096689 -0.53015262 0.35291404 0.0035664975
0.066729039 0.02909635 0.0041027879 0.80087954 -0.50774151 0.31747529 0.0025030321
-0.0093512451 0.032931577 0.0057812883 0.1939463 0.90964466 0.36733004 0.0015420852
-0.0072011887 0.032731358 0.0054652821 0.15970862 0.92161685 0.35371673 0.001658137
-0.0043120626 0.032559685 0.0048701782 0.13293824 0.92475492 0.35658908 0.0015449557
-0.001444836 0.032349039 0.0045375521 0.10833728 0.93665797 0.33306885 0.0021350405
0.0014963681 0.032138314 0.0045061335 0.052176353 0.94729763 0.31607723 0.002476814
0.0044774986 0.032031771 0.0045623584 0.010908764 0.93882054 0.34423405 0.0021876248
0.0074848193 0.032075047 0.0045250216 -0.042308729 0.940521 0.33709079 0.0023490654
0.010529126 0.032294225 0.0045018122 -0.10061073 0.93979722 0.32658637 0.0028657746
0.013354477 0.032540694 0.0047285082 -0.14969735 0.92558891 0.34767213 0.0021877596
0.016255731 0.032752406 0.0054485723 -0.19204856 0.9128415 0.36033005 0.0023530165
0.018211406 0.032928556 0.0057283789 -0.21368901 0.89456707 0.39253896 0.0026221131
0.067946978 0.031562537 0.0045581027 0.82452506 -0.4374387 0.35889545 0.0030811683
0.069089733 0.032626819 0.0034280973 0.84430814 -0.40312481 0.35303563 0.0039365096
-0.018876774 0.035734367 0.0054616146 0.29709995 0.89393395 0.3355796 0.002102114
-0.016420418 0.035358373 0.0046013291 0.28665492 0.90561014 0.31256855 0.0019487534
-0.013476622 0.034506168 0.0045447662 0.24953964 0.91286778 0.32311374 0.0019090669
-0.01051465 0.033789624 0.0044761966 0.19736934 0.92778116 0.31665033 0.0018196685
-0.0076836743 0.033401437 0.0040688072 0.15372531 0.93746442 0.31229642 0.0018957806
-0.004971364 0.033156246 0.0035327848 0.13302833 0.94188601 0.30847064 0.0019856135
-0.0026292549 0.033017602 0.0031861619 0.1009679 0.98368776 0.14887543 0.003389606
0.014161569 0.033153243 0.0034720146 -0.14234047 0.95236635 0.26969901 0.001715141
0.016592367 0.033398468 0.0040137973 -0.19093135 0.93095547 0.31123483 0.0025579259
0.0194968 0.033947036 0.0044546737 -0.2332859 0.91911626 0.31749481 0.0022187489
0.022507608 0.034758363 0.0045372425 -0.2668466 0.90825236 0.32228962 0.001989556
0.025295086 0.035452526 0.004781282 -0.29008484 0.89811563 0.33051351 0.0020071419
0.027496478 0.035789452 0.0056623197 -0.3068499 0.87716103 0.36936668 0.0019260283
0.068729572 0.033996265 0.0053761867 0.83981085 -0.33923256 0.42383841 0.0031838578
0.069606774 0.034898352 0.004279519 0.86745661 -0.33029798 0.37205148 0.0032739334
-0.027385302 0.038864587 0.0057424512 0.37289178 0.86177671 0.34393701 0.0017324542
-0.025192304 0.038435843 0.0047608237 0.37462774 0.87589329 0.30408052 0.0018636868
-0.022492597 0.037413161 0.0045161643 0.33804089 0.88809562 0.31147131 0.0019268877
-0.019706856 0.036495168 0.0042263544 0.2965093 0.90856928 0.29425177 0.0022343453
-0.017698864 0.03612889 0.0035186259 0.27965102 0.92426711 0.25985679 0.0038461715
0.026322089 0.036211908 0.0035785849 -0.28373516 0.9165476 0.28184193 0.0017473303
0.028588476 0.036635473 0.0044987402 -0.30751088 0.89414024 0.32550007 0.0020694947
0.031458292 0.037649728 0.0045070224 -0.36185387 0.8842448 0.29525068 0.0024123162
0.033939585 0.038580056 0.004969704 -0.40694419 0.85341024 0.32571077 0.0026143354
0.070407391 0.037825532 0.0046350793 0.8765732 -0.22872733 0.42344204 0.0038953007
-0.033354398 0.041830227 0.005569933 0.42464587 0.83744931 0.34402695 0.0022759584
-0.03133757 0.041221332 0.0046189432 0.43178311 0.85449606 0.28879032 0.0019018454
-0.028546834 0.039964832 0.004439644 0.3816261 0.87785929 0.28935179 0.0021352794
-0.026289366 0.039269757 0.003766319 0.35912532 0.8883363 0.28615996 0.0017306035
0.035163913 0.039424308 0.0042527444 -0.41469738 0.85445893 0.31293154 0.0020902159
0.03752875 0.040539362 0.0046226894 -0.45173061 0.83232129 0.32121766 0.0028484603
0.039635509 0.041639585 0.0050286897 -0.50069946 0.80582905 0.31613234 0.0023660006
0.071039893 0.040949039 0.0046662055 0.88657403 -0.13390768 0.44278112 0.0035869612
-0.070421807 0.043651052 0.0054527801 -0.68611151 -0.12384029 0.71687841 0.00070990651
-0.039361671 0.044774655 0.0056661768 0.42966282 0.81973821 0.37870708 0.0028288409
-0.03731278 0.044220343 0.0046420684 0.44260925 0.84578109 0.29791176 0.0019285587
-0.034591097 0.042950604 0.0043923259 0.42555502 0.85836273 0.28655952 0.0019165697
-0.032590915 0.04222798 0.0036299552 0.42868549 0.85820293 0.282341 0.0023376169
0.038992606 0.042078901 0.0030039938 -0.51230425 0.83728302 0.19105381 0.0049435999
0.040914509 0.042673737 0.0043966644 -0.49443561 0.81037337 0.31436983 0.0023637454
0.043286622 0.044077769 0.0046726414 -0.51395869 0.7959128 0.31995171 0.0022169768
0.045313291 0.044843167 0.0057459259 -0.47967309 0.76671731 0.42668292 0.0035511842
0.071342185 0.04392904 0.0047424859 0.8904469 -0.052951001 0.45199609 0.003216045
0.072107181 0.044078328 0.0032458703 0.96697885 -0.1000957 0.23437752 0.0037449547
-0.070989385 0.046703607 0.0054523833 -0.62519181 -0.065456942 0.77772141 0.0025400296
-0.045211203 0.0478619 0.0058139535 0.42549518 0.7843467 0.4513914 0.0022723651
-0.043159667 0.047323689 0.0047451216 0.45895898 0.82936561 0.31860542 0.0019918245
-0.040574159 0.046045318 0.0044292151 0.45035905 0.83918929 0.30485734 0.0019796418
-0.038573455 0.045259986 0.0036712664 0.44389269 0.84401643 0.30099082 0.0018916655
0.044610098 0.045312826 0.0037321898 -0.50874847 0.79791659 0.32327098 0.0025323036
0.046563398 0.046241194 0.0045544445 -0.50896978 0.78673148 0.34928975 0.003029715
0.048824538 0.047489833 0.0050053257 -0.50601667 0.78289926 0.36196095 0.0029738666
0.071248315 0.046526559 0.0049458174 0.86215883 0.0010126715 0.50663716 0.0035973287
0.072067462 0.046628561 0.0033341881 0.94029737 -0.026879825 0.33929104 0.0028875708
-0.072698727 0.049942102 0.004506249 -0.63769174 -0.093135372 0.76464051 0.001639539
-0.071493685 0.049471956 0.0055364016 -0.52262175 -0.029130446 0.85206687 0.0066327387
-0.051216558 0.050878175 0.0058580656 0.38687107 0.75901169 0.52367163 0.0033621215
-0.04904674 0.050449979 0.0048650005 0.432538 0.8284272 0.35583594 0.002707772
-0.046504308 0.049275536 0.0044462029 0.44963211 0.82567966 0.34071109 0.0024194194
-0.044280738 0.048348591 0.0037885115 0.44601807 0.83633482 0.31876606 0.0016857358
0.049997896 0.048604775 0.0042409371 -0.50353032 0.78217894 0.36695141 0.002715772
0.052388567 0.049924824 0.004665378 -0.48676598 0.77880669 0.39562491 0.0031491404
0.054477789 0.0506588 0.0056252647 -0.45668766 0.73806 0.49669284 0.0040809009
0.071266562 0.049516466 0.0048746103 0.83713573 0.032005586 0.54605818 0.0042013815
0.072161928 0.049648404 0.0032262909 0.91525024 -0.0032867186 0.40287238 0.0035528494
-0.075009257 0.053248532 0.0031309584 -0.79536349 -0.018593969 0.6058476 0.021110708
-0.072683848 0.053085659 0.0051245131 -0.48172396 0.082786106 0.8724038 0.0052053281
-0.071640231 0.052521791 0.0058260262 -0.44474488 0.090448767 0.89107853 0.0068893731
