# .PCD v0.7 - Point Cloud Data file format
VERSION 0.7
FIELDS x y z normal_x normal_y normal_z curvature
SIZE 4 4 4 4 4 4 4
TYPE F F F F F F F
COUNT 1 1 1 1 1 1 1
WIDTH 562
HEIGHT 1
VIEWPOINT 0 0 0 1 0 0 0
POINTS 562
DATA ascii
-0.049542151 0.042148598 0.0030268158 -0.43630907 -0.84187728 -0.31761166 0.013927295
0.020301551 0.04234289 0.004962205 0.45692456 -0.85543865 0.2438127 0.0027761688
0.022441646 0.043377019 0.004496906 0.47125724 -0.8223691 0.31878775 0.0031019121
0.024892006 0.044606108 0.0039424272 0.47405699 -0.79050988 0.38776806 0.0036190315
-0.053260256 0.046611536 0.0051065353 -0.98314905 -0.17886455 0.037755091 0.0099205831
0.0259229 0.04581245 0.0048300475 0.51829767 -0.71814555 0.46436459 0.002739887
0.028194726 0.047039546 0.0041255285 0.53773224 -0.66919184 0.51286095 0.0033630668
0.0301219 0.047637444 0.0031692863 0.52037054 -0.67456353 0.52362067 0.0014299793
-0.053399332 0.049332276 0.004874249 -0.99755299 -0.05615215 0.041653849 0.0069476054
0.029220533 0.04888723 0.0051431023 0.56242949 -0.55137646 0.61616313 0.0024560767
0.031270191 0.049811281 0.0041048191 0.5543347 -0.54892105 0.6256187 0.0037015502
0.03331187 0.050621402 0.00323624 0.53824657 -0.55512023 0.63413888 0.0024469011
-0.053249791 0.05239369 0.0047461814 -0.99268275 0.068349391 0.099545218 0.0057850913
0.031945601 0.052241188 0.0052179447 0.5656538 -0.33082101 0.75537622 0.0024435518
0.034043226 0.05268763 0.0038233129 0.56473672 -0.3854475 0.72972786 0.0033208304
-0.052795503 0.055513591 0.0053013959 -0.9942494 0.10612439 0.014346944 0.0054343897
0.032582648 0.055027451 0.0056645181 0.56161749 -0.13964467 0.8155275 0.003706807
0.034533426 0.055423032 0.0044096941 0.55006975 -0.1805045 0.81537807 0.0038572357
0.036417067 0.056024209 0.0032720696 0.5470627 -0.21209382 0.80977696 0.0033737749
-0.052400209 0.05778607 0.0046801381 -0.98848468 0.14999627 -0.019977489 0.0059008952
0.032521024 0.058792196 0.0057914229 0.52483249 0.033814475 0.8505336 0.00075060822
0.034411959 0.058415432 0.004676077 0.52459484 0.015041893 0.85121912 0.00079758768
0.036540948 0.058441587 0.0033726227 0.53482217 -0.0047699632 0.84495115 0.0013697539
0.032340687 0.061628684 0.0056275022 0.50827426 0.098625392 0.85552925 7.3932351e-05
0.034507543 0.061532579 0.0043403478 0.5136593 0.094507232 0.85277343 7.7333825e-05
0.036494549 0.061336994 0.0032570073 0.52450889 0.09012524 0.84662145 0.00011235513
0.031944513 0.064590164 0.0054445565 0.50043696 0.13486448 0.85520428 5.8949168e-05
0.034517109 0.064483419 0.0039459104 0.50662923 0.13187809 0.85201824 6.8019785e-05
0.036279041 0.063965999 0.0030581281 0.52571321 0.12733626 0.84107739 0.00010354454
0.029455364 0.068292186 0.0059229634 0.48225558 0.18106017 0.85711539 0.00012576806
0.031574525 0.067566343 0.0051171216 0.48876846 0.17159596 0.85537142 9.4533127e-05
0.03405134 0.067411914 0.0037182437 0.49881965 0.16419031 0.85101146 9.247959e-05
0.029368058 0.070683137 0.0056462185 0.46282721 0.24542432 0.85179693 0.00082914252
0.031523384 0.0705176 0.0044927811 0.47149339 0.22933285 0.85152829 0.00067117548
0.03363733 0.070240751 0.0033755526 0.48367006 0.21827711 0.84759569 0.00051380508
0.026808344 0.073527969 0.0057304865 0.4358294 0.31516096 0.84304589 0.0004821365
0.028824272 0.072796769 0.0051474078 0.44830269 0.31436059 0.83678079 0.0017354753
0.031504977 0.072981544 0.0037031886 0.4505963 0.30093709 0.84047598 0.0016018027
0.033200428 0.072662652 0.0031252331 0.47138134 0.27691308 0.83732831 0.00052674627
-0.0008892974 -0.075229093 0.0074061709 -0.26731893 -0.96311837 0.030716874 0.013120445
0.0014832329 -0.07578814 0.0075085121 -0.16821417 -0.97592938 0.13880101 0.0032387585
0.0045261201 -0.07616207 0.0075440095 -0.098447174 -0.97390407 0.20449668 0.0038692707
0.007485183 -0.076314777 0.0075105904 -0.027563015 -0.95625448 0.29123464 0.0038617335
0.010501329 -0.076280683 0.0074747 0.033245053 -0.92566615 0.37687787 0.0038064346
0.01349111 -0.07602229 0.007486627 0.1043274 -0.8753643 0.47207323 0.0039784792
0.016362255 -0.07577908 0.0071800244 0.14880073 -0.82256144 0.54886347 0.0042276122
0.019226231 -0.075519197 0.0066664382 0.19823344 -0.75729591 0.62225914 0.004046713
0.021527329 -0.07518407 0.0062586339 0.25852847 -0.68980378 0.67626458 0.0030120357
-0.012143809 -0.072221979 0.0088297669 -0.23421484 -0.94550985 -0.22617367 0.046004187
-0.0099711549 -0.072761513 0.0086787418 -0.25352284 -0.95804048 -0.13373339 0.027691294
-0.0072399764 -0.073395856 0.0080544353 -0.29961464 -0.92946029 -0.21525463 0.020232512
-0.0044248891 -0.074208044 0.0076560979 -0.29131028 -0.95199078 -0.094084114 0.015927128
-0.0022899408 -0.07482259 0.007683733 -0.33559063 -0.94139814 -0.033887886 0.014063273
0.014443639 -0.074871376 0.0088705402 0.16817987 -0.7766217 0.60710317 0.0032585277
0.016809365 -0.074605495 0.0085765477 0.22016387 -0.71181297 0.66697097 0.0027532377
0.019615773 -0.074054033 0.0080876863 0.26596603 -0.64200181 0.71909374 0.0037025521
0.02240965 -0.073540904 0.0073561831 0.31259337 -0.59300649 0.74204367 0.0030481687
0.025140194 -0.07290744 0.0065970947 0.36805901 -0.50404024 0.78132969 0.0028678589
0.027374376 -0.072291553 0.0061681638 0.38998777 -0.44712844 0.80497563 0.0017853724
-0.015799575 -0.069290414 0.0082027968 -0.32012442 -0.83243895 -0.45228949 0.0011859324
-0.013441508 -0.069763891 0.007325476 -0.35619047 -0.81381482 -0.45916647 0.0030042538
-0.010591068 -0.070813045 0.0070534572 -0.35584757 -0.80921578 -0.46748513 0.0078274701
-0.0081176991 -0.071623921 0.0065760859 -0.35846528 -0.83846545 -0.41046113 0.012154834
0.023094833 -0.071085311 0.0085730767 0.41010538 -0.37239006 0.83254981 0.003216861
0.025439257 -0.070611641 0.0075818421 0.42304331 -0.34225279 0.83898592 0.0030858123
0.027779184 -0.070372239 0.0064357449 0.43445116 -0.3098779 0.84571147 0.0022263667
-0.027040835 -0.066021994 0.0087404586 -0.29743582 -0.8966763 -0.32787746 0.0096275443
-0.02498088 -0.066304229 0.0083591137 -0.27276811 -0.89303112 -0.35790071 0.0039188745
-0.022335149 -0.0668042 0.0076877964 -0.29218057 -0.89314431 -0.34194112 0.0069506168
-0.019423127 -0.067664973 0.0074857944 -0.27780733 -0.87061024 -0.40603065 0.0067729973
-0.016747184 -0.068443522 0.0071470793 -0.29615948 -0.85054088 -0.43459159 0.0028951999
-0.014684619 -0.068788588 0.0063630268 -0.33001104 -0.82248408 -0.46326312 0.0047675674
0.023901353 -0.068188727 0.0089689698 0.47004724 -0.22909673 0.85239094 0.0010348398
0.025759954 -0.067505591 0.0082714763 0.46896458 -0.20358652 0.85943282 0.00042352968
0.028365558 -0.067559846 0.006812559 0.47655299 -0.19601452 0.85701555 0.00034067637
0.03028648 -0.066446953 0.0061121965 0.48237553 -0.18460737 0.85629082 0.00014778196
-0.036600366 -0.063121922 0.0086391373 -0.27480403 -0.91273147 -0.30233091 0.0059927357
-0.034255594 -0.063466854 0.0079616755 -0.2486099 -0.93239391 -0.26236385 0.0090082176
-0.03143163 -0.06402193 0.0074553839 -0.25035888 -0.91615844 -0.31300819 0.0078613264
-0.028449977 -0.064850204 0.007429684 -0.2618219 -0.90599608 -0.33259633 0.0046589812
-0.02585366 -0.06539657 0.0070019001 -0.26039624 -0.91141146 -0.31862685 0.0063687572
-0.023305848 -0.065804549 0.0063190483 -0.24026681 -0.90728992 -0.3451041 0.012292389
0.026309783 -0.064346291 0.0086189676 0.48328048 -0.15529457 0.86158204 4.2016112e-05
0.028394382 -0.064421132 0.0074096997 0.48617074 -0.15638152 0.85975748 7.1007584e-05
0.030460486 -0.064368501 0.0062732757 0.4939802 -0.14961059 0.85650468 7.1240953e-05
-0.04876937 -0.060135268 0.0083306283 -0.23828322 -0.9234367 -0.30080858 0.019147485
-0.045590993 -0.06021703 0.0083387801 -0.20682622 -0.93251765 -0.29603007 0.01382866
-0.043426715 -0.0606113 0.0075117336 -0.26901773 -0.94702107 -0.17544393 0.015630471
-0.040490311 -0.061458535 0.0073974966 -0.26746824 -0.93697923 -0.22479041 0.0052229273
-0.037577529 -0.062266536 0.0073362486 -0.25590056 -0.92985988 -0.26433969 0.0036780662
-0.035008091 -0.062678695 0.0066403747 -0.23215714 -0.93810564 -0.25702313 0.011159823
-0.032533135 -0.062974073 0.0060361521 -0.25446132 -0.95054728 -0.17807131 0.0092010796
0.026730521 -0.061742894 0.0088162376 0.49031955 -0.12029959 0.86320025 9.4563889e-05
0.028587073 -0.061536547 0.0078143384 0.49668854 -0.11436816 0.86036062 0.00010681464
0.030872539 -0.061377533 0.0064957337 0.50314909 -0.10926294 0.85726458 8.3506638e-05
-0.051393669 -0.058104388 0.0068739746 -0.64928102 -0.75687015 -0.074710771 0.030639328
-0.049490068 -0.059080064 0.0073768799 -0.33454633 -0.92155778 -0.19700246 0.016785804
-0.046665393 -0.05952888 0.0072377501 -0.20827326 -0.95829171 -0.19570212 0.015663121
-0.044418018 -0.059878249 0.0063042142 -0.26352525 -0.95558465 -0.13195634 0.018055372
0.026849996 -0.059316918 0.0089212805 0.50160807 -0.080867976 0.86130697 0.00015933816
0.028598528 -0.058548246 0.0081340633 0.51139861 -0.071799427 0.85633892 0.00018443511
0.031208754 -0.058347207 0.0066170474 0.51244789 -0.063173689 0.85639143 0.0002141525
-0.052078117 -0.055544693 0.0072282651 -0.93539244 -0.35304758 0.019961404 0.027666034
0.028796151 -0.055600621 0.0081797363 0.53091186 0.011801531 0.84734482 0.00074161106
0.031074919 -0.055754304 0.0067768064 0.52757734 0.015569924 0.84936434 0.0011796337
-0.052626908 -0.052751187 0.0070137237 -0.95573384 -0.29406309 0.0099795349 0.024367163
0.026988594 -0.052079082 0.0088079711 0.56185848 0.1932392 0.80434674 0.0029139596
0.028367518 -0.053050473 0.0082113156 0.54805356 0.10892007 0.82932121 0.0015837417
0.030494971 -0.053295709 0.0068218838 0.54761928 0.1323552 0.82619315 0.0017599965
-0.052869797 -0.050100666 0.006863453 -0.98827714 -0.14189088 0.056349214 0.014753628
0.026138438 -0.049484592 0.0085251359 0.5644325 0.33083326 0.75628382 0.0020361198
0.028158661 -0.049898136 0.0071724621 0.56153321 0.35468373 0.74758267 0.001937373
0.030429222 -0.050939541 0.0061300974 0.56234175 0.38757873 0.73044807 0.0020382882
-0.052624594 -0.046551567 0.0070672664 -0.99130338 0.089386337 0.096579641 0.0043123029
0.023467178 -0.046132665 0.0082937069 0.55588627 0.48401755 0.67580873 0.0015970416
0.025262943 -0.047083337 0.0075819348 0.55777085 0.46365166 0.68841761 0.0014308105
-0.052255895 -0.04373211 0.0069762249 -0.99053419 0.12761231 0.050567426 0.0034411319
0.019909466 -0.043095645 0.0081421118 0.55289042 0.58209866 0.59621596 0.00088935829
0.022108171 -0.044471581 0.0077708303 0.54594469 0.60753071 0.57693231 0.00057321397
-0.051763039 -0.041326374 0.006836697 -0.98687857 0.14957896 0.060802005 0.0030797892
0.0064405408 -0.031338964 0.0086343884 0.37720734 -0.25095794 -0.89147902 0.0018725146
-0.042816002 -0.027379051 0.0069498592 -0.92808807 -0.045640506 -0.36955315 0.00072645396
0.0052987426 -0.028449699 0.0071888221 0.39665505 -0.32966754 -0.85672873 0.016613822
-0.043149628 -0.025495831 0.0078173522 -0.9272964 -0.046876673 -0.37138116 0.0007868043
0.004766603 -0.025424071 0.0065155802 0.91932261 0.1336724 -0.37010485 0.0065345359
-0.043516468 -0.022471141 0.0076828324 -0.88776904 -0.12479658 -0.44304851 0.0061414773
-0.044306248 -0.019514184 0.00771398 -0.86111784 -0.070655592 -0.50347191 0.0029596202
-0.044291362 -0.01654155 0.007431122 -0.87200654 -0.062635735 -0.48547032 0.0055620717
-0.044213135 -0.013553844 0.0072224 -0.91171503 -0.0523546 -0.40747353 0.0038385703
-0.044398196 -0.0098722633 0.0078765713 -0.93365884 -0.00055041577 -0.35816327 1.591854e-05
-0.044390228 -0.0073465575 0.0077567077 -0.95257199 0.014398456 -0.30397242 0.00088305125
0.0051642773 -0.0066416753 0.0070301383 0.78508091 0.00027531415 -0.61939317 0
-0.044343304 -0.004358755 0.0076290085 -0.94275349 0.0066215424 -0.33342463 0.0008499198
0.005468145 -0.0044709193 0.0074160462 0.78505445 0.00024175836 -0.61942673 0
-0.044290517 -0.0014212561 0.0074865217 -0.93368155 -0.0006165299 -0.35810387 3.2345504e-06
0.0055233357 -0.0013455264 0.0074871182 0.78501552 0.00023265256 -0.61947608 2.2345186e-07
0.0066880579 -0.0015523037 0.0089629097 0.67967063 -0.0092029991 -0.73345971 0.0051480527
-0.044295058 0.001596514 0.0074932761 -0.93369317 -0.00060711562 -0.35807362 2.792696e-06
0.0054077641 0.0016165216 0.0073416107 0.78500021 0.00021987934 -0.61949557 4.6159587e-07
0.0066331252 0.001618766 0.0088944389 0.67917299 0.0048962296 -0.73396194 0.0036883787
-0.044242457 0.004545405 0.0073511843 -0.93369412 -0.00060003198 -0.35807109 0
0.0053542294 0.0043693464 0.0072747176 0.78498572 0.00020994892 -0.61951381 0
0.0065778201 0.0048235827 0.0088253757 0.70269012 -0.03361427 -0.71070158 0.0036839419
-0.044277366 0.0073658391 0.0074375966 -0.93369526 -0.00058320095 -0.3580682 2.0647276e-06
0.0052356687 0.0073949466 0.007125855 0.78471911 0.00024831996 -0.61985153 9.2154045e-07
0.0065300423 0.0076000323 0.0087656034 0.70073569 -0.00053189258 -0.71342075 0.0039929673
-0.044334311 0.010367886 0.0075811557 -0.93368602 -0.00060683169 -0.35809219 4.8393908e-06
0.0052902075 0.010651806 0.0071965638 0.78429639 0.00026831432 -0.62038624 1.6312762e-06
0.0064802454 0.010405826 0.0087044118 0.70197248 0.028575798 -0.71163058 0.0036596425
-0.044337098 0.01338631 0.0075832554 -0.92379445 0.004144792 -0.38286644 0.002150377
0.0051715327 0.013741861 0.0070467088 0.78356373 0.00020609819 -0.62131143 5.7882626e-06
0.0064310618 0.013237572 0.0086432202 0.6754564 0.016671937 -0.73721153 0.0052967947
-0.044308797 0.016432542 0.0075043123 -0.91618365 0.020404186 -0.40023893 0.0047587221
0.0051160185 0.016613225 0.0069770967 0.78312612 0.00041882708 -0.62186277 9.3308745e-06
0.006382057 0.016096288 0.0085817762 0.61062479 -0.054986276 -0.79000884 0.013521738
-0.044402987 0.019187143 0.0077453847 -0.90189373 0.048792683 -0.42919329 0.0047930921
0.0050600688 0.019512972 0.006906841 0.78339261 -0.00059898838 -0.6215269 6.9925277e-06
0.0063412804 0.018498896 0.0085303243 0.5587495 -0.084640034 -0.82500613 0.022597292
-0.044205245 0.022063658 0.0076712412 -0.91652846 0.10909591 -0.38480335 0.006228575
0.0049207369 0.022219528 0.0067324699 0.78298175 -0.001674955 -0.62204242 4.9222931e-06
-0.042832531 0.026139282 0.0070921192 -0.91813254 0.06961745 -0.39011022 0.0044545298
0.0045202551 0.025259323 0.0062258379 0.82772678 0.012363741 -0.5609951 0.0017837592
-0.043017484 0.028567929 0.0075710737 -0.93367785 -0.00049695832 -0.3581138 0
0.0044796835 0.027248796 0.0061754235 0.78517765 0.00027779996 -0.6192705 0
-0.042899664 0.031772245 0.0071534212 -0.93366557 -0.0005811415 -0.35814556 3.6503309e-06
-0.043020498 0.034463584 0.0074638198 -0.93375766 -0.14209075 -0.3284916 0.0057601635
-0.048580796 0.038843777 0.0082401596 -0.44656116 -0.86222869 -0.23904978 0.011051613
-0.046198223 0.038629215 0.0079714116 -0.31410208 -0.91242796 -0.26232615 0.0049537262
-0.044078015 0.037973698 0.0070506167 -0.59713316 -0.73541582 -0.32030532 0.032103639
0.0059754075 0.036198955 0.0061387522 0.49083939 -0.69671375 -0.52313161 0.055617075
0.0079684146 0.03715029 0.0069551873 0.30553171 -0.93244368 -0.19287103 0.011607645
0.010533133 0.038225368 0.00750829 0.32603216 -0.9452979 -0.010720894 0.006085881
0.012355916 0.038954005 0.0067015416 0.42404968 -0.90492803 0.035878289 0.0071979458
-0.051432252 0.041270208 0.007346292 -0.81104308 -0.58449918 -0.023871358 0.022997877
-0.049795344 0.040174268 0.0074650436 -0.56140226 -0.80664045 -0.18482077 0.014465685
-0.046957746 0.039201654 0.0066958377 -0.31933755 -0.89984602 -0.29715425 0.0032270281
0.01380105 0.039696313 0.0072409287 0.4142983 -0.90205669 0.12103973 0.0050793826
0.016652005 0.04114886 0.0073105786 0.45472598 -0.84918892 0.26851889 0.0035911237
0.018408488 0.041803524 0.0064765983 0.48190409 -0.82568544 0.2932781 0.0028314195
-0.052033313 0.043273561 0.0073395907 -0.95265144 -0.28593579 0.10342132 0.014656551
0.017775683 0.042204272 0.008465332 0.52827781 -0.75632966 0.38586003 0.0038073182
0.019640172 0.043104552 0.0076575023 0.49063507 -0.79053199 0.36651924 0.0022188742
0.021988463 0.044292938 0.006984245 0.51364899 -0.73074716 0.44963688 0.0024737008
-0.052513517 0.046080723 0.0073014912 -0.98117578 -0.17557974 0.080410272 0.0081108864
0.023039322 0.045951787 0.0080084736 0.55204833 -0.62053543 0.55693674 0.0028642234
0.025140673 0.046965905 0.0070665209 0.5555048 -0.60507655 0.57034802 0.0031700328
0.027259497 0.047667496 0.006146634 0.53031504 -0.61851978 0.57982683 0.0043879403
-0.052703667 0.048957687 0.0073411814 -0.99382854 -0.073134571 0.083403312 0.0084487516
0.02393529 0.048149735 0.0089497752 0.59075135 -0.39757982 0.70209908 0.0025622519
0.026025385 0.049080454 0.0080381092 0.56655294 -0.45943788 0.68405747 0.0021595426
0.028045764 0.04968987 0.0067794658 0.56751716 -0.50082731 0.65352601 0.0023127887
0.0301491 0.050957561 0.0063561704 0.56431335 -0.40668598 0.71844071 0.0014725914
-0.052550483 0.052419201 0.0076847477 -0.99409467 0.056852076 0.092431858 0.0078966375
0.026688563 0.051591601 0.0087817237 0.57292902 -0.24639121 0.78169286 0.0043079443
0.028590452 0.052422397 0.0077743018 0.5577479 -0.25188839 0.79086632 0.0026600778
0.030635033 0.0529029 0.0064769946 0.55167943 -0.30891201 0.77474076 0.0039140796
-0.052153688 0.054927003 0.0071743988 -0.99404776 0.10285325 0.035919618 0.0061219758
0.028863203 0.055429567 0.0081164017 0.5373885 -0.056633271 0.84143108 0.0014141169
0.03110702 0.055434763 0.0066848579 0.53429466 -0.088515855 0.84065098 0.0025512353
-0.051646724 0.058382861 0.0067428933 -0.98705047 0.15950486 0.017013473 0.0039921086
0.028607707 0.058516763 0.0081467051 0.50980055 0.06570667 0.85777974 0.00025697821
0.031158851 0.058327697 0.0066445465 0.51345569 0.04248045 0.85706395 0.00061740843
0.02675892 0.061779175 0.0088432124 0.49540141 0.11585091 0.86090422 6.1433864e-05
0.028511528 0.061607003 0.0078568347 0.49785799 0.11111771 0.86011058 8.552798e-05
0.030854784 0.061357081 0.0065364409 0.50103366 0.10496844 0.85903841 7.9924408e-05
0.02637375 0.064559221 0.0086328452 0.48728761 0.14687419 0.86080122 5.7293728e-05
0.028522052 0.064666152 0.0073928973 0.49033901 0.1416017 0.85995156 4.6676971e-05
0.030507496 0.064118415 0.0063481005 0.49542806 0.13765347 0.85767281 5.4814016e-05
0.025849884 0.067608215 0.0083398623 0.47372994 0.19104335 0.85969901 0.00021603049
0.028394666 0.067422375 0.0069624744 0.48035499 0.18073031 0.85825151 0.00013696913
0.030244317 0.066670768 0.0062283082 0.48834854 0.16935933 0.85605675 0.00015887487
0.023327796 0.071084887 0.0086035421 0.43266651 0.29824495 0.85079354 0.0010748712
0.025402823 0.070243903 0.0079152575 0.45696548 0.26358986 0.84953099 0.00083131035
0.027898034 0.070221648 0.0065732338 0.46317506 0.24724279 0.85108161 0.00067611458
0.022661816 0.072879225 0.0079738405 0.42094752 0.33009335 0.84489149 0.0011694825
0.025477709 0.072594337 0.0068090265 0.4392328 0.31164488 0.84258652 0.0006119202
0.027161604 0.072334647 0.0062697656 0.4410511 0.3140536 0.84074032 0.00093969709
-0.00044369246 -0.075067453 0.0092810737 -0.22106668 -0.95744634 0.18554284 0.0031536291
0.001684571 -0.075324468 0.0099130701 -0.13890763 -0.93773305 0.31837317 0.003523591
0.0044664461 -0.075439267 0.010183834 -0.029581146 -0.9320125 0.3612169 0.0031223902
0.0073628756 -0.075431593 0.0098826624 0.061686154 -0.89831591 0.43499804 0.0037799173
0.010294623 -0.075310566 0.0095376493 0.11757854 -0.84954971 0.51423788 0.003727545
0.01267823 -0.075154841 0.009224819 0.16659769 -0.79292053 0.58610773 0.002892504
-0.012374401 -0.072089791 0.010045666 -0.31356901 -0.94953799 -0.0072190198 0.041771945
-0.010412685 -0.072475314 0.010495432 -0.21962801 -0.96801549 0.1212831 0.028713435
-0.0074530733 -0.073147811 0.010546609 -0.1963307 -0.95333982 0.22934142 0.011872309
-0.004469479 -0.07381323 0.010553773 -0.21126111 -0.9385882 0.27280197 0.003853509
-0.0016038968 -0.074406072 0.010625866 -0.22623336 -0.93109202 0.28615761 0.0028970076
0.0012269792 -0.074696302 0.01132872 -0.11500137 -0.91210657 0.39349249 0.003168524
0.0046442393 -0.074813478 0.011655076 0.012837775 -0.88223529 0.47063375 0.0033080222
0.0076157125 -0.074636407 0.011356781 0.12763672 -0.85451126 0.50350726 0.0030273623
0.010629426 -0.074269384 0.011018018 0.18365812 -0.80616039 0.56247234 0.0027059501
0.013567301 -0.073750794 0.010619626 0.22169419 -0.72748286 0.64932293 0.0032615981
0.016351037 -0.073252529 0.01008503 0.27273625 -0.63469982 0.72302914 0.0032470853
0.019090785 -0.072656736 0.0094836662 0.33228999 -0.57369852 0.7486344 0.0027136276
0.02115115 -0.072193913 0.0090768645 0.36331207 -0.55212575 0.75044096 0.0044434504
-0.024294056 -0.069010414 0.011608406 -0.23991933 -0.92936856 -0.2805582 0.038976181
-0.022302102 -0.069438145 0.011579719 -0.25676233 -0.95306391 -0.16044398 0.018623699
-0.019348321 -0.070159957 0.011334277 -0.23867561 -0.96889538 -0.065389536 0.028618591
-0.016439887 -0.07077492 0.010836812 -0.29184863 -0.95140678 -0.098232098 0.027399905
-0.013674006 -0.071621008 0.010824833 -0.31666812 -0.94848174 -0.010179559 0.031339038
-0.011539741 -0.071870618 0.011629633 -0.2398842 -0.9406718 0.23998354 0.010089064
0.014674636 -0.071783319 0.011778845 0.3263388 -0.60034817 0.73012674 0.0035006846
0.016851587 -0.0711153 0.011465496 0.35817921 -0.45936355 0.81283009 0.004339051
0.019518122 -0.07059028 0.010527762 0.3773666 -0.41064468 0.83003938 0.0033074932
0.02200138 -0.07017082 0.0095223766 0.41263819 -0.3617073 0.83600092 0.003205383
0.024009671 -0.069429964 0.0090201087 0.43093464 -0.34627426 0.83330035 0.0032667159
-0.033964042 -0.066304319 0.011872921 -0.26449227 -0.86005455 -0.43629128 0.017434021
-0.031213678 -0.067063369 0.011876081 -0.20676878 -0.93254572 -0.29598156 0.016451331
-0.028029148 -0.066787235 0.011032866 -0.25680664 -0.88597989 -0.38612151 0.0041381489
-0.025478223 -0.067374393 0.010590567 -0.28943947 -0.87595433 -0.38591275 0.0046357466
-0.022641448 -0.067682274 0.0098833041 -0.28442869 -0.85274982 -0.43808439 0.0065559759
-0.019630937 -0.068486869 0.0095514813 -0.29221559 -0.85626608 -0.4259325 0.011731518
-0.017815694 -0.068898514 0.0092849694 -0.26650807 -0.89977288 -0.3455174 0.014703128
0.017986579 -0.068503268 0.011816042 0.40133962 -0.29202574 0.86812872 0.0018530462
0.019846091 -0.067729846 0.011384961 0.43471053 -0.24963324 0.86528033 0.0010770372
0.022536917 -0.067501925 0.010029633 0.45523024 -0.22945131 0.86030084 0.00063126761
0.024501 -0.066827789 0.0092370696 0.46249616 -0.21402855 0.86040056 0.00047394645
-0.043097794 -0.063355945 0.011657284 -0.31392998 -0.89226919 -0.32450539 0.011003206
-0.040505603 -0.064022854 0.011627315 -0.25585479 -0.85752195 -0.44631201 0.0059630042
-0.03737798 -0.063613318 0.010373905 -0.24975707 -0.83391315 -0.49214852 0.0040678661
-0.034658901 -0.064394943 0.010295512 -0.2420581 -0.86433214 -0.44083762 0.00443576
-0.031567566 -0.065041833 0.010147516 -0.22129801 -0.85381812 -0.47119182 0.0052969647
-0.028933188 -0.065665722 0.0097885542 -0.2539387 -0.85825777 -0.44599175 0.0033274989
-0.026757352 -0.065962106 0.0091819167 -0.26850533 -0.87542611 -0.40191281 0.00032769621
0.02030216 -0.064942881 0.011763949 0.46064228 -0.16985482 0.87118202 0.00011343688
0.022441546 -0.064457871 0.010722844 0.46957269 -0.16461687 0.86741155 0.00010522406
0.024793737 -0.064276107 0.0094646579 0.47735927 -0.15736476 0.86450249 5.7870657e-05
-0.048697796 -0.060982522 0.010769007 -0.41019619 -0.86240488 -0.29664269 0.012740298
-0.046489939 -0.061458923 0.010876177 -0.3251704 -0.8730703 -0.36333516 0.0098932665
-0.043855827 -0.061733097 0.010375356 -0.29662231 -0.86740571 -0.39952779 0.0066076433
-0.040628854 -0.062294498 0.0098712016 -0.23399973 -0.84842837 -0.47477728 0.0057900981
-0.038400382 -0.062841669 0.0094260387 -0.22889714 -0.86660028 -0.44340724 0.0036703441
0.020557152 -0.062550388 0.011889045 0.46528944 -0.14426614 0.87332296 5.9362443e-05
0.022553692 -0.061568189 0.011162756 0.47672155 -0.13444862 0.86871177 5.0014747e-05
0.025191316 -0.061639767 0.0096821999 0.48406559 -0.12941831 0.86540824 6.574062e-05
0.027273411 -0.060043305 0.0090059452 0.49347046 -0.10361616 0.86356854 0.00026930106
-0.051173858 -0.058379743 0.010425237 -0.71191794 -0.65803134 -0.24529099 0.026818234
-0.049616817 -0.059609614 0.010252245 -0.48692551 -0.8429563 -0.22875366 0.022486601
-0.047707498 -0.059876662 0.0094875926 -0.28583845 -0.89178246 -0.35074282 0.014358399
0.022886634 -0.058549881 0.011408521 0.4853079 -0.092650734 0.86942059 9.2400049e-05
0.025376577 -0.058496527 0.010023119 0.49153164 -0.087448016 0.866458 0.0001106917
0.027180314 -0.057837963 0.0090713846 0.50643671 -0.070158124 0.85941827 0.00042764423
-0.051879752 -0.055865731 0.010392489 -0.90659773 -0.40111503 -0.1310997 0.020062095
0.02314592 -0.05545048 0.011522518 0.50127983 -0.034983046 0.86457771 0.00033974263
0.025560949 -0.055557147 0.010126121 0.50261104 -0.019722946 0.86428767 0.00047500728
0.027340848 -0.055833917 0.0091095846 0.51988536 0.0012592742 0.85423511 0.00097060419
-0.052425165 -0.052788466 0.010397603 -0.98071748 -0.14349969 -0.13266855 0.0067539592
0.023046821 -0.052567061 0.011583584 0.51949435 0.058624636 0.85246038 0.0012653485
0.025389992 -0.052718069 0.010126197 0.52085745 0.088794872 0.84901297 0.0016206615
0.027168849 -0.053098422 0.0091199195 0.53408051 0.067713015 0.84271765 0.0014184215
-0.052598104 -0.049708076 0.01061883 -0.99405921 0.010857133 -0.10829795 0.0096349902
0.020693365 -0.048314627 0.011837126 0.56870067 0.22448029 0.79132056 0.0035009088
0.022874191 -0.05003022 0.011158638 0.53941083 0.16010545 0.82668144 0.0014599569
0.024950901 -0.0501475 0.0097359186 0.55269045 0.31350881 0.77216935 0.002513316
-0.052502271 -0.046832561 0.010544738 -0.99098998 0.075853877 -0.11038575 0.010000826
0.020187082 -0.046404991 0.011384081 0.56491083 0.38665727 0.72895259 0.0026811375
0.02235958 -0.047081836 0.010056602 0.56406534 0.39998546 0.7223863 0.0018423104
0.024278821 -0.047851924 0.0091956705 0.52627081 0.49283865 0.6929279 0.0030455582
-0.052116554 -0.043999024 0.010602133 -0.9864136 0.13185635 -0.097990766 0.0065681292
0.017354339 -0.043303546 0.011310933 0.56663764 0.52929443 0.63148177 0.0016261433
0.019309307 -0.044099398 0.010296457 0.56173897 0.54814076 0.61967009 0.00071449555
0.021260658 -0.044536747 0.0090323715 0.55742377 0.50144047 0.66169196 0.0010493599
-0.051319037 -0.040803857 0.010480201 -0.98264009 0.17697898 -0.055650685 0.012886498
-0.050995365 -0.039643634 0.010403117 -0.96519446 0.25310135 -0.065874569 0.010239898
0.013963885 -0.040617485 0.011037471 0.68924129 0.36450717 0.62616372 0.021768503
0.01520084 -0.041796364 0.011553253 0.5763182 0.56743509 0.58811116 0.0030804977
0.010503 -0.036897708 0.011630287 0.94532984 -0.25033724 -0.20900428 0.034527607
0.010685264 -0.034648124 0.011194672 0.80600047 -0.41840407 -0.41869003 0.018759053
0.01226425 -0.033232912 0.011605918 0.7220211 -0.40550578 -0.56058067 0.0062675541
0.010955856 -0.031864673 0.010093838 0.48903549 -0.34493217 -0.80116552 0.016390771
0.013105974 -0.031280685 0.011413861 0.79663032 -0.37385011 -0.4749907 0.008116683
-0.044390105 -0.027737128 0.011057047 -0.93238014 -0.020428253 -0.36090165 0.00024064095
0.011864567 -0.027441023 0.0095657762 0.71089584 -0.1759996 -0.68091941 0.0053215073
0.013935897 -0.028445771 0.011212806 0.79769927 -0.21755545 -0.562446 0.011901021
-0.044180881 -0.02541719 0.010506694 -0.93055856 -0.099127278 -0.35246933 0.0075270971
0.013538652 -0.025765143 0.010510895 0.81757849 -0.11984678 -0.56320703 0.0079123406
0.015132252 -0.026121348 0.01199665 0.92295659 -0.085942164 -0.37518686 0.016562574
-0.045358885 -0.022288341 0.011141194 -0.93714994 -0.17614189 -0.30120414 0.0070453528
-0.044645477 -0.023048095 0.010329667 -0.9163745 -0.22484308 -0.33121499 0.0059676832
0.014430804 -0.022937201 0.011235543 0.89459145 -0.068549424 -0.44159621 0.016885823
-0.045430165 -0.019448178 0.010406843 -0.97854179 -0.079366505 -0.19014974 0.0070854542
-0.045675199 -0.016464684 0.011215551 -0.96943003 0.014109626 -0.24496186 0.012602353
-0.044987209 -0.015821703 0.0092455074 -0.93475509 -0.021714229 -0.35462859 0.011277867
-0.045669451 -0.013385907 0.011196028 -0.98055041 0.01352249 -0.19580138 0.0067818612
-0.044953953 -0.013619575 0.0091544539 -0.93370956 -0.00059953833 -0.35803097 3.4659646e-05
-0.045618925 -0.010449611 0.010965691 -0.98250556 0.013242 -0.1857619 0.0045960988
-0.044913545 -0.010953322 0.0090441098 -0.95777309 0.0015021877 -0.28752121 0.0049754195
0.010066653 -0.009576939 0.011376545 0.89190727 0.024801441 -0.45153767 0.051157348
-0.045497518 -0.007466333 0.010644247 -0.97778118 0.011463551 -0.2093147 0.0051494236
-0.044864684 -0.0080748061 0.0092683062 -0.95751309 -0.0029106047 -0.28837511 0.0061161704
0.0067728749 -0.0064634373 0.0090687927 0.69574279 0.070572652 -0.71481568 0.003742378
0.010034869 -0.0073830918 0.011334737 0.87887007 0.17495827 -0.44382098 0.045615066
-0.045518249 -0.0045223325 0.010693221 -0.98190808 0.0045201448 -0.18930395 0.0044398578
-0.044899583 -0.0051603713 0.0091222897 -0.95736736 0.0031628858 -0.28885603 0.0018183769
0.0067345533 -0.0042414754 0.0090209031 0.67204577 0.012389349 -0.74040598 0.0048877508
0.0099895811 -0.0047186851 0.011280559 0.83196807 0.051844019 -0.55239606 0.045090426
-0.045499146 -0.0015195498 0.010638263 -0.97453642 0.0031926776 -0.22420666 0.0045157708
-0.044893257 -0.0019641099 0.0093349796 -0.97299254 -0.0030145936 -0.23081702 0.007471248
0.0099351918 -0.0015755615 0.011216183 0.81785512 0.023749948 -0.57493383 0.041022066
-0.045508888 0.0014515971 0.01065847 -0.97399241 -0.0089823697 -0.22640243 0.0054753162
-0.044966973 0.0019657048 0.009342256 -0.96258658 0.004302063 -0.27094021 0.0027663377
0.010103872 0.0015573064 0.011572589 0.8784796 0.011216242 -0.4776482 0.050530545
-0.045454647 0.004606578 0.010511882 -0.9725371 -0.0044357358 -0.23270532 0.0040414562
-0.044924602 0.0043450519 0.0092283785 -0.96274227 2.7689915e-05 -0.27042058 0.0035872688
0.010098311 0.0042494112 0.011539525 0.86709172 -0.1439715 -0.47689012 0.044257168
-0.045599204 0.0075676912 0.01088358 -0.97402024 -0.0085721174 -0.22629882 0.0039378572
-0.04490884 0.0079683335 0.009083108 -0.94474411 -0.00029031493 -0.32780862 0.0020553654
0.010094572 0.0074190958 0.01150204 0.82527053 0.00031911425 -0.56473756 0.042914264
-0.04552092 0.010567035 0.01067452 -0.96135026 -0.0069228173 -0.27524137 0.0047204797
-0.044887122 0.010988957 0.0093042189 -0.96861118 -0.0025060975 -0.24856816 0.0055075185
0.010095512 0.010615334 0.0114666 0.78226566 -0.11950617 -0.61137444 0.049526025
-0.045535117 0.013491052 0.010706539 -0.96498096 -0.0067337523 -0.26223347 0.0031337272
-0.044918876 0.013101094 0.0093839904 -0.93364453 -0.00041738065 -0.35820061 0
0.010438643 0.013806726 0.011288084 0.58811885 -0.30459774 -0.74922389 0.021160029
-0.045442868 0.016600542 0.010460809 -0.95996565 -0.0037365896 -0.28009266 0.0028332795
-0.044966802 0.016308196 0.0095052719 -0.93365955 -0.00041321086 -0.35816154 4.0021969e-06
0.011150137 0.016121089 0.010626055 0.54470205 -0.40025914 -0.73694795 0.011717753
0.012673664 0.016846983 0.011431359 0.70330876 -0.38101208 -0.60015553 0.0067279665
-0.045506343 0.019480275 0.010621331 -0.97331184 0.031874605 -0.22726206 0.0054456331
-0.044800911 0.019183042 0.0090698255 -0.9218666 0.03631112 -0.38580233 0.001281476
0.011156532 0.019202689 0.0096795177 0.47297511 -0.24431992 -0.8465237 0.011556556
0.013520156 0.019492483 0.011154313 0.79981565 -0.31170884 -0.51296443 0.019026903
-0.04550026 0.021849023 0.010601941 -0.94601303 0.1094228 -0.3050999 0.0094269449
-0.044903427 0.022216987 0.0090838131 -0.94435239 0.10422873 -0.31198567 0.0098917428
0.01444751 0.022343554 0.011300093 0.83650345 -0.18598115 -0.51543486 0.019052828
-0.044265416 0.025820434 0.010642258 -0.91491145 0.088477857 -0.39383841 0.0097348457
0.01459695 0.025498169 0.011328504 0.93674731 -0.00065537664 -0.35000584 0.012242719
-0.044276435 0.028771704 0.010748245 -0.89800072 -0.002493911 -0.43998691 0.001327827
0.014303726 0.02947145 0.011764443 0.95693201 0.18346359 -0.22499394 0.010170813
-0.044178233 0.031692922 0.010487109 -0.92307746 -0.0075835404 -0.38453934 0.0008176961
-0.044202715 0.034487676 0.010546956 -0.89121991 -0.19335864 -0.41029203 0.020786814
-0.04869416 0.038366884 0.010608437 -0.44177201 -0.87300962 -0.20661972 0.014283778
-0.046593141 0.037998728 0.010490863 -0.35928059 -0.90454835 -0.22958605 0.014813649
-0.044409033 0.037525106 0.010388047 -0.67763257 -0.66535187 -0.3132427 0.056593895
0.010856125 0.038244955 0.010185701 0.47827026 -0.86621857 0.14464763 0.013712082
-0.051365241 0.041142341 0.010539573 -0.88916469 -0.43741453 -0.13436781 0.017633926
-0.05030008 0.03941239 0.011033672 -0.64485544 -0.75107956 -0.1415664 0.021965869
0.011724969 0.039279882 0.010603899 0.57041174 -0.7922011 0.21690528 0.009722434
0.01349641 0.040443242 0.010532591 0.5577898 -0.7812748 0.28014329 0.0062377937
0.015932711 0.041639816 0.0097532449 0.50303549 -0.7654919 0.40122002 0.0048586391
-0.051951557 0.043505978 0.010538816 -0.94155931 -0.30070689 -0.15179424 0.011699863
0.014814355 0.042176466 0.011894641 0.57783741 -0.63226467 0.51608664 0.0047099446
0.016922586 0.043015663 0.010817084 0.52956015 -0.70396531 0.4732852 0.0021521342
0.019138845 0.044200782 0.010034063 0.53931212 -0.65329099 0.53136939 0.0035340136
0.021039058 0.044655185 0.009057818 0.52658057 -0.68102098 0.50884521 0.0029003948
-0.052436907 0.04606406 0.010575123 -0.98331469 -0.17373221 -0.053938959 0.0087201716
0.017953616 0.045039527 0.011956457 0.56776047 -0.54292017 0.61877769 0.00099684123
0.020055695 0.046420101 0.01119494 0.57385421 -0.42808288 0.69816643 0.0031797397
0.022039503 0.046961673 0.009942811 0.56704956 -0.49200147 0.66059768 0.00324599
0.024089659 0.047763143 0.0092374068 0.53722453 -0.49503809 0.68288147 0.0011565092
-0.052598555 0.049204011 0.010518546 -0.9913516 0.0114009 -0.13073662 0.0077512688
0.02059968 0.048301846 0.011850673 0.55986625 -0.34605336 0.75285918 0.002690404
0.022630055 0.049322501 0.010906985 0.55980396 -0.32249638 0.76329261 0.0031433261
0.024817824 0.049872883 0.0095479777 0.55877167 -0.37469983 0.73984742 0.0034454935
-0.052429233 0.052313436 0.011000113 -0.9909879 0.069708198 -0.11438452 0.0063443966
0.023073949 0.052347649 0.011473852 0.54182684 -0.12083825 0.83175832 0.0024285286
0.025353847 0.052532282 0.01004957 0.53667647 -0.17758554 0.82488894 0.00365193
0.027217146 0.053675309 0.0092245936 0.54531753 -0.20417447 0.81298316 0.0032676505
-0.052126877 0.055193722 0.010330649 -0.96365428 0.22823496 -0.13884987 0.0066487421
0.023144269 0.055461966 0.011537202 0.50408304 0.018553827 0.86345589 0.00053332385
0.02554138 0.055475328 0.01013823 0.50822622 -0.0033945485 0.8612169 0.00088443886
0.027356902 0.05553906 0.0091421073 0.52356017 -0.038516358 0.85111767 0.0018328382
-0.051560983 0.057581048 0.010567708 -0.9680047 0.22207862 -0.11682466 0.0062570767
-0.050908446 0.059464831 0.011160658 -0.9703269 0.21340786 -0.11367898 0.0064652562
0.022912174 0.058502354 0.011431323 0.48569015 0.086241804 0.86986637 8.6933629e-05
0.025391381 0.058443196 0.010043388 0.49845439 0.07837072 0.86336625 0.00010243282
0.027205903 0.057728149 0.0091578616 0.51019406 0.072272271 0.85701734 0.00027166933
0.022619922 0.061522551 0.01124006 0.4799487 0.12518963 0.86831838 9.6251963e-05
0.025248615 0.061382428 0.009768758 0.49158275 0.11664559 0.86298335 7.3939009e-05
0.027045941 0.060922481 0.0090836398 0.49683052 0.11704576 0.85991848 6.9872207e-05
0.020586472 0.065021351 0.011730554 0.45874143 0.16766627 0.87260777 0.00016866498
0.022464558 0.064441726 0.010844463 0.46994883 0.16153187 0.86778772 9.1326481e-05
0.02487497 0.064300746 0.0095272344 0.48313615 0.15176022 0.86229247 5.9165126e-05
0.019902511 0.067733698 0.011505751 0.44002411 0.22735737 0.86872751 0.00051524484
0.022506217 0.067403473 0.010211285 0.45892999 0.20921034 0.86348963 0.00030783692
0.024416422 0.067365326 0.0092735179 0.46751627 0.19946489 0.86118656 0.00027104671
0.017776771 0.070905991 0.011365402 0.4138073 0.3245725 0.85053873 0.0010915716
0.019616697 0.070155144 0.010906305 0.42730477 0.2870757 0.85732037 0.0009430534
0.022320271 0.069913678 0.0096505322 0.44187742 0.27579185 0.85362947 0.00094309117
0.016945172 0.072498605 0.01076783 0.40465546 0.35254303 0.84378159 0.0011377177
0.019701745 0.072714239 0.0094282199 0.40095013 0.36205095 0.84152132 0.0011358025
0.02165241 0.072004423 0.0090135718 0.43971828 0.27590895 0.85470593 0.00040167946
-0.0096111652 -0.072134055 0.012352452 -0.21999575 -0.90474266 0.36474988 0.0068534999
-0.0072363126 -0.072411716 0.012805115 -0.18578576 -0.86640936 0.46348512 0.0044309227
-0.0044124876 -0.072720282 0.013257388 -0.16469985 -0.86070013 0.48173562 0.0036369907
-0.0014882813 -0.073082678 0.013517949 -0.14115278 -0.84147388 0.52153385 0.0035189772
0.0014820702 -0.073454306 0.01355447 -0.075865984 -0.82861078 0.5546608 0.0033420688
0.0045380443 -0.073596604 0.013548782 0.042169619 -0.8172425 0.57474905 0.0030630587
0.0074211271 -0.073231846 0.013361106 0.18733791 -0.74877948 0.63579392 0.0030879171
0.010296401 -0.072820254 0.012830321 0.25086105 -0.6744597 0.6943866 0.0031230224
0.012781519 -0.072389908 0.01229982 0.29852977 -0.64653015 0.70205319 0.0031261405
-0.02405772 -0.069035985 0.012021974 -0.25465634 -0.95725471 -0.13716261 0.034216881
-0.022222444 -0.069267042 0.013404979 -0.20250252 -0.97922266 0.010762534 0.021655817
-0.019450838 -0.069741853 0.013523252 -0.11985104 -0.97803545 0.17053513 0.010773956
-0.016509194 -0.070207 0.013505534 -0.13145231 -0.9279108 0.34885797 0.0043341201
-0.013527378 -0.070674397 0.01354787 -0.15609847 -0.89088744 0.4265593 0.004953451
-0.01059026 -0.071150653 0.013695288 -0.19754338 -0.86544847 0.46040794 0.0039128247
-0.0075959964 -0.071439601 0.0142432 -0.16679406 -0.82984334 0.53248453 0.0042037661
-0.0048283478 -0.071758717 0.014629283 -0.14844348 -0.75447917 0.63931668 0.0024513672
-0.0023811595 -0.071878806 0.014861636 -0.1101099 -0.72687966 0.67788035 0.0016129197
0.0082243672 -0.071672373 0.014740809 0.22937958 -0.65501517 0.71995842 0.0032062531
0.010664179 -0.070989184 0.014241488 0.32455832 -0.52392477 0.78750539 0.0041839979
0.01345872 -0.07060001 0.013275508 0.34693909 -0.49301767 0.79785144 0.0034292089
0.01598274 -0.070018582 0.012467011 0.38191321 -0.4261992 0.82005894 0.0030858293
0.018077003 -0.069311298 0.0121033 0.3738015 -0.41260421 0.83068055 0.0037084781
-0.036352072 -0.066115133 0.01434702 -0.29859072 -0.94357377 -0.14322042 0.014230919
-0.034486614 -0.066515334 0.013614564 -0.22425555 -0.94443321 -0.24032356 0.015172172
-0.031471923 -0.067242727 0.013568011 -0.19763125 -0.95155102 -0.23556846 0.011840159
-0.028520273 -0.067896836 0.013521245 -0.21837047 -0.95126116 -0.21775347 0.011233336
-0.025537957 -0.068584964 0.013520977 -0.23982996 -0.96755528 -0.079487763 0.012797257
-0.023677718 -0.068934329 0.014000534 -0.21337862 -0.97613311 -0.040418878 0.015106346
0.011609648 -0.06869667 0.014879685 0.37706718 -0.41699776 0.82700253 0.0034183555
0.0137427 -0.067849234 0.014410371 0.41500598 -0.30007279 0.85891002 0.0021562357
0.016434899 -0.067639597 0.013135498 0.42405432 -0.28423068 0.85987842 0.0015483358
0.018532986 -0.067038633 0.012306217 0.42783144 -0.25867015 0.86605436 0.0010997831
-0.045091651 -0.06306614 0.014092841 -0.38501701 -0.91801357 -0.094937027 0.015445059
-0.04343662 -0.063581318 0.013552948 -0.35964358 -0.92480063 -0.12409782 0.015968597
-0.040448729 -0.064671583 0.013602963 -0.3284483 -0.9291932 -0.16947453 0.012777773
-0.037684139 -0.065584652 0.013425189 -0.32315338 -0.92850864 -0.18287587 0.011347305
-0.035614293 -0.065762281 0.012084497 -0.20316406 -0.89287144 -0.40187678 0.015939588
-0.03133503 -0.065677449 0.012064976 -0.19518067 -0.81844395 -0.54042023 0.011497657
0.014550118 -0.064827971 0.014739452 0.45082274 -0.1829842 0.87365651 0.00015690361
0.016532518 -0.064567231 0.013796845 0.4498482 -0.1798259 0.8748138 0.00010717374
0.019034497 -0.064486071 0.012512916 0.4555499 -0.17306384 0.87322575 0.00010994182
-0.051278103 -0.060088933 0.013970753 -0.59844506 -0.80004632 -0.042300515 0.019178489
-0.049473491 -0.060703371 0.013642862 -0.51649672 -0.85464352 -0.053061061 0.015546388
-0.046537496 -0.062437996 0.013532981 -0.42115712 -0.90471542 -0.064162165 0.0062576546
-0.044782165 -0.062872685 0.01241048 -0.34023637 -0.91155136 -0.23089655 0.012736038
0.014855922 -0.062854812 0.014898255 0.44726878 -0.15377195 0.88108164 0.00020128032
0.016792072 -0.061572351 0.01420737 0.45837983 -0.14514901 0.87682366 0.0001011319
0.019323541 -0.061651804 0.012869582 0.46396494 -0.13960598 0.87478381 6.5116044e-05
0.021206763 -0.060751095 0.012141217 0.47181624 -0.12980016 0.87209028 0.00010909067
-0.052151762 -0.058599442 0.014107908 -0.86868107 -0.49265644 -0.051795714 0.030959571
-0.050183952 -0.059939593 0.01317767 -0.61296707 -0.77554899 -0.15098055 0.014960038
0.016991241 -0.058487877 0.014554909 0.46852657 -0.10869821 0.87673682 5.963146e-05
0.019487118 -0.058407292 0.013294984 0.47121578 -0.10275893 0.87601155 7.1611052e-05
0.021445937 -0.0584215 0.012229833 0.47711745 -0.098790795 0.87326938 6.7925677e-05
-0.052998632 -0.055424478 0.013953705 -0.96773785 -0.22061382 -0.12170813 0.0052247602
0.017431227 -0.055635817 0.014669821 0.47956848 -0.072998978 0.87446284 8.8929548e-05
0.019546945 -0.055507373 0.013519548 0.48352516 -0.061012577 0.87320155 0.00012582212
0.021643771 -0.055512231 0.012353128 0.48791716 -0.050387461 0.87143445 0.0002099134
-0.053429842 -0.052870601 0.01402417 -0.98796159 -0.15062289 -0.035279658 0.0092574488
0.017655971 -0.052622169 0.014740199 0.49334568 0.00095818966 0.86983281 0.0009240777
0.019489875 -0.052571088 0.013696416 0.49872896 0.017109495 0.86658907 0.00087937212
0.021590151 -0.052602541 0.012470047 0.51793855 0.046174463 0.85417068 0.0014256854
-0.053645503 -0.049613345 0.013892944 -0.99941832 -0.01637998 -0.029911289 0.01149264
0.017523944 -0.04912528 0.014565241 0.52413934 0.096700825 0.84612465 0.0014897054
0.019395469 -0.049820904 0.013476169 0.52799821 0.11461555 0.84147555 0.001984766
0.021275885 -0.049911872 0.01222821 0.54097688 0.24745138 0.80381078 0.0033520481
-0.053530723 -0.04673326 0.014052104 -0.99622071 0.086823158 -0.0024640709 0.00597905
0.016811481 -0.046459306 0.014106344 0.55448002 0.34225336 0.75856078 0.0021227587
0.018970873 -0.047166616 0.012804007 0.55885184 0.35550451 0.74920034 0.0019251931
-0.053030711 -0.043350644 0.014176379 -0.98308933 0.18189499 0.021202445 0.0037081223
0.014186623 -0.043376036 0.014251943 0.56905758 0.38391849 0.72717267 0.0032662032
0.016071336 -0.044102322 0.013215418 0.5694319 0.43323126 0.69861144 0.0016272367
-0.052206349 -0.040108167 0.013818843 -0.92732078 0.36594269 0.078499295 0.021421293
0.011328874 -0.039752781 0.014206281 0.9077602 0.16910335 0.38389525 0.038952574
0.012857774 -0.041496858 0.013907658 0.6826055 0.40153477 0.61058956 0.015038049
-0.051749226 -0.038872894 0.014673056 -0.91026592 0.40815532 0.069463946 0.038689639
0.011055895 -0.036739528 0.014516884 0.90862119 -0.39573827 0.13341178 0.020763053
0.011682923 -0.035691585 0.013972656 0.856749 -0.51313812 0.051675625 0.011709968
0.012775759 -0.034234356 0.013884445 0.84617144 -0.53040308 -0.051638141 0.0041418918
-0.04557655 -0.030735871 0.014157859 -0.97065353 0.012933397 -0.24013437 0.0033043791
0.014059209 -0.03179393 0.013621794 0.88857567 -0.44925085 -0.092773624 0.0053435196
0.015184991 -0.030352907 0.014371856 0.90487987 -0.34116784 -0.25455251 0.01480843
-0.045524862 -0.028601136 0.014019608 -0.94678408 0.0024394789 -0.32186028 0.00028885217
-0.044947661 -0.028271802 0.012511211 -0.94540197 0.0066494802 -0.32583892 0.00026557682
0.014751117 -0.029279074 0.012552892 0.91978675 -0.27782744 -0.27713573 0.011742252
0.015305197 -0.02907059 0.014364076 0.95658684 -0.28759485 -0.047231805 0.0067105428
-0.045461785 -0.025526932 0.013850711 -0.93726009 -0.023421936 -0.34784329 0.00074534159
-0.044910196 -0.025345052 0.012409866 -0.94821942 -0.066692665 -0.3105351 0.0086098891
0.015773473 -0.025969036 0.014163715 0.97865087 -0.19891255 -0.051731493 0.0090961335
-0.045537006 -0.021814303 0.01286012 -0.9481737 -0.14731805 -0.28153861 0.0076433364
-0.04487747 -0.022809004 0.012321892 -0.95041573 -0.13665673 -0.27934718 0.0088715469
0.015859826 -0.021845592 0.014193885 0.98939443 0.097483888 -0.10768235 0.015745183
-0.045668207 -0.020091746 0.012929188 -0.96937746 -0.10572498 -0.221652 0.0069886949
0.014944489 -0.019383788 0.012768564 0.9416393 0.25284424 -0.22222775 0.011838664
0.015317407 -0.01938796 0.014299002 0.97396821 0.22628699 0.013419327 0.0086151743
-0.045527238 -0.016126819 0.013718728 -0.9366225 -0.010293111 -0.35018897 0.025380045
0.014267528 -0.016496439 0.014166123 0.90995514 0.41300753 0.037502542 0.0081134569
-0.045606259 -0.013538363 0.013485762 -0.93480366 -0.038169101 -0.35310784 0.019890049
0.013446612 -0.014755453 0.01492632 0.90995812 0.4130002 0.03751022 0.0081122713
-0.045569673 -0.010443803 0.013404571 -0.94444603 -0.0026692748 -0.32865575 0.017000036
0.010495047 -0.0098518273 0.013877938 0.97605264 0.15253338 0.15509596 0.020297058
-0.045591261 -0.0075056083 0.01345116 -0.94796574 -0.00021914086 -0.31837222 0.01662205
0.010467876 -0.0075642471 0.013577674 0.99826491 0.018787924 0.055805046 0.0043629892
-0.045569438 -0.004495691 0.013559918 -0.94669127 0.0132996 -0.32186764 0.01946372
0.010470607 -0.004636555 0.01377607 0.99952227 0.020997072 0.022677135 0.0021251605
-0.045537051 -0.0014381629 0.013363425 -0.94521189 -0.025387786 -0.32546884 0.017709346
0.010472561 -0.0014425304 0.013822251 0.98986018 0.00041243341 0.14204468 0.032642655
-0.045756269 0.0015043025 0.013505291 -0.94598329 -0.036254305 -0.32218206 0.013291825
0.010508176 0.001482909 0.013919974 0.9899115 -0.023646958 0.13970008 0.030092333
-0.045606431 0.0045169047 0.013346485 -0.94146669 -0.0074881511 -0.33702293 0.010924297
0.010523656 0.0044121123 0.013855771 0.99383789 0.033810679 0.10556059 0.012444206
-0.045797411 0.0074081044 0.013362943 -0.93246663 0.0028989455 -0.36124438 0.011128527
0.010544255 0.0074019386 0.013746038 0.99325943 -0.024998046 0.1131847 0.016191661
-0.045764517 0.010554567 0.013385471 -0.93367767 -0.012203304 -0.35790658 0.0087508606
0.01058156 0.010593588 0.013724227 0.9749316 -0.21695842 0.049370047 0.019132473
-0.045976654 0.013555144 0.013469956 -0.92725104 -0.0032367618 -0.37442622 0.0090837395
0.011306626 0.013054074 0.013735481 0.85698307 -0.51351887 -0.043340743 0.010576217
0.012296317 0.014086749 0.0140933 0.85060382 -0.52580702 -0.00032782496 0.0072225574
-0.045875888 0.016468851 0.013427542 -0.92997336 0.014391616 -0.36734506 0.007481501
0.013651446 0.016325021 0.01384994 0.85853505 -0.49945661 -0.11602019 0.0051540309
-0.045874789 0.019493351 0.013418811 -0.92962122 0.023942925 -0.36773774 0.012184977
0.014763128 0.019101746 0.013209142 0.90761131 -0.36375511 -0.20958026 0.016820673
0.015293935 0.019843075 0.014535787 0.95574725 -0.28214478 0.083316132 0.0050307494
-0.045867421 0.022347799 0.0138107 -0.90907526 0.096109129 -0.40539509 0.013252798
-0.044945516 0.023111679 0.012360263 -0.92718166 0.1238168 -0.35355848 0.013584581
0.015695164 0.022081623 0.014153647 0.98101914 -0.18787616 -0.048000373 0.0056063705
-0.045890506 0.025376305 0.014003367 -0.87341064 0.053400028 -0.48404792 0.0044313907
-0.0449077 0.025666885 0.012255648 -0.89549226 0.099786937 -0.43374676 0.011442256
0.015973918 0.02570127 0.014311068 0.99350554 0.061867278 -0.095494196 0.0069077206
-0.046075612 0.028252846 0.013980384 -0.87492132 0.017469713 -0.48394981 0.0040191859
-0.044850171 0.028422127 0.012244741 -0.88509512 0.013268609 -0.46522102 0.0022881154
0.0156516 0.027954979 0.013641159 0.95693135 0.18346483 -0.22499588 0.010173558
-0.045664597 0.031518426 0.013630317 -0.86939079 0.0085097998 -0.49405196 0.0015345184
-0.04484858 0.031230656 0.012235935 -0.88134295 0.0028319932 -0.47246867 0.0019646105
0.01456336 0.031527877 0.013480272 0.9545365 0.29209042 -0.059526347 0.012894535
0.015451315 0.030031499 0.014906087 0.95038182 0.30968812 -0.029456051 0.014028102
-0.045556873 0.034514397 0.013551794 -0.88144845 -0.15103091 -0.44747987 0.013280761
-0.044843893 0.034175158 0.012508516 -0.8992548 -0.18793404 -0.39499557 0.031984348
