# .PCD v0.7 - Point Cloud Data file format
VERSION 0.7
FIELDS x y z normal_x normal_y normal_z curvature
SIZE 4 4 4 4 4 4 4
TYPE F F F F F F F
COUNT 1 1 1 1 1 1 1
WIDTH 566
HEIGHT 1
VIEWPOINT 0 0 0 1 0 0 0
POINTS 566
DATA ascii
0.004724157 0.032806955 -0.0015149944 0.0069145374 0.99203151 -0.12580019 0.0021506161
0.0068224105 0.032807533 -0.0014181935 -0.05030828 0.99318689 -0.10511382 0.0022665409
0.010050987 0.032910481 -0.0022493072 -0.10052889 0.99276572 -0.06565138 0.00098006183
0.068413258 0.030756367 -0.0015272629 0.86044997 -0.50358832 -0.07761851 0.0021960679
0.069275841 0.032269727 -0.0013275432 0.89784068 -0.43305001 -0.079685502 0.0043518296
-0.015865626 0.035869468 -0.0019864631 0.30563137 0.94672304 -0.10151381 0.00159302
-0.013673207 0.035300706 -0.0014478299 0.26654387 0.95777148 -0.10783418 0.0017295099
-0.010426467 0.034461133 -0.0015155389 0.2213672 0.96360296 -0.14988646 0.002876441
-0.0073455563 0.033871777 -0.0014805107 0.17242859 0.97233081 -0.15761116 0.0032138745
-0.0046577975 0.033488382 -0.0014218043 0.11910361 0.98596478 -0.11699487 0.0017959068
-0.0018682948 0.033169229 -0.0012757513 0.082751222 0.99042612 -0.1104917 0.0017134857
0.0013187961 0.033047538 -0.0004625812 0.040713675 0.99901825 -0.017464504 0.0013864464
0.0096589522 0.033087771 -0.00073366304 -0.079470046 0.99575943 -0.046343643 0.0019705254
0.014183809 0.033577908 -0.0011202034 -0.12357709 0.99208552 -0.022249898 0.0016730635
0.015276041 0.033556283 -0.0026765754 -0.14085905 0.9876281 -0.068917014 0.00061231974
0.070254825 0.034488995 -0.0013520875 0.92886549 -0.3568083 -0.099483177 0.0037056254
-0.02421459 0.03881542 -0.0015847598 0.36105132 0.9272241 -0.099485934 0.0025057951
-0.022155475 0.038039237 -0.0010568002 0.35939074 0.93276036 -0.02822073 0.0032902872
-0.019761808 0.037102569 -0.0013632193 0.29346487 0.9503963 -0.10307887 0.00132275
-0.017113779 0.036314391 -0.0014166737 0.27613488 0.95640743 -0.095049605 0.0017281029
0.071318656 0.037567083 -0.0013058498 0.95476854 -0.28826186 -0.072953083 0.0036138024
-0.030652037 0.041638918 -0.0015412982 0.43844894 0.89873171 -0.0066232062 0.0013817031
-0.028630592 0.040689968 -0.0013389594 0.40880701 0.90648127 -0.10568191 0.0017422481
-0.026343968 0.039770354 -0.0010748376 0.38700575 0.92010242 -0.060316306 0.0017265256
0.071865059 0.040145066 -0.0018754415 0.97213578 -0.21644913 -0.090010032 0.0041789785
0.072166957 0.041054506 -0.0009018727 0.98761457 -0.15274858 -0.03585083 0.0052963332
-0.036718916 0.044672921 -0.0018284584 0.47282594 0.87754351 -0.079706371 0.0011619264
-0.034955341 0.043790769 -0.0018365601 0.44903049 0.89273876 -0.037270918 0.0014255833
-0.032052636 0.042394217 -0.0011482318 0.44018421 0.89545023 -0.06638281 0.0014925594
0.071971767 0.042458721 -0.0028808138 0.94773704 -0.066666789 -0.31200981 0.0060793925
0.072400555 0.043505959 -0.0015267953 0.98731905 -0.056403961 -0.14839061 0.0038640844
-0.042333502 0.047776338 -0.0018853495 0.49756247 0.86701268 -0.026844362 0.0017366229
-0.040181521 0.046571705 -0.0018279987 0.48247442 0.87502611 -0.03934066 0.0015004022
-0.037907075 0.045346308 -0.0015009766 0.46741298 0.88327509 -0.036746338 0.0018495967
0.072564028 0.04649945 -0.0012835357 0.99478275 -0.042678878 -0.092659764 0.004157851
-0.048000991 0.05083812 -0.0025878558 0.43961233 0.8791194 -0.1840927 0.005952124
-0.04611266 0.049983874 -0.00132082 0.49714085 0.86765438 0.0051912102 0.002263644
-0.043421444 0.048481148 -0.001245831 0.48919898 0.87217194 0.00066842436 0.0022478176
0.072688974 0.049134791 -0.0010161378 0.9974966 -0.025064338 -0.066124626 0.0056627751
-0.054419134 0.05398915 -0.0025546064 0.36995175 0.90997255 -0.18731196 0.004043004
-0.05220316 0.053347409 -0.00092134607 0.42955667 0.90163016 0.05043982 0.0029742848
-0.049539477 0.051899523 -0.0011438356 0.46913478 0.88148916 0.053753179 0.0025864097
-0.047991991 0.051096976 -0.00070807413 0.48780456 0.86499143 -0.11762911 0.004327897
0.072763503 0.052453063 -0.0014193566 0.97565955 0.00048671203 -0.21929029 0.0080162948
-0.06035728 0.056683451 -0.0016006958 0.4730705 0.88094842 0.011584418 0.0094347931
-0.057999119 0.055675056 -0.001236128 0.40035444 0.91634822 0.0047127893 0.0053616175
-0.055328824 0.05456185 -0.0014555195 0.36795214 0.91722518 -0.15267341 0.0043378114
0.072874323 0.055459261 -0.0012871363 0.99227881 -0.05500903 -0.11116087 0.018807672
-0.067349106 0.059885547 -0.002958098 0.50393862 0.82724959 -0.24840286 0.011611903
-0.06436795 0.059298467 -0.0010242371 0.48550129 0.87261963 0.053136155 0.0086523779
-0.061997354 0.057783108 -0.00087973848 0.4867833 0.8696779 0.081867568 0.0064260405
0.073051453 0.058368776 -0.0010133791 0.9874981 -0.061979055 0.14493497 0.017263072
-0.066779606 0.06050339 -0.0011628143 0.38261643 0.91755891 -0.10812167 0.020626612
-0.065628111 0.060255073 -9.1817798e-05 0.47019416 0.82896465 0.30287802 0.007957628
0.073459089 0.06153642 -0.00096147443 0.95119739 -0.1092286 0.28860459 0.018203095
0.074027546 0.064531662 -0.00063019857 0.92542315 -0.23465331 0.29753947 0.011595197
0.074592717 0.067284994 -0.00087226974 0.95386231 -0.22995877 0.19304354 0.013073277
0.075107694 0.068621792 -0.00054840546 0.96846098 -0.23719944 0.076287463 0.024802009
0.074580282 0.069812089 -0.0022194698 0.96500295 -0.25918835 -0.039883677 0.020113729
0.075614184 0.070562646 -0.0008510045 0.94973993 -0.30561411 -0.067779832 0.019373232
0.076573424 0.073320471 -0.00084718963 0.98240185 -0.11918807 0.14380814 0.047626395
0.068740785 0.07718461 -0.0007351127 -0.013563709 0.9882924 0.15196764 0.11718176
0.070555411 0.076624453 -0.0015264337 0.30089504 0.95364386 -0.005063918 0.00080199813
0.073559977 0.075701296 -0.0013930195 0.36013234 0.93272096 -0.018340781 0.0045889155
0.075388953 0.075129859 -0.0015266235 0.86310768 0.49486408 -0.10077023 0.074937493
-0.01046525 0.0014176557 0.0021637741 -0.10146196 -0.96203679 0.25335884 0.0014281605
-0.0068910737 0.0009946425 0.0019823816 -0.075885005 -0.95569736 0.28440124 0.0022673733
-0.0044904882 0.00066659122 0.0016882936 -0.033910342 -0.98763889 0.1530347 0.0042299018
-0.001031643 0.0005127365 0.0019438855 -0.035771091 -0.97015673 0.23982559 0.001698486
0.0016312758 0.00038968335 0.0017360129 -0.021976972 -0.99510282 0.096370935 0.0022306079
0.0045692842 0.00035082601 0.0016306278 0.0033330673 -0.99481547 0.10164241 0.0029590162
0.0077298018 0.00062860595 0.0022858582 0.062520079 -0.95479512 0.29061565 0.0038335258
0.010559654 0.0007235285 0.0021475828 0.086448886 -0.96921933 0.23052211 0.0036527091
0.012904212 0.00086043228 0.0015638506 0.1082617 -0.95722008 0.26834512 0.0034984667
0.01629746 0.0013592609 0.0017754999 0.131944 -0.96145827 0.24122331 0.0027294853
0.019547801 0.0018755388 0.0018539787 0.18320009 -0.95246613 0.24340492 0.0040816176
0.022239337 0.0024448235 0.0018219332 0.20517594 -0.9515292 0.22911805 0.0029699053
0.024705898 0.0029269676 0.0013936937 0.22068888 -0.95764035 0.18499039 0.0017168197
0.025972247 0.0033157661 0.0019651516 0.25496322 -0.94258589 0.215698 0.0018119154
0.028710602 0.0041007921 0.0019523043 0.28269628 -0.94206095 0.18056574 0.0017329809
0.031490792 0.0048997803 0.0016635166 0.29276681 -0.93788618 0.1861642 0.0020959838
0.033850074 0.0056562787 0.0011829247 0.32367584 -0.93304521 0.15703712 0.0016122459
0.035153285 0.0062870658 0.0022649821 0.35617763 -0.90399992 0.23647764 0.0017996132
0.037606202 0.0071344161 0.0015995519 0.3757723 -0.91265506 0.1607978 0.0016663664
0.040331453 0.0083127813 0.0016906783 0.38518023 -0.89082074 0.24098675 0.0022226658
0.042151529 0.0089662308 0.00031032879 0.41784152 -0.90550518 0.073952064 0.0040419325
0.041875053 0.0090941358 0.0026962957 0.40089956 -0.9099139 0.10647224 0.0027192209
0.043657754 0.0098554119 0.0014459854 0.44414294 -0.87245017 0.20388174 0.0012855903
0.046521489 0.011346768 0.0015505776 0.4735429 -0.85995597 0.1903494 0.0017675735
0.047922634 0.012244387 0.0023793245 0.48581192 -0.86127579 0.14896551 0.001768336
0.049425066 0.013015161 0.0015558418 0.51170117 -0.84420037 0.15964845 0.0017876314
0.051851202 0.01445543 0.001415067 0.54591125 -0.82786208 0.12893854 0.0018635649
0.053291794 0.015474373 0.001602681 0.56026894 -0.82002479 0.11686772 0.0018223004
0.055421825 0.016955463 0.0016002388 0.57108015 -0.81134987 0.12481555 0.0026631951
0.05713648 0.017947054 0.00038639043 0.59673178 -0.79863715 0.078037426 0.0031660432
0.056734219 0.018020401 0.0027157643 0.59077406 -0.79180372 0.15502523 0.0029404124
0.05861482 0.019357445 0.0015479418 0.62856776 -0.76725703 0.12735479 0.0024637773
0.060250223 0.020740962 0.0015172263 0.66767317 -0.73644203 0.10892966 0.0037781615
0.061765745 0.022192875 0.0015578093 0.70867276 -0.69681668 0.11058681 0.0028717706
0.063241735 0.023623506 0.001108437 0.73671001 -0.66776597 0.10652225 0.0031082991
0.064705722 0.025386961 0.0015497993 0.7619285 -0.63559282 0.12444601 0.0027900201
0.066139176 0.026936011 0.00083066832 0.79369134 -0.59556776 0.12390827 0.0049682669
0.065876998 0.027106183 0.0027165019 0.78185338 -0.58198053 0.22361544 0.0042377547
0.067092791 0.028557338 0.0014789711 0.83139777 -0.54261863 0.11976154 0.0034834379
-0.0003327296 0.03294526 0.0027859188 0.053361043 0.98200059 0.18118368 0.0024191509
0.0016254286 0.032921348 0.0022236775 0.052601736 0.96726936 0.24823979 0.0019667267
0.0045758281 0.032905757 0.0017855556 0.0025996254 0.9691357 0.24651416 0.002977673
0.0074878773 0.032906029 0.0019653894 -0.053448189 0.96917826 0.24049288 0.0029427342
0.010079857 0.032925539 0.0028289002 -0.088315658 0.95977598 0.26651531 0.0021665022
0.068539649 0.030936224 0.0016458273 0.85957283 -0.49770167 0.11587757 0.0030535047
0.069334507 0.032356199 0.0014103757 0.89268398 -0.4271293 0.14379162 0.0052485247
-0.015625132 0.035921201 0.0019635842 0.2944456 0.93813735 0.18220879 0.0021151034
-0.013423287 0.035294957 0.001772702 0.25128764 0.94748777 0.19779149 0.0024660828
-0.010498738 0.034595449 0.0015529448 0.2013931 0.9533118 0.22502758 0.0034785804
-0.0073571806 0.034017168 0.0019527061 0.17058149 0.96231967 0.2117613 0.0035296218
-0.0042919647 0.033528995 0.0018986592 0.12210611 0.97752833 0.17183833 0.0030622212
-0.0022836069 0.033355791 0.00092442933 0.10010334 0.98460585 0.14328521 0.0037228025
0.0010993042 0.033083063 0.00099164108 0.041158814 0.99649215 0.072865233 0.0051559201
0.0041399528 0.033020835 0.00046934502 0.0095611606 0.99962091 -0.025819592 0.0011665811
0.0079440316 0.03306115 0.000662793 -0.022922069 0.99962872 -0.014730747 0.0011231037
0.010799612 0.033167865 0.0015240968 -0.089954562 0.9932313 0.07348343 0.0046281531
0.013361563 0.033443213 0.0019393133 -0.14257567 0.95470315 0.26117817 0.0020662064
0.016365595 0.033914603 0.0022756383 -0.20721214 0.94919324 0.23684458 0.0037147263
0.019591317 0.034713879 0.0021649459 -0.21978854 0.9242838 0.3120777 0.001012143
0.022456598 0.035556555 0.0018626368 -0.2690708 0.92192471 0.27866781 0.0027506368
0.070272475 0.03451417 0.0015587563 0.91846663 -0.36125275 0.16098268 0.0039549349
-0.024297083 0.038898602 0.0021078824 0.39164862 0.91359055 0.1093786 0.0024928781
-0.022839481 0.038354266 0.0018300224 0.37044227 0.90787953 0.19628365 0.0027029952
-0.019855544 0.037221715 0.0016853899 0.30586427 0.93183523 0.19526924 0.0020115376
-0.017180298 0.036421787 0.0015426564 0.27250385 0.95201147 0.13934076 0.0024321938
0.023741916 0.036048565 0.00021390439 -0.27169219 0.93616676 0.2231037 0.0008549756
0.025719771 0.036444619 0.0022384454 -0.29026842 0.91057605 0.29427114 0.00093674473
0.028746966 0.037497815 0.0017874927 -0.31673914 0.90441573 0.28584707 0.00095359405
0.030687273 0.038121469 0.0023437205 -0.35223353 0.87796068 0.32421687 0.0013261047
0.071290247 0.037483994 0.001590237 0.95023715 -0.28378284 0.12851678 0.0036165181
-0.030589383 0.041670237 0.0017455728 0.45698321 0.88485253 0.09056709 0.0044909683
-0.028746104 0.040825184 0.0016992791 0.40640518 0.90101457 0.15168284 0.0028158466
-0.025815738 0.039599825 0.0016529826 0.36980525 0.91433412 0.16503662 0.0022772641
0.032864951 0.039032768 0.0023384241 -0.39053178 0.86998498 0.30101684 0.0013227144
0.035289608 0.040113296 0.0025888055 -0.43473712 0.82996941 0.34950608 0.0015055425
0.071826421 0.039926995 0.0021073257 0.96528846 -0.21215887 0.15233813 0.0046266229
0.072160058 0.040969603 0.0011042706 0.97858691 -0.16979097 0.11635532 0.0047764475
-0.036383968 0.04469556 0.0012041227 0.47403303 0.87754488 0.072164625 0.0036550791
-0.034489457 0.043679867 0.0017494373 0.45384851 0.88047415 0.13706467 0.002808321
-0.031970859 0.042439494 0.0014532213 0.43814856 0.89329994 0.10020502 0.0034088038
0.071980923 0.042074081 0.0028650982 0.98134464 -0.10033371 0.16399974 0.0049431347
0.072424941 0.043444127 0.001514498 0.98625541 -0.08425799 0.1421295 0.0036800292
-0.042256698 0.047675982 0.0026776155 0.48260117 0.86170924 0.1566951 0.0041134181
-0.04057458 0.046934377 0.0016106744 0.47965345 0.87278092 0.090476811 0.0030582044
-0.038025033 0.045525532 0.0015125893 0.45348489 0.88739574 0.082947858 0.0038136647
0.047307424 0.047547914 0.0029316742 -0.48772117 0.76295918 0.42428935 0.0006648837
0.07256452 0.046477545 0.0015729079 0.98698288 -0.039329544 0.15594243 0.0048201303
-0.048047137 0.050978556 0.0023718236 0.4728263 0.87201595 0.12658402 0.0038607221
-0.046473373 0.050239746 0.0016185638 0.4827382 0.86857247 0.11200751 0.0030461438
-0.043797862 0.048734132 0.0016741104 0.47959399 0.87130475 0.10400829 0.0036779139
0.049506769 0.049024399 0.0028817756 -0.47439906 0.76513535 0.43533143 0.00076884852
0.052501932 0.05095483 0.002881709 -0.46041521 0.77004534 0.44164237 0.00067240448
0.072677113 0.049578715 0.0015923489 0.98237824 -0.02968912 0.18453056 0.0065064933
-0.074519157 0.051078793 0.0027692805 -0.68259126 -0.16843614 0.71112484 0.0038851548
-0.052529674 0.053444132 0.0018957866 0.42543998 0.88030857 0.20989881 0.0047790646
-0.049560372 0.051926423 0.0016650483 0.46617869 0.87196249 0.14952922 0.0029958
0.052717552 0.051307555 0.0023960117 -0.47856832 0.76724917 0.42696741 0.00072228344
0.055215914 0.052801676 0.0025686128 -0.47355834 0.75194001 0.45861608 0.0013727332
0.057057347 0.053981084 0.0026655807 -0.47889453 0.73543811 0.47936499 0.002058821
0.072802022 0.052506667 0.0014784988 0.97033334 -0.023004204 0.2406743 0.00765554
-0.075780205 0.054180209 0.0026009481 -0.55862516 -0.11519112 0.82138234 0.0093667079
-0.060656149 0.056724444 0.0022639653 0.45921504 0.84988832 0.25847879 0.0089541078
-0.058184031 0.055722505 0.0017671409 0.37115267 0.88883942 0.26871958 0.0055094431
-0.055499278 0.054652803 0.0016399275 0.35428876 0.9193536 0.17107993 0.0056498069
-0.05367839 0.054059755 0.0010677372 0.37212521 0.9211151 0.11432356 0.0062393541
0.058506459 0.055206705 0.0021732033 -0.52476716 0.72486472 0.44630766 0.0014620522
0.060895026 0.056642264 0.0029460855 -0.52613449 0.61289293 0.58952928 0.0027361324
0.072840028 0.055549722 0.0016706246 0.95108819 0.0056064767 0.30886835 0.011816707
-0.066214949 0.059696529 0.0028587941 0.3929162 0.79231989 0.46673971 0.015892612
-0.06432087 0.05911633 0.0017449312 0.50522047 0.82279885 0.26029694 0.0079195919
-0.061975192 0.057671603 0.0015003156 0.48833051 0.83767551 0.24460806 0.0096088164
0.06216104 0.058001779 0.0027539656 -0.56665277 0.51662225 0.64187706 0.0028789248
0.063388839 0.059587028 0.0026042413 -0.54747313 0.52223128 0.6538713 0.0035969475
0.072959371 0.058549333 0.001612993 0.93173027 -0.016764099 0.36276388 0.018947931
-0.067194991 0.060546659 0.0018214494 0.35004252 0.84243613 0.40959933 0.017827749
-0.065731004 0.060141172 0.0010922318 0.3719458 0.87172794 0.31897753 0.020492861
0.064274803 0.061586201 0.0022585262 -0.52777588 0.35396904 0.77211308 0.0052288524
0.073169425 0.061514731 0.0017383987 0.90557694 -0.096622363 0.41303086 0.023244178
0.065299504 0.064460903 0.0021248243 -0.52187765 0.24149631 0.81812179 0.002507095
0.066156588 0.064857438 0.0028965385 -0.27678263 0.20103289 0.93966866 0.011856588
0.073527664 0.064518191 0.0018048501 0.8558647 -0.14570354 0.49625203 0.032498378
0.06573759 0.067160048 0.0016683368 -0.29697484 0.11267404 0.94821441 0.012682549
0.066818699 0.067597941 0.0026609125 -0.29091674 0.12279069 0.94883609 0.0060468353
0.074151479 0.067350373 0.0018823519 0.8513422 -0.24768513 0.46245918 0.015707836
0.075133525 0.068590097 0.00045526188 0.89057285 -0.26422799 0.3702209 0.034548979
0.067892969 0.07046742 0.002664828 -0.23825434 -0.0048455708 0.97119069 0.014310609
0.074578412 0.069872864 0.0024751236 0.77338976 -0.33983889 0.53514284 0.023558378
0.075547583 0.070762366 0.0013236152 0.8567003 -0.31396589 0.40925533 0.019346748
0.067993246 0.073009484 0.0024658695 -0.048281915 -0.29433799 0.95448107 0.018444832
0.076377325 0.073396489 0.0017445752 0.8385585 -0.15328901 0.52280223 0.051769029
0.068281732 0.076636091 0.0019495961 -0.43755242 0.52513272 0.72992021 0.061936289
0.069793634 0.076856479 0.0017610625 -0.087361164 0.66175491 0.74461299 0.038262241
0.073496841 0.075719908 0.0016093984 0.43548799 0.87966758 0.19114175 0.037229605
0.07534866 0.075136967 0.001562523 0.56280905 0.80818415 0.17344855 0.037944414
-0.015895912 0.0026884624 0.0044453377 -0.17712951 -0.90337378 0.39056492 0.0013494247
-0.013458276 0.0022980801 0.0046300925 -0.15339726 -0.89745057 0.41358414 0.0015849492
-0.010548739 0.0019403533 0.004922797 -0.10500146 -0.92906827 0.35469264 0.0030339221
-0.0075925887 0.0015803804 0.0049063144 -0.085842453 -0.93243873 0.35098305 0.0026306014
-0.0043796981 0.0013078235 0.0048878118 -0.050822642 -0.93685585 0.34600317 0.0031905721
-0.0015773391 0.0011674041 0.0048158877 -0.031223899 -0.93199635 0.36112034 0.0026484593
0.0015102971 0.0010035668 0.0043954607 -0.0010287289 -0.925264 0.37932241 0.0020846797
0.0045317784 0.0010537184 0.0043229768 0.029785994 -0.92256999 0.3846783 0.0017820569
0.0073940353 0.0014327795 0.0048064878 0.055956449 -0.91583669 0.39763305 0.0013891123
0.010838377 0.001666273 0.0049583497 0.083793938 -0.89311457 0.44195589 0.0013309874
0.01355068 0.0018481433 0.0046850503 0.11191101 -0.9174453 0.38179851 0.0025004691
0.016298847 0.0022805999 0.0049596988 0.12287504 -0.88933152 0.44044435 0.0019160486
0.019415308 0.0024306257 0.004249596 0.14979091 -0.9182806 0.36650154 0.0037338524
0.021728473 0.0026395607 0.003451044 0.20407173 -0.93161744 0.30073848 0.0021439458
-0.027600396 0.0059824334 0.004089247 -0.29050624 -0.86466432 0.40983137 0.00039346729
-0.025192164 0.0054013859 0.0046307938 -0.27746373 -0.87430787 0.39824572 0.00011913989
-0.022298366 0.0045755068 0.0048250947 -0.2569223 -0.86869675 0.42350554 0.00031120586
-0.019420054 0.0036692685 0.0047678165 -0.22732504 -0.86793786 0.44159621 0.00052070944
-0.01724489 0.0033617057 0.0053503173 -0.20321624 -0.87430096 0.44079587 0.00052744389
0.020020165 0.0030816682 0.0054866807 0.16274677 -0.8698681 0.46566406 0.0026104955
0.022373989 0.0034305442 0.0052054212 0.19013943 -0.87247986 0.45013991 0.0026858447
0.025641343 0.0039669801 0.0047828145 0.21114701 -0.87966794 0.42614701 0.0028481993
0.028455684 0.0047656833 0.0047815014 0.2454711 -0.87278861 0.42188135 0.0028812308
0.03122952 0.0055139693 0.0046259179 0.29902616 -0.87790066 0.37399712 0.0031358635
0.033354633 0.0057230676 0.0032241922 0.29724637 -0.9388575 0.17375639 0.0039290013
-0.034001384 0.0086887758 0.0050390866 -0.33596286 -0.84465832 0.41675085 0.0004673815
-0.031769477 0.0078049852 0.0048811063 -0.31856751 -0.86392182 0.39006895 9.8479228e-05
-0.028753664 0.0067628501 0.0050989576 -0.29779434 -0.86119163 0.4119072 0.00040838798
-0.026555743 0.006054143 0.0052020065 -0.28820732 -0.86874092 0.40277264 0.00020407749
0.03241881 0.0061630276 0.0053654667 0.30376747 -0.86614144 0.39689317 0.0034065396
0.034344476 0.0065626618 0.0044993898 0.32622066 -0.87881994 0.34821752 0.0022159859
0.037582316 0.0079362858 0.0049286229 0.33812523 -0.87150735 0.3551707 0.0020903025
0.03954741 0.0084547317 0.0040657152 0.3771174 -0.87289774 0.30956748 0.0026744185
-0.039598998 0.011362495 0.0053450032 -0.39547101 -0.8106364 0.43182319 0.00056305481
-0.037624903 0.010430069 0.0053693182 -0.37811849 -0.82694501 0.41615906 0.00039177539
-0.035654448 0.0095012104 0.0054000439 -0.35637346 -0.83716184 0.41491932 0.0005388417
0.041041721 0.0094759027 0.0049895253 0.39002576 -0.85162675 0.35015988 0.0029560879
0.043527771 0.01046586 0.0044832597 0.4271839 -0.85266143 0.30080289 0.002091124
0.046031445 0.011585147 0.0040161405 0.4489243 -0.84409356 0.29321164 0.0020785274
-0.043627325 0.013330244 0.0050248727 -0.44972336 -0.78949553 0.41766703 0.00068718853
-0.04153724 0.012288851 0.0053596981 -0.42028928 -0.80229539 0.42388564 0.00043250105
0.0471269 0.012570582 0.0049869185 0.47490618 -0.82544243 0.30513746 0.002065791
0.049558777 0.013799408 0.0045211669 0.50026083 -0.80839866 0.31021062 0.002189582
0.05149075 0.014719157 0.0038893381 0.51345044 -0.80599898 0.29450679 0.0026124085
-0.048863396 0.01685616 0.0054648742 -0.51139885 -0.74476987 0.42870632 0.00060264411
-0.04688599 0.015366481 0.0049755257 -0.4888767 -0.76188463 0.42488992 0.00036675317
0.052851647 0.015989657 0.004676471 0.53851444 -0.7872197 0.30047861 0.0024459399
0.054863233 0.017258085 0.0043477206 0.54237562 -0.77603275 0.32187247 0.0023569597
-0.052005418 0.019074997 0.0053299838 -0.54381537 -0.72811687 0.41726574 0.00024109244
0.056267235 0.018481569 0.0048814267 0.57563758 -0.75512475 0.31373224 0.0022484513
0.058266383 0.019861767 0.0043686363 0.61400497 -0.71692079 0.33018535 0.0028311573
0.06001319 0.020822372 0.0033832886 0.64906216 -0.72032309 0.24464864 0.003584007
-0.055932075 0.022055781 0.005339514 -0.57137656 -0.69478709 0.43680629 0.00057342579
0.059534099 0.021372439 0.0052541955 0.62807614 -0.69922823 0.34146792 0.0027773178
0.061347336 0.022666894 0.0043557324 0.67927301 -0.67594671 0.28580448 0.0017455363
0.063071586 0.02382658 0.0033781766 0.70991987 -0.64047158 0.29293349 0.0019867439
-0.058575939 0.024559399 0.0056754961 -0.61184853 -0.63424945 0.47261944 0.0011864676
0.062610358 0.02440916 0.0051378007 0.70309681 -0.6257087 0.33785132 0.0030224009
0.064117119 0.025741084 0.0044189831 0.72401047 -0.59996426 0.34036994 0.0022562379
0.065452762 0.0278104 0.0049348078 0.76240224 -0.55551142 0.33188832 0.0029308575
0.06667202 0.029073471 0.0042033787 0.78952342 -0.50482446 0.34900573 0.0031068509
-0.064092703 0.031098997 0.005969008 -0.69209802 -0.47059533 0.5473029 0.00077886943
-0.0069058202 0.032859627 0.0054110414 0.16445111 0.9054808 0.39122939 0.0010178743
-0.0039680321 0.032664496 0.0048904796 0.12470891 0.91199869 0.39077616 0.001012175
-0.0011972063 0.032499876 0.0045194472 0.088505879 0.91153455 0.40158632 0.0016513501
0.0014926158 0.032235704 0.0046142777 0.055205964 0.93149108 0.35955057 0.002200075
0.0044976487 0.032177992 0.0045726518 0.015434976 0.93941581 0.34243196 0.0020007046
0.0075070662 0.032196827 0.0046013929 -0.055048242 0.93704104 0.34485325 0.0022059006
0.010612728 0.032365486 0.0046737269 -0.093086399 0.93002391 0.35551432 0.0017182743
0.013433441 0.032584392 0.0050044814 -0.13991466 0.91880864 0.36907268 0.0017798946
0.016152952 0.03286881 0.0054532643 -0.19427656 0.90417403 0.38042861 0.0016643244
0.067910083 0.03145406 0.004566452 0.82722002 -0.43692744 0.35327244 0.0029010652
0.069130808 0.032637686 0.0032753625 0.85050428 -0.43330863 0.29813778 0.0048086592
-0.018854953 0.035817556 0.0055989507 0.30196023 0.89523804 0.32767189 0.0019644431
-0.016494349 0.035397988 0.004950183 0.26889822 0.90009773 0.34280869 0.001885922
-0.013519217 0.034618765 0.0047156783 0.24644735 0.89990735 0.35976443 0.0012922543
-0.01064679 0.03393067 0.0046169255 0.19761723 0.91442961 0.35322213 0.0011624225
-0.007896089 0.03344341 0.0044479375 0.16158828 0.92107242 0.35428068 0.0010984601
-0.0052747121 0.033322889 0.0035028781 0.1467952 0.93585312 0.32035947 0.0025878451
-0.0021272469 0.033032726 0.0030166265 0.096506871 0.96542776 0.24214804 0.0007836537
0.014148822 0.033297502 0.0034187557 -0.14258361 0.92591554 0.34978625 0.0018930479
0.016610688 0.033411823 0.0043829456 -0.19729498 0.91851681 0.34263909 0.0017633423
0.019533962 0.034026995 0.0046542855 -0.22639725 0.90377897 0.36321872 0.0018691251
0.022534728 0.034847595 0.0046904059 -0.26530501 0.88667339 0.37871304 0.0019595486
0.025134657 0.035501976 0.0049045049 -0.28035972 0.88218653 0.37834546 0.0020988381
0.027474249 0.035962429 0.0055781766 -0.31121856 0.89159018 0.32895288 0.0025779181
0.068667345 0.033744689 0.0053875782 0.84945178 -0.35900888 0.38670948 0.0032733169
0.069592647 0.034762483 0.0042632269 0.86678219 -0.33876732 0.36595809 0.0032353599
-0.027085181 0.038888082 0.0057619405 0.38801536 0.84849352 0.35986498 0.0023930089
-0.025245778 0.038502093 0.0050427956 0.37701324 0.87354022 0.30787745 0.0015819692
-0.022516875 0.037555341 0.0045622718 0.35291064 0.88248122 0.31093562 0.0016560635
-0.019869901 0.036735903 0.0040789223 0.29825345 0.90265107 0.31026754 0.0018914061
-0.017720819 0.03626737 0.0034867874 0.25452414 0.92436534 0.28419396 0.0017046664
0.02609127 0.036187999 0.0039467872 -0.28280807 0.90418935 0.3200956 0.0019756367
0.028575649 0.036721006 0.0046474319 -0.28841919 0.88999647 0.35315812 0.0017579279
0.031417087 0.037701018 0.0047630453 -0.3584713 0.87056905 0.33705753 0.0017457533
0.033732593 0.038700111 0.0048130024 -0.39748284 0.84546191 0.3566533 0.0012788426
0.070381276 0.037501957 0.0045762062 0.88004208 -0.24964713 0.40398303 0.0028672728
-0.033194453 0.041854199 0.0057286588 0.42533135 0.84527797 0.3234168 0.0021597471
-0.031339992 0.0413257 0.0047746659 0.43495983 0.85382617 0.28599104 0.0017552575
-0.028553931 0.040058542 0.0045999703 0.3833437 0.87395769 0.29874018 0.0019339914
-0.026442356 0.039466348 0.0038309006 0.36455378 0.88142121 0.30032876 0.0015158594
0.035102189 0.03947825 0.0044513987 -0.41331545 0.82969207 0.37520847 0.0014207026
0.037369572 0.04048872 0.0049158195 -0.45220822 0.79596025 0.40243626 0.0010299091
0.039671823 0.041634645 0.0055045164 -0.46236926 0.75704199 0.46162987 0.0011749207
0.071060523 0.040490359 0.0046252157 0.90211809 -0.15976909 0.40082008 0.0027014259
-0.070357643 0.043030463 0.0055190539 -0.73059994 -0.14668946 0.66686273 0.0014161987
-0.039251849 0.044824511 0.0058289766 0.4388018 0.81827623 0.37131804 0.0034659863
-0.03714877 0.044224333 0.0048257173 0.44515562 0.84542674 0.2951104 0.0016511822
-0.034604132 0.043052573 0.0045499019 0.42738757 0.85259879 0.30069128 0.0017305625
-0.032234784 0.042232741 0.0034258086 0.43827611 0.86890984 0.23002115 0.0026254908
0.040584706 0.042648844 0.0043618772 -0.46898007 0.78137475 0.41171736 0.00055222295
0.043256737 0.044267856 0.0045610098 -0.47169721 0.7645219 0.43932676 0.00083306502
0.071403563 0.043491218 0.0047453232 0.89260679 -0.064436831 0.4462074 0.0027797527
0.072106354 0.04396667 0.0031354518 0.9499619 -0.07940758 0.30210394 0.0028622393
-0.07297942 0.047962759 0.0034346941 -0.74986893 -0.16794525 0.63991481 0.0012393969
-0.07131651 0.046090499 0.0053509437 -0.72851801 -0.14630507 0.66922075 0.0018976815
-0.045063898 0.047973469 0.0058391918 0.47070464 0.78894353 0.3949751 0.0031710125
-0.043031316 0.047301766 0.005008793 0.45422801 0.82618272 0.3333151 0.0021104796
-0.040587816 0.04617627 0.004511165 0.45584717 0.82992452 0.32160327 0.001939611
-0.038471468 0.045278769 0.0038729056 0.45935202 0.84790802 0.26466531 0.0028607252
0.044650406 0.045588948 0.0035395725 -0.48413965 0.77039003 0.414859 0.00044960019
0.046508197 0.046254925 0.004804682 -0.47749206 0.75445294 0.45033559 0.0011964822
0.049135767 0.047624178 0.0055061844 -0.46593094 0.74803245 0.47260526 0.0016952709
0.071389206 0.046518281 0.0049158228 0.88003415 -0.0061552222 0.47487062 0.003151603
0.072137557 0.046485435 0.0033104084 0.9289661 -0.024380563 0.36936092 0.0030719836
-0.072729044 0.050448108 0.0048966617 -0.71056402 -0.1313087 0.69127196 0.0041404078
-0.071777426 0.048881844 0.0055557326 -0.67382282 -0.10664118 0.731157 0.0066627096
-0.048849408 0.050369341 0.0051876265 0.42912954 0.81716442 0.38482466 0.0031841062
-0.046492055 0.049399376 0.0045202579 0.45380226 0.82029766 0.34810224 0.0021606602
-0.044070512 0.048282325 0.0040456429 0.45277855 0.83227187 0.31986743 0.0017628971
0.050428066 0.04875065 0.0048393933 -0.47366473 0.7510199 0.46001184 0.0017341682
0.052651182 0.050059497 0.0050237766 -0.45439076 0.74609458 0.48669484 0.0019187172
0.07135535 0.049435008 0.0049374769 0.8602559 0.023075551 0.50934011 0.0036915641
0.072179236 0.049586874 0.003373812 0.9166826 -0.0098512368 0.39949456 0.0038129108
-0.073073827 0.052784555 0.0051055728 -0.59586054 -0.047805712 0.80166382 0.0090927714
-0.05756053 0.053816166 0.0056823455 0.27409527 0.791462 0.5463146 0.0051944852
-0.055074167 0.053410117 0.0049112812 0.31726441 0.84285337 0.43467402 0.0039581303
-0.052407835 0.052492648 0.0045120232 0.37979373 0.83094209 0.40656105 0.0023610571
-0.049949009 0.051394049 0.0041532549 0.42724901 0.82907194 0.36069095 0.0020614865
0.053795237 0.051261272 0.004180098 -0.44878319 0.76111889 0.46828604 0.0015380897
0.055798978 0.052070603 0.0048798164 -0.4476029 0.74160784 0.49966934 0.0030777475
0.058336429 0.053327009 0.0053016208 -0.42208117 0.71172667 0.56150931 0.0045909351
0.071226723 0.052479897 0.0049795746 0.82588273 0.063024595 0.56030858 0.0055083632
0.072211683 0.052501634 0.0033471214 0.87014645 0.015461834 0.49255061 0.0047661494
-0.075180151 0.055479635 0.003649459 -0.53486764 0.0015350396 0.84493446 0.021661721
-0.073027946 0.055912137 0.0054077674 -0.29781005 0.29069147 0.9092896 0.014510884
-0.071406536 0.056810994 0.0058713197 -0.12646526 0.42149204 0.8979705 0.013911432
-0.06647829 0.056863304 0.0059254714 0.12947281 0.62097055 0.77306676 0.0075804703
-0.064178325 0.056486726 0.0054302979 0.27218843 0.69529015 0.66519552 0.0067476821
-0.061503947 0.055895466 0.0046975301 0.31907886 0.7828508 0.53416604 0.0075598392
-0.058590773 0.054893881 0.0044428827 0.27939448 0.83040583 0.48204252 0.0040311678
-0.056227464 0.054170009 0.0042223609 0.32107401 0.85771579 0.40154091 0.0022515608
0.059359729 0.054742076 0.004203802 -0.46410564 0.68386042 0.56297493 0.0031757883
0.061662689 0.055620234 0.0050213472 -0.41639012 0.64232743 0.64345533 0.0045986418
0.063768476 0.056483418 0.0055777966 -0.31120455 0.56785083 0.76203483 0.011756671
0.070842244 0.055570651 0.0049720164 0.65658051 0.12269036 0.74421036 0.01670056
0.072174609 0.055397857 0.0033458874 0.81979793 0.033721436 0.57165921 0.0068262652
-0.072637811 0.057789944 0.0051168483 -0.21287036 0.48248202 0.84964544 0.026844809
-0.070354104 0.058430921 0.0052651335 -0.0051010759 0.56857061 0.82261872 0.014623399
-0.067466043 0.058512643 0.0047646724 0.21955666 0.67808372 0.70142525 0.0066919182
-0.064634949 0.057962313 0.0040756012 0.38309264 0.73163366 0.5638724 0.0063238516
-0.062638104 0.057358816 0.0032831347 0.46078238 0.75883114 0.46027696 0.0085782446
0.062659144 0.057428036 0.0039468408 -0.39612553 0.54052383 0.74223888 0.005579337
0.065149836 0.058162902 0.0051234365 -0.14813855 0.41791132 0.89632875 0.0079351366
0.067692608 0.05874078 0.0054906379 0.065189689 0.33768511 0.938999 0.011288763
0.070621543 0.058501188 0.0045805112 0.57180637 0.13848601 0.80861557 0.018876469
0.072153516 0.058374051 0.0032331105 0.88250393 0.025833288 0.46959504 0.023231933
-0.069582596 0.060221594 0.0033953812 0.065273896 0.8093397 0.58370245 0.026497265
-0.067945197 0.060124893 0.0033609041 0.26801294 0.79617727 0.54246736 0.017346706
0.065414511 0.061333679 0.0036401488 -0.35093519 0.31595081 0.88148713 0.0082215033
0.067724496 0.061518345 0.004553094 0.041190576 0.23954029 0.97001225 0.015420168
0.070565738 0.061513405 0.0040324498 0.38609183 0.13284133 0.91284519 0.018552566
0.072177276 0.061406087 0.0031592392 0.72302854 0.007597812 0.69077641 0.026472509
0.065748937 0.063459091 0.0030642757 -0.096608013 0.21956567 0.97080272 0.0093456367
0.067919366 0.064449817 0.0037817003 -0.076655477 0.1645129 0.98339176 0.011247739
0.070477478 0.064497031 0.0036579364 0.24209242 0.072688825 0.9675265 0.018707164
0.07223542 0.064633749 0.0032154613 0.48203975 -0.032179415 0.8755582 0.023444153
0.068229295 0.067395829 0.0032875463 -0.14757088 0.090030156 0.98494542 0.0088246185
0.07055486 0.067452818 0.0035070528 0.032089405 0.040383715 0.99866885 0.020565115
0.072685152 0.067629963 0.00334072 0.51128083 -0.11289378 0.85196644 0.028161427
0.068620794 0.06944266 0.0030504491 -0.18047598 0.0066528926 0.98355687 0.015559528
0.070626177 0.070434578 0.0036995334 -0.041974641 -0.055558588 0.99757272 0.030511908
0.073334031 0.070606552 0.0036767477 0.38649529 -0.25496191 0.88634974 0.027567318
0.075161524 0.071921617 0.003027407 0.77971435 -0.2665258 0.56657708 0.036101889
0.068873413 0.074229747 0.0031798363 -0.47580495 0.038952146 0.87868792 0.019917041
0.070907183 0.073502831 0.0044229687 -0.19381425 -0.050457563 0.97973973 0.046230301
0.073621541 0.073481999 0.0044352971 0.3871516 -0.097147129 0.91688389 0.048710268
0.075447641 0.073798925 0.0035040907 0.60389483 -0.13391042 0.78573465 0.056155611
0.06893827 0.075793937 0.0034663924 -0.4072248 0.037368804 0.9125632 0.026429275
0.070894785 0.075825095 0.0045403061 -0.13085856 0.10596064 0.9857223 0.056416925
0.073330119 0.075432599 0.0045639938 0.28557006 0.25344926 0.9242366 0.060253024
0.075158894 0.075059503 0.0036454492 0.45056167 -0.027960738 0.89230734 0.060041137
-0.012793268 0.0028658963 0.0062482925 -0.15339595 -0.89745086 0.41358396 0.0015851939
-0.010383064 0.002660048 0.0065902695 -0.12375787 -0.87129557 0.47489795 0.0012339299
-0.0072325813 0.00248157 0.0069617527 -0.081124596 -0.89360237 0.44146758 0.0015482749
-0.0045133252 0.002376362 0.0071525453 -0.046901029 -0.86880344 0.49293095 0.0014737154
-0.0014964693 0.0023035593 0.0072157364 -0.011427567 -0.87017232 0.49261495 0.0018209668
0.0015175586 0.002322197 0.0072489912 0.015195571 -0.87191653 0.48941866 0.0020316513
0.0044858321 0.0024780238 0.0073512308 0.042262606 -0.84495288 0.53316832 0.0012989026
0.0074632801 0.0025799307 0.0071428642 0.069290027 -0.8554194 0.51328015 0.0012734031
0.010406222 0.0026008203 0.0068094665 0.082029104 -0.8595084 0.50449634 0.00078276941
0.012892044 0.0025829128 0.0061886944 0.10293094 -0.84918499 0.51796728 0.00089193828
0.016618125 0.0028525975 0.0061299279 0.11501706 -0.84569031 0.52113235 0.00077746407
-0.022187755 0.005493586 0.0070118895 -0.25450128 -0.84901375 0.46303865 0.001224275
-0.019515101 0.0050816583 0.0077143777 -0.22201401 -0.85007578 0.47757828 0.00093433412
-0.016468734 0.0043333545 0.0076986011 -0.18015967 -0.85219896 0.49122238 0.0010895681
-0.013536701 0.0038572899 0.0078801801 -0.15062034 -0.84825814 0.50771213 0.0011527
-0.010676628 0.0035716477 0.0082080951 -0.11386602 -0.84639758 0.52023613 0.0011450666
-0.0077308221 0.0033866144 0.0084805153 -0.079042315 -0.8437596 0.53086919 0.0014687255
-0.0046971822 0.0032424 0.0086189155 -0.039915107 -0.83949053 0.54190624 0.0015595832
-0.0012058725 0.0032313433 0.0087387934 -0.012837056 -0.81614012 0.57771152 0.0011427477
0.0014704876 0.0032692831 0.0088421609 0.011186199 -0.82204729 0.56930935 0.0018571483
0.0045185634 0.0033134255 0.0087895356 0.052246768 -0.83427036 0.54887456 0.001781704
0.0077503766 0.0032817733 0.0082444614 0.06874273 -0.81511438 0.57520694 0.0010275143
0.010772404 0.0034153906 0.0080972612 0.092174061 -0.82526201 0.55717731 0.00089577277
0.013473194 0.0036392056 0.0078148963 0.11343019 -0.82699835 0.55064267 0.00060397072
0.016683571 0.0040065441 0.0076955184 0.12470731 -0.82242405 0.5550375 0.00060595007
0.019583415 0.0043937825 0.0075695277 0.14992708 -0.80671555 0.57160467 0.00093482225
0.022536462 0.0049038846 0.0075250729 0.16307643 -0.79310787 0.58684403 0.0011701687
0.025421195 0.00522483 0.0071665812 0.19084507 -0.80318326 0.56433564 0.0022681609
0.028158121 0.005599495 0.0066974065 0.22741131 -0.81205457 0.53744906 0.0023296773
0.030300321 0.0058778361 0.0062538241 0.27675459 -0.81305325 0.5122025 0.0054102107
-0.031061625 0.0085407235 0.0072428887 -0.3035064 -0.8376978 0.45403334 0.0010228297
-0.028347274 0.0079080872 0.0078753466 -0.28300354 -0.84278744 0.45784095 0.00089616643
-0.025471766 0.0068385582 0.0076387171 -0.26547095 -0.84669882 0.46111414 0.0010942511
-0.022808783 0.0064030318 0.0083146133 -0.25098494 -0.83825564 0.48408064 0.0012207561
-0.020815447 0.0063022207 0.0089853471 -0.22199424 -0.79075706 0.57045764 0.00059880776
0.022989327 0.0061333594 0.0088971918 0.16195288 -0.74887371 0.64261913 0.00032862253
0.02569443 0.0064325868 0.0085563241 0.1799936 -0.72841769 0.66106725 0.00038695088
0.028710812 0.0067562177 0.0080701159 0.2041332 -0.7745024 0.5987283 0.0029363602
0.031586822 0.0072915391 0.0077028237 0.23951992 -0.78987783 0.56455576 0.0025964237
0.034328584 0.0080205398 0.0074028182 0.2672711 -0.79473537 0.54494214 0.002988996
0.036886726 0.0086238179 0.0069438904 0.32079273 -0.80468333 0.49957663 0.003017334
-0.037221462 0.011288675 0.0076793586 -0.37264419 -0.80773526 0.45683703 0.00095761666
-0.034565967 0.010268003 0.0079682563 -0.34219775 -0.82186615 0.4554522 0.00084906816
-0.031560019 0.0093903514 0.0084383748 -0.30589435 -0.82511109 0.47499499 0.0011895939
0.035296194 0.0092138601 0.0085905781 0.25580269 -0.70634329 0.66003346 0.0023127976
0.037852425 0.0097412597 0.0080354502 0.314798 -0.77354199 0.5500319 0.0031778023
0.040431365 0.010531157 0.0075279251 0.33810893 -0.79712641 0.50027162 0.0027871185
0.043184724 0.011384864 0.0068852636 0.38674664 -0.78538728 0.48331544 0.0022641707
0.045152534 0.011940265 0.0062008006 0.43015969 -0.78467506 0.44637179 0.0029139733
-0.043504041 0.014352955 0.0072983727 -0.45947513 -0.7695806 0.44342798 0.00095097855
-0.040374383 0.012991307 0.0080342758 -0.40847516 -0.79159105 0.45445758 0.00079151127
-0.037790492 0.012253651 0.008805152 -0.37763968 -0.8021192 0.46259385 0.00091800507
0.041540541 0.012057614 0.0088970959 0.33056474 -0.70615119 0.6261608 0.002895555
0.043862972 0.012575477 0.0082309181 0.36780742 -0.76450729 0.52938294 0.0028868008
0.046517868 0.013590294 0.0075437208 0.40731809 -0.75687844 0.51110369 0.002114258
0.048970684 0.014550094 0.0068807639 0.4589774 -0.75522023 0.46795526 0.0018152975
-0.048954502 0.017637691 0.0069170473 -0.51661754 -0.73747176 0.4350192 0.00084640377
-0.045665324 0.016446002 0.0085543217 -0.45995098 -0.72839224 0.50782853 0.00081161736
-0.044500709 0.015592285 0.0083819255 -0.45104638 -0.75175381 0.48106489 0.00096125272
0.047769107 0.015314784 0.0089354757 0.38890553 -0.69045275 0.60994059 0.0035456305
0.049915817 0.015857827 0.0079729892 0.45552477 -0.73521322 0.50195497 0.002345236
0.052218486 0.016961478 0.0073012565 0.51058775 -0.70229077 0.49607232 0.002545831
0.054268852 0.017707143 0.0063240603 0.52802396 -0.7178427 0.45375395 0.0016639603
-0.052265972 0.020103266 0.0069790906 -0.53762329 -0.70633239 0.46049526 0.00085126003
-0.049883481 0.019151861 0.0083488422 -0.51649749 -0.71711457 0.46794981 0.0012500655
-0.047892008 0.018190049 0.0089867087 -0.48693624 -0.72379905 0.48888442 0.00086990214
0.053325165 0.018469946 0.0082861325 0.49970508 -0.68063015 0.53575867 0.0019102682
0.055518318 0.019507689 0.0075319442 0.52235687 -0.69853979 0.48906592 0.0018961349
0.057579603 0.020423478 0.0065745008 0.57520086 -0.6628533 0.47934273 0.0018553234
-0.057193466 0.023565132 0.0061495663 -0.59681219 -0.65172553 0.46804821 0.00059376948
-0.055186205 0.023096234 0.0080786347 -0.56159681 -0.65740693 0.50241929 0.0012252408
-0.053190667 0.021616379 0.0084143579 -0.54086822 -0.69698673 0.47081956 0.0011652842
0.056714717 0.021443123 0.0087183556 0.52835709 -0.59333146 0.60728621 0.0027713792
0.058638554 0.022277601 0.0076712626 0.58068293 -0.6405943 0.50244027 0.0019890291
0.060628235 0.023367213 0.0067258137 0.62127107 -0.60618657 0.49654821 0.0017148255
-0.058184426 0.026084857 0.0085079074 -0.59699786 -0.60675925 0.52482069 0.0016571446
-0.056339588 0.024595357 0.0088068498 -0.56592041 -0.65947324 0.49480221 0.0012250489
0.059750278 0.024256548 0.0086634122 0.58793157 -0.56923789 0.5747214 0.0018070821
0.061634112 0.025375808 0.0076845307 0.63843352 -0.53544945 0.55289841 0.003398895
0.063471235 0.026446784 0.0066062994 0.67218578 -0.53382021 0.51303232 0.0014153126
-0.061464615 0.028705504 0.007140513 -0.65798342 -0.51816469 0.54640937 0.00055604539
-0.059808146 0.027579285 0.0081074145 -0.64369935 -0.5633021 0.51801729 0.0014727486
0.0018621357 0.029997276 0.0089826286 0.039444506 0.78686231 0.61586672 0.0014186482
0.0058582085 0.029952483 0.0089666173 0.018836346 0.77986145 0.62566876 0.0011270221
0.06261047 0.027470147 0.0085913548 0.63657326 -0.48139328 0.60252386 0.0018780067
0.064364843 0.028629856 0.007445266 0.69585615 -0.44807476 0.5612604 0.0022749116
0.066158056 0.029742153 0.0061404756 0.72888088 -0.47067493 0.49718997 0.0028459914
-0.06359297 0.032345377 0.0079139136 -0.68820477 -0.44656751 0.57179695 0.0010678385
-0.062268421 0.030752888 0.008261607 -0.66431856 -0.46540892 0.58487213 0.0012391516
-0.0150243 0.032941457 0.008953535 0.27802044 0.80820715 0.51913959 0.0027462312
-0.012946405 0.032747444 0.008421422 0.22511809 0.84755266 0.48059997 0.0016248407
-0.010293302 0.032403562 0.007852708 0.19353072 0.85769767 0.47634089 0.0013778341
-0.0075161704 0.031900667 0.0076848008 0.15563361 0.86003047 0.4859277 0.0019548205
-0.0043953867 0.03147025 0.0075654783 0.12107939 0.8620612 0.49212828 0.0023377694
-0.0013594675 0.030944826 0.0079082772 0.084589265 0.86382836 0.49663389 0.0023265807
0.0012171144 0.030886224 0.0075819306 0.054788262 0.86826986 0.49305752 0.0023892848
0.0042203451 0.030619016 0.0079026623 0.016415849 0.83318597 0.55274928 0.0016914149
0.0075410386 0.030635111 0.0079192119 -0.029392235 0.82447588 0.56513327 0.0015375676
0.010560659 0.030843789 0.0079301642 -0.085883699 0.82315332 0.56128651 0.0016379947
0.012944918 0.031126305 0.0078709573 -0.11263597 0.82477438 0.55413032 0.0022759943
0.016402133 0.031772658 0.0077335527 -0.18112393 0.85029513 0.49415818 0.0018446681
0.019289657 0.032272428 0.0080476943 -0.21410637 0.82756603 0.51893443 0.0018268125
0.022082221 0.032588668 0.0086639486 -0.22942793 0.78805655 0.57125264 0.0016055314
0.065318801 0.031140538 0.0082298629 0.68793142 -0.35877544 0.63089657 0.0018202352
0.066702336 0.031792905 0.0069212676 0.733329 -0.40857726 0.54340881 0.0023263807
-0.06653519 0.035142187 0.0061978865 -0.72226483 -0.36989447 0.58438993 0.0021418319
-0.064487465 0.034353506 0.0083516538 -0.69617546 -0.40474689 0.59289098 0.0011907789
-0.021985836 0.035591539 0.0084643699 0.31615952 0.8263014 0.46612138 0.0010695594
-0.019516453 0.035094712 0.0076526999 0.29121691 0.84841543 0.44202256 0.00085095019
-0.016492626 0.034110919 0.0076756873 0.25323057 0.85112637 0.45984572 0.0012385714
-0.01374404 0.03358819 0.0071228971 0.23225832 0.85811913 0.4579165 0.0014900089
-0.011328709 0.0332992 0.0063897702 0.19226877 0.88623917 0.42144144 0.0010231507
0.019872151 0.033271208 0.0066113677 -0.22286099 0.87053651 0.43874729 0.0016715699
0.022626411 0.033631153 0.0073556248 -0.23741543 0.83705401 0.49292442 0.0020875691
0.025518984 0.034331538 0.0075946255 -0.26054156 0.83983254 0.47623456 0.0022692275
0.028346546 0.035089113 0.0078838989 -0.29124433 0.82729322 0.48037764 0.0017772081
0.03106489 0.035595849 0.0085713379 -0.30386323 0.77076459 0.55999029 0.0021092952
0.065829515 0.03321572 0.008814794 0.681633 -0.32865477 0.65372968 0.0017075633
0.067488573 0.034502234 0.0075504682 0.74665749 -0.29354164 0.59693879 0.0017896983
0.069053888 0.035879686 0.006180658 0.7726891 -0.31215563 0.55273002 0.0035535442
-0.066878252 0.037897062 0.0076355962 -0.69560468 -0.29298899 0.65596622 0.0017986731
-0.065772295 0.036953643 0.0084267994 -0.6837582 -0.29495463 0.66744024 0.002057028
-0.030256093 0.038851619 0.0087853353 0.37207407 0.76907295 0.51969969 0.0021952111
-0.02819158 0.038453888 0.0078534326 0.37270832 0.82232022 0.42997441 0.00095021044
-0.025506074 0.037406471 0.007615889 0.33837312 0.82988447 0.44361615 0.0013896754
-0.022868685 0.03661114 0.0070362226 0.32504794 0.83973825 0.43495238 0.00097480259
-0.020688724 0.036094204 0.0063632145 0.30789819 0.86693949 0.39193708 0.0021900912
0.029181445 0.036117855 0.0066886996 -0.29932305 0.83999264 0.45256829 0.0016222816
0.031629492 0.036592394 0.0073532243 -0.31833529 0.81684071 0.48107573 0.0024817639
0.03459413 0.03764201 0.0077519412 -0.37622505 0.77926153 0.50120473 0.0032978137
0.0370818 0.038491964 0.0082565527 -0.39641017 0.7453413 0.53602737 0.0036828334
0.068129823 0.037358116 0.0080268634 0.76097709 -0.20789042 0.61456925 0.0024259591
0.069356918 0.037694637 0.0065619336 0.80559349 -0.23193061 0.54518563 0.0018720549
-0.069000758 0.040714808 0.0063984757 -0.71800411 -0.21183547 0.66302025 0.00053476723
-0.067586318 0.040415283 0.0079016509 -0.69671357 -0.21295489 0.68501133 0.00077086792
-0.036511432 0.041908003 0.0087479372 0.38189712 0.77874041 0.49771279 0.0010518031
-0.034107227 0.041256458 0.0078695482 0.39667398 0.80314803 0.44452566 0.0011860084
-0.031591948 0.040198188 0.0075062332 0.385741 0.81068766 0.44044229 0.0011592143
-0.029408151 0.039567959 0.0066173482 0.37969893 0.83331513 0.4017643 0.00076605048
0.037982859 0.039733876 0.0071686348 -0.43501389 0.76196212 0.47976732 0.0021354367
0.040278859 0.040685687 0.007748411 -0.44763687 0.75722581 0.47563675 0.0018880999
0.042673681 0.041633278 0.0084615452 -0.44416058 0.69700038 0.56294918 0.0031754058
0.068471223 0.040362064 0.0084174946 0.73244238 -0.11197273 0.67155814 0.0025137418
0.06971053 0.040586527 0.0069772769 0.79858863 -0.13403207 0.58676362 0.0023711142
-0.069750212 0.043752704 0.00659745 -0.68149304 -0.13163424 0.71988869 0.0029181687
-0.06814006 0.043685272 0.008272212 -0.68473989 -0.12710512 0.71761799 0.002964708
-0.04253938 0.044851281 0.0087531572 0.38997164 0.74886751 0.53583533 0.0011482334
-0.040150002 0.044205751 0.0080218827 0.39685032 0.78115314 0.481985 0.0018879849
-0.037526023 0.043156926 0.0075428854 0.3913289 0.79676747 0.46045986 0.0015477189
-0.035272811 0.042371571 0.0068575838 0.41251197 0.80527937 0.42586285 0.0010232242
0.041343603 0.042192481 0.0064504948 -0.45568398 0.75969833 0.46390793 0.0012891089
0.043689087 0.043075971 0.0072734812 -0.44675046 0.72869784 0.51905054 0.0024494396
0.046232685 0.044083893 0.0080292337 -0.41339275 0.72147942 0.55549425 0.002644296
0.048178747 0.044640299 0.008727992 -0.40841508 0.68501729 0.60328144 0.0049605826
0.068562709 0.043488223 0.0086364532 0.63734406 -0.017924387 0.7703709 0.0034080509
0.06986779 0.043571413 0.0071904347 0.78788638 -0.043835755 0.61425853 0.0026347165
-0.070024177 0.046778303 0.0069603226 -0.65132052 -0.093450181 0.75302637 0.0040003024
-0.068090804 0.046445262 0.0085293306 -0.57952327 -0.022124104 0.8146553 0.0032499258
-0.048449434 0.047881499 0.0087539991 0.33768171 0.72969079 0.59457755 0.00088970677
-0.046257585 0.047289908 0.0080668591 0.36808223 0.75200593 0.54681134 0.0017221571
-0.043584313 0.046316858 0.0075050057 0.38500622 0.77640957 0.49895737 0.0015059621
-0.041135196 0.045416966 0.0068459925 0.42435676 0.784841 0.45160371 0.0015840431
0.047168411 0.045583218 0.006756309 -0.46443209 0.73204839 0.49840549 0.002947812
0.049619757 0.046319339 0.0077328347 -0.40389362 0.7012431 0.58747602 0.002231424
0.052202694 0.047377594 0.0082288245 -0.39366758 0.69236684 0.60469329 0.0018525218
0.0542855 0.047877643 0.0089175664 -0.34263551 0.606071 0.71782929 0.0032403846
0.068467595 0.046697665 0.0086002043 0.58471447 0.083476953 0.80693281 0.0045072832
0.069853239 0.046423156 0.0071994313 0.75305802 0.039988186 0.6567378 0.0038236259
-0.070253477 0.049711917 0.0070294258 -0.58206642 0.005797151 0.8131206 0.0067477208
-0.067525066 0.050217807 0.0086298538 -0.22941156 0.31484348 0.92100155 0.0046864464
-0.054681093 0.050517246 0.0087892702 0.21835335 0.68309706 0.69692183 0.0016795829
-0.052201312 0.050175648 0.0080300225 0.30869314 0.73992097 0.59768331 0.0022684699
-0.049610425 0.049386829 0.0074710161 0.35426837 0.77053088 0.52988303 0.0017974908
-0.047046799 0.048603844 0.0067898487 0.39772481 0.77478725 0.49144661 0.0013529059
