# .PCD v0.7 - Point Cloud Data file format
VERSION 0.7
FIELDS x y z normal_x normal_y normal_z curvature
SIZE 4 4 4 4 4 4 4
TYPE F F F F F F F
COUNT 1 1 1 1 1 1 1
WIDTH 550
HEIGHT 1
VIEWPOINT 0 0 0 1 0 0 0
POINTS 550
DATA ascii
0.043888565 -0.052232429 -0.010584285 0.75072443 0.65775526 -0.061407447 0.0020623237
0.045161907 -0.053752672 -0.01026288 0.80412054 0.59444159 -0.0054171425 0.0048475228
-0.05213058 -0.049326554 -0.010909889 -0.34030098 0.36442658 -0.86682665 0.059513338
-0.049987879 -0.049175534 -0.010615061 0.25162619 0.24169564 -0.93715924 0.070852108
-0.045256674 -0.049457815 -0.0091196075 -0.18356083 0.13203414 -0.97410089 0.021390073
-0.043229342 -0.049412321 -0.0093235355 -0.14986111 0.16305214 -0.97516954 0.016374495
-0.04070317 -0.049355611 -0.0095943324 -0.19743305 0.16936567 -0.96557516 0.013083484
-0.037552107 -0.049428489 -0.010444378 -0.040358678 0.10736117 -0.99340063 0.012793903
-0.034406338 -0.049340397 -0.0099339494 0.17915548 0.12484345 -0.97586751 0.0094689075
-0.031807002 -0.049605768 -0.0093555152 0.20828259 0.1188814 -0.97081697 0.0088221543
-0.029459307 -0.049896326 -0.0090926206 0.24733065 0.061666556 -0.96696681 0.013378621
-0.0037630727 -0.050618231 -0.0093566719 -0.42631713 0.43622422 -0.79244059 0.004960937
-0.0012842922 -0.049605206 -0.010166416 -0.39872673 0.52138752 -0.75443494 0.0030954569
0.001248793 -0.048913375 -0.011128325 -0.38537019 0.61912441 -0.68423301 0.0038609898
0.0035475164 -0.048172235 -0.011703448 -0.31274161 0.72342795 -0.61550355 0.0022226025
0.038701385 -0.048169143 -0.011605936 0.47269368 0.83905637 -0.26934215 0.004086161
0.040671147 -0.04915097 -0.010819947 0.56017327 0.80966663 -0.17505933 0.0026503033
0.04238946 -0.050659228 -0.010470717 0.67827767 0.72518659 -0.11850708 0.0037918666
-0.051922753 -0.047037166 -0.0099980477 -0.29106182 0.6023941 -0.74323905 0.053811811
-0.050015494 -0.046968631 -0.0098184431 0.065779313 0.68614614 -0.72448367 0.066446647
-0.043029193 -0.047504563 -0.0091306409 -0.16352347 0.49390841 -0.8539992 0.012531442
-0.040436186 -0.047387287 -0.0091898087 -0.21368317 0.4222362 -0.8809405 0.016168602
-0.037520688 -0.046607655 -0.0097507574 -0.06931138 0.42501098 -0.90253067 0.013773629
-0.034736641 -0.047049943 -0.0094308853 0.18962772 0.43335903 -0.88104558 0.010470627
-0.032390296 -0.047755826 -0.009168867 0.23962897 0.37414747 -0.8958748 0.01378044
-0.00053387927 -0.047924571 -0.0091608455 -0.36121434 0.64407396 -0.67430925 0.0034330613
0.0017629062 -0.047348402 -0.0097522829 -0.33122164 0.71290052 -0.61811411 0.0021110859
0.0045773103 -0.046823844 -0.010410171 -0.27883461 0.77154595 -0.57181126 0.001013578
0.0074631264 -0.046119489 -0.010557048 -0.19782016 0.81210631 -0.54895407 0.00014491062
0.010415029 -0.045681573 -0.010878051 -0.15688983 0.82660455 -0.54047245 0.00012138703
0.013384395 -0.045475386 -0.011314772 -0.11452395 0.83924538 -0.53155571 0.00012630004
0.016315222 -0.045297787 -0.011560481 -0.075293377 0.85028177 -0.52091449 0.00012724052
0.019081688 -0.04518716 -0.011695465 -0.036191463 0.85753012 -0.51315922 8.5911117e-05
0.02243443 -0.045156926 -0.01177403 0.0028162897 0.87179643 -0.48986036 0.00029822221
0.025789645 -0.045161776 -0.011692655 0.046752311 0.89894468 -0.43556014 0.0012120631
0.02864391 -0.045236468 -0.011346329 0.10451476 0.91889626 -0.38040298 0.0021093003
0.031633675 -0.045450121 -0.010547075 0.20845091 0.9351728 -0.28635642 0.0048449403
0.034512829 -0.046070293 -0.01046367 0.27226537 0.9374373 -0.21698569 0.0031388761
0.037278809 -0.047070563 -0.010656085 0.39848652 0.89756852 -0.18862471 0.0035977913
0.039175585 -0.047924891 -0.0099523198 0.4921585 0.85342073 -0.17161913 0.0040840963
0.0082366345 -0.044873971 -0.0091476329 -0.19125131 0.81487149 -0.54718137 0.00021990931
0.01084351 -0.044705436 -0.0094874315 -0.14424337 0.83340478 -0.53350759 0.00015080096
0.0136037 -0.044528931 -0.0098508429 -0.10144759 0.8475886 -0.52086657 0.00015219706
0.016565183 -0.044378646 -0.01007111 -0.060323503 0.85989624 -0.50689209 0.00021184917
0.019599855 -0.044285551 -0.010193295 -0.013845001 0.87508368 -0.48377356 0.00059395167
0.022528972 -0.044335231 -0.010331743 0.033329394 0.89345086 -0.44792259 0.0013605624
0.0254026 -0.044418357 -0.010205403 0.089237489 0.91402262 -0.39572635 0.0022485694
0.028307445 -0.044664323 -0.0099489475 0.15506163 0.93180269 -0.32817614 0.0025871648
0.03034728 -0.044845454 -0.009333998 0.2241578 0.95431328 -0.19758411 0.0026894226
-0.052390948 0.04748271 -0.009752728 -0.99097049 -0.10370043 -0.084992558 0.032424938
-0.05009912 0.047458149 -0.0099155521 0.29122171 -0.25306091 -0.92257798 0.060741249
-0.042577296 0.047758549 -0.0091096666 -0.13617118 -0.42124507 -0.89666605 0.0068829367
-0.039493959 0.046938479 -0.0093163373 -0.21469335 -0.5440343 -0.811131 0.018367017
-0.037715748 0.047236845 -0.0098991152 -0.021549417 -0.29187533 -0.95621353 0.015437398
-0.034230001 0.04721342 -0.0091791153 0.17424192 -0.26786113 -0.94757068 0.0068399832
-0.032515753 0.04729623 -0.0090293093 0.18957369 -0.14220288 -0.9715144 0.004451063
0.002068527 0.047753412 -0.010024044 -0.30851927 -0.71839637 -0.62347621 0.0019012386
0.0043198131 0.047105163 -0.010231399 -0.27415806 -0.76726091 -0.57978272 0.00090997055
0.0064933244 0.046775475 -0.010633788 -0.23111241 -0.79681599 -0.55827534 0.00016366158
-0.052163981 0.049641907 -0.010848687 -0.34779334 0.053801626 -0.93602622 0.031528756
-0.050090726 0.049565937 -0.010697069 0.1326067 -0.13267365 -0.98224902 0.1161438
-0.045501549 0.049930189 -0.0090498291 -0.19070092 -0.11278917 -0.97514707 0.010991708
-0.04339128 0.049929459 -0.0093324464 -0.16092514 -0.061305698 -0.98506075 0.0065236622
-0.040677741 0.049600463 -0.0095908744 -0.20020658 -0.095732704 -0.97506541 0.014583768
-0.037545279 0.049599621 -0.010414524 -0.027263219 -0.14450745 -0.98912805 0.018782578
-0.034492403 0.049561575 -0.0099338479 0.18057588 -0.11129679 -0.97724378 0.0057062693
-0.031804875 0.049837444 -0.0093589053 0.18876468 -0.14503708 -0.97125292 0.0074199326
-0.029621227 0.050324455 -0.0091365054 0.16207288 -0.060213309 -0.98493999 0.0053332425
-0.0036476639 0.050391763 -0.0092121391 -0.39851582 -0.42578489 -0.81233764 0.0067222985
-0.0013809883 0.049861621 -0.010099455 -0.3970409 -0.53193128 -0.74793565 0.0037535361
0.0009399578 0.049291808 -0.011004655 -0.38823232 -0.62471336 -0.67750198 0.0050560352
0.0034684718 0.048409507 -0.01154879 -0.30874985 -0.71304762 -0.62947339 0.0021482504
-0.052389443 0.052599605 -0.010565233 -0.15640219 0.64638865 -0.74680656 0.078234218
-0.050070234 0.052557793 -0.010464589 0.15972707 0.41328606 -0.89648312 0.066100672
-0.045427714 0.051324848 -0.0090127857 -0.15612896 0.16355067 -0.97410208 0.023344044
-0.042995345 0.052009743 -0.0092434473 -0.13746953 0.25888395 -0.95607591 0.012840712
-0.040497296 0.052421898 -0.0093968753 -0.1848122 0.24419986 -0.95195115 0.011262517
-0.03751605 0.052522276 -0.01022068 -0.086975805 0.20955122 -0.97392172 0.0098575335
-0.034438867 0.052502491 -0.0097493101 0.16483435 0.20293054 -0.96521962 0.0043442352
-0.03184206 0.052237738 -0.0092557482 0.1964573 0.16049552 -0.96728778 0.0037182027
-0.029506156 0.051469903 -0.0090851104 0.14982098 -0.019595625 -0.98851895 0.0065355315
-0.0063054897 0.053835109 -0.009137555 -0.33758047 -0.1160916 -0.9341104 0.0074882084
-0.0049827872 0.053214256 -0.0095302146 -0.43114358 -0.1642748 -0.88720292 0.0076592313
-0.0019561925 0.052391324 -0.011256824 -0.52785999 -0.35188118 -0.77300936 0.0060069403
0.043753441 0.052520983 -0.010234246 0.71284062 -0.69244808 -0.11123802 0.0050536962
-0.051781002 0.054450642 -0.0096417898 -0.091799147 0.77639759 -0.62352198 0.076281525
-0.050300896 0.054485817 -0.0095892213 0.11859709 0.79830837 -0.59045625 0.059260886
-0.039234672 0.055274375 -0.00934029 -0.18218006 0.64651394 -0.74083072 0.01180353
-0.037821833 0.054880667 -0.0095881363 -0.14007823 0.5865317 -0.79772097 0.012116615
-0.034863539 0.054507256 -0.0092392899 0.14981739 0.4445866 -0.88311809 0.0064594913
-0.032164145 0.05417151 -0.0090882108 0.21235043 0.39315522 -0.89461517 0.0044398005
-0.0063954666 0.05565365 -0.009172814 -0.48693463 0.020284234 -0.87320286 0.0053518419
-0.0047356347 0.055613179 -0.010073375 -0.46233994 0.014480995 -0.88658452 0.0063348915
-0.0026277739 0.055553246 -0.011728513 -0.63081449 -0.10317873 -0.76904309 0.0036365606
0.044968158 0.054097891 -0.011935933 0.78596324 -0.60255498 -0.13852537 0.00473043
0.046189543 0.055774499 -0.010873198 0.85865366 -0.51246643 0.0095929913 0.0036284302
-0.0060907584 0.057876751 -0.0091749933 -0.51254445 0.1561483 -0.84434354 0.0062427786
-0.0047886269 0.058217648 -0.0099056698 -0.57356542 0.16870682 -0.80159891 0.0068450626
-0.0026090047 0.058894277 -0.011736561 -0.67575037 0.11698321 -0.72778869 0.0032504338
0.047442533 0.058262855 -0.010498128 0.91072005 -0.39886239 0.10722789 0.0074766236
0.048187125 0.059891265 -0.011635457 0.95008606 -0.28432709 0.12843139 0.0049817604
-0.0037797049 0.061548833 -0.0098047154 -0.61766428 0.44618618 -0.64761776 0.0028625114
-0.0022442415 0.061600968 -0.011052229 -0.65186709 0.36029544 -0.66727543 0.0022315735
0.047975287 0.060414348 -0.0093338303 0.95534855 -0.18623154 0.22940584 0.0069845449
0.048453074 0.061472584 -0.010807845 0.97509497 -0.16971377 0.14278314 0.0029772364
-0.0031608362 0.063517272 -0.0092017734 -0.60433888 0.51095164 -0.61131239 0.00090829388
-0.0012295371 0.064454041 -0.010265135 -0.6236251 0.51272595 -0.59008795 0.0012117275
0.00064144813 0.06546618 -0.011346385 -0.61103159 0.55426383 -0.56518304 0.00092988258
0.04830239 0.064791426 -0.01029896 0.93019819 0.11975351 0.34697324 0.0028421292
-0.00021858781 0.066599473 -0.0093448143 -0.59337157 0.58176309 -0.55629295 0.00021381464
0.0016724529 0.067422442 -0.010362413 -0.58070612 0.60497576 -0.54477948 0.00034178825
0.0036311357 0.068283923 -0.011469234 -0.56757218 0.61717504 -0.54493749 0.00012886456
0.047598254 0.068177968 -0.0097497376 0.906021 0.2203262 0.36136171 0.0029435551
0.048386659 0.067611672 -0.010878781 0.95054132 0.15092932 0.27146193 0.0030640513
0.0025006749 0.06911052 -0.0093363645 -0.56469953 0.62770343 -0.53581983 0.00014130208
0.0046495725 0.070136726 -0.010289506 -0.54113692 0.64896989 -0.53479803 0.00012109629
0.0069382056 0.071340181 -0.011043907 -0.50499105 0.68500984 -0.52511466 0.00019453996
0.047041424 0.070676595 -0.010535875 0.87485492 0.40847751 0.26033649 0.0022786823
0.048147745 0.069308206 -0.011455862 0.91907835 0.31639665 0.23492159 0.0077384193
0.0079179881 0.072837114 -0.0099909091 -0.48621398 0.70279378 -0.51930416 0.0001523838
0.010347751 0.07388372 -0.010753854 -0.46480379 0.72626543 -0.50645429 0.00018113189
0.012786399 0.074780367 -0.011695318 -0.44273382 0.74059689 -0.50547314 0.00016386916
0.044711269 0.074540593 -0.010130283 0.75486583 0.62268555 0.20601033 0.0048635583
0.045784101 0.073161677 -0.010628982 0.81712765 0.5107922 0.26719597 0.0033505121
0.01135766 0.075386442 -0.0095601482 -0.44671199 0.75042158 -0.48715088 0.00054305606
0.013607214 0.076128416 -0.010419843 -0.43120953 0.76753312 -0.47429016 0.00052853039
0.016184272 0.077282213 -0.010810234 -0.40455294 0.80753899 -0.42920601 0.0015297374
0.018286217 0.077887259 -0.011463504 -0.38488024 0.81628942 -0.43074217 0.0019359386
0.041461643 0.077650443 -0.010522066 0.6082561 0.78974885 0.079506695 0.0033733058
0.043208029 0.076238036 -0.010586092 0.65383571 0.74494612 0.13249214 0.0048746499
0.017262653 0.078269817 -0.0098283188 -0.36572123 0.85347766 -0.37124646 0.0030854109
0.019582082 0.078925498 -0.010506653 -0.33993682 0.87849325 -0.335697 0.0020836669
0.022481399 0.079972677 -0.010508974 -0.2973496 0.92458618 -0.23816735 0.0026427228
0.024957368 0.080702044 -0.010764636 -0.25459605 0.94195259 -0.21887484 0.0036305476
0.027389061 0.080920979 -0.011901208 -0.095117941 0.94835955 -0.30260006 0.0036165796
0.032730892 0.080933183 -0.011737509 0.093782127 0.98272336 -0.15956125 0.0026129885
0.034855247 0.080697931 -0.010673058 0.24006948 0.9651624 -0.10405866 0.003426708
0.037501302 0.079844028 -0.010589533 0.34941998 0.93583608 -0.046007663 0.002649734
0.039918367 0.078717776 -0.010899312 0.43641588 0.89802635 -0.055585895 0.0029505042
0.026274333 0.081154734 -0.010231757 -0.19072753 0.96852875 -0.15992229 0.0035518615
0.028518455 0.081370085 -0.010569851 -0.064788714 0.98688197 -0.14787306 0.0026638098
0.031399701 0.081318744 -0.010536809 0.069476612 0.98860508 -0.13353997 0.0022594612
0.033466399 0.081108615 -0.0099467076 0.17572267 0.97920883 -0.10134913 0.0045074979
0.0019396752 -0.069730163 -0.0072427527 -0.5683797 -0.61119699 -0.55080205 8.7145709e-05
0.003213627 -0.069442905 -0.0089636855 -0.56798363 -0.61570913 -0.54616576 0.0001288951
-0.0010321762 -0.067133062 -0.0070468979 -0.58200359 -0.59993988 -0.54894799 0.00012398677
0.00037530423 -0.067019895 -0.0086308997 -0.5789631 -0.60354567 -0.54821026 0.00012136595
-0.0034430977 -0.064950742 -0.0067796446 -0.56461722 -0.57631594 -0.59081918 0.0010639575
-0.0022877324 -0.064799152 -0.0081720501 -0.6006096 -0.55310822 -0.57735568 0.0009502811
0.047831357 -0.063804194 -0.0081754681 0.94912773 0.021430427 0.31416133 0.0033666657
-0.0070200376 -0.06123222 -0.0069333469 -0.48080313 -0.47509778 -0.73696029 0.0060630748
-0.0046978388 -0.062380992 -0.0079128873 -0.56330228 -0.49458528 -0.66187304 0.0033414669
0.047542881 -0.061314669 -0.0075732153 0.94455421 0.17136618 0.28009102 0.0043361657
-0.023518153 -0.057048704 -0.0063854507 0.12893647 -0.28404781 -0.9501012 0.0020709063
-0.020058572 -0.057023242 -0.0062391609 0.026421048 -0.28928265 -0.95687902 0.0029903189
-0.016669804 -0.057259753 -0.0061948393 -0.043474842 -0.27248827 -0.96117646 0.0042860387
-0.012684003 -0.057958502 -0.0062334333 -0.1675985 -0.28374282 -0.94414026 0.0041688462
-0.010547386 -0.057732396 -0.0068787774 -0.30187058 -0.23910467 -0.92287761 0.0056112753
-0.0074872859 -0.05861802 -0.0080159735 -0.46906725 -0.3147341 -0.82517779 0.0087105902
-0.0057177395 -0.059404582 -0.0088122692 -0.60423654 -0.28638816 -0.74355912 0.0045189625
0.047013931 -0.058370899 -0.0075574396 0.91650897 0.27801269 0.28761134 0.0042904424
-0.051635358 -0.054624338 -0.0075671398 0.31161296 0.79815841 0.51559734 0.1063723
-0.048800599 -0.054010682 -0.0080784345 0.29894137 -0.22309287 -0.92782736 0.038923319
-0.039908119 -0.055713508 -0.0079277568 -0.13336742 -0.27201721 -0.95300567 0.010490039
-0.037626173 -0.054920916 -0.0089740437 -0.00020370021 -0.28510079 -0.95849758 0.0080644619
-0.03456163 -0.054587111 -0.0087010385 0.17372361 -0.21597606 -0.96081966 0.0037031402
-0.031765264 -0.055076856 -0.0079692639 0.16231887 -0.23846956 -0.95748889 0.0019717342
-0.028397474 -0.055253163 -0.007653838 0.1690187 -0.20257807 -0.96456975 0.0019038271
-0.025503224 -0.055190746 -0.0072471062 0.16466448 -0.18887913 -0.9680962 0.0033528164
-0.022387518 -0.055016227 -0.0069514816 0.10909417 -0.19297536 -0.97512001 0.0066605741
-0.019400056 -0.05536009 -0.0066085653 0.040763099 -0.2516723 -0.96695364 0.0027798368
-0.016432412 -0.055237863 -0.0066186767 -0.025184479 -0.21226691 -0.97688717 0.002210113
-0.013361974 -0.055376895 -0.0068392325 -0.13469575 -0.18080638 -0.97425151 0.0049021165
-0.010433168 -0.055469967 -0.0074262042 -0.30385959 -0.092453815 -0.94822025 0.0054833679
-0.0077287666 -0.055364873 -0.0083712069 -0.41074088 -0.028856292 -0.91129541 0.0037079412
0.044964977 -0.054342378 -0.0063308245 0.86700976 0.4164018 0.27368537 0.0062250905
0.045864187 -0.055445578 -0.0076111383 0.87951946 0.4166255 0.22993204 0.0046520694
-0.051918101 -0.052495308 -0.0074016652 -0.99632281 -0.030467387 -0.080079287 0.036766984
-0.048646484 -0.052665472 -0.0084790708 0.29892895 -0.22309789 -0.92783022 0.038924653
-0.046538837 -0.052192889 -0.0083745932 0.17722733 -0.1442463 -0.97354174 0.032155707
-0.044071056 -0.05220513 -0.0088525098 -0.12436783 -0.10655577 -0.98649806 0.0030518626
-0.04043432 -0.053605344 -0.008878693 -0.17041644 -0.26870844 -0.94802642 0.010264435
-0.03105453 -0.053091109 -0.0088223759 0.20689414 -0.15694593 -0.96569294 0.0025364251
-0.028511759 -0.052576058 -0.0084549095 0.20538487 -0.13862805 -0.96881336 0.0029332791
-0.025491774 -0.052494593 -0.0079062087 0.17193486 -0.070439696 -0.98258674 0.0066033038
-0.022521639 -0.052290902 -0.0074979011 0.13333297 -0.1267129 -0.98293751 0.0058418196
-0.019573363 -0.052362099 -0.0071214642 0.084166951 -0.038011976 -0.99572635 0.0057585351
-0.016469045 -0.052430332 -0.006956215 0.011075487 0.042570498 -0.99903214 0.0056716595
-0.013383292 -0.052424736 -0.0070624361 -0.079875857 0.08929912 -0.99279684 0.0056219511
-0.010388354 -0.052335754 -0.0074669952 -0.21708491 0.12597713 -0.96798962 0.0057264827
-0.0076056062 -0.052391618 -0.0082429834 -0.35110039 0.16746494 -0.92124045 0.0056993933
-0.0056965328 -0.051704824 -0.0088151777 -0.43025282 0.24981637 -0.86745274 0.0074869781
0.043900389 -0.05240706 -0.0074675572 0.781573 0.61473233 0.10605577 0.0025084433
0.045057926 -0.05380705 -0.0081038186 0.82889831 0.54370624 0.1315722 0.0049716462
-0.052100718 -0.049420428 -0.007438797 -0.98103225 0.16423889 -0.10296292 0.039145291
-0.048405908 -0.049808059 -0.0087696416 0.2917015 0.1177677 -0.9492318 0.051381238
-0.04672794 -0.049326178 -0.0086717391 0.14334066 0.04275516 -0.9887495 0.053827785
-0.044586934 -0.049075231 -0.0088476073 -0.1373852 0.20594908 -0.96887064 0.016399086
-0.030458387 -0.048618235 -0.0088983141 0.27851403 0.26714966 -0.9225297 0.013153013
-0.028244913 -0.049280927 -0.0085064508 0.24669436 0.15938762 -0.9558962 0.0076600723
-0.025497295 -0.049452998 -0.0079402886 0.18302801 0.19830142 -0.9629004 0.0081039928
-0.022512559 -0.049324453 -0.0073660468 0.14479014 0.22607373 -0.96328944 0.0080245854
-0.019493055 -0.049333133 -0.0068816757 0.10891344 0.22828172 -0.96748406 0.0062491903
-0.016554337 -0.049488861 -0.006632763 0.045001477 0.24631505 -0.96814454 0.0057764873
-0.013492262 -0.049487334 -0.0065646572 -0.037446264 0.28884763 -0.95664245 0.005836579
-0.010488645 -0.049459834 -0.0067727282 -0.12924594 0.34555569 -0.9294551 0.0057612215
-0.0074456967 -0.049468718 -0.0073627648 -0.23011351 0.39687103 -0.88856125 0.0064672283
-0.0045847003 -0.049198348 -0.0081774117 -0.31460091 0.47943938 -0.81924611 0.0069090272
-0.0022929767 -0.048372552 -0.0086446265 -0.35220367 0.63523453 -0.68733525 0.0038778749
0.040279005 -0.048622359 -0.0078117661 0.53483862 0.84492058 -0.0075415839 0.0051495447
0.042383898 -0.050584592 -0.0075778542 0.70487523 0.70131421 0.10634526 0.0047124792
-0.0517026 -0.045940436 -0.0078321742 -0.5144136 0.71953166 -0.4665328 0.050139774
-0.049398486 -0.045714751 -0.0078200148 0.11667581 0.83748412 -0.53386062 0.032668915
-0.046468258 -0.04628545 -0.0075721429 0.051153779 0.61192709 -0.78925818 0.039938591
-0.043537609 -0.046087906 -0.0077249361 -0.16289839 0.5556885 -0.81527561 0.015613962
-0.040902544 -0.046089299 -0.0080595426 -0.23752861 0.53646052 -0.80980879 0.010144049
-0.036852911 -0.045191526 -0.0086439596 -0.046520639 0.55542284 -0.83026582 0.013188459
-0.034238294 -0.045702085 -0.008421151 0.18280709 0.55624712 -0.81066066 0.0094076619
-0.031392388 -0.046232656 -0.0080548814 0.2101628 0.51373672 -0.83180892 0.0085008284
-0.028554268 -0.046335816 -0.0074011278 0.19796063 0.5417825 -0.81687415 0.011526406
-0.025600806 -0.046619345 -0.0068945833 0.16837956 0.50443745 -0.84687138 0.0072277375
-0.022618251 -0.047022026 -0.0065553738 0.1485406 0.49823773 -0.85422182 0.0061792517
-0.01983586 -0.047448926 -0.0062841517 0.12318969 0.49920955 -0.85767949 0.0049405694
-0.016440123 -0.047562305 -0.0061621536 0.073927402 0.51185524 -0.85588497 0.0043323445
-0.013357651 -0.047817204 -0.006135901 0.0036345825 0.52707726 -0.84980965 0.0040841545
-0.01034233 -0.047706977 -0.0061946884 -0.076986417 0.55138648 -0.83069009 0.0034382588
-0.00721141 -0.047525525 -0.0063475082 -0.15791707 0.59435362 -0.78854674 0.0033944275
-0.0042760251 -0.04710285 -0.0067803534 -0.2267528 0.64298737 -0.73153979 0.0038127722
-0.0013899197 -0.046628073 -0.0073469467 -0.26442271 0.68882048 -0.6749866 0.0022808269
0.0013697266 -0.04593619 -0.0077011678 -0.25739256 0.77049893 -0.58316416 0.00057115493
0.0042230138 -0.045483269 -0.0083507076 -0.23336992 0.79281825 -0.56300777 0.0002544428
0.0061958656 -0.045134477 -0.0086415429 -0.2051419 0.81044269 -0.54872525 0.00011598047
0.032445516 -0.045143336 -0.0076648863 0.29850197 0.95371062 -0.036504138 0.0026076934
0.034434669 -0.04577589 -0.0075351913 0.33827788 0.94103986 -0.0034817872 0.0033421344
0.037491068 -0.046935268 -0.0077246712 0.4171938 0.90818679 0.033854742 0.0033315548
0.039225098 -0.04792909 -0.0077245557 0.53509587 0.84332424 0.049765777 0.0057428447
-0.051337391 -0.044966936 -0.006378551 -0.26762772 0.91459835 -0.3031258 0.03809477
-0.049949296 -0.044918828 -0.0061975066 -0.027647473 0.90460312 -0.42535728 0.030014003
-0.047314052 -0.044915751 -0.0061803721 0.023071961 0.88112164 -0.47232652 0.0039651827
-0.042813607 -0.044919722 -0.0061783185 -0.2331852 0.75575417 -0.61193162 0.011331018
-0.039941777 -0.043949228 -0.0071041426 -0.19901921 0.75439805 -0.62551975 0.011996807
-0.037584212 -0.044119552 -0.0073511256 -0.016678359 0.80789453 -0.58909106 0.01197991
-0.034679934 -0.044327617 -0.0069762729 0.13508859 0.78937459 -0.59886467 0.0062812134
-0.031697597 -0.044606455 -0.0066249855 0.14245957 0.73116332 -0.66716218 0.0061100614
-0.02908805 -0.044743497 -0.0061513353 0.13560984 0.74207795 -0.65645283 0.0015600456
0.0022580405 -0.044773318 -0.0064939037 -0.24260423 0.78551906 -0.56930035 0.00017363337
0.0046605831 -0.044387367 -0.0069493344 -0.21922734 0.80448055 -0.55204201 0.00017760853
0.0075869169 -0.043970853 -0.0073889969 -0.17811279 0.82178831 -0.54123914 0.00018063626
0.010467183 -0.043512076 -0.0075146826 -0.13029756 0.83891243 -0.52843964 8.1898106e-05
0.01350268 -0.043117683 -0.007515748 -0.081422582 0.85691857 -0.50898021 0.00040887643
0.01651134 -0.042869009 -0.0074857958 -0.022680303 0.88292027 -0.46897486 0.0010023548
0.019469697 -0.042877682 -0.0075868736 0.043754004 0.90926981 -0.413901 0.0026708236
0.022468202 -0.043041337 -0.0074930815 0.10823691 0.9362641 -0.33420703 0.0035847346
0.025430772 -0.043479785 -0.0075491332 0.16581053 0.94821852 -0.27090326 0.0037820528
0.028467832 -0.044106893 -0.0076353247 0.20309488 0.96470433 -0.16762464 0.0039501167
0.030999564 -0.04471612 -0.0074319514 0.26143405 0.9611395 -0.088674486 0.0029759277
-0.036390424 -0.015505313 -0.0061815754 -0.42137375 -0.25143924 -0.87133378 0.018545372
-0.035194077 -0.01612391 -0.0061878809 -0.016976824 -0.15803285 -0.98728794 0.020398742
-0.036528531 -0.013054602 -0.0063924813 -0.21451072 -0.166485 -0.96242815 0.007370811
-0.034650251 -0.013596992 -0.0064569823 0.017010346 -0.18787751 -0.98204511 0.010478468
-0.032492734 -0.012730297 -0.0062194336 0.16529496 -0.18792596 -0.96817428 0.001138047
-0.036841936 -0.010207197 -0.0067105759 -0.26469097 -0.12645425 -0.95600629 0.0087029263
-0.034571372 -0.01053577 -0.0070426054 0.0037701353 -0.16676901 -0.9859888 0.012335692
-0.031618137 -0.01051533 -0.0064954851 0.21197265 -0.18928079 -0.95877022 0.00019349929
-0.029423032 -0.00968224 -0.0061125406 0.25349408 -0.18138935 -0.95017821 0.00011371104
-0.037049383 -0.0071404222 -0.006999623 -0.30115581 -0.091935068 -0.9491328 0.0099777933
-0.03441333 -0.0074480386 -0.0075554168 -0.06206068 -0.15132843 -0.9865334 0.016634354
-0.031467408 -0.0075233774 -0.0070291515 0.21427853 -0.15728024 -0.96402681 0.00042082666
-0.028808709 -0.0072914665 -0.0063618664 0.25651798 -0.1517971 -0.95454496 0.00010874288
-0.036840379 -0.0046931966 -0.0072790412 -0.38009384 -0.027603788 -0.92453593 0.021625228
-0.034563337 -0.0044021769 -0.0079513174 -0.12672651 -0.077913553 -0.98887306 0.02582348
-0.031593923 -0.0044746189 -0.0075053284 0.16278228 -0.11070787 -0.98043138 0.0058874711
-0.028562717 -0.004374315 -0.0066849357 0.26571664 -0.10503618 -0.95831209 0.00011176161
-0.026496923 -0.0038235309 -0.006146485 0.26858616 -0.10558987 -0.95745093 0.00010175598
-0.03739012 -0.0010385872 -0.0071231835 -0.42892095 0.00079674163 -0.90334165 0.020887723
-0.034500189 -0.0014206269 -0.0081671719 -0.136646 -0.018381083 -0.99044937 0.041957516
-0.031458788 -0.0015083961 -0.0077199452 0.2135454 -0.041314196 -0.9760592 0.00081057346
-0.02862652 -0.0014626344 -0.006945462 0.26071936 -0.043629333 -0.96442825 0.00020589148
-0.026183328 -0.001275684 -0.0062728021 0.26193485 -0.047592901 -0.96391135 0.00029024223
-0.037144504 0.0014741438 -0.0072751222 -0.44165078 -0.013343247 -0.89708781 0.021287531
-0.034562036 0.0014483596 -0.0081936438 -0.19001141 0.004445788 -0.98177177 0.039385442
-0.031496033 0.0014478966 -0.00774711 0.17674652 0.024913108 -0.98394108 0.0039627659
-0.028554076 0.0016094128 -0.0069464874 0.26053494 0.023825143 -0.96517044 0.00017540601
-0.026051093 0.0014024989 -0.0062788567 0.25836411 0.015828669 -0.96591794 0.00028039148
-0.03710337 0.0045180479 -0.0071932636 -0.36440238 0.090953618 -0.92678928 0.010360194
-0.034557596 0.004519016 -0.0080600427 -0.14990881 0.072661757 -0.98602617 0.022830382
-0.031711295 0.0044367835 -0.0076017058 0.12705941 0.087005608 -0.9880718 0.0088164182
-0.02855422 0.0044170376 -0.0067692846 0.249329 0.08124347 -0.96500492 0.00012844341
-0.026133742 0.0040060701 -0.0061558085 0.245932 0.074836463 -0.96639383 0.00015283327
-0.037174396 0.007558187 -0.0069161393 -0.36293721 0.061133329 -0.92980605 0.0098291216
-0.034392357 0.0075413734 -0.0077019371 -0.091126122 0.13069631 -0.98722565 0.022928812
-0.031453576 0.0074568987 -0.0071896836 0.20899288 0.12354487 -0.97008175 0.00030882278
-0.028654169 0.0074714888 -0.0064621526 0.24360159 0.11219477 -0.96336424 0.00011318525
-0.026150335 0.0067650108 -0.006141644 0.24005572 0.10243649 -0.96533936 7.0960137e-05
-0.037185758 0.010467072 -0.006572742 -0.30463308 0.093929909 -0.94782692 0.010880723
-0.034586709 0.010467464 -0.0072889398 -0.061336685 0.14367718 -0.98772192 0.014435956
-0.031544156 0.010492371 -0.0067632613 0.19968377 0.15433602 -0.96762949 0.00026099768
-0.029103821 0.0099771265 -0.0062595922 0.22816293 0.14704746 -0.96245456 9.8171076e-05
-0.026942117 0.009508145 -0.0060424134 0.23052229 0.13708724 -0.9633621 0.00012843944
-0.036656369 0.013499546 -0.0064294701 -0.23018628 0.13966459 -0.96307224 0.0084823119
-0.034462281 0.013565119 -0.0067034052 0.020583833 0.19642988 -0.9803018 0.010056594
-0.031754605 0.013084974 -0.0063415309 0.19216676 0.18049167 -0.96462154 0.00020837369
-0.029468274 0.012807768 -0.0061078756 0.21772449 0.17775257 -0.95968753 0.00013294608
-0.036521632 0.015838714 -0.006229715 -0.42284119 0.2353103 -0.87511969 0.020999972
-0.034797885 0.016072471 -0.0062060589 0.010561558 0.20749442 -0.97817916 0.0079108393
-0.032317571 0.015720878 -0.0061027296 0.17199197 0.19817857 -0.96495807 0.00010809683
-0.034923851 0.018122386 -0.0060079223 -0.030189613 0.22394891 -0.97413319 0.012717736
-0.040413387 0.044484071 -0.0071893274 -0.20786847 -0.64956409 -0.7313394 0.014759725
0.0054416833 0.044348106 -0.0066844835 -0.23304985 -0.79125369 -0.56533653 0.00013482703
0.0074198479 0.04457676 -0.0077378578 -0.225825 -0.79851216 -0.55801564 9.5980344e-05
-0.051991533 0.046895765 -0.0073305345 -0.99145138 -0.10728018 -0.074263915 0.028198401
-0.048599195 0.047060072 -0.0083800349 0.22821413 -0.014871446 -0.97349745 0.044360466
-0.046450973 0.047196075 -0.008001308 0.10468543 -0.0021199794 -0.99450314 0.035510361
-0.04341913 0.047338761 -0.0085153813 -0.12824474 -0.20992553 -0.96927011 0.005171102
-0.040153351 0.046173006 -0.0084800245 -0.15262476 -0.38132355 -0.9117555 0.013028014
-0.037154071 0.04586295 -0.0087191984 0.00049813377 -0.38198155 -0.9241699 0.013328415
-0.034183525 0.04637 -0.0083783511 0.21509491 -0.35909444 -0.90817696 0.0013893326
-0.031224843 0.047195457 -0.008350553 0.24260293 -0.28629366 -0.92691952 0.012861101
-0.02884097 0.047411323 -0.0078902375 0.20660967 -0.37608612 -0.90325618 0.0062358724
-0.025375091 0.047101937 -0.0069128089 0.20471266 -0.39413249 -0.89596444 0.0063447962
-0.022618428 0.047507405 -0.0065947282 0.16451515 -0.40534148 -0.89924026 0.0059649451
-0.020243656 0.04766874 -0.0062427316 0.14340585 -0.4657577 -0.87321508 0.0031991275
-0.01738902 0.047681674 -0.0060491287 0.1016655 -0.52320886 -0.84611857 0.0047317795
-0.0093141105 0.04785978 -0.0060920813 -0.082852684 -0.59151953 -0.80202252 0.0034587027
-0.006809921 0.047458492 -0.0062148729 -0.15843549 -0.61227834 -0.77460539 0.003203566
-0.0041922084 0.047514755 -0.0069550872 -0.20896532 -0.63392031 -0.7446332 0.0037797706
-0.0013933597 0.047008719 -0.0074383956 -0.3122144 -0.65326381 -0.68975979 0.0032779074
0.0011996666 0.04644778 -0.0078416485 -0.28581065 -0.75221294 -0.59370697 0.0012011778
0.0035015398 0.045585517 -0.0077109467 -0.23547642 -0.79199284 -0.56329238 0.00011917255
-0.052147191 0.049628872 -0.00744785 -0.99727792 -0.045867369 -0.05773231 0.035013542
-0.048374251 0.049646564 -0.0087861419 0.4978179 -0.059157252 -0.86526167 0.013021313
-0.046550326 0.04968217 -0.0086772777 -0.081658185 -0.073170036 -0.99397087 0.023501784
-0.04420498 0.048327751 -0.0089147724 -0.13317132 -0.13213986 -0.98224461 0.0074401731
-0.03086612 0.049174797 -0.0088265343 0.26663274 -0.15398966 -0.95141691 0.0073569808
-0.028350823 0.049539275 -0.0085160583 0.22921731 -0.1449741 -0.96251857 0.0053319954
-0.025506258 0.049606152 -0.0078957994 0.19888631 -0.19716902 -0.95998371 0.0066405716
-0.022463841 0.049635604 -0.0073404843 0.15774319 -0.22512582 -0.96147567 0.0060928138
-0.019477131 0.049564436 -0.0068309288 0.12595274 -0.25975975 -0.95742399 0.005983578
-0.016477458 0.049862366 -0.0066206073 0.050164469 -0.26770082 -0.96219534 0.0053136963
-0.013480946 0.049797721 -0.0065334365 -0.02174465 -0.32873741 -0.94417107 0.0049150027
-0.010443907 0.049715169 -0.0067275092 -0.13805658 -0.36323074 -0.92141402 0.0038028741
-0.0076963324 0.049698994 -0.0072072698 -0.19577125 -0.4014262 -0.89472377 0.0070232525
-0.0046682721 0.049503837 -0.0082181375 -0.36019754 -0.44235098 -0.82133025 0.0036091821
-0.002374605 0.04858603 -0.0085480288 -0.36568797 -0.56876594 -0.73673445 0.0076743457
-0.052200109 0.052719921 -0.0072544254 -0.61018485 0.75647044 -0.23542914 0.097349554
-0.048318021 0.05293376 -0.0086044613 0.41188323 0.39550573 -0.82093084 0.031037614
-0.046474189 0.052720353 -0.0083673038 -0.019894993 0.30868706 -0.95095557 0.031841584
-0.044101801 0.053413231 -0.0087015843 -0.18653961 0.57295614 -0.79807538 0.012506668
-0.041012287 0.053728845 -0.00884235 -0.23486447 0.40919521 -0.88170177 0.0086961603
-0.030649964 0.053262025 -0.0088303871 0.21069872 0.17019969 -0.96262044 0.0036417113
-0.028439574 0.052514702 -0.008531848 0.20735791 0.1301403 -0.96957016 0.0039029014
-0.02548689 0.052628689 -0.0079600262 0.17143597 0.13058832 -0.97650212 0.0046718707
-0.022418708 0.052505046 -0.0075123571 0.13759038 0.052580763 -0.98909259 0.0067008538
-0.019575194 0.052532345 -0.0071446784 0.085062563 0.071013793 -0.99384177 0.0052004904
-0.016760495 0.052621335 -0.0069832541 0.015101456 -0.0099449633 -0.99983656 0.0057655619
-0.013636766 0.052627236 -0.0070499955 -0.073554359 -0.053828716 -0.99583745 0.0071558505
-0.010439061 0.052594375 -0.0074524693 -0.20193444 -0.16112654 -0.9660542 0.0067918804
-0.0075722104 0.052510776 -0.0082100965 -0.37243119 -0.16160005 -0.91388208 0.0083390456
-0.0057561416 0.051345903 -0.0086861402 -0.33806604 -0.33498138 -0.87948781 0.010746953
0.043971788 0.052681591 -0.008641283 0.75368053 -0.65685111 0.022634683 0.01173939
-0.051533282 0.055215832 -0.0076791323 -0.22501107 0.88798922 -0.40105495 0.066320784
-0.049496163 0.055434082 -0.007466027 0.010937192 0.89811742 -0.43961972 0.052403182
-0.046448898 0.055018175 -0.007019768 0.060055431 0.82713234 -0.55878925 0.022794737
-0.043448698 0.055069167 -0.0073672724 -0.22602955 0.72228414 -0.65361786 0.015512899
-0.040549263 0.055669125 -0.007942508 -0.28960723 0.6479553 -0.7044726 0.010822817
-0.037531938 0.056411147 -0.0084098903 -0.077078804 0.71874499 -0.690988 0.01118286
-0.034578007 0.056073323 -0.0083756773 0.0669882 0.62900537 -0.77450943 0.0063805711
-0.031699151 0.055927128 -0.0080441339 0.095877387 0.57342249 -0.81363022 0.0048168567
-0.028069526 0.055943895 -0.0075528068 0.094663247 0.54140377 -0.83541662 0.00552563
-0.025448382 0.055538014 -0.007273227 0.11577041 0.37716636 -0.91888124 0.0078667225
-0.02254558 0.055555969 -0.0069451295 0.093492948 0.31474066 -0.94456202 0.0058464576
-0.01951246 0.055500381 -0.0067083328 0.044285156 0.257606 -0.9652347 0.0047478434
-0.01645096 0.055629011 -0.0066479584 -0.034876719 0.22207962 -0.97440457 0.0049606613
-0.013518667 0.05546581 -0.0069062184 -0.11679799 0.17743558 -0.97717702 0.0046519167
-0.010512739 0.05560277 -0.0074656755 -0.26118517 0.11314315 -0.95863497 0.0059664939
-0.0078018592 0.055481069 -0.0083895195 -0.41964456 0.049332552 -0.90634692 0.0046894057
0.045604609 0.055169795 -0.0081202285 0.86537808 -0.48136061 0.1393299 0.0063800956
-0.039935444 0.057393134 -0.0067714839 -0.25942564 0.76202363 -0.59331137 0.010286694
-0.037488136 0.057504177 -0.006866449 -0.088239796 0.81051397 -0.57903439 0.0065203793
-0.034595545 0.057574738 -0.0068790908 0.0061920942 0.78999335 -0.6130842 0.0067052119
-0.031502601 0.057629351 -0.0067345179 0.022678718 0.75459599 -0.65579766 0.0068401895
-0.028657278 0.05752093 -0.0066525773 0.040215086 0.70949459 -0.70356244 0.0050988426
-0.025621068 0.057493206 -0.0063431943 0.051215924 0.62308234 -0.78047764 0.0064215036
-0.022509709 0.05754431 -0.006172312 0.011197039 0.60331172 -0.79742688 0.0041744816
-0.019747628 0.057356715 -0.0061825556 -0.019954108 0.56086665 -0.82766563 0.0041575222
-0.016557977 0.057363868 -0.0061497232 -0.062848181 0.43828392 -0.89663666 0.005742047
-0.013420504 0.057877801 -0.0063189529 -0.14750038 0.3940194 -0.90718925 0.0062574558
-0.010871795 0.058876693 -0.0066498923 -0.27404302 0.44863117 -0.85066479 0.0056872559
-0.0076784245 0.058566835 -0.0079673948 -0.44546053 0.25113598 -0.85935771 0.0056583034
-0.0058429837 0.059259802 -0.0088676559 -0.57160771 0.23544192 -0.78602272 0.0050319489
0.046960536 0.05846281 -0.0077698366 0.91532141 -0.30288678 0.26541722 0.0050159851
-0.0096178092 0.060744483 -0.006191425 -0.33252257 0.54986668 -0.76620841 0.0034429163
-0.0072845817 0.061612979 -0.0069165579 -0.47155774 0.51560199 -0.71539354 0.0038333132
-0.0050065047 0.062192243 -0.0082625402 -0.58230817 0.45716161 -0.67225033 0.0033802297
0.047145929 0.06190066 -0.0074259802 0.90846348 -0.023346178 0.41731182 0.0033490791
0.048091531 0.062188029 -0.0088750999 0.94539714 -0.13454069 0.29685521 0.0054016705
-0.0062970733 0.063497491 -0.0062608002 -0.52660763 0.57398438 -0.62707764 0.00096950296
-0.0042564534 0.06430769 -0.0072040111 -0.57251447 0.53993249 -0.61700892 0.0012667848
-0.0022967395 0.065335855 -0.0082259374 -0.60461551 0.54866993 -0.57740909 0.00049142208
0.047065131 0.064772397 -0.0074783647 0.88353378 0.10352707 0.45678249 0.00174436
-0.0032714717 0.066192225 -0.0064920792 -0.5784288 0.56962031 -0.58391172 0.00027771352
-0.0012084449 0.067414947 -0.0072997115 -0.58443773 0.59382296 -0.55299801 0.00022222834
0.00062887173 0.068286516 -0.0083117951 -0.57879871 0.60645932 -0.5451597 0.00019454076
0.046636861 0.067535892 -0.0075837541 0.85702991 0.19522116 0.47685266 0.001966656
-0.00018273488 0.0693966 -0.0062729698 -0.56655359 0.61882454 -0.54412609 0.00014337976
0.001751129 0.070135795 -0.0072970572 -0.55616051 0.63676333 -0.53405797 0.00018173143
0.0039375513 0.071362808 -0.0080616819 -0.52426946 0.67171443 -0.52339399 0.00019371114
0.044663548 0.071336612 -0.0064419094 0.77596408 0.34253177 0.52967143 0.0023230917
0.045880031 0.070511751 -0.00783996 0.82290953 0.33084172 0.46191302 0.0021492387
0.0026543234 0.072157182 -0.0062105511 -0.53316432 0.67403603 -0.51128387 0.00051159307
0.0049233395 0.07290417 -0.0070251687 -0.5052073 0.69666773 -0.50933254 0.00048315214
0.0072357319 0.074024446 -0.0077176555 -0.47309136 0.73087478 -0.49194163 0.00070046977
0.0092942836 0.074608564 -0.0086437203 -0.45497686 0.73902678 -0.49682534 0.00054674124
0.043936308 0.073819369 -0.0073333653 0.76369399 0.51295191 0.39198467 0.0035512089
0.045253865 0.072569862 -0.0083894543 0.79319763 0.45224985 0.4078083 0.0026750569
0.0084271776 0.0754577 -0.0066791815 -0.44100326 0.77740633 -0.44850367 0.0018528105
0.010516073 0.0761813 -0.0074137202 -0.41609785 0.80497479 -0.42293987 0.0017271694
0.01318606 0.077335529 -0.0077274865 -0.38947976 0.8524614 -0.34873343 0.0019125823
0.015198709 0.077834032 -0.0087518608 -0.40367332 0.84183818 -0.35826856 0.0034505127
0.040971573 0.077224195 -0.0073319748 0.61136055 0.73682952 0.28865308 0.0040066219
0.042672954 0.075833142 -0.0077821673 0.68675095 0.64101535 0.3427425 0.003806537
0.014380594 0.078213684 -0.006641312 -0.34778577 0.89619285 -0.2754696 0.0032030586
0.016488841 0.078705966 -0.0075244694 -0.31578067 0.91729444 -0.24259734 0.0020660716
0.019424198 0.079638816 -0.0075379931 -0.27273953 0.95108986 -0.14505577 0.0029752844
0.022504598 0.080460809 -0.0075542792 -0.23142365 0.97157353 -0.049880542 0.0031879405
0.024564287 0.080911063 -0.0071438528 -0.19909976 0.97997826 0.0013860123 0.0029557878
0.032643639 0.080909349 -0.0063612037 0.18445055 0.96814257 0.1693459 0.0055909171
0.034592014 0.080666311 -0.0070187286 0.290674 0.94781166 0.13100241 0.0033964405
0.037599746 0.079460807 -0.0075708544 0.41159704 0.89445257 0.17476396 0.0032592379
0.039730765 0.078375652 -0.0079432465 0.53355664 0.81163782 0.23782629 0.0047934186
0.025925199 0.08120691 -0.0076951585 -0.15376347 0.98791903 0.019306952 0.0024790671
0.028467817 0.081539191 -0.0076544886 -0.052884016 0.99633986 0.067157865 0.0029774217
0.031378929 0.081446335 -0.0076487865 0.098438449 0.99159664 0.083940037 0.0031441695
0.033530906 0.081140377 -0.0083824247 0.20396329 0.97834998 0.035075191 0.0041275173
-0.0011985283 -0.069850236 -0.0039177001 -0.54380095 -0.61397368 -0.57211614 0.00027458265
0.00032958735 -0.069871977 -0.0054119956 -0.5595392 -0.60943311 -0.56170028 0.00013337022
-0.0065076654 -0.066183791 -0.0030521636 -0.43754587 -0.62249005 -0.64889121 0.00084664853
-0.0044881841 -0.06683325 -0.0040585552 -0.50533342 -0.60963857 -0.61072004 0.00049243047
-0.0025431826 -0.067119852 -0.0055564949 -0.56533152 -0.59814817 -0.56799567 0.00026046313
-0.0075663575 -0.06379886 -0.0044576507 -0.44266734 -0.58903515 -0.67607933 0.0010296628
-0.0050714393 -0.064782649 -0.0054141376 -0.53351277 -0.56053054 -0.63337952 0.00086288125
-0.012129965 -0.060475513 -0.0050909906 -0.3318572 -0.54037887 -0.773215 0.0072012418
-0.010434247 -0.061597623 -0.0047831889 -0.33300063 -0.58623612 -0.73853767 0.0036688023
-0.0082647968 -0.061612356 -0.0059270291 -0.40440488 -0.50528222 -0.76232976 0.0050857612
0.045975648 -0.060636543 -0.004626248 0.88454068 0.19208671 0.42507708 0.0043464885
-0.022235302 -0.057100315 -0.005830314 0.065576755 -0.25893289 -0.96366668 0.0020808054
-0.019972155 -0.057703324 -0.0056237704 0.02154108 -0.25362742 -0.96706212 0.0022832796
-0.01641028 -0.057813279 -0.0057443636 -0.070222981 -0.29196197 -0.95384854 0.0022565196
-0.014096556 -0.058631949 -0.0055821789 -0.1326835 -0.29361433 -0.94667089 0.0036916279
-0.011248535 -0.059737418 -0.0058825584 -0.3019433 -0.39982924 -0.86542875 0.0075804158
0.04479542 -0.057203684 -0.0035050863 0.84510946 0.29921129 0.44301528 0.0039084703
0.045704626 -0.058164287 -0.004698474 0.87185353 0.2544876 0.41845843 0.0032824683
-0.051293891 -0.054752689 -0.0045585008 -0.9930523 -0.10793396 0.04687719 0.0012703693
-0.016892565 -0.056965861 -0.0058809654 -0.044338208 -0.20546225 -0.97766018 0.0019171897
0.044382133 -0.0551374 -0.0041740942 0.82563525 0.40354457 0.39430729 0.002918412
0.045390792 -0.056139249 -0.005260888 0.8399756 0.38529745 0.38208231 0.0031691289
-0.05163721 -0.052419912 -0.0044364985 -0.99305624 -0.10789458 0.046883713 0.0012746813
0.041627407 -0.051225856 -0.0036365748 0.69287443 0.58458805 0.42211592 0.0070402483
0.043136392 -0.052535426 -0.0047098855 0.76836449 0.52362525 0.36801171 0.0051188404
-0.051820301 -0.049213521 -0.0044993567 -0.99934959 0.030876659 0.018631015 0.0022163293
-0.016097713 -0.048177112 -0.0059785824 0.071260199 0.49913627 -0.86358845 0.0041002803
-0.013572391 -0.048240237 -0.0059234109 -0.00083963101 0.35868958 -0.93345654 0.0064292364
-0.011424134 -0.048100889 -0.0059259189 -0.087327287 0.55342543 -0.82830799 0.003246404
0.038450193 -0.04827518 -0.0040868432 0.56012303 0.77765667 0.2855038 0.0028201088
0.040318787 -0.049489111 -0.0046489481 0.61484766 0.7278564 0.30362403 0.0043524718
0.042059835 -0.050605547 -0.0057895947 0.67155135 0.68816644 0.27467394 0.0045851972
-0.05168147 -0.046519291 -0.0043746247 -0.95982122 0.2730341 -0.064773127 0.056669448
-0.027088093 -0.045079827 -0.0058183195 0.16527811 0.7069459 -0.68768501 0.0019790817
-0.024802376 -0.04528968 -0.0057264771 0.14478944 0.6816538 -0.71720576 0.0014015264
-0.022427533 -0.045596272 -0.0055029737 0.14094253 0.61412066 -0.77652496 0.0034389463
-0.019419981 -0.046001367 -0.0052836323 0.11801852 0.56829691 -0.8143158 0.0046643578
-0.016497485 -0.046215381 -0.0050711608 0.07595329 0.5598709 -0.8250913 0.0039370973
-0.013528573 -0.046339639 -0.0049639116 0.017216692 0.56518006 -0.82478786 0.0032781959
-0.010585877 -0.046276182 -0.0049685379 -0.056347586 0.58825594 -0.80670929 0.0031384283
-0.0076618101 -0.046062525 -0.0050933817 -0.11780999 0.64971274 -0.7509954 0.002118126
-0.0046931412 -0.045644283 -0.0052633858 -0.16256884 0.70783871 -0.68741238 0.0013409999
-0.0017752268 -0.045349069 -0.0056583579 -0.20228842 0.74250537 -0.63856488 0.0014201433
0.00015593068 -0.045020353 -0.005694414 -0.21838537 0.76385063 -0.60732216 0.00083261012
0.032367051 -0.045283258 -0.0042940238 0.37755066 0.91710836 0.12793651 0.0028261368
0.034281161 -0.046048202 -0.0045829802 0.37581244 0.91976178 0.11315151 0.0018416569
0.037261717 -0.047378033 -0.0047548199 0.4214271 0.89569932 0.14185186 0.0026391442
-0.051295429 -0.04442713 -0.0045221699 -0.35830131 0.889835 -0.28251347 0.02272502
-0.049437355 -0.044317909 -0.0044771805 -0.10552667 0.93670744 -0.33383143 0.019950341
-0.046468429 -0.044340663 -0.0045323558 -0.05299861 0.89989734 -0.43286949 0.011496576
-0.043467626 -0.043967061 -0.0044079348 -0.21801041 0.81017262 -0.54414326 0.013738708
-0.040593795 -0.042886004 -0.0045806686 -0.19025292 0.79338127 -0.57822996 0.010340057
-0.037507847 -0.042779237 -0.0045325458 -0.0072314711 0.83133405 -0.55572599 0.008862868
-0.034450941 -0.04296945 -0.0045348671 0.078703292 0.78583378 -0.61340934 0.0080768615
-0.031503193 -0.043236703 -0.0045036115 0.11745827 0.7529977 -0.64745504 0.0054016169
-0.028485836 -0.04352954 -0.0043744156 0.094821967 0.70619947 -0.70163459 0.0051342156
-0.025543008 -0.043852881 -0.0042625968 0.11759242 0.67203128 -0.73112661 0.0020432128
-0.022575527 -0.044026203 -0.0039359843 0.11527332 0.63765609 -0.76164734 0.0021396552
-0.019532884 -0.044282578 -0.0037126397 0.10025239 0.62820596 -0.77156121 0.00076181686
-0.01653369 -0.04445824 -0.0035375068 0.071542345 0.61365104 -0.78632957 0.00076826569
-0.013524868 -0.044538133 -0.0034147734 0.025070079 0.6145786 -0.78845716 0.00081954157
-0.010483416 -0.044546422 -0.0034362799 -0.031066006 0.63070214 -0.7754029 0.00070680125
-0.0074287616 -0.04442184 -0.0035623282 -0.076418564 0.66430575 -0.74354428 0.00064994069
-0.004420904 -0.044276189 -0.0038508903 -0.10958162 0.70895338 -0.69668996 0.00078174722
-0.0014265862 -0.044051737 -0.004166197 -0.15068989 0.7545923 -0.63865727 0.001232243
0.0015330684 -0.043609358 -0.0045254529 -0.20903216 0.7810176 -0.58848703 0.00067923765
0.004415784 -0.042904131 -0.0047200564 -0.20064573 0.80400002 -0.55975479 0.00027050701
0.0072797006 -0.04253763 -0.0051180571 -0.15909402 0.82356149 -0.54445893 0.00018057655
0.010182133 -0.042297021 -0.0054989411 -0.12001369 0.84536874 -0.52052706 0.00019470608
0.013075866 -0.042118654 -0.0058172955 -0.067714341 0.85994071 -0.50588208 0.00060810067
0.01642029 -0.042059593 -0.0057871118 0.004465132 0.91238981 -0.40929812 0.0018649941
0.020122461 -0.042132951 -0.0057440586 0.090977579 0.9498418 -0.29920509 0.0032197169
0.0227427 -0.04230269 -0.0046889796 0.22960021 0.96111989 -0.15340267 0.0022632445
0.025488427 -0.042928547 -0.0044557448 0.26351383 0.95918119 -0.10262498 0.0033563492
0.028423063 -0.043813169 -0.0045964001 0.2962324 0.95461309 -0.030989174 0.0022349712
0.030988738 -0.044709586 -0.0045524668 0.32492214 0.94487196 0.040529348 0.0021085441
-0.043120082 -0.041994911 -0.0030002375 -0.28139344 0.74755222 -0.6016506 0.018662822
-0.040116202 -0.04197301 -0.003093739 -0.14124134 0.78215569 -0.60686362 0.012241591
-0.037435856 -0.041759565 -0.0031451101 -0.039970677 0.4794192 -0.87667531 0.026499679
-0.034412649 -0.041690204 -0.0032055192 0.0047959085 0.42468452 -0.90532869 0.02300011
-0.031956039 -0.041798279 -0.0031697988 0.042711377 0.41740593 -0.90771586 0.019608168
-0.029476915 -0.041895941 -0.0030702944 0.02983785 0.54001892 -0.84112388 0.018027477
0.0050788932 -0.041748442 -0.0032800343 -0.17573941 0.79891962 -0.57518953 0.00078574382
0.0076765567 -0.041577563 -0.0037104129 -0.13316283 0.83384734 -0.53569239 0.0003941399
0.010596558 -0.041354984 -0.0040872106 -0.082010642 0.86278957 -0.49886712 0.0012355773
0.013502369 -0.041270025 -0.0043770997 -0.0076928162 0.89731008 -0.44133365 0.0023861427
0.016468208 -0.041374721 -0.0045019425 0.050354123 0.93117839 -0.36106959 0.0032810443
0.019419268 -0.04161717 -0.0043396619 0.13454802 0.94736391 -0.29051423 0.0033593157
0.021588627 -0.041848317 -0.0037337048 0.21739939 0.9556706 -0.19857277 0.0025548108
-0.036668066 -0.031003786 -0.0031213714 -0.19180222 -0.1454027 -0.97060287 0.014520256
-0.034807585 -0.030453891 -0.0030734036 0.059801377 -0.11684378 -0.99134827 0.0023134265
-0.036923688 -0.028301436 -0.0032932244 -0.10526472 -0.15367647 -0.98249829 0.012085553
-0.034909096 -0.027985696 -0.0032882488 0.037024945 -0.15740874 -0.98683923 0.0069960682
-0.032050986 -0.027607612 -0.0030807245 0.13872994 -0.14968707 -0.97895241 0.00024371063
-0.037333764 -0.025510332 -0.0036606435 -0.19159554 -0.13117336 -0.97266883 0.015903302
-0.034502175 -0.025551435 -0.0036888104 0.073887534 -0.18192302 -0.98053282 0.0036378063
-0.031866096 -0.025027033 -0.0032876204 0.16504084 -0.18269938 -0.96921742 0.00020475489
-0.02927197 -0.024912262 -0.0031428542 0.12985268 -0.15662991 -0.97908396 0.00025717309
-0.039069064 -0.022708733 -0.0032938952 -0.82958138 0.0078470968 -0.55833077 0.017511871
-0.037267983 -0.022408053 -0.0042700688 -0.17873529 -0.15285978 -0.97195041 0.023649359
-0.034567602 -0.022468425 -0.0043818047 0.05086416 -0.20919268 -0.97655064 0.0055344827
-0.031547822 -0.022379451 -0.0037759268 0.18135302 -0.20144223 -0.96256536 0.00021506698
-0.028741855 -0.022314239 -0.0032980344 0.14858361 -0.17135079 -0.97394133 0.00021444453
-0.025797544 -0.022013459 -0.0031366672 0.14116335 -0.14734581 -0.97895974 0.00017474014
-0.039351005 -0.019520639 -0.003330644 -0.90148145 -0.009008158 -0.43272409 0.025579708
-0.037330069 -0.019498106 -0.0047595343 -0.25279737 -0.19302636 -0.94806868 0.031533375
-0.03450568 -0.019292766 -0.0051105917 0.06829188 -0.23006952 -0.97077507 0.0049978094
-0.031564318 -0.01942502 -0.0044388743 0.19599888 -0.21124479 -0.95758033 0.00014347004
-0.028526545 -0.019633517 -0.0037804414 0.17385259 -0.19103979 -0.96606368 0.00033315201
-0.025762174 -0.019363903 -0.0033427502 0.16102371 -0.17007455 -0.97218621 0.00027081202
-0.022940367 -0.018915921 -0.0031761508 0.1612349 -0.13673589 -0.97739792 0.00021354883
-0.039329007 -0.016646015 -0.0036313587 -0.96811509 -0.029904861 -0.24871443 0.027001485
-0.037153907 -0.016681317 -0.0053599048 -0.33295682 -0.18440005 -0.92473578 0.020132074
-0.034074478 -0.01657648 -0.0056783096 0.082783476 -0.2279692 -0.97014278 0.0066367197
-0.031337932 -0.016607378 -0.0050478615 0.20942646 -0.21739471 -0.95335203 4.7979938e-05
-0.028428007 -0.016674284 -0.0043859417 0.20420976 -0.20002991 -0.95827264 0.0002452824
