# .PCD v0.7 - Point Cloud Data file format
VERSION 0.7
FIELDS x y z normal_x normal_y normal_z curvature
SIZE 4 4 4 4 4 4 4
TYPE F F F F F F F
COUNT 1 1 1 1 1 1 1
WIDTH 569
HEIGHT 1
VIEWPOINT 0 0 0 1 0 0 0
POINTS 569
DATA ascii
0.0076697073 0.016348047 0.0097355153 0.4311049 -0.15408419 -0.8890481 0.026416397
0.010635728 0.016447959 0.010138012 0.38986486 -0.32372564 -0.86209452 0.013318509
0.012714494 0.016867612 0.011248611 0.63759345 -0.36742795 -0.67710513 0.0086404337
-0.045298722 0.019524574 0.011153544 -0.98765248 0.056688361 -0.14604473 0.01013053
-0.044650197 0.019495897 0.009689372 -0.92929906 0.053712714 -0.3654013 0.0092663253
0.0079438463 0.019495105 0.0094794044 0.30544519 -0.070683323 -0.94958258 0.043839619
0.010835988 0.019358471 0.0094575761 0.30469343 -0.2062522 -0.92985052 0.017497284
0.013311141 0.019616706 0.010729415 0.61786693 -0.23007852 -0.75186718 0.007964245
-0.045250557 0.022049151 0.011131891 -0.95801073 0.15048651 -0.24406815 0.011287662
-0.044317551 0.022877512 0.010084533 -0.91748464 0.194589 -0.34692499 0.0063237869
0.0078957528 0.022519892 0.0092032142 0.24824412 -0.029216927 -0.96825677 0.040496074
0.010882962 0.022451786 0.0092399316 0.24316353 -0.083310604 -0.96640098 0.01543876
0.013551912 0.022592677 0.010357583 0.6024816 -0.097958237 -0.79209858 0.010411647
0.015172471 0.022658385 0.011819229 0.82559073 -0.081220403 -0.55839348 0.011827584
-0.043715235 0.025513308 0.010376174 -0.92883152 0.11775994 -0.35128999 0.0066913394
0.0079825735 0.025215646 0.009167823 0.25879329 -0.0089623295 -0.96589112 0.039350767
0.010922626 0.02566479 0.0091847666 0.16602606 0.053533129 -0.98466724 0.016792661
0.013854163 0.025714224 0.010617329 0.71243364 0.084957547 -0.69657779 0.014791002
0.015363744 0.025380243 0.011727748 0.84402269 0.031642206 -0.53537327 0.014158739
-0.043731529 0.028510828 0.010418404 -0.91839057 0.0068570031 -0.39561573 0.0014581023
0.0081163682 0.028497854 0.0092475582 0.29267895 0.00080830802 -0.95621037 0.042665631
0.010774163 0.02874718 0.0093413703 0.28610519 0.1312387 -0.94916821 0.019678904
0.013692529 0.028187996 0.010697269 0.71558201 0.17778946 -0.67552441 0.0095408931
0.015212489 0.027543828 0.011696869 0.72683883 0.17596203 -0.66388452 0.014293909
-0.043761011 0.031505644 0.010494577 -0.9158783 0.0046023126 -0.40142965 0.0013985659
0.0077576283 0.03171939 0.0095328614 0.32613501 0.10061465 -0.93995351 0.026401548
0.010752104 0.031557411 0.009639957 0.32271865 0.27650094 -0.90520704 0.011044304
0.01311963 0.031273872 0.011042003 0.69838244 0.31425792 -0.64304268 0.0076114675
-0.043822758 0.03405619 0.010655323 -0.92400986 -0.046506897 -0.37952989 0.0050003473
0.0078116804 0.034453873 0.0099993283 0.63407004 -0.10036749 -0.7667343 0.050292026
0.010557123 0.034566015 0.010810033 0.69651663 0.34220946 -0.63067997 0.050662942
0.012389651 0.033514783 0.01146131 0.71946734 0.44969714 -0.5292818 0.014872101
-0.048377115 0.038536835 0.010326191 -0.4451018 -0.86834341 -0.21877873 0.0080331052
-0.046116035 0.037838906 0.010532447 -0.42908338 -0.8586545 -0.28035662 0.01198558
-0.04403232 0.036596525 0.010098295 -0.83186275 -0.4480482 -0.32750148 0.025697406
0.0080760866 0.036233295 0.0095276674 0.60308725 -0.4732829 -0.64209753 0.041156061
0.010186681 0.037195787 0.010502993 0.84905511 -0.21976417 -0.48042592 0.090302289
-0.051078402 0.041633148 0.0098846843 -0.91599208 -0.36606127 -0.1641878 0.014319435
-0.050462101 0.040349692 0.010298684 -0.864241 -0.48057857 -0.14876735 0.019843251
0.01156186 0.039308921 0.011408077 0.88625032 -0.41547579 0.20479313 0.064760149
0.013272824 0.040664382 0.010994557 0.61102504 -0.67118412 0.41971451 0.0038398453
0.015533558 0.041617155 0.0099993274 0.52793682 -0.72539914 0.44167718 0.0019134884
-0.051503893 0.043426964 0.010126919 -0.95749223 -0.24490114 -0.15242089 0.006808572
0.014413987 0.042003121 0.011860718 0.56598324 -0.6502195 0.50683087 0.0035895349
0.017046725 0.043341435 0.010937775 0.53852296 -0.66806 0.51350647 0.0035022602
0.019147303 0.044227548 0.0098785236 0.54982871 -0.62588829 0.55312955 0.0026894184
-0.05200243 0.046385556 0.010244085 -0.97888285 -0.14509504 -0.14399952 0.0043837912
0.019969994 0.046198614 0.0110551 0.5636698 -0.49978811 0.65763837 0.0037594961
0.02217187 0.04700809 0.0098086055 0.5613066 -0.50396359 0.65647203 0.0038105114
-0.052194607 0.049442098 0.010205082 -0.9973582 0.0027772479 -0.072586894 0.009491073
0.020690644 0.048266575 0.011672238 0.56077349 -0.37729263 0.7370097 0.0067822621
0.02233161 0.049911186 0.011139992 0.5398863 -0.21821439 0.8129608 0.0017329903
0.024726514 0.049896978 0.009570675 0.5619427 -0.37482691 0.73737729 0.0032814834
-0.052056395 0.05248569 0.010354144 -0.97937363 0.12159663 -0.16137388 0.003677635
0.023098664 0.05258213 0.011233821 0.52134222 -0.065930843 0.85079688 0.0015139007
0.025498668 0.052862484 0.0097536827 0.52513629 -0.086709641 0.84658921 0.0018333021
0.027234167 0.053336341 0.0090790512 0.54346216 -0.21505269 0.81141931 0.0034151589
-0.051670372 0.055588804 0.010164523 -0.94938946 0.27053317 -0.15959789 0.0091345292
0.02305162 0.055598527 0.01130995 0.50392878 0.023871794 0.86341524 0.00036117079
0.025326597 0.055535272 0.0099936202 0.50830519 0.010316536 0.86111522 0.00073954108
0.027282361 0.055869579 0.0090479702 0.51756406 -0.027576914 0.85519999 0.001559734
-0.051134478 0.057799719 0.010076939 -0.85908329 0.47250292 -0.19676611 0.015695479
-0.050242271 0.059431706 0.010029535 -0.7517662 0.62738025 -0.20308028 0.017801592
0.022710064 0.05858206 0.011261442 0.48517373 0.088425577 0.86993527 0.00010365328
0.025384068 0.058577895 0.0097642401 0.49479839 0.082849845 0.86504942 8.5080064e-05
0.027187631 0.058458716 0.0090790512 0.50484937 0.070736498 0.86030436 0.00015715786
-0.048668411 0.061079156 0.01069589 -0.56178463 0.80251443 -0.20091987 0.0076319049
-0.046501752 0.062172096 0.010399812 -0.39064577 0.89863056 -0.19964743 0.0027471855
-0.04410623 0.062769778 0.0097599002 -0.30782697 0.91931373 -0.24516287 0.00073894573
0.02058656 0.062190831 0.011838411 0.46673509 0.13175809 0.87452739 0.00011033216
0.022662105 0.061516602 0.010942902 0.47735721 0.12394292 0.86992431 8.9600413e-05
0.025024569 0.06150604 0.0096075581 0.4885802 0.12106449 0.86407918 5.4160897e-05
-0.045312289 0.063008994 0.011711197 -0.36298066 0.91669333 -0.16708788 0.0053990954
-0.043214619 0.063423224 0.010902266 -0.30861881 0.91870207 -0.24645647 0.00073100138
-0.040507216 0.064200528 0.010483763 -0.3001174 0.91307479 -0.27608681 0.00051214773
-0.037815005 0.065099351 0.010532519 -0.28202882 0.91773862 -0.27967042 0.00092619151
-0.03518584 0.065668128 0.01001929 -0.26113105 0.9166503 -0.30259374 0.00050148543
-0.032967586 0.065809399 0.0090434449 -0.23615386 0.92159373 -0.30805269 0.00054447452
0.020325998 0.06494014 0.011602861 0.45997629 0.16750339 0.87198877 9.6784905e-05
0.022461154 0.064588428 0.010545523 0.47178021 0.15784959 0.86747158 7.3816474e-05
0.024739582 0.064100832 0.0093634166 0.4834868 0.15429418 0.861646 9.8242512e-05
-0.036192778 0.066014297 0.011892527 -0.26155066 0.94798702 -0.18141641 0.0035042462
-0.034002319 0.066296495 0.010926764 -0.24992587 0.92356855 -0.29078877 0.00053138816
-0.031411648 0.066837773 0.010411244 -0.24600409 0.93010587 -0.27273625 0.00090777111
-0.028697357 0.067614757 0.010435963 -0.2583918 0.92573661 -0.2761257 0.0013306417
-0.02589778 0.068396151 0.01027715 -0.28338158 0.9212752 -0.26635844 0.0020563547
-0.023509918 0.068832055 0.0093640564 -0.28255904 0.92543578 -0.25244594 0.0035637957
0.017616639 0.068767726 0.011899278 0.39809233 0.27548456 0.87500328 0.002265739
0.019788198 0.067680426 0.011297004 0.44527394 0.23103221 0.86507529 0.00068623136
0.02244805 0.067485839 0.0099440869 0.46079078 0.21364069 0.86141139 0.00038424184
0.024330983 0.066687666 0.0091754291 0.46388686 0.19653513 0.86381882 0.00031655186
-0.024404466 0.06913545 0.011420756 -0.25242233 0.95473802 -0.1573475 0.0040174769
-0.022347437 0.069548614 0.010605014 -0.23311666 0.9629941 -0.13527338 0.0050848792
-0.019456323 0.070361756 0.010395706 -0.2468299 0.96402228 -0.098671839 0.007372607
-0.01655009 0.071164273 0.010314043 -0.28621563 0.95800215 -0.01767835 0.0092013264
-0.014083919 0.071793333 0.010789237 -0.28897366 0.95388472 0.081229426 0.011390698
-0.011884792 0.071961291 0.0118323 -0.23765765 0.92313308 0.30223209 0.013517261
0.014535707 0.071790032 0.011860041 0.3626307 0.54761916 0.75406379 0.0041383803
0.016973315 0.071041867 0.011428189 0.37135911 0.42718327 0.82438272 0.0031381492
0.019489182 0.070566431 0.010488492 0.38333893 0.39733121 0.83377409 0.0030735724
0.021935696 0.070204899 0.0094560357 0.41600946 0.34442067 0.84161186 0.0027005381
-0.012821035 0.072206251 0.010196724 -0.23511019 0.96852612 0.081733756 0.011749386
-0.010401411 0.072723784 0.010516472 -0.21666412 0.96112853 0.17113921 0.0068255425
-0.0073914952 0.073444895 0.010308609 -0.23018046 0.95076424 0.20751938 0.0065354668
-0.0045450185 0.074028783 0.010538719 -0.23006727 0.94600612 0.22834484 0.0039593633
-0.0017390409 0.074578561 0.01066329 -0.21860935 0.93803489 0.26888749 0.0036134284
0.0012310201 0.07477209 0.011523608 -0.12328181 0.89436585 0.43001315 0.0026265949
0.0046636974 0.074915022 0.011765898 0.012476379 0.86245018 0.5059883 0.0036204942
0.0077542462 0.074798405 0.011435651 0.1135203 0.85370624 0.50823104 0.0023256808
0.010654668 0.074363053 0.011207296 0.1802561 0.80702519 0.56233275 0.0022002067
0.013471505 0.073983744 0.010633242 0.21438308 0.73378396 0.64467126 0.002753472
0.016423251 0.07327836 0.010111988 0.28948745 0.61886555 0.73020715 0.0032902309
0.019066222 0.072722226 0.0094719715 0.34284499 0.55081576 0.76095951 0.0026705386
0.021291558 0.072169185 0.0090855863 0.38234788 0.50707245 0.77245557 0.0065195151
-0.00080741459 0.075141549 0.009511428 -0.20143762 0.93641549 0.28731346 0.0038284599
0.0016458918 0.075479962 0.010076635 -0.127856 0.93855041 0.32058692 0.0040879934
0.0045163231 0.07566265 0.010279613 -0.025254164 0.92705435 0.3740755 0.0039329883
0.0074381069 0.075611994 0.010036911 0.04780535 0.90793669 0.41637182 0.0030926557
0.010360555 0.075444393 0.0096897529 0.10722515 0.86486 0.49042839 0.003097527
0.013439302 0.075186886 0.0092511456 0.1646038 0.80458659 0.57056642 0.0024519202
0.015565037 0.075034358 0.0090790568 0.22017553 0.73667455 0.63940078 0.002625935
-0.0075027389 -0.072343029 0.012112595 -0.31029078 -0.93769062 -0.15638401 0.0084392233
0.012122646 -0.072439201 0.012292907 0.36449704 -0.46158662 0.80875194 0.0007448062
-0.021582548 -0.069165356 0.013233881 0.26180696 -0.025959644 -0.96477115 0.014752285
-0.019459486 -0.069591582 0.013098685 0.22384146 0.97443706 -0.019167796 0.0083212396
-0.016748708 -0.070217893 0.012730168 -0.2363345 0.088267535 -0.96765429 0.0071481788
-0.013565853 -0.070845209 0.012612242 -0.31367758 -0.92315364 -0.22224697 0.00742561
-0.01046515 -0.071633883 0.012293369 -0.28232983 -0.93501496 -0.21456231 0.010916436
0.010671213 -0.070823558 0.014126503 0.38936937 -0.42356932 0.81791234 0.0011409461
0.013890392 -0.070153788 0.01330284 0.39848945 -0.36052105 0.84334493 0.0011932058
0.016393539 -0.069679655 0.012409974 0.41376942 -0.3272219 0.84954149 0.0010932547
-0.033940867 -0.066410139 0.013535168 -0.063407496 0.33044329 -0.94169354 0.016287329
-0.030907888 -0.06709981 0.013345554 -0.0063396906 0.31656462 -0.94854975 0.017035911
-0.028981011 -0.066878617 0.012914275 0.017504869 0.30145246 -0.9533205 0.016895322
-0.025269819 -0.068394266 0.013835134 0.24798489 0.96712399 0.056345191 0.0047107716
-0.023210434 -0.068819754 0.013445964 -0.85038853 0.27291664 -0.44983989 0.01298468
0.013304108 -0.067342177 0.014600457 0.42824784 -0.24836947 0.86885923 0.0011033254
0.016018309 -0.067509077 0.013200668 0.43545109 -0.23583826 0.86877078 0.00070668617
0.018340381 -0.066740647 0.012218294 0.44155484 -0.22401538 0.868819 0.00050631654
-0.043306436 -0.063283339 0.012978433 -0.92446053 0.35304078 -0.14399654 0.018047798
-0.040628955 -0.064067706 0.01327992 0.18494478 0.26421067 -0.94656652 0.015772726
-0.037696581 -0.064908244 0.01351054 0.14014523 0.2456858 -0.95916516 0.0072644586
-0.035310198 -0.065034911 0.012948083 -0.27526063 -0.86362499 -0.42235464 0.018459387
-0.032520771 -0.065468356 0.01300527 -0.28399515 -0.83778322 -0.46633253 0.031699173
0.014339111 -0.064660937 0.014720806 0.44681513 -0.18353678 0.87559724 9.0902176e-05
0.016416382 -0.06443774 0.013705035 0.44801268 -0.1799864 0.87572229 0.00010797168
0.018888198 -0.064380601 0.01259084 0.45385823 -0.17327821 0.87406373 0.00010584296
-0.048488095 -0.060724724 0.013489373 -0.61947823 -0.78206366 -0.067993931 0.020296639
-0.045984156 -0.062341154 0.013173133 0.31768698 0.93502468 0.15749249 0.00033500706
-0.044178955 -0.062271394 0.012513082 -0.10438534 0.33679339 -0.93577451 0.013341047
-0.041119814 -0.062720634 0.012414933 -0.24430966 -0.80631256 -0.53867698 0.032332949
0.016511897 -0.061235502 0.014235146 0.45858359 -0.14535621 0.87668276 7.7292592e-05
0.019073952 -0.061613057 0.012832505 0.46028966 -0.14468285 0.87589973 0.00010014788
-0.051706102 -0.058306456 0.013401022 -0.89422143 -0.43959159 -0.08442308 0.016429884
-0.05062582 -0.058651164 0.012163082 -0.89435619 -0.41227305 -0.17366064 0.010321628
0.016872676 -0.058432836 0.014441855 0.46499708 -0.11592842 0.87768912 6.6412402e-05
0.019461496 -0.058420859 0.013215125 0.47151059 -0.10137711 0.87601399 7.6940749e-05
0.021314826 -0.058059342 0.012250336 0.47790012 -0.096854106 0.87305832 7.4170639e-05
-0.052342463 -0.055409614 0.013353641 -0.96596712 -0.22154889 -0.13350502 0.0064537795
-0.05093687 -0.056688964 0.012052848 -0.93677396 -0.29622811 -0.18628874 0.008151304
0.017390799 -0.055405423 0.014638089 0.47918317 -0.073094457 0.87466609 0.00010013538
0.019601205 -0.055527683 0.013414618 0.48129588 -0.062772401 0.87430769 0.00014690821
0.021600513 -0.055458076 0.012307769 0.48830545 -0.048647024 0.87131584 0.00023841708
-0.052691113 -0.052026253 0.013077422 -0.99665117 -0.0084779225 -0.081330061 0.0054306728
0.017677445 -0.053020161 0.014639376 0.50119227 0.002890843 0.86533111 0.00091571809
0.019621503 -0.052422658 0.013553558 0.5011428 0.022133684 0.86508155 0.00090719166
0.021757545 -0.05259648 0.012311289 0.5160231 0.066468604 0.85399187 0.002457072
-0.052835915 -0.049246635 0.013134937 -0.99159735 0.056292325 -0.11647215 0.0031492109
0.01747733 -0.049302675 0.014584314 0.53158879 0.15000537 0.83361363 0.0030663514
0.019839307 -0.049105268 0.013039689 0.55281967 0.32377407 0.76782858 0.0031580459
0.021247033 -0.050083809 0.012270758 0.56008559 0.26292318 0.78560519 0.0039712545
-0.052656077 -0.046293207 0.01312291 -0.98742437 0.12467773 -0.097203612 0.0058325641
0.014851708 -0.045307197 0.014870957 0.55626601 0.33940339 0.75853378 0.003145051
0.016709497 -0.045747418 0.014072533 0.56923705 0.49364763 0.65748096 0.0019819816
0.018911352 -0.046785574 0.012910527 0.57369351 0.48160142 0.66252232 0.0016805861
-0.052285612 -0.04347742 0.013325441 -0.9651913 0.22845428 -0.1273357 0.0053414963
0.014378631 -0.043179676 0.014187886 0.58672518 0.56844896 0.57673162 0.0042695315
0.016200012 -0.043738667 0.013020658 0.57798862 0.56747997 0.58642614 0.0026763256
0.018359141 -0.044820942 0.012184272 0.56988806 0.50522858 0.64805228 0.0014820849
-0.051771965 -0.04062029 0.013553442 -0.88581645 0.457185 -0.079442143 0.023536883
-0.050649982 -0.03982589 0.012361438 -0.7839663 0.5812422 -0.2180696 0.014591418
0.011445061 -0.039789163 0.013854665 0.79238355 0.52933484 0.30320442 0.015502681
0.013200134 -0.041046169 0.0130356 0.62537414 0.63889176 0.44802296 0.0075322078
0.015308063 -0.041920487 0.012056262 0.51078135 0.694098 0.50727755 0.0064130984
-0.051286321 -0.038734801 0.013522874 -0.7153824 0.69575769 -0.06441465 0.035162378
-0.049668849 -0.038404483 0.013531143 -0.52216423 0.8503893 -0.064672582 0.018489607
-0.04670082 -0.037219148 0.013696708 -0.50867605 0.84591818 -0.1602219 0.03111352
-0.044678576 -0.036962066 0.01283511 -0.64045817 0.72704625 -0.24742101 0.036066104
0.010696362 -0.037726376 0.012841607 0.89853108 0.4285886 0.094624087 0.048194151
-0.045239516 -0.034464102 0.014354501 -0.91561472 0.14767176 -0.37395561 0.015611293
-0.044681907 -0.034549654 0.012900608 -0.92449766 0.15884189 -0.34651592 0.022352966
0.011258179 -0.035489604 0.012744678 0.89066118 -0.29283145 -0.34781098 0.056853376
0.0128525 -0.033989787 0.013067928 0.75523889 -0.42441687 -0.49948427 0.025447786
-0.045270599 -0.031493537 0.01443499 -0.94666618 3.9161212e-05 -0.32221606 0.00032093833
-0.04469914 -0.031522661 0.0129449 -0.94000715 -0.00027538196 -0.34115466 0.00024795311
0.014270562 -0.031516053 0.01349491 0.88484031 -0.40809947 -0.22474977 0.0084291119
0.015162951 -0.030441286 0.014559197 0.90401733 -0.37372366 -0.20756498 0.015300685
-0.045236036 -0.028538326 0.014344871 -0.94540191 -0.000648644 -0.32590616 0.00031542187
-0.044745639 -0.028721372 0.013066002 -0.94193125 0.0023160842 -0.33579785 0.00027962605
0.014789681 -0.029244751 0.012593618 0.89006269 -0.24414186 -0.38494563 0.0097602736
0.015510627 -0.028039305 0.013615522 0.9414593 -0.14293844 -0.30532435 0.0097794458
-0.045180786 -0.025687754 0.014200301 -0.93803585 -0.032092892 -0.34504908 0.0021086293
-0.044657052 -0.025541553 0.013072866 -0.95326757 -0.051644444 -0.29768056 0.004238754
0.015796494 -0.025393486 0.013410127 0.95807493 -0.065231644 -0.27899331 0.012940038
-0.045240305 -0.022110315 0.013893183 -0.96008945 -0.11310445 -0.25580379 0.013723764
-0.044704344 -0.022861794 0.012945433 -0.97010082 -0.093661323 -0.22390163 0.012887677
0.014854409 -0.021364303 0.012157112 0.9399277 0.2196255 -0.2613439 0.0089409687
0.015770331 -0.022519695 0.01346937 0.94871289 0.11452002 -0.2946676 0.012796124
-0.045380671 -0.019375369 0.01348909 -0.98616976 -0.033033721 -0.16241314 0.020119166
-0.044880673 -0.019492233 0.013179775 -0.99710888 -0.030212414 -0.069721803 0.017217508
0.014751675 -0.018605428 0.012727067 0.85743076 0.30037758 -0.41783467 0.011774757
0.015393057 -0.019978851 0.013582204 0.92519438 0.21930197 -0.3097128 0.011636883
-0.04547317 -0.016965363 0.013265957 -0.96486366 -0.016146189 -0.26225415 0.012095186
-0.044836689 -0.016572112 0.013145451 -0.99654949 0.0054254648 -0.082822934 0.015893856
0.01397151 -0.016525403 0.013124257 0.80878747 0.41973332 -0.41193068 0.010081371
0.015109073 -0.017714106 0.014470764 0.87291378 0.36442137 -0.32437408 0.014317324
-0.045366008 -0.013585655 0.013538927 -0.98495466 0.0081256023 -0.17262213 0.017739354
-0.04487282 -0.013504106 0.013267915 -0.99717069 -0.0079889027 -0.07474532 0.01492059
0.011194012 -0.012797892 0.013046724 0.79003179 0.51664913 -0.33003542 0.036757965
0.012714471 -0.014197608 0.013433767 0.80297178 0.51738769 -0.29588223 0.014953651
-0.04531543 -0.010566302 0.013704518 -0.97303736 0.0062578516 -0.2305627 0.017287735
-0.044878274 -0.010965833 0.013281974 -0.99688256 -0.016720446 -0.077107899 0.012721998
0.010676417 -0.010591395 0.013712652 0.96939832 0.18693896 -0.15912455 0.032880396
-0.045328908 -0.0074824221 0.013552384 -0.97769397 0.0030368352 -0.21001247 0.016028039
-0.044849705 -0.0074909991 0.013493309 -0.99520177 -0.0054875403 -0.097689979 0.014778039
0.010619306 -0.0075386786 0.013737815 0.98546165 0.051671542 -0.16185018 0.029462168
-0.045287363 -0.0045016012 0.013564902 -0.96469814 -0.0037731791 -0.2633312 0.018307284
-0.044821564 -0.004592875 0.013418945 -0.99223953 0.019361701 -0.12282431 0.014981415
0.010597477 -0.0044491286 0.013715404 0.98567653 -0.029751519 -0.16600206 0.029240483
-0.045366578 -0.0014867928 0.013567593 -0.97347659 -0.018195596 -0.22806205 0.017446306
-0.044865284 -0.0018017838 0.013120592 -0.98848885 -0.022074537 -0.14967434 0.014515065
0.010586279 -0.00144742 0.013648733 0.96169567 0.0026895958 -0.27410623 0.024829317
-0.045584001 0.0014801419 0.013741757 -0.94679284 -0.041918483 -0.31910223 0.019652011
-0.04482919 0.0015016643 0.013436068 -0.98416299 -0.0392421 -0.17286806 0.020243907
0.010589486 0.001501479 0.013645706 0.96274197 -0.011591397 -0.27017316 0.026196953
-0.045549225 0.0045418874 0.013729842 -0.93452561 0.0049619847 -0.35586131 0.017699713
-0.04482457 0.0043480219 0.013422782 -0.98348552 0.01478157 -0.18038213 0.020770982
0.010602294 0.0044845035 0.013606285 0.9822982 -0.012881777 -0.1868809 0.032359041
-0.045435157 0.0074764797 0.01355754 -0.95478851 0.0006900786 -0.29728514 0.018325439
-0.044837616 0.0075159064 0.013452919 -0.98578501 0.0063734851 -0.16789061 0.021406358
0.010636524 0.0074898219 0.013617618 0.96797353 -0.026698053 -0.24962869 0.024815049
-0.045580991 0.010582872 0.013809617 -0.952281 -0.0072688516 -0.30513614 0.018525679
-0.044814233 0.010490214 0.013372829 -0.98340887 0.0091764303 -0.18117076 0.021383163
0.01066339 0.010439007 0.013668627 0.95363694 -0.20509379 -0.22025685 0.025449732
-0.045662519 0.013549438 0.0138546 -0.9412691 0.015085173 -0.33732021 0.01827823
-0.044839419 0.013684593 0.013416764 -0.9819693 -0.020943861 -0.18787672 0.021243278
0.011083665 0.012990331 0.013044946 0.77790898 -0.46113881 -0.42685902 0.041159406
0.012570441 0.014351371 0.013673584 0.83884138 -0.42971012 -0.33420706 0.018673984
-0.045677543 0.016412552 0.013932968 -0.93492121 0.0070006219 -0.35478619 0.01697004
-0.044832952 0.016465239 0.013377904 -0.98320115 -0.0060984795 -0.18242347 0.021039918
0.013657287 0.016366513 0.01325663 0.81024736 -0.49174747 -0.31887865 0.01637106
-0.04548743 0.019411394 0.013552564 -0.9506399 0.054186754 -0.30552834 0.02084301
-0.044843353 0.019631332 0.013394358 -0.9842658 0.027530277 -0.17453609 0.021757834
0.014717221 0.018971007 0.012816441 0.84874451 -0.30669722 -0.43077785 0.012442134
0.015351932 0.019998608 0.013924854 0.93791908 -0.26510245 -0.22367036 0.014485545
-0.045328163 0.022257326 0.013820092 -0.92132813 0.090101771 -0.3782011 0.017732251
-0.044704486 0.022692852 0.012791693 -0.94092923 0.089693464 -0.32650766 0.017342463
0.014981152 0.021554546 0.012244183 0.91268772 -0.11264998 -0.39282462 0.015735704
0.015755272 0.022507422 0.013571346 0.95291609 -0.12503926 -0.27625376 0.011637567
-0.045814347 0.025766004 0.014441099 -0.89196849 -0.013533136 -0.45189497 0.0044771349
-0.044610362 0.025512397 0.012934969 -0.92356259 0.070623338 -0.37688792 0.012525032
0.015808046 0.025633803 0.013605485 0.96999943 0.10090295 -0.22117814 0.014843929
-0.045880064 0.028496224 0.014488294 -0.88354307 -0.0018428377 -0.46834633 0.005968506
-0.044646103 0.028481064 0.013028008 -0.89515686 -0.00054798851 -0.44575098 0.0020060909
0.014719486 0.029352326 0.01251574 0.92304111 0.22114976 -0.31478244 0.011014318
0.015444912 0.028743356 0.013523756 0.91367841 0.2320831 -0.33366027 0.0096236449
-0.045833752 0.031423181 0.014497161 -0.88601571 0.025160497 -0.4629721 0.00662548
-0.044633862 0.031500567 0.012995566 -0.89806014 0.011166519 -0.43973097 0.0023600899
0.01427194 0.03184019 0.013196891 0.85010111 0.40339524 -0.33852676 0.010416484
0.015153122 0.030732192 0.014192292 0.90933049 0.33111382 -0.25195572 0.014044134
-0.045728356 0.034105144 0.014544422 -0.90880442 -0.023920476 -0.41653615 0.013565389
-0.044626713 0.034295943 0.012976435 -0.89893383 -0.083194532 -0.43011227 0.010988315
0.011491485 0.035620056 0.012925319 0.86835086 0.43695256 -0.23460443 0.046914142
0.012946315 0.034364831 0.013387449 0.81085038 0.48792994 -0.323181 0.019306738
-0.048424229 0.038246576 0.01301898 -0.46377864 -0.87524241 -0.13733172 0.0069557182
-0.046707403 0.037326932 0.013757679 -0.611687 -0.72838837 -0.30868962 0.023137331
-0.044740647 0.036261335 0.013140259 -0.71406186 -0.60203177 -0.35731417 0.035019912
0.010914451 0.036929749 0.013528392 0.93825245 0.28414801 -0.19733797 0.057257593
0.012173647 0.036239844 0.014300124 0.91609299 0.36156693 -0.17332943 0.043607213
-0.051690202 0.040582746 0.013457583 -0.87512356 -0.47479194 -0.093441546 0.017661797
-0.050561741 0.039839253 0.012368835 -0.76754475 -0.60275447 -0.21808742 0.011054454
0.011164525 0.039733138 0.013956115 0.97446579 -0.22400936 0.015371155 0.058013272
0.012442373 0.041049264 0.012993334 0.70727086 -0.55694222 0.43541163 0.019740382
-0.052333783 0.043498799 0.013315033 -0.9666298 -0.22501653 -0.1224516 0.0060288846
-0.050935507 0.042277083 0.012057798 -0.91649812 -0.3592234 -0.17603934 0.0093999365
0.013690119 0.042982142 0.013895293 0.59935439 -0.54820508 0.58330572 0.0075324411
0.015915286 0.044079162 0.012883104 0.58187312 -0.55696094 0.5926367 0.0037591481
-0.052798957 0.046513062 0.013260417 -0.98749888 -0.1206519 -0.10143528 0.0059184725
0.014737836 0.045115136 0.0147525 0.5698033 -0.47031489 0.67389035 0.0057321955
0.016731396 0.046461556 0.013898675 0.57679033 -0.37554145 0.7254526 0.0032837889
0.01876498 0.046880066 0.012543306 0.5668242 -0.43808132 0.69770706 0.0030700108
-0.053014405 0.049507428 0.013414613 -0.99547374 -0.0078159962 -0.094714627 0.005408688
0.01726394 0.049868844 0.014530502 0.53348923 -0.10353214 0.83944643 0.0016342273
0.01973897 0.049732678 0.012856818 0.52696842 -0.13687997 0.8387897 0.0024548857
0.02144048 0.050330639 0.012094019 0.53973246 -0.27840498 0.79446805 0.0033806742
-0.052886527 0.052406359 0.01339335 -0.99035078 0.095647782 -0.10028353 0.0053332429
0.017326731 0.052604735 0.01465984 0.50063956 0.0024526939 0.86565238 0.00083893922
0.019500414 0.052593172 0.013409577 0.50443763 -0.024405448 0.86310315 0.0010046514
0.021437084 0.052510999 0.012257205 0.51392484 -0.055037379 0.85606784 0.0018137549
-0.052425381 0.055500027 0.013278176 -0.96887636 0.20587221 -0.1374601 0.0044771354
0.017232485 0.055562448 0.014530824 0.48169923 0.07014706 0.87352467 0.00010827902
0.019552171 0.055459876 0.01326643 0.48242372 0.05792078 0.87402087 0.00021374879
0.021439806 0.05569588 0.012202938 0.49076912 0.035818066 0.87055314 0.0004709221
-0.051880606 0.058446817 0.013599831 -0.89069039 0.44627273 -0.086667307 0.027156299
-0.050722837 0.059095502 0.012108321 -0.84591347 0.4666985 -0.25811398 0.022736147
0.016876638 0.058709651 0.014390996 0.46747941 0.10773984 0.87741393 5.0953902e-05
0.019420318 0.05851943 0.013057704 0.47118589 0.099063605 0.87645322 6.2442043e-05
0.021380939 0.057971131 0.012132402 0.4789131 0.092038438 0.87302417 9.2747498e-05
-0.051295202 0.060288422 0.01390765 -0.64028126 0.76809895 -0.0079892697 0.022352427
-0.049096294 0.061206736 0.013464866 -0.54678226 0.83685273 -0.026581278 0.015649365
-0.046905387 0.062574014 0.01332209 -0.44298249 0.8964479 -0.01215304 0.003552102
0.014769591 0.062394213 0.014839138 0.44930047 0.14728105 0.88115686 0.00013009411
0.016677421 0.061492674 0.01410933 0.45951891 0.13733844 0.87748533 6.7068679e-05
0.019302107 0.06150119 0.012733177 0.46276784 0.1312319 0.87671208 9.1819747e-05
0.021315465 0.061033405 0.01209375 0.47097275 0.12928875 0.87262195 0.00011994685
-0.045352332 0.063160904 0.013454775 -0.34500939 0.93738222 -0.047781948 0.0047386508
-0.043468449 0.063852854 0.013404461 -0.33370778 0.93941933 -0.078297526 0.0038705242
-0.040440172 0.064942978 0.013376697 -0.33604407 0.93459314 -0.11666232 0.0024080765
-0.038074441 0.065784991 0.013416573 -0.31628636 0.93924397 -0.13335556 0.0026136381
0.014393952 0.06501805 0.014652981 0.45072889 0.17831998 0.87466884 0.00010885722
0.016490754 0.064483002 0.013689456 0.45325729 0.17124645 0.87477565 9.1387468e-05
0.01894981 0.064400256 0.01242624 0.45237258 0.16865081 0.87573743 6.7703426e-05
-0.03681108 0.066248052 0.013957334 -0.27584529 0.95430702 -0.1149235 0.0030057903
-0.034576423 0.066799462 0.013513109 -0.24421954 0.95737326 -0.15425017 0.0022468332
-0.031701501 0.067476682 0.013342165 -0.23657498 0.95972621 -0.15151845 0.0019148365
-0.028482353 0.068234205 0.013541239 -0.23375903 0.96999413 -0.066843912 0.0019272584
-0.025806461 0.068833388 0.013629295 -0.20724024 0.97826082 0.007570433 0.0019922534
0.01168582 0.068634227 0.014810663 0.43447974 0.33116382 0.83759052 0.0043090447
0.01377366 0.067662381 0.014335878 0.42823941 0.27056351 0.86221021 0.0014036517
0.016394306 0.067541257 0.013060363 0.43214718 0.25213367 0.86583918 0.00095584785
0.018391022 0.06682004 0.012209844 0.44162416 0.2351867 0.86582643 0.00077256688
-0.024426008 0.06913092 0.013207142 -0.19346993 0.98108572 0.0063359058 0.002564288
-0.022618243 0.069473915 0.013569913 -0.150979 0.98556417 0.076606572 0.0027539565
-0.019675884 0.069979645 0.01347114 -0.12120271 0.97475231 0.18753067 0.0059337458
-0.016773855 0.070369147 0.013559984 -0.12181287 0.94448125 0.30515042 0.0050713718
-0.013460626 0.070983268 0.013303061 -0.16536206 0.90945679 0.38150194 0.0043230848
-0.010694116 0.07123138 0.013695434 -0.17842053 0.83968347 0.51293057 0.0041512996
-0.0075535523 0.071502417 0.014254642 -0.16182132 0.80276102 0.57392389 0.002711894
-0.0047358759 0.071726948 0.014728688 -0.14814703 0.73905265 0.65715575 0.0011364828
-0.0023285812 0.071892112 0.014940954 -0.11154194 0.69676977 0.70856917 0.0022989842
0.008147073 0.071617514 0.014747017 0.23474242 0.65686685 0.71653467 0.0029288011
0.010762429 0.070951216 0.014241192 0.33757308 0.49724102 0.79924703 0.0045080734
0.013472866 0.070526905 0.013294823 0.35531232 0.46046087 0.81346726 0.0036602197
0.015958276 0.069902807 0.012465084 0.39344856 0.38569683 0.83452761 0.0028584113
0.01822971 0.069004111 0.012094039 0.46722591 0.29623306 0.83303422 0.0026435999
-0.012240041 0.072016098 0.012146492 -0.23029411 0.95131385 0.20485783 0.011398492
-0.0098661669 0.072186768 0.012457325 -0.19122563 0.86930698 0.45578304 0.0039042011
-0.0075700083 0.072563447 0.012690235 -0.19554959 0.89613652 0.39837122 0.0049483669
-0.0043173409 0.072884358 0.013307619 -0.14985546 0.82569993 0.54384089 0.0032186706
-0.0014497099 0.073391683 0.013298954 -0.12717043 0.8364076 0.53315103 0.0040462445
0.0015018084 0.073663764 0.013489604 -0.083584897 0.82883352 0.55321658 0.003261864
0.0045956015 0.074026681 0.013221055 0.020085974 0.84599811 0.53280741 0.002804609
0.0074176015 0.073440939 0.0133644 0.1738068 0.77458417 0.6081205 0.0030114166
0.010070561 0.073150776 0.01276096 0.23818803 0.71567297 0.65656585 0.0029815421
0.012796533 0.072415903 0.012335176 0.31022117 0.62490177 0.71642208 0.0035531828
0.0034185743 0.075020775 0.01218194 0.014446623 0.83438826 0.5509879 0.0024008714
0.0023325828 -0.070159927 0.016912092 0.15943165 -0.41070735 0.89771992 0.0027932185
0.0049767382 -0.06956172 0.017024076 0.21596299 -0.41828504 0.88226843 0.003045327
0.0076756151 -0.069888495 0.016225725 0.3186461 -0.3868072 0.86535817 0.0022673844
0.0095407264 -0.069409579 0.015697006 0.38878444 -0.37539923 0.84138101 0.0011611807
-0.034361634 -0.06643264 0.015800575 0.24049638 0.96485263 0.10592877 0.0006125131
-0.031117555 -0.067144424 0.016667936 0.2550115 0.96429229 0.071479827 0.0032749583
-0.028801493 -0.06760823 0.016065067 0.25722125 0.9632808 0.076988555 0.0040740329
-0.025479307 -0.068204574 0.017024983 0.15454598 0.98554939 -0.06934008 0.00040457555
-0.022285637 -0.068718016 0.016230587 0.1422347 0.98666954 -0.079073124 0.0004841664
-0.020542316 -0.068791695 0.016080562 0.16025645 0.98099846 -0.10936132 0.00081423728
0.002542228 -0.068506911 0.017978813 0.14052789 -0.38546112 0.91196036 0.0021841186
0.0047968142 -0.068422347 0.017700102 0.20618531 -0.38440397 0.89984512 0.0033524383
0.0078768618 -0.06748005 0.017323015 0.35797441 -0.31009272 0.88073653 0.001586952
0.010513193 -0.067431405 0.016100433 0.41084042 -0.30675912 0.85855049 0.0016455253
0.012477534 -0.066886663 0.015310332 0.41505399 -0.2932269 0.86124802 0.0013156431
-0.042621095 -0.063266851 0.01708081 0.35236767 0.93577492 0.012741266 0.011682496
-0.040608294 -0.06417495 0.016480617 0.33494356 0.94080251 0.051994819 0.0019196728
-0.038255773 -0.065067425 0.016727407 0.30117223 0.95125473 0.066405877 0.0016807354
0.0085339993 -0.065041594 0.017603638 0.39566275 -0.21117018 0.89378864 0.0011819778
0.010527586 -0.064676486 0.016670493 0.43564421 -0.19322972 0.87913394 0.00023817748
0.013025977 -0.064374164 0.015611378 0.44611281 -0.18932389 0.87472272 0.00019478652
-0.048623715 -0.060672075 0.016767297 -0.57745516 0.56848955 0.58597356 0.014358817
-0.045851186 -0.061966408 0.016906358 0.37632269 0.92641956 0.011316768 0.0091022514
-0.044280235 -0.062474579 0.017348135 0.36941946 0.92923182 0.0075791003 0.0098483069
0.010627921 -0.061391275 0.017262561 0.43985352 -0.15171149 0.88516241 0.00016251362
0.013391477 -0.061630771 0.015790924 0.45527154 -0.15251951 0.87719184 7.2853909e-05
0.015355164 -0.060427018 0.01528025 0.45667258 -0.14460029 0.87780464 5.2115858e-05
-0.051648047 -0.058137685 0.016096476 -0.89471942 -0.43127215 0.11611 0.022599498
0.0109015 -0.058589607 0.017564276 0.43936622 -0.11906871 0.89038187 0.00020565929
0.013496918 -0.058516722 0.016215112 0.45731631 -0.12186055 0.88091534 7.1346461e-05
0.015617067 -0.058330104 0.015275626 0.4645898 -0.11195742 0.87842011 5.6676159e-05
-0.052291531 -0.055520978 0.016300682 -0.9632743 -0.24961795 0.098961897 0.011139303
0.011409479 -0.056106776 0.017602302 0.43835995 -0.10057143 0.8931551 0.00019850006
0.013415416 -0.055361371 0.016636489 0.45981917 -0.094759516 0.8829422 0.0001113276
0.015858671 -0.055414505 0.015466746 0.47247085 -0.083086081 0.87742126 7.0351023e-05
-0.052792553 -0.052418798 0.016304124 -0.9888885 -0.1190482 0.089033596 0.0029377174
0.011675047 -0.052873563 0.01778011 0.45241636 -0.042672742 0.89078534 0.00033101291
0.01354747 -0.052503482 0.016958918 0.47635049 -0.044897731 0.87810844 0.00038155072
0.016085071 -0.05236746 0.015567288 0.48819721 -0.022419849 0.8724454 0.00055871665
-0.05292679 -0.049475979 0.016447382 -0.98318994 -0.010112386 0.18230556 0.0026314605
0.011604185 -0.048816632 0.017819406 0.47500238 0.065347612 0.87755483 0.0014781392
0.013572445 -0.049388386 0.017004682 0.49555865 0.092548802 0.86362976 0.0014911133
0.015973935 -0.049544271 0.015576774 0.51854736 0.11185699 0.84770077 0.0027493723
-0.052848864 -0.046330102 0.016506961 -0.97148663 0.12378616 0.20221424 0.004151416
0.011398697 -0.046037816 0.017514221 0.49959934 0.23290688 0.83435893 0.0026943407
0.013719942 -0.046041626 0.016262075 0.55632681 0.36216846 0.74788672 0.0038448814
0.015516876 -0.046590209 0.015245658 0.55925906 0.38327235 0.73507255 0.0030921828
-0.052273758 -0.043455888 0.017024603 -0.94080484 0.25669962 0.22134055 0.017557014
0.008974066 -0.042464312 0.017958054 0.65310144 0.1416266 0.74390888 0.01606258
0.010956968 -0.043239847 0.01700517 0.56964874 0.24790104 0.78361052 0.0038030124
0.013243747 -0.043329839 0.015387278 0.60580188 0.53311032 0.59059066 0.005188826
-0.051604874 -0.040496662 0.016421663 -0.84347689 0.49939564 0.19786569 0.028888568
-0.049793269 -0.039379824 0.017199401 -0.62316829 0.73161578 0.27640483 0.019776072
0.0088497838 -0.04071451 0.017849298 0.66694236 0.12531072 0.73449659 0.019778905
0.010611199 -0.040542275 0.016259586 0.78549516 0.33991891 0.51715803 0.016423479
0.012222743 -0.041719411 0.015130043 0.72426981 0.46172324 0.51209855 0.017731884
-0.05121715 -0.038896672 0.015507671 -0.66552961 0.71711516 0.20692091 0.030613557
-0.049214266 -0.038411897 0.016121121 -0.55403042 0.82287139 0.12622584 0.016069964
-0.046911683 -0.037230823 0.016518991 -0.62272722 0.78241628 0.0059610973 0.026244778
0.0088726031 -0.038781479 0.016659051 0.87165362 -0.16189057 0.46261376 0.050535981
0.010460593 -0.037834592 0.015890922 0.94195491 -0.31524956 0.11549269 0.053261749
-0.04584378 -0.034466393 0.016483933 -0.96520126 0.16397253 -0.20371453 0.016931076
0.011576904 -0.03573364 0.016967122 0.79810756 -0.56425518 0.21128288 0.013635026
0.013098224 -0.034146957 0.015848314 0.85869569 -0.51247853 0.0027341682 0.0061109983
-0.045847025 -0.031479757 0.016490093 -0.97673428 0.01532913 -0.21390441 0.0039710798
0.014436331 -0.031662904 0.016326535 0.916435 -0.39793372 0.042373728 0.0060130907
0.015190822 -0.030313868 0.016076069 0.93780869 -0.34546477 0.034189418 0.0088090412
-0.045858916 -0.028520206 0.016547326 -0.97649831 -0.015682362 -0.21495365 0.004972606
0.014919262 -0.029768376 0.017251894 0.95548803 -0.27752218 0.10012037 0.0032316777
0.015624781 -0.02836532 0.016339745 0.97386801 -0.22694558 0.0087657524 0.0057216571
-0.045786351 -0.025509046 0.016452648 -0.93961322 -0.091227219 -0.32985535 0.0059078573
0.016079683 -0.025518365 0.016282137 0.99712276 -0.071782306 0.024360625 0.0054147821
-0.048103407 -0.022205517 0.017247872 -0.98471302 0.0094856061 0.17392613 0.002422096
-0.046555903 -0.022167057 0.016721295 0.40480208 -0.27851215 -0.87095708 0.0029076871
0.015898015 -0.02233547 0.016586524 0.98904037 0.12939239 0.071110569 0.0031859628
-0.048100144 -0.019498527 0.01722993 -0.99759573 0.0040828963 0.069181621 0.00026665657
-0.046577763 -0.019519256 0.01638622 -0.89643919 -0.024664162 -0.44247997 0.0023434802
0.014793548 -0.018496016 0.017237991 0.9397313 0.32044312 0.11925335 0.0047749127
0.015437804 -0.019640874 0.016239559 0.9638955 0.25545526 0.075153477 0.0048953667
-0.048109364 -0.016594412 0.01736878 -0.98521984 -0.005113177 0.17121834 0.0029001008
-0.046738714 -0.016459821 0.016540341 -0.91658098 -0.010116332 -0.39972109 0.0051771859
0.014175331 -0.016474646 0.016567426 0.88885349 0.4519878 0.075142898 0.0045924019
0.015156751 -0.017726406 0.015860684 0.9300254 0.36602971 0.032788113 0.008682563
-0.048118316 -0.013529345 0.017558601 -0.98511851 0.0019013134 0.17186609 0.0028949855
-0.04675908 -0.013538082 0.016570756 -0.91800869 0.0072790263 -0.39649346 0.0055544749
0.011598432 -0.012413988 0.016386727 0.84060329 0.52930295 0.11499771 0.014578325
0.012695002 -0.013786718 0.01641614 0.8108716 0.57490015 0.10943948 0.013070318
-0.04810793 -0.010760425 0.017229501 -0.94729954 -0.027997943 -0.31912342 0.029106399
-0.046717513 -0.010525123 0.0165234 -0.91306591 -0.0098846331 -0.40769222 0.0055566654
0.010789138 -0.010848429 0.016458819 0.95180219 0.24230143 0.18804935 0.026824405
-0.048085529 -0.0072579668 0.017066047 -0.96499199 -0.0077073593 -0.26216605 0.022168826
-0.046699196 -0.007472964 0.01649715 -0.91258401 -0.0085960412 -0.4087989 0.0057887225
0.0050866511 -0.0061598052 0.017351538 0.52865553 0.75693691 0.38414827 0.17412542
0.0083796578 -0.0062382091 0.017004251 0.68591809 0.60526514 0.40394354 0.1012781
0.01048941 -0.0074027963 0.016613152 0.98728871 0.097832456 0.12525873 0.023760691
-0.048087414 -0.0043402817 0.017101754 -0.95774162 -0.015077931 -0.28723457 0.023110805
-0.046717416 -0.0044600242 0.016525054 -0.91407645 -0.0065570716 -0.40548882 0.0056983973
0.0044936719 -0.0043187519 0.017349619 0.31982422 0.67389125 -0.66602033 0.23885746
0.0083349738 -0.0048160781 0.016121119 0.9821254 0.1212383 0.14398268 0.044561941
0.010309354 -0.0047879387 0.016306952 0.98278511 0.034666955 0.18147092 0.027783349
-0.048098933 -0.0015514877 0.017241126 -0.99619418 0.035117961 -0.079774275 0.0074768215
-0.046789289 -0.0015389734 0.01655511 -0.92177302 -0.029977972 -0.3865692 0.007075367
0.0044934526 -0.0016479105 0.017331706 0.14797863 0.66694683 -0.73026317 0.16992156
0.0085003944 -0.0015501897 0.016069889 0.98736793 -0.092909247 0.1283451 0.036017325
0.010371876 -0.0013634497 0.015615252 0.9885968 -0.054512631 0.14037383 0.027400816
-0.048110053 0.0013911361 0.017430354 -0.98665982 0.01011422 -0.162481 0.0092933318
-0.047042619 0.0016257123 0.016065147 -0.91835952 -0.0092765857 -0.39563835 0.0080717392
0.010534687 0.0018555514 0.016138833 0.9866491 0.041249305 0.15755005 0.026643235
-0.048113145 0.0044540842 0.017486434 -0.97758073 -0.0028700714 -0.21054146 0.0090749934
-0.047018304 0.0044942596 0.01604107 -0.91131532 0.0025657914 -0.41170105 0.009402914
0.0024940707 0.0043616272 0.017601427 0.57012987 0.82083666 0.034339029 0.18935342
0.0042573465 0.0041559259 0.017023461 0.33434531 0.40207171 -0.85237998 0.23762947
0.0078850333 0.0042558946 0.016613653 0.8140884 0.56135386 0.14880158 0.074003607
0.010396078 0.0039894804 0.016317841 0.98261523 0.005280443 0.18557857 0.026221877
-0.048109073 0.0074533289 0.017274514 -0.98980868 -0.044114996 -0.13539824 0.0094802706
-0.047026899 0.007481629 0.016107097 -0.92053002 -0.0026857338 -0.39066267 0.0091952309
0.01054281 0.0079506161 0.016177515 0.99317104 -0.072427407 0.091463298 0.010716775
-0.048081096 0.010698922 0.017050205 -0.97331792 0.01861286 -0.22870469 0.014859257
-0.046989504 0.010545149 0.0162907 -0.92136431 -0.010016597 -0.38857105 0.010700812
0.010648656 0.01070996 0.016200729 0.95758885 -0.27866971 -0.073257282 0.026312057
-0.048089799 0.013567544 0.017150372 -0.98149997 -0.0078248195 -0.19130212 0.016771656
-0.047016874 0.013532944 0.016346926 -0.91734225 0.014027398 -0.39785212 0.010512665
0.011460166 0.012799738 0.01633862 0.89321983 -0.43835101 -0.10003357 0.022397127
0.012664971 0.014222506 0.016435495 0.878829 -0.47462621 -0.048882686 0.017990433
-0.048100926 0.016546588 0.017301328 -0.99620467 0.02874534 -0.082157977 0.0084300367
-0.046970692 0.016478283 0.016270094 -0.91900551 -0.011872385 -0.3940658 0.010582634
0.014095279 0.016599976 0.016383216 0.89787948 -0.43832275 0.041055728 0.0043768892
-0.048109859 0.019498348 0.017448632 -0.98735088 0.0044923392 -0.15848683 0.010070134
-0.046984416 0.019469775 0.016007302 -0.9167372 0.025070312 -0.39870331 0.0085590584
0.014765293 0.018412448 0.017096775 0.93065369 -0.35878402 0.071816593 0.0045837355
0.015412971 0.019761713 0.016267858 0.95617437 -0.29101172 0.03229145 0.0043158177
-0.04811389 0.021975862 0.017514298 -0.98373395 0.015217289 -0.17898603 0.009191541
-0.046995815 0.022592895 0.01619494 -0.90632653 0.033366535 -0.42125869 0.0076124137
0.015979936 0.022534244 0.016412703 0.99204379 -0.1197934 0.038712502 0.0042482009
-0.046870008 0.025516924 0.016315131 -0.940853 0.043307342 -0.33603579 0.007899832
0.016060248 0.025575995 0.016181458 0.99766582 0.052242156 0.043972831 0.0045602364
-0.046860047 0.02854329 0.016375987 -0.95890713 0.022295009 -0.28284281 0.0084958076
0.014910644 0.029953681 0.017336793 0.95919186 0.26685771 0.093477167 0.0045589083
0.015556537 0.028609622 0.01648399 0.97649843 0.20281565 0.072915025 0.0043757176
-0.046836875 0.031470619 0.016359925 -0.95868468 0.014809964 -0.28408524 0.0086006392
0.014436869 0.03191819 0.016585249 0.90322316 0.42333621 0.070529111 0.004161289
0.015177632 0.030383391 0.015753658 0.94892508 0.31017864 0.057710133 0.005784607
-0.046846244 0.034436706 0.016274884 -0.9750604 -0.077340208 -0.208028 0.020983655
0.01171909 0.035786066 0.01704618 0.79782289 0.59390843 0.10368922 0.0023902683
0.013155945 0.034318887 0.016265497 0.84669375 0.53110361 0.032226611 0.0030719449
-0.048676789 0.03855123 0.016526604 -0.77710342 -0.61389971 0.13869867 0.032409102
-0.047077511 0.036765125 0.016505046 -0.91931021 -0.37744659 -0.11136778 0.029193932
0.0089396331 0.038901314 0.017747331 0.72914046 0.30972838 0.61026442 0.01830552
0.010784768 0.037338566 0.016451709 0.88439524 0.4432196 0.14629219 0.027361473
0.012016535 0.036071904 0.015635315 0.89767641 0.42996615 0.096468702 0.027232148
-0.051599082 0.040734943 0.016187195 -0.84740132 -0.5046792 0.16495432 0.020367831
-0.048535015 0.039158087 0.01656945 -0.59065717 -0.80688769 -0.0075156735 0.0095522748
0.0087595638 0.040449165 0.017783459 0.68797863 0.14952023 0.71016133 0.034966063
0.0098889647 0.040592298 0.016723933 0.80091238 0.0038731187 0.59876889 0.027466314
-0.05226304 0.043337408 0.016372364 -0.95097899 -0.25030297 0.18162431 0.013971603
0.0086781513 0.042524278 0.017941562 0.56896132 -0.0493863 0.82088006 0.015250309
0.010418691 0.043751415 0.017160505 0.53849149 -0.172977 0.82468534 0.0038493944
0.012724781 0.04403954 0.015738856 0.57530904 -0.44377127 0.68708551 0.007735976
-0.052774772 0.046421602 0.016375992 -0.98717302 -0.1194126 0.10597181 0.003338912
0.011050234 0.04635071 0.017476005 0.47450495 -0.18473986 0.86064863 0.00068803551
0.013039907 0.046748385 0.016452879 0.49545163 -0.18996824 0.84760827 0.0011067893
0.015349166 0.047125429 0.015286695 0.55382037 -0.31536338 0.770603 0.0033934712
-0.052866638 0.049465645 0.016638717 -0.98058051 -0.01211004 0.1957428 0.0032229852
0.011563828 0.049014971 0.017737698 0.47093457 -0.086556777 0.87791151 0.0011885767
0.01345823 0.049612932 0.016828278 0.48322394 -0.086188227 0.87124401 0.001220657
0.015663847 0.049737819 0.015536568 0.50369281 -0.1032785 0.85768706 0.0017830057
-0.052821297 0.052687548 0.016660178 -0.97602826 0.13089617 0.17388166 0.0038002748
0.011395131 0.05261299 0.017797889 0.45178866 0.033286426 0.89150381 0.00039752721
0.013587726 0.052501462 0.016751494 0.47733071 0.029074686 0.87824255 0.00032019868
0.015892113 0.052602928 0.015534195 0.48831695 0.017847406 0.87248379 0.00056636549
-0.052407134 0.055782534 0.016389025 -0.95244348 0.25379306 0.16864286 0.010459445
0.011406865 0.055534512 0.017659465 0.4432607 0.088683404 0.89199501 0.00024431766
0.013546921 0.055496912 0.016532427 0.4662315 0.085684292 0.88050348 6.6030305e-05
0.015629532 0.055640418 0.015395072 0.47437495 0.079596207 0.87671709 7.0884882e-05
-0.051512241 0.058809683 0.016715046 -0.78006095 0.55066067 0.29711556 0.022957304
-0.049672224 0.059605215 0.017138988 -0.57799923 0.75318402 0.31405532 0.014962169
0.010972081 0.058594525 0.017524619 0.43941122 0.11441927 0.89096916 0.00020438622
0.013404261 0.058552664 0.016257776 0.46171862 0.11481339 0.87956458 5.1955918e-05
0.015444878 0.05816076 0.015218314 0.46524039 0.11231437 0.87803012 7.1751652e-05
-0.051277637 0.06013279 0.01554938 -0.61784327 0.74042922 0.26463971 0.020675201
-0.048781961 0.061098129 0.016381273 -0.52006751 0.82475144 0.22206941 0.010415164
-0.046360616 0.062371243 0.016703496 -0.42772156 0.88318962 0.1924327 0.0038804899
-0.044584334 0.062807865 0.017526351 -0.37801212 0.89098716 0.25149304 0.0054524285
0.0084977243 0.062894389 0.017863275 0.36140013 0.15664198 0.919159 0.00099239754
0.010564251 0.061599258 0.017276989 0.44107848 0.14659069 0.88541567 0.00014125757
0.013405444 0.06137326 0.015833858 0.45674729 0.14515226 0.87767464 7.3027019e-05
0.015231268 0.060661256 0.015212491 0.45674857 0.1430741 0.8780151 7.5091171e-05
-0.045258008 0.063080058 0.015705124 -0.39780971 0.89861315 0.18504556 0.0051393332
-0.043357093 0.063711233 0.016383981 -0.37038538 0.91483736 0.1608955 0.0042909649
-0.040533759 0.064861938 0.016343856 -0.35957322 0.92698121 0.10683182 0.0026226945
-0.038268793 0.06569805 0.016524604 -0.34905449 0.93051684 0.11090298 0.0024101462
0.0083863707 0.065004215 0.017712843 0.36915624 0.20691866 0.90603989 0.0013367271
0.010503113 0.064461954 0.016764216 0.43428907 0.1876892 0.88100278 0.00026542041
0.012999939 0.064393342 0.015496515 0.44520935 0.18401729 0.87631404 0.00012240509
-0.036732558 0.066262744 0.016230851 -0.29631799 0.9513157 0.084817439 0.0020339661
-0.034419164 0.066919371 0.016424334 -0.2589595 0.96363974 0.065866664 0.0013624915
-0.031494007 0.067602724 0.016498717 -0.23354767 0.97144234 0.041895956 0.00061196455
-0.028510755 0.068223789 0.016544396 -0.18573867 0.98151833 0.046075258 0.00036374558
-0.025713446 0.068742543 0.01638308 -0.15910085 0.98495042 0.067524679 0.00063987961
-0.023642942 0.06896244 0.017317899 -0.08999116 0.99263227 0.081134312 0.0011091522
-0.018520378 0.068941027 0.017587965 0.06458912 0.97878093 0.19446364 0.0017740544
-0.016493069 0.068813704 0.017294692 0.089534864 0.94961798 0.30034843 0.0042049666
-0.013505623 0.068593077 0.017144362 0.054591056 0.88569057 0.46105531 0.0063960967
-0.010585941 0.068485446 0.01721997 0.0092600528 0.8246851 0.56551647 0.0058009368
-0.0075194966 0.068406411 0.017432528 -0.045596451 0.70580095 0.70694125 0.0040406347
-0.0047487775 0.068533838 0.017623475 -0.068535775 0.64017856 0.76516294 0.0019189494
-0.0016889337 0.068724528 0.017800098 -0.052127812 0.58464867 0.80961025 0.0019506093
0.0016073694 0.068692014 0.017781259 0.038809586 0.50278783 0.86353821 0.0022608463
0.0049812077 0.068387747 0.017763112 0.17445391 0.4195663 0.89080298 0.0044313534
0.0076210708 0.067656778 0.017288789 0.3270058 0.33786044 0.88256299 0.0027893488
0.010441544 0.067494422 0.016049547 0.40899041 0.30942106 0.85847855 0.0017329854
0.012560965 0.066932015 0.015222006 0.41525713 0.28529736 0.86380953 0.0015076511
-0.024255142 0.069061987 0.015644966 -0.15728746 0.98542625 0.064774841 0.00049285468
