# .PCD v0.7 - Point Cloud Data file format
VERSION 0.7
FIELDS x y z normal_x normal_y normal_z curvature
SIZE 4 4 4 4 4 4 4
TYPE F F F F F F F
COUNT 1 1 1 1 1 1 1
WIDTH 554
HEIGHT 1
VIEWPOINT 0 0 0 1 0 0 0
POINTS 554
DATA ascii
-0.04367568 0.019328965 -0.010656725 -0.43687177 -0.62924647 -0.64280009 0.001248047
-0.041180026 0.018604027 -0.011593866 -0.39426857 -0.61455727 -0.68328005 0.0012779479
0.052053992 0.018849099 -0.010843493 0.42839372 -0.57794881 -0.6945892 0.00062834215
-0.051293075 0.023613978 -0.0092753544 -0.50580293 -0.65993828 -0.55555815 0.0020779613
-0.049232218 0.022907913 -0.010142885 -0.47178021 -0.63170677 -0.61511797 0.0016785236
-0.046860918 0.021966925 -0.010991213 -0.45747405 -0.62345511 -0.63405138 0.0019536794
-0.044719644 0.021150723 -0.011781102 -0.43209356 -0.59937733 -0.67382634 0.0019662371
0.055212934 0.022233209 -0.011582002 0.46614683 -0.50615144 -0.7256155 0.00094199338
0.058312077 0.023909912 -0.01052364 0.4901787 -0.42539093 -0.7607677 0.0009649382
-0.054547247 0.026479298 -0.0095556667 -0.51850343 -0.60164934 -0.60759538 0.0013481108
-0.052358139 0.02559909 -0.010417554 -0.48591462 -0.60932839 -0.62658268 0.0016810267
-0.050010562 0.024758508 -0.011376739 -0.44759855 -0.58451098 -0.67675883 0.0016474448
0.058772221 0.025718566 -0.011499745 0.50581634 -0.40923589 -0.75939173 0.0012050045
-0.057545114 0.029346125 -0.0095799612 -0.57243007 -0.56434524 -0.59484309 0.0011264685
-0.055484161 0.02856298 -0.010620795 -0.52358401 -0.52759755 -0.66895491 0.0018603554
-0.053293269 0.0275499 -0.011494432 -0.48383614 -0.57217848 -0.66220421 0.0015263312
-0.012714146 0.029920725 -0.011811176 0.19941561 0.69374824 -0.69205987 0.0011495131
-0.010194237 0.029623426 -0.011519109 0.16244572 0.70760673 -0.68768024 0.0021179467
-0.0073734052 0.029195117 -0.011301401 0.13508089 0.72016913 -0.68052161 0.0018276562
-0.0046023005 0.029022008 -0.011019557 0.10515247 0.73056459 -0.67469871 0.0013460871
-0.0013884349 0.028819531 -0.010792527 0.078191072 0.75202966 -0.65447497 0.0019993286
0.0015614493 0.028740911 -0.010636546 0.037884861 0.76765829 -0.63973868 0.0010532989
0.004483934 0.028663382 -0.010655201 -0.0029302235 0.75471181 -0.65604991 0.0020112081
0.0075520477 0.028720371 -0.010660138 -0.042289842 0.76438767 -0.64336848 0.0019451705
0.010443955 0.028861366 -0.010791835 -0.079567894 0.76994401 -0.63313121 0.0011925091
0.013399217 0.028995546 -0.011043501 -0.1159765 0.76949269 -0.62803698 0.0016959822
0.016430298 0.029348822 -0.011289418 -0.15796497 0.71957296 -0.67621142 0.0015257024
0.019018052 0.029638236 -0.011665286 -0.19177014 0.71109492 -0.67643785 0.0011280053
0.021231126 0.029934511 -0.011880305 -0.21427627 0.69849467 -0.68278176 0.0032987313
0.061431754 0.028548591 -0.011116312 0.5010699 -0.34098539 -0.79539806 0.0023295828
-0.060528994 0.032588784 -0.009446769 -0.61114269 -0.50066304 -0.61305887 0.0016847128
-0.058477834 0.031563245 -0.010465786 -0.55322045 -0.47896788 -0.68156946 0.0027737815
-0.056473345 0.030782277 -0.011537127 -0.53231817 -0.44400108 -0.7207638 0.0026461382
-0.021655291 0.032796323 -0.011889713 0.26017126 0.64375705 -0.71964419 0.0016207888
-0.01972718 0.032516617 -0.011472578 0.24633445 0.66899788 -0.70125687 0.00099648477
-0.016380958 0.031968098 -0.010796133 0.24308251 0.73727441 -0.63034695 0.0015314583
-0.013536255 0.03132819 -0.010544763 0.20495807 0.75032043 -0.62849933 0.0017060559
-0.010617686 0.030900044 -0.010185216 0.18144029 0.75885183 -0.62547845 0.0019319704
-0.0076113045 0.030628227 -0.0097192675 0.14422642 0.76669097 -0.62560672 0.0017233187
-0.0046448871 0.030274682 -0.0095616607 0.10949205 0.77668977 -0.62029392 0.0012798845
-0.0015961673 0.030144967 -0.0092169652 0.077634357 0.78095275 -0.61974651 0.0013527061
0.0015740814 0.030029589 -0.0090689119 0.041742615 0.78430653 -0.61896753 0.0011615941
0.0047489461 0.030022573 -0.0090077575 0.004157539 0.78819078 -0.61541694 0.0011060502
0.0078564873 0.030068263 -0.0090483036 -0.040175594 0.78861076 -0.61357892 0.0013320686
0.010662168 0.030093437 -0.0092747109 -0.078037977 0.79339945 -0.60367817 0.001295922
0.013742763 0.030280994 -0.0095185563 -0.11663488 0.79054713 -0.60119182 0.0016210483
0.01662025 0.030566176 -0.0098520257 -0.1680361 0.78210074 -0.60006863 0.0016206204
0.019591413 0.030958012 -0.010285708 -0.20252626 0.76874477 -0.60664201 0.0017810185
0.022434495 0.031532705 -0.010573138 -0.22669546 0.77654052 -0.58787239 0.0010686496
0.025313191 0.032088116 -0.011007252 -0.23702148 0.76143235 -0.60335863 0.0013196544
0.028104858 0.032510076 -0.011595449 -0.24583454 0.69285089 -0.67788124 0.0010974105
0.062659465 0.031911273 -0.011728993 0.48803693 -0.21012695 -0.84715205 0.0024329324
-0.063242272 0.03588422 -0.0091692237 -0.63018471 -0.42928344 -0.64697981 0.0020514694
-0.061298463 0.034763467 -0.010153804 -0.59348011 -0.38424048 -0.70720619 0.0023187499
-0.059260044 0.034163963 -0.011440332 -0.54039311 -0.35125569 -0.764588 0.0019108719
-0.027843311 0.035643637 -0.011569772 0.30041716 0.67243123 -0.67645079 0.0016237701
-0.025599433 0.035256252 -0.010932393 0.29135728 0.68801284 -0.66464227 0.0010257369
-0.022559302 0.034310706 -0.010561103 0.27729455 0.73723882 -0.61610603 0.0020983883
-0.019737752 0.033633862 -0.010165722 0.2685568 0.73360056 -0.62426555 0.0015747991
-0.016842958 0.03322532 -0.0093928389 0.2443296 0.77038884 -0.58890074 0.0011221733
0.02378577 0.033045933 -0.0091712382 -0.2397034 0.78076828 -0.57701224 0.001427969
0.025853069 0.033333126 -0.0096173314 -0.25112516 0.78301501 -0.56905514 0.0011603209
0.028606122 0.033842545 -0.010144506 -0.26161671 0.78176934 -0.56603307 0.0014552101
0.03147858 0.034527969 -0.010576344 -0.27871224 0.75873625 -0.58876038 0.0018949251
0.034265626 0.035193022 -0.011093757 -0.30550039 0.73297715 -0.6077944 0.0015620021
0.036624752 0.035701133 -0.011697593 -0.33261669 0.70447934 -0.62695682 0.001879742
0.064070031 0.034511097 -0.011473643 0.50495726 -0.17278236 -0.84567398 0.0035979953
-0.063795559 0.037903674 -0.0096776066 -0.61811435 -0.34045598 -0.7085368 0.0025713507
-0.061725568 0.037391219 -0.011061713 -0.54698473 -0.28042012 -0.78877896 0.0019420156
-0.059958253 0.036392644 -0.011929592 -0.54266351 -0.26914439 -0.79566181 0.0018292166
-0.03407605 0.038617186 -0.011494982 0.31366771 0.66738969 -0.67542839 0.0014964328
-0.031309918 0.03784287 -0.010889368 0.33066216 0.72629362 -0.60262769 0.0013464394
-0.028681047 0.037036475 -0.010410313 0.32584316 0.73825622 -0.59059632 0.0021269992
-0.02612482 0.036624528 -0.0094898464 0.31734535 0.75022948 -0.58004105 0.0011024079
0.032696083 0.036044519 -0.0091349585 -0.31761986 0.7710045 -0.55196905 0.00084191083
0.034857985 0.036507849 -0.0097441068 -0.33115277 0.75344062 -0.56803608 0.001438703
0.037626058 0.03730059 -0.010407682 -0.35438028 0.72845399 -0.58631849 0.0013821715
0.040299967 0.038120713 -0.011096084 -0.35289034 0.66900319 -0.65414315 0.001036291
0.042505059 0.03867026 -0.011779736 -0.35392237 0.65055603 -0.67194933 0.0020824417
0.064725935 0.037948549 -0.01160065 0.47156882 0.010184481 -0.88177049 0.0013110666
-0.066225022 0.041536458 -0.0090967715 -0.65057969 -0.25257406 -0.71620697 0.002905502
-0.064447306 0.040658176 -0.010148772 -0.57411259 -0.21883884 -0.78898948 0.0040277857
-0.062240843 0.040333007 -0.011554615 -0.49467626 -0.14114521 -0.85753918 0.0026587753
-0.040141713 0.041497365 -0.011529687 0.28766146 0.62765616 -0.7233938 0.0014306725
-0.037726577 0.040702786 -0.01114234 0.31171879 0.67978781 -0.66386741 0.00099461107
-0.034751717 0.040041596 -0.010235626 0.35378397 0.71376586 -0.60446274 0.0014653937
-0.032178789 0.039355319 -0.0095492937 0.35941172 0.74172169 -0.56627917 0.0010627959
0.038969815 0.039100129 -0.0092097959 -0.40819806 0.71598303 -0.56634152 0.00097418099
0.040799145 0.039601672 -0.0097344685 -0.40615651 0.7129032 -0.57166946 0.0015847931
0.043498974 0.040412098 -0.010532339 -0.3609108 0.66662633 -0.65219069 0.00091491453
0.046237368 0.041249774 -0.011224817 -0.32725462 0.63929689 -0.69584763 0.00093378878
0.048521016 0.041714545 -0.011809023 -0.26417381 0.62775707 -0.73221123 0.0023287144
0.064202592 0.040480621 -0.011964842 0.43088123 0.086182714 -0.89828384 0.0033149358
0.066985354 0.041235235 -0.010144247 0.45300934 0.11004338 -0.88468814 0.0017107658
-0.066455454 0.043795455 -0.0093502132 -0.60852927 -0.12417553 -0.78375536 0.0035152964
-0.064517654 0.043531161 -0.010585184 -0.49653149 -0.05149471 -0.86648989 0.0035339359
-0.062392876 0.043619793 -0.01170804 -0.41543454 0.015664766 -0.9094882 0.0038378742
-0.048594773 0.04489262 -0.011853844 0.22427565 0.60471064 -0.76421553 0.0017678561
-0.046259213 0.044406176 -0.011469918 0.26017642 0.62704319 -0.73425132 0.0013370496
-0.043562118 0.043502029 -0.011133306 0.28757754 0.62816471 -0.72298563 0.0012097763
-0.040949579 0.042701047 -0.010645655 0.32738259 0.67174643 -0.66451281 0.0012722117
-0.038213767 0.04229138 -0.0095748212 0.36550808 0.72449714 -0.58438659 0.0011253837
0.044628549 0.042204905 -0.0092557771 -0.42855993 0.70023429 -0.57097143 0.0016339362
0.046776365 0.042876523 -0.009880879 -0.39117432 0.67250043 -0.628272 0.001647422
0.049454615 0.043550119 -0.010596111 -0.30494124 0.6312114 -0.71315002 0.00085165648
0.052298803 0.04417922 -0.011239602 -0.26353803 0.60675591 -0.74993002 0.0017535571
0.055142637 0.044686899 -0.011751086 -0.17958556 0.5570097 -0.81085712 0.0021528092
0.062183999 0.044735849 -0.01184928 0.17764129 0.27942446 -0.94359183 0.0059509086
0.064327136 0.0436676 -0.011485057 0.39828685 0.17926422 -0.89957321 0.0039620697
0.066957086 0.043605011 -0.010075534 0.43271708 0.15845414 -0.88749552 0.0016836491
-0.066660173 0.046553265 -0.0093724998 -0.53945953 0.029770575 -0.84148514 0.0050245444
-0.064592339 0.046526432 -0.010464023 -0.39540285 0.14457126 -0.90705884 0.0067944438
-0.061723948 0.046619624 -0.011483777 -0.2932657 0.21265578 -0.93207979 0.0047901762
-0.058707491 0.047335103 -0.011698606 -0.032848053 0.42877847 -0.9028123 0.003731346
-0.055492524 0.047323216 -0.011596873 0.08901038 0.51203352 -0.85434115 0.0030112963
-0.052486151 0.047061305 -0.011252978 0.17542006 0.59126365 -0.78716898 0.0019699305
-0.049576212 0.046510547 -0.010813888 0.23347101 0.6162765 -0.75212663 0.000752186
-0.046940017 0.045748744 -0.010457002 0.2784875 0.6509214 -0.70621955 0.0011589645
-0.044153601 0.045313038 -0.0095177069 0.34992439 0.6954639 -0.62760091 0.0020195069
0.050287936 0.045320999 -0.0092781968 -0.37323505 0.672589 -0.63899893 0.0018423364
0.052693997 0.046021208 -0.0098253703 -0.32737279 0.65587622 -0.68018633 0.0016782681
0.055473205 0.046538103 -0.010480651 -0.23521505 0.58791387 -0.77397102 0.001984257
0.058365267 0.04660077 -0.01111967 -0.10944393 0.50128484 -0.85833293 0.0025196802
0.0613815 0.04660362 -0.011250782 0.019992923 0.45280683 -0.89138448 0.0042283488
0.064417094 0.046547174 -0.010696581 0.28131899 0.30741686 -0.90904045 0.0072697448
0.066995077 0.046437591 -0.009626735 0.4166109 0.21945393 -0.88219917 0.0028560432
-0.066455573 0.0489011 -0.0092402082 -0.38094994 0.22175787 -0.89760828 0.0085681435
-0.064493395 0.049475383 -0.0098096989 -0.26086393 0.2967253 -0.91864252 0.0061767162
-0.061522219 0.049468338 -0.010406044 -0.13035792 0.42994702 -0.89339375 0.0068267998
-0.058516931 0.049460817 -0.010480702 0.075311072 0.56669587 -0.8204779 0.0029330414
-0.055607054 0.049279299 -0.010221828 0.1506258 0.61384517 -0.77492321 0.0025983888
-0.052526519 0.048758339 -0.0098088877 0.21653949 0.65515345 -0.72379869 0.0019404137
-0.050359931 0.048379246 -0.0093471166 0.31100681 0.67443323 -0.66963762 0.0016421066
0.056072842 0.048270423 -0.0092947287 -0.30091003 0.63628775 -0.71034575 0.0022199673
0.058645729 0.048878599 -0.0096424911 -0.19413614 0.58568084 -0.78694922 0.0039432365
0.06151009 0.049353778 -0.009795092 -0.074058153 0.52416736 -0.84838897 0.0042854096
0.064237118 0.049523998 -0.0096297134 0.071716949 0.4393363 -0.89545536 0.0053815669
0.066387288 0.048678443 -0.0093670823 0.37545598 0.26747295 -0.88740695 0.0045729917
-0.063896306 0.051278066 -0.0091704177 -0.17791893 0.42397833 -0.88802433 0.0088648703
-0.061487388 0.051326659 -0.0093010822 -0.013977786 0.5780189 -0.81590366 0.0045008478
-0.058832895 0.051277231 -0.0091972295 0.1010117 0.64749271 -0.75534743 0.0028452128
-0.0097024981 0.0026773829 -0.0060959556 -0.16701232 -0.91024184 -0.37890208 0.0018908451
-0.0076961922 0.00262342 -0.0066459472 -0.11582283 -0.86959159 -0.47999537 0.0017188378
-0.0043094787 0.0023558759 -0.0068336613 -0.078194283 -0.8717469 -0.48367649 0.0017301658
-0.0015052838 0.0024096628 -0.0073192311 -0.058909655 -0.8635478 -0.50081432 0.0023916606
0.0015006706 0.0022567085 -0.0073138871 -0.040498082 -0.86643028 -0.49765298 0.0021916777
0.0045028189 0.0022093577 -0.0073136198 -0.030716857 -0.86556661 -0.49985096 0.0020539891
0.0074454895 0.0023034795 -0.0074341325 0.024618777 -0.87829369 -0.47748727 0.0018219645
0.01046792 0.0024222618 -0.0073262993 0.062643342 -0.88027829 -0.4703041 0.0014579352
0.013508587 0.0024976544 -0.0069723851 0.082355246 -0.88095909 -0.4659707 0.0016417741
0.016381847 0.0026514425 -0.0066229478 0.11668077 -0.87175018 -0.47585413 0.0012696204
-0.021469753 0.0058641182 -0.0062553044 -0.32372293 -0.83796394 -0.43934041 0.0017166249
-0.019527599 0.0055599995 -0.0069741337 -0.27609727 -0.84842956 -0.4515945 0.00099178369
-0.016555941 0.0049847746 -0.0075307032 -0.23225258 -0.83698434 -0.49549565 0.0017657491
-0.013460755 0.0042617647 -0.0076152273 -0.19159031 -0.83813149 -0.51071393 0.0019030208
-0.010554636 0.0038143992 -0.0078811329 -0.15607765 -0.83000648 -0.5354709 0.0018082133
-0.0079915589 0.0035443897 -0.0081551494 -0.12293479 -0.82023573 -0.55865949 0.0012367816
-0.0047064153 0.0032907487 -0.0083860308 -0.093158923 -0.80276513 -0.58897328 0.00095993397
-0.0015549716 0.0034355666 -0.0089445533 -0.066348948 -0.82976699 -0.55415213 0.0026298643
0.0044897934 0.0032055515 -0.0089392755 -0.0092635797 -0.85526288 -0.51811171 0.0024038048
0.0075968131 0.003077229 -0.0087074386 0.020532113 -0.83983034 -0.5424605 0.0012742833
0.011646686 0.0034160484 -0.0089079775 0.053291973 -0.81169158 -0.58165002 0.00086801214
0.013649411 0.003324362 -0.0085156364 0.081262507 -0.85613495 -0.51032281 0.0017701996
0.016700273 0.0034354071 -0.0080773141 0.11496835 -0.85616547 -0.50374895 0.0012411532
0.01934639 0.0037127535 -0.0078459596 0.12576716 -0.85119933 -0.50955105 0.0011586247
0.022268971 0.0042374725 -0.0078036236 0.15898927 -0.84511137 -0.51040101 0.0011427627
0.025301879 0.004938297 -0.0078771189 0.20103534 -0.84591812 -0.49397099 0.0013234185
0.028516946 0.0055369525 -0.0073783272 0.22041018 -0.84495664 -0.48730657 0.0010034462
-0.027892113 0.0086931186 -0.0069577163 -0.32947585 -0.82482469 -0.45946699 0.0018952013
-0.025420696 0.0080666952 -0.0075233765 -0.30916041 -0.81501007 -0.49008 0.0016370071
-0.022661164 0.0071512498 -0.0077528097 -0.2979548 -0.80925393 -0.50629145 0.0017482567
-0.019954994 0.0064687273 -0.008252779 -0.27083412 -0.81210917 -0.5168438 0.0019690471
-0.017512104 0.0060119117 -0.0087853866 -0.21654508 -0.80999434 -0.54499298 0.0015152177
0.029235445 0.0064775506 -0.0087780431 0.22574171 -0.82552248 -0.51725554 0.0016513129
0.031127954 0.006637149 -0.0080109118 0.25579724 -0.82913399 -0.49709624 0.0012062963
0.034611981 0.0077749267 -0.0078896033 0.29057282 -0.78697747 -0.54427373 0.00077558029
0.038270377 0.0089079142 -0.0073878681 0.32330391 -0.77737296 -0.53959799 0.00042339016
-0.036142681 0.011870978 -0.0062480457 -0.38330868 -0.81835425 -0.42821831 0.00080095988
-0.034195043 0.011420417 -0.0071319435 -0.36281911 -0.81422561 -0.45320967 0.0014924794
-0.031480156 0.010521226 -0.0075826859 -0.33557433 -0.81224805 -0.47711945 0.0019573546
-0.028790928 0.0096941171 -0.0080385804 -0.32095411 -0.8056246 -0.49795336 0.0023547194
-0.026799779 0.0092615662 -0.0085975593 -0.30659959 -0.78546864 -0.53762043 0.0014591338
0.04052363 0.010390207 -0.0083333496 0.32988992 -0.7572 -0.56375593 0.00066339556
-0.040097691 0.014326015 -0.0071244091 -0.44600347 -0.77189893 -0.45304859 0.0012551227
-0.037599646 0.013245087 -0.0075424719 -0.40924171 -0.79507059 -0.44764265 0.0013170362
-0.034996815 0.01253477 -0.0084102172 -0.34992087 -0.77042699 -0.53291428 0.0014855586
0.043932695 0.012343189 -0.0088510998 0.36304635 -0.71106017 -0.60215515 0.00098532951
-0.045578521 0.017643671 -0.0068008867 -0.51042211 -0.73485512 -0.44660634 0.00093730161
-0.043406121 0.016588146 -0.0074967807 -0.48093501 -0.74095142 -0.46871361 0.0014062694
-0.041120566 0.015516689 -0.0081333928 -0.45349407 -0.76116341 -0.46365216 0.0014763139
-0.048873462 0.020229671 -0.0070753004 -0.55183744 -0.70414579 -0.44682682 0.0015649165
-0.04663825 0.019117508 -0.0078367768 -0.50265491 -0.69468373 -0.51454097 0.0018771676
-0.044665739 0.018262167 -0.0087044965 -0.48411977 -0.67922634 -0.55161542 0.0014509524
-0.054260213 0.023786737 -0.0061121159 -0.55645144 -0.71522039 -0.42287317 0.00047471045
-0.052858192 0.023247486 -0.0070221685 -0.54761219 -0.6951685 -0.46568409 0.0014140066
-0.050017267 0.021723351 -0.0079703322 -0.52650356 -0.6997208 -0.48289213 0.0013276339
-0.057501525 0.026705537 -0.0065823188 -0.59545058 -0.65845245 -0.46030313 0.0010384922
-0.055625062 0.02577843 -0.0075220685 -0.57143229 -0.67654335 -0.46449345 0.0011596454
-0.053330805 0.024477923 -0.0083150649 -0.51778752 -0.65150714 -0.5544678 0.0010970149
-0.060525846 0.029657224 -0.0064630546 -0.64941019 -0.59834445 -0.46930829 0.00092674955
-0.058546562 0.028535655 -0.0076112673 -0.62138343 -0.60813963 -0.49401304 0.0020850149
-0.056669932 0.027577391 -0.0086389212 -0.56906533 -0.59473449 -0.56785166 0.00147806
0.0046151699 0.029949326 -0.0089601427 0.01261109 0.78790295 -0.61567032 0.0011651653
0.0074146222 0.029996805 -0.0089243222 -0.037277497 0.79034442 -0.61152774 0.0013077011
-0.063211203 0.032673344 -0.0064192032 -0.68468547 -0.53300488 -0.49710321 0.0011831698
-0.061453063 0.03162716 -0.0074986503 -0.67251951 -0.55225807 -0.4926748 0.0020943352
-0.05973801 0.030515425 -0.0084436275 -0.62276542 -0.55624813 -0.5502283 0.0010961046
-0.01286014 0.032667223 -0.0085108951 0.23030514 0.80344361 -0.54903358 0.0021974002
-0.010331655 0.032444905 -0.0078920061 0.19651385 0.83204216 -0.51873708 0.0020542496
-0.007481616 0.031980406 -0.0076570087 0.16314226 0.85462642 -0.4929485 0.0016690468
-0.0045366548 0.03149787 -0.0076884427 0.12284389 0.85603762 -0.50210446 0.0024184471
-0.0014241976 0.031212673 -0.0075216834 0.088101096 0.86320585 -0.49710548 0.0021831216
0.0014902349 0.030962216 -0.0075846813 0.039787982 0.86903358 -0.49315059 0.0022035039
0.0044863019 0.03090346 -0.0075368895 0.0040261177 0.87239712 -0.48878124 0.0020491465
0.0075154379 0.03096102 -0.0074939877 -0.040267628 0.87248516 -0.48697859 0.0021634167
0.010517051 0.031131633 -0.0075719678 -0.078590415 0.87382871 -0.47984052 0.0019174308
0.013494141 0.031482324 -0.0075169131 -0.13002047 0.86146164 -0.49089557 0.0021724801
0.016463779 0.031981274 -0.0075709908 -0.18678986 0.86769313 -0.46067151 0.0017054399
0.019243902 0.032470107 -0.0079176063 -0.2197102 0.84899956 -0.4805488 0.0015576013
0.021664664 0.03277747 -0.0085505061 -0.24572289 0.81892651 -0.51863235 0.0010188614
-0.064051062 0.034775149 -0.0073250993 -0.69302309 -0.48438826 -0.53393537 0.0025834413
-0.062495261 0.033833642 -0.0083810464 -0.63956863 -0.46193492 -0.61446577 0.0015769936
-0.022035593 0.035743564 -0.0083212219 0.31238666 0.7988162 -0.51410824 0.0014373139
-0.0193129 0.035055958 -0.0078000063 0.29487014 0.82775337 -0.47736362 0.0022610109
-0.016267397 0.034105379 -0.0077214777 0.25336522 0.8245641 -0.50586563 0.0017190162
-0.013846644 0.033485185 -0.0076056928 0.23078483 0.83368915 -0.50169796 0.0017063093
-0.011094744 0.033319924 -0.0065826713 0.20099306 0.85519385 -0.47775012 0.0015813863
0.019968549 0.033367801 -0.0065856311 -0.22311583 0.87665504 -0.42625728 0.001282962
0.022682985 0.033755217 -0.0072890907 -0.23871265 0.85875565 -0.45338178 0.0017354036
0.025516408 0.034454379 -0.0075896848 -0.26133418 0.85523099 -0.44753146 0.0018724872
0.028301448 0.035256386 -0.0077725672 -0.29302582 0.84626561 -0.44493866 0.0015259958
0.030578772 0.035621438 -0.0085758446 -0.30853465 0.81393164 -0.49226177 0.0016778968
-0.066653281 0.03810893 -0.0068142489 -0.71054482 -0.42356378 -0.56188953 0.0024194096
-0.06516353 0.037310701 -0.0079992525 -0.69494647 -0.38930079 -0.60456133 0.003200636
-0.02850385 0.038466744 -0.0083227959 0.3564232 0.77608514 -0.52024454 0.0015127209
-0.025382727 0.037444361 -0.0076873684 0.34232357 0.79869103 -0.49488097 0.0015323614
-0.022645362 0.03670013 -0.0070241913 0.3253172 0.82076514 -0.46958843 0.0015046471
-0.020164732 0.03609335 -0.0063587399 0.30675548 0.84028339 -0.44701782 0.0015671075
0.029214472 0.036169574 -0.0066188681 -0.30211809 0.85979688 -0.41167209 0.0016136471
0.031658117 0.036683802 -0.0073165093 -0.31359494 0.84234947 -0.43829861 0.0017838849
0.034538165 0.037735764 -0.007557319 -0.37016556 0.81320751 -0.44907808 0.0026140625
0.036822915 0.038461771 -0.0082224049 -0.42295578 0.77390438 -0.47136024 0.0021842995
-0.069031842 0.041817151 -0.0062589417 -0.72913408 -0.34382278 -0.59173429 0.0054832851
-0.067413054 0.040712934 -0.0074924664 -0.71593481 -0.29636592 -0.6321429 0.0025253769
-0.065776639 0.039635118 -0.008724072 -0.67649812 -0.29248521 -0.67587191 0.002244042
-0.036331628 0.04197916 -0.0086902101 0.4008688 0.77501106 -0.48853055 0.0018280508
-0.034385957 0.041382082 -0.0081052892 0.39285576 0.77445489 -0.49586681 0.00079938793
-0.031561866 0.040253945 -0.0076766917 0.37063852 0.78069383 -0.50313437 0.0012089543
-0.028889991 0.039370496 -0.0069973553 0.36836168 0.78950363 -0.49091107 0.00086382544
0.035940476 0.03912992 -0.0061735935 -0.47579825 0.80815399 -0.34713575 0.0031844047
0.037882283 0.039626148 -0.0071981475 -0.43604317 0.78612608 -0.43803209 0.0019192348
0.040396079 0.040848341 -0.0076023662 -0.45303196 0.77133852 -0.44698873 0.0019023322
0.04257546 0.041548967 -0.0085168211 -0.4385483 0.71789825 -0.54064548 0.0017401086
-0.069449842 0.043751061 -0.0065187304 -0.73561865 -0.23493679 -0.63535017 0.0028563633
-0.067943543 0.043462943 -0.0080011254 -0.65773481 -0.16947298 -0.7339372 0.0023084192
-0.042130932 0.044971447 -0.0086099673 0.40862575 0.76771128 -0.49360353 0.0024320139
-0.039996065 0.044277873 -0.0080316989 0.4004803 0.76037621 -0.51131552 0.00094367447
-0.037550598 0.043187615 -0.0077584712 0.37390849 0.77864027 -0.50389659 0.00072791288
-0.035514668 0.042424928 -0.0072915438 0.38997626 0.776622 -0.49474925 0.00080178917
0.041621912 0.042242885 -0.0064724605 -0.47610083 0.76083326 -0.4409771 0.00098149432
0.043659162 0.042989686 -0.0073109646 -0.45893696 0.76000255 -0.46018803 0.0019264235
0.046193209 0.044187993 -0.0078214556 -0.43237844 0.74551833 -0.50719953 0.0020073815
0.048427511 0.044751972 -0.0087930672 -0.39777634 0.70042831 -0.59259951 0.0021767716
-0.06979578 0.04657821 -0.0068456293 -0.68839562 -0.11716568 -0.71580976 0.0048625343
-0.068154536 0.046505224 -0.0083123902 -0.59698254 -0.048208985 -0.8008045 0.0030595704
-0.04840304 0.047858227 -0.0088913944 0.32583931 0.72364241 -0.60841638 0.002587415
-0.046300083 0.047331043 -0.008299496 0.35952058 0.73511392 -0.57476306 0.002433829
-0.043565717 0.046348289 -0.0077009387 0.39271528 0.76712239 -0.50724548 0.001133489
-0.041067742 0.045478784 -0.0070087342 0.39695099 0.77229184 -0.49597901 0.0011485093
0.047241464 0.045534551 -0.0067489054 -0.45823357 0.74551755 -0.48396853 0.0019574086
0.049501862 0.046380252 -0.0074490961 -0.40316182 0.75534678 -0.516635 0.0016219672
0.05207935 0.047268931 -0.0081918268 -0.36664957 0.69647646 -0.61683762 0.0020582748
0.054446951 0.047965892 -0.0087150224 -0.33280885 0.68323535 -0.64994448 0.0013807127
0.068312973 0.046373442 -0.0087434743 0.41730431 0.21309461 -0.88342953 0.0030244021
-0.070087396 0.049510688 -0.0068703978 -0.62323505 -0.017722256 -0.78183377 0.0091464939
-0.06781166 0.049701259 -0.008379438 -0.47858873 0.089229725 -0.87349349 0.0063172835
-0.065859601 0.05085738 -0.0089254696 -0.22572264 0.30647933 -0.92472678 0.0083557693
-0.054928172 0.05075499 -0.0087376703 0.21421881 0.68833822 -0.69303733 0.0026932014
-0.052346516 0.050007522 -0.0084506003 0.24457824 0.68647391 -0.68478829 0.002049064
-0.04963211 0.049431156 -0.0076359799 0.34503818 0.75839061 -0.55298501 0.0017337851
-0.047049861 0.048555702 -0.0070729242 0.37646237 0.76363349 -0.52453786 0.0016883627
0.050655805 0.048046298 -0.0061728647 -0.44305333 0.7381773 -0.50872195 0.0015467651
0.052891809 0.048741262 -0.0069991867 -0.42366472 0.71900678 -0.5509423 0.0027663596
0.055418342 0.049630817 -0.0076284762 -0.35024908 0.69973505 -0.62265277 0.0023728169
0.058299273 0.050314605 -0.0083440701 -0.26691645 0.65500224 -0.70691425 0.0026373069
0.060998168 0.050742786 -0.0088229142 -0.15529162 0.56184483 -0.81253612 0.004971148
0.065272763 0.050818004 -0.0088920109 0.12485249 0.42113307 -0.89836454 0.015540726
0.067414269 0.049759489 -0.0085191708 0.32885858 0.27758342 -0.9026624 0.0058629154
0.069164149 0.049254548 -0.0076057725 0.35935962 0.26051551 -0.89609838 0.0041095088
-0.070214815 0.05256464 -0.0067292438 -0.47873914 0.095369235 -0.87276202 0.010458991
-0.067548819 0.052504834 -0.0078634722 -0.272627 0.28648791 -0.91847652 0.014521524
-0.064651906 0.052629288 -0.0083106337 -0.049879849 0.48700157 -0.8719756 0.0088497074
-0.061525118 0.052871834 -0.0080419732 0.079143055 0.6383118 -0.76569861 0.0039816387
-0.058624577 0.052677248 -0.0077554323 0.16158801 0.7196914 -0.67522866 0.0029282088
-0.055931013 0.052057292 -0.0076421965 0.23240849 0.73050022 -0.64214933 0.0019253381
-0.052910358 0.051567771 -0.00678882 0.34732389 0.75961828 -0.54986012 0.0013987911
0.056529164 0.051351104 -0.0063255415 -0.41751996 0.71812552 -0.55675203 0.0025678556
0.058685139 0.051956892 -0.0069165393 -0.33682567 0.6996119 -0.63015211 0.003039758
0.06142376 0.052538905 -0.0075209141 -0.28014347 0.61998552 -0.73289675 0.0034857439
0.064368181 0.052621111 -0.0080711385 -0.063280985 0.49261218 -0.86794519 0.0079523334
0.067352399 0.052465335 -0.0077127116 0.22924529 0.33977446 -0.91214031 0.0084289052
0.069316849 0.0534859 -0.0065783057 0.18941674 0.31579244 -0.92972922 0.0061975587
-0.070173196 0.055246145 -0.0063431091 -0.25652653 0.31964371 -0.91215241 0.013757926
-0.067592554 0.055358902 -0.0067515783 -0.10130995 0.42016175 -0.90177625 0.0087655233
-0.064692788 0.055012584 -0.0068112821 0.09868028 0.56264484 -0.82078803 0.0092195561
-0.061789054 0.054504994 -0.0065633729 0.16546564 0.67323339 -0.72067881 0.0059833811
-0.059514884 0.054039143 -0.0063740178 0.20579812 0.73427188 -0.64690959 0.0022413239
0.062331855 0.054386992 -0.0064010727 -0.34670618 0.62237978 -0.70173943 0.0060862279
0.064564012 0.055121507 -0.0066568167 -0.23002256 0.52100646 -0.8219744 0.01022908
0.067117125 0.055536199 -0.0066995346 -0.078845739 0.39666727 -0.91457003 0.012163504
0.0693831 0.055070639 -0.0061484687 0.10303175 0.29567954 -0.94971472 0.010623259
0.067046002 0.057303268 -0.0060416027 -0.13858174 0.36666721 -0.91997296 0.017472031
-0.013356549 0.0027193762 -0.0044234917 -0.20569268 -0.91054678 -0.35860172 0.0026799343
-0.0099125644 0.0023439997 -0.005241069 -0.17968512 -0.89892066 -0.39956853 0.002583548
-0.0075433697 0.0018014 -0.0047469758 -0.12916818 -0.93427598 -0.33233115 0.002024207
-0.0044596926 0.0013353599 -0.0044260891 -0.10958096 -0.92284042 -0.36926621 0.0022021104
-0.0015283857 0.0011056584 -0.004451307 -0.063914008 -0.91066569 -0.40817046 0.0010090036
0.0014352378 0.00096061453 -0.0044236146 -0.01992745 -0.91032839 -0.41340676 0.0011849914
0.0041494775 0.0008747945 -0.0042445408 0.0026307751 -0.91372198 -0.40633148 0.00092766259
0.0074423118 0.0012694316 -0.0052103018 0.023126265 -0.91902596 -0.39351815 0.0014163869
0.010309476 0.0012121345 -0.0046030092 0.043447614 -0.91972399 -0.39015406 0.0011827492
0.013615814 0.0015746881 -0.0047586332 0.07544288 -0.91306603 -0.40077278 0.00069716817
0.016750351 0.0020813458 -0.0051366095 0.11668079 -0.87175024 -0.47585419 0.001269673
0.019523107 0.0027399249 -0.0057525896 0.14542483 -0.88120699 -0.44980645 0.00093488779
-0.024323337 0.005846336 -0.003417185 -0.33986133 -0.903862 -0.25986096 0.0018967075
-0.022411063 0.0055054184 -0.0045504421 -0.31789282 -0.89443135 -0.31454206 0.0020618024
-0.019553564 0.004490817 -0.004503197 -0.28402135 -0.90279043 -0.32295713 0.0021066274
-0.016682688 0.003739458 -0.0049004452 -0.25703657 -0.90340573 -0.34320587 0.0018361711
-0.013851257 0.0032854895 -0.005567302 -0.22149251 -0.91015726 -0.35007828 0.0020894378
0.024604077 0.0037867948 -0.0057372833 0.20009229 -0.87299645 -0.44479248 0.00038006596
0.028392505 0.0046319254 -0.0053501353 0.22933868 -0.85040772 -0.47350869 0.00067924004
-0.030892631 0.0087254327 -0.0041316599 -0.35711795 -0.88164568 -0.30849272 0.0019101356
-0.028538661 0.0079614324 -0.0046810675 -0.34562144 -0.88149709 -0.32172772 0.0022244812
-0.025760528 0.0068554217 -0.0047309939 -0.36121607 -0.88013059 -0.30804724 0.001997876
-0.023573585 0.0063153398 -0.0055674938 -0.34224331 -0.86253411 -0.37269881 0.0025553582
-0.037114367 0.01151152 -0.0042421436 -0.41949606 -0.86533678 -0.2742542 0.0018716648
-0.034550279 0.010447192 -0.0045795916 -0.38887426 -0.86665505 -0.31254745 0.0016636718
-0.032202065 0.0095030963 -0.0048027318 -0.36504978 -0.87480426 -0.31852186 0.0018445693
-0.042759724 0.014538713 -0.0041509559 -0.49053302 -0.81514388 -0.30808738 0.0018137631
-0.040471248 0.013354298 -0.0045510042 -0.47543454 -0.82481939 -0.30599838 0.0019464425
-0.038322203 0.012435887 -0.0052534249 -0.4315097 -0.85162032 -0.29756024 0.0020475485
-0.046320952 0.017064441 -0.0044515235 -0.5512712 -0.78021991 -0.29556221 0.0022675749
-0.044049468 0.015643438 -0.0048433207 -0.51552898 -0.80015337 -0.30656901 0.0021186823
-0.051353551 0.02057822 -0.0038209304 -0.5789541 -0.76562208 -0.28041926 0.0014871622
-0.049772236 0.019806366 -0.0048389849 -0.56241918 -0.7499994 -0.34811726 0.0010351156
-0.047636732 0.018332979 -0.0052740127 -0.56668597 -0.76840669 -0.29735214 0.0016807616
-0.054858513 0.023365464 -0.004239467 -0.58467549 -0.75535667 -0.29595751 0.001652675
-0.053056609 0.022332134 -0.0049976539 -0.57543278 -0.73832166 -0.35179278 0.0014951891
-0.050879344 0.021091623 -0.0059420862 -0.5716691 -0.72825295 -0.37794447 0.0019492973
-0.058163386 0.026242873 -0.0045742975 -0.62684321 -0.68537045 -0.37058714 0.0015317179
-0.056317616 0.024842551 -0.0049829599 -0.60434693 -0.71835804 -0.3445673 0.001079519
-0.061140109 0.029089071 -0.0044193231 -0.68314111 -0.63200819 -0.36590147 0.0016880026
-0.059422772 0.02758714 -0.004922092 -0.65513444 -0.66702789 -0.35478547 0.0014172416
-0.063813083 0.0321173 -0.0044039339 -0.72513592 -0.58054519 -0.37033135 0.0018617898
-0.062409487 0.030731658 -0.0048493966 -0.70843619 -0.61192155 -0.35166782 0.0017788907
-0.0066035436 0.032828107 -0.0056777196 0.1592887 0.90303105 -0.39895123 0.0021037774
-0.0043990668 0.03269241 -0.0052426173 0.13584374 0.91583067 -0.37788981 0.0029686794
-0.0014860574 0.032568309 -0.0045717838 0.10876897 0.9333213 -0.34217042 0.0020219015
0.0014518887 0.032286618 -0.0047171894 0.055856325 0.93964654 -0.33755663 0.0023633775
0.0043873363 0.032208141 -0.0046847276 0.012800953 0.94493502 -0.32700762 0.0026174188
0.0075293798 0.032250579 -0.0046215528 -0.030400191 0.94700664 -0.31977209 0.002849248
0.010478211 0.032419797 -0.0046788929 -0.093245812 0.94093847 -0.32548437 0.0026381873
0.013408672 0.03267993 -0.0048065749 -0.13200469 0.93727177 -0.32263979 0.0023944702
0.016036851 0.032877531 -0.005529827 -0.19785979 0.92575151 -0.32223549 0.0023640078
-0.066462122 0.03543492 -0.0042119664 -0.75880635 -0.5356003 -0.37060124 0.0022424308
-0.06516847 0.034104969 -0.0048211352 -0.74185836 -0.5741902 -0.34634066 0.0018614874
-0.018435508 0.035817865 -0.0056178104 0.28343761 0.90837789 -0.30742931 0.0025099325
-0.016556269 0.035391055 -0.005129443 0.27927485 0.88868976 -0.3636429 0.0016796136
-0.013384935 0.034673095 -0.0046489374 0.22835371 0.89807278 -0.37592548 0.0014860044
-0.010373538 0.033816278 -0.0050278078 0.20972249 0.89584059 -0.39177307 0.0012930186
-0.0075825187 0.033430945 -0.0045205094 0.1747441 0.9144336 -0.36506939 0.0017961491
-0.0047593578 0.033273991 -0.0036000696 0.13474095 0.93765432 -0.32038933 0.0011300676
-0.0028284998 0.033012021 -0.0035197316 0.093674369 0.9505403 -0.29613894 0.0026430471
0.013965193 0.033151653 -0.0034984136 -0.12868817 0.95870358 -0.25362727 0.0017019376
0.016808832 0.033480942 -0.0041914736 -0.19277239 0.93887436 -0.28522566 0.0022284868
0.019550368 0.034036133 -0.0045663225 -0.22661427 0.92979372 -0.29005113 0.0019314336
0.022525802 0.034843322 -0.0045501799 -0.27340257 0.91425008 -0.2989946 0.0017627344
0.025105247 0.035489637 -0.0049341093 -0.3014228 0.90845197 -0.28958473 0.0017394171
0.027274294 0.035917468 -0.0056243828 -0.28131893 0.90940535 -0.30633572 0.0023132067
-0.069113478 0.038704921 -0.0032483751 -0.80736738 -0.46541768 -0.36269039 0.0025101718
-0.067694999 0.037524719 -0.0045936746 -0.77807808 -0.50734389 -0.3704007 0.0030463364
-0.065856576 0.036000334 -0.0059305006 -0.72885215 -0.52731395 -0.43670884 0.0026139934
-0.025039464 0.038568404 -0.0048156604 0.38708344 0.87648237 -0.28626063 0.0014787483
-0.02250571 0.037622355 -0.0046236399 0.34854853 0.88026369 -0.32194707 0.0023941956
-0.019723983 0.036639679 -0.0044570114 0.31045637 0.9059366 -0.28791639 0.0022723735
-0.017555013 0.036128104 -0.0038886471 0.2847397 0.90148944 -0.32594502 0.00069346861
0.026218301 0.036156852 -0.0038761061 -0.28111064 0.91931051 -0.27539986 0.0018671859
0.028571839 0.036733523 -0.0045213359 -0.29650411 0.90933907 -0.29186955 0.0020841926
0.031515229 0.037772149 -0.004522867 -0.34966424 0.89703995 -0.27028522 0.0020046523
0.03387478 0.038553577 -0.005073125 -0.40443528 0.86482292 -0.2975122 0.0025953653
-0.069715351 0.040832248 -0.0042984881 -0.82721663 -0.38950163 -0.40497068 0.0029558411
-0.068609409 0.039777461 -0.0053617037 -0.80826789 -0.39849022 -0.43348423 0.0040804869
-0.031396437 0.041449301 -0.0049211313 0.41383567 0.86055148 -0.29697013 0.0020013035
-0.028427424 0.040145975 -0.0045762137 0.38875294 0.87355745 -0.2928628 0.0021184999
-0.026140569 0.039289605 -0.0040761069 0.37396041 0.88720018 -0.27023962 0.0015459958
0.035075933 0.039359599 -0.0043291799 -0.40320724 0.86833209 -0.28883091 0.0024840022
0.037520427 0.040622901 -0.0044878512 -0.46231008 0.83799154 -0.28989565 0.0025192664
0.039559297 0.04164923 -0.0050258008 -0.48709142 0.82015097 -0.30015707 0.0025088124
-0.07202144 0.044912376 -0.0030500637 -0.87303597 -0.31376058 -0.37331292 0.014248744
-0.070676453 0.043588813 -0.0046143793 -0.84766543 -0.29317716 -0.4421657 0.0037504404
-0.03731792 0.044472765 -0.0048723184 0.44975668 0.84094745 -0.30087608 0.0022292309
-0.034686334 0.043191094 -0.0046289884 0.42780361 0.85554338 -0.29159841 0.0021019862
-0.032515187 0.042270616 -0.0041049751 0.40957239 0.86458731 -0.29110026 0.0020982288
0.040920187 0.042709053 -0.0043541761 -0.49192807 0.81682217 -0.30134425 0.0022457016
0.043285925 0.044104457 -0.0046555181 -0.52037215 0.8034097 -0.28938872 0.001988041
0.045243483 0.044874083 -0.0057776296 -0.48013484 0.7748642 -0.41116422 0.0020858475
-0.072308585 0.0469684 -0.0035581458 -0.84307772 -0.27071682 -0.46468529 0.0038757648
-0.071324557 0.046449553 -0.0049344185 -0.82966626 -0.21383969 -0.51568067 0.0065125064
-0.043478563 0.0476963 -0.00516346 0.42331928 0.80389071 -0.41780433 0.0011366889
-0.040668618 0.046436615 -0.0044213408 0.46937072 0.82781553 -0.30726629 0.0018974862
-0.038538482 0.045435984 -0.0039906572 0.43502954 0.84681886 -0.30601823 0.0020037342
0.044553008 0.045294151 -0.0036614109 -0.50817859 0.80781591 -0.29864362 0.0021181919
0.046564605 0.04624952 -0.004491406 -0.51685584 0.795313 -0.3167606 0.0025648407
0.04881255 0.047445979 -0.0049802284 -0.51087737 0.78444386 -0.35164207 0.0032013236
-0.072788991 0.049752701 -0.0040815128 -0.78115726 -0.24368374 -0.57481432 0.0068526287
-0.071533881 0.049449857 -0.005510042 -0.76233536 -0.14196308 -0.63142014 0.0079679945
-0.048843905 0.050673053 -0.0049488991 0.41065294 0.80431074 -0.42947453 0.001424305
-0.046581045 0.049585491 -0.004637355 0.42866373 0.82764375 -0.36228895 0.0029610374
-0.044265214 0.048483804 -0.0042372383 0.42728379 0.83376694 -0.34965879 0.0024151928
0.049994964 0.04854143 -0.004231968 -0.50601661 0.79282361 -0.33967325 0.0028353387
0.052347958 0.049906019 -0.0046171681 -0.5072369 0.78746384 -0.3501592 0.0028627738
0.054563928 0.050768282 -0.0055781766 -0.45638797 0.74726033 -0.48302385 0.003029407
-0.075117767 0.053707372 -0.0030411885 -0.8806144 -0.15462075 -0.44789582 0.018877108
-0.073386915 0.052635472 -0.004438845 -0.69562733 -0.1516583 -0.70221251 0.0067687086
-0.071678706 0.052236345 -0.005811207 -0.59747016 -0.038061578 -0.80098736 0.0070691425
-0.057792477 0.053933151 -0.0059300056 0.23144613 0.76339781 -0.60303938 0.0018693474
-0.055211537 0.053522453 -0.0051737241 0.29006758 0.81584328 -0.50026047 0.002474892
-0.052704915 0.052546091 -0.0050354972 0.36854163 0.80518085 -0.46460834 0.0022538218
-0.050301418 0.05155408 -0.0046419464 0.38316962 0.80197936 -0.4582687 0.0022594621
0.053623099 0.05129325 -0.0034456421 -0.49391457 0.78724474 -0.36918035 0.002923392
0.05565317 0.052083403 -0.0043762256 -0.45525417 0.79951763 -0.39181021 0.00376181
0.058130104 0.053180516 -0.0050045862 -0.43579444 0.75430274 -0.49103019 0.0078037917
0.060429394 0.053861652 -0.0056875036 -0.38115436 0.67818868 -0.6283164 0.002175546
-0.075172685 0.0554935 -0.0032428044 -0.82570988 0.13021225 -0.54886061 0.038104054
-0.073572852 0.055498999 -0.0046749986 -0.62872308 0.13178425 -0.76638126 0.0146604
-0.071316905 0.056056052 -0.0058171353 -0.34364504 0.20124593 -0.91728306 0.015612957
-0.066928335 0.056874055 -0.0058686188 0.023655415 0.54132611 -0.84047991 0.0062757735
-0.064217642 0.056471754 -0.0054948982 0.23528288 0.69712484 -0.67724365 0.0070892032
-0.061377931 0.055628341 -0.00505631 0.25107017 0.72188419 -0.644862 0.0050541591
-0.058557134 0.054751914 -0.0048685684 0.21785724 0.77599198 -0.59192461 0.0024135376
-0.056209899 0.054333553 -0.0042807125 0.28908768 0.83927405 -0.46048597 0.0012377874
0.059074599 0.054471109 -0.0038909081 -0.47723031 0.75810856 -0.44443524 0.0044049043
0.061431959 0.055612888 -0.0045640445 -0.47416267 0.67807114 -0.5615952 0.0081703188
0.063972302 0.056405514 -0.0055805664 -0.34066343 0.55788052 -0.75678116 0.0076355692
0.068888448 0.056526437 -0.0059960713 0.1578007 0.28014657 -0.94689858 0.008011926
0.070100985 0.055454284 -0.0056210854 0.15937838 0.26926914 -0.94978559 0.0066501666
-0.075049259 0.057173412 -0.0030133091 -0.73909742 0.44352925 -0.5069682 0.043092109
-0.073206581 0.057888914 -0.0041633607 -0.52660787 0.6558727 -0.54084671 0.019285427
-0.070621721 0.058618873 -0.0047777928 -0.25899428 0.68516046 -0.6807915 0.031165889
-0.067711532 0.058257621 -0.0049973666 0.084279418 0.65521955 -0.75072253 0.011105743
-0.064835057 0.057947658 -0.0042877961 0.29967067 0.70161116 -0.64648217 0.0038671582
-0.062350705 0.057389487 -0.0032787947 0.37425736 0.75716108 -0.53538626 0.0070556654
0.062635213 0.057491567 -0.0035551861 -0.57015181 0.57868397 -0.58313954 0.0090328269
0.064563431 0.058452044 -0.0043948437 -0.55064446 0.48395669 -0.68012983 0.014725463
0.067248218 0.058739305 -0.0054461937 -0.26309374 0.3828775 -0.88554305 0.007837492
0.069761455 0.058722962 -0.0052387216 -0.052847531 0.27386618 -0.96031481 0.016812662
-0.069534279 0.06014359 -0.0032931585 -0.20207232 0.89042079 -0.40782064 0.025507921
-0.068358183 0.060193766 -0.003385307 0.067003176 0.89214736 -0.44674778 0.040367652
0.065409429 0.061212245 -0.0034884112 -0.66454095 0.31262296 -0.67871362 0.021098644
0.067310341 0.061535627 -0.0045086555 -0.43577805 0.30142018 -0.84808213 0.021972165
0.069805272 0.062012453 -0.0047090836 -0.29475373 0.27762786 -0.91435391 0.0098680845
0.067388646 0.064486139 -0.0038313018 -0.47939941 0.1958506 -0.85546398 0.017771514
0.069969855 0.064464107 -0.004512493 -0.32759792 0.20015943 -0.92337197 0.016077306
0.072271198 0.065250456 -0.0038065722 -0.18471499 0.034647334 -0.98218125 0.014470831
0.067978971 0.067408107 -0.003669583 -0.58558881 0.12081745 -0.80155402 0.015974499
0.070152052 0.067560554 -0.0043779449 -0.32904771 0.060346924 -0.94238305 0.017534496
0.072467074 0.068066068 -0.0040385094 -0.11752407 -0.040144596 -0.99225831 0.0081742611
0.068266906 0.070405796 -0.0035128489 -0.69248211 0.080135301 -0.71697062 0.031836778
0.070170872 0.070611961 -0.0044189487 -0.4248611 0.034079067 -0.90461689 0.020957336
0.072761901 0.070681274 -0.0043777106 -0.19668682 -0.053096116 -0.97902763 0.00866454
0.06850519 0.073460579 -0.003422007 -0.70503581 0.12123946 -0.69873148 0.027616566
0.070247173 0.07352934 -0.0045497585 -0.47178075 0.034686469 -0.8810333 0.024729142
0.072964646 0.073697694 -0.0050198878 -0.25152674 0.088015646 -0.96384001 0.042051684
0.068670176 0.075948983 -0.0033108972 -0.67418236 0.3661516 -0.64141351 0.08123567
0.070201091 0.075845338 -0.004414164 -0.53658259 0.30319607 -0.78749686 0.066614568
0.072820209 0.07562755 -0.0047662226 -0.1847097 0.50553107 -0.84280527 0.042236239
0.075361744 0.075232856 -0.0035908148 0.69633561 0.32141346 -0.64172441 0.089850903
-0.016173348 0.0027670418 -0.0015393915 -0.26638088 -0.94540757 -0.18773851 0.0019397261
-0.013219474 0.0020987154 -0.001986664 -0.21673959 -0.95027083 -0.22362784 0.0027974991
-0.010571755 0.0015755048 -0.0019757866 -0.19037582 -0.96490449 -0.18087697 0.0020970774
-0.0067605898 0.00091978098 -0.0014878998 -0.15052778 -0.9634949 -0.22140248 0.0023422542
-0.0052636503 0.00091466255 -0.0026731752 -0.12322965 -0.94533211 -0.30192986 0.00075103028
0.0055782823 0.00046168087 -0.0026174798 0.026415434 -0.92363173 -0.38236994 0.00083668303
0.010502822 0.00075999094 -0.0029256155 0.050529268 -0.92359602 -0.38002262 0.00090362062
-0.025070101 0.0058136377 -0.0014965204 -0.34780055 -0.91978168 -0.18175943 0.00080701947
-0.022189304 0.0047391267 -0.0016807326 -0.32686153 -0.92401779 -0.19837525 0.00083302398
-0.019751392 0.0039326358 -0.0018805841 -0.30389169 -0.93729681 -0.17065945 0.00092077191
-0.017672172 0.0032608658 -0.0017217547 -0.27701843 -0.94745272 -0.15998165 0.0010594905
-0.031147659 0.008257756 -0.0014478827 -0.37283781 -0.90200281 -0.21767618 0.00071648741
-0.028279593 0.0071147187 -0.0016818698 -0.361267 -0.90916914 -0.20711736 0.0006935838
-0.026365047 0.006379196 -0.0018100446 -0.36570612 -0.90797812 -0.2045355 0.0015701321
-0.03910841 0.011825357 -0.00094833388 -0.46288458 -0.85359216 -0.23899449 0.0014054701
-0.03757152 0.01115112 -0.0016891961 -0.41981113 -0.88020772 -0.22134374 0.00088477915
-0.034557804 0.00973632 -0.0016301357 -0.39476201 -0.88996899 -0.22829393 0.00057580578
-0.043225072 0.014250871 -0.0015092008 -0.51071262 -0.83133554 -0.21921191 0.0018647136
-0.040858127 0.012865171 -0.001590402 -0.4699738 -0.85074592 -0.23527862 0.001350981
-0.04819769 0.017660934 -0.0012512923 -0.58736783 -0.77684307 -0.22696702 0.0013809873
-0.046503142 0.016467681 -0.0015404166 -0.56045604 -0.78918463 -0.25115067 0.0024025482
-0.044716179 0.015371507 -0.0023969901 -0.55838901 -0.79572147 -0.23458266 0.002265265
-0.051751439 0.020339392 -0.001464712 -0.59170353 -0.78048694 -0.20180939 0.0016095275
-0.049730342 0.018839411 -0.0016118856 -0.5788635 -0.78183013 -0.23164371 0.0014329613
-0.055281736 0.023017427 -0.0015765552 -0.60131806 -0.77783614 -0.18272267 0.0012621793
-0.053279333 0.021510292 -0.0016640805 -0.59427255 -0.77238137 -0.22420362 0.0022088538
-0.058563761 0.025693499 -0.0015711322 -0.64269793 -0.74384767 -0.18338466 0.00075333129
-0.056833509 0.024233164 -0.0017191358 -0.62937027 -0.74836975 -0.20937003 0.0019813299
-0.061518829 0.028527323 -0.0015314338 -0.71575624 -0.67573571 -0.17627886 0.00074921566
-0.059915967 0.027115513 -0.0028760775 -0.66789085 -0.70506871 -0.23832768 0.0021767062
-0.064324729 0.03176434 -0.0018184424 -0.76159209 -0.62603337 -0.16750996 0.001734407
-0.062999018 0.030374024 -0.0026639234 -0.74495238 -0.63869196 -0.19266191 0.003062766
-0.00091557478 0.032942206 -0.002953209 0.099958569 0.97022712 -0.22060753 0.00049705803
0.0016565932 0.032900482 -0.0024016935 0.053822368 0.97542924 -0.21363752 0.0018412374
0.0044431495 0.032897741 -0.0018225737 0.0065874052 0.98328573 -0.18195012 0.002584555
0.0073985565 0.032903213 -0.0017690292 -0.028692482 0.98452258 -0.17289327 0.0026120178
0.010038267 0.032944661 -0.0026072396 -0.077656701 0.97966778 -0.18498747 0.0024801407
0.012142974 0.032978397 -0.002955674 -0.070112951 0.99032128 -0.11978272 0.0026997472
-0.066786386 0.034823719 -0.0016887117 -0.79187042 -0.59000528 -0.15759107 0.0027085252
-0.065730505 0.033479199 -0.0018441037 -0.77772093 -0.61253655 -0.14124154 0.0017913358
-0.015523853 0.035896402 -0.0014878585 0.3105318 0.94599319 -0.093096383 0.0026616361
-0.013473675 0.035352953 -0.0015666469 0.25249407 0.96315616 -0.092611648 0.0027420931
-0.010478755 0.034614172 -0.0016491915 0.21091279 0.96587688 -0.15032531 0.0042161443
-0.0070449309 0.033874981 -0.0022046121 0.17081031 0.95475513 -0.24344701 0.002359679
-0.0044922507 0.033581596 -0.0015206453 0.12557732 0.98550963 -0.11402228 0.0029289189
-0.001940373 0.03328735 -0.0017181052 0.11075716 0.96930939 -0.21948121 0.0017287879
0.0015264107 0.033069234 -0.00093666126 0.045771591 0.99624395 -0.073505007 0.0018131775
0.0047815982 0.033019654 -0.0002692822 0.010701793 0.99990618 -0.0085515743 0.0006867795
0.0084731113 0.03305053 -0.00061940367 -0.025525326 0.99963361 -0.009008117 0.0010215711
0.010567634 0.033143349 -0.0013274276 -0.06663283 0.99599564 -0.05960549 0.0045353011
0.01366533 0.033441469 -0.0015178757 -0.12924941 0.9847365 -0.11657023 0.0028786825
0.016505601 0.033930648 -0.0016138287 -0.20099884 0.9714123 -0.12632304 0.002681325
0.019531898 0.034676168 -0.0014935513 -0.24664418 0.96288669 -0.10961711 0.0023227877
0.022422567 0.035432953 -0.0016603026 -0.2673398 0.95886916 -0.095390499 0.002219798
0.024166681 0.035831776 -0.0024799649 -0.28012478 0.95528913 -0.094619267 0.00255367
-0.069317371 0.038398098 -0.0014749421 -0.84917247 -0.50145292 -0.1656839 0.0035136093
-0.068328917 0.036971573 -0.0017641663 -0.82185084 -0.54367119 -0.17024374 0.0027559521
-0.024369875 0.038869619 -0.0026731016 0.3928234 0.91056818 -0.12866771 0.0016801043
-0.022595745 0.03832633 -0.0015373465 0.36084896 0.92610085 -0.1101146 0.0021121718
-0.019406041 0.037136018 -0.0015971946 0.3214955 0.93748039 -0.13330863 0.0028707136
-0.016941382 0.036345057 -0.0014843121 0.2824406 0.95526969 -0.087676734 0.0028261864
0.025533944 0.036371585 -0.0014781532 -0.29168725 0.95300186 -0.081890777 0.0027074085
0.028531676 0.037332058 -0.0015436352 -0.3148863 0.9446708 -0.09189035 0.0026864742
0.031468283 0.038369086 -0.0015339259 -0.35991785 0.92788494 -0.097410411 0.0025197354
0.033284318 0.038855836 -0.0027572163 -0.43379739 0.89426678 -0.11003122 0.0024838231
-0.070424668 0.040450361 -0.0017046336 -0.88628125 -0.4373945 -0.15228811 0.0039155274
-0.03059819 0.041797634 -0.0018662775 0.4542942 0.88623184 -0.090608954 0.0022739114
-0.028613644 0.040898312 -0.0014820708 0.41488194 0.90457237 -0.098091125 0.0020996409
-0.025665779 0.039583754 -0.0015850572 0.37581044 0.92017436 -0.1097529 0.0018741321
0.032883525 0.039061416 -0.00075921929 -0.38805488 0.91819185 -0.0796066 0.0040597264
0.034559071 0.03968969 -0.0015696144 -0.43103728 0.89662749 -0.10132148 0.0029512187
0.037471686 0.041256655 -0.0015782338 -0.49650088 0.86082721 -0.11164003 0.0024669021
0.039030179 0.041998547 -0.0024160661 -0.51486391 0.85015327 -0.11024832 0.003081349
-0.072205901 0.044379443 -0.0012085001 -0.92669666 -0.32439888 -0.18973327 0.0061155055
-0.071621083 0.043127794 -0.0017964639 -0.90672392 -0.37798423 -0.18702854 0.0046247235
-0.036467828 0.044773467 -0.00192404 0.49383762 0.86447114 -0.093883112 0.0023844785
-0.034512088 0.043789007 -0.0016229289 0.46215269 0.88209897 -0.091194049 0.0024138989
