# .PCD v0.7 - Point Cloud Data file format
VERSION 0.7
FIELDS x y z normal_x normal_y normal_z curvature
SIZE 4 4 4 4 4 4 4
TYPE F F F F F F F
COUNT 1 1 1 1 1 1 1
WIDTH 544
HEIGHT 1
VIEWPOINT 0 0 0 1 0 0 0
POINTS 544
DATA ascii
-0.016711365 -0.0075543229 -0.070427909 -0.94303846 0.33267033 -0.0029980268 0.00053511839
0.076480523 -0.0074611809 -0.070262536 0.94088423 0.33864382 -0.0075703659 0.0011961411
-0.015596905 -0.0046123643 -0.070434541 -0.91526824 0.40275979 -0.0082856994 0.00095516356
0.074865572 -0.0033288887 -0.070297964 0.91664898 0.3996726 0.0040624011 0.0013740909
0.075592086 -0.0049584126 -0.070452556 0.92028773 0.39118519 -0.0066849636 0.00095613737
-0.014222664 -0.0016510058 -0.070495658 -0.88305348 0.46915284 -0.010591631 0.00079846091
0.074017227 -0.0015101236 -0.070593953 0.88884538 0.45819139 -0.0038136202 0.00089245976
-0.012641968 0.0011448476 -0.070407316 -0.8522948 0.5224843 -0.024569811 0.00064274378
-0.011636876 0.0027024674 -0.071130909 -0.84816808 0.5295853 -0.01226457 0.0010557162
0.071604177 0.0025531885 -0.070405997 0.8484059 0.52934313 -0.0018140287 0.0011514233
0.072824396 0.00073829305 -0.070270307 0.86077684 0.50897998 0.0015756041 0.00096270448
-0.010500645 0.0043831142 -0.069966741 -0.83223587 0.55401498 -0.021233482 0.00094151084
0.068943083 0.0059597921 -0.070880383 0.79981673 0.60024405 -0.00056720024 0.001463179
0.070198521 0.0045987652 -0.070265017 0.82352895 0.56727296 -0.0011899871 0.00098841242
-0.0078832032 0.0074863173 -0.070584543 -0.76710367 0.64125925 -0.018403532 0.0010826358
0.06780085 0.0076134386 -0.070414126 0.77379328 0.633425 -0.0040867706 0.0014071742
0.06912256 0.0060635228 -0.069941118 0.78186858 0.62344199 -0.001268087 0.0015656366
-0.0063180733 0.0093520069 -0.070482396 -0.74046594 0.67180395 -0.019738108 0.0010803177
-0.0050014164 0.01084557 -0.070317931 -0.71387893 0.70026863 0.00086869934 0.0025479621
0.064868614 0.010784143 -0.070311725 0.70447069 0.70972806 0.0026590028 0.0016230488
0.066371456 0.009266546 -0.070291102 0.73149145 0.6818496 -0.0011843031 0.0016766118
-0.0034429729 0.012423323 -0.069976658 -0.69762808 0.71612114 -0.022037093 0.0010368233
-0.0015675045 0.013950429 -0.070090614 -0.65156883 0.75837761 -0.017930722 0.0016261664
0.061609905 0.013735546 -0.070297956 0.65696347 0.75392163 -0.0010900758 0.0018321881
0.063246809 0.012376918 -0.070719533 0.68628341 0.72728282 0.0086493706 0.0015927624
0.0017080526 0.016531859 -0.069775879 -0.55987 0.82815987 -0.026398208 0.0019665479
0.0032399658 0.017548742 -0.069664575 -0.54884374 0.83555228 -0.024959449 0.0010622629
0.05648322 0.01757081 -0.070528977 0.52236462 0.85270864 0.0048132134 0.0013541519
0.058742996 0.016108301 -0.070516765 0.58320659 0.81231314 -0.004178992 0.0018009008
0.004856715 0.01855736 -0.069892488 -0.52118999 0.85334063 -0.013063256 0.0014394133
0.0075628823 0.020117523 -0.070350289 -0.46215513 0.88662857 -0.017391922 0.0013531253
0.050701931 0.02082115 -0.070460066 0.40931454 0.9123888 -0.0028819365 0.0011981804
0.052869756 0.019746076 -0.070212662 0.47517535 0.87981337 -0.011693561 0.00071914413
0.055105139 0.018466678 -0.07029295 0.51563853 0.85664862 -0.016436532 0.0010991143
0.010599145 0.021605816 -0.070771128 -0.39372516 0.91901708 -0.019702137 0.00088804535
0.013286945 0.022648215 -0.070569761 -0.3227976 0.94634914 -0.015002527 0.0010447069
0.016403943 0.023622194 -0.070271209 -0.28315964 0.95883572 -0.021322688 0.0013283245
0.04181321 0.023942895 -0.071006492 0.21779737 0.97599399 6.4006395e-05 0.0023825008
0.043446735 0.023521317 -0.070535794 0.28937244 0.95720488 -0.0047409572 0.0022398783
0.046500772 0.022546977 -0.070493788 0.35621503 0.93439716 -0.0035757695 0.0015228351
0.049268216 0.021466682 -0.070503712 0.41571081 0.90948886 -0.0038139096 0.001129341
0.017804667 0.024069536 -0.070601329 -0.28362826 0.95869106 -0.021598442 0.0013348516
0.019284246 0.024415167 -0.070488662 -0.21616244 0.97615522 -0.019869491 0.001202991
0.022695377 0.025084045 -0.070562162 -0.14446037 0.98911798 -0.027872194 0.0010468959
0.026026588 0.025444768 -0.070742637 -0.063582189 0.99776244 -0.020674378 0.0015237285
0.028557321 0.025621423 -0.070361719 -0.035545189 0.99922097 -0.017144777 0.0009325624
0.031599507 0.025552791 -0.070587769 0.010731588 0.999906 -0.0085339192 0.0015065519
0.034616567 0.025357392 -0.070345551 0.10908211 0.99394459 -0.013237378 0.0017725015
0.03759712 0.024968058 -0.070437104 0.19465263 0.980865 -0.0037703158 0.0021601089
0.040338412 0.024362389 -0.070464186 0.23239043 0.9726184 -0.0028527356 0.002025292
0.016788388 -0.072240345 -0.067310803 -0.26202488 -0.9634499 -0.055742726 0.00029833979
0.019450616 -0.072888337 -0.067487963 -0.21672758 -0.97466153 -0.055354461 0.00016938294
0.022614252 -0.073496163 -0.067612372 -0.16021402 -0.98555052 -0.054968841 0.00067193026
0.025539745 -0.073829144 -0.067485176 -0.085378714 -0.99518818 -0.048073463 0.00059068808
0.028615756 -0.074003942 -0.067484617 -0.030861501 -0.99814641 -0.052452445 0.00065452873
0.031593494 -0.074094929 -0.067488432 0.028046429 -0.99730462 -0.067800663 0.00086584233
0.034554414 -0.073926859 -0.067543529 0.093177699 -0.99368954 -0.062442441 0.001125219
0.037511289 -0.073462591 -0.067515388 0.16680999 -0.98314124 -0.074885696 0.00036665093
0.040482618 -0.072927468 -0.067514606 0.21329099 -0.9748196 -0.065067008 0.00024576642
0.043045562 -0.072315633 -0.067418568 0.25867951 -0.9640522 -0.060731288 0.00018953148
0.008669856 -0.069103263 -0.066719756 -0.45172369 -0.89116633 -0.042051721 0.0002618742
0.01043311 -0.069952831 -0.067695096 -0.41339347 -0.90944135 -0.044969227 0.00043396922
0.013478361 -0.071158536 -0.067545362 -0.34551165 -0.93677765 -0.055401836 0.00028708318
0.015519037 -0.071849443 -0.067906477 -0.28551164 -0.95647365 -0.060343679 0.00029436051
0.044504929 -0.071867496 -0.067671701 0.29386523 -0.95438325 -0.052875251 0.00030411518
0.04656307 -0.071231514 -0.067485571 0.34290022 -0.93778026 -0.054660253 0.00035538583
0.049495351 -0.070066363 -0.06739153 0.38810378 -0.92005283 -0.053650882 0.0003189109
0.051388476 -0.0692157 -0.067397438 0.44026244 -0.8962307 -0.054217048 0.00039441462
0.002693082 -0.066055655 -0.066497929 -0.55640292 -0.82895178 -0.057050798 0.00017883461
0.004768963 -0.066962391 -0.067597397 -0.51090568 -0.85813379 -0.050812457 0.00055192958
0.0073783807 -0.068424352 -0.067684323 -0.45915005 -0.88691759 -0.050581556 0.00024514337
0.052919485 -0.068452969 -0.06762372 0.46268323 -0.8846063 -0.05827513 0.00030343499
0.055511225 -0.06699241 -0.0675551 0.50694084 -0.85957432 -0.064365439 0.00025741747
0.057267785 -0.066071741 -0.066640228 0.5468632 -0.83492506 -0.061974637 0.00032381099
-0.00061919965 -0.063352026 -0.067309566 -0.5824765 -0.81102633 -0.054381285 0.00024145325
0.0013635566 -0.064672209 -0.067666471 -0.56470662 -0.82351774 -0.054082472 0.00013224586
0.0030552226 -0.065811343 -0.067129418 -0.54034436 -0.84022146 -0.045341946 0.0003776587
0.056771383 -0.065971568 -0.068116799 0.54388946 -0.83681637 -0.062630631 0.0001644703
0.058562107 -0.064993277 -0.067652047 0.57036084 -0.81893271 -0.063542239 0.00038247003
0.060704105 -0.063462026 -0.067582086 0.61022049 -0.79035425 -0.054508097 0.00047401735
-0.003771293 -0.060819928 -0.067530364 -0.678258 -0.73264432 -0.05655412 0.00048241537
-0.0019120111 -0.062347841 -0.067714967 -0.6096344 -0.790784 -0.054832526 0.00040078556
0.062144473 -0.062262733 -0.067577735 0.6467092 -0.76063651 -0.056562252 0.00040217748
0.063915744 -0.060716763 -0.067355089 0.68377274 -0.7277047 -0.05385733 0.00025460025
-0.006693936 -0.057793111 -0.067617565 -0.73921353 -0.67139727 -0.052811824 0.00027807127
-0.0052645924 -0.059340969 -0.067617714 -0.71067393 -0.70132416 -0.055561688 0.00034708169
0.065343365 -0.059302885 -0.067577966 0.71578979 -0.69643402 -0.051230446 0.00023098761
0.066716686 -0.057837442 -0.067536548 0.73292774 -0.67859745 -0.048190814 0.00015185073
-0.0093812319 -0.054572668 -0.067485467 -0.79104501 -0.6091913 -0.055980463 0.00029007182
-0.0081592686 -0.056122229 -0.067457959 -0.76660013 -0.63991278 -0.053253271 0.00031917467
0.068213761 -0.056088466 -0.067563161 0.76092947 -0.64716786 -0.046477534 0.00021339548
0.069511876 -0.054580428 -0.067433812 0.79022771 -0.61088073 -0.048630796 0.00029448804
-0.012029995 -0.051118504 -0.067171752 -0.84243685 -0.53493798 -0.064355142 0.00048359123
-0.010818785 -0.052586012 -0.067565031 -0.82215589 -0.56556267 -0.064796574 0.00041261612
0.070947841 -0.052535556 -0.067519635 0.82683921 -0.56030375 -0.048956323 0.00034250534
0.072078131 -0.051111948 -0.066679485 0.83541763 -0.54722583 -0.051197838 0.00027527701
-0.012841134 -0.049408212 -0.06756334 -0.86407995 -0.49994853 -0.058457691 0.00034458408
-0.011788411 -0.050885387 -0.067973912 -0.83744198 -0.54305524 -0.061498117 0.00058713101
0.071863733 -0.050718427 -0.068065889 0.83999848 -0.54026765 -0.050134726 0.00035572698
0.072905369 -0.049463801 -0.067476735 0.86241841 -0.50378573 -0.04934065 0.00021865728
-0.015127447 -0.045387592 -0.067305773 -0.8967759 -0.43957415 -0.05067043 0.00056898076
-0.014347808 -0.046679765 -0.067512073 -0.888569 -0.45517659 -0.057091277 0.00049499748
0.07437709 -0.046765499 -0.067556657 0.88834149 -0.45666698 -0.048006348 0.00032428605
0.075145863 -0.045419015 -0.067127004 0.89793676 -0.43815729 -0.041567508 0.00039935359
-0.015831172 -0.043526806 -0.067583881 -0.91739523 -0.39387804 -0.056974936 0.00054115616
0.075864926 -0.043552164 -0.067437485 0.92111456 -0.38705897 -0.041633043 0.00022332925
-0.016965229 -0.040697813 -0.067457318 -0.94051248 -0.33567443 -0.052525938 0.0003789269
0.077026933 -0.040613044 -0.067533575 0.94352013 -0.32913712 -0.037929963 0.0002340811
-0.018136926 -0.037125867 -0.067301087 -0.96171033 -0.26823342 -0.056248669 0.0002961705
-0.017624551 -0.038267627 -0.067638919 -0.9552412 -0.29014552 -0.057705857 0.00041167284
0.077742703 -0.038277656 -0.067566037 0.95857972 -0.2827214 -0.034547143 0.00023386329
0.078193501 -0.036721308 -0.067362934 0.96489739 -0.26096097 -0.029536612 0.0001798856
-0.018665887 -0.03472219 -0.067551471 -0.96888512 -0.24221188 -0.050942544 0.00038509109
0.078686655 -0.034585029 -0.067523524 0.9749881 -0.22072445 -0.026056562 0.00022682287
-0.019259747 -0.031488594 -0.067568727 -0.98620546 -0.15828879 -0.048409484 0.00088975532
0.079303309 -0.031437039 -0.067564979 0.98847604 -0.14939035 -0.024447463 0.00057638076
-0.019516522 -0.02858221 -0.067829743 -0.99606645 -0.086078078 -0.021027233 0.00038775988
0.0795926 -0.028508708 -0.067562945 0.99706149 -0.073764458 -0.020668818 0.00036730836
-0.019754831 -0.025572572 -0.067486405 -0.99790984 -0.056474779 -0.031408854 0.00031101351
0.079734355 -0.025552543 -0.067549571 0.99942964 -0.018946463 -0.02795399 0.00031875825
-0.019843817 -0.022559844 -0.067645639 -0.99934316 0.011811723 -0.034260768 0.00060414145
0.079685181 -0.022518435 -0.067528278 0.99841505 0.043823317 -0.035312649 0.00040737769
-0.019628014 -0.019522071 -0.06742271 -0.99387366 0.10520698 -0.033862103 0.00028942426
0.079413839 -0.019460883 -0.067464225 0.99276429 0.11273265 -0.041357119 0.00019722371
-0.019179184 -0.016426697 -0.067654222 -0.98481542 0.17080045 -0.03107593 0.00023146915
0.079042353 -0.016437313 -0.06752973 0.98566866 0.16322823 -0.042589221 0.00023269716
-0.01862468 -0.013464701 -0.067644939 -0.97707134 0.2110552 -0.028058032 0.00025903765
0.077938467 -0.012265929 -0.068149805 0.97148311 0.23537904 -0.028587511 0.00052126322
0.07850004 -0.013559962 -0.067480676 0.97603297 0.21313788 -0.043952778 0.00029513289
-0.018141167 -0.01140999 -0.067273065 -0.96652353 0.25520635 -0.026496334 0.00039568459
-0.017707054 -0.0099720936 -0.06747406 -0.95586777 0.29191735 -0.033181768 0.00029955196
0.077623829 -0.010297357 -0.067658074 0.95510286 0.2921432 -0.049304426 0.00021681239
0.078116246 -0.011644386 -0.067340195 0.96342885 0.26375607 -0.047302648 0.00022607211
-0.016875545 -0.0074229701 -0.067589447 -0.94085366 0.33718163 -0.033211615 0.00019367952
0.07674744 -0.0075102118 -0.067472279 0.94316977 0.32923031 -0.045146693 0.0002408287
-0.015668616 -0.0043552159 -0.06765765 -0.92024928 0.38992536 -0.033158101 0.00026004188
0.074796833 -0.0031518985 -0.067958273 0.90593034 0.42208958 -0.033625387 0.00038483422
0.07569623 -0.0046917768 -0.067410365 0.92187291 0.38527814 -0.041366037 0.00043989817
-0.01425674 -0.0013570446 -0.06747248 -0.88829273 0.45766747 -0.038426686 0.00034849124
0.074112847 -0.0014766403 -0.067483693 0.88686931 0.46106303 -0.029726336 0.00019927017
-0.012801871 0.0012199917 -0.06752418 -0.85822845 0.51181453 -0.038598087 0.0002690921
-0.011826141 0.0026207457 -0.06812229 -0.82598615 0.56196219 -0.044106539 0.00031955075
0.07174015 0.0026280214 -0.06785322 0.83966398 0.541686 -0.039250806 0.00044520322
0.07265459 0.001155288 -0.067385063 0.8607229 0.5079428 -0.033914432 0.00029771379
-0.010731284 0.0043984735 -0.067860052 -0.82948273 0.55720854 -0.038431052 0.00021936835
0.070814773 0.0040763747 -0.067443207 0.82633257 0.56197178 -0.036906615 0.00029379601
-0.0091649145 0.0063151796 -0.068263084 -0.78847069 0.61250436 -0.05614588 0.00030889112
-0.0079699717 0.0078398986 -0.067597464 -0.76212913 0.64496344 -0.056403223 0.00029477791
0.068244055 0.0075940615 -0.067297593 0.79389757 0.60734648 -0.029273553 0.00045336699
0.069208346 0.006204084 -0.067423351 0.78970122 0.61175245 -0.046162155 0.00030469312
-0.0064807059 0.0095393993 -0.067919746 -0.73677361 0.6737656 -0.056610323 0.0003390093
-0.0049482286 0.011193904 -0.067373157 -0.70818937 0.70433939 -0.048722394 0.00026695643
0.065011308 0.010938443 -0.067600906 0.70838666 0.70406568 -0.04979774 0.00022303386
0.066335343 0.009616876 -0.067269892 0.72904634 0.68285888 -0.046851877 0.00021822797
-0.0035316413 0.012522641 -0.067655548 -0.68758023 0.72414339 -0.053382918 0.00035608443
-0.0014008512 0.014424917 -0.068226889 -0.60622358 0.79333073 -0.055851314 0.00076189864
0.061832178 0.013906324 -0.06754382 0.64842606 0.75960422 -0.050449278 0.00048219797
0.063542299 0.012395191 -0.067492187 0.68003988 0.73126155 -0.052937519 0.0003273926
-0.00041828133 0.015356537 -0.06736163 -0.61860645 0.78201592 -0.076008148 0.00067746482
0.0016744792 0.016838185 -0.067723207 -0.55833077 0.82686549 -0.06752862 0.00061548874
0.0032320749 0.017759461 -0.068489522 -0.53862196 0.8390578 -0.076605372 0.00052946748
0.056606058 0.017722879 -0.068013251 0.54310364 0.83869374 -0.040388744 0.00040231785
0.058385238 0.016545856 -0.067578889 0.581433 0.81213474 -0.048711736 0.00037928735
0.060231395 0.015263161 -0.067426816 0.61390829 0.78778553 -0.050106212 0.00052905321
0.0049147084 0.018904874 -0.067868665 -0.50682569 0.85941291 -0.067358583 0.00032144593
0.007395315 0.020268982 -0.068106532 -0.48067063 0.87408459 -0.070227697 0.0005158211
0.0090568149 0.020992441 -0.06887123 -0.42820296 0.90144628 -0.06353642 0.0011506166
0.050793666 0.020912888 -0.067815982 0.44164398 0.89597613 -0.046662889 0.00038599444
0.052451938 0.020135455 -0.067351162 0.47047883 0.88124889 -0.045275569 0.00014511035
0.055106174 0.018716367 -0.067623116 0.50842851 0.85963732 -0.050239481 0.00036871849
0.0087722978 0.021081336 -0.067035653 -0.44192997 0.89516467 -0.058121301 0.00084074901
0.010601268 0.021810912 -0.067710519 -0.40273196 0.91404361 -0.04828297 0.00048709207
0.013987415 0.023133174 -0.067656688 -0.3657864 0.92974675 -0.042087682 0.00027584189
0.015930932 0.023775572 -0.067712292 -0.28976262 0.95503449 -0.062823422 0.00024977993
0.043938689 0.023643039 -0.067563877 0.29562032 0.95314217 -0.064255252 0.00033910398
0.046571184 0.022859534 -0.067212828 0.35477403 0.93377495 -0.046901185 0.00050633616
0.049300522 0.021719925 -0.067530029 0.41510722 0.90886348 -0.040661145 0.00038252104
0.017582819 0.024289692 -0.067301482 -0.20779507 0.97718275 -0.043989547 0.00034658727
0.020081341 0.024897993 -0.067075625 -0.1888926 0.98058504 -0.052654564 0.00036588815
0.023149218 0.025298128 -0.068214357 -0.12703139 0.99086124 -0.045354277 0.00043116137
0.025173724 0.02562011 -0.067402095 -0.084224977 0.99496955 -0.054237898 0.00033598742
0.028609835 0.025830466 -0.067561589 -0.029789904 0.99825943 -0.050898802 0.00041801884
0.031438366 0.025801145 -0.067327842 0.025985295 0.99818218 -0.054378934 0.00029870041
0.034444876 0.025641557 -0.067547701 0.077527545 0.99508476 -0.061610293 0.00053737883
0.037561778 0.025237132 -0.06754452 0.17692746 0.98204952 -0.065387242 0.00035095884
0.040569291 0.02460142 -0.067626253 0.23490523 0.96941555 -0.071085349 0.00032796961
0.042495172 0.024172552 -0.066874519 0.28101611 0.95774668 -0.061247446 0.00037295642
0.016739886 -0.072328798 -0.064421393 -0.25354832 -0.96712708 -0.019453404 0.00017840866
0.019480875 -0.072985612 -0.064443149 -0.21541306 -0.97638613 -0.016350722 0.00020363668
0.022499297 -0.073597029 -0.064495631 -0.16727206 -0.98576123 -0.017173039 0.00043835514
0.02550189 -0.074005209 -0.064478062 -0.088893563 -0.99571419 -0.025520407 0.00035317516
0.028460614 -0.07414259 -0.064466953 -0.041000653 -0.99887305 -0.023906164 0.00035490145
0.031453248 -0.074188225 -0.0645051 0.018721208 -0.99954587 -0.023614705 0.00038841867
0.03458963 -0.074046254 -0.064557277 0.093350343 -0.99529517 -0.025947565 0.00065669394
0.03755258 -0.07365261 -0.064538673 0.16238239 -0.98623013 -0.031337872 0.00040363203
0.040488768 -0.073070899 -0.064479902 0.21884313 -0.97536945 -0.027606854 0.00020137875
0.043291837 -0.072349966 -0.064459883 0.26906604 -0.96286494 -0.022239015 0.00017173473
0.0087120142 -0.06914936 -0.064215049 -0.44687122 -0.89451748 -0.012026451 0.00012274197
0.010459328 -0.070022352 -0.064267129 -0.41305333 -0.91065234 -0.0099656172 0.00028211629
0.013400056 -0.071297787 -0.064475454 -0.34604326 -0.93806201 -0.01713727 0.0002180848
0.015260348 -0.071873464 -0.064336635 -0.28525779 -0.9582864 -0.017751334 0.00029130594
0.044640396 -0.071941562 -0.064757891 0.28509089 -0.95827836 -0.02063599 0.00029934206
0.046463672 -0.071347676 -0.064501911 0.33727098 -0.94120437 -0.019561399 0.0002266001
0.049566817 -0.070145413 -0.064587444 0.38736108 -0.9217661 -0.017284226 0.00018811009
0.051587462 -0.069221824 -0.064602248 0.4385184 -0.89852601 -0.018777797 0.00024026941
0.0028294371 -0.066164203 -0.06451565 -0.55210638 -0.83346087 -0.022837289 0.00032521592
0.0045920736 -0.067047261 -0.064586788 -0.49829754 -0.86685205 -0.016341466 0.00037850963
0.0072577908 -0.068485804 -0.064728379 -0.45986679 -0.88783658 -0.016392736 0.00016419796
0.05316291 -0.068427682 -0.064435191 0.46895862 -0.88296819 -0.021095512 0.00020776344
0.055536244 -0.067137241 -0.064616837 0.50219792 -0.86442065 -0.02396166 0.00025798028
0.057196438 -0.066137224 -0.064392708 0.54775244 -0.83627307 -0.024792697 0.00038986397
-0.00068234111 -0.063526988 -0.064282089 -0.61013573 -0.79207623 -0.018700011 0.00047798711
0.0010545985 -0.064672649 -0.064625382 -0.56650198 -0.82372016 -0.023676524 0.00021024037
0.058640111 -0.065117918 -0.064468786 0.57052046 -0.82102096 -0.020760939 0.00029242522
0.060653992 -0.063653894 -0.064381294 0.61627656 -0.78728229 -0.019744335 0.00027317172
-0.003819389 -0.060819518 -0.064538233 -0.68286347 -0.73046619 -0.010801924 0.0001273899
-0.0021038954 -0.062376462 -0.064634621 -0.64284211 -0.76586294 -0.014420168 0.00036894224
0.062198825 -0.062367465 -0.064568572 0.65319979 -0.75692189 -0.019981073 0.00019010202
0.063904077 -0.060849447 -0.064453244 0.68167192 -0.73133641 -0.021688348 0.00017631234
-0.0067185932 -0.057900582 -0.06455195 -0.74151504 -0.67086238 -0.0099536991 0.00019887277
-0.0053692707 -0.059319865 -0.064407021 -0.71896493 -0.69496441 -0.010667184 0.00017061314
0.065397933 -0.059371311 -0.064385064 0.71077126 -0.70312399 -0.020516567 0.00011373054
0.066825487 -0.057891149 -0.064491093 0.73881924 -0.67353195 -0.022377651 0.00022527575
-0.0095169358 -0.054587249 -0.064757578 -0.78511333 -0.61916596 -0.015183834 0.00024853021
-0.0082723396 -0.056088518 -0.064351544 -0.76492238 -0.6440441 -0.010047758 0.00016387884
0.068310358 -0.056183558 -0.064587593 0.76194471 -0.64739096 -0.018029869 0.00016700599
0.069519788 -0.054682162 -0.064467125 0.7906999 -0.61199296 -0.016069017 0.0003160518
-0.011010625 -0.052572697 -0.064489409 -0.82237673 -0.56859803 -0.019820444 0.00045467395
0.07105536 -0.05259059 -0.064489923 0.82749766 -0.56128472 -0.014394192 0.00027464688
0.072092645 -0.051131453 -0.064307444 0.84211355 -0.53907591 -0.015550538 0.0003056803
-0.012888258 -0.049496651 -0.064550623 -0.8655346 -0.50029671 -0.023517802 0.00019050686
0.071877025 -0.050930057 -0.064690262 0.83793515 -0.54513019 -0.026414871 0.00021331024
0.073031254 -0.049397752 -0.064506277 0.86567235 -0.50033039 -0.016758204 0.00014009673
-0.015092691 -0.045741819 -0.064497955 -0.89466488 -0.44640535 -0.017233964 0.00024988697
-0.0143402 -0.046809383 -0.064510599 -0.88829136 -0.45898196 -0.016556097 0.00022124512
0.074411973 -0.046913762 -0.064419478 0.88946903 -0.45675585 -0.014794363 0.00034081467
0.075160496 -0.045439485 -0.064516388 0.90000319 -0.43557891 -0.016290732 0.00035291709
-0.015896153 -0.043549441 -0.064503662 -0.92101204 -0.38923606 -0.015237732 0.00033013831
0.075996891 -0.043503553 -0.064488925 0.92349374 -0.38331926 -0.01501955 0.00022664394
-0.017076548 -0.040531214 -0.064463511 -0.94375819 -0.33023721 -0.016243393 0.00028841174
0.077113435 -0.040541939 -0.064565271 0.94415224 -0.32919177 -0.014469217 0.00024050525
-0.018313272 -0.036765002 -0.064593293 -0.96399015 -0.26573169 -0.010473243 0.0002781809
-0.017779278 -0.038412284 -0.064619377 -0.95565492 -0.29370719 -0.021441983 0.00028421177
0.077827871 -0.03830146 -0.064471006 0.9610517 -0.27604219 -0.013429441 0.00018203631
0.078203596 -0.036988523 -0.064438112 0.96573991 -0.25913653 -0.013954824 0.00016590659
-0.018695012 -0.035060905 -0.064869389 -0.97124404 -0.23724133 -0.020038268 0.00026930752
0.078762576 -0.034700185 -0.064605452 0.97719228 -0.21200636 -0.012184723 0.00025561027
-0.019287147 -0.031339429 -0.06433706 -0.98994124 -0.14140078 -0.0047034621 0.0006160991
0.079341672 -0.031463746 -0.064601913 0.98912984 -0.14691454 -0.006181818 0.00045719129
-0.019542892 -0.028497906 -0.064557925 -0.9964987 -0.082768805 -0.011819901 0.00019866318
0.07962165 -0.028545178 -0.06452547 0.99735337 -0.072384991 -0.0068300581 0.00014618131
-0.019753333 -0.025612108 -0.064540163 -0.99830109 -0.058064852 -0.0048452676 0.00011898103
0.079767153 -0.025553511 -0.064570725 0.99964291 -0.024095058 -0.011554209 0.00023514862
-0.019898761 -0.022631047 -0.064547785 -0.99994552 0.0083007095 -0.0063353418 0.00060757075
0.079772308 -0.022493206 -0.064591326 0.99899733 0.041434545 -0.016956475 0.00037370826
-0.019652344 -0.019364651 -0.064443409 -0.99323052 0.11598791 -0.0063197687 0.00035513935
0.07954096 -0.019557351 -0.064451687 0.99450797 0.10224725 -0.022347229 0.00016950117
-0.019218024 -0.016499976 -0.064598843 -0.98425293 0.17675689 -0.0018075985 0.0001914298
0.079108812 -0.016478393 -0.064413771 0.98625207 0.16383094 -0.021594822 0.00027482302
-0.018644715 -0.013554662 -0.064425901 -0.97730201 0.21185002 0.00060704176 0.00012698182
0.078577846 -0.013566631 -0.064519979 0.9750514 0.22147472 -0.014960635 0.00028744954
-0.018142294 -0.011425851 -0.064510256 -0.96430957 0.26477572 0.00094837253 0.00025530459
-0.017737495 -0.0099425931 -0.064481065 -0.95834088 0.28562567 -0.00089572673 0.00023941312
0.077658951 -0.010119104 -0.064489834 0.95734578 0.28870741 -0.011710835 0.00011103012
0.07816647 -0.011544701 -0.064618923 0.96130526 0.27514508 -0.013689714 9.0147485e-05
-0.016918257 -0.0075079505 -0.064612597 -0.94226319 0.33485425 -0.0035605573 0.00019748189
0.076794639 -0.0074779964 -0.064418666 0.94331068 0.33174813 -0.010400096 0.00018431334
-0.015745748 -0.0044598524 -0.064627945 -0.92123175 0.38895845 -0.0065831733 0.00021252435
0.074880801 -0.0031395603 -0.064424872 0.90981615 0.41467452 -0.016725222 0.00019283952
0.075693861 -0.0046177502 -0.064439461 0.92181563 0.38753256 -0.0086292727 0.00033289945
-0.015028538 -0.0029203638 -0.063285343 -0.90066409 0.43447167 -0.0062089963 0.00021372574
-0.014431771 -0.0015540803 -0.064366937 -0.89157295 0.45273975 -0.011152234 0.00029647307
0.07421039 -0.0014590675 -0.064253196 0.88657945 0.46236852 -0.013863755 0.00025114647
0.075105906 -0.0029372359 -0.064497031 0.90481037 0.42541525 -0.018442437 0.00077657495
-0.012828004 0.0013376451 -0.064521611 -0.8602863 0.50943309 -0.019633489 0.00034410338
-0.011882069 0.0028302262 -0.06460683 -0.83933526 0.54342717 -0.014254758 0.00057808397
0.071704268 0.0027221416 -0.064178459 0.83653867 0.54778588 -0.011565938 0.0002785961
0.0727259 0.0011672783 -0.064477548 0.86366946 0.50367135 -0.019752426 0.0001706905
-0.01070676 0.0044478709 -0.064309172 -0.81599593 0.57794899 -0.011205422 0.00032537288
0.07104753 0.0039043468 -0.064731151 0.83109683 0.55581534 -0.018635724 0.00028487717
-0.0092490986 0.0063874493 -0.064601205 -0.78314841 0.62160552 -0.016888784 0.00015097368
-0.0080624754 0.0079058073 -0.064589657 -0.75844711 0.65152133 -0.016669191 0.00018500954
0.068080321 0.0077654878 -0.064482957 0.77409708 0.63295543 -0.011879567 0.00029034284
0.069250897 0.0061781621 -0.063969031 0.80454123 0.59384632 -0.0077427449 0.00022116626
-0.0065256809 0.0096092969 -0.06463635 -0.74528438 0.66658843 -0.014532542 0.00012925368
-0.0052390094 0.010962679 -0.064612977 -0.72072941 0.69301826 -0.016580379 9.6737123e-05
0.065027207 0.011027026 -0.064473622 0.69791812 0.71599835 -0.016023805 0.00013257934
0.066448957 0.0095929615 -0.064489916 0.73590791 0.67693442 -0.014118257 0.00020771966
-0.0035772454 0.012622906 -0.064457059 -0.69016254 0.7234748 -0.016120058 0.00021054849
-0.0021154471 0.013977181 -0.064896524 -0.65663987 0.754035 -0.015977787 0.00016879341
0.061933294 0.013896417 -0.064447515 0.6435259 0.7653901 -0.0072363005 0.00013124941
0.063595742 0.012452951 -0.064468585 0.67722166 0.73565006 -0.013781596 0.00019005433
-0.00062927842 0.015241039 -0.064567871 -0.62930292 0.77701497 -0.01502417 0.000421573
0.0017439183 0.017013744 -0.06486401 -0.55397117 0.83202934 -0.029036766 0.00047265805
0.056681614 0.017853824 -0.064813279 0.56036896 0.82794803 -0.022105025 0.00024372898
0.058358237 0.016690876 -0.064476751 0.58265311 0.81258458 -0.014886199 0.00021526596
0.060357261 0.015199262 -0.064625457 0.61566001 0.78797728 -0.0073882588 0.00024978264
0.004390609 0.018714968 -0.064383052 -0.51753527 0.85530835 -0.024594286 0.00018290318
0.0071368935 0.020282464 -0.064437956 -0.46329162 0.88611919 -0.012393684 0.00031026412
0.050971728 0.020874552 -0.065262981 0.44220138 0.89666015 -0.021414313 0.00029454051
0.052523494 0.020207465 -0.064510211 0.46373829 0.88564175 -0.024193915 9.1094524e-05
0.055143099 0.01880729 -0.064202569 0.50957847 0.86018354 -0.020349953 0.00037775471
0.0085293204 0.021025386 -0.065061688 -0.454505 0.8905251 -0.019756261 0.00054420152
0.010207424 0.021751866 -0.064062469 -0.40605757 0.91372579 -0.014913308 0.00024690441
0.013308492 0.023008134 -0.064802855 -0.36323127 0.93149501 -0.019494895 0.00020372856
0.015747875 0.023863738 -0.0641011 -0.28773275 0.95749921 -0.020130111 0.00026615564
0.044085737 0.023677912 -0.064402588 0.29803121 0.95430481 -0.02190253 9.818656e-05
0.046581108 0.022895603 -0.064357117 0.34310785 0.93901217 -0.023091169 0.00033814088
0.049458828 0.021766657 -0.064406507 0.41841185 0.90796441 -0.023068106 0.00025066073
0.017193584 0.024254968 -0.06460499 -0.25834277 0.96589243 -0.017631914 0.00025177485
0.02016006 0.024978794 -0.064114787 -0.18053384 0.98334676 -0.020897212 0.00032247638
0.021950081 0.025312435 -0.064862505 -0.16168299 0.9863748 -0.030388875 0.00034818653
0.025388192 0.025729405 -0.064550221 -0.096841693 0.99501932 -0.023628492 0.00029975249
0.028407672 0.025935676 -0.064528406 -0.023226233 0.99931663 -0.028754594 0.000218203
0.031341035 0.025874943 -0.064488798 0.019697849 0.99952018 -0.023905909 0.00027756375
0.034624122 0.025777023 -0.064552724 0.09518145 0.99535447 -0.014487633 0.00082151807
0.037447095 0.025361165 -0.064496383 0.18255296 0.98309958 -0.013774282 0.00035272469
0.04045172 0.024753377 -0.064520925 0.22493444 0.97434157 -0.0079392744 0.00037644053
0.042539693 0.024191812 -0.064534009 0.28062719 0.9596529 -0.017739452 0.00024119466
0.016895128 -0.072391316 -0.061482999 -0.25687641 -0.96643513 -0.0042102565 0.00024557038
0.019434473 -0.073009305 -0.061461452 -0.21073973 -0.97751808 -0.0068672216 0.00025414155
0.022547837 -0.073557131 -0.061535772 -0.16635597 -0.98604882 -0.0057808398 0.00030862377
0.025490908 -0.073940843 -0.061486337 -0.10075953 -0.99491072 -0.00040710918 0.00038551903
0.028492143 -0.074178211 -0.061494291 -0.025075978 -0.99968338 -0.0020935391 0.00029826415
0.031501666 -0.074153394 -0.061479729 0.015121702 -0.99988306 0.0022822765 0.00047185738
0.03454094 -0.073987909 -0.061500974 0.082484961 -0.99658096 0.0047572269 0.00030932639
0.037522335 -0.073651016 -0.061456744 0.15648836 -0.98767197 -0.0039373958 0.0006978882
0.04055069 -0.073094115 -0.061496768 0.22673398 -0.97391236 -0.0092950221 0.00035381503
0.043292921 -0.07238055 -0.061418109 0.27834228 -0.96046555 -0.0056163934 0.0001298172
0.0086336499 -0.069132574 -0.060867697 -0.45331079 -0.89129263 -0.01033301 0.00015854779
0.010633352 -0.070137098 -0.061261002 -0.41344839 -0.91046476 -0.010694006 0.00040989835
0.013464866 -0.071301915 -0.061520677 -0.34439501 -0.93881148 -0.0050070048 0.0004118096
0.015387853 -0.071885705 -0.06144492 -0.29007787 -0.95699877 -0.0028583372 0.00028649371
0.044769283 -0.071919315 -0.061742458 0.28757998 -0.95775205 -0.0029452131 0.00018646936
0.046497967 -0.071341723 -0.061558895 0.33411363 -0.94252408 -0.0040536416 0.00014942672
0.049559038 -0.070143819 -0.061522916 0.39101237 -0.92034191 -0.0089443317 0.00023212217
0.051613647 -0.069253176 -0.061708849 0.4422124 -0.8968581 -0.009678958 0.00026874436
0.0028872325 -0.066123001 -0.061985511 -0.5450986 -0.83836454 -0.0035172852 0.00038784303
0.0048661637 -0.067163311 -0.061408564 -0.49904931 -0.86656958 -0.0026495515 0.00041416884
0.0072561181 -0.068442732 -0.061434612 -0.45543876 -0.89020509 -0.01050959 0.00017486732
0.052981943 -0.068522647 -0.0615591 0.46443191 -0.88557923 -0.0072384905 0.0002821738
0.055432081 -0.067207851 -0.061546843 0.50384921 -0.86377466 -0.0054172729 0.00026558773
0.0571892 -0.066158421 -0.061574519 0.55580282 -0.83130944 -0.002806325 0.00030223661
-0.00073102105 -0.063455209 -0.0614991 -0.6150766 -0.78845638 -0.0041603083 0.00042023481
0.0015064769 -0.065081105 -0.06157269 -0.5617609 -0.82729959 -0.00026977609 0.00027850171
0.0030569455 -0.065905564 -0.060961787 -0.52477485 -0.85122377 -0.0054328796 0.00032025663
0.058700752 -0.065069176 -0.0615183 0.56996518 -0.82166165 -0.0034452537 0.00026197487
0.060767282 -0.063568845 -0.061490551 0.61478561 -0.78865278 -0.0080943573 0.00020535463
-0.00379718 -0.060857981 -0.061326377 -0.68080908 -0.73242927 -0.0068161231 0.00030517706
-0.0021965187 -0.062304154 -0.061574314 -0.64502722 -0.76413709 -0.00586347 0.00031979935
0.06219615 -0.062403779 -0.061484694 0.65541738 -0.75518614 -0.01103574 0.00017871853
0.063949734 -0.060855191 -0.061525449 0.68202496 -0.73121327 -0.01300416 0.00022430526
-0.0067989258 -0.057791911 -0.061515838 -0.7458421 -0.66612256 0.00057948282 0.00016515329
-0.0053542922 -0.059365779 -0.061357468 -0.71667522 -0.69739836 -0.0034824847 0.00026637904
0.065428413 -0.059392862 -0.061517317 0.70402414 -0.71005738 -0.012976588 0.00014633323
0.066811651 -0.05792509 -0.061440818 0.74046206 -0.67195809 -0.013726293 0.00019673294
-0.00949293 -0.054584146 -0.061362676 -0.77967632 -0.62618005 -0.0018431663 0.00017393101
-0.0082825525 -0.056014452 -0.061473399 -0.76808953 -0.64034218 0.00064456416 0.00012079556
0.068288952 -0.056237929 -0.061471786 0.76198572 -0.64750767 -0.010565072 0.00021666578
0.069487788 -0.054689284 -0.06142709 0.79359186 -0.60841918 -0.006174657 0.00024103656
-0.012183445 -0.051034167 -0.062040363 -0.83783883 -0.54591554 -0.0014973382 0.00048615912
-0.0109349 -0.052685332 -0.061521515 -0.81846416 -0.57455575 -0.0014258542 0.00072745467
0.07098414 -0.052634843 -0.061377801 0.8252728 -0.56472051 -0.0039579337 0.00032949116
0.072077431 -0.051215347 -0.061192956 0.8354584 -0.54952621 -0.0054995059 0.0002681622
-0.013005286 -0.049334791 -0.06159886 -0.86210698 -0.50661445 -0.010647598 0.00013339048
-0.011987543 -0.050684877 -0.062154967 -0.85056424 -0.52585518 -0.0041005933 0.00058175664
0.071992911 -0.050893281 -0.060621679 0.83353722 -0.55242473 -0.0065274774 0.00026001624
0.073043801 -0.049405135 -0.061457187 0.86346495 -0.50438112 -0.0052896058 0.00029777206
-0.015374377 -0.04524181 -0.061276354 -0.89420623 -0.4473359 -0.016909141 0.0002547648
-0.014455261 -0.046709102 -0.061465625 -0.88921589 -0.45720765 -0.016005386 0.00021634586
0.074457183 -0.046855617 -0.061456781 0.89136535 -0.45327172 -0.0035556769 0.00021033434
0.075183064 -0.045492407 -0.061596118 0.89993525 -0.43601906 -0.0020067955 0.00019787376
-0.016013853 -0.043423589 -0.061447378 -0.91995275 -0.39172074 -0.015549817 0.00024194972
0.076004803 -0.043495186 -0.061487455 0.92354149 -0.3834894 -0.0026668939 0.00019787255
-0.01714254 -0.040490754 -0.061615154 -0.94479191 -0.32751834 -0.01000028 0.00026903124
0.077143148 -0.040498815 -0.061577231 0.94531429 -0.32615399 -0.0021081644 0.00016535071
-0.018308939 -0.036789715 -0.061596397 -0.9648549 -0.26277134 -0.0025149328 0.00019644872
-0.017770346 -0.038079999 -0.061466958 -0.96141052 -0.27503231 -0.0068613198 0.00019926434
0.077815853 -0.038254693 -0.061575122 0.96266681 -0.2706891 -0.00019181863 0.00023765839
0.078237884 -0.037000343 -0.061418492 0.96638775 -0.25708723 0.00085031177 0.0001643158
-0.01871228 -0.034361809 -0.061487149 -0.97440392 -0.22477528 0.0035934569 0.00032354132
0.078839742 -0.034384932 -0.061482131 0.97896141 -0.20401512 0.0035392619 0.00029954387
-0.019342871 -0.031966861 -0.061220307 -0.98521018 -0.17131363 0.003550017 0.00058050221
0.079274841 -0.031599902 -0.061316799 0.98728001 -0.15882909 0.0071810181 0.00039970042
-0.019546468 -0.028386485 -0.061420701 -0.99770522 -0.067521103 0.0050274418 0.00012098394
0.079615988 -0.028495636 -0.061543532 0.99716705 -0.075218923 -0.00022006048 0.00027723631
-0.019754097 -0.025506191 -0.061542861 -0.9991073 -0.040773388 0.011051619 0.00027601072
0.079780132 -0.025515167 -0.061527237 0.99961662 -0.027315656 -0.0045357281 0.0002100056
-0.019851815 -0.022474339 -0.061527453 -0.99957794 0.02654928 0.01179314 0.00078807381
0.079784006 -0.022583153 -0.061552443 0.99954474 0.02958771 -0.0059115817 0.00048280944
-0.019671068 -0.019593621 -0.061448064 -0.99480367 0.10100162 0.012820886 0.00029724604
0.079541251 -0.019465297 -0.061472241 0.99486655 0.10089096 -0.007847744 0.00016863926
-0.019229339 -0.016591327 -0.061508592 -0.98379743 0.17927633 0.0016249563 0.00020422867
0.079186201 -0.016540514 -0.06144274 0.98555988 0.16905719 -0.0095598763 0.00037099633
-0.018651597 -0.013660579 -0.0613975 -0.97641528 0.2159009 0.00030327425 0.00013110405
0.078615785 -0.013544618 -0.061585337 0.97481644 0.22284943 -0.0084287096 0.00020639348
-0.018152665 -0.011521181 -0.061444774 -0.96427459 0.26488319 0.0033883064 0.00026126683
-0.017695138 -0.009847966 -0.061586507 -0.95964813 0.28118992 0.0027986479 0.00025268612
0.077667281 -0.010158597 -0.061436184 0.95786166 0.28714156 -0.0071263323 0.00011187039
0.078145243 -0.01155299 -0.061359301 0.96263778 0.27072719 -0.0059339749 0.00017596188
-0.016905917 -0.0074923448 -0.061607063 -0.9432953 0.33194181 0.0029537682 0.0002204387
0.076800242 -0.0074744369 -0.061464779 0.9432587 0.33194175 -0.0088141356 0.0002502494
-0.015747923 -0.0044964645 -0.061678573 -0.92272621 0.38543597 0.0039301864 0.00018638186
0.074916206 -0.00319983 -0.061718002 0.91559595 0.40207741 -0.0042219455 0.00034781607
0.075672694 -0.0045268098 -0.061483428 0.91950125 0.39303404 -0.0064618168 0.0002704889
-0.015172945 -0.0029210367 -0.060105126 -0.90867633 0.41731292 0.012544105 0.00067272951
-0.014316515 -0.0013426512 -0.061190631 -0.89350128 0.44905993 0.00082484668 0.00032849872
0.074220292 -0.0014370191 -0.061542585 0.88770473 0.46035269 -0.0074646152 0.00029564844
0.075038813 -0.002786373 -0.060995713 0.8952297 0.44556749 -0.0057804896 0.00059197802
-0.012700599 0.0015759917 -0.061720192 -0.86704147 0.49823594 -0.00020877943 0.00019808667
0.071727976 0.002687719 -0.061482109 0.83398092 0.55177641 -0.0043230341 0.00030302594
0.072690234 0.0012799752 -0.061524868 0.85900861 0.51195878 0.001565534 0.00031505211
-0.010706518 0.0044940272 -0.061508201 -0.81336689 0.58175027 0.00098714791 0.00033710682
0.070660412 0.0044196048 -0.06149856 0.82715398 0.56196225 -0.0038347046 0.00025742504
-0.0093906261 0.0062286775 -0.061690047 -0.78305846 0.62189651 -0.0080104358 0.0002472979
-0.0080299443 0.0079335412 -0.061731696 -0.77290529 0.63444787 -0.0096585322 0.00023280832
0.068033338 0.0078024291 -0.061462216 0.77814156 0.6280781 -0.0036895259 0.00032151036
0.06922815 0.0062696622 -0.061555345 0.79388654 0.60806435 -0.0013430557 0.0001664618
-0.0066232295 0.0095114484 -0.061171502 -0.73186207 0.6813997 -0.0085074129 6.888093e-05
-0.0051104166 0.011143163 -0.061193239 -0.72595704 0.68764162 -0.011636026 8.9136658e-05
0.065063849 0.011036696 -0.061432302 0.69957072 0.71451139 -0.0086189127 0.00023168736
0.06640283 0.0096589541 -0.061605416 0.73056442 0.68280733 -0.007058979 0.0001494895
-0.0037665954 0.012499412 -0.061323851 -0.70077467 0.71330529 -0.010510671 0.00021685926
-0.0018843695 0.014188439 -0.06151402 -0.64055067 0.76784456 -0.010468371 0.00035165373
0.061886124 0.013911561 -0.061527934 0.64389205 0.76511186 -0.0026379731 0.00014022522
0.063746676 0.012339626 -0.061494876 0.68230832 0.73103791 -0.0062462827 0.00023181509
-0.00030358371 0.015491602 -0.061794616 -0.62946963 0.77702159 -0.002334387 0.00031976681
0.0018786461 0.017115688 -0.061839335 -0.54642773 0.83747339 -0.0074202716 0.00032629905
0.056707218 0.01779329 -0.061520845 0.57009298 0.82157087 -0.0039271195 0.00024031065
0.058215361 0.016793525 -0.061395399 0.58335239 0.81221581 -0.0023384353 0.00016536601
0.060269959 0.015234622 -0.061388984 0.62005907 0.78455281 -0.0019010146 0.00014125941
0.0047987001 0.01897887 -0.061245352 -0.51919085 0.8546527 -0.0031119427 0.00022873917
0.0073821186 0.020408463 -0.060875751 -0.45854935 0.88864517 0.0065005785 0.0002736983
0.052510127 0.020270834 -0.061439324 0.46845853 0.88344342 -0.0086175865 0.00010244546
0.055221867 0.018761963 -0.061471879 0.51466709 0.85737085 -0.0057429876 0.00039173404
0.01048515 0.021890646 -0.061242156 -0.41660738 0.90906817 -0.0057703713 0.00030121335
0.013648221 0.023147557 -0.06144733 -0.33820486 0.94104612 -0.0070502004 0.00025668123
0.01563976 0.023821905 -0.061130483 -0.27656129 0.96098626 -0.0043970114 0.00026901925
0.044016905 0.023790855 -0.061643098 0.29383481 0.95579106 -0.011166259 0.00027858332
0.046318535 0.023098074 -0.061464649 0.35991377 0.9329446 -0.0087387133 0.00048223953
0.049727876 0.021655494 -0.06129244 0.42087445 0.90711039 -0.0039379732 0.00039189751
0.017129216 0.024243802 -0.061680283 -0.26288012 0.96482742 -0.0014794789 0.00024133007
0.020020984 0.024935592 -0.061768897 -0.17903805 0.98384148 0.0011679119 0.00025005298
0.021869864 0.025302052 -0.06107676 -0.15558298 0.98781896 0.0027752006 0.00029983677
0.02564472 0.025843287 -0.061550424 -0.087712817 0.99612772 0.0060108392 0.00064445334
0.028349539 0.025920192 -0.061568581 -0.024985198 0.99968261 0.0032423236 0.00022429189
0.03147753 0.025929764 -0.061494432 0.037924815 0.99927425 0.0035554529 0.00063847628
0.034687206 0.02576218 -0.061447155 0.10346883 0.99458688 0.0095460741 0.00046939083
0.037658438 0.025225276 -0.061445184 0.18038617 0.98350996 0.012999389 0.00024121585
0.040614694 0.024678562 -0.061426654 0.21664698 0.97624636 -0.0026681484 0.00046790688
0.04279172 0.024176957 -0.061378542 0.31036478 0.9505896 -0.0072875102 0.00027895745
0.0168532 -0.072425283 -0.058413714 -0.26420534 -0.96364248 0.039858326 0.00065649051
0.019468267 -0.073035292 -0.058566812 -0.20542082 -0.9780755 0.034213781 0.00049970538
0.022514135 -0.073607162 -0.058515932 -0.16322273 -0.98602903 0.033243872 0.0004792707
0.025470594 -0.074028119 -0.058529213 -0.096416138 -0.99483764 0.031653795 0.00062395679
0.028521193 -0.074203506 -0.058443949 -0.025795106 -0.99919832 0.030615019 0.00052421336
0.031515934 -0.074162923 -0.058517992 0.03081659 -0.99901253 0.032005172 0.00030671633
0.034548044 -0.073985718 -0.058565997 0.082147427 -0.99614418 0.030798018 0.0003625573
0.037541229 -0.073710606 -0.058513619 0.15603055 -0.98738945 0.026768563 0.00079036725
0.040511347 -0.073168673 -0.058498003 0.22132379 -0.97489107 0.02456058 0.00054842699
0.043354552 -0.072355501 -0.058497369 0.27501139 -0.96122056 0.020585313 0.00030616877
0.0086416593 -0.069255941 -0.058167301 -0.44919688 -0.89297569 0.028576748 0.0005303084
0.01049856 -0.070128128 -0.058396004 -0.40475178 -0.91408724 0.024909811 0.00060272007
0.013508724 -0.071340598 -0.058573358 -0.33830225 -0.94034642 0.036057334 0.00056419143
0.015328127 -0.071873352 -0.058233958 -0.30002424 -0.95314646 0.038693648 0.00048922742
0.044701409 -0.071940728 -0.058136381 0.29364663 -0.95571899 0.019309344 0.00021465667
0.046592958 -0.071330644 -0.058587458 0.34212354 -0.93956482 0.013016463 0.00022379396
0.049705535 -0.070133954 -0.058667164 0.38916641 -0.92107439 0.013095158 0.00027344105
0.051665481 -0.069263369 -0.05852069 0.43700501 -0.89933681 0.01483139 0.00033090761
0.0028157122 -0.066152871 -0.058295019 -0.54494202 -0.8381657 0.022723369 0.0004748241
0.0044371802 -0.066952698 -0.058470976 -0.50563699 -0.86237705 0.025240116 0.00038687716
0.007009285 -0.068409666 -0.05869649 -0.47236836 -0.88134444 0.010011138 0.00046597014
0.053093009 -0.068510666 -0.058818419 0.46831846 -0.8834306 0.015106933 0.00031351874
0.055309646 -0.067280367 -0.058460541 0.50750804 -0.86153322 0.014007813 0.00022197733
0.057217214 -0.066175632 -0.058636021 0.55082881 -0.83453083 0.012078741 0.00029999056
-0.00070364249 -0.063537195 -0.058719583 -0.60004961 -0.7994628 0.028279381 0.00054846238
0.0014191482 -0.065057352 -0.058544658 -0.56987256 -0.82154912 0.017387712 0.00039243913
0.0031037841 -0.065968476 -0.059542 -0.52963382 -0.84819573 0.0072094933 0.00036336773
0.058712184 -0.065093778 -0.058514647 0.57164562 -0.82037556 0.014321339 0.00022528399
0.060778193 -0.063616395 -0.058499597 0.61525512 -0.78815162 0.016676318 0.00032530993
-0.0038378572 -0.060879581 -0.058552861 -0.68188995 -0.73101181 0.025451893 0.00055422774
-0.0021538697 -0.06238465 -0.058522012 -0.6422472 -0.7660439 0.026369428 0.00063984434
0.062192753 -0.062469874 -0.05848268 0.64521915 -0.76377976 0.018241689 0.00033045199
0.063930377 -0.060920462 -0.058532044 0.68236929 -0.73083591 0.015845554 0.00032686919
-0.0067576668 -0.057830561 -0.058512039 -0.74652278 -0.66474444 0.028611073 0.0003099106
-0.0053988849 -0.059319865 -0.058517769 -0.72102612 -0.69219846 0.031346422 0.00043864787
0.065484114 -0.059414849 -0.058577485 0.71702588 -0.69688559 0.014984107 0.00022138792
0.066872664 -0.057947211 -0.058538258 0.74005985 -0.67233866 0.016496092 0.00035337626
-0.0094890222 -0.054639027 -0.05839283 -0.78430039 -0.61952734 0.032539699 0.00042615557
-0.0082061654 -0.05615313 -0.058601268 -0.76413089 -0.64453262 0.026108896 0.00029291917
0.068338603 -0.056274142 -0.058544502 0.76529169 -0.64346594 0.016733944 0.00034503118
0.069548778 -0.054694075 -0.058321975 0.79829562 -0.60209417 0.01437401 0.00033369925
-0.012242536 -0.051264398 -0.058262099 -0.83635527 -0.5478152 0.020210247 0.00038347501
-0.010954961 -0.05269251 -0.058623061 -0.8176254 -0.5747568 0.033813402 0.00050378795
0.071001202 -0.052667208 -0.058519974 0.82149553 -0.57012737 0.0099949185 0.00024455207
0.072115578 -0.051209778 -0.058472913 0.83793163 -0.54572666 0.0072816694 0.00030322513
-0.013042925 -0.049315874 -0.058559932 -0.86756927 -0.49667963 0.025158487 0.00031248789
-0.011920922 -0.050945133 -0.058526844 -0.83920676 -0.54300785 0.029573034 0.00042944774
0.071958698 -0.050990202 -0.059100509 0.83558255 -0.54924011 0.011708034 0.0001632159
0.073073581 -0.049428154 -0.058564972 0.86495656 -0.50175869 0.0094005298 0.00031123153
-0.015184136 -0.045343548 -0.058169 -0.90334159 -0.42775539 0.031611759 0.00073827192
-0.014436313 -0.046911296 -0.05849234 -0.88567096 -0.46357748 0.026133955 0.00051758502
0.074480973 -0.046827108 -0.058457382 0.89177859 -0.45231262 0.012008426 0.00023105484
0.075223453 -0.045436323 -0.058478665 0.90045798 -0.43471909 0.013956729 0.00017647602
-0.016056433 -0.04342141 -0.058546633 -0.92421019 -0.38064924 0.03068684 0.00060357514
0.076031819 -0.043433774 -0.058525033 0.92569637 -0.37798455 0.01462761 0.00024388419
-0.017176639 -0.040472116 -0.058478493 -0.94433737 -0.32688794 0.037030604 0.00048903236
0.077156805 -0.040464636 -0.058525555 0.94582218 -0.32429111 0.015989548 0.00022200646
-0.018196482 -0.037064552 -0.058479596 -0.9653489 -0.25827679 0.037345119 0.00059929659
-0.017828414 -0.03798623 -0.058848113 -0.96243632 -0.26979709 0.03042781 0.00051127968
0.077795707 -0.038385384 -0.058572378 0.96129531 -0.27503055 0.016417669 0.00025060202
0.07824932 -0.036974475 -0.058446459 0.96777266 -0.25146294 0.013506735 0.00028119111
-0.018903695 -0.034170285 -0.058749717 -0.97554964 -0.21632285 0.038824927 0.00043302821
0.078768797 -0.034404054 -0.058375102 0.98036647 -0.19665201 0.014475322 0.00025193463
-0.019313522 -0.031342946 -0.058499392 -0.98784441 -0.1497263 0.041779242 0.00070082984
0.079237893 -0.031716041 -0.058634598 0.98675627 -0.16134696 0.016709469 0.00030256226
-0.019539118 -0.02850179 -0.058499563 -0.99592203 -0.081319623 0.039070606 0.00039848799
0.079643101 -0.028467428 -0.058623925 0.99605876 -0.087712832 0.013173484 0.00017505501
-0.019658562 -0.025458403 -0.058206514 -0.99831545 -0.048179261 0.032328025 0.00012466652
0.079824649 -0.025486566 -0.058535807 0.99962294 -0.025104264 0.01112944 0.00032013885
-0.019793849 -0.022536974 -0.058501363 -0.99932051 0.0090517187 0.035729703 0.00036226411
0.079793729 -0.022449894 -0.058533691 0.99889845 0.0458767 0.0098625133 0.00036491122
-0.019617829 -0.019258909 -0.058508731 -0.99414307 0.10475592 0.026567541 0.00047883682
0.079571843 -0.019513641 -0.058471318 0.99581945 0.090920329 0.0087852618 0.00016472486
-0.019198783 -0.016358539 -0.058665786 -0.98518503 0.16994719 0.022987476 0.00027639195
0.079218544 -0.016485827 -0.058509596 0.98580033 0.16775805 0.0074125086 0.00053546386
-0.018625807 -0.013515122 -0.058510713 -0.97744507 0.21070608 0.014287351 0.00016307966
0.077986531 -0.012090981 -0.059884232 0.96754944 0.25266081 -0.0032684482 0.00059390109
0.078614235 -0.013525153 -0.058449939 0.97339052 0.2289691 0.0091713006 0.00027498516
-0.018161159 -0.011566571 -0.05870818 -0.96500194 0.26144075 0.020493893 0.00029587719
-0.017753828 -0.010123412 -0.058445569 -0.95656705 0.29061383 0.022871446 0.0002533973
0.077680863 -0.010047207 -0.058511339 0.95829397 0.28543863 0.014051675 0.00017986998
0.078131817 -0.011383665 -0.058580399 0.96144497 0.27451685 0.016248984 0.00017901881
-0.016977077 -0.0076829223 -0.058527071 -0.94411922 0.32875156 0.023693033 0.00025208076
0.076853991 -0.0074449959 -0.058549993 0.9435724 0.33089077 0.0135095 0.00042586681
-0.015808061 -0.0046511688 -0.058747597 -0.92488265 0.37961379 0.022032917 0.00027285062
0.074925788 -0.0032267806 -0.05831084 0.90903372 0.41601804 0.02422305 0.00030125715
0.07572791 -0.004573293 -0.058483329 0.91860408 0.39468062 0.019843441 0.00038258077
-0.014391277 -0.0015234165 -0.058516778 -0.895953 0.44379431 0.017743083 0.00033726019
0.074248992 -0.0014903266 -0.058840282 0.88730437 0.46078229 0.019255163 0.00026863895
0.075056031 -0.0027548645 -0.058590312 0.89446241 0.44605938 0.031112591 0.00030074315
-0.012700931 0.0016005955 -0.058977298 -0.86555541 0.50072598 0.0093481736 0.00030254418
0.071776614 0.0025789207 -0.058555238 0.83292389 0.55295748 0.021810908 0.00026802611
0.07277412 0.0011810162 -0.058441576 0.8602125 0.50949287 0.021246789 0.00041909463
