# .PCD v0.7 - Point Cloud Data file format
VERSION 0.7
FIELDS x y z normal_x normal_y normal_z curvature
SIZE 4 4 4 4 4 4 4
TYPE F F F F F F F
COUNT 1 1 1 1 1 1 1
WIDTH 547
HEIGHT 1
VIEWPOINT 0 0 0 1 0 0 0
POINTS 547
DATA ascii
0.02559023 -0.049639702 -0.11890876 0.0095372135 0.039850958 -0.99916011 0.00044064227
0.028652053 -0.049519699 -0.1188603 -0.0033518134 0.029514672 -0.99955875 0.00016486277
0.031586424 -0.049472369 -0.11885363 -0.0029987937 0.030192036 -0.99953961 1.7853396e-05
0.034519482 -0.049490225 -0.11887839 -0.0062185447 0.028156823 -0.9995842 4.2008e-05
0.037597306 -0.049604997 -0.11894049 -0.016290871 0.02732227 -0.99949396 1.2770313e-05
0.040623024 -0.049709536 -0.11896214 -0.022188481 0.033087123 -0.99920613 0.00019460572
0.043453194 -0.049299143 -0.11897333 -0.032657936 0.060688704 -0.99762237 0.0007216392
0.046441268 -0.049320526 -0.11904656 -0.045885805 0.07904619 -0.99581432 0.00053329166
0.049520899 -0.049448587 -0.11934453 -0.045056537 0.046991017 -0.99787861 0.0018744083
0.052575879 -0.049361158 -0.11959407 -0.021468872 0.028736761 -0.99935645 0.0014504653
0.055684447 -0.049587563 -0.11952591 -0.044267971 0.033998236 -0.99844104 0.0022268521
0.058352519 -0.049342602 -0.11940832 -0.082644619 0.049998671 -0.99532408 0.0030060899
0.061196286 -0.049208205 -0.11970174 -0.069227323 0.10262461 -0.99230832 0.0031545237
0.06475307 -0.049653742 -0.11979915 0.08026576 -0.077014931 -0.99379379 0.0024687867
0.067495763 -0.049555741 -0.11944476 0.018785469 0.048070684 -0.9986673 0.025354365
0.06989897 -0.049210299 -0.11930741 -0.41444558 -0.34681529 -0.84140003 0.18201292
0.073182262 -0.049431283 -0.11834871 0.859492 -0.50879109 -0.04904243 0.024723237
-0.015282382 -0.045483369 -0.11857346 -0.93304527 -0.35969767 -0.0066478634 0.017428378
-0.013528004 -0.046593685 -0.11891222 -0.48512101 -0.19679637 -0.85201448 0.010934693
-0.010686646 -0.046486124 -0.11910105 0.23362109 0.19168204 -0.95324671 0.023986015
-0.0076122666 -0.046046861 -0.1196383 -0.024246465 0.012806158 -0.99962401 0.0045314897
-0.0044814213 -0.046335697 -0.11965623 0.024153944 0.029493099 -0.99927312 0.00350686
-0.0012018371 -0.045917105 -0.11926423 0.070667833 0.04729721 -0.996378 0.002145702
0.0016488286 -0.046526011 -0.11933461 0.013216134 0.027264034 -0.99954093 0.0025602672
0.0044940021 -0.046623148 -0.11963309 0.012879565 0.028264461 -0.9995175 0.0021844958
0.0071467804 -0.046486653 -0.11936693 0.051139947 0.046312094 -0.99761713 0.0020270273
0.010543882 -0.046474159 -0.1188942 0.057279289 0.064538099 -0.99627006 0.00098470587
0.013525252 -0.04642754 -0.11886501 0.022067454 0.025410866 -0.99943352 0.0003787411
0.016516272 -0.046390966 -0.11887166 0.017026413 0.026844313 -0.99949461 0.00023178916
0.019607207 -0.04615961 -0.1187889 0.013304716 0.031256303 -0.99942285 8.1335798e-05
0.022563905 -0.045951933 -0.11871999 0.0069936779 0.031060284 -0.99949306 0.00025545381
0.025523273 -0.045924328 -0.11868022 0.0079467362 0.033939153 -0.99939233 0.00017256712
0.028609773 -0.04586966 -0.1186652 0.0029880307 0.031409264 -0.99950218 2.0874659e-05
0.031565525 -0.046060424 -0.11869985 -0.0044606323 0.027094753 -0.99962294 9.5545329e-05
0.034508549 -0.046094619 -0.11871757 -0.0095329387 0.032422435 -0.99942881 0.0002496799
0.037582621 -0.046187244 -0.11877638 -0.017243532 0.031723939 -0.99934793 3.3943172e-05
0.040651761 -0.046448532 -0.11890097 -0.017813791 0.035078235 -0.9992258 0.00012118135
0.043592453 -0.046442706 -0.11891758 -0.017914582 0.034328524 -0.99925005 0.00015182197
0.046509244 -0.046580594 -0.1189355 -0.029297929 0.040374968 -0.99875498 0.00044733804
0.049385883 -0.046935387 -0.11909665 -0.054487158 0.067506976 -0.99622995 0.00044507155
0.052607108 -0.046017095 -0.11927368 -0.066818185 0.055336293 -0.99622953 0.00079310546
0.055774111 -0.046670403 -0.11964685 -0.014227286 0.011015007 -0.99983811 0.0014303704
0.058552276 -0.046498254 -0.11950123 -0.036320861 0.045202844 -0.9983173 0.0036614689
0.06136138 -0.046302382 -0.1194177 -0.073961213 0.073178113 -0.99457264 0.0032915734
0.064801544 -0.046686884 -0.11990923 -0.030208562 -0.0093015758 -0.99950033 0.0085041616
0.068081215 -0.046421714 -0.1198487 0.058348324 -0.044708885 -0.9972946 0.0028767912
0.070361756 -0.046502069 -0.11927176 0.18069483 -0.12790778 -0.97518665 0.0032673778
0.074147888 -0.04676491 -0.11865145 0.8618263 -0.50379443 -0.058707703 0.065160379
0.075145967 -0.045586854 -0.11858047 0.93180668 -0.36239403 -0.020171331 0.030365175
-0.016172202 -0.043277536 -0.11846242 -0.9366734 -0.34918275 -0.026728077 0.013869072
-0.013321672 -0.043461967 -0.11922086 0.48110598 0.18613663 -0.8566739 0.017737294
-0.010271634 -0.043286558 -0.11952212 -0.050197549 -0.033718541 -0.99816996 0.011261306
-0.0070409905 -0.043633685 -0.11987627 -0.010499062 -0.027248221 -0.99957359 0.0058524143
-0.0045308247 -0.043564796 -0.11960492 0.10742287 0.025852118 -0.99387723 0.0024331836
-0.0016199461 -0.043603651 -0.11928184 0.050117575 0.024470666 -0.99844348 0.0030506742
0.001469706 -0.043556411 -0.119582 0.0076504955 0.019233994 -0.99978578 0.0024340968
0.0046438277 -0.043126315 -0.11930622 0.073986754 0.050805688 -0.99596429 0.0015451417
0.0076261442 -0.043294728 -0.11891472 0.07641416 0.053985115 -0.99561363 0.00094733376
0.01046556 -0.04343947 -0.11889137 0.039777 0.039653279 -0.99842143 0.00074294518
0.01335736 -0.043590844 -0.11890151 0.017222414 0.016394274 -0.9997173 0.00038427435
0.016457625 -0.043692026 -0.11879218 0.021657163 0.021957934 -0.9995243 0
0.019548355 -0.043429151 -0.11868437 0.013772092 0.017007312 -0.99976051 8.1763785e-05
0.022526391 -0.043397695 -0.11867486 0.0059963679 0.0044564712 -0.99997211 6.0792736e-05
0.025499765 -0.043373525 -0.1186735 0.0047861799 -0.0038924781 -0.99998099 0.00011923468
0.028590526 -0.043271698 -0.11864033 -0.0023130272 -0.009138206 -0.99995559 6.4317785e-05
0.031552523 -0.043387726 -0.11865291 -0.0034680339 -0.0061292723 -0.9999752 0.00011310326
0.034504451 -0.043361351 -0.11865544 -0.0057999273 0.00026677616 -0.99998319 0.0002199702
0.037550449 -0.043406162 -0.11866756 -0.0099909641 0.016362654 -0.99981618 6.2328087e-05
0.040653735 -0.043595567 -0.11873703 -0.017903782 0.029585574 -0.99940193 0.00012216595
0.04359135 -0.043806188 -0.11883824 -0.01825613 0.030241348 -0.99937588 7.6584642e-05
0.046388656 -0.043909088 -0.11890158 -0.026867326 0.026459403 -0.99928874 5.4201566e-05
0.049323678 -0.043420181 -0.11894249 -0.033843007 0.03193422 -0.99891686 0.00025137354
0.052313451 -0.043046266 -0.11898836 -0.063521221 0.041587077 -0.99711365 0.00041334186
0.055378675 -0.043751583 -0.11946158 -0.077963494 0.038899139 -0.99619704 0.00077786611
0.058628887 -0.043598033 -0.11967692 -0.01855194 0.023259927 -0.99955732 0.0016706749
0.061356418 -0.043328919 -0.11934704 -0.033568013 0.031483643 -0.99894041 0.0030609961
0.064615533 -0.04317062 -0.11962163 -0.11241494 0.067808054 -0.99134505 0.0023869306
0.068362541 -0.043773077 -0.1199257 0.062321089 -0.039342608 -0.99728048 0.0074534104
0.070362642 -0.043326546 -0.11960995 0.047509987 -0.060982652 -0.99700749 0.012326196
0.073099926 -0.04334531 -0.11948347 0.097705595 0.1747323 -0.97975624 0.17829256
0.075949453 -0.043608364 -0.1180605 0.91309637 -0.40704125 -0.023923915 0.022409322
-0.017272761 -0.040257696 -0.11836985 -0.92981309 -0.36131337 -0.070002563 0.009201658
-0.012951843 -0.039869752 -0.11931016 0.080957308 0.047385912 -0.99559051 0.012429083
-0.010780944 -0.040524088 -0.11955776 -0.12261393 -0.06674654 -0.99020743 0.0036789388
-0.0071373428 -0.03989327 -0.11988307 0.13096111 0.03782675 -0.99066561 0.0056307828
-0.0044109346 -0.040343292 -0.11936475 0.1167844 0.041135311 -0.99230504 0.0023913546
-0.00157785 -0.040403102 -0.11927448 0.022307606 0.028134579 -0.99935526 0.0028850869
0.001480496 -0.040400386 -0.11953796 0.045203071 0.019473039 -0.998788 0.0022338186
0.0045168484 -0.040410399 -0.11903071 0.084520683 0.044264704 -0.9954381 0.00092584675
0.0073454184 -0.040429454 -0.11889307 0.037730601 0.026999855 -0.99892312 0.00042067177
0.010391233 -0.040086564 -0.1188731 0.021566343 0.021937514 -0.99952674 0.00010629418
0.013492676 -0.040546618 -0.11878492 0.024030188 0.022521937 -0.99945754 4.2426935e-05
0.016477892 -0.040996626 -0.11870112 0.01718141 0.023310488 -0.99958062 0.00017778878
0.0195207 -0.040889479 -0.11868249 0.0033921581 0.0097383549 -0.99994683 2.9617107e-05
0.022562485 -0.040388606 -0.11869308 -0.0038133091 -0.0023209332 -0.99999005 0.00011525812
0.02548903 -0.040328801 -0.11869597 -0.0013435978 -0.013682828 -0.99990553 0.00011239741
0.02859474 -0.04029474 -0.11868617 -0.0030904782 -0.017941233 -0.9998343 9.17207e-05
0.031574637 -0.040375657 -0.11873537 -0.0039939792 -0.015689887 -0.99986893 8.5071166e-05
0.034482501 -0.040407121 -0.11874928 0.0035212331 -0.013407166 -0.99990392 3.0541662e-05
0.037327513 -0.040528461 -0.11869012 0.0028209963 -0.0065408163 -0.99997461 0.00010052009
0.040550388 -0.040557977 -0.11867432 -0.010790893 0.010058489 -0.99989122 0.00010278581
0.04350204 -0.040333584 -0.11871411 -0.019233732 0.015701922 -0.99969172 8.3321982e-05
0.046439458 -0.040498592 -0.11879719 -0.025589783 0.02101432 -0.99945164 8.3210965e-05
0.049397454 -0.040292185 -0.11892109 -0.031218031 0.019536352 -0.9993217 7.241471e-05
0.052440185 -0.04047133 -0.11900391 -0.051495906 0.035542578 -0.99804056 0.00052169908
0.055553399 -0.040458567 -0.11916355 -0.086734086 0.047530685 -0.99509704 0.00033805516
0.058725893 -0.040204249 -0.1195491 -0.034510434 0.023988971 -0.99911642 0.0023184658
0.061593257 -0.040430434 -0.11954474 -0.018418301 0.017629255 -0.99967498 0.0028950577
0.064372197 -0.040425949 -0.11936114 -0.084984377 0.021265525 -0.99615532 0.004293873
0.066785663 -0.039648287 -0.11991064 -0.12363222 0.033717405 -0.99175513 0.0040722038
0.070949391 -0.040709913 -0.11975542 0.12867932 -0.048677091 -0.99049085 0.0026348664
0.072884127 -0.040131804 -0.11936021 0.062306758 -0.0055548185 -0.99804157 0.018577205
0.076639406 -0.040210959 -0.11880177 0.8091839 -0.58640307 0.036782041 0.077048726
-0.01826928 -0.036563534 -0.11828427 -0.98417348 -0.15214072 -0.090861596 0.10578224
-0.015549735 -0.037143249 -0.11966681 0.48205572 0.12041147 -0.86782682 0.014500396
-0.013305796 -0.03724023 -0.1193727 -0.043615565 0.028884759 -0.99863076 0.015933776
-0.010998666 -0.03799865 -0.11980361 -0.12884592 -0.011959767 -0.99159247 0.0066071507
-0.0070812567 -0.037518717 -0.1196419 0.14670019 0.067147151 -0.98689938 0.0022397765
-0.0045012478 -0.037373729 -0.11921281 0.060391031 0.012258495 -0.99809957 0.0038109915
-0.0016269954 -0.037536256 -0.11958219 0.027013781 0.012851452 -0.99955243 0.0023513115
0.0013342348 -0.0375572 -0.1192739 0.054644622 0.027034028 -0.99813986 0.0026303751
0.0045205718 -0.037468612 -0.1188775 0.066001251 0.039839823 -0.99702388 0.00090699981
0.0075591011 -0.037440814 -0.11886981 0.023050416 0.015140695 -0.99961966 7.4763317e-05
0.01055869 -0.037187025 -0.11876947 0.026846241 0.018726576 -0.99946415 5.577597e-05
0.01366454 -0.037467904 -0.11865215 0.016321559 0.012041005 -0.9997943 0.00016760026
0.016463112 -0.037601903 -0.11865243 0.0036146515 0.0046686549 -0.9999826 0.00010314398
0.01944902 -0.037698388 -0.11867835 -0.0051413141 -0.0032476266 -0.99998152 0.0001504063
0.022391856 -0.037418395 -0.11871031 -0.0086426875 -0.008713806 -0.99992472 0.0001089629
0.025485303 -0.037334401 -0.11874904 -0.0053147865 -0.013121924 -0.9998998 3.0585332e-05
0.028610744 -0.037371226 -0.11877468 -0.0016530022 -0.011417895 -0.99993348 1.1636316e-05
0.031591248 -0.037314568 -0.1187686 -0.0021910318 -0.0080596004 -0.99996513 2.2039389e-05
0.034431558 -0.037306122 -0.11876376 0.00067315105 -0.010557859 -0.99994403 6.7768415e-05
0.037487514 -0.03764645 -0.11872993 0.010544947 -0.013625266 -0.99985158 5.1629799e-05
0.040361248 -0.037566267 -0.11870101 0.0049286312 -0.011338228 -0.99992359 0.00013115026
0.043552995 -0.037150607 -0.11872222 -0.0081430441 0.0012032844 -0.99996614 8.6272674e-05
0.046585478 -0.037079595 -0.11871928 -0.022160195 0.015113881 -0.99964023 0.00017146314
0.049505346 -0.037561204 -0.11885694 -0.032829855 0.023907632 -0.99917501 0
0.052496441 -0.0377631 -0.11897559 -0.037239589 0.024005281 -0.99901801 5.6401361e-05
0.055280775 -0.037900552 -0.11904213 -0.067521475 0.033143342 -0.99716723 0.00031364811
0.058653418 -0.037410438 -0.11936355 -0.080949068 0.029316057 -0.99628699 0.0013385442
0.061591186 -0.03749625 -0.1197243 -0.02066954 0.01322604 -0.99969888 0.0023554992
0.064360917 -0.037455764 -0.11932528 -0.060040075 0.011953715 -0.99812442 0.0041149231
0.067005277 -0.037211172 -0.11969244 -0.16096839 0.033957422 -0.98637521 0.0015730148
0.071577653 -0.037573256 -0.11985147 0.15844448 -0.040556684 -0.9865346 0.0020745795
0.073169276 -0.037458345 -0.11955392 0.025360009 -0.047528733 -0.99854785 0.0093287872
0.077188 -0.037833121 -0.11860985 0.83963388 -0.30365184 -0.45034477 0.060228527
0.078231692 -0.036956102 -0.11810207 0.95684177 -0.26948777 -0.10876687 0.049246296
-0.018896719 -0.034866091 -0.11998021 0.99620074 0.053134914 -0.068998694 0.13711894
-0.01569267 -0.034752339 -0.11942852 0.27909258 0.076980509 -0.95717365 0.063388988
-0.013570979 -0.034582641 -0.1195306 0.060203485 0.00022079438 -0.99818605 0.030073151
-0.010248099 -0.03454205 -0.11987264 0.041152041 0.074490786 -0.99637228 0.0042430847
-0.0074080536 -0.034492385 -0.11943332 0.10713266 0.024678633 -0.99393845 0.0024273442
-0.0043477854 -0.034520678 -0.11946829 0.021477155 0.022534968 -0.99951535 0.0024334744
-0.001298992 -0.034412157 -0.11950383 0.062483281 0.0067477687 -0.99802321 0.0023058942
0.0014910707 -0.034484722 -0.11898164 0.087427758 0.025463212 -0.99584538 0.00091019808
0.0044220593 -0.034307271 -0.11887519 0.046264578 0.020402415 -0.99872088 0.00063466589
0.0074930801 -0.034797527 -0.1188454 0.024394471 0.010834796 -0.99964368 0.00012707332
0.010492055 -0.03450866 -0.11872256 0.027629491 0.0107236 -0.99956071 0.00013115611
0.013646403 -0.034403045 -0.11867449 0.0027040085 -0.0030787832 -0.9999916 2.4575234e-05
0.016554397 -0.034436211 -0.11869807 -0.0044662473 -0.011505401 -0.99992383 2.2993017e-05
0.019478885 -0.034497432 -0.11870448 -0.0083939536 -0.013080717 -0.99987924 0
0.022469405 -0.034614962 -0.11873819 -0.011430591 -0.011881672 -0.9998641 0.00017324014
0.025484186 -0.034695767 -0.11878201 -0.0079658935 -0.011128925 -0.99990636 0.00016776644
0.028610267 -0.034675203 -0.11877906 0.0020618709 -0.0088384617 -0.99995881 6.9197697e-05
0.03156618 -0.03466548 -0.11874972 -0.00010682305 -0.0064391415 -0.99997926 0.00011524095
0.034449533 -0.03479933 -0.11879227 -0.0042151902 -0.0076780599 -0.99996167 0
0.037426315 -0.034843329 -0.11881858 0.0081714354 -0.012871822 -0.99988377 6.8443842e-05
0.040505175 -0.034649193 -0.11873676 0.010395271 -0.0117645 -0.9998768 7.4147196e-05
0.043587565 -0.034608021 -0.1187247 0.0043369741 -0.0051367185 -0.99997741 6.6255117e-05
0.046659473 -0.034514591 -0.1186892 -0.0086399773 0.0096455673 -0.9999162 0.00023860733
0.049602542 -0.034612443 -0.1187346 -0.026788512 0.019505404 -0.9994508 0.00015159737
0.052541882 -0.034649421 -0.11889605 -0.037417948 0.021003418 -0.99907899 5.6356512e-05
0.055376433 -0.034505401 -0.11896759 -0.04849628 0.027229628 -0.99845219 0.0001842925
0.058313753 -0.034530777 -0.11909768 -0.10802274 0.032177109 -0.99362755 0.0004329225
0.061604548 -0.034361608 -0.11968042 -0.042693432 0.0089310715 -0.99904835 0.0025259275
0.064480752 -0.034582548 -0.11941327 -0.017519582 0.011348308 -0.99978209 0.0031125466
0.067147389 -0.034652606 -0.1196207 -0.12197362 0.027620254 -0.992149 0.0023382518
0.071180008 -0.034723461 -0.11998497 0.08817704 -0.037495323 -0.99539888 0.0019168482
0.073873505 -0.034710571 -0.11962771 0.049750179 0.0044015916 -0.99875206 0.011931757
0.075933978 -0.034281772 -0.11929961 -0.081590101 -0.086622499 -0.99289459 0.13659289
0.078855991 -0.034675241 -0.11810308 0.88099372 -0.44420275 -0.16289267 0.057199884
-0.016051816 -0.031887226 -0.11947402 0.26586136 0.020611001 -0.96379089 0.031486627
-0.013821186 -0.031258095 -0.1195363 -0.0023941926 -0.01444391 -0.99989283 0.015244492
-0.010489412 -0.031512626 -0.11979824 0.056608785 -0.022741426 -0.99813741 0.0063830274
-0.007609698 -0.031629682 -0.11931609 0.081596419 0.00049188081 -0.99666536 0.0035349005
-0.0045328597 -0.031509683 -0.11952019 0.0076688533 0.0057645566 -0.99995404 0.0014663895
-0.0013892355 -0.031431325 -0.11944722 0.090257607 0.0040031155 -0.99591041 0.0010642791
0.0015365439 -0.031405665 -0.1188899 0.082825869 0.011975416 -0.99649209 0.0010995925
0.0044537564 -0.031116223 -0.11887584 0.032570999 0.0058677765 -0.99945217 0.00056557177
0.0074929809 -0.031546041 -0.11881964 0.030365249 0.0078271041 -0.99950826 1.3281466e-05
0.010505114 -0.031835735 -0.11866461 0.019613102 0.0069610472 -0.9997834 3.1919767e-06
0.013698289 -0.031691037 -0.11869586 -0.0097365715 -0.0038740525 -0.9999451 0.00011347866
0.01658687 -0.031312421 -0.11874487 -0.0083157271 -0.010360888 -0.99991179 0
0.019481612 -0.031427458 -0.11875319 -0.0047855005 -0.0069530322 -0.99996442 0.00018374041
0.022453472 -0.031434152 -0.1187852 -0.011008478 -0.0064799679 -0.99991846 0
0.025477838 -0.031506166 -0.11882336 -0.009570674 -0.0071611465 -0.99992859 0.00013664343
0.028613169 -0.031473115 -0.11881282 0.0028315573 -0.0093910825 -0.9999519 0.00020137595
0.031498544 -0.031478748 -0.11878297 -0.00013321968 -0.012115809 -0.99992663 0
0.034341566 -0.031570993 -0.11881071 -0.0039407811 -0.0075584003 -0.9999637 4.1412542e-05
0.037455752 -0.031586692 -0.11882219 0.0084192781 -0.0043248166 -0.99995524 5.7847086e-05
0.040552262 -0.031487115 -0.11878067 0.013579127 -0.0028201523 -0.99990386 1.0584722e-05
0.043642312 -0.031392299 -0.11874258 0.009947028 -0.0040705903 -0.99994224 8.3573294e-05
0.046596162 -0.031329099 -0.1187162 0.00040204515 -0.00073657359 -0.99999964 0.00019977987
0.049276747 -0.03144427 -0.11868288 -0.014905416 0.0042028907 -0.99988014 0.00012627852
0.052274458 -0.03137593 -0.11880521 -0.035771601 0.005473271 -0.999345 2.4421712e-05
0.05544728 -0.031363487 -0.11897483 -0.040187202 0.0061449548 -0.99917328 4.9191472e-05
0.058527112 -0.031623691 -0.11907145 -0.10011529 0.018308312 -0.99480742 0.00077004684
0.061833337 -0.03150316 -0.11960427 -0.056503721 -0.0024107029 -0.9983995 0.0022237976
0.064556599 -0.031632341 -0.11956476 -0.022447903 0.0046596029 -0.9997372 0.0017623858
0.067394562 -0.031484291 -0.11946584 -0.098466188 0.008358188 -0.99510533 0.0022639635
0.069438577 -0.031354539 -0.11992534 -0.12848893 0.018259821 -0.99154282 0.0015817245
0.074175119 -0.031633236 -0.11967399 0.16602275 -0.030671295 -0.98564482 0.0013466483
0.076108344 -0.031554297 -0.11941974 -0.18288393 0.067565039 -0.98081011 0.05483371
0.079428867 -0.031457841 -0.11835513 0.98014516 -0.19461143 -0.037972473 0.037327092
-0.016194008 -0.028721133 -0.11945288 0.25965139 -0.0045086229 -0.96569186 0.024583112
-0.013868366 -0.028675009 -0.11970039 -0.050062921 0.00083240098 -0.99874574 0.0090641025
-0.0098667722 -0.028462451 -0.11981104 0.12059249 -0.0040585883 -0.99269378 0.0037188791
-0.0074493187 -0.028450508 -0.11922514 0.072388187 -0.0026662368 -0.99737304 0.0044375192
-0.0042205551 -0.028515447 -0.11959341 0.0078601697 0.0034991794 -0.99996305 0.0018007683
-0.0014102201 -0.0285937 -0.11937538 0.097272977 0.0069652055 -0.99523342 0.0008171798
0.0014462664 -0.028560765 -0.11889981 0.088265836 -0.0016228619 -0.99609566 0.00079675659
0.0045223087 -0.028511725 -0.11888646 0.035952169 6.0152164e-05 -0.99935353 0.00040221683
0.0076902136 -0.02823011 -0.11877016 0.039363708 0.004142446 -0.99921638 4.5024677e-05
0.010534366 -0.028586473 -0.11863871 0.013792182 0.0071993228 -0.999879 0.00014830299
0.013492888 -0.028619114 -0.11870852 -0.019768169 -0.0046300478 -0.99979389 2.8695509e-05
0.016601775 -0.02822913 -0.11876667 -0.0080012502 -0.0062165307 -0.99994868 1.1094307e-05
0.019516721 -0.028220529 -0.11877222 -0.0022990797 -0.0020238054 -0.99999529 9.8704972e-05
0.022418546 -0.028154604 -0.11875539 -0.010128366 -0.0021406482 -0.99994642 0
0.025460146 -0.028302452 -0.11881834 -0.0098992931 -0.0045233322 -0.99994081 0.00012740905
0.028618412 -0.028413329 -0.11886165 -0.0021580472 -0.011427179 -0.99993241 0.00012276898
0.031492501 -0.028347556 -0.1188377 0.00065433205 -0.016134582 -0.99986964 0.0001199203
0.034366973 -0.028370434 -0.11885245 0.0043523489 -0.012186814 -0.99991626 1.4101293e-05
0.037483707 -0.028289296 -0.1188166 0.010781835 -0.0075008064 -0.99991375 0.00013509214
0.040593833 -0.028207529 -0.11878282 0.009338256 -0.001200874 -0.99995571 8.3011346e-06
0.043564618 -0.028113294 -0.11874195 0.010577915 -0.0021613191 -0.99994177 2.5384837e-05
0.046529997 -0.028025016 -0.11870754 0.0049362057 -0.0046240059 -0.99997711 6.651062e-05
0.049608447 -0.028414428 -0.11871156 -0.011228785 0.00028037114 -0.99993694 3.5913832e-05
0.052455753 -0.028272282 -0.1188136 -0.039871436 0.0027942117 -0.99920094 7.6694239e-05
0.055564962 -0.028694563 -0.11897708 -0.049936153 0.0036088717 -0.99874586 0.00019677008
0.058603641 -0.02856997 -0.11905059 -0.089666411 0.0027022292 -0.99596822 0.00055421016
0.061424837 -0.028538523 -0.11946982 -0.090400167 -0.0092706773 -0.99586242 0.00095052074
0.064564876 -0.028581027 -0.11970501 -0.0096332775 0.0045309244 -0.99994338 0.0021102219
0.067401484 -0.029069124 -0.1196097 -0.057553902 0.0078079849 -0.99831188 0.0041555106
0.070362583 -0.028863799 -0.11985214 -0.060898777 0.013747819 -0.99804926 0.0052469834
0.074340433 -0.028956898 -0.11970578 0.10689101 -0.026396152 -0.99392027 0.0057196114
0.076313369 -0.028638447 -0.11944568 -0.12425821 0.081732579 -0.98887801 0.062690437
0.079620063 -0.02860773 -0.11806749 0.99011153 -0.068236515 -0.12256823 0.043861769
-0.016073421 -0.025732026 -0.11943772 0.28293768 -0.0063776691 -0.95911711 0.036349788
-0.014016528 -0.025522953 -0.1197328 -0.072373472 -0.00068757049 -0.99737734 0.0077285198
-0.0099278688 -0.025036298 -0.11975795 0.12585665 -0.017639026 -0.99189162 0.0036035345
-0.0075840103 -0.025616042 -0.11930847 0.063856997 0.009027387 -0.99791825 0.0043354472
-0.0044312007 -0.025568601 -0.11952308 0.001650869 -0.0056655048 -0.9999826 0.0016440551
-0.0014947836 -0.025453176 -0.11938066 0.09551762 -0.0062320326 -0.99540824 0.00075110258
0.0014309036 -0.025559139 -0.11897901 0.084441848 -0.012121669 -0.9963547 0.00071839255
0.004468089 -0.025708783 -0.11889179 0.039375085 -0.0023660434 -0.99922168 0.00029892023
0.0076153558 -0.025509326 -0.11872762 0.030465381 0.0016166292 -0.99953449 0.00021312019
0.010529049 -0.025301084 -0.11864008 0.00073083083 0.0018306155 -0.99999809 0.00019876538
0.013389908 -0.025544245 -0.11873721 -0.015018377 -0.00014038978 -0.99988723 0.00023342913
0.016460517 -0.025636807 -0.11879368 -0.007933815 -0.0023315609 -0.99996585 0
0.019617846 -0.0255819 -0.11876425 -0.0030599644 -0.0016505289 -0.99999398 0.00013519575
0.022540413 -0.025677066 -0.11880517 -0.011863376 -0.0016467925 -0.9999283 0.00012007049
0.025454167 -0.02577069 -0.11884761 -0.015587402 -0.0039544031 -0.99987072 2.1085798e-05
0.028707966 -0.025626369 -0.11885985 -0.010608993 -0.011829579 -0.99987376 9.4929521e-05
0.031511903 -0.025341753 -0.11891386 -0.0034309053 -0.016066419 -0.99986506 3.0669766e-05
0.034289107 -0.02569693 -0.11888447 0.0057551921 -0.018315015 -0.9998157 0.00016381024
0.037502855 -0.025680644 -0.11881423 0.018320009 -0.0075092185 -0.99980396 6.6082961e-05
0.04062143 -0.025615802 -0.11878486 0.013216491 -0.0043024039 -0.99990338 0.0001014408
0.043603927 -0.025667898 -0.11879767 0.0094020711 -0.0013954691 -0.99995482 8.858231e-05
0.046572112 -0.025462504 -0.11871597 0.0047677364 -0.0013091906 -0.99998778 0.00026328914
0.049546253 -0.025482748 -0.11872756 -0.011764023 0.0012989418 -0.99992996 0.00016570059
0.052382622 -0.025566828 -0.11876692 -0.036930315 0.0037858342 -0.99931073 7.6685128e-06
0.055476233 -0.025543582 -0.11896889 -0.041809533 0.0061981487 -0.99910641 3.003227e-05
0.058360349 -0.025468156 -0.11905323 -0.093163393 -0.00049334572 -0.99565071 0.00072631694
0.061603621 -0.025418241 -0.11949328 -0.094021656 -0.00076534267 -0.99556988 0.0013216722
0.064770356 -0.025608247 -0.11976303 0.00034281175 0.011037884 -0.99993902 0.0020615945
0.06741336 -0.025519488 -0.11936708 -0.039952792 0.017702624 -0.99904472 0.0049715685
0.069394141 -0.025700614 -0.11970256 -0.14867258 0.012890593 -0.98880243 0.0030673649
0.074548319 -0.025499273 -0.11964133 0.18448463 0.00148784 -0.98283428 0.0019749349
0.076427564 -0.025469292 -0.11937514 -0.12490272 0.016135838 -0.99203777 0.046172772
0.079941303 -0.026024386 -0.1183594 0.98104775 -0.14522862 -0.12827329 0.078529902
-0.016130973 -0.022703316 -0.11944214 0.26959589 0.015151863 -0.96285433 0.034762092
-0.013992036 -0.022512795 -0.11978636 -0.097823739 0.013383608 -0.99511373 0.0067982469
-0.0099964663 -0.022608139 -0.11983415 0.13688155 -0.01940671 -0.99039727 0.0032203072
-0.007554336 -0.02253977 -0.11928152 0.062452152 -0.0058441614 -0.9980309 0.0037230989
-0.0045591258 -0.022714622 -0.11951475 0.0056413431 -0.0075915977 -0.9999553 0.0016216272
-0.0014090526 -0.022656484 -0.11946468 0.087614372 -0.00032349082 -0.99615443 0.0010358836
0.0015096532 -0.022023667 -0.11893915 0.083675414 0.003283621 -0.99648768 0.0010263037
0.0044243275 -0.02268758 -0.11892296 0.039156228 -0.0017151701 -0.99923164 0.0005327512
0.0074151191 -0.022579946 -0.11876267 0.03895203 -0.0082418229 -0.99920714 0.00012148025
0.010594534 -0.022570554 -0.11859876 0.0025947269 -0.0037297499 -0.99998969 0.00042260907
0.013455632 -0.022902608 -0.11874746 -0.020052176 -0.0022730092 -0.99979633 0.00014389977
0.016400728 -0.02295357 -0.1187732 -0.0090518277 -0.0011888595 -0.99995834 0.00018148299
0.019589731 -0.022927284 -0.11875891 -0.00095063209 -0.001756725 -0.99999803 2.553768e-05
0.02253153 -0.022895375 -0.11878517 -0.014101164 -0.0027309691 -0.99989688 0.00012330958
0.025541656 -0.022519134 -0.11883907 -0.016987972 -0.0046835598 -0.99984473 2.7436989e-05
0.028493911 -0.022481514 -0.11891221 -0.016157363 -0.0075644176 -0.99984086 0.00012937977
0.031455316 -0.022112902 -0.11897831 -0.0057402183 -0.0081186369 -0.99995059 0.00014952058
0.034476422 -0.022593245 -0.11895274 0.0099640861 -0.013928819 -0.99985337 8.2882165e-05
0.03754672 -0.022526955 -0.11889438 0.024679698 -0.010510141 -0.99964017 7.3620467e-05
0.040432367 -0.022680573 -0.11878005 0.017543232 -0.0049154293 -0.99983406 0.00017601936
0.043503717 -0.022798503 -0.11874494 0.0090110628 -0.00082534191 -0.99995911 0.00018054011
0.046617851 -0.022774966 -0.11873402 0.0059459172 -0.00092564349 -0.99998194 8.1689766e-05
0.049541682 -0.022707857 -0.11871603 -0.012515448 -0.0032405811 -0.99991643 0.0001333266
0.052520506 -0.022586819 -0.11875895 -0.034004841 -0.00048073975 -0.99942154 5.3931726e-05
0.055329867 -0.022320459 -0.11893554 -0.040407144 0.00026968948 -0.9991833 3.5932637e-05
0.058435328 -0.02222465 -0.11902358 -0.082192183 0.0070150886 -0.99659181 0.00049446966
0.061426014 -0.0224334 -0.11945552 -0.093328021 0.0094280774 -0.99559081 0.0015618751
0.064530216 -0.022663496 -0.11973874 -0.0034060951 0.012199458 -0.99991977 0.0027903593
0.067580476 -0.022611447 -0.11933592 -0.064206772 0.013875006 -0.99784017 0.0068786768
0.069389477 -0.022564448 -0.11980347 -0.21597362 -0.0034492505 -0.9763931 0.0015630075
0.074316256 -0.022269133 -0.11966996 0.13826488 0.014711105 -0.99028605 0.0054526553
0.076613851 -0.02281085 -0.1193781 -0.063160747 0.11556494 -0.99128985 0.057622723
0.079839669 -0.022564769 -0.11856806 0.99966627 0.025817225 0.00086858741 0.037851203
-0.016269727 -0.019549727 -0.11942802 0.29376659 -0.011351788 -0.95580977 0.026892137
-0.013968019 -0.019399043 -0.11957604 -0.02679573 0.038113609 -0.99891406 0.01369779
-0.0099872453 -0.019587781 -0.11980668 0.17075501 -0.036146946 -0.98465025 0.0039185151
-0.0077357693 -0.019780422 -0.11930286 0.093060054 -0.013484728 -0.99556917 0.0042253379
-0.0044744629 -0.019635782 -0.11960061 0.0012944493 -0.017984992 -0.99983746 0.0020025871
-0.0014036193 -0.019682622 -0.11943863 0.097527906 -0.0058836653 -0.99521542 0.0012850596
0.0014097441 -0.019351358 -0.11889332 0.093933731 -0.0047517349 -0.99556714 0.0011912275
0.0045570796 -0.019337112 -0.11893502 0.031492498 -0.0081023611 -0.99947119 0.00041238783
0.0076184645 -0.019513074 -0.11882593 0.040790766 -0.013906579 -0.999071 6.7981389e-05
0.010350155 -0.01976194 -0.11867733 0.019705852 -0.0080078989 -0.99977374 0.00026654039
0.013542023 -0.019470006 -0.1187345 -0.012769517 0.00069134432 -0.99991822 7.4127915e-05
0.01643436 -0.019713089 -0.11880122 -0.0072554951 0.003846911 -0.99996632 0.00026015236
0.019557107 -0.019616257 -0.11878749 -0.0059470437 -0.0015834108 -0.99998111 0.00014071117
0.02247303 -0.019548777 -0.1187969 -0.0094429869 -0.0013262302 -0.99995452 0
0.025290947 -0.019333685 -0.11884908 -0.013857006 0.0042534834 -0.99989498 0.00010947631
0.028622404 -0.01926779 -0.11894099 -0.016170742 0.014893913 -0.9997583 4.7015492e-05
0.031537332 -0.019329019 -0.11897086 -0.0033639835 0.019474018 -0.99980468 0.00019369523
0.034436569 -0.019355163 -0.11897601 0.013410295 0.021440992 -0.99968016 0.00015976385
0.037584379 -0.019218493 -0.11892478 0.022368638 0.017647997 -0.99959403 0.00018893142
0.040621933 -0.019468134 -0.11879016 0.014560114 0.0084905392 -0.99985796 0.00021878767
0.043559618 -0.019507548 -0.1187684 0.0093097594 -0.00041049795 -0.99995661 2.0312651e-05
0.046621121 -0.019500215 -0.11873859 0.00067699002 -0.0026939781 -0.99999613 7.1551418e-05
0.049495906 -0.01939705 -0.11872776 -0.014091643 -0.0083406297 -0.99986595 0.00014634612
0.052318078 -0.019432303 -0.11879045 -0.031096498 -0.011413159 -0.99945128 5.110342e-05
0.055410322 -0.019342588 -0.11894897 -0.033952549 -0.01210006 -0.99935025 5.5179062e-05
0.058376089 -0.019421097 -0.11898853 -0.092036776 -0.016904028 -0.99561214 0.0010647872
0.061407492 -0.019552387 -0.11947446 -0.090671375 -0.0084582297 -0.9958449 0.0017868077
0.06448698 -0.019849401 -0.11968976 -0.0055397809 -0.016989155 -0.99984038 0.0022371183
0.067593977 -0.019372519 -0.11932699 -0.083845533 -0.025723761 -0.99614668 0.0060722809
0.06964951 -0.019966569 -0.11987396 -0.11595102 -0.019771332 -0.99305815 0.0065466301
0.073968202 -0.019332752 -0.11959971 0.102704 0.040474027 -0.9938882 0.0069146869
0.076445043 -0.019549128 -0.11942571 -0.098811507 -0.011627547 -0.99503821 0.065979496
0.079647452 -0.019518785 -0.11805905 0.98816514 0.024452252 -0.15143241 0.055575568
-0.016137164 -0.016274802 -0.1194678 0.31540951 -0.037096243 -0.94823027 0.030220278
-0.013662905 -0.016500071 -0.11956497 -0.079088978 0.043975223 -0.99589711 0.010125649
-0.009577523 -0.017290525 -0.11986345 0.13420895 -0.042939402 -0.9900223 0.0064504989
-0.0075352811 -0.016721837 -0.11935427 0.088825159 -0.027498797 -0.99566758 0.0048705162
-0.0042089131 -0.016500715 -0.11955793 0.0098504527 0.0030440523 -0.99994689 0.0025250304
-0.001488301 -0.016537996 -0.11959063 0.078136347 -0.013084809 -0.99685681 0.0027048122
0.0012646127 -0.016487656 -0.11899431 0.099714376 -0.031615477 -0.99451369 0.0014450229
0.0044539422 -0.016519248 -0.11893356 0.034015696 -0.021607092 -0.99918771 0.00071233878
0.0076622982 -0.016410369 -0.11887737 0.035526633 -0.014739294 -0.99926007 0.00015580613
0.010569079 -0.016458023 -0.11865321 0.031679869 -0.015497689 -0.99937791 0.00022695318
0.013488145 -0.016130991 -0.11869219 -0.010164863 0.0019535639 -0.99994648 4.7955524e-05
0.016562087 -0.016144656 -0.11877078 -0.0092443684 0.010502098 -0.99990213 6.99214e-05
0.019508906 -0.016139068 -0.11876091 -0.0071712034 0.0103484 -0.99992073 9.7776574e-05
0.022466391 -0.016291678 -0.11881848 -0.01075273 0.0076435376 -0.99991298 6.7924069e-05
0.025402948 -0.016315214 -0.11882762 -0.005951412 0.012484813 -0.99990439 0.00010503027
0.028593935 -0.016262833 -0.11881388 -0.0055556633 0.02106013 -0.99976277 0.00017801693
0.031520821 -0.016382329 -0.11885955 0.0012315381 0.027471686 -0.99962187 3.0984294e-05
0.034417395 -0.016264558 -0.11879922 0.0091887917 0.028922914 -0.99953943 8.5300439e-05
0.037444796 -0.016110215 -0.11874587 0.014856565 0.022673253 -0.99963254 0.00016261271
0.040463381 -0.016176507 -0.11874738 0.0080774967 0.011421677 -0.99990213 9.3731047e-05
0.043614209 -0.016243683 -0.11876716 0.0042849579 0.0074679246 -0.99996293 3.0452467e-05
0.046616241 -0.016221043 -0.11874656 -0.0018051369 0.002488507 -0.99999529 0.00018177016
0.049487039 -0.016194321 -0.11873333 -0.026138486 -0.0091760093 -0.99961621 0.00011286576
0.052520011 -0.016562847 -0.11889815 -0.038948428 -0.012935491 -0.99915755 0.00017622289
0.055481337 -0.016700394 -0.11899591 -0.029751688 -0.017058859 -0.99941176 0.00010919559
0.058603309 -0.016474642 -0.11905062 -0.11391382 -0.02751611 -0.99310952 0.0012950469
0.061704524 -0.016577344 -0.11963902 -0.065937318 -0.022654723 -0.99756658 0.0039932537
0.064507037 -0.016698841 -0.11959986 0.018803099 -0.024519369 -0.99952251 0.0026668182
0.067425802 -0.016491465 -0.1193846 -0.11881742 -0.027754368 -0.99252814 0.0039429376
0.069374695 -0.016644543 -0.11994167 -0.1919228 -0.016413702 -0.98127276 0.0025089509
0.073892832 -0.016325999 -0.11955705 0.10413226 0.042711195 -0.99364591 0.010027003
0.076271459 -0.01613906 -0.11932772 -0.2554827 0.0020095597 -0.96681154 0.050594267
0.079303451 -0.016342102 -0.11846215 0.97808361 0.20553656 -0.033274207 0.06519305
-0.015930064 -0.013666134 -0.11942227 0.46749985 -0.072717018 -0.88099724 0.025443293
-0.01374349 -0.013449037 -0.11945029 0.027246859 -0.00096568814 -0.99962825 0.035123065
-0.010613114 -0.013682547 -0.11991004 -0.073680207 0.021966564 -0.99703997 0.0088012265
-0.0072777863 -0.013452876 -0.11945792 0.15721679 -0.046863977 -0.98645151 0.0018161996
-0.004823877 -0.013149824 -0.11928929 0.04022529 -0.023391303 -0.9989168 0.0049287975
-0.0013995788 -0.013422668 -0.11970525 0.033091713 -0.016600195 -0.99931449 0.0031672032
0.0014175152 -0.013329761 -0.11914612 0.10377796 -0.038078681 -0.99387127 0.0013690609
0.0045297313 -0.013743819 -0.11891066 0.037830509 -0.025720946 -0.9989531 0.00067696103
0.0075413408 -0.013880273 -0.11896975 0.025527382 -0.015731487 -0.99955034 0.00016167786
0.010453333 -0.013453271 -0.11878096 0.036005106 -0.020150322 -0.99914849 0.0001035817
0.013533279 -0.013292832 -0.11869662 0.0095291557 -0.011438083 -0.99988919 0.00023065697
0.016511094 -0.013357177 -0.11872533 -0.0043437905 0.0075032935 -0.99996239 3.5594672e-05
0.01947486 -0.013425199 -0.11874478 -0.010143523 0.017774967 -0.99979055 0
0.022579368 -0.013595552 -0.11881348 -0.010770775 0.014241476 -0.99984062 7.5945703e-05
0.025519121 -0.013598198 -0.11880744 0.00028443246 0.014158569 -0.99989974 0.00013741896
0.028576154 -0.013551903 -0.1187762 -0.0036383958 0.015027803 -0.99988049 7.8450401e-05
0.031509191 -0.013633329 -0.11880698 -0.00031852222 0.014912515 -0.99988878 0.00015923411
0.034424048 -0.013623545 -0.11879472 0.012809811 0.013830424 -0.99982232 0.0001153277
0.037484203 -0.013439407 -0.11873734 0.0077235214 0.01050916 -0.99991494 0.00019231078
0.040488049 -0.013396602 -0.11874074 0.0019873532 0.0095582763 -0.99995238 2.5704498e-05
0.043644413 -0.013372192 -0.11872468 0.00020036183 0.0077354992 -0.99997008 0
0.046659864 -0.013325889 -0.11870691 -0.013788225 -0.0061820806 -0.99988586 0.00037847864
0.0495384 -0.013435312 -0.11873552 -0.031788349 -0.015356513 -0.99937665 7.5136777e-05
0.052522108 -0.013466367 -0.11895212 -0.038945902 -0.015995128 -0.99911332 0.0001176937
0.055433854 -0.013403988 -0.11900576 -0.051650476 -0.027682796 -0.99828148 0.00038236144
0.058352225 -0.013438421 -0.11913563 -0.120977 -0.037683278 -0.99193978 0.0009988161
0.061278965 -0.013485208 -0.11970884 -0.064212807 -0.021484375 -0.99770492 0.0041364757
0.064825714 -0.013688076 -0.11944067 0.011794759 -0.019353583 -0.99974316 0.002585049
0.067411765 -0.013516093 -0.11961477 -0.11584206 -0.029984228 -0.99281502 0.0026436816
0.070661947 -0.013270186 -0.11988249 0.036986772 0.046456125 -0.99823534 0.0069620972
0.073938161 -0.013584041 -0.11944948 0.037326522 0.0079286648 -0.99927163 0.021271089
0.076081045 -0.013491666 -0.11939387 -0.30338109 0.030629974 -0.9523769 0.083429068
0.078741275 -0.013336631 -0.11836973 0.9571985 0.28935546 0.0066672401 0.044487946
-0.015502406 -0.010975689 -0.11954121 0.50979739 -0.14048232 -0.8487469 0.02380969
-0.013829693 -0.01045851 -0.11934745 0.087079495 -0.083554804 -0.99269116 0.039383247
-0.01145694 -0.0099350996 -0.11972433 -0.07947468 -0.0096112397 -0.99679053 0.0082897181
-0.0069557223 -0.01058107 -0.11974598 0.16097349 -0.082030021 -0.98354387 0.0020448854
-0.0047970619 -0.010336004 -0.11939052 0.067492008 -0.042068478 -0.99683255 0.0053580026
-0.0013756346 -0.010349005 -0.11971467 0.010027627 -0.03210748 -0.99943411 0.0027243583
0.0014821521 -0.010380413 -0.11939739 0.1034024 -0.038595673 -0.99389052 0.0012985349
0.004508351 -0.010372353 -0.11893265 0.071534939 -0.054489497 -0.99594861 0.0012606833
0.0075149769 -0.010587545 -0.11896828 0.025823221 -0.021162847 -0.99944252 0.0004260962
0.010411568 -0.010385784 -0.11888905 0.032852996 -0.019257011 -0.99927473 8.7374821e-05
0.013491783 -0.010592967 -0.11870342 0.02965086 -0.018588899 -0.9993875 0.00014186028
0.016590923 -0.010500947 -0.11866281 0.0092407977 0.0038539493 -0.99994987 0.0002350775
0.019560453 -0.010536158 -0.11866908 -0.0064428556 0.012504046 -0.99990112 0.00018226859
0.022534057 -0.010671671 -0.11871862 -0.01027153 0.018271286 -0.9997803 4.6546189e-05
0.025490528 -0.010743366 -0.11874009 -0.0024294206 0.015339131 -0.99987942 6.215684e-05
0.028568022 -0.010677984 -0.11875361 -0.0021867733 0.012620297 -0.99991798 2.5463238e-05
0.031507134 -0.010756908 -0.11877736 0.0013414574 0.01378739 -0.9999041 0.00014385855
0.034429044 -0.010723468 -0.11875537 0.0063154725 0.012106066 -0.99990678 9.6089534e-05
0.037443899 -0.010615248 -0.11872754 0.0074563855 0.009364007 -0.99992836 3.8272727e-05
0.04051134 -0.010557692 -0.11871722 0.0047637075 0.0064324625 -0.99996799 6.0303493e-05
0.043539658 -0.010483606 -0.11868213 -0.012432709 0.002257634 -0.99992019 0
0.046490166 -0.010703308 -0.11875129 -0.029604444 -0.015452583 -0.99944228 0.00021380479
0.049513914 -0.010517906 -0.11886413 -0.033188283 -0.022539312 -0.99919498 7.6985809e-05
0.052333534 -0.010276427 -0.11897986 -0.043092981 -0.029618915 -0.99863195 0.00018299528
0.055453308 -0.010427631 -0.11907353 -0.072696574 -0.045354053 -0.99632233 0.00071979349
0.058586296 -0.010388899 -0.11937639 -0.085878454 -0.035565067 -0.99567068 0.0017036287
0.061596029 -0.010158224 -0.11967643 -0.01833017 -0.0029502746 -0.99982762 0.0029477114
0.064598784 -0.01043836 -0.11942659 -0.042522121 -0.041652672 -0.99822688 0.0039216131
0.067001536 -0.010697875 -0.11977406 -0.11189968 -0.067752697 -0.9914071 0.0019385789
0.070934065 -0.010443612 -0.11981283 0.10116034 0.049537648 -0.99363607 0.0040224274
0.073571086 -0.01066628 -0.11956114 0.051661484 0.018063307 -0.9985013 0.013768099
0.076538302 -0.010282888 -0.11890876 0.72661066 0.34477299 -0.59427983 0.079277456
0.07820259 -0.011123894 -0.11827586 0.97047859 0.23726921 -0.043296829 0.039533425
-0.01521217 -0.0079420535 -0.11960745 0.58548522 -0.20309435 -0.78483105 0.017713657
-0.013625426 -0.0074643958 -0.11936852 0.26954189 -0.15586346 -0.9502914 0.041301154
-0.010473263 -0.0075542955 -0.11971316 -0.091397941 0.073404603 -0.99310535 0.0026727652
-0.0065982193 -0.007701111 -0.11990431 0.10008448 -0.050119471 -0.99371582 0.0053681443
-0.0045303367 -0.007378174 -0.11944513 0.11515266 -0.061222706 -0.99145937 0.0023589875
-0.0013901899 -0.0076329568 -0.11951075 0.010521024 -0.013355197 -0.99985546 0.0028212466
0.0016548367 -0.0076782033 -0.11968335 0.030643435 -0.035393436 -0.99890357 0.00363803
0.0044505605 -0.0073876842 -0.11924284 0.09305571 -0.067900851 -0.99334288 0.0016874425
0.0074957991 -0.00715301 -0.11896845 0.06282676 -0.060501389 -0.996189 0.0015195732
0.010599456 -0.0073407362 -0.11895868 0.032766983 -0.023666559 -0.99918282 5.479301e-05
0.013559733 -0.0075580156 -0.1188224 0.030132899 -0.025939805 -0.99920923 8.1301441e-05
0.016364329 -0.0074627739 -0.11870229 0.022432119 -0.025645476 -0.99941939 0.00015715703
0.019543082 -0.0077404194 -0.11864439 0.0052895509 -0.012808232 -0.99990404 6.2693849e-05
0.0225049 -0.0077698897 -0.11868688 -0.0029237426 0.00094833155 -0.99999529 0.00023800253
0.025468599 -0.007833641 -0.11870326 -0.006430794 0.0056511178 -0.99996334 2.595094e-05
0.028558748 -0.0078040203 -0.11873151 -0.0019688949 0.0073703383 -0.99997091 0.00023040108
0.031496428 -0.0077982824 -0.11871327 0.0047780862 0.005822361 -0.99997163 0.00015749547
0.03442974 -0.0077766078 -0.11869836 0.0038171294 0.010054566 -0.99994218 3.167988e-05
0.037487727 -0.0078042122 -0.11869943 0.00087554258 -0.0040959194 -0.99999124 0.00025858497
0.040529862 -0.0077056848 -0.11865006 -0.0038766821 -0.0048564966 -0.99998069 0.00026330742
0.043671183 -0.0075484309 -0.11866681 -0.028598534 -0.024051163 -0.99930161 0.00035186097
0.046517495 -0.0075731687 -0.11883992 -0.033314399 -0.033000112 -0.9989 0.00014976138
0.049403083 -0.0074816113 -0.11896799 -0.03516154 -0.033493225 -0.99882025 0.00010393732
0.052475493 -0.0071789734 -0.1189824 -0.055403873 -0.051447496 -0.99713767 0.00051189389
0.055582874 -0.0073880479 -0.11927742 -0.10558282 -0.074852355 -0.99158937 0.00011864958
0.058408983 -0.007631503 -0.11961308 -0.063768514 -0.054968741 -0.99644971 0.0015550117
0.06128756 -0.0074082366 -0.1196103 0.0075367186 0.012658774 -0.99989146 0.0023282953
0.0644795 -0.0075671612 -0.11958288 -0.090396583 -0.041175321 -0.9950543 0.0044460576
0.066748083 -0.008373552 -0.11987007 -0.10056749 -0.050322432 -0.99365681 0.0051041855
0.071109921 -0.0074532554 -0.11977407 0.040136069 0.044687759 -0.99819446 0.011996801
0.073466137 -0.0071973382 -0.11945201 -0.026638554 -0.049472611 -0.99842012 0.050457016
0.076316021 -0.0077022384 -0.11894707 0.75071883 0.26515788 -0.60507232 0.047778647
-0.013065113 -0.004774244 -0.11952914 0.37247106 -0.13015476 -0.91887164 0.052665085
-0.011144998 -0.0041919602 -0.11926806 0.11817818 -0.0033893981 -0.99298662 0.036221132
-0.0078585157 -0.0046499972 -0.11984441 -0.076903641 0.054567959 -0.9955442 0.0078263534
-0.0041771531 -0.0047089104 -0.11964577 0.10355651 -0.083721861 -0.99109375 0.00309121
-0.0018081433 -0.0044925855 -0.11927483 0.074723504 -0.068231896 -0.99486721 0.0038968693
0.0015947965 -0.0045017675 -0.11959071 -0.023839619 -0.0096351318 -0.99966937 0.0022241976
0.0047225058 -0.0047693532 -0.11955513 0.052797452 -0.045940675 -0.99754792 0.0040919115
0.0072885114 -0.0043316279 -0.11912555 0.088535175 -0.076743081 -0.99311233 0.0012543666
0.010438466 -0.0043512797 -0.11894561 0.054774456 -0.044516779 -0.9975059 0.00082459272
0.013438184 -0.004410577 -0.11894217 0.027456451 -0.040833566 -0.9987886 0.00041424605
0.016561676 -0.0045411559 -0.11886853 0.018295459 -0.041039634 -0.99899 7.3502866e-05
0.01950405 -0.0045601879 -0.11877429 0.015539913 -0.039605483 -0.99909461 0.00029344315
0.022372453 -0.0044938419 -0.11871473 0.010758659 -0.034071427 -0.99936152 9.9118908e-05
0.025508504 -0.0044171866 -0.11869542 -0.0019967654 -0.029772548 -0.99955475 0.00027563958
0.028553329 -0.0044420501 -0.11873309 0.0021000442 -0.021323334 -0.99977046 9.7091921e-05
0.031503513 -0.0044143656 -0.11870989 0.0068324534 -0.020910118 -0.99975806 0.00014315675
0.034578718 -0.0047092228 -0.11868127 -0.0039799763 -0.024301067 -0.99969673 0.00021536998
0.037515216 -0.0044779526 -0.11869907 -0.011919145 -0.034419008 -0.99933642 0.00032923039
0.040541276 -0.0045406977 -0.11875088 -0.01483739 -0.049701214 -0.99865395 0.00016978572
0.043454923 -0.0046417117 -0.11885677 -0.023213735 -0.044131249 -0.99875599 0.00013893901
0.046388723 -0.0045039803 -0.11901826 -0.03401541 -0.034169696 -0.99883705 0.00021037413
0.049376566 -0.0044342242 -0.11902082 -0.048320748 -0.056306019 -0.99724358 0.0010972996
0.052534431 -0.004370206 -0.11917363 -0.084367551 -0.086653411 -0.99265975 0.00040684678
0.055380538 -0.0046831956 -0.11956575 -0.078193963 -0.077989504 -0.99388295 0.0013637604
0.058254629 -0.0050091129 -0.11977087 -0.0086716181 -0.021338351 -0.9997347 0.0037375265
0.061983913 -0.0042968951 -0.11928976 -0.051687595 -0.035093509 -0.99804646 0.0065021771
0.06393376 -0.0048638429 -0.11965548 -0.12640606 -0.06572555 -0.98979878 0.0053998344
0.068022728 -0.0037343069 -0.11984558 0.093508594 0.055990331 -0.99404293 0.0055113849
0.070581719 -0.0038854093 -0.11941898 0.073915862 0.032453205 -0.99673629 0.019012516
0.073206253 -0.0047273575 -0.11934568 -0.23999323 0.026972804 -0.97039974 0.071817607
0.076011874 -0.0046777725 -0.11828098 0.91795617 0.39307746 -0.053352699 0.042772911
-0.012348628 -0.0022789482 -0.11964248 0.56754601 -0.31161049 -0.76209605 0.012779063
-0.010607445 -0.0013332794 -0.11936326 0.15413433 -0.14842069 -0.97683871 0.051509462
-0.0075505855 -0.0012826611 -0.11958046 -0.10594966 0.094372436 -0.98988312 0.0024300893
-0.0037526321 -0.0023761324 -0.11994246 0.10508715 -0.060948048 -0.99259359 0.0043346286
-0.0013810836 -0.0016027235 -0.1195238 0.12343137 -0.099242665 -0.98737812 0.0029758667
0.0013707749 -0.0012667793 -0.11932882 0.011900843 -0.033241723 -0.99937648 0.0053921817
0.0047715986 -0.0015698751 -0.11978076 -0.016129689 -0.013195391 -0.9997828 0.0035184133
0.0075254589 -0.0016554559 -0.11953232 0.091594756 -0.088637561 -0.99184358 0.0013257153
0.010568513 -0.0013973075 -0.11916108 0.064760894 -0.097804755 -0.99309629 0.0005637877
0.013434019 -0.0014027043 -0.11896771 0.058588911 -0.069782212 -0.99584025 0.0010333951
0.016546197 -0.0015018849 -0.11897609 0.025503172 -0.050729495 -0.99838674 0.00042236614
0.019454114 -0.0015774295 -0.11897957 0.015982283 -0.035920341 -0.99922687 8.2643208e-05
0.022545923 -0.0015705263 -0.11886847 0.01112152 -0.046604034 -0.99885154 9.1428738e-05
0.025375657 -0.0014853057 -0.1188354 0.0072109024 -0.050352599 -0.99870551 0.0001557465
0.028570049 -0.0013593348 -0.11884566 0.002344186 -0.042049155 -0.99911284 0.00029122084
0.031527206 -0.001328568 -0.11881512 0.0036291983 -0.042303793 -0.99909824 0.00015901602
0.034378186 -0.0016683663 -0.11881226 -0.0079813916 -0.054914113 -0.99845922 5.7214918e-05
0.037590183 -0.0015553571 -0.11894499 -0.014908811 -0.049611658 -0.99865735 0.00013561829
0.04051701 -0.0016531504 -0.11902064 -0.005029791 -0.039143089 -0.99922103 0.00030013444
0.043506492 -0.0015255604 -0.11897543 -0.032710347 -0.046050742 -0.99840337 0.0010151563
0.046417996 -0.0015606212 -0.11895698 -0.049331289 -0.064117916 -0.99672228 0.0015883365
0.049461059 -0.0014338898 -0.11915212 -0.081166536 -0.10827709 -0.99080175 0.0008159487
0.052526087 -0.001547548 -0.11955063 -0.065372221 -0.095997125 -0.99323261 0.0013308012
0.055351704 -0.0017936957 -0.11975071 -0.014267064 -0.02640928 -0.99954939 0.0036810818
0.058740638 -0.0011643092 -0.11941666 -0.037070367 -0.0078996429 -0.99928141 0.0055459072
0.061376497 -0.0018500045 -0.1195458 -0.083885513 -0.069312952 -0.99406189 0.0075405235
0.06348303 -0.0023802889 -0.11988503 -0.079921372 -0.092756204 -0.99247617 0.0076772878
0.067571551 -0.0015301792 -0.1196621 0.11338421 0.082178429 -0.99014682 0.003000529
0.070720911 -0.0015282945 -0.1194187 -0.076198332 -0.14094302 -0.98708099 0.077145599
0.073560528 -0.001674265 -0.118774 0.70957559 0.44224057 -0.54856712 0.064338379
0.075180314 -0.0026889509 -0.11879912 0.9158833 0.4013696 -0.0077631837 0.046882231
-0.0098308418 0.00079166528 -0.11954981 0.34804764 -0.25180984 -0.90302527 0.048027206
-0.0080349036 0.0019187959 -0.11930329 0.12116673 -0.14312738 -0.98225921 0.041926447
-0.0050061867 0.0017124459 -0.1198057 -0.13942322 0.074800707 -0.98740369 0.00166286
-0.00062280823 0.00071592478 -0.1198023 0.10501814 -0.093628988 -0.99005294 0.0030093123
0.0014333786 0.0015715159 -0.11942172 0.1412347 -0.13059856 -0.98132396 0.002412268
0.0039482284 0.0020209097 -0.11932501 0.035489373 -0.058932569 -0.99763089 0.0065140291
0.007986702 0.0012817852 -0.11973234 0.017691853 0.012376819 -0.99976689 0.0030257339
0.010475621 0.0016898216 -0.11965198 0.058320533 -0.06830398 -0.99595845 0.0016644085
