# .PCD v0.7 - Point Cloud Data file format
VERSION 0.7
FIELDS x y z normal_x normal_y normal_z curvature
SIZE 4 4 4 4 4 4 4
TYPE F F F F F F F
COUNT 1 1 1 1 1 1 1
WIDTH 546
HEIGHT 1
VIEWPOINT 0 0 0 1 0 0 0
POINTS 546
DATA ascii
0.041809097 -0.058395524 -0.00013382695 0.66369891 0.04429033 0.74668747 0.0024203814
0.043380711 -0.058501557 -0.0016351966 0.73071676 0.074260615 0.67862976 0.0036122545
-0.051099163 -0.056779098 -0.00059738936 -0.17528419 -0.94040632 -0.29139572 0.0062897308
-0.049392831 -0.056571189 -0.0015598827 -0.17571978 -0.93233502 -0.31602848 0.0077537368
-0.047262181 -0.056418195 -0.0021939827 -0.20522049 -0.89637697 -0.39292863 0.010324993
-0.044899151 -0.056413211 -0.0024481632 -0.27294135 -0.85975456 -0.43165392 0.010037643
0.04146998 -0.055194296 -0.00049991289 0.66714698 0.24500868 0.70348114 0.003026088
0.042960491 -0.055611666 -0.001926199 0.74514616 0.3033703 0.59390551 0.004000078
0.038624022 -0.051375683 -0.00021722437 0.57546866 0.53276038 0.62048554 0.0023957395
0.040775146 -0.052451339 -0.0014439021 0.67001241 0.44094375 0.59720343 0.0039933836
0.042358957 -0.053367853 -0.0025147428 0.71085548 0.45915079 0.53278977 0.0044746902
0.035390064 -0.048346832 -0.0005269773 0.51432598 0.72247964 0.46205187 0.002264759
0.037496209 -0.049409322 -0.0012839506 0.533333 0.6679377 0.51905227 0.0036976598
0.039768834 -0.050484166 -0.0022229936 0.60558552 0.59780318 0.52525967 0.0031256366
0.029739901 -0.045120589 -0.00014627978 0.47502241 0.82884496 0.29558381 0.0030550053
0.031679865 -0.045795213 -0.0011716811 0.45679951 0.83784467 0.29891568 0.0016861339
0.034277365 -0.047066659 -0.0016009351 0.47039217 0.7983591 0.37597063 0.0043583857
0.036264047 -0.047671743 -0.0026817117 0.49316677 0.76818454 0.40826336 0.0041756141
-0.051001992 -0.043052509 -0.00086124812 -0.19007906 0.9073447 -0.37496072 0.0075810677
-0.049560886 -0.043373104 -0.0017789431 -0.19007991 0.90734452 -0.37496087 0.0075809197
-0.04269208 -0.042149004 -0.0029576095 -0.18295191 0.78606224 -0.59045303 0.010726212
-0.028160274 -0.042167604 -0.0028398714 0.11345033 0.51039129 -0.85242575 0.015892601
-0.025358645 -0.042400587 -0.0028147369 0.082494758 0.59960783 -0.79603088 0.0050232545
-0.022470228 -0.042583745 -0.0026833983 0.11096133 0.53721154 -0.83611679 0.0072803795
-0.019544294 -0.042798374 -0.0025066787 0.092038542 0.46763721 -0.8791157 0.0030560326
-0.016441025 -0.042700518 -0.0021852099 0.077484943 0.44475529 -0.89229417 0.0019152757
-0.01346048 -0.043099992 -0.0022266037 0.03283653 0.53532034 -0.84401065 0.0023226626
-0.010456693 -0.043003585 -0.0021467265 -0.0072336444 0.5588299 -0.82925081 0.0022201762
-0.0074814055 -0.042869911 -0.0021656828 -0.033757772 0.59447777 -0.80340314 0.0027079559
-0.004741706 -0.042714454 -0.0022158427 -0.035418127 0.60951108 -0.79198599 0.0036902269
-0.0017604395 -0.042546794 -0.0023434102 -0.057594139 0.659576 -0.74942803 0.0023703242
0.00060863409 -0.042198658 -0.0022600847 -0.090427801 0.666399 -0.74009138 0.0038452339
0.023217276 -0.042151608 -0.0011025828 0.3486912 0.93569773 0.053705193 0.0026505149
0.025535753 -0.042964343 -0.0014771484 0.34245181 0.93698192 0.069221213 0.0026810856
0.028572287 -0.044216979 -0.0013523952 0.43747056 0.86298054 0.25275305 0.0022709253
0.030408779 -0.04479548 -0.0024926441 0.44747394 0.85783726 0.25274935 0.0031207488
-0.043113794 -0.041293617 -0.0018270509 -0.19578868 0.66104412 -0.72435313 0.015182352
-0.040600631 -0.041105296 -0.0022631516 -0.11918597 0.61480314 -0.77962291 0.040168252
-0.03727201 -0.04061364 -0.0023535013 -0.05644656 0.37879929 -0.92375588 0.023576073
-0.034455512 -0.040483456 -0.0023568843 0.070042446 0.3856447 -0.91998494 0.019830426
-0.031442124 -0.04042067 -0.0022655176 0.083930291 0.3603543 -0.92903209 0.014325273
-0.028380653 -0.040446434 -0.0021039769 0.10214572 0.36639577 -0.92483532 0.011401338
-0.025507279 -0.040508922 -0.0019453554 0.081593253 0.35915917 -0.92970276 0.0078542614
-0.022550479 -0.040498678 -0.0017066071 0.080035001 0.33880848 -0.93744504 0.0052322443
-0.019522989 -0.040529396 -0.0014638359 0.090854041 0.33128294 -0.939147 0.004323463
-0.016478544 -0.040396113 -0.0011616329 0.083199553 0.29343158 -0.95235276 0.0041701118
-0.013506492 -0.040603336 -0.0010236376 0.06381122 0.31647989 -0.94645053 0.0031540066
-0.010502451 -0.040293723 -0.00077743904 0.05707515 0.27534005 -0.95965111 0.0031411704
-0.0075325719 -0.040367007 -0.00069902599 0.050151143 0.31089529 -0.94912016 0.0043126792
-0.0046861675 -0.040186331 -0.00054613565 0.026394576 0.35950896 -0.93276829 0.0036621941
-0.0016651833 -0.040268142 -0.00054973684 0.052583989 0.41484523 -0.90837127 0.005085133
0.0012631703 -0.04051061 -0.00071971631 0.025317047 0.58784205 -0.8085795 0.00934048
0.0045137187 -0.040631518 -0.0014888089 -0.10639782 0.77385962 -0.62435633 0.008164458
0.0076335007 -0.04033906 -0.0018151298 -0.072404966 0.85736281 -0.50959444 0.0010939282
0.010286269 -0.039825696 -0.0012977514 0.060711872 0.92943501 -0.36395693 0.0020969065
0.01354358 -0.039984234 -0.0013438574 0.11012243 0.94835275 -0.29748976 0.0039595468
0.016880179 -0.040501278 -0.0015370275 0.19582607 0.96029276 -0.19872078 0.0040770471
0.019352984 -0.040992893 -0.0013151893 0.2399507 0.96431094 -0.111929 0.0037768781
0.022040982 -0.041740756 -0.00102404 0.33875653 0.93990588 0.042672928 0.0022167005
-0.040396012 -0.036747385 -0.00048964308 -0.086216971 0.059499301 -0.99449813 0.01786354
-0.036957737 -0.037567019 -0.0021097937 -0.068675593 0.17162071 -0.98276651 0.020513922
-0.034472298 -0.037644934 -0.0021621247 0.030733427 0.05040101 -0.99825603 0.0035653599
-0.031735141 -0.037463814 -0.0019701065 0.079231344 0.068847187 -0.99447596 0.0029151626
-0.028574359 -0.037168425 -0.001639362 0.081190355 0.060170487 -0.99488074 0.0031848294
-0.025466047 -0.037469193 -0.001333638 0.078377418 0.12652108 -0.98886269 0.0055428497
-0.022261461 -0.037509363 -0.0010716479 0.086937688 0.11711728 -0.9893055 0.0048150308
-0.019441789 -0.037572991 -0.00084417174 0.087401293 0.13933198 -0.98638105 0.0063626021
-0.016584724 -0.037433676 -0.00059874775 0.073253669 0.097064786 -0.99257863 0.0026589911
-0.013473564 -0.037465215 -0.00035903603 0.089049235 0.093770012 -0.99160343 0.0022041469
-0.010622754 -0.037711024 -0.00015900903 0.079455994 0.12853847 -0.98851639 0.0031598944
-0.0076032844 -0.03866896 -9.3688199e-05 0.063693166 0.15853201 -0.98529732 0.0040044687
-0.0059366142 -0.038538381 -1.7447583e-05 0.066702053 0.16717295 -0.98366868 0.0045099044
-0.040289525 -0.0348658 -0.00061633537 -0.11793368 0.011961453 -0.99294943 0.013718965
-0.036495619 -0.034674015 -0.0023629644 -0.015497807 -0.076859243 -0.99692154 0.0089517254
-0.034511741 -0.034281615 -0.0022792357 0.070230521 -0.086702675 -0.9937557 0.0007546671
-0.031610176 -0.034469262 -0.0020416111 0.081965707 -0.058835641 -0.99489701 0.00020981356
-0.028557418 -0.034491524 -0.0017691858 0.085971564 -0.050364409 -0.99502379 0.00055702025
-0.025544267 -0.034638673 -0.0014951777 0.082905188 -0.070965692 -0.99402744 7.3894262e-05
-0.022392407 -0.034563001 -0.0012209703 0.08298862 -0.050492965 -0.99527049 0.001009479
-0.019570293 -0.034465335 -0.00098446268 0.085141398 -0.066908956 -0.99411976 0.00011269876
-0.016528917 -0.034529697 -0.00070203637 0.088544928 -0.043317121 -0.99512982 0.00082732009
-0.013518552 -0.034483176 -0.0004309557 0.094823144 -0.044575851 -0.99449569 0.00021722431
-0.010744247 -0.034417603 -0.00017553649 0.098510951 -0.0369629 -0.99444926 0.00020343436
-0.0085392827 -0.033765107 -3.3568725e-05 0.097236775 -0.026846085 -0.99489915 0.0003278348
-0.036956921 -0.031176802 -0.0027278492 0.10765561 -0.13562687 -0.98489368 0.00089718465
-0.034437839 -0.031529069 -0.0025472185 0.092350841 -0.12818031 -0.98744172 0.00097119494
-0.031447262 -0.031549893 -0.0022068308 0.10407311 -0.10015021 -0.98951441 0.00032112026
-0.028533472 -0.031451195 -0.0019863504 0.083804272 -0.084382951 -0.99290299 8.7908331e-05
-0.025878802 -0.031775519 -0.0017767798 0.078029357 -0.087226406 -0.99312788 4.4722681e-05
-0.022599539 -0.031509787 -0.0015243702 0.081570521 -0.083577745 -0.99315703 2.4273941e-05
-0.019414641 -0.031536665 -0.0012387481 0.093017094 -0.080351099 -0.99241704 2.6511299e-05
-0.016426876 -0.031553153 -0.00094935187 0.099321872 -0.069479071 -0.99262673 7.1980925e-05
-0.013390709 -0.031476114 -0.00063560897 0.1027509 -0.065299779 -0.9925614 5.1057516e-05
-0.010456058 -0.031106653 -0.00031715693 0.11444161 -0.047474466 -0.99229497 5.0820785e-05
-0.0081108809 -0.031471372 -9.5362557e-05 0.10814884 -0.044995613 -0.99311596 3.4248656e-05
-0.037841398 -0.029727139 -0.002813044 0.024979681 -0.1543594 -0.98769897 0.0013593094
-0.034028742 -0.029157348 -0.0028208408 0.12052892 -0.15889879 -0.97991014 0.00098585221
-0.031583078 -0.028458267 -0.0025705458 0.13180763 -0.14312527 -0.98088831 0.0002676748
-0.028677324 -0.028486168 -0.0022684913 0.095584594 -0.11639008 -0.98859346 0.00029801318
-0.025339015 -0.028593674 -0.0019739384 0.083837315 -0.096554756 -0.99179053 8.9494999e-05
-0.021943457 -0.028050976 -0.0017236999 0.09615808 -0.084124029 -0.99180478 4.5890807e-05
-0.019473735 -0.028473154 -0.00148005 0.098005198 -0.076019697 -0.99227816 2.584325e-05
-0.015983846 -0.028680911 -0.0010815742 0.1108207 -0.065100268 -0.99170595 4.2423311e-05
-0.014102773 -0.027927354 -0.00091467472 0.11921012 -0.056337126 -0.99126947 3.6732119e-05
-0.010045106 -0.028436124 -0.00039801025 0.12057164 -0.039880365 -0.99190325 3.9594015e-05
-0.0077860258 -0.02841115 -0.00014460777 0.12488358 -0.032710068 -0.99163204 3.3660992e-05
-0.0059910435 -0.027417207 -3.1671054e-05 0.12399492 -0.028630106 -0.99186975 2.8625096e-05
-0.033316962 -0.026935985 -0.0029627066 0.17040546 -0.17098342 -0.97042608 0.00021439395
-0.030972091 -0.026169943 -0.0028352835 0.14416862 -0.16285251 -0.97606075 0.00024203477
-0.028256863 -0.025653813 -0.0025547619 0.12569545 -0.14597513 -0.98127055 0.00037235141
-0.025823385 -0.025082583 -0.0023601521 0.11066868 -0.12004724 -0.98658049 0.00032538307
-0.022527868 -0.025560163 -0.0020151704 0.10476422 -0.099266149 -0.9895305 0.00014303434
-0.019660102 -0.02546327 -0.0016996311 0.11011435 -0.082204029 -0.99051374 7.4140822e-05
-0.016584003 -0.025502913 -0.0013818028 0.11658049 -0.066721722 -0.99093753 5.2129184e-05
-0.013547528 -0.025422953 -0.00098514196 0.12603214 -0.055055127 -0.99049723 3.9201022e-05
-0.010345306 -0.025500566 -0.00058640732 0.13018571 -0.041828014 -0.9906069 4.61278e-05
-0.0081163626 -0.025493927 -0.00026582918 0.13638075 -0.034031659 -0.99007177 4.6097568e-05
-0.0059481896 -0.025469257 -7.2952134e-05 0.13928048 -0.02480913 -0.98994219 2.2272416e-05
-0.027860984 -0.023274228 -0.0028604374 0.13778193 -0.1602582 -0.97741163 0.00023557484
-0.025010118 -0.023102844 -0.0025185733 0.11219603 -0.12432992 -0.98587739 0.00020346955
-0.022646664 -0.02234517 -0.0023274263 0.12092899 -0.11326019 -0.98617864 0.00018841977
-0.018885592 -0.023055293 -0.0018112824 0.12456442 -0.086252831 -0.98845547 0.00011340164
-0.016864533 -0.0223109 -0.0016135018 0.13206463 -0.074858107 -0.98841041 8.4465777e-05
-0.01298117 -0.022491997 -0.0010672762 0.13754103 -0.055383056 -0.9889465 5.1745155e-05
-0.010398238 -0.022587456 -0.00071760901 0.14423898 -0.042382985 -0.98863482 4.3392294e-05
-0.0077817584 -0.022490943 -0.00031401156 0.14846252 -0.031130418 -0.98842794 4.4343949e-05
-0.0055444026 -0.022334006 -8.5165659e-05 0.15140416 -0.022855448 -0.9882077 1.9222587e-05
-0.024662346 -0.019786548 -0.0029319304 0.14850074 -0.14905727 -0.97761416 0.00019862695
-0.022271687 -0.019639835 -0.0026063772 0.14565924 -0.12664747 -0.98119509 0.00023273106
-0.019770226 -0.019323217 -0.0022661444 0.14561318 -0.099441633 -0.98433137 0.00017768091
-0.016063089 -0.019451102 -0.0017147799 0.14950578 -0.078322098 -0.98565394 9.8120508e-05
-0.012814786 -0.020213092 -0.00116427 0.15170503 -0.056914214 -0.98678589 6.28052e-05
-0.011092064 -0.019370152 -0.00093859172 0.15949354 -0.047473811 -0.98605686 7.1713686e-05
-0.0075935801 -0.01947928 -0.00037481435 0.15874478 -0.031380773 -0.98682082 6.0167906e-05
-0.0053921877 -0.018817171 -6.3502492e-05 0.1656004 -0.021463536 -0.98595941 2.3372679e-05
-0.021884946 -0.016793348 -0.002911279 0.17898157 -0.13393156 -0.97469378 0.00021550262
-0.019299628 -0.016651059 -0.0024875724 0.17317043 -0.1131593 -0.97836953 0.00020164349
-0.017155705 -0.016087836 -0.0021640761 0.1719459 -0.092607029 -0.98074383 0.00014036876
-0.014035102 -0.016491042 -0.0015867463 0.17126983 -0.06468454 -0.98309851 6.8901812e-05
-0.01064476 -0.016429828 -0.0010058751 0.17091723 -0.050462794 -0.98399234 7.3934963e-05
-0.0071331416 -0.01622168 -0.00039861098 0.17622054 -0.033039313 -0.98379606 6.0794096e-05
-0.0052137664 -0.016045788 -6.6662978e-05 0.21311019 -0.020154994 -0.97682029 2.663926e-05
-0.019382833 -0.013475643 -0.0028591258 0.1990142 -0.11769593 -0.97290337 0.00016366056
-0.016599255 -0.01357372 -0.0022968503 0.1939154 -0.097498707 -0.97616118 0.00014437748
-0.013364968 -0.013598617 -0.0016787536 0.19058098 -0.076066315 -0.97871995 0.00012038244
-0.010163992 -0.013383053 -0.0010860402 0.18761247 -0.053563338 -0.98078156 9.6465599e-05
-0.0070265122 -0.013427675 -0.00048236985 0.19068326 -0.036725853 -0.9809643 7.8355348e-05
-0.0053505925 -0.01328509 -0.0001688029 0.21800782 -0.023463693 -0.97566485 3.4689547e-05
-0.01829927 -0.011200396 -0.002895494 0.21587241 -0.1088291 -0.97033775 9.4638766e-05
-0.016351786 -0.010541961 -0.0025420538 0.21265219 -0.096730128 -0.97232831 0.0001291581
-0.013275228 -0.01053996 -0.0018888414 0.20468999 -0.078126684 -0.97570395 0.00010717873
-0.010392251 -0.010287915 -0.0013100591 0.20643191 -0.058239315 -0.97672623 9.1240341e-05
-0.0071897502 -0.010481624 -0.00062156416 0.21963121 -0.034502171 -0.97497267 5.4936583e-05
-0.0056082774 -0.010181551 -0.00030549007 0.21998852 -0.028048079 -0.97509915 3.2553038e-05
-0.016432527 -0.0077131162 -0.0028410845 0.22639258 -0.097386189 -0.96915543 7.8006829e-05
-0.013742538 -0.0073819989 -0.0022425798 0.22626452 -0.080224872 -0.97075653 0.00010482356
-0.010821556 -0.0075329891 -0.001573674 0.22294344 -0.063378893 -0.9727689 0.00010570017
-0.0079007223 -0.007540368 -0.00090474699 0.230553 -0.042924803 -0.97211254 6.4344109e-05
-0.0053472933 -0.0074361488 -0.00034923179 0.22094841 -0.033025976 -0.9747262 5.6666464e-05
-0.015435965 -0.0047962642 -0.0028963308 0.24372797 -0.088323005 -0.96581352 4.1928583e-05
-0.013349283 -0.0043920311 -0.0024071373 0.23992623 -0.077358194 -0.967704 6.7766188e-05
-0.01043585 -0.0044880277 -0.0016881016 0.23618585 -0.06405513 -0.96959436 6.8387089e-05
-0.0077934591 -0.0045206016 -0.0010321838 0.24435963 -0.040873885 -0.96882284 7.6325006e-05
-0.0049979873 -0.0044098445 -0.00037743081 0.23441668 -0.033733208 -0.97155082 6.8030444e-05
-0.015099486 -0.0025648067 -0.0029933043 0.24905363 -0.058891829 -0.96669751 0.00016632455
-0.013387633 -0.0016934881 -0.002629847 0.2491297 -0.055983022 -0.96685076 0.00010421215
-0.010416982 -0.0012651636 -0.0018755277 0.24912204 -0.046974681 -0.96733224 5.6577173e-05
-0.0073645934 -0.0015101284 -0.0010830477 0.2479402 -0.030999506 -0.96827924 0.00011347421
-0.0046031978 -0.0013383561 -0.00036438685 0.24282451 -0.026056847 -0.96972024 7.0852417e-05
-0.013675993 0.0014392474 -0.0028239507 0.25693738 0.0004071529 -0.96642804 0.00017516737
-0.010684364 0.001485636 -0.0020231674 0.25385559 -0.0047044219 -0.96723062 8.2536746e-05
-0.0072137965 0.0014531916 -0.0011168743 0.25392073 -0.0035418274 -0.96721858 7.3192248e-05
-0.0044894819 0.0014637115 -0.00037575208 0.2861197 0.00049507408 -0.95819378 0.00093512447
-0.013332118 0.0045555076 -0.0026534346 0.24894302 0.037225973 -0.96780246 4.4666638e-05
-0.010395392 0.0043019187 -0.001881837 0.25124332 0.029767048 -0.96746612 1.8674344e-05
-0.0074352385 0.0044019581 -0.0011225007 0.25191861 0.025875606 -0.96740246 1.7410646e-05
-0.0048504258 0.0045616212 -0.0004439996 0.25227353 0.02116156 -0.96742457 2.8017546e-05
-0.015134463 0.0067256577 -0.0029721078 0.24413259 0.058146261 -0.96799701 0.00010457828
-0.013165762 0.0075251632 -0.0024598127 0.23867615 0.058721401 -0.96932214 6.8904577e-05
-0.0104604 0.0075432104 -0.0017818521 0.25290412 0.042085122 -0.96657562 3.9660677e-05
-0.0077911709 0.0078267939 -0.0011050404 0.25124592 0.033655811 -0.96733791 3.5992693e-05
-0.0051593157 0.0075506922 -0.00044304127 0.2426137 0.027790146 -0.96972489 4.5944282e-05
-0.01572142 0.010703108 -0.0028490366 0.22718841 0.087205298 -0.96993852 7.3569274e-05
-0.013685388 0.010565117 -0.0023912874 0.22401416 0.078742929 -0.97139961 8.1942693e-05
-0.010625318 0.010721364 -0.0016631753 0.22821271 0.061519433 -0.97166574 7.2409253e-05
-0.0074977526 0.010571175 -0.0009090259 0.22004689 0.049578827 -0.97422862 6.6698514e-05
-0.0050746258 0.010139368 -0.0003604352 0.23305973 0.030903665 -0.97197127 6.8752823e-05
-0.016111255 0.013724072 -0.0026163792 0.2091783 0.10445812 -0.97228235 8.2511076e-05
-0.013360592 0.013382709 -0.0020643056 0.20980217 0.088146843 -0.97376239 0.00011029973
-0.010245143 0.013437334 -0.00138622 0.21478058 0.068052016 -0.97428864 8.7697896e-05
-0.0071790237 0.013574455 -0.00068417401 0.22420655 0.040740494 -0.97368968 0.00012104522
-0.0048865089 0.013544166 -0.00021867554 0.21053475 0.030793885 -0.97710121 0.00012947482
-0.018398711 0.017104592 -0.0027104218 0.19321008 0.12746245 -0.97284287 9.7894124e-05
-0.016698437 0.016437696 -0.0024344779 0.20030361 0.11687035 -0.97273827 8.8727327e-05
-0.01363429 0.01636331 -0.0018579005 0.19489135 0.10018576 -0.97569478 8.7965847e-05
-0.010759737 0.016385658 -0.0012877244 0.19709289 0.079764836 -0.97713453 0.00014093817
-0.0075899344 0.016452376 -0.00062190351 0.20627342 0.050140098 -0.97720891 0.00020470881
-0.0049395585 0.016772127 -0.00011487438 0.20256412 0.030725071 -0.97878689 8.6675544e-05
-0.021537874 0.020283837 -0.0028907408 0.17524776 0.14411105 -0.97392005 8.5414387e-05
-0.019496433 0.019645927 -0.0025646167 0.18048042 0.13446729 -0.97434354 8.7521898e-05
-0.016492929 0.01952078 -0.00202299 0.18177697 0.12109636 -0.97585487 7.6730372e-05
-0.013428573 0.019632336 -0.0014399907 0.17683257 0.10356054 -0.97877759 0.00011196118
-0.010135052 0.01978437 -0.00084407511 0.16547172 0.076222762 -0.98326457 0.00016106696
-0.0076746824 0.019049738 -0.0005068648 0.16896498 0.057330262 -0.9839533 0.00015402035
-0.0052737049 0.019098345 -7.9640195e-05 0.18545611 0.037287258 -0.98194486 6.6103617e-05
-0.024510274 0.023223842 -0.0028209628 0.14923574 0.16082187 -0.97563571 8.9430105e-05
-0.022277722 0.022151986 -0.002682853 0.15486296 0.14529605 -0.97719324 0.00010320254
-0.019368196 0.022493392 -0.0021544504 0.16270737 0.12736239 -0.97841978 0.00010596793
-0.016098825 0.022703843 -0.0015780075 0.16343714 0.10542032 -0.98090518 9.829826e-05
-0.01378372 0.022204755 -0.001245935 0.1583866 0.092926838 -0.98299456 0.00010360906
-0.010626753 0.022311278 -0.00075342599 0.14987312 0.072671242 -0.98603088 0.00010607355
-0.0071204538 0.022701163 -0.00020524525 0.14878827 0.053648904 -0.98741269 3.7131987e-05
-0.0056427657 0.021757672 -5.0337403e-05 0.15566142 0.04694039 -0.98669457 6.9228226e-05
-0.028504431 0.026368188 -0.0028855554 0.13461639 0.17019428 -0.97617227 0.0001487016
-0.025964255 0.025105895 -0.0027448589 0.13636816 0.16292194 -0.97716951 7.4914147e-05
-0.022245193 0.025469532 -0.0022072864 0.13505904 0.13715944 -0.98129833 0.00011933853
-0.019536605 0.025333945 -0.0018276845 0.1488242 0.12643608 -0.98074728 0.00010987225
-0.016675858 0.025194434 -0.0014038965 0.143254 0.097454153 -0.9848761 0.00015838553
-0.013308999 0.025586117 -0.00087053562 0.13552552 0.076266907 -0.9878341 0.00010661702
-0.010402733 0.025630334 -0.00051067502 0.1314638 0.057303999 -0.9896633 8.8555913e-05
-0.0078645069 0.025361154 -0.00017049247 0.13408573 0.048956148 -0.98975974 9.6296571e-05
-0.033818845 0.029597651 -0.0029280391 0.10566377 0.18671183 -0.97671586 0.0001859937
-0.031213958 0.029021433 -0.0027637624 0.11661499 0.17078753 -0.97838265 9.8005075e-05
-0.028381566 0.028697629 -0.0024886876 0.11381447 0.15537633 -0.98127699 0.00010614091
-0.025537154 0.028014051 -0.0022252903 0.11671937 0.14297338 -0.98282003 0.00011299184
-0.021991504 0.028648477 -0.0017305688 0.11847339 0.11981305 -0.98570222 0.00010408612
-0.019838503 0.028240766 -0.0015004767 0.12287192 0.10629272 -0.98671395 0.00012338947
-0.016042588 0.028606402 -0.0010106432 0.12379475 0.086193882 -0.98855728 0.00017553476
-0.014042994 0.028198 -0.00080876175 0.11965879 0.073040769 -0.99012464 0.00011938544
-0.010230539 0.028696951 -0.00031421616 0.11644333 0.044782527 -0.99218726 4.9161063e-05
-0.0083412295 0.027772561 -0.00013346801 0.12202337 0.042987026 -0.99159592 7.7040386e-05
-0.036826193 0.031793345 -0.0027742668 0.091474049 0.14375456 -0.98537666 0.00061569054
-0.034570254 0.032002565 -0.0026336468 0.10427601 0.1228102 -0.98693675 0.0011991976
-0.030924452 0.030930134 -0.0023931698 0.11084417 0.14078714 -0.98381525 0.00026238107
-0.027927322 0.031978156 -0.0019509168 0.10454806 0.12083621 -0.98715162 0.00023272664
-0.025470775 0.031488139 -0.0017993924 0.10471669 0.12163556 -0.98703557 0.00013511015
-0.022475405 0.030905059 -0.00154204 0.10475527 0.10387038 -0.98905879 0.0001363499
-0.019393127 0.031891067 -0.0010942917 0.11067304 0.089406654 -0.98982722 8.6060798e-05
-0.017061133 0.031415161 -0.00089050882 0.1039023 0.077343166 -0.99157572 0.0001598183
-0.013467475 0.031472944 -0.00056399137 0.10457345 0.056286003 -0.99292314 7.0459952e-05
-0.010603678 0.031398896 -0.00023042454 0.10635286 0.041097529 -0.99347878 6.0591166e-05
-0.0083238669 0.030935129 -4.9465525e-05 0.10621077 0.033513416 -0.99377871 3.1077925e-05
-0.036618918 0.034739487 -0.0024137825 0.078910485 0.10566019 -0.99126637 0.0011363369
-0.034499116 0.034390878 -0.0023522188 0.070008218 0.10632548 -0.99186379 0.00090359047
-0.031460911 0.034526251 -0.0020504291 0.097354263 0.087637708 -0.99138379 0.00043288092
-0.028881593 0.034415253 -0.0017813267 0.10246384 0.050566141 -0.9934507 0.00067842362
-0.025498046 0.034579597 -0.0014808871 0.090146631 0.066111237 -0.9937318 0.00053939165
-0.022558838 0.034784403 -0.0011542384 0.0886098 0.036262862 -0.99540609 0.00076304591
-0.019842651 0.034136344 -0.00096362195 0.096987493 0.069788598 -0.99283582 0.00013663358
-0.016443618 0.034468353 -0.00068239629 0.09170834 0.049056314 -0.99457681 0.00010378366
-0.013341763 0.034307435 -0.00037459942 0.092651635 0.013129998 -0.99561203 0.00063032343
-0.010690766 0.034398451 -0.0001560544 0.096550636 0.024873311 -0.99501723 8.3037492e-05
-0.0083625074 0.033610873 -1.1130704e-05 0.096298747 0.01641842 -0.99521708 9.5065858e-05
-0.036875293 0.037597116 -0.0021489304 -0.00087523786 -0.019498574 -0.9998095 0.0050103655
-0.034389473 0.037484922 -0.0022020675 0.028681744 -0.020792689 -0.9993723 0.0029720897
-0.031596638 0.037421729 -0.0019374035 0.080016091 -0.0449703 -0.99577862 0.0026417568
-0.028611707 0.037534334 -0.0015876626 0.091979168 -0.077413917 -0.99274713 0.0034682779
-0.02549381 0.037742756 -0.0013334751 0.07847438 -0.16070193 -0.98387831 0.0044262656
-0.022825018 0.03757856 -0.001086271 0.085811317 -0.10143352 -0.99113458 0.0051224153
-0.019422228 0.037569426 -0.00083869125 0.086091451 -0.11867568 -0.9891938 0.0053027323
-0.016544888 0.037632827 -0.00058295741 0.07577014 -0.10398729 -0.99168819 0.0032181188
-0.013632653 0.037734576 -0.00033674869 0.074046694 -0.13707037 -0.98778987 0.0036284679
-0.010585405 0.037768539 -0.0001415619 0.082698986 -0.093787648 -0.99215162 0.002316084
-0.0081794402 0.038593281 -4.3615069e-05 0.072255142 -0.12337995 -0.98972541 0.0032310616
-0.045184303 0.041337807 -0.00057686248 -0.35115373 -0.66052818 -0.6636216 0.0067258165
-0.043417547 0.041432112 -0.0012060092 -0.25631952 -0.73167515 -0.63162637 0.0066360258
-0.040580776 0.041055422 -0.0018455909 -0.25244987 -0.58289897 -0.77233273 0.01978361
-0.037419442 0.040749379 -0.0022159987 -0.049388096 -0.39246243 -0.91844112 0.039496478
-0.034415919 0.040910523 -0.0023081459 0.024828812 -0.44630966 -0.89453405 0.023237975
-0.031499319 0.040706459 -0.0021646032 0.082482778 -0.38639534 -0.91863769 0.015082174
-0.028566636 0.040552247 -0.0019388031 0.094284669 -0.37476671 -0.92231244 0.01284243
-0.025636876 0.040645242 -0.0017897807 0.063523315 -0.36878264 -0.92734247 0.0077532623
-0.022493485 0.040533956 -0.0015257214 0.094593182 -0.31273332 -0.94511902 0.007445971
-0.019508891 0.040672142 -0.0013054335 0.098631993 -0.34447944 -0.93359822 0.0036893599
-0.016311167 0.040631913 -0.0010243972 0.068271108 -0.33757585 -0.93881923 0.0030121244
-0.013467536 0.040763687 -0.00087336934 0.057648618 -0.36379603 -0.92969304 0.0039076
-0.010505296 0.040515427 -0.00066483376 0.041614022 -0.34909943 -0.93616122 0.0031925563
-0.0074732914 0.040564667 -0.000536473 0.017333752 -0.40717304 -0.91318655 0.0042697405
-0.0045073223 0.040755901 -0.00052228372 0.021927439 -0.45270091 -0.89139277 0.0046521975
-0.0014442072 0.040861867 -0.00053633261 -0.013151413 -0.55434489 -0.83218312 0.010049555
0.0015398806 0.041104317 -0.00076047768 -0.044469494 -0.6381917 -0.76859212 0.0086048609
0.0045676758 0.041049227 -0.0013228708 -0.10779808 -0.79643703 -0.59503579 0.003985906
0.0075424868 0.040664446 -0.0014626366 -0.085128397 -0.85748959 -0.50740987 0.0015459164
0.010659567 0.040338363 -0.0012524072 0.02746853 -0.92129898 -0.38788357 0.0027000154
0.013583579 0.040535692 -0.0014445815 0.10557974 -0.94291627 -0.31585085 0.0032808185
0.016657157 0.04096001 -0.0014966835 0.1785287 -0.96060997 -0.21296947 0.0035587214
0.019448839 0.04153515 -0.0013364038 0.23550266 -0.96416444 -0.12216962 0.0027910371
0.021276966 0.041953735 -0.00092646212 0.26312518 -0.96075481 -0.087836884 0.0034066567
-0.049675416 0.044109493 -0.0022543783 -0.027707255 -0.9349739 -0.35363275 0.0018285472
-0.047136445 0.044173412 -0.0024573589 -0.18054572 -0.86032259 -0.47670555 0.013903894
-0.042572815 0.042529497 -0.0025924135 -0.21222952 -0.82283258 -0.52716708 0.0041475296
-0.040615961 0.042442109 -0.0026961088 -0.10485931 -0.82590777 -0.55396837 0.012942546
-0.038028091 0.042244803 -0.0027396425 -0.037147552 -0.83801806 -0.54437655 0.010669244
-0.034840293 0.042158026 -0.0028736033 0.0042104926 -0.7310552 -0.68230528 0.011607608
-0.030959431 0.042146347 -0.0026597357 0.066126198 -0.60610861 -0.79262835 0.0082442444
-0.028367098 0.042394299 -0.0026470174 0.073937714 -0.60774481 -0.79068285 0.0070790993
-0.025421571 0.042681269 -0.0026474241 0.077857099 -0.56005436 -0.82478929 0.005782349
-0.022455174 0.042949863 -0.0025655588 0.098537914 -0.52654248 -0.84441894 0.0060133128
-0.019477628 0.043150105 -0.0023802561 0.093982577 -0.49850392 -0.86177784 0.0037253287
-0.016448734 0.043132968 -0.0021085714 0.06967815 -0.48316661 -0.87275141 0.0027078891
-0.013540065 0.043499835 -0.002131317 0.030409185 -0.49825048 -0.86649972 0.0050404379
-0.010580438 0.043499596 -0.0021194273 -0.0088792602 -0.54985821 -0.8352108 0.0024465162
-0.0073881545 0.043425009 -0.0021766007 -0.037484653 -0.60295653 -0.79689294 0.0033345267
-0.0045901388 0.043059401 -0.0019666138 -0.058480557 -0.65116793 -0.75667715 0.0039825919
-0.00159536 0.042865295 -0.0021395572 -0.096287981 -0.70420283 -0.70343941 0.0046950784
0.0012575667 0.042640585 -0.0023534477 -0.14600477 -0.74357444 -0.65251797 0.0026546395
0.0042219521 0.042109486 -0.0027010737 -0.16763963 -0.78921455 -0.59079391 0.0013809036
0.020915572 0.042091459 -0.0029075448 0.18379565 -0.97334152 -0.13720582 0.0020441785
0.022551814 0.042420436 -0.0015082359 0.28170013 -0.95836484 -0.046711244 0.0032377976
0.025500042 0.043432593 -0.0014575537 0.34225717 -0.9375968 0.06141803 0.0028212555
0.028243944 0.044498425 -0.0016122261 0.37378505 -0.91627312 0.14397378 0.0026970913
0.030054618 0.044974662 -0.0027727452 0.4332884 -0.88721663 0.15845434 0.0060592783
0.02952566 0.045253482 -0.00081063178 0.43297124 -0.87323707 0.22359091 0.00295408
0.031497508 0.046074431 -0.0014560019 0.440162 -0.85530311 0.27333859 0.0029161244
0.034125667 0.04735373 -0.0017454787 0.45621544 -0.81451815 0.35836795 0.0038644278
0.036157519 0.047890473 -0.0028540778 0.49188653 -0.77498615 0.39679229 0.0029208856
0.035261389 0.048519831 -0.00082161586 0.50183326 -0.75327694 0.4251321 0.0036691974
0.03739443 0.049556207 -0.0015534604 0.5239498 -0.6961152 0.49081582 0.004914972
0.039485749 0.050486803 -0.0024355438 0.59004998 -0.62829632 0.50703537 0.0031257924
0.038524382 0.051368158 -0.00048081789 0.56332177 -0.57743514 0.59096301 0.002103945
0.040543679 0.052468181 -0.0015336553 0.65947378 -0.48302084 0.5760079 0.0034119058
0.042299297 0.053548753 -0.0025992531 0.68258309 -0.46917301 0.56031865 0.0032288174
0.041453294 0.055068567 -0.00069211301 0.67905825 -0.30842006 0.66615081 0.0041239238
0.042892773 0.055614073 -0.0020025382 0.73359668 -0.34147665 0.58756238 0.0036810373
0.041814685 0.057746667 -0.0002349736 0.68264008 -0.12836973 0.71939123 0.0036859268
0.043389533 0.058464978 -0.00165146 0.74382144 -0.12296872 0.65696913 0.0038014734
0.041720293 0.062176555 -0.0002922336 0.64856595 0.082371943 0.75668824 0.00089181622
0.043453451 0.061350375 -0.001714165 0.7198481 0.02672244 0.69361711 0.0019328244
0.041390359 0.064630948 -0.00043305662 0.62831163 0.13587393 0.76600444 0.00046739221
0.043208055 0.064387806 -0.0019481296 0.69155097 0.14130117 0.70837229 0.00078671408
0.04102179 0.067633167 -0.00074980938 0.61479157 0.17633152 0.76872522 0.00040700223
0.042784654 0.067322239 -0.0022099591 0.68124014 0.1910357 0.70669448 0.00083446753
0.038894936 0.071507037 -0.00012625185 0.58990729 0.22420217 0.77572078 0.00068033859
0.040587753 0.070591487 -0.001185599 0.62435901 0.23280518 0.74563903 0.00070260238
0.042379517 0.069945075 -0.002563078 0.68911737 0.25457904 0.67845917 0.0010180582
0.038460396 0.073714569 -0.00050416618 0.58023399 0.3189176 0.74941313 0.0021697734
0.040303558 0.073245846 -0.0018787973 0.64375401 0.34579208 0.68264824 0.0024565724
0.032981325 0.077751398 -0.00014561474 0.3357341 0.63178283 0.6986652 0.0024220967
0.03508747 0.077270105 -0.00070584711 0.38569468 0.65733856 0.64741468 0.0034493236
0.037440713 0.076360621 -0.0014823223 0.51299936 0.55052364 0.65860105 0.0058387676
0.039460406 0.075580508 -0.0024986689 0.58473927 0.51827645 0.62407488 0.0049513411
0.022619694 0.079724774 -0.00096271397 0.07973285 0.88693786 0.45495492 0.00050605671
0.025746213 0.079726338 -0.0010925984 0.068648577 0.88134646 0.46745679 0.0009159841
0.028733183 0.079627171 -0.0012728118 0.097684577 0.87459666 0.47490883 0.00096379145
0.032036353 0.079249643 -0.0015174578 0.26099214 0.76286232 0.59154397 0.0055543287
0.034482561 0.078667626 -0.0018962014 0.37025222 0.72339559 0.58276248 0.0035657343
0.036389168 0.078347065 -0.0027684227 0.45381948 0.70942122 0.53923047 0.0033089833
0.014278939 -0.078129202 0.0013014463 -0.067281649 -0.96898198 0.23779641 0.0017091001
0.016545976 -0.07829918 0.0013367505 -0.038445797 -0.95756769 0.28563282 0.001813178
0.019543663 -0.078442611 0.0012697178 0.0068858713 -0.9332577 0.35914168 0.0023944618
0.022459537 -0.078421578 0.0011725575 0.047678534 -0.9002924 0.4326666 0.0035357892
0.025419302 -0.078390218 0.00076153007 0.0929856 -0.85421264 0.51154119 0.003819949
0.028068891 -0.078236021 0.00042982944 0.15706401 -0.79185808 0.5901624 0.0028070537
0.030487239 -0.078076296 0.00011821361 0.22891141 -0.73225564 0.64140576 0.0029761943
0.0020394472 -0.075425304 0.0019378957 -0.32563969 -0.91817021 -0.2256595 0.0025528467
0.0046010884 -0.076211229 0.0016090199 -0.28884837 -0.94522029 -0.15206958 0.0047005103
0.00754883 -0.07699661 0.0015339865 -0.23576726 -0.97001755 -0.058990546 0.0047275028
0.011067434 -0.07761208 0.002103949 -0.090915903 -0.97726995 0.19151431 0.0024156675
0.013154699 -0.077897884 0.0019930457 -0.058438376 -0.97204942 0.22738679 0.0020664099
0.016340507 -0.07792633 0.0027259875 -0.021472516 -0.95732111 0.28822747 0.0016616096
0.01938455 -0.077911086 0.0026929581 0.041303929 -0.92073917 0.3879863 0.0034215057
0.022657473 -0.077696927 0.0025548011 0.11099336 -0.87105334 0.47848356 0.0034068332
0.025570191 -0.07737226 0.0022885068 0.17763162 -0.79911464 0.57433689 0.0023997095
0.028635753 -0.076911964 0.0018812122 0.22325806 -0.72121996 0.65574205 0.0032873829
0.031502943 -0.076235488 0.0014715237 0.29495394 -0.62544209 0.72237408 0.0031647694
0.034183659 -0.075797722 0.00064416137 0.39637327 -0.57158965 0.71845216 0.0032912802
-0.00056920474 -0.074175827 0.001595891 -0.45332038 -0.8457045 -0.28157517 0.0029574458
0.0010325392 -0.074711166 0.00096738059 -0.36506763 -0.89504611 -0.25616017 0.0017312145
0.032248113 -0.074255541 0.0026208903 0.40053287 -0.45348355 0.79619473 0.00395774
0.034581508 -0.073475666 0.0018133756 0.45494571 -0.38651928 0.8022638 0.0033223033
0.037004396 -0.07317739 0.00052828784 0.51461178 -0.37706381 0.77006334 0.0026678049
-0.009869311 -0.06953761 0.0025852444 -0.38188803 -0.76426899 -0.51966757 0.0081535494
-0.0072854101 -0.069571726 0.0011808228 -0.39466003 -0.74417508 -0.53893125 0.0042416546
-0.0048978035 -0.070588201 0.0014371593 -0.49364719 -0.78198868 -0.3805339 0.0030306175
0.035177812 -0.070616595 0.0024517742 0.50563741 -0.22051801 0.83408791 0.00048008421
0.037498627 -0.070514053 0.0010127965 0.54486084 -0.22705768 0.80719978 0.00064908864
0.03918089 -0.06954252 9.1508904e-05 0.59039843 -0.21656348 0.77751529 0.00064060261
-0.018429417 -0.066169299 0.0029137109 -0.24223195 -0.78420407 -0.5712685 0.0023655863
-0.016238725 -0.066392131 0.0024119546 -0.27472425 -0.77817863 -0.56476957 0.011055527
-0.013241553 -0.066910341 0.0021237554 -0.30238026 -0.78185731 -0.54522049 0.0089320084
-0.010968226 -0.06739857 0.0010336592 -0.35930222 -0.74512422 -0.56186455 0.0084935641
-0.0083638215 -0.068546899 0.0010759857 -0.36843392 -0.73210949 -0.57295036 0.0053416463
0.035668425 -0.067847975 0.002755085 0.51524866 -0.16684642 0.84064329 0.00016461662
0.037541457 -0.067583628 0.0016362178 0.53925282 -0.16686743 0.82544637 0.00021299301
0.039536264 -0.06725619 0.00035423719 0.58704275 -0.173903 0.7906571 0.00042888819
-0.030275753 -0.063072301 0.002783499 -0.20427857 -0.88108432 -0.42656839 0.0069262069
-0.028194871 -0.063348159 0.0025103102 -0.16822176 -0.86238354 -0.47748938 0.0051870709
-0.02539823 -0.063653804 0.0020848187 -0.16180903 -0.84580857 -0.50835592 0.0037867515
-0.02245046 -0.064009555 0.0017182525 -0.16587175 -0.79866111 -0.57846957 0.0093498174
-0.01966138 -0.06437993 0.00147993 -0.17349891 -0.79109019 -0.58657867 0.0071267593
-0.016734065 -0.064908013 0.0013776511 -0.27845719 -0.75359052 -0.59545189 0.0090756901
-0.014239838 -0.065189116 0.00074561511 -0.31957543 -0.71941435 -0.61669648 0.0087339729
0.035938211 -0.065551937 0.0029414934 0.52027756 -0.13536213 0.84320128 0.00013540938
0.037625104 -0.064513557 0.0021297091 0.53581923 -0.13463537 0.83352923 0.0001164703
0.039939567 -0.064570956 0.00058511866 0.58633476 -0.14047991 0.79779506 0.00040921269
-0.042567782 -0.060127333 0.0024220536 -0.21398637 -0.94328284 -0.25382537 0.0088977618
-0.040159196 -0.060447767 0.0018278304 -0.19053635 -0.92800748 -0.32015321 0.0028305678
-0.037395023 -0.06087615 0.001440396 -0.1856149 -0.91459239 -0.35926014 0.00093538617
-0.034458078 -0.061435238 0.0014441592 -0.15577874 -0.89620584 -0.41538909 0.0027269989
-0.031424798 -0.062077355 0.0015175297 -0.18573579 -0.88620043 -0.42444208 0.004050069
-0.028664112 -0.062280804 0.0010329211 -0.14717086 -0.85633761 -0.49500167 0.0045793932
-0.025680985 -0.062521406 0.00056572986 -0.14622621 -0.83014548 -0.53803009 0.0034363684
-0.022911286 -0.062837109 0.00039105184 -0.13858603 -0.79465503 -0.59103072 0.0049796919
-0.020102859 -0.062437188 0.0010367777 -0.060744409 -0.79848945 -0.59893638 0.012314374
-0.017832778 -0.062836826 0.00082663179 -0.26740998 -0.7823413 -0.56252468 0.015458499
0.037969679 -0.06148652 0.0023462819 0.54272527 -0.096989065 0.83429152 0.00017101475
0.040193431 -0.061532497 0.00086200138 0.58591902 -0.096936189 0.80455095 0.0005081463
-0.051073797 -0.057516899 0.0022473494 -0.26973307 -0.91315645 -0.30559695 0.0059822504
-0.04985363 -0.057382703 0.0014305752 -0.27615467 -0.89872479 -0.34063515 0.0046954742
-0.046312787 -0.058881938 0.0016182601 -0.28889623 -0.90301847 -0.31795704 0.0061561908
-0.0436549 -0.059444401 0.001275336 -0.22826916 -0.93471265 -0.27240679 0.0055742832
-0.04088971 -0.059755974 0.00050550664 -0.19076963 -0.92941797 -0.31589437 0.0024474678
0.038109396 -0.058545545 0.0025407586 0.56119949 -0.0084284777 0.82763761 0.0012001444
0.040362835 -0.058526572 0.0009988473 0.60425138 0.017686293 0.79659742 0.0019309886
-0.050023027 -0.056958467 0.00016701304 -0.28072238 -0.8998124 -0.33396491 0.0038719985
0.038033858 -0.055411458 0.00228387 0.57262594 0.1812982 0.79951894 0.0025361616
0.040064964 -0.055602431 0.00082064449 0.60993052 0.22542414 0.75971621 0.0035816028
0.035477012 -0.051635779 0.0025695248 0.57847017 0.38695309 0.71808046 0.0033605522
0.03746156 -0.052566908 0.0015341295 0.57674873 0.38210213 0.7220518 0.0026108364
0.039427612 -0.053329311 0.00042199212 0.59814101 0.41002211 0.6885559 0.0022212951
0.032388568 -0.048448604 0.0025540572 0.53771859 0.62716126 0.56349576 0.0010226697
0.034503151 -0.049491033 0.0016587479 0.5451569 0.57676774 0.60839379 0.0044331737
0.036716238 -0.050439946 0.000630553 0.54868311 0.54334611 0.635391 0.0022881338
0.029063325 -0.045571391 0.0018762725 0.49024007 0.78180766 0.38528106 0.002207042
0.031398613 -0.046853229 0.0013884313 0.5181331 0.7076965 0.48031634 0.0024752293
0.033447836 -0.04767688 0.00052411377 0.51147282 0.70160282 0.49613413 0.0028446114
-0.051254805 -0.042578351 0.00049391622 -0.19003889 0.90735304 -0.37496087 0.0075731142
0.023157926 -0.042457655 0.0020309538 0.41732419 0.88512778 0.20588671 0.0029383763
0.025662916 -0.043512564 0.0014468983 0.4136807 0.88330877 0.22053067 0.0032482566
0.027819265 -0.044488687 0.0010261907 0.4698683 0.81892955 0.32951206 0.002497416
-0.0037480108 -0.039151404 4.0218729e-05 0.047559164 0.41421023 -0.90893787 0.004066926
-0.001000895 -0.039309867 0.00010350982 0.064708412 0.49940756 -0.86394733 0.0055803689
0.0014178065 -0.039269146 0.00029465221 0.10866705 0.44264621 -0.89008754 0.015646787
0.0049271574 -0.039294682 0.00031883974 -0.012101618 0.79540199 -0.60596138 0.011972307
0.0072738226 -0.039143655 0.00022675953 -0.011078495 0.8599993 -0.51017499 0.003748355
0.010651628 -0.039112523 0.00036662622 0.076589786 0.94561493 -0.31614286 0.0031755951
0.013895404 -0.039274998 0.0017713682 0.21622758 0.96562362 -0.14427957 0.0030507343
0.016615625 -0.039978515 0.0016288186 0.27869055 0.95838165 -0.061937202 0.0034543797
0.019730505 -0.041013259 0.0018309413 0.37769294 0.91918612 0.11155663 0.0029775726
0.021453848 -0.041596327 0.0010849269 0.39019018 0.91130906 0.13140583 0.0024315682
-0.0093970727 -0.036719032 7.1878938e-05 0.067929231 0.10396378 -0.99225861 0.0040585916
-0.0074561262 -0.037194937 0.0001508681 0.064905606 0.12516649 -0.99001038 0.0036285778
-0.00453333 -0.037433561 0.00033755274 0.056616042 0.14795226 -0.9873727 0.0036870793
-0.0014958075 -0.037493393 0.0005546399 0.13391246 0.21612529 -0.96713877 0.0090237465
0.0019048216 -0.037122276 0.0015006459 0.5230124 0.29561344 -0.79941893 0.04045615
0.0038405377 -0.037618622 0.0021711893 0.34544712 0.61078095 -0.71246958 0.060935296
0.00760984 -0.038374078 0.0018584416 0.16924515 0.9145155 -0.36744735 0.010291768
0.010668956 -0.038592998 0.0020685333 0.2142311 0.95768565 -0.19220644 0.0026178143
0.012835475 -0.038893443 0.0025146534 0.21467435 0.95551431 -0.20225559 0.0041628852
-0.0093482006 -0.035545647 5.9881917e-05 0.078900583 0.007327653 -0.99685556 0.0009163405
-0.0074255983 -0.034647603 0.0001471045 0.085389018 -0.00062106899 -0.99634749 0.00095638569
-0.0043490562 -0.034444898 0.00044605377 0.15227741 0.012211463 -0.98826236 0.0028188117
-0.0012729875 -0.03426677 0.00074669754 0.36975732 0.028157942 -0.92870164 0.014924763
0.0017886539 -0.03431122 0.001634211 0.77292567 0.082700685 -0.62908387 0.039551109
0.0032741991 -0.034520198 0.0026064056 0.8213675 0.14758882 -0.55097467 0.043422874
-0.0067658485 -0.03159906 8.7928805e-05 0.1073448 -0.035306066 -0.99359477 4.678941e-05
-0.0045810491 -0.031519644 0.0003573506 0.18687288 -0.026938882 -0.98201472 0.004806479
-0.0012844212 -0.03153906 0.00072207948 0.36766011 -0.014590182 -0.92984581 0.012274864
0.0016431389 -0.031475212 0.0016100414 0.77116513 0.010941942 -0.63654119 0.032036569
0.0032709178 -0.031558711 0.0026025751 0.89424509 -0.00092366245 -0.44757661 0.030694302
-0.0064875316 -0.029399855 5.0225895e-05 0.12086631 -0.030733911 -0.99219286 3.7547976e-05
-0.004423595 -0.028543442 0.00031138255 0.17698753 -0.023037601 -0.9839434 0.00097252632
-0.0012464346 -0.02872007 0.00070925563 0.37509716 -0.012588956 -0.92690003 0.012250523
0.0016508779 -0.028488632 0.0016475316 0.75879937 -0.0011249271 -0.65132338 0.030992959
0.0032669264 -0.028467059 0.0025982992 0.87898457 -0.0010140372 -0.47684917 0.03008868
-0.0043228837 -0.025542529 0.00026740672 0.18405858 -0.022128288 -0.98266619 0.00086825213
-0.0014170747 -0.025529588 0.00065571064 0.25932416 -0.011709803 -0.9657194 0.013638638
0.00178356 -0.025520891 0.0017247063 0.76697344 -0.0027927272 -0.64167279 0.034190036
0.0032902514 -0.025186619 0.0026238326 0.88794965 0.0072023147 -0.4598842 0.027751982
-0.0041976008 -0.022502428 0.00023463102 0.19009869 -0.01995644 -0.98156214 0.00058979267
-0.00076578674 -0.021927206 0.00076316739 0.31872514 -0.024891049 -0.94752026 0.022642782
0.0018771001 -0.022506069 0.0017319093 0.67718399 -0.016147712 -0.73563647 0.032690123
0.0032804601 -0.022508375 0.0026110571 0.90029794 0.0015300055 -0.43527144 0.02949208
-0.0041798833 -0.019549636 0.00019213338 0.18495256 -0.015204947 -0.98262984 3.0131267e-05
-0.0009302168 -0.019346939 0.0007353421 0.35332876 -0.054228798 -0.93392617 0.021812361
0.0019902012 -0.019464949 0.0017643733 0.67193449 0.018757803 -0.7403729 0.033367202
0.0032636302 -0.019560443 0.0025915354 0.9117344 -0.00071910967 -0.41077963 0.029299404
-0.0039594676 -0.016758163 0.00018364703 0.19507664 -0.014515542 -0.98068064 3.975556e-05
-0.0012276998 -0.016589094 0.00067000749 0.32885432 -0.036533207 -0.94367379 0.015903795
0.001987427 -0.016482081 0.0017645522 0.73252928 -0.017451759 -0.68051171 0.039499287
0.0032453621 -0.016472183 0.002571054 0.88969284 -0.011280066 -0.45642012 0.030018726
-0.0035530853 -0.013541349 0.00019215593 0.18984652 -0.019839231 -0.98161328 6.3903863e-05
-0.0011981337 -0.013526684 0.00065678137 0.3152003 -0.0018767135 -0.94902331 0.0099032745
0.0019553835 -0.013494101 0.0017561007 0.71193558 0.0086012781 -0.70219207 0.035628326
0.0032609713 -0.013427059 0.0025765123 0.91570181 -0.0052301739 -0.40182433 0.02760203
-0.0033981891 -0.010407616 0.00016103845 0.20303312 -0.020658942 -0.9789539 4.9276976e-05
-0.00099180732 -0.010396969 0.00067845522 0.39141566 -0.0044098059 -0.92020345 0.011166487
0.0019358842 -0.010529964 0.0017793686 0.71918976 0.0045684567 -0.69479859 0.035273533
0.0032547405 -0.010467576 0.002569316 0.9162178 -0.003049524 -0.40066898 0.027115421
-0.0032607124 -0.0079400865 0.00013429552 0.21554123 -0.023181373 -0.97621959 5.2960797e-05
-0.0011894351 -0.0074182386 0.00060175866 0.39812073 -0.027645284 -0.91691637 0.010569106
0.0019715352 -0.0074389386 0.0017310097 0.7093035 -0.0026597914 -0.70489824 0.035207365
0.0032485172 -0.007534415 0.0025620488 0.92046541 0.0014830654 -0.39082122 0.026489021
-0.0033613543 -0.0044790865 4.3847613e-05 0.23453479 -0.023049345 -0.97183442 4.0551939e-05
-0.0013000274 -0.0045721196 0.00054722169 0.39393076 -0.0029079274 -0.91913545 0.0096638463
0.0019424744 -0.0044580987 0.0017091322 0.71045184 0.013882276 -0.70360893 0.034856629
0.0032423423 -0.0045562298 0.0025548907 0.92017847 0.0045736115 -0.39147243 0.026497902
-0.0032469374 -0.0020728605 1.1335034e-05 0.24743928 -0.017790897 -0.96874011 4.6759698e-05
-0.001241907 -0.0015509925 0.00051828782 0.37580112 -0.0073857782 -0.92667091 0.00863887
0.0018899149 -0.0014954878 0.0017282066 0.71538711 0.0038193925 -0.69871789 0.034942381
0.0032362519 -0.0015338208 0.0025476778 0.91806144 0.010329307 -0.39630353 0.026790338
-0.0033028778 0.002634777 4.0444829e-06 0.39513487 -0.0065048216 -0.91860008 0.0041189375
-0.0011940332 0.0014519417 0.00051270146 0.39879301 0.010478325 -0.91698116 0.0028898781
0.0018769779 0.0015806354 0.0017835007 0.81484896 0.0029398752 -0.57966596 0.031575248
0.0032290029 0.001456157 0.0025367264 0.90799522 0.003808294 -0.41896316 0.02464265
-0.0031753937 0.004822779 5.2631251e-05 0.33374023 0.012339661 -0.94258434 0.0019406979
-0.0012942794 0.0045491527 0.00048985146 0.37775728 0.0079285717 -0.92587072 0.0049698753
0.0018337606 0.0044651143 0.0018151202 0.7972942 0.018621486 -0.60330349 0.028875554
0.0032328765 0.004437496 0.0025299136 0.89043152 0.00021069335 -0.45511717 0.027469218
-0.0032750873 0.0075039375 6.7043715e-05 0.24270564 0.021542704 -0.96986073 3.7857328e-05
-0.0010469307 0.007518203 0.0005914229 0.40945649 0.016576553 -0.91217899 0.007009896
0.0018093999 0.0074581164 0.0018021488 0.67779118 0.0032661699 -0.73524719 0.034517471
0.0032150592 0.0074053304 0.002508644 0.89918679 0.0063020778 -0.4375197 0.02695002
-0.0034746665 0.010190207 5.9599388e-05 0.22808814 0.022210481 -0.97338712 6.325297e-05
-0.0012249256 0.010473992 0.00057887123 0.36946002 0.01431905 -0.92913622 0.0030130071
0.0018179894 0.010473999 0.0017899022 0.67016393 0.0059750639 -0.74218905 0.035802506
0.0031985443 0.010404246 0.002487876 0.90698832 0.0042358073 -0.42113447 0.026733685
-0.0037922312 0.013363427 5.9154885e-05 0.2148833 0.021222459 -0.97640908 8.7067368e-05
-0.001251491 0.013425728 0.00060388073 0.32932749 0.0098817311 -0.94416404 0.0037221585
0.0019340389 0.013579648 0.0018623043 0.68467331 -0.00095517485 -0.72884953 0.034849558
0.0031829122 0.013398627 0.0024686884 0.9086253 0.0084998142 -0.41752586 0.026676098
-0.0039199851 0.016408071 5.0982897e-05 0.18886349 0.024849616 -0.98168886 8.8471432e-05
-0.0013225984 0.016399208 0.000598118 0.29817998 0.010731881 -0.95444936 0.0039555505
0.0018657263 0.016530612 0.0018232769 0.70160294 0.0024073017 -0.71256417 0.033999089
0.0031898574 0.016608255 0.0024876916 0.88705194 0.0019454242 -0.4616656 0.027382929
-0.0041434895 0.019847706 0.00010687967 0.19973287 0.026384275 -0.97949511 5.8845948e-05
-0.0016386036 0.019624053 0.0005864923 0.27161178 0.018807501 -0.96222311 0.0021656652
0.0017547337 0.019548703 0.0018072184 0.75768632 0.020997159 -0.65228111 0.033046279
0.0031741499 0.019454697 0.0024719988 0.87689507 -0.0030575653 -0.48067209 0.026010539
-0.004170937 0.022714848 0.00022201975 0.18733421 0.034337219 -0.98169589 0.00027832904
-0.0017950104 0.02243517 0.00059703441 0.28052464 0.024110088 -0.959544 0.0046444763
0.001710002 0.022469461 0.0018037652 0.78494495 0.0092131486 -0.61949712 0.030637905
0.0032051671 0.022629801 0.0025083921 0.88006061 -0.012730696 -0.47469053 0.027218472
-0.0064674094 0.026364498 7.2493298e-05 0.1296089 0.036626581 -0.99088848 8.6441716e-05
-0.0040329327 0.025520602 0.0003827319 0.18892999 0.034766641 -0.98137492 0.0011906261
-0.0012801408 0.02550227 0.00072411133 0.3239992 0.013953325 -0.9459545 0.010486414
0.0018941355 0.025417887 0.0018547344 0.79466254 0.0061962227 -0.60701984 0.027595645
0.0031889628 0.025376275 0.0024939678 0.87338221 -0.0042768409 -0.48701653 0.025394946
-0.006647334 0.028554795 7.6683755e-05 0.11571425 0.027113549 -0.99291247 8.1634556e-05
-0.0041048457 0.028501775 0.00038935611 0.17262705 0.018121174 -0.98482054 0.00095549721
-0.0012358323 0.028522735 0.00072696514 0.33456671 0.010890398 -0.94230908 0.013451288
0.0018895932 0.02849355 0.0018118735 0.77320588 0.005800751 -0.63412869 0.029019291
0.0033300084 0.028511493 0.0025898376 0.89232534 -0.0008613753 -0.45139208 0.028856458
-0.0070495019 0.031825729 0.00013663832 0.10095157 0.023595687 -0.9946115 0.00010742588
-0.0043369769 0.031596169 0.00042051819 0.16640329 0.015675647 -0.98593313 0.0014660072
-0.0013972807 0.031430062 0.00071843353 0.32420784 0.0018802386 -0.94598401 0.012261623
