# .PCD v0.7 - Point Cloud Data file format
VERSION 0.7
FIELDS x y z normal_x normal_y normal_z curvature
SIZE 4 4 4 4 4 4 4
TYPE F F F F F F F
COUNT 1 1 1 1 1 1 1
WIDTH 566
HEIGHT 1
VIEWPOINT 0 0 0 1 0 0 0
POINTS 566
DATA ascii
0.071113847 0.061771262 0.003814549 0.49372986 0.047450572 0.86831981 0.016135046
0.070776798 0.064483486 0.0036996515 0.35520607 -0.01158628 0.93471622 0.017596211
0.072353862 0.065012708 0.0032428964 0.46239564 0.015081069 0.88654548 0.025511499
0.068891525 0.066498943 0.0035562066 0.089085922 0.07886517 0.99289674 0.013965932
0.070597284 0.067622304 0.003631206 0.0070153498 0.0051860535 0.99996197 0.021748915
0.072941661 0.068174347 0.003456248 0.70605332 -0.16323474 0.68908864 0.022545911
0.068639733 0.069843501 0.0031483148 -0.19218498 -0.010943251 0.98129773 0.015067276
0.070621371 0.070583098 0.0038937619 -0.068364888 -0.13561912 0.98839962 0.031988561
0.07374651 0.070916295 0.0037364191 0.54134881 -0.25430322 0.80141836 0.016576601
0.075065583 0.071065098 0.0031132936 0.70077223 -0.28709733 0.65306461 0.0061264364
0.068782203 0.073809274 0.0032825649 -0.38025388 -0.047029797 0.92368567 0.020092903
0.070509627 0.073495381 0.0043906383 -0.33339676 -0.12867542 0.93396425 0.025606662
0.073741645 0.073333949 0.0045148991 0.59146982 -0.25088617 0.76630259 0.043211676
0.075546019 0.073241286 0.0034838663 0.80985093 -0.25711086 0.5272907 0.061193995
0.068719558 0.075518101 0.0035426787 -0.38026148 -0.047090847 0.92367941 0.020093357
0.0704633 0.075129494 0.0047890856 -0.33340803 -0.12863384 0.93396598 0.025605099
-0.015054418 0.0029916468 0.0060634636 -0.22839142 -0.90142226 0.36779782 0.0084184017
-0.012588674 0.0028838185 0.0063006515 -0.1563246 -0.87412161 0.45986304 0.00086793117
-0.010411173 0.0027114851 0.006590581 -0.1215213 -0.88025892 0.45866847 0.00099105027
-0.0074772444 0.0025294144 0.0069093588 -0.082844943 -0.87028271 0.4855355 0.0015374956
-0.0044874693 0.0023679661 0.0070321686 -0.04892651 -0.86809069 0.49398854 0.0016088829
-0.0015365538 0.0023022799 0.0071005425 -0.017333683 -0.86404318 0.50311923 0.001757908
0.0014824481 0.0023455918 0.0071734446 0.0058293152 -0.86354107 0.50424474 0.0017427895
0.0044637709 0.002369426 0.007062891 0.04530713 -0.8642903 0.50094867 0.0015292941
0.0074201305 0.0024686786 0.0068461727 0.061137881 -0.85971022 0.50711 0.0014697011
0.010385632 0.0025795288 0.0066864504 0.083200574 -0.85960656 0.5041371 0.0010088332
0.013193924 0.0027881325 0.0063947346 0.10753035 -0.84616482 0.52196002 0.00058835489
0.015689595 0.0029094405 0.0061484738 0.11869027 -0.83971572 0.52989638 0.00050083373
0.018301234 0.002923131 0.0061070789 0.14579473 -0.83196962 0.53532273 0.0015760858
-0.024399333 0.0059086387 0.0063466732 -0.27964061 -0.8572132 0.4324196 0.00091108086
-0.022291824 0.0055197794 0.0068676309 -0.25559515 -0.8570413 0.44738284 0.00092391256
-0.01945688 0.0049752933 0.0073817694 -0.22050492 -0.84613788 0.48520949 0.00089719309
-0.016479973 0.0042955168 0.0074641709 -0.18733683 -0.85082644 0.49091673 0.0012276174
-0.013544288 0.0037540866 0.0075540082 -0.16373259 -0.8519572 0.49735361 0.00094008102
-0.010608324 0.0035366134 0.0080008591 -0.11540302 -0.84481329 0.52246785 0.0013659345
-0.0076403362 0.003411744 0.0083440682 -0.078983903 -0.83848631 0.53916812 0.0014936287
-0.00462928 0.0033214889 0.0085519003 -0.040097393 -0.81862903 0.57292122 0.0012636475
-0.0014688018 0.0032785716 0.0086301509 -0.012891143 -0.80989343 0.58643538 0.0012302769
0.0014479357 0.003246723 0.0086417552 0.0058914195 -0.80445147 0.59398907 0.0012026689
0.0045834649 0.0032543063 0.0085522849 0.042675503 -0.80967236 0.58532846 0.0013581958
0.0075289649 0.0033968084 0.0083435606 0.062687606 -0.82612014 0.55999613 0.0014677927
0.010468435 0.003529327 0.0081780786 0.087757252 -0.83096528 0.54935908 0.00094858714
0.013644136 0.0037274063 0.0077993926 0.11560839 -0.83226734 0.54218596 0.00070045632
0.016549692 0.0039766855 0.0075424365 0.12351651 -0.82449085 0.55223042 0.00059494312
0.019489296 0.0044102934 0.0074855285 0.15135457 -0.8012827 0.57882452 0.0010191435
0.02245122 0.004800885 0.0072851493 0.16824856 -0.79884881 0.57752305 0.0018855068
0.025412662 0.0051923636 0.0070085283 0.19068356 -0.79848927 0.5710119 0.0024555416
0.028155804 0.00556004 0.0065501067 0.21830009 -0.81001377 0.54426348 0.0026540759
0.030386019 0.0058644749 0.0060985638 0.27149501 -0.81795764 0.50718409 0.0040530469
-0.033291802 0.00891467 0.0063635176 -0.35343301 -0.85097837 0.38848549 0.0037895869
-0.031295747 0.0085142627 0.0068535339 -0.31244075 -0.84307259 0.43773222 0.00097539608
-0.028470419 0.0078105885 0.0074288263 -0.28398463 -0.83607155 0.46940085 0.00085730082
-0.025564803 0.0068998854 0.0075375601 -0.27177724 -0.84298819 0.46422839 0.00097849069
-0.022763355 0.0065024141 0.0082695587 -0.2451842 -0.82958001 0.50167888 0.00093768357
-0.020585587 0.0061774245 0.0087194294 -0.22909892 -0.8034898 0.5494706 0.00064867252
0.022844 0.0061512087 0.0087491209 0.1650472 -0.74237072 0.64934206 0.00055705605
0.025577337 0.0065094456 0.0085010827 0.17907986 -0.72336304 0.66684049 0.00035171388
0.028672658 0.0067337062 0.0079034856 0.1998744 -0.78003764 0.5929516 0.0024810759
0.031548724 0.0071852757 0.0074597197 0.24022418 -0.79155487 0.56190151 0.0026369151
0.034413327 0.008008684 0.0072652418 0.27664393 -0.78836453 0.54949933 0.0029081963
0.037092309 0.0085672447 0.0066644456 0.32640985 -0.80629259 0.49330398 0.0023552338
0.039269589 0.0088333935 0.0061295344 0.32883856 -0.79974008 0.50227588 0.002768344
-0.039367575 0.011790164 0.0064399508 -0.40556937 -0.81296265 0.41785789 0.0016741647
-0.037308753 0.011226191 0.00724384 -0.37104204 -0.8115474 0.45135191 0.00099668279
-0.034545787 0.010098549 0.0074838274 -0.35149807 -0.82346362 0.44537264 0.00099705369
-0.031798355 0.0094944062 0.0082500521 -0.30374557 -0.82484037 0.47684067 0.00092877215
-0.029466009 0.0091225691 0.0088655623 -0.28400189 -0.78594017 0.54921842 0.00052235177
0.035114735 0.0092947111 0.0086220158 0.2444133 -0.69862276 0.67244947 0.0018207969
0.037735078 0.0097114965 0.0079587633 0.30843869 -0.77897638 0.54594994 0.0038270564
0.040479638 0.010511501 0.0073832693 0.34300596 -0.78542107 0.51522875 0.0026817748
0.043177702 0.011391359 0.0068589579 0.38694212 -0.78514999 0.48354459 0.0023874035
0.045162935 0.011848539 0.0063693128 0.41500369 -0.78014654 0.46812737 0.0025327567
-0.045206837 0.01485148 0.0062832804 -0.50173527 -0.79046279 0.35132647 0.0047199819
-0.043175574 0.014223523 0.0071904291 -0.46315852 -0.76728684 0.44357085 0.0012127095
-0.040607769 0.012953158 0.0075330357 -0.41542679 -0.79230422 0.44684961 0.0011702547
-0.038204569 0.012369096 0.0084594069 -0.37252304 -0.78866142 0.4891215 0.00063865358
0.041744158 0.012235523 0.0087801581 0.29921949 -0.67941201 0.6699754 0.0027350963
0.043871175 0.01252335 0.0080605829 0.36728397 -0.75387776 0.54476678 0.0034011425
0.046468213 0.01350919 0.0073985811 0.41332453 -0.75611264 0.50740182 0.0025591666
0.048968889 0.014515876 0.0067804889 0.45003325 -0.75813824 0.47190732 0.0024284103
-0.048640516 0.017523635 0.0068529961 -0.52050048 -0.73797506 0.42950219 0.0014917053
-0.046481192 0.016428769 0.0074229296 -0.49110407 -0.7569133 0.43116006 0.0010892662
-0.044276789 0.015513782 0.0081920791 -0.45981064 -0.75187355 0.47250429 0.001059925
0.047588091 0.015252843 0.0087935971 0.39330155 -0.68040746 0.61835223 0.0023885823
0.049685083 0.015780495 0.0079918159 0.43727827 -0.72365767 0.5339545 0.0036007951
0.052078266 0.016837271 0.0072308616 0.4892166 -0.71809363 0.49498352 0.0030789771
0.054429945 0.017772723 0.0062779319 0.51056689 -0.71081096 0.48380697 0.0015201403
-0.054146748 0.020848971 0.0061926669 -0.5721066 -0.73903412 0.35570014 0.005446488
-0.052075688 0.020219596 0.0071408586 -0.54338145 -0.71383083 0.44179428 0.0013194816
-0.049856368 0.01892169 0.0076798308 -0.5301199 -0.72827131 0.43427402 0.0010745312
-0.047800496 0.018150544 0.0086684758 -0.5024876 -0.71676666 0.48347878 0.0011135911
0.053236406 0.018552776 0.0084315296 0.47458154 -0.65219092 0.59111702 0.0020753206
0.055447698 0.019410163 0.00746223 0.52080321 -0.68436223 0.51030606 0.0026629276
0.057834856 0.020481713 0.0063866884 0.57096517 -0.65986264 0.48844647 0.0020098393
-0.057187825 0.023748092 0.0061963317 -0.62281394 -0.70428276 0.34071785 0.0085923169
-0.055290595 0.022774883 0.0072015747 -0.58761734 -0.69148195 0.42018867 0.0012277238
-0.053240001 0.021606928 0.0079903211 -0.54677963 -0.70667988 0.44903854 0.0015517942
0.056455974 0.021196203 0.0085573168 0.50879264 -0.60108125 0.61630464 0.0019226111
0.05857918 0.022215158 0.00763661 0.56471372 -0.62409681 0.54000151 0.0030611949
0.060799491 0.023444811 0.0065792878 0.61745864 -0.6037541 0.50420803 0.0022823908
-0.060201924 0.026741454 0.0062023327 -0.68099308 -0.61617839 0.39569253 0.0070617087
-0.0583116 0.025600053 0.0072713117 -0.64120024 -0.64170802 0.42080042 0.0018395329
-0.056408018 0.02447647 0.0082453471 -0.59327823 -0.63738382 0.49169374 0.0012826903
0.059503313 0.024365366 0.0087685352 0.56177425 -0.53660411 0.62965518 0.0025559349
0.061645042 0.025298078 0.0075281984 0.62512648 -0.5509395 0.55288565 0.0029809664
0.063539773 0.026190424 0.0064321915 0.68000215 -0.54754537 0.48763829 0.0016596897
-0.061199438 0.028712152 0.0071697324 -0.69710577 -0.55646205 0.45209908 0.0023634692
-0.059403561 0.027583946 0.0083157457 -0.63318074 -0.56016654 0.53413081 0.0015309307
0.062707856 0.027428534 0.0082530286 0.62510687 -0.50248933 0.59728199 0.0026126276
0.064445391 0.028541991 0.0074257469 0.6834355 -0.46773815 0.56047916 0.0023303055
0.066308975 0.029541649 0.0064421496 0.72315234 -0.45403203 0.52048606 0.0012604279
-0.06372489 0.031868465 0.0069409222 -0.71682626 -0.49471304 0.49134406 0.0026008864
-0.062247489 0.030834038 0.0079644881 -0.705437 -0.49143782 0.51073229 0.0030891069
0.065052092 0.030960191 0.0083480887 0.65666789 -0.37171346 0.6562137 0.0032694868
0.066850901 0.031790279 0.0068705762 0.75038201 -0.40526247 0.52219653 0.0026121261
-0.066308938 0.035433631 0.0064292159 -0.74893111 -0.43032739 0.50390524 0.0029715328
-0.064794578 0.034394924 0.0076153977 -0.73283362 -0.42271709 0.5331654 0.0033822223
-0.062922537 0.033014849 0.0087561542 -0.70087606 -0.36993569 0.60985279 0.0021107052
0.065900058 0.033838861 0.0088802129 0.68397981 -0.30440781 0.66295367 0.004292543
0.067622595 0.034380574 0.0074313353 0.74529886 -0.31183577 0.58931148 0.0023918042
0.069454513 0.035632651 0.0061426153 0.78969502 -0.30334339 0.53325838 0.002896535
-0.066929609 0.037541144 0.00699999 -0.75398421 -0.3553457 0.5524829 0.0031559514
-0.065597311 0.037209157 0.0084398463 -0.70545906 -0.31170458 0.6365279 0.0015560647
0.06834913 0.037079379 0.0079647098 0.76735079 -0.22646345 0.59990591 0.0023814954
0.069397211 0.037593871 0.0067831529 0.79856718 -0.22590439 0.55790472 0.0022243876
-0.069256485 0.041301478 0.0062278882 -0.76843107 -0.30093783 0.56475669 0.0029326235
-0.06768728 0.040304638 0.0074213361 -0.75016916 -0.27696586 0.6004467 0.0025813158
0.068504229 0.040252678 0.0083942357 0.75646406 -0.11272024 0.6442486 0.0026792965
0.069874898 0.040369868 0.0070185121 0.8130455 -0.14266616 0.56444961 0.0019912187
-0.069523923 0.043381434 0.0063876845 -0.77938479 -0.22500572 0.58474934 0.0036128138
-0.068171494 0.043112524 0.0077745575 -0.72396851 -0.19038451 0.663041 0.0021108903
0.068589725 0.044061735 0.0086302301 0.62054127 0.0041275797 0.78416288 0.004550864
0.069934756 0.043489315 0.0073916153 0.82146227 -0.073859036 0.56545967 0.0047471467
-0.070048667 0.046030231 0.0064373408 -0.76690668 -0.18416761 0.61476529 0.0041183424
-0.068403512 0.046099443 0.0079707215 -0.6945312 -0.12244017 0.70896739 0.0022749209
0.070031926 0.045548476 0.0070549748 0.78035158 0.0036683162 0.62533033 0.0035750913
-0.070450626 0.049538631 0.0066684224 -0.67134041 -0.09738937 0.73472261 0.0051400801
-0.067969412 0.049195178 0.0083614504 -0.57850718 -0.014752084 0.81554383 0.0023391163
0.069659479 0.050202128 0.0070190765 0.71059108 0.08270856 0.69872713 0.0066772336
-0.072108127 0.052280024 0.0060292054 -0.61923605 -0.095104441 0.77942407 0.0096157193
-0.070549309 0.052333005 0.0066917418 -0.58613682 -0.052336566 0.80851996 0.0049747243
-0.068284556 0.051880885 0.007775092 -0.53575927 0.019185523 0.84415281 0.0021146194
-0.070710316 0.05460595 0.0064065251 -0.54456013 -0.02376846 0.83838493 0.0035583184
-0.068489939 0.05440155 0.0069565563 -0.41980466 0.096484758 0.90247148 0.0016108535
-0.018504888 0.0058581564 0.0092151575 -0.20804249 -0.78664744 0.58129531 0.00075119734
-0.016270889 0.0056275465 0.0095308488 -0.17398149 -0.79687107 0.57855594 0.00072417269
-0.013484352 0.0053383722 0.0098847197 -0.14092538 -0.78751117 0.59997177 0.00090541574
-0.010522 0.0050471956 0.010086193 -0.10473827 -0.78275454 0.61345363 0.00096376886
-0.0075101345 0.0048463889 0.01023858 -0.06996417 -0.77059203 0.63347697 0.0011084067
-0.0045883707 0.0046833227 0.010263696 -0.033525806 -0.75963134 0.64948916 0.0010133769
-0.0014688798 0.004702922 0.010346762 -0.0083077857 -0.75797927 0.65222567 0.00098560762
0.0014615306 0.0046755797 0.010305882 0.0073640998 -0.75157112 0.65961099 0.00093594153
0.004487732 0.0047114487 0.010284621 0.04190705 -0.74567688 0.66498852 0.001125398
0.0074243722 0.0049315668 0.010269258 0.063115172 -0.74489212 0.6641928 0.001099112
0.010626922 0.0048593185 0.0099197896 0.085771538 -0.76124603 0.64276576 0.0012376931
0.013350499 0.005170499 0.0098778494 0.11407454 -0.75274634 0.64835179 0.0012361632
0.016375087 0.0054531572 0.0096195871 0.13385577 -0.75387686 0.6432358 0.0010152136
0.019023241 0.0057323971 0.0092854891 0.15423742 -0.74555945 0.64834547 0.00066002394
0.021035802 0.0059277187 0.0093075326 0.15525773 -0.74863076 0.64455175 0.0011192644
-0.027560784 0.0087043531 0.0093581881 -0.27286071 -0.78893143 0.55057633 0.00067136082
-0.025334453 0.0083672181 0.0099471239 -0.246002 -0.78394812 0.57000732 0.00079588313
-0.022456093 0.0078388015 0.010349 -0.21515699 -0.77860141 0.58948052 0.0011283614
-0.019576343 0.0071095005 0.010464158 -0.20328283 -0.77839923 0.59394503 0.00073944166
-0.016656784 0.0067617297 0.010939633 -0.15925147 -0.76854277 0.61966205 0.00094826875
-0.01352118 0.0065093306 0.011329162 -0.12755021 -0.72797716 0.67363203 0.0012794399
-0.010695857 0.006370333 0.011652256 -0.082140476 -0.69125366 0.71792841 0.0013746067
-0.0075762975 0.0062591406 0.011774001 -0.049565326 -0.69906485 0.71333826 0.001519723
-0.004669989 0.0061266455 0.01179394 -0.027986895 -0.71608341 0.69745338 0.00099686894
-0.0015438587 0.0061243586 0.011850438 0.0014775987 -0.70299119 0.71119702 0.0010604385
0.001656899 0.0061839488 0.011865801 0.014735854 -0.69170773 0.72202724 0.0012627717
0.0045414586 0.0062078596 0.011792166 0.041694917 -0.69743115 0.71543783 0.00094255729
0.0077632982 0.0062807803 0.011686135 0.056707438 -0.70796484 0.70396745 0.0014266494
0.01066829 0.0064488561 0.01157604 0.077413321 -0.67005247 0.73826605 0.0015195846
0.013563878 0.0066486914 0.011364588 0.10452027 -0.68233323 0.72353083 0.0017333541
0.016654922 0.0068544177 0.011075449 0.1367915 -0.67470092 0.72530454 0.0017528798
0.019666815 0.0070780572 0.010626069 0.15830845 -0.6865074 0.7096802 0.0012139896
0.022560032 0.007474808 0.010315373 0.16886264 -0.70437092 0.6894542 0.00080382824
0.025452541 0.0079072304 0.0099588102 0.18385708 -0.70426595 0.68571568 0.00059797318
0.028445657 0.0082877111 0.0095721064 0.19401105 -0.69633669 0.69099563 0.00053829548
0.031062249 0.0086489096 0.0092660245 0.20642473 -0.70342571 0.6801331 0.0010018407
0.033464495 0.0089023467 0.0091867372 0.24837036 -0.70653975 0.66265655 0.0021743339
-0.03620607 0.011893149 0.0092373258 -0.36314452 -0.76390225 0.53345978 0.00070304808
-0.034141894 0.01143131 0.0098437322 -0.33224803 -0.76842135 0.54693687 0.00072808866
-0.031443723 0.010797657 0.010405743 -0.27871805 -0.76942027 0.57472485 0.00087460241
-0.028617745 0.0099593326 0.010622886 -0.27011967 -0.77759969 0.56778002 0.00063914782
-0.025765486 0.0094903978 0.011295675 -0.23193043 -0.74123496 0.62990391 0.0010530468
-0.023146965 0.0091452608 0.011757653 -0.19831112 -0.73038185 0.65361691 0.0013436957
0.022730242 0.009097904 0.011798135 0.16514654 -0.65443593 0.73786199 0.0010766877
0.025742754 0.0095222946 0.011472626 0.18265909 -0.65339196 0.73465276 0.00077988906
0.028514538 0.0099593792 0.011068727 0.19284427 -0.63266057 0.75003445 0.00072358741
0.031417478 0.010368068 0.01063718 0.20183179 -0.62927395 0.75051862 0.00039305925
0.034332838 0.010586992 0.01007366 0.22165771 -0.65266091 0.72450095 0.0014205296
0.037194513 0.011075985 0.0096795689 0.26719004 -0.691553 0.67109162 0.0021454096
0.039504014 0.011646994 0.009325007 0.29636613 -0.69201022 0.65824687 0.0018679624
-0.042268652 0.014819063 0.0093435152 -0.44714132 -0.73307705 0.51250631 0.0010610513
-0.040116876 0.014316966 0.0099877035 -0.39174622 -0.74040407 0.546202 0.00090693793
-0.037529793 0.01343136 0.010450986 -0.34829018 -0.75139451 0.5604465 0.00075058179
-0.034863535 0.012658662 0.011066725 -0.32025903 -0.7389909 0.59272808 0.00091354927
-0.032473054 0.012205388 0.011791954 -0.28517333 -0.70896965 0.64501029 0.0014049819
0.032292463 0.012213107 0.011854813 0.19961381 -0.59381324 0.77944863 0.00056605146
0.034571085 0.012618768 0.011607178 0.20794262 -0.58970195 0.78039181 0.00027981831
0.037745427 0.013081359 0.011101449 0.22854026 -0.58652496 0.77701855 0.00067968975
0.040672138 0.01335226 0.010384529 0.28441393 -0.62836301 0.72406387 0.0016047899
0.043231003 0.013815815 0.0098264441 0.3348735 -0.67381525 0.65865993 0.0022401351
0.045501135 0.014526647 0.0093564969 0.37283406 -0.67055333 0.64136803 0.0021523002
-0.045734335 0.017517133 0.009709768 -0.46453863 -0.69923598 0.54339021 0.00075651734
-0.04341127 0.016587866 0.01038311 -0.4309122 -0.70660472 0.56127036 0.00090268609
-0.04100439 0.015579603 0.010993459 -0.38976446 -0.71009302 0.58638853 0.0010670301
-0.038705982 0.015133196 0.011838105 -0.34438935 -0.69487476 0.6313042 0.0020637931
0.040996049 0.015349497 0.011769979 0.24554478 -0.5596897 0.7914893 0.00069188327
0.043765962 0.015941013 0.011293042 0.28136292 -0.54524559 0.78964686 0.0013348537
0.046501733 0.016289193 0.010398513 0.34363279 -0.60334539 0.71964628 0.0024127844
0.04908751 0.017048704 0.0097621148 0.40355644 -0.62358433 0.6695407 0.0025511065
0.051398162 0.017734159 0.0091731045 0.44780457 -0.64888567 0.61515725 0.0018831434
-0.051375017 0.020892255 0.0092156613 -0.50141323 -0.6736629 0.54292089 0.00093002873
-0.049097046 0.020140229 0.010062274 -0.49299073 -0.67164773 0.55303663 0.00096608367
-0.046789002 0.018979413 0.010687556 -0.45653424 -0.68077278 0.57282192 0.0010550289
-0.044454124 0.018266406 0.011638952 -0.42239237 -0.66446948 0.61649406 0.0013884644
0.047223654 0.018554192 0.011825662 0.31563333 -0.52830064 0.78820938 0.0010595472
0.049776696 0.019045902 0.010997682 0.36498126 -0.53644842 0.76092821 0.0015353764
0.052290104 0.019718006 0.010137829 0.42146206 -0.57737786 0.69928867 0.0026789892
0.0544594 0.020441234 0.0094383201 0.46426639 -0.60465485 0.64718562 0.0026302238
-0.054460123 0.02364617 0.0093187876 -0.55589283 -0.6248697 0.54819798 0.0010434641
-0.052317772 0.022655092 0.010164379 -0.50787485 -0.64564693 0.57026589 0.0015160156
-0.050066132 0.021738164 0.011096169 -0.47773737 -0.64104831 0.60068625 0.0011829239
-0.047781002 0.021003237 0.011852477 -0.44548136 -0.62976724 0.63634866 0.0014195737
0.050684839 0.021168303 0.011905635 0.35648569 -0.51323467 0.78071004 0.001296039
0.052981965 0.021792173 0.01130369 0.38944837 -0.49584231 0.77618963 0.001862111
0.055514716 0.022498349 0.010259553 0.4662233 -0.51720142 0.71773148 0.002379592
0.057815921 0.023412075 0.0094160307 0.53185964 -0.54886854 0.64487875 0.0026588719
-0.057496618 0.026574111 0.0094079748 -0.5962702 -0.56692046 0.5683865 0.00092988228
-0.055429339 0.025540767 0.010369685 -0.54561603 -0.56725204 0.61686975 0.001307604
-0.053315684 0.02461936 0.011399628 -0.51816285 -0.57435995 0.63373333 0.00092357432
0.056219365 0.025053641 0.011432598 0.43087676 -0.43622693 0.78996921 0.00095526886
0.058536511 0.025409553 0.01027735 0.51564038 -0.47775191 0.71124411 0.0020833982
0.060483214 0.026295699 0.0095594777 0.5528937 -0.48789021 0.67547888 0.0027621407
-0.060210846 0.02955218 0.0092865108 -0.63027221 -0.50605464 0.58878326 0.0015829583
-0.058340047 0.028549612 0.010273002 -0.60426992 -0.48948008 0.62870282 0.0012935908
-0.05639758 0.027705645 0.011434022 -0.56665826 -0.49855158 0.65600669 0.0013358319
0.059052434 0.027940921 0.011463871 0.46543294 -0.35397246 0.81121862 0.0012208517
0.061314952 0.028132617 0.010040967 0.5598681 -0.42844674 0.70921147 0.001995011
0.063409388 0.02927817 0.0092682634 0.6035198 -0.42135808 0.67692041 0.0023754637
-0.063083366 0.032969944 0.0090554347 -0.66964191 -0.39090544 0.63148451 0.0026381998
-0.060995329 0.03163619 0.00994974 -0.64430511 -0.43465608 0.62924165 0.0013229721
-0.059169333 0.030929187 0.011225354 -0.58383709 -0.4061169 0.70299596 0.0013886093
0.059900552 0.030333539 0.011835597 0.47352073 -0.31241977 0.82351202 0.0024317657
0.061678108 0.031167213 0.01116513 0.50567555 -0.30045304 0.80871516 0.0010768324
0.063863918 0.031519875 0.0097603127 0.59297591 -0.34101993 0.72944152 0.0016703974
-0.063428588 0.034969859 0.0095434655 -0.66360611 -0.36664388 0.65207309 0.0015520272
-0.061813131 0.03418494 0.010669302 -0.617607 -0.33136687 0.71327239 0.0011802372
-0.059876561 0.033533297 0.011941671 -0.57243121 -0.30192623 0.76234055 0.0019819634
0.061865266 0.033588815 0.011747264 0.49273735 -0.23856822 0.8368364 0.0033774562
0.06454169 0.034648497 0.010459593 0.59621918 -0.26482025 0.75788713 0.0027253965
0.066286452 0.035015091 0.0093547599 0.68934828 -0.28038615 0.66796893 0.0015924094
-0.064144105 0.037426807 0.0099347038 -0.65798795 -0.28180024 0.69831252 0.0026618473
-0.062267285 0.03734393 0.011467886 -0.60077214 -0.23839214 0.76304781 0.0018919255
0.064562865 0.037271887 0.011118684 0.53576183 -0.13846536 0.83293849 0.00064318563
0.06682846 0.037843648 0.0095357252 0.66657656 -0.20820092 0.71577096 0.0041255583
-0.066272296 0.040985871 0.0092598097 -0.66843611 -0.19361287 0.71812761 0.002267516
-0.064754404 0.0401049 0.01020469 -0.62811393 -0.19298281 0.75381064 0.0024497984
-0.062591292 0.040055256 0.011786865 -0.54734552 -0.09649229 0.83132553 0.0027962173
0.06454391 0.040378138 0.011429816 0.45844218 0.0082421498 0.88868606 0.0045976778
0.067640528 0.04059891 0.0094497548 0.71627694 -0.11620266 0.68807286 0.0024735285
-0.066586725 0.04347337 0.0093561448 -0.64786547 -0.094880886 0.7558226 0.0027399531
-0.06465812 0.04325188 0.010732303 -0.52704066 -0.0038647149 0.84983128 0.0018376489
-0.062598862 0.04326177 0.01172668 -0.47805846 0.024039816 0.87799895 0.0016736906
0.064523399 0.043779578 0.011244465 0.44874913 0.065937102 0.89122194 0.0029176066
0.06699311 0.043098852 0.009926335 0.6104371 -0.0066950056 0.79203647 0.0042401203
-0.066696323 0.046313673 0.0093084434 -0.59223783 -0.012977772 0.8056587 0.0020141201
-0.064917013 0.046164952 0.010330537 -0.52245319 0.017532699 0.85248768 0.0011806341
-0.061754506 0.046349056 0.011480063 -0.41805926 0.11063214 0.90165794 0.0014040663
0.065506831 0.046525504 0.010406825 0.51514047 0.064604521 0.85466754 0.0079776663
0.067298718 0.045932084 0.0095581068 0.60916781 0.047974464 0.79158896 0.0022882908
-0.066325068 0.048634641 0.0091809127 -0.51616061 0.072115362 0.85345042 0.0016610895
-0.065590858 0.048337825 0.0094507076 -0.4978393 0.069548346 0.8644762 0.0008639982
0.0025334873 0.0059532677 0.012017008 0.020663464 -0.68617696 0.72714114 0.002360435
-0.021687983 0.0088715302 0.012145192 -0.19406696 -0.71740711 0.66907781 0.0011986193
-0.019213207 0.0086096898 0.012356949 -0.17069207 -0.69349927 0.69994503 0.0013044315
-0.016500451 0.008295726 0.012589204 -0.1413087 -0.69691253 0.70309657 0.0013531422
-0.013494708 0.0080165621 0.012791735 -0.10242006 -0.66682202 0.73814535 0.0011910314
-0.010566528 0.0077544139 0.012921167 -0.068701826 -0.64620829 0.7600624 0.0012567956
-0.0075259479 0.0077323802 0.013081454 -0.036503479 -0.63521653 0.77147096 0.0015687675
-0.0045072879 0.0075304895 0.013043943 -0.014314243 -0.62166715 0.78315067 0.0016145352
-0.0015355692 0.0074315434 0.01298842 0.0045121699 -0.61321187 0.78990555 0.0017275199
0.0014219207 0.0075238035 0.013004865 0.020393506 -0.6005978 0.79929113 0.0019908606
0.0044448981 0.0075097559 0.012893522 0.042737849 -0.59309423 0.80399799 0.0018106059
0.0075118607 0.007721772 0.0128604 0.0575702 -0.59167123 0.80412108 0.0021757209
0.010317782 0.0077378191 0.012664845 0.078361228 -0.59577173 0.79932189 0.0017803354
0.013470873 0.0081006419 0.012587057 0.098259978 -0.59724158 0.79601985 0.0019317223
0.01634049 0.0083449511 0.012405456 0.11463477 -0.60969418 0.78430337 0.0020004145
0.018834678 0.0085802674 0.012203881 0.13175136 -0.6374718 0.75912541 0.0018614429
0.02179734 0.0087751709 0.012162955 0.15840948 -0.65915906 0.73512983 0.0012284995
-0.030504663 0.011837577 0.012181157 -0.25547013 -0.71236384 0.65366101 0.0015002724
-0.028133975 0.011371757 0.012504477 -0.23816273 -0.71085143 0.66179204 0.001276369
-0.025397539 0.010884393 0.012911036 -0.20795888 -0.6902656 0.69302708 0.0015637495
-0.022614075 0.010353693 0.013102066 -0.18471652 -0.67314798 0.71606672 0.001428516
-0.019573929 0.010306777 0.013752578 -0.13565646 -0.60005099 0.78837562 0.00081799028
-0.016602078 0.010029541 0.014029792 -0.10503246 -0.58317077 0.80553091 0.0011504622
-0.013612221 0.0099713448 0.014304444 -0.082749002 -0.57311302 0.81528765 0.001146408
-0.010623592 0.0097194947 0.014386411 -0.049795743 -0.55935568 0.82743073 0.0013092589
-0.0075761941 0.009816533 0.014547606 -0.019746263 -0.5167259 0.85592312 0.0015460299
-0.004541954 0.0097865062 0.014562666 -0.0037445673 -0.50266027 0.86447597 0.001346954
-0.0014631893 0.0097992234 0.014527634 0.013393914 -0.49085924 0.87113583 0.0013583812
0.0015956141 0.0096964184 0.01438057 0.025964579 -0.49636894 0.86772335 0.0012863061
0.004490701 0.0099128997 0.014367853 0.042005349 -0.4830896 0.87456286 0.0011975749
0.0075969673 0.010071014 0.01426876 0.056624193 -0.46724254 0.88231409 0.0011515601
0.010713632 0.010069286 0.014049494 0.069668569 -0.47774965 0.8757292 0.0010358914
0.013448345 0.010405094 0.013949348 0.086735159 -0.4922092 0.86614496 0.0010875253
0.016558148 0.010412081 0.01365173 0.096853226 -0.48553398 0.86883616 0.0011012962
0.019644586 0.010285957 0.013185902 0.13623135 -0.54973644 0.82415468 0.0018260491
0.022406932 0.010384937 0.012830915 0.15037455 -0.56615412 0.81046718 0.0018038349
0.025354097 0.011060478 0.012738934 0.16339846 -0.57510513 0.80159539 0.0019915563
0.028165359 0.011454377 0.012447538 0.18017773 -0.5858795 0.79011464 0.0011613548
0.030538974 0.011825128 0.012154959 0.19564006 -0.5986802 0.77672833 0.00061997533
-0.036749061 0.014623058 0.012358341 -0.33042115 -0.69010967 0.64387155 0.00099700654
-0.034407195 0.013991661 0.012761119 -0.30782816 -0.68588251 0.65939891 0.0014172063
-0.031450991 0.013424503 0.013402475 -0.24753778 -0.65011555 0.71838349 0.0015901824
-0.028614551 0.013115607 0.013979746 -0.20392421 -0.60673237 0.76830375 0.0010917478
-0.025683967 0.012664006 0.014371901 -0.18317592 -0.60111141 0.77788925 0.0013483814
-0.022721659 0.012364171 0.014757076 -0.14268222 -0.57565731 0.80514628 0.0014202318
-0.020204363 0.012134917 0.014895712 -0.12003911 -0.55175 0.82532579 0.0012931869
0.010516847 0.012075814 0.014876639 0.06762705 -0.40413997 0.91219372 0.0009447406
0.013097369 0.012484957 0.014841984 0.072963826 -0.39795631 0.91449827 0.0014163246
0.016100474 0.01256237 0.014735058 0.089001425 -0.39859644 0.91279769 0.0011790341
0.019168403 0.012847121 0.014534909 0.1059768 -0.41922238 0.90167707 0.0010966549
0.022458117 0.013086569 0.014257822 0.11925354 -0.42900395 0.89539617 0.0014025677
0.025611622 0.013335291 0.013980329 0.13999663 -0.45359665 0.88014269 0.0014151414
0.028551366 0.013376952 0.013541633 0.15905116 -0.48605874 0.85933089 0.0020804158
0.031461831 0.01343947 0.013003795 0.18992762 -0.53149724 0.82549262 0.0013536226
0.034422673 0.01395071 0.012615931 0.19706276 -0.53993255 0.81831479 0.00089660683
0.037064925 0.014623012 0.01234331 0.21594447 -0.55143541 0.80578351 0.00038452842
0.039144069 0.014492415 0.01209398 0.23955207 -0.57396883 0.78305459 0.00077189272
-0.042500649 0.017632831 0.012273713 -0.40278816 -0.64994603 0.64446253 0.0013488068
-0.040323209 0.016917827 0.012830868 -0.36909217 -0.6421538 0.67187005 0.0015236591
-0.037644636 0.016240917 0.013488572 -0.3072556 -0.62018412 0.72177958 0.0013445814
-0.034769591 0.015837902 0.014280108 -0.26505652 -0.59085286 0.76199603 0.0018114935
-0.032120775 0.01526208 0.014697824 -0.21856378 -0.58999813 0.77725929 0.0014043325
0.023743153 0.015238381 0.014899239 0.089548051 -0.21952459 0.9714886 0.0021111923
0.025210543 0.015440943 0.014777562 0.11940708 -0.39011753 0.91298974 0.001394709
0.028346486 0.015991906 0.014674217 0.13702466 -0.39509061 0.90836537 0.0017275139
0.031701136 0.016154349 0.014349754 0.1531031 -0.41830099 0.89531207 0.0016901044
0.034545116 0.016042106 0.013836681 0.1792361 -0.46095711 0.86913341 0.0014852822
0.037616376 0.016368913 0.013293872 0.20557193 -0.48717779 0.84876263 0.00099084142
0.040235527 0.016658477 0.01279919 0.22618936 -0.50348687 0.83387011 0.00063930242
0.043221418 0.017284151 0.012326519 0.25782308 -0.51733947 0.81601906 0.0008686955
0.045485765 0.017699108 0.012120637 0.29938498 -0.54008639 0.78655916 0.0016966959
-0.048212375 0.020884743 0.012223778 -0.4506031 -0.62409502 0.63832766 0.0012341404
-0.046001788 0.020250876 0.01260874 -0.43699643 -0.60765278 0.66316837 0.0016433132
-0.043541845 0.019454623 0.013305862 -0.37506464 -0.58936077 0.71552801 0.0016802753
-0.040784169 0.018858505 0.014195262 -0.33995888 -0.56001526 0.75552028 0.0013095447
-0.038543612 0.01829413 0.01477088 -0.29750261 -0.54031491 0.78711623 0.0014857758
0.032535013 0.01843581 0.014980081 0.088551819 -0.19853413 0.97608542 0.0023987137
0.035287604 0.018572835 0.014692347 0.16434713 -0.40078953 0.90130895 0.001592399
0.037757102 0.019018626 0.014632014 0.17536521 -0.3659364 0.91396797 0.0020091855
0.040698539 0.018923618 0.013892165 0.21533935 -0.43542606 0.8740899 0.00077525666
0.043524817 0.019373083 0.013346949 0.24718453 -0.45858422 0.85358089 0.00093972008
0.046174798 0.019568153 0.012708317 0.28136289 -0.4725557 0.83518022 0.0012326874
0.049149815 0.020492651 0.012193238 0.33660817 -0.48870987 0.804896 0.0013735194
-0.051317889 0.023694141 0.012174212 -0.48069763 -0.58458704 0.65359604 0.0014832281
-0.049271181 0.022921329 0.012773339 -0.45102969 -0.57692707 0.68097532 0.0016040993
-0.046709564 0.022243993 0.013733828 -0.40747079 -0.53505266 0.74005824 0.0012231842
-0.044142738 0.021508304 0.01460227 -0.35952437 -0.52271241 0.77299023 0.0014857909
0.016085092 0.022709329 0.014970556 -0.016567124 0.12430754 0.99210542 0.0020079878
0.019902339 0.023709338 0.014861493 -0.030234842 0.157187 0.98710597 0.00074009737
0.041016273 0.021531189 0.014811754 0.16016549 -0.25838634 0.95267183 0.002646063
0.043805532 0.022001129 0.014471111 0.22582503 -0.37643388 0.89849913 0.001462373
0.046562575 0.022443719 0.014048784 0.25445083 -0.36313489 0.89631903 0.0011664234
0.049538277 0.022308614 0.012930433 0.31377491 -0.42366326 0.84973806 0.0007979619
0.052012932 0.022862731 0.012333192 0.36350852 -0.44643712 0.81765246 0.001547641
0.054004285 0.023260647 0.012065657 0.37609056 -0.47036341 0.79831958 0.0015403847
-0.054380134 0.026570175 0.012178707 -0.51948035 -0.51653475 0.68068486 0.0017866
-0.052303616 0.025601514 0.012824368 -0.47978264 -0.51983714 0.70680833 0.0018712675
-0.049756557 0.025138622 0.014090355 -0.4225587 -0.46970633 0.77512592 0.0011675005
-0.047535174 0.024430824 0.014744603 -0.37176743 -0.44840097 0.8128503 0.0016131393
0.026027163 0.02546557 0.014838126 -0.048226453 0.21121071 0.97625011 0.00044850272
0.027704373 0.026484478 0.014665975 -0.0323737 0.18254223 0.98266488 0.0010565064
0.03056119 0.02620985 0.014994195 -0.046790615 0.18152693 0.98227221 0.0010003864
0.046983376 0.024784572 0.014753899 0.21978159 -0.27043575 0.93731558 0.0020625517
0.050107431 0.024963049 0.013831222 0.31124428 -0.37062564 0.87507921 0.0013191301
0.052948613 0.025099721 0.012940524 0.34925121 -0.39067408 0.85170269 0.00093717908
0.055039294 0.02582572 0.012500003 0.38451996 -0.37664443 0.84278315 0.0016345618
0.057193521 0.026822429 0.012117246 0.45587429 -0.40547022 0.79232103 0.0016543473
-0.057248682 0.029625826 0.012235145 -0.55711824 -0.43662292 0.70638496 0.0021353848
-0.055101261 0.028251829 0.012726996 -0.51783818 -0.45849952 0.72223395 0.0017527508
-0.052760765 0.02817205 0.014091866 -0.4391312 -0.39951244 0.80470717 0.00092196715
-0.050505046 0.027662698 0.014902734 -0.39127418 -0.3510991 0.85066676 0.0027671526
0.031268373 0.027893877 0.014483535 -0.052089538 0.17970252 0.98234093 0.0010476543
0.034814026 0.028754454 0.014777707 -0.049598981 0.14905234 0.98758459 0.0011524538
0.037137859 0.029495869 0.014673697 -0.041615773 0.14911561 0.98794365 0.00089886045
0.050108809 0.027998962 0.014736633 0.20208125 -0.14726877 0.96823293 0.0037551064
0.052658834 0.028118834 0.014130401 0.28428057 -0.24271889 0.92750859 0.0014581047
0.055882309 0.027870173 0.012809477 0.38233295 -0.34828576 0.85587299 0.001210127
0.057881661 0.028919905 0.012450469 0.43029737 -0.33011866 0.84015822 0.0014604083
-0.060166027 0.032858972 0.012027059 -0.55266106 -0.35586259 0.75360978 0.003523306
-0.057918057 0.031735972 0.012551934 -0.53957897 -0.36085331 0.76068348 0.0021256637
-0.055685014 0.031145446 0.013711049 -0.47184598 -0.30264941 0.82810909 0.0015465065
-0.053586118 0.030805934 0.014771058 -0.42177737 -0.26989818 0.86559743 0.0025867065
0.038978551 0.030158203 0.014714858 -0.072868071 0.23861964 0.96837544 0.00081049342
0.040999956 0.031017974 0.014692744 -0.042566579 0.21975012 0.97462708 0.0012044593
0.04352222 0.031218696 0.014863417 -0.07575658 0.20604852 0.97560495 0.0019696937
0.047254514 0.031986941 0.014950803 0.018734042 0.075202323 0.99699229 0.0013966032
0.050249614 0.031026721 0.014856619 0.14321506 -0.055486456 0.98813498 0.002512387
0.052783784 0.031287748 0.014615963 0.20376265 -0.095022127 0.97439808 0.0033959635
0.055818554 0.031163312 0.013858781 0.31218275 -0.18671964 0.93149221 0.0018832166
0.058746602 0.031254105 0.012703964 0.4108741 -0.24962537 0.87685215 0.0015174358
0.060625896 0.031774953 0.012217017 0.47032306 -0.27071524 0.83994609 0.0020917654
-0.06040328 0.035029925 0.01228665 -0.55806482 -0.26323983 0.7869361 0.0029351562
-0.058536425 0.034090206 0.013081115 -0.51503056 -0.24938421 0.82009214 0.0023173618
-0.056055047 0.03416156 0.014407493 -0.45366955 -0.23552264 0.85948414 0.0014085395
0.040963754 0.033681281 0.013740747 -0.085622109 0.23423211 0.96840292 0.00089051842
0.043652926 0.034310374 0.013974751 -0.082357064 0.21661185 0.97277778 0.0011465898
0.046213463 0.03407561 0.014563089 -0.024287235 0.17633517 0.98403049 0.00092625758
0.050098062 0.034818962 0.014654918 0.03082451 0.14907035 0.9883461 0.0018862365
0.052388426 0.033976797 0.014661887 0.11380129 0.045882806 0.9924435 0.0042650769
0.05504021 0.034318164 0.014270012 0.23019895 -0.06155945 0.97119457 0.0014553838
0.058189843 0.034209978 0.013408943 0.33402172 -0.13118745 0.93339127 0.0024229824
0.060661957 0.034109503 0.012544552 0.44614199 -0.2040652 0.87138671 0.0024501318
-0.060921796 0.037948862 0.012459749 -0.54398662 -0.19053663 0.81717455 0.0021409574
-0.058592618 0.037377063 0.013748456 -0.43025738 -0.077082708 0.89940917 0.0019248906
-0.056319412 0.037261128 0.014710419 -0.344861 -0.020179205 0.93843681 0.0037739312
0.049756527 0.037154116 0.013990329 0.022232924 0.15733373 0.98729515 0.0011650948
0.053171396 0.037479535 0.013906781 0.10880937 0.086774655 0.99026799 0.0039797006
0.055973724 0.037237436 0.014018131 0.17043278 0.024575984 0.98506284 0.0060509052
0.05839977 0.037384301 0.013571614 0.24531862 0.00028585855 0.96944243 0.0046077915
0.060980998 0.037003476 0.012773527 0.3811225 -0.12600797 0.91589719 0.0040804571
-0.061305352 0.040283035 0.012627752 -0.47623307 -0.031232027 0.87876427 0.0019934424
-0.058797535 0.040205747 0.013693175 -0.42437392 -0.021002606 0.9052434 0.0018618531
-0.056190025 0.040207975 0.014489644 -0.26236293 0.12358478 0.95702273 0.0024315552
-0.053462591 0.040835958 0.014503847 -0.21779582 0.1337866 0.96678132 0.002357818
0.055707444 0.039946165 0.013486756 0.1725546 0.054750822 0.98347712 0.0045001758
0.05844304 0.040726852 0.013226835 0.20430294 0.092482947 0.97452927 0.0017775169
0.061559744 0.040368073 0.012692115 0.31964213 0.057069361 0.94581819 0.004012703
0.063085184 0.039727107 0.01222016 0.41909662 0.035307363 0.90725493 0.0083095618
-0.061325461 0.043122206 0.012386365 -0.47206688 0.01735973 0.88139176 0.0014504017
-0.059587106 0.042754125 0.013047822 -0.39482892 0.03841912 0.91795105 0.0019781108
0.059197936 0.042428911 0.012853976 0.23460875 0.11623406 0.96511573 0.0027203623
0.061046463 0.043289144 0.012387283 0.23973897 0.12921908 0.96219939 0.0024360432
-0.021264521 0.011781772 0.015009698 -0.12925462 -0.60622364 0.78472042 0.0013649218
-0.018503657 0.011853821 0.015079536 -0.11460297 -0.55658364 0.82284921 0.0017114202
-0.016441241 0.011687313 0.015186831 -0.086335868 -0.53619301 0.83966851 0.00098490692
-0.013477188 0.011484159 0.015281647 -0.059249382 -0.52181339 0.85099965 0.0014591577
-0.01059809 0.01120337 0.015293518 -0.026924096 -0.48838672 0.87221181 0.0015628602
-0.0073816245 0.01131011 0.015363568 -0.0027634022 -0.46830794 0.88356102 0.0015646508
-0.0045921565 0.011234248 0.015312927 0.013696074 -0.43851799 0.89861804 0.0015071017
-0.0015333697 0.011277571 0.015256063 0.027484726 -0.43799824 0.89855558 0.0015405375
0.001583714 0.01117648 0.015210641 0.037032954 -0.41907468 0.90719622 0.0019105492
0.0039480506 0.011613317 0.015173084 0.045723192 -0.41973215 0.90649563 0.0013209578
0.0074627944 0.011675956 0.015184958 0.05476452 -0.36799321 0.92821431 0.0027796668
0.01000178 0.011463178 0.015089196 0.066918068 -0.42558169 0.9024424 0.0016199567
0.012636043 0.011780765 0.01503678 0.074001916 -0.40689564 0.91047215 0.00089356734
-0.030214204 0.014885225 0.015186605 -0.20477161 -0.58260149 0.78653926 0.0021042754
-0.027963718 0.014597784 0.015259766 -0.17617565 -0.56460351 0.80634052 0.0014351084
-0.025490945 0.014152859 0.015448456 -0.15151297 -0.54165959 0.82683051 0.0015999898
-0.02255686 0.01366774 0.015615647 -0.12245901 -0.51670891 0.84735805 0.0017111404
-0.019542165 0.013381607 0.015783988 -0.10143368 -0.48327863 0.86957049 0.0015049144
-0.016568955 0.013233836 0.015956884 -0.073041864 -0.46848997 0.88044429 0.0013128081
-0.013519729 0.013234556 0.016096627 -0.03478064 -0.42396957 0.90500832 0.0015098071
-0.0103832 0.012967882 0.016041506 -0.0094026942 -0.39352113 0.91926754 0.0013013455
-0.0075902147 0.012910359 0.015984833 0.0087158857 -0.38723192 0.92194116 0.0014966236
-0.0046158 0.0129204 0.015936011 0.020169353 -0.35058889 0.93631232 0.0011328335
-0.0014498794 0.012944164 0.015833739 0.030203152 -0.33330041 0.9423368 0.00098885619
0.0016974235 0.012894142 0.015687888 0.039432291 -0.3468889 0.93707699 0.0010780696
0.0048824758 0.01296291 0.015556272 0.045105066 -0.33777475 0.94014561 0.0011741286
0.0075995172 0.012868382 0.015393161 0.052948911 -0.3406485 0.93869859 0.0011118252
0.01042724 0.013275233 0.015448822 0.049607355 -0.28293973 0.95785403 0.0014590977
0.013335856 0.013753871 0.015399483 0.054108787 -0.30906084 0.94950181 0.0015315851
0.01645422 0.013853359 0.015232016 0.072077915 -0.31900835 0.94500721 0.0014408572
0.0190497 0.014465617 0.015204566 0.086654693 -0.34193185 0.9357208 0.0016568681
0.021491192 0.014414239 0.015094958 0.098315954 -0.34636131 0.93293506 0.0012301146
0.024087401 0.01451664 0.015009045 0.11911851 -0.39223003 0.91212195 0.0021356051
-0.036628496 0.017655034 0.015176246 -0.27156812 -0.55922627 0.7832731 0.0018692277
-0.034130897 0.017205361 0.01543545 -0.23751399 -0.53311127 0.81202185 0.0019311442
-0.03140559 0.016522709 0.01572733 -0.19635858 -0.51446044 0.83472967 0.0015494351
-0.028436875 0.016207365 0.016097087 -0.15697365 -0.49107173 0.85685927 0.0015737468
-0.025600389 0.016232971 0.016507721 -0.11616181 -0.4473173 0.88679963 0.0017354118
-0.02253107 0.01582798 0.016647387 -0.093871079 -0.42647818 0.89961356 0.0014348009
-0.020124558 0.015935114 0.016835412 -0.06700214 -0.38710621 0.91959751 0.0017199836
-0.016577888 0.016531512 0.017118897 -0.0063352576 -0.273038 0.96198237 0.0030250468
-0.013473627 0.016007924 0.016948545 -0.0014666247 -0.23278946 0.97252607 0.0033421339
-0.010588812 0.016209209 0.016894978 0.035040364 -0.18112767 0.98283517 0.0029988813
-0.0075220088 0.016214583 0.016812531 0.056711558 -0.11235639 0.99204832 0.0037589029
-0.0046713334 0.016034767 0.016573504 0.043715298 -0.16843314 0.98474318 0.0032294202
-0.001583728 0.016330903 0.016491653 0.043088127 -0.10286729 0.99376142 0.003673454
0.0014470913 0.016299468 0.016341761 0.054638069 -0.10381249 0.99309498 0.0038429133
0.0044843606 0.016392058 0.016206523 0.049073052 -0.083108112 0.99533147 0.0035644795
0.0075598019 0.016253926 0.016033377 0.039578915 -0.11171734 0.99295151 0.002540149
0.0102411 0.01618319 0.01598575 0.041727677 -0.086461864 0.99538088 0.0035118014
0.013567083 0.016070079 0.01578673 0.048173651 -0.1656464 0.98500794 0.0018614745
0.016375558 0.016347177 0.015751673 0.040734399 -0.12535425 0.99127549 0.0021492548
0.01954047 0.016101278 0.01548462 0.074252836 -0.22172305 0.97227848 0.0017641791
0.022717683 0.016347911 0.01541695 0.07118503 -0.22055309 0.97277391 0.0015443943
0.025326479 0.016435629 0.015238814 0.074644811 -0.26201588 0.96217245 0.0014816565
0.028420949 0.017172098 0.015191301 0.084894575 -0.29705143 0.95108008 0.0016852748
0.031067971 0.017647631 0.015113368 0.096702442 -0.29154533 0.9516564 0.0016693946
-0.042227332 0.020681312 0.015141935 -0.33796901 -0.53320569 0.77554417 0.0019382251
-0.040112074 0.020250013 0.015401116 -0.29793453 -0.5020569 0.81189519 0.0021337117
-0.037478797 0.019406926 0.015807295 -0.26023653 -0.48257768 0.83629882 0.0015308432
-0.034658201 0.019208921 0.016395602 -0.21020058 -0.4530603 0.86634409 0.0018779442
-0.031406835 0.019013187 0.016922392 -0.15632397 -0.39945257 0.90332747 0.0019733969
-0.029095875 0.019024152 0.01723467 -0.12980644 -0.36485493 0.92197138 0.0019019068
-0.025570188 0.019111153 0.017504919 -0.060958736 -0.2351974 0.97003412 0.0035642218
-0.022579953 0.019066732 0.017550206 -0.034165058 -0.20515259 0.97813356 0.0030993021
-0.019521851 0.019209566 0.017541368 0.029395455 -0.10265632 0.99428242 0.0024268762
-0.01643298 0.019082213 0.017382897 0.039009396 -0.087201171 0.99542665 0.0026979211
-0.013664297 0.018870471 0.017195072 0.055887721 -0.080974542 0.99514806 0.0033465717
-0.01056779 0.019081946 0.016992033 0.055501815 -0.039255574 0.99768656 0.0038532517
-0.0075347945 0.018653661 0.016788693 0.046346813 -0.06698817 0.9966768 0.0025943753
-0.0050930604 0.019132527 0.016484791 0.058401387 -0.0454555 0.99725777 0.0014222115
-0.0010764316 0.018909473 0.016339313 0.052421823 0.0031993426 0.99861991 0.0018622011
0.001082532 0.018687952 0.016219413 0.047590457 -0.035774104 0.99822617 0.0011346708
0.0045435904 0.019854303 0.015865613 0.035922401 0.063781217 0.99731719 0.0007896889
0.0076606255 0.019117741 0.015884386 0.034897447 -0.0012063247 0.99939013 0.0010041781
0.010753677 0.018720329 0.015914142 0.027016958 -0.019781457 0.9994393 0.0026813208
0.013804379 0.019134296 0.015817197 0.021790564 -0.010244552 0.99971002 0.002299851
0.01655612 0.019166926 0.01582698 0.034101509 -0.010073353 0.99936759 0.0026818812
0.019420693 0.019326121 0.015785536 0.040075801 -0.02327043 0.99892563 0.0031505011
0.022425285 0.01936684 0.015744809 0.029969582 -0.054986618 0.99803722 0.0026145447
0.025496265 0.019261956 0.015611849 0.050033517 -0.10861818 0.99282366 0.0015319461
0.028406478 0.01943651 0.01552676 0.039564591 -0.1129312 0.99281472 0.001366226
0.031636078 0.019502398 0.015313863 0.077485248 -0.20890151 0.9748621 0.0019561793
0.034443486 0.019978339 0.015217257 0.083407968 -0.25040463 0.96454167 0.0023056343
0.037418041 0.020556893 0.015214014 0.12653971 -0.28019798 0.95156544 0.0021729278
0.039436568 0.020888567 0.015222523 0.15325321 -0.2328593 0.96035939 0.0033324314
-0.045640763 0.023539035 0.015152184 -0.35835707 -0.46622232 0.80883682 0.0024111778
-0.043188993 0.022515992 0.015565579 -0.3284587 -0.46496141 0.82214707 0.00165239
-0.0406726 0.022185691 0.016201444 -0.27385983 -0.42613727 0.86221105 0.0016502769
-0.037610557 0.022143826 0.016957102 -0.22232191 -0.38179982 0.89710748 0.0019851241
-0.034946959 0.021978635 0.017369229 -0.1650452 -0.31350234 0.93513441 0.002029371
-0.031668615 0.022109065 0.017747426 -0.079662271 -0.1833144 0.97982126 0.0027521555
-0.028816497 0.0221489 0.017743422 -0.051575065 -0.16213058 0.98542053 0.0012328592
-0.025347305 0.022153707 0.017777493 0.017403552 -0.024161944 0.99955654 0.0018423209
-0.02296056 0.021746697 0.017682442 0.022620395 -0.042737413 0.9988302 0.0021520688
-0.019842951 0.022345565 0.017381657 0.064899005 0.052171294 0.99652708 0.0014290777
-0.017023597 0.022149246 0.017114507 0.067286253 -0.0040447419 0.99772549 0.0016527488
-0.012639012 0.021381997 0.016805459 0.057468817 0.039400041 0.9975695 0.0011162916
-0.0085574519 0.021263391 0.016586274 0.067517862 0.075045183 0.99489176 0.00073698943
0.008146653 0.021246407 0.015595363 0.026008263 0.12345988 0.99200869 0.00064376422
0.010498326 0.021140287 0.015632657 0.0030836943 0.10534704 0.99443078 0.00069580378
0.014089373 0.021236164 0.015303642 0.001576266 0.098018363 0.99518341 0.0017174039
0.017678507 0.021984408 0.015277238 -0.012190591 0.16890553 0.98555684 0.00073862204
0.020210257 0.021986961 0.015458713 0.011285628 0.022439754 0.99968457 0.0018860693
0.022437271 0.022170357 0.01559912 -0.010495137 0.079216905 0.99680215 0.0015605818
0.025563901 0.022001937 0.015649144 0.0061433353 0.0018909058 0.99997938 0.0021156825
0.028415618 0.022317387 0.015637156 0.0179439 1.7020773e-05 0.99983895 0.0019724378
0.031500574 0.022449806 0.01560188 0.016632073 -0.033233702 0.99930918 0.002109359
0.034650769 0.02231718 0.015553276 0.023106314 -0.063685246 0.99770248 0.0021910884
0.037503 0.022461923 0.015449102 0.053058196 -0.11123578 0.99237663 0.0016821668
0.040188305 0.022260936 0.01524803 0.11625694 -0.22479232 0.96744651 0.0024770969
0.042649552 0.023375176 0.015136223 0.1538156 -0.23792376 0.95902711 0.0038769348
-0.048551068 0.026341487 0.015332412 -0.35716605 -0.39157176 0.84799999 0.0025601096
-0.046406642 0.025366744 0.015707098 -0.32804191 -0.39551616 0.85787857 0.0019079064
-0.043569822 0.025267448 0.016545232 -0.26212996 -0.32327467 0.90927517 0.0018892365
-0.040899284 0.024907852 0.017090809 -0.22522481 -0.29421055 0.92882395 0.0022051295
-0.037622731 0.025095455 0.017679937 -0.1239998 -0.16579296 0.97833365 0.0026201881
-0.034705441 0.025251351 0.01779907 -0.032867413 -0.028934119 0.99904078 0.0027209409
-0.03133674 0.025313715 0.017803514 0.0020181092 0.0065936055 0.99997616 0.002146435
-0.028541351 0.024882169 0.017712824 0.027232219 0.031144561 0.99914384 0.0013237573
-0.025947392 0.024841506 0.017531294 0.057700422 0.074528918 0.99554813 0.0014035859
-0.023297859 0.02482184 0.017248508 0.06299071 0.067298159 0.9957425 0.00097729987
0.025340995 0.024260927 0.01530752 -0.024583891 0.099427685 0.99474102 0.0012457172
0.028664896 0.024709823 0.01523511 -0.032379802 0.18256475 0.98266053 0.0010587468
0.031743258 0.025335813 0.015390366 -0.00297117 0.058163788 0.9983027 0.0015578993
0.034382131 0.025202485 0.015496895 0.0019250849 0.036738362 0.99932307 0.0021858886
0.037549652 0.025502151 0.015515607 4.5677803e-05 0.024830064 0.99969167 0.0025359394
0.040603247 0.025246656 0.015498564 0.038867947 -0.053206991 0.99782676 0.001902502
0.043463629 0.025478281 0.015348248 0.075246297 -0.090191111 0.99307781 0.0023372478
