# .PCD v0.7 - Point Cloud Data file format
VERSION 0.7
FIELDS x y z
SIZE 4 4 4
TYPE F F F
COUNT 1 1 1
WIDTH 1267
HEIGHT 1
VIEWPOINT 0 0 0 1 0 0 0
POINTS 1267
DATA ascii
-0.02397359 -0.0075327042 0.24722359
-0.023426799 -0.0075251991 0.24697362
-0.0229159 -0.0075291181 0.24709859
-0.02241585 -0.0075368453 0.24734858
-0.021925859 -0.0075483792 0.24772353
-0.021423535 -0.007556105 0.2479735
-0.020930735 -0.0075676385 0.24834847
-0.020446673 -0.0075829811 0.24884841
-0.019970546 -0.0076021319 0.24947335
-0.019491827 -0.0076212822 0.25009829
-0.019010503 -0.0076404307 0.25072321
-0.018517369 -0.0076557724 0.25122315
-0.018013215 -0.0076673036 0.25159812
-0.017516199 -0.0076826429 0.25209805
-0.01706763 -0.0077208374 0.25334793
-0.075520992 -0.0075012399 0.2649717
-0.074804746 -0.0074871676 0.26447174
-0.074231267 -0.007487251 0.26447174
-0.073658071 -0.0074873376 0.26447174
-0.073085152 -0.007487427 0.26447174
-0.0725125 -0.0074875192 0.26447174
-0.071804121 -0.0074734599 0.26397181
-0.07106445 -0.0074558649 0.26334688
-0.070294268 -0.0074347318 0.26259694
-0.069593973 -0.00742068 0.262097
-0.068929002 -0.0074101677 0.26172203
-0.068331197 -0.0074067367 0.26159707
-0.067798935 -0.0074103847 0.26172203
-0.06726639 -0.007414035 0.26184702
-0.066765368 -0.0074212276 0.262097
-0.066389784 -0.0074425782 0.26284692
-0.065635607 -0.0074214623 0.262097
-0.06482283 -0.0073932693 0.2610971
-0.064106882 -0.0073756962 0.26047218
-0.063485317 -0.0073687411 0.2602222
-0.062895268 -0.0073653273 0.26009721
-0.062305987 -0.0073619154 0.25997221
-0.06168776 -0.0073549654 0.25972226
-0.061100245 -0.0073515568 0.25959727
-0.060455166 -0.0073410706 0.2592223
-0.059869677 -0.0073376652 0.25909731
-0.059170477 -0.0073201014 0.25847238
-0.058559183 -0.0073131579 0.2582224
-0.057977248 -0.0073097562 0.25809744
-0.057396024 -0.0073063551 0.25797245
-0.056815542 -0.0073029553 0.25784746
-0.056263052 -0.0073030959 0.25784746
-0.055710752 -0.0073032393 0.25784746
-0.055185363 -0.0073069227 0.25797245
-0.054659624 -0.0073106084 0.25809744
-0.054133523 -0.0073142941 0.2582224
-0.053581122 -0.0073144403 0.2582224
-0.052977581 -0.007307508 0.25797245
-0.052400671 -0.0073041157 0.25784746
-0.051774185 -0.007293642 0.25747249
-0.051174354 -0.0072867125 0.25722253
-0.050575733 -0.0072797816 0.25697255
-0.050002679 -0.0072763916 0.25684756
-0.049430311 -0.0072730016 0.25672257
-0.048834838 -0.0072660726 0.25647259
-0.048075866 -0.0072343559 0.25534773
-0.047391627 -0.0072132614 0.25459781
-0.046411749 -0.0071461308 0.25222304
-0.045692191 -0.0071179504 0.25122315
-0.04493212 -0.0070826891 0.2499733
-0.044088703 -0.0070332596 0.24822348
-0.039215587 -0.0070133568 0.24747357
-0.038845845 -0.0070418431 0.24847345
-0.03835633 -0.0070490791 0.24872343
-0.037865836 -0.0070563126 0.2489734
-0.037299436 -0.0070493775 0.24872343
-0.036660291 -0.0070282719 0.2479735
-0.035988007 -0.0070000798 0.24697362
-0.03506881 -0.0069222893 0.24422391
-0.032911256 -0.0069051529 0.24359898
-0.032610599 -0.0069513549 0.24522381
-0.032254081 -0.0069869296 0.24647367
-0.032021068 -0.0070508495 0.24872343
-0.031952694 -0.0071537462 0.25234804
-0.031433325 -0.0071574347 0.25247303
-0.030974701 -0.0071752975 0.25309795
-0.030062567 -0.0070868563 0.2499733
-0.029252352 -0.0070196716 0.24759854
-0.028582787 -0.0069843745 0.24634868
-0.028046733 -0.00698097 0.24622369
-0.02751128 -0.0069775633 0.24609871
-0.027031256 -0.0069883312 0.24647367
-0.026549708 -0.0069990978 0.24684863
-0.026251141 -0.0070594801 0.2489734
-0.025336284 -0.007098733 0.25034824
-0.024521625 -0.0070173526 0.24747357
-0.023949472 -0.0070033069 0.24697362
-0.023379495 -0.0069892588 0.24647367
-0.022881243 -0.0069964766 0.24672364
-0.02239331 -0.0070072371 0.24709859
-0.021892788 -0.0070144525 0.24734858
-0.021412851 -0.0070287562 0.24784853
-0.020920321 -0.0070395144 0.24822348
-0.020446789 -0.0070573599 0.24884841
-0.019970663 -0.0070752064 0.24947335
-0.019491941 -0.0070930514 0.25009829
-0.019010616 -0.0071108961 0.25072321
-0.018517485 -0.0071251951 0.25122315
-0.018022276 -0.0071394928 0.25172311
-0.017524993 -0.007153789 0.25222304
-0.017093001 -0.0071964464 0.25372291
-0.075521111 -0.0069370046 0.2649717
-0.074698821 -0.0069142645 0.2640968
-0.074196309 -0.0069209742 0.26434675
-0.073623389 -0.0069211433 0.26434675
-0.073085263 -0.0069245864 0.26447174
-0.072512642 -0.0069247601 0.26447174
-0.071736254 -0.0069052982 0.26372182
-0.070929669 -0.0068825646 0.26284692
-0.070194051 -0.0068663782 0.26222199
-0.06952773 -0.0068567367 0.26184702
-0.068863302 -0.006847098 0.26147208
-0.068233401 -0.0068407343 0.26122209
-0.067701966 -0.0068441904 0.26134709
-0.067106001 -0.0068411012 0.26122209
-0.066670001 -0.0068543791 0.26172203
-0.066074252 -0.0068512941 0.26159707
-0.065447979 -0.006844935 0.26134709
-0.064574748 -0.0068123876 0.26009721
-0.064045511 -0.0068158517 0.2602222
-0.063394003 -0.0068062223 0.25984725
-0.062804766 -0.0068031405 0.25972226
-0.062216289 -0.0068000588 0.25959727
-0.061598863 -0.0067937034 0.25934729
-0.061012153 -0.006790624 0.2592223
-0.060397029 -0.006784271 0.25897235
-0.059754316 -0.0067746434 0.25859737
-0.059113409 -0.0067650173 0.2582224
-0.058502663 -0.0067586647 0.25797245
-0.057893172 -0.0067523126 0.25772247
-0.057340574 -0.0067525101 0.25772247
-0.056760628 -0.006749433 0.25759748
-0.056208678 -0.0067496328 0.25759748
-0.05565691 -0.0067498311 0.25759748
-0.055132061 -0.0067533073 0.25772247
-0.054606859 -0.0067567816 0.25784746
-0.054055095 -0.0067569823 0.25784746
-0.05347757 -0.0067539075 0.25772247
-0.052875083 -0.0067475559 0.25747249
-0.052273851 -0.0067412066 0.25722253
-0.051648706 -0.0067315795 0.25684756
-0.051025327 -0.0067219525 0.25647259
-0.050452914 -0.0067188768 0.25634763
-0.049881194 -0.0067158001 0.25622264
-0.049334224 -0.0067160008 0.25622264
-0.048692215 -0.006703095 0.25572267
-0.048005439 -0.0066836365 0.25497276
-0.047275461 -0.0066576223 0.25397286
-0.046480916 -0.0066217789 0.25259802
-0.045669645 -0.0065826569 0.25109819
-0.044909824 -0.0065500839 0.24984831
-0.04435527 -0.0065470003 0.24972332
-0.043516252 -0.0065013166 0.2479735
-0.039701786 -0.0064829742 0.24722359
-0.039334588 -0.0065093809 0.24822348
-0.038865555 -0.0065194 0.24859844
-0.038375769 -0.0065261414 0.24884841
-0.037866004 -0.0065296027 0.2489734
-0.037318345 -0.0065265084 0.24884841
-0.036734369 -0.0065168585 0.24847345
-0.036115658 -0.0065006488 0.24784853
-0.035338182 -0.0064549334 0.24609871
-0.034550544 -0.0064059352 0.24422391
-0.033479683 -0.0063997288 0.24397394
-0.032962069 -0.0063999011 0.24397394
-0.032627378 -0.0064361389 0.24534878
-0.032254234 -0.0064658206 0.24647367
-0.032021228 -0.0065250127 0.24872343
-0.031952851 -0.0066202739 0.25234804
-0.03144905 -0.006627006 0.25259802
-0.030623045 -0.0065648742 0.25022328
-0.029792156 -0.0064994572 0.24772353
-0.02913437 -0.0064701093 0.24659866
-0.028539434 -0.0064538759 0.24597372
-0.028018409 -0.006454038 0.24597372
-0.027497455 -0.0064541991 0.24597372
-0.027017692 -0.0064641964 0.24634868
-0.026522972 -0.0064709135 0.24659866
-0.02622493 -0.0065268264 0.24872343
-0.025724255 -0.0065335426 0.2489734
-0.025285831 -0.0065566567 0.24984831
-0.024496993 -0.0064879293 0.24722359
-0.023889011 -0.0064651198 0.24634868
-0.023367777 -0.0064652674 0.24634868
-0.022869792 -0.0064719757 0.24659866
-0.022370795 -0.0064786817 0.24684863
-0.021881862 -0.0064886664 0.24722359
-0.021402186 -0.0065019303 0.24772353
-0.02092045 -0.0065151928 0.24822348
-0.020446919 -0.0065317354 0.24884841
-0.019970791 -0.0065482766 0.24947335
-0.019501809 -0.0065680975 0.25022328
-0.01902022 -0.0065846369 0.2508482
-0.018526819 -0.0065978928 0.25134814
-0.018031348 -0.0066111479 0.2518481
-0.017542489 -0.0066276835 0.25247303
-0.01710996 -0.0066671837 0.25397286
-0.075521328 -0.0063727666 0.2649717
-0.074734367 -0.0063549788 0.26422176
-0.074126355 -0.0063522225 0.2640968
-0.073588781 -0.0063554794 0.26422176
-0.073050953 -0.0063587376 0.26434675
-0.072375774 -0.0063499701 0.26397181
-0.071668476 -0.0063381973 0.26347184
-0.070828713 -0.0063143969 0.26247197
-0.070127346 -0.0063026226 0.26197201
-0.069428392 -0.0062908484 0.26147208
-0.0687977 -0.0062850895 0.26122209
-0.06816832 -0.0062793293 0.26097211
-0.067605034 -0.006279585 0.26097211
-0.067009874 -0.0062768334 0.26084712
-0.066383675 -0.0062710755 0.26059717
-0.065758787 -0.006265318 0.26034719
-0.065103896 -0.006256551 0.25997221
-0.064481884 -0.0062507931 0.25972226
-0.063861161 -0.0062450333 0.25947228
-0.06330274 -0.0062452913 0.25947228
-0.062744543 -0.0062455498 0.25947228
-0.062126637 -0.0062397905 0.2592223
-0.061539713 -0.0062370393 0.25909731
-0.060924135 -0.0062312814 0.25884736
-0.060280666 -0.0062225116 0.25847238
-0.059667904 -0.0062167514 0.2582224
-0.059027802 -0.0062079816 0.25784746
-0.05841786 -0.00620222 0.25759748
-0.057837252 -0.0061994661 0.25747249
-0.05728519 -0.0061997226 0.25747249
-0.05670578 -0.0061969701 0.25734749
-0.056127086 -0.0061942162 0.25722253
-0.055576127 -0.0061944718 0.25722253
-0.055025339 -0.0061947266 0.25722253
-0.054474741 -0.0061949813 0.25722253
-0.053924315 -0.006195236 0.25722253
-0.053348117 -0.0061924784 0.25709754
-0.052746974 -0.0061867107 0.25684756
-0.052121662 -0.0061779297 0.25647259
-0.051523261 -0.0061721606 0.25622264
-0.050926082 -0.0061663878 0.25597265
-0.050379343 -0.0061666383 0.25597265
-0.04983275 -0.0061668865 0.25597265
-0.049238183 -0.0061611114 0.25572267
-0.048644848 -0.0061553363 0.25547272
-0.047982123 -0.0061405241 0.25484776
-0.047182627 -0.0061076409 0.25347292
-0.046320144 -0.0060657179 0.25172311
-0.045556191 -0.0060358373 0.25047323
-0.044865102 -0.0060149902 0.24959834
-0.044311084 -0.0060122148 0.24947335
-0.04356033 -0.0059823263 0.24822348
-0.039943021 -0.0059174146 0.24547377
-0.039762206 -0.0059688594 0.24759854
-0.0393546 -0.0059871608 0.24834847
-0.038885303 -0.0059964219 0.24872343
-0.038356692 -0.0059966431 0.24872343
-0.037828196 -0.0059968624 0.24872343
-0.037299804 -0.0059970799 0.24872343
-0.03673457 -0.0059912694 0.24847345
-0.036115851 -0.0059764138 0.24784853
-0.035446063 -0.0059525166 0.24684863
-0.034798283 -0.0059316265 0.24597372
-0.034032412 -0.0058896369 0.24422391
-0.033548482 -0.0058958703 0.24447389
-0.033148006 -0.0059171719 0.24534878
-0.032660812 -0.0059234044 0.24559876
-0.032270778 -0.0059477212 0.24659866
-0.032021418 -0.0059991698 0.24872343
-0.031953037 -0.0060867956 0.25234804
-0.031449232 -0.0060930261 0.25259802
-0.030470265 -0.0060057919 0.2489734
-0.029642019 -0.0059456844 0.24647367
-0.029075481 -0.0059368289 0.24609871
-0.028525107 -0.0059309863 0.24584873
-0.028004348 -0.0059311721 0.24584873
-0.027483653 -0.005931356 0.24584873
-0.02697674 -0.0059345528 0.24597372
-0.026509693 -0.0059467945 0.24647367
-0.026198739 -0.0059952238 0.24847345
-0.025685679 -0.0059984168 0.24859844
-0.025210101 -0.0060106562 0.24909839
-0.024472386 -0.0059595583 0.24697362
-0.023877049 -0.0059416317 0.24622369
-0.023356082 -0.0059417984 0.24622369
-0.022846762 -0.0059449803 0.24634868
-0.022359619 -0.0059541916 0.24672364
-0.021882012 -0.0059664184 0.24722359
-0.021402337 -0.005978643 0.24772353
-0.020920601 -0.0059908661 0.24822348
-0.020447062 -0.0060061035 0.24884841
-0.019980943 -0.0060243569 0.24959834
-0.019501952 -0.0060395924 0.25022328
-0.019020364 -0.0060548256 0.2508482
-0.018536171 -0.0060700565 0.25147313
-0.018040439 -0.0060822703 0.25197309
-0.017559994 -0.0061005149 0.25272301
-0.017126938 -0.0061368612 0.25422284
-0.016736517 -0.0061913095 0.25647259
-0.076312117 -0.0058246311 0.26572162
-0.075272255 -0.0057893456 0.2640968
-0.074522547 -0.0057759774 0.26347184
-0.073986314 -0.0057790489 0.26359683
-0.073449835 -0.0057821213 0.26372182
-0.07287854 -0.0057824533 0.26372182
-0.072170451 -0.0057718246 0.26322189
-0.07146477 -0.0057611912 0.26272193
-0.070761539 -0.0057505593 0.26222199
-0.070060715 -0.0057399264 0.26172203
-0.069362313 -0.0057292916 0.26122209
-0.06873215 -0.0057241376 0.26097211
-0.068103336 -0.0057189842 0.26072216
-0.067508206 -0.0057165716 0.26059717
-0.066881746 -0.0057114158 0.26034719
-0.066288456 -0.0057090013 0.2602222
-0.06560123 -0.00569836 0.25972226
-0.064947672 -0.0056904587 0.25934729
-0.064358041 -0.0056880414 0.2592223
-0.063769184 -0.0056856251 0.25909731
-0.063211553 -0.0056859483 0.25909731
-0.062654167 -0.0056862729 0.25909731
-0.062067028 -0.0056838533 0.25897235
-0.061450951 -0.0056786882 0.25872236
-0.060836166 -0.0056735235 0.25847238
-0.060222648 -0.0056683565 0.2582224
-0.059581552 -0.0056604454 0.25784746
-0.058970865 -0.0056552757 0.25759748
-0.058361452 -0.0056501036 0.25734749
-0.057781383 -0.0056476756 0.25722253
-0.057229862 -0.0056479913 0.25722253
-0.056623437 -0.0056428146 0.25697255
-0.056072831 -0.0056431289 0.25697255
-0.055495389 -0.0056406949 0.25684756
-0.054918665 -0.0056382599 0.25672257
-0.054369133 -0.0056385696 0.25672257
-0.053793583 -0.0056361328 0.25659758
-0.053218722 -0.0056336927 0.25647259
-0.052644588 -0.0056312536 0.25634763
-0.052045751 -0.0056260652 0.25609764
-0.051448137 -0.0056208749 0.25584766
-0.050876621 -0.0056184297 0.25572267
-0.050305814 -0.0056159822 0.25559768
-0.049784362 -0.0056190263 0.25572267
-0.049166266 -0.0056110835 0.25534773
-0.048597515 -0.0056086299 0.25522274
-0.047935326 -0.0055951891 0.25459781
-0.04708983 -0.0055597685 0.25297296
-0.046159409 -0.0055133551 0.2508482
-0.045465522 -0.0054944078 0.2499733
-0.044820424 -0.0054809502 0.24934836
-0.044178143 -0.0054674917 0.24872343
-0.043604448 -0.0054622712 0.24847345
-0.039943263 -0.0053979196 0.24547377
-0.039802589 -0.0054504015 0.24784853
-0.03937465 -0.0054644044 0.24847345
-0.038885538 -0.0054701595 0.24872343
-0.038356934 -0.0054704165 0.24872343
-0.037828434 -0.0054706712 0.24872343
-0.037262551 -0.0054654232 0.24847345
-0.036697842 -0.0054601748 0.24822348
-0.036116082 -0.0054521728 0.24784853
-0.035500128 -0.0054386701 0.24722359
-0.034904599 -0.0054279123 0.24672364
-0.034241635 -0.0054061539 0.24572375
-0.033703059 -0.0054036388 0.24559876
-0.033198886 -0.0054066228 0.24572375
-0.032760754 -0.0054206052 0.24634868
-0.032287348 -0.0054290849 0.24672364
-0.032053806 -0.0054788194 0.2489734
-0.031969082 -0.0055560619 0.25247303
-0.031433888 -0.00555629 0.25247303
-0.03039399 -0.0054657408 0.24834847
-0.029612157 -0.0054191947 0.24622369
-0.02904615 -0.0054111569 0.24584873
-0.028510805 -0.0054086177 0.24572375
-0.027990304 -0.0054088272 0.24572375
-0.027469877 -0.0054090344 0.24572375
-0.026949517 -0.0054092379 0.24572375
-0.026496438 -0.0054231971 0.24634868
-0.026159395 -0.0054619187 0.24809849
-0.025647122 -0.0054648682 0.24822348
-0.025134388 -0.0054678163 0.24834847
-0.024447799 -0.0054322346 0.24672364
-0.023877226 -0.0054214154 0.24622369
-0.023356259 -0.0054216017 0.24622369
-0.022835346 -0.0054217861 0.24622369
-0.022348465 -0.0054302234 0.24659866
-0.021871116 -0.00544141 0.24709859
-0.021391703 -0.0054525952 0.24759854
-0.020920763 -0.0054665315 0.24822348
-0.020457497 -0.0054832171 0.2489734
-0.019991109 -0.0054999026 0.24972332
-0.019511847 -0.0055138315 0.25034824
-0.01902999 -0.005527759 0.25097319
-0.018536324 -0.0055389316 0.25147313
-0.018049531 -0.0055528544 0.25209805
-0.01757751 -0.0055722822 0.25297296
-0.017127084 -0.0055999667 0.25422284
-0.016728509 -0.0056469236 0.25634763
-0.075917631 -0.0052314913 0.26434675
-0.075023256 -0.0052096448 0.26322189
-0.074346162 -0.0052026371 0.26284692
-0.073741131 -0.005200576 0.26272193
-0.073171735 -0.0052009877 0.26272193
-0.0726026 -0.0052013998 0.26272193
-0.072033741 -0.0052018105 0.26272193
-0.071261153 -0.0051873722 0.26197201
-0.070626989 -0.0051828288 0.26172203
-0.06992726 -0.0051733358 0.26122209
-0.069263108 -0.005166315 0.26084712
-0.068600856 -0.0051592924 0.26047218
-0.068005748 -0.0051572183 0.26034719
-0.06741143 -0.0051551443 0.2602222
-0.066785797 -0.0051505915 0.25997221
-0.066161461 -0.0051460378 0.25972226
-0.065538451 -0.0051414813 0.25947228
-0.064885437 -0.0051344461 0.25909731
-0.064265318 -0.0051298863 0.25884736
-0.063708015 -0.0051302793 0.25884736
-0.063120432 -0.0051281918 0.25872236
-0.062563837 -0.0051285811 0.25872236
-0.062007476 -0.0051289694 0.25872236
-0.061391931 -0.0051244004 0.25847238
-0.060777679 -0.0051198285 0.2582224
-0.060193866 -0.0051177349 0.25809744
-0.059524138 -0.0051082014 0.25759748
-0.058913983 -0.0051036226 0.25734749
-0.058305107 -0.0050990419 0.25709754
-0.057725582 -0.0050969385 0.25697255
-0.057146784 -0.0050948323 0.25684756
-0.05656869 -0.0050927238 0.25672257
-0.055991344 -0.0050906129 0.25659758
-0.055414714 -0.0050885016 0.25647259
-0.054838791 -0.0050863875 0.25634763
-0.054263592 -0.0050842715 0.25622264
-0.053715307 -0.0050846324 0.25622264
-0.053141255 -0.0050825118 0.25609764
-0.052567903 -0.0050803875 0.25597265
-0.051969875 -0.0050757816 0.25572267
-0.051373065 -0.005071172 0.25547272
-0.050802361 -0.0050690416 0.25534773
-0.050256941 -0.0050693895 0.25534773
-0.049736015 -0.0050722165 0.25547272
-0.049142521 -0.0050675981 0.25522274
-0.048597839 -0.0050679394 0.25522274
-0.04793565 -0.005055869 0.25459781
-0.04702035 -0.0050164899 0.25259802
-0.046044718 -0.0049696565 0.25022328
-0.045397624 -0.0049575698 0.24959834
-0.044753335 -0.0049454793 0.2489734
-0.044178441 -0.004940833 0.24872343
-0.043604743 -0.0049361838 0.24847345
-0.042577218 -0.0048793857 0.24559876
-0.039943535 -0.0048784162 0.24547377
-0.039802868 -0.0049259099 0.24784853
-0.039355122 -0.0049361428 0.24834847
-0.038846735 -0.00493892 0.24847345
-0.038337927 -0.0049416958 0.24859844
-0.037790678 -0.0049394998 0.24847345
-0.037244074 -0.0049373009 0.24834847
-0.036698103 -0.0049350988 0.24822348
-0.036116347 -0.0049279239 0.24784853
-0.035536282 -0.0049207448 0.24747357
-0.034957901 -0.0049135615 0.24709859
-0.034346383 -0.0049014054 0.24647367
-0.03380622 -0.0048991856 0.24634868
-0.033266675 -0.0048969635 0.24622369
-0.032794237 -0.0049046823 0.24659866
-0.032287586 -0.004907426 0.24672364
-0.032070145 -0.0049549188 0.24909839
-0.032000985 -0.0050272765 0.25272301
-0.03143413 -0.0050225588 0.25247303
-0.030363629 -0.0049357819 0.24809849
-0.029582325 -0.0048937532 0.24597372
-0.029031606 -0.0048890193 0.24572375
-0.028496528 -0.0048867688 0.24559876
-0.027990526 -0.0048894887 0.24572375
-0.027470091 -0.0048897187 0.24572375
-0.026949732 -0.0048899455 0.24572375
-0.02648321 -0.0049001188 0.24622369
-0.026120067 -0.0049301889 0.24772353
-0.025595672 -0.0049304082 0.24772353
-0.025083993 -0.0049331118 0.24784853
-0.024435615 -0.0049084467 0.24659866
-0.023865301 -0.0048987032 0.24609871
-0.023356453 -0.004901397 0.24622369
-0.022835534 -0.0049015973 0.24622369
-0.022337327 -0.0049067736 0.24647367
-0.02186024 -0.0049169213 0.24697362
-0.021391885 -0.0049295551 0.24759854
-0.020920945 -0.0049421871 0.24822348
-0.020457676 -0.0049573057 0.2489734
-0.019991281 -0.0049724206 0.24972332
-0.019521764 -0.0049875341 0.25047323
-0.019030163 -0.0049976674 0.25097319
-0.018545704 -0.0050102868 0.25159812
-0.018058646 -0.005022903 0.25222304
-0.017568985 -0.0050355173 0.252848
-0.017110398 -0.0050580846 0.25397286
-0.016687881 -0.0050930972 0.25572267
-0.076672994 -0.0046790154 0.2649717
-0.07552325 -0.0046442011 0.26297191
-0.074952476 -0.0046446999 0.26297191
-0.074169859 -0.0046319501 0.26222199
-0.073566183 -0.0046302369 0.262097
-0.072963327 -0.0046285209 0.26197201
-0.072395809 -0.0046290108 0.26197201
-0.071794301 -0.004627292 0.26184702
-0.071159624 -0.0046233619 0.26159707
-0.070492521 -0.0046172184 0.26122209
-0.069827326 -0.0046110731 0.26084712
-0.069163986 -0.0046049249 0.26047218
-0.068502523 -0.0045987736 0.26009721
-0.06790825 -0.0045970394 0.25997221
-0.067314729 -0.0045953025 0.25984725
-0.066786207 -0.0045979843 0.25997221
-0.06619373 -0.0045962436 0.25984725
-0.0655073 -0.0045878673 0.25934729
-0.06482327 -0.0045794877 0.25884736
-0.064234704 -0.0045777378 0.25872236
-0.063616142 -0.0045737741 0.25847238
-0.063059874 -0.0045742318 0.25847238
-0.062503815 -0.0045746868 0.25847238
-0.061947983 -0.0045751398 0.25847238
-0.061362661 -0.0045733773 0.25834739
-0.060719252 -0.0045671873 0.25797245
-0.060135975 -0.0045654201 0.25784746
-0.059466779 -0.0045570098 0.25734749
-0.058857176 -0.0045530237 0.25709754
-0.058248825 -0.0045490325 0.25684756
-0.05766983 -0.0045472528 0.25672257
-0.057091553 -0.0045454698 0.25659758
-0.056514025 -0.0045436844 0.25647259
-0.05590992 -0.0045396811 0.25622264
-0.055334099 -0.0045378907 0.25609764
-0.05475897 -0.004536096 0.25597265
-0.054211035 -0.0045365132 0.25597265
-0.05363708 -0.004534713 0.25584766
-0.053063828 -0.0045329095 0.25572267
-0.052491285 -0.0045311032 0.25559768
-0.051894043 -0.004527078 0.25534773
-0.051323175 -0.0045252652 0.25522274
-0.050728124 -0.0045212326 0.25497276
-0.05020811 -0.0045238468 0.25509775
-0.049687721 -0.0045264577 0.25522274
-0.049142882 -0.0045268494 0.25522274
-0.048574403 -0.0045250221 0.25509775
-0.047865409 -0.0045098867 0.25422284
-0.046974167 -0.0044770068 0.25234804
-0.045976076 -0.0044330298 0.24984831
-0.045284301 -0.0044178739 0.2489734
-0.04470874 -0.0044138031 0.24872343
-0.044178773 -0.004414164 0.24872343
-0.043561205 -0.0044056498 0.24822348
-0.042599209 -0.0043616327 0.24572375
-0.039943852 -0.004358904 0.24547377
-0.039783113 -0.0043991888 0.24772353
-0.039335627 -0.0044084005 0.24822348
-0.03884704 -0.0044131689 0.24847345
-0.038318954 -0.0044134944 0.24847345
-0.037771981 -0.0044115987 0.24834847
-0.03722563 -0.0044096969 0.24822348
-0.036679927 -0.0044077933 0.24809849
-0.036116637 -0.0044036638 0.24784853
-0.035554521 -0.0043995315 0.24759854
-0.034940507 -0.0043887314 0.24697362
-0.034346666 -0.0043801479 0.24647367
-0.033789344 -0.0043760017 0.24622369
-0.03326695 -0.0043762946 0.24622369
-0.03274465 -0.0043765847 0.24622369
-0.032304224 -0.0043879803 0.24684863
-0.032070417 -0.0044282572 0.24909839
-0.032001253 -0.00449298 0.25272301
-0.03148108 -0.0044954843 0.252848
-0.030394485 -0.0044157598 0.24834847
-0.029567547 -0.0043715811 0.24584873
-0.028987555 -0.0043629548 0.24534878
-0.028482271 -0.0043654377 0.24547377
-0.027976532 -0.0043679178 0.24559876
-0.02745636 -0.0043681706 0.24559876
-0.02694997 -0.0043706433 0.24572375
-0.02647 -0.0043775588 0.24609871
-0.026080765 -0.0044000349 0.24734858
-0.025557162 -0.0044002747 0.24734858
-0.025033621 -0.0044005108 0.24734858
-0.02442345 -0.004385177 0.24647367
-0.023865519 -0.0043787332 0.24609871
-0.023344807 -0.0043789567 0.24609871
-0.022835741 -0.0043814001 0.24622369
-0.022337532 -0.0043860651 0.24647367
-0.021860445 -0.0043951739 0.24697362
-0.021392085 -0.0044065048 0.24759854
-0.020921141 -0.0044178329 0.24822348
-0.020468138 -0.0044336068 0.24909839
-0.020001475 -0.0044471542 0.24984831
-0.01952195 -0.0044584731 0.25047323
-0.019039825 -0.00446979 0.25109819
-0.018545887 -0.0044788774 0.25159812
-0.018058823 -0.0044901883 0.25222304
-0.017569158 -0.004501495 0.252848
-0.017093731 -0.0045172488 0.25372291
-0.016639108 -0.0045396755 0.25497276
-0.016195025 -0.0045665512 0.25647259
-0.075487897 -0.0040821675 0.26284692
-0.074810512 -0.004076926 0.26247197
-0.074064337 -0.0040677967 0.26184702
-0.073461458 -0.00406643 0.26172203
-0.072859429 -0.0040650615 0.26159707
-0.072258189 -0.0040636887 0.26147208
-0.071657754 -0.0040623136 0.26134709
-0.071024135 -0.004058993 0.2610971
-0.07035815 -0.0040537254 0.26072216
-0.069694012 -0.0040484522 0.26034719
-0.069031745 -0.0040431754 0.25997221
-0.068404302 -0.0040398398 0.25972226
-0.067810811 -0.0040384438 0.25959727
-0.067347609 -0.0040448229 0.25997221
-0.066658296 -0.004037587 0.25947228
-0.066194251 -0.0040439637 0.25984725
-0.065476231 -0.0040347739 0.2592223
-0.064792469 -0.0040275254 0.25872236
-0.064204179 -0.0040261098 0.25859737
-0.063555107 -0.0040207976 0.2582224
-0.06296888 -0.004019375 0.25809744
-0.062383406 -0.0040179482 0.25797245
-0.061828636 -0.004018466 0.25797245
-0.061274078 -0.0040189791 0.25797245
-0.060690328 -0.0040175435 0.25784746
-0.060019847 -0.0040102606 0.25734749
-0.059409495 -0.0040068682 0.25709754
-0.0587718 -0.0040015238 0.25672257
-0.058164258 -0.0039981236 0.25647259
-0.057557985 -0.0039947187 0.25622264
-0.056980774 -0.0039932588 0.25609764
-0.056404315 -0.0039917957 0.25597265
-0.05582856 -0.0039903284 0.25584766
-0.055253528 -0.0039888578 0.25572267
-0.05470594 -0.0039893328 0.25572267
-0.054158535 -0.0039898045 0.25572267
-0.053585108 -0.0039883219 0.25559768
-0.053012393 -0.0039868373 0.25547272
-0.05244039 -0.0039853486 0.25534773
-0.051843669 -0.0039819032 0.25509775
-0.051273327 -0.0039804061 0.25497276
-0.050678808 -0.0039769532 0.25472277
-0.050183933 -0.003981303 0.25497276
-0.049639471 -0.0039817458 0.25497276
-0.049095161 -0.0039821849 0.25497276
-0.048551012 -0.0039826217 0.25497276
-0.047818746 -0.0039674342 0.25397286
-0.046765167 -0.0039249016 0.25122315
-0.045861468 -0.0038940741 0.24922338
-0.045239221 -0.0038866734 0.24872343
-0.044686656 -0.0038851276 0.24859844
-0.044156954 -0.0038855304 0.24859844
-0.043517713 -0.0038761625 0.2479735
-0.042382903 -0.003821848 0.24447389
-0.039944205 -0.0038393794 0.24547377
-0.039763391 -0.0038729846 0.24759854
-0.039335977 -0.0038831292 0.24822348
-0.038827848 -0.0038854496 0.24834847
-0.038319305 -0.0038877667 0.24847345
-0.037791327 -0.0038881246 0.24847345
-0.037263453 -0.0038884783 0.24847345
-0.036698736 -0.003884916 0.24822348
-0.036116965 -0.0038793923 0.24784853
-0.035554841 -0.0038758209 0.24759854
-0.034940828 -0.0038663738 0.24697362
-0.034346983 -0.003858878 0.24647367
-0.033789661 -0.0038552913 0.24622369
-0.033267256 -0.0038556138 0.24622369
-0.032794818 -0.0038618052 0.24659866
-0.032304522 -0.0038660346 0.24684863
-0.032086805 -0.0039035403 0.24922338
-0.032033198 -0.0039625843 0.25297296
-0.031528056 -0.0039668111 0.25322294
-0.030425362 -0.0038946678 0.24859844
-0.02959789 -0.0038557998 0.24609871
-0.028987831 -0.0038443385 0.24534878
-0.028482543 -0.0038465823 0.24547377
-0.027962558 -0.0038468619 0.24547377
-0.027456623 -0.0038490975 0.24559876
-0.026950231 -0.0038513283 0.24572375
-0.026456809 -0.0038555136 0.24597372
-0.025962409 -0.0038596964 0.24622369
-0.025492838 -0.0038677941 0.24672364
-0.024932668 -0.003862171 0.24634868
-0.024386534 -0.003858503 0.24609871
-0.023865754 -0.0038587495 0.24609871
-0.023345042 -0.0038589928 0.24609871
-0.022847563 -0.0038631503 0.24634868
-0.022349084 -0.0038673037 0.24659866
-0.021860661 -0.0038734144 0.24697362
-0.021392301 -0.0038834419 0.24759854
-0.020921353 -0.0038934662 0.24822348
-0.020468347 -0.0039074076 0.24909839
-0.020011688 -0.0039213458 0.2499733
-0.019522151 -0.0039293999 0.25047323
-0.019040016 -0.0039394093 0.25109819
-0.018546078 -0.0039474554 0.25159812
-0.01805006 -0.0039554974 0.25209805
-0.017560663 -0.0039654979 0.25272301
-0.017077072 -0.0039774543 0.25347292
-0.016606662 -0.0039933305 0.25447282
-0.016147848 -0.0040131267 0.25572267
-0.075632103 -0.0035290292 0.26334688
-0.074633002 -0.0035095932 0.26184702
-0.074029587 -0.0035085788 0.26172203
-0.073391914 -0.0035058851 0.26147208
-0.07275559 -0.0035031855 0.26122209
-0.072189711 -0.0035038355 0.26122209
-0.071555555 -0.0035011282 0.26097211
-0.070922732 -0.0034984159 0.26072216
-0.070257537 -0.0034940219 0.26034719
-0.069594227 -0.0034896228 0.25997221
-0.068932772 -0.0034852186 0.25959727
-0.068306118 -0.0034824875 0.25934729
-0.067778744 -0.0034847872 0.25947228
-0.067218676 -0.0034854054 0.25947228
-0.066851526 -0.0034960953 0.2602222
-0.066226639 -0.0034933486 0.25997221
-0.065634653 -0.0034922778 0.25984725
-0.064824328 -0.0034794414 0.25884736
-0.064049572 -0.0034682781 0.25797245
-0.06346339 -0.0034671905 0.25784746
-0.062847465 -0.0034644182 0.25759748
-0.06226306 -0.0034633218 0.25747249
-0.061709363 -0.0034639025 0.25747249
-0.061126187 -0.003462798 0.25734749
-0.060543768 -0.003461689 0.25722253
-0.059932932 -0.0034588932 0.25697255
-0.059265614 -0.0034527273 0.25647259
-0.058657873 -0.0034499215 0.25622264
-0.058079742 -0.0034487932 0.25609764
-0.057474274 -0.0034459778 0.25584766
-0.056897871 -0.0034448407 0.25572267
-0.056294661 -0.0034420155 0.25547272
-0.055747248 -0.0034425533 0.25547272
-0.055200018 -0.003443087 0.25547272
-0.054652974 -0.0034436174 0.25547272
-0.054106105 -0.0034441436 0.25547272
-0.053559408 -0.0034446653 0.25547272
-0.052961014 -0.0034418115 0.25522274
-0.052389532 -0.0034406388 0.25509775
-0.051793348 -0.0034377757 0.25484776
-0.051223531 -0.0034365938 0.25472277
-0.050654426 -0.0034354073 0.25459781
-0.050135199 -0.0034375887 0.25472277
-0.049639937 -0.0034414541 0.25497276
-0.049071554 -0.0034402541 0.25484776
-0.04855147 -0.003442425 0.25497276
-0.047772132 -0.0034260268 0.25372291
-0.046579488 -0.0033792378 0.25022328
-0.045792896 -0.0033611292 0.24884841
-0.045216925 -0.0033582072 0.24859844
-0.044687085 -0.003358657 0.24859844
-0.044135179 -0.0033574139 0.24847345
-0.043474261 -0.0033477205 0.24772353
-0.039903928 -0.0033164616 0.24522381
-0.039703563 -0.0033439151 0.24722359
-0.039296743 -0.0033544633 0.2479735
-0.038828231 -0.0033599376 0.24834847
-0.03830041 -0.0033603341 0.24834847
-0.037791695 -0.0033624172 0.24847345
-0.037263818 -0.0033628051 0.24847345
-0.036736056 -0.0033631884 0.24847345
-0.036099114 -0.0033534155 0.24772353
-0.035555195 -0.0033520958 0.24759854
-0.034852762 -0.0033355413 0.24634868
-0.034277655 -0.0033308254 0.24597372
-0.033721387 -0.0033277965 0.24572375
-0.033200044 -0.0033281476 0.24572375
-0.032778531 -0.0033386534 0.24647367
-0.032288488 -0.0033423824 0.24672364
-0.032119311 -0.0033799752 0.24947335
-0.032049354 -0.0034294261 0.25309795
-0.031512819 -0.0034297644 0.25309795
-0.030716315 -0.0034013013 0.25097319
-0.029643292 -0.003340642 0.24647367
-0.029017663 -0.0033290971 0.24559876
-0.028482836 -0.0033277117 0.24547377
-0.027962847 -0.0033280158 0.24547377
-0.027456908 -0.00333001 0.24559876
-0.026936799 -0.0033303041 0.24559876
-0.026430201 -0.0033322889 0.24572375
-0.025923144 -0.0033342694 0.24584873
-0.025428535 -0.0033379402 0.24609871
-0.024907634 -0.0033382159 0.24609871
-0.024374401 -0.0033367912 0.24597372
-0.023878133 -0.0033404487 0.24622369
-0.023357145 -0.00334071 0.24622369
-0.022859398 -0.0033443579 0.24647367
-0.022360649 -0.003348002 0.24672364
-0.021871962 -0.0033533373 0.24709859
-0.021392534 -0.0033603646 0.24759854
-0.020932112 -0.003370781 0.24834847
-0.020478839 -0.00338289 0.24922338
-0.020011909 -0.0033932996 0.2499733
-0.019532111 -0.0034020087 0.25059822
-0.019040231 -0.0034090162 0.25109819
-0.018546285 -0.0034160195 0.25159812
-0.018050265 -0.0034230186 0.25209805
-0.017552171 -0.003430014 0.25259802
-0.017060421 -0.0034387023 0.25322294
-0.016590539 -0.003452478 0.25422284
-0.016148033 -0.0034730397 0.25572267
-0.075740509 -0.0029723374 0.26372182
-0.074562468 -0.0029491368 0.26159707
-0.073959582 -0.0029484702 0.26147208
-0.073322438 -0.0029463891 0.26122209
-0.072721474 -0.002945713 0.2610971
-0.072155856 -0.002946442 0.2610971
-0.071487688 -0.0029429346 0.26072216
-0.070855431 -0.0029408322 0.26047218
-0.070157036 -0.0029359011 0.25997221
-0.069494523 -0.0029323748 0.25959727
-0.068833873 -0.0029288423 0.2592223
-0.068240955 -0.0029281282 0.25909731
-0.067714095 -0.0029302347 0.2592223
-0.067186959 -0.0029323385 0.25934729
-0.066916391 -0.0029457461 0.26047218
-0.066418335 -0.0029492583 0.26072216
-0.065887868 -0.0029513533 0.26084712
-0.064856268 -0.002930813 0.25897235
-0.063988134 -0.0029173321 0.25772247
-0.063371718 -0.0029151614 0.25747249
-0.062787093 -0.0029144008 0.25734749
-0.062173001 -0.0029122194 0.25709754
-0.06153024 -0.0029086161 0.25672257
-0.060948666 -0.0029078387 0.25659758
-0.060367852 -0.0029070564 0.25647259
-0.05975863 -0.0029048522 0.25622264
-0.059179563 -0.0029040594 0.25609764
-0.05857262 -0.0029018435 0.25584766
-0.057966944 -0.0028996218 0.25559768
-0.057390619 -0.002898813 0.25547272
-0.056787211 -0.0028965801 0.25522274
-0.056240145 -0.0028971792 0.25522274
-0.055693265 -0.0028977729 0.25522274
-0.055146556 -0.002898362 0.25522274
-0.054600045 -0.0028989469 0.25522274
-0.054053709 -0.0028995269 0.25522274
-0.053507544 -0.0029001015 0.25522274
-0.052935619 -0.0028992514 0.25509775
-0.052364398 -0.0028983955 0.25497276
-0.051768482 -0.0028961138 0.25472277
-0.051173799 -0.002893826 0.25447282
-0.050630078 -0.002894375 0.25447282
-0.050111126 -0.002896342 0.25459781
-0.04959178 -0.0028983033 0.25472277
-0.049072061 -0.0029002605 0.25484776
-0.048528168 -0.0029007911 0.25484776
-0.047725566 -0.0028856641 0.25347292
-0.046556704 -0.0028477567 0.25009829
-0.045770377 -0.0028326048 0.24872343
-0.045217399 -0.0028316788 0.24859844
-0.044665083 -0.0028307477 0.24847345
-0.044135641 -0.0028312353 0.24847345
-0.043430857 -0.0028203232 0.24747357
-0.042167071 -0.0027723608 0.24322401
-0.040013909 -0.0027684802 0.24272408
-0.039904349 -0.0027974378 0.24522381
-0.039683919 -0.0028192699 0.24709859
-0.039297163 -0.0028296937 0.2479735
-0.038809106 -0.0028329832 0.24822348
-0.038339365 -0.0028376947 0.24859844
-0.037868146 -0.0028424028 0.2489734
-0.037376698 -0.0028456801 0.24922338
-0.036773413 -0.0028403883 0.24872343
-0.036245216 -0.0028408002 0.24872343
-0.035519678 -0.0028255014 0.24734858
-0.034764729 -0.0028073376 0.24572375
-0.034208357 -0.0028048726 0.24547377
-0.03368745 -0.0028052579 0.24547377
-0.033166632 -0.0028056386 0.24547377
-0.032679155 -0.0028088714 0.24572375
-0.032288842 -0.0028206734 0.24672364
-0.032151852 -0.0028553379 0.24972332
-0.032081366 -0.0028971531 0.25334793
-0.031544287 -0.0028975185 0.25334793
-0.031007299 -0.0028978786 0.25334793
-0.029914204 -0.0028453309 0.24872343
-0.029032756 -0.0028113537 0.24572375
-0.028483154 -0.0028088267 0.24547377
-0.02796316 -0.0028091541 0.24547377
-0.027457217 -0.0028109076 0.24559876
-0.026937105 -0.0028112251 0.24559876
-0.026430499 -0.0028129672 0.24572375
-0.025910256 -0.0028132738 0.24572375
-0.025415909 -0.002816437 0.24597372
-0.024895269 -0.0028167334 0.24597372
-0.024399454 -0.0028198869 0.24622369
-0.023866283 -0.0028187409 0.24609871
-0.023357412 -0.0028204524 0.24622369
-0.022859663 -0.0028235908 0.24647367
-0.022372233 -0.0028281554 0.24684863
-0.021883277 -0.0028327166 0.24722359
-0.021403581 -0.0028387045 0.24772353
-0.020942891 -0.0028475528 0.24847345
-0.020479077 -0.0028563971 0.24922338
-0.020012144 -0.0028652374 0.2499733
-0.019542083 -0.0028740736 0.25072321
-0.019049933 -0.0028800389 0.25122315
-0.018555719 -0.0028860008 0.25172311
-0.018050481 -0.0028905245 0.25209805
-0.017543698 -0.0028950432 0.25247303
-0.017052207 -0.0029024233 0.25309795
-0.016590739 -0.0029155321 0.25422284
-0.016148228 -0.0029329376 0.25572267
-0.075849004 -0.002414033 0.2640968
-0.074598879 -0.002393157 0.26172203
-0.073960371 -0.0023916962 0.26147208
-0.073358312 -0.0023913733 0.26134709
-0.072757058 -0.0023910436 0.26122209
-0.072156623 -0.002390709 0.2610971
-0.071454197 -0.0023869339 0.26059717
-0.07075417 -0.0023831504 0.26009721
-0.070090324 -0.0023805043 0.25972226
-0.0694618 -0.0023789969 0.25947228
-0.068801425 -0.0023763368 0.25909731
-0.068175845 -0.0023748162 0.25884736
-0.067649528 -0.0023767299 0.25897235
-0.067155302 -0.0023797865 0.2592223
-0.066981345 -0.0023943176 0.26072216
-0.066450894 -0.0023962224 0.26084712
-0.066078015 -0.0024038656 0.26159707
-0.064888276 -0.0023816365 0.25909731
-0.063926771 -0.0023674322 0.25747249
-0.063310891 -0.0023658595 0.25722253
-0.0626963 -0.0023642802 0.25697255
-0.062082998 -0.0023626939 0.25672257
-0.061470993 -0.0023611011 0.25647259
-0.060889956 -0.0023606522 0.25634763
-0.06028026 -0.0023590464 0.25609764
-0.059642676 -0.0023562822 0.25572267
-0.059035808 -0.0023546631 0.25547272
-0.058487423 -0.0023553416 0.25547272
-0.057882551 -0.002353709 0.25522274
-0.057307016 -0.0023532228 0.25509775
-0.056732219 -0.0023527308 0.25497276
-0.056185681 -0.0023533865 0.25497276
-0.05563933 -0.0023540363 0.25497276
-0.055093169 -0.0023546815 0.25497276
-0.054547172 -0.0023553201 0.25497276
-0.05402784 -0.0023571088 0.25509775
-0.053481948 -0.0023577379 0.25509775
-0.052910276 -0.0023572049 0.25497276
-0.052313644 -0.0023555104 0.25472277
-0.051692858 -0.0023526533 0.25434783
-0.0511241 -0.002352101 0.25422284
-0.050556045 -0.0023515429 0.25409785
-0.050062492 -0.0023544503 0.25434783
-0.04956802 -0.0023573528 0.25459781
-0.049096692 -0.0023614077 0.25497276
-0.048552524 -0.0023619856 0.25497276
-0.047726106 -0.0023486603 0.25347292
-0.046533972 -0.002316789 0.2499733
-0.045747902 -0.0023045933 0.24859844
-0.045195181 -0.0023039756 0.24847345
-0.04466559 -0.0023045107 0.24847345
-0.044113941 -0.0023038809 0.24834847
-0.043387484 -0.0022939676 0.24722359
-0.042124223 -0.0022550435 0.24297404
-0.040014368 -0.0022546942 0.24272408
-0.039864134 -0.002276076 0.24497382
-0.039624151 -0.0022928144 0.24672364
-0.039297614 -0.0023049072 0.2479735
-0.038848639 -0.0023100274 0.24847345
-0.038436193 -0.0023174682 0.24922338
-0.038096707 -0.0023295556 0.25047323
-0.037602071 -0.0023323405 0.25072321
-0.037106469 -0.0023351205 0.25097319
-0.03624564 -0.0023146323 0.24872343
-0.035484206 -0.0022999477 0.24709859
-0.034712084 -0.0022840875 0.24534878
-0.034139086 -0.0022810174 0.24497382
-0.033636391 -0.0022825964 0.24509881
-0.033167031 -0.0022864982 0.24547377
-0.032662921 -0.0022880672 0.24559876
-0.032272872 -0.0022977821 0.24659866
-0.032168321 -0.0023284615 0.24984831
-0.032097574 -0.0023626406 0.25347292
-0.031560227 -0.0023630336 0.25347292
-0.031114757 -0.0023704134 0.25422284
-0.030215207 -0.0023428213 0.25122315
-0.02912171 -0.0022988941 0.24647367
-0.028483497 -0.0022899252 0.24547377
-0.027963499 -0.0022902763 0.24547377
-0.027443571 -0.0022906219 0.24547377
-0.026937429 -0.0022921283 0.24559876
-0.026430817 -0.0022936286 0.24572375
-0.025910573 -0.0022939569 0.24572375
-0.025403302 -0.0022954457 0.24584873
-0.024895567 -0.002296929 0.24597372
-0.024374982 -0.0022972396 0.24597372
-0.023866577 -0.0022987118 0.24609871
-0.023369558 -0.0023013458 0.24634868
-0.022871539 -0.002303974 0.24659866
-0.022383837 -0.0023077645 0.24697362
-0.021905676 -0.0023127187 0.24747357
-0.021425445 -0.0023176672 0.2479735
-0.020964224 -0.0023249479 0.24872343
-0.020499874 -0.0023322236 0.24947335
-0.0200224 -0.0023383265 0.25009829
-0.019542323 -0.0023444246 0.25072321
-0.019050172 -0.002349349 0.25122315
-0.018555954 -0.0023542678 0.25172311
-0.018050708 -0.0023580126 0.25209805
-0.017543921 -0.0023617519 0.25247303
-0.017052425 -0.0023678239 0.25309795
-0.016590951 -0.0023785685 0.25422284
-0.016148439 -0.0023928171 0.25572267
-0.0745285 -0.0018339969 0.26147208
-0.07389053 -0.0018331504 0.26122209
-0.073253915 -0.0018322965 0.26097211
-0.072688289 -0.0018331909 0.26097211
-0.072122924 -0.0018340793 0.26097211
-0.071420752 -0.001831447 0.26047218
-0.070721008 -0.0018288048 0.25997221
-0.070023693 -0.001826154 0.25947228
-0.069395699 -0.0018252535 0.2592223
-0.068735853 -0.0018234652 0.25884736
-0.068110801 -0.001822549 0.25859737
-0.067617692 -0.001825151 0.25884736
-0.067091353 -0.0018268668 0.25897235
-0.066950016 -0.0018391619 0.26059717
-0.066388011 -0.0018399896 0.26059717
-0.066205084 -0.0018514057 0.262097
-0.064889044 -0.0018310269 0.25909731
-0.063834436 -0.001817693 0.25709754
-0.063219346 -0.001816717 0.25684756
-0.06260556 -0.0018157338 0.25659758
-0.061993059 -0.0018147429 0.25634763
-0.061381854 -0.0018137444 0.25609764
-0.060771938 -0.0018127384 0.25584766
-0.060192727 -0.0018126107 0.25572267
-0.059585102 -0.0018115898 0.25547272
-0.058978744 -0.0018105614 0.25522274
-0.058402281 -0.0018104125 0.25509775
-0.057826553 -0.0018102569 0.25497276
-0.057251547 -0.0018100939 0.25484776
-0.056677286 -0.0018099247 0.25472277
-0.056131277 -0.0018106368 0.25472277
-0.055585448 -0.0018113425 0.25472277
-0.055039819 -0.0018120424 0.25472277
-0.054521099 -0.0018136253 0.25484776
-0.053975556 -0.0018143133 0.25484776
-0.053403977 -0.0018141047 0.25472277
-0.052859049 -0.0018147797 0.25472277
-0.052237276 -0.0018127759 0.25434783
-0.051642686 -0.0018116551 0.25409785
-0.051049318 -0.0018105265 0.25384787
-0.050482068 -0.0018102829 0.25372291
-0.0500139 -0.0018136001 0.25409785
-0.049544293 -0.0018169129 0.25447282
-0.0490973 -0.0018211141 0.25497276
-0.04855312 -0.001821739 0.25497276
-0.047726687 -0.0018116381 0.25347292
-0.046557806 -0.0017881196 0.25009829
-0.045725465 -0.0017770933 0.24847345
-0.045195743 -0.0017776779 0.24847345
-0.044643678 -0.0017773613 0.24834847
-0.04409229 -0.0017770381 0.24822348
-0.043344155 -0.0017686527 0.24697362
-0.042059742 -0.0017378717 0.24259908
-0.04005608 -0.0017426843 0.24297404
-0.039864633 -0.0017575476 0.24497382
-0.039604582 -0.0017697223 0.24659866
-0.039317925 -0.0017810004 0.24809849
-0.039025005 -0.0017922781 0.24959834
-0.038822196 -0.0018080445 0.25172311
-0.038325313 -0.0018103429 0.25197309
-0.037808735 -0.001811738 0.25209805
-0.037162375 -0.0018068373 0.25134814
-0.036227882 -0.0017875477 0.24859844
-0.035394911 -0.0017727365 0.24647367
-0.034659471 -0.0017624062 0.24497382
-0.034139525 -0.0017628575 0.24497382
-0.033636816 -0.0017642017 0.24509881
-0.033133678 -0.0017655405 0.24522381
-0.032646708 -0.0017677732 0.24547377
-0.032273281 -0.0017763025 0.24659866
-0.032217018 -0.0018028396 0.25022328
-0.032097984 -0.0018266803 0.25347292
-0.031685136 -0.0018343084 0.25447282
-0.03113045 -0.0018338225 0.25434783
-0.030245658 -0.0018135002 0.25147313
-0.029151617 -0.0017796392 0.24672364
-0.028483862 -0.0017710053 0.24547377
-0.027963858 -0.0017713805 0.24547377
-0.027443925 -0.001771749 0.24547377
-0.026937777 -0.0017730136 0.24559876
-0.02643116 -0.0017742717 0.24572375
-0.025910905 -0.0017746211 0.24572375
-0.025403632 -0.0017758671 0.24584873
-0.02489589 -0.0017771067 0.24597372
-0.024387684 -0.0017783401 0.24609871
-0.023879008 -0.0017795675 0.24622369
-0.023369862 -0.0017807888 0.24634868
-0.022883428 -0.0017838107 0.24672364
-0.02240679 -0.001787731 0.24722359
-0.021928091 -0.0017916461 0.24772353
-0.021447323 -0.0017955555 0.24822348
-0.020975033 -0.0018003638 0.24884841
-0.020510416 -0.0018060713 0.24959834
-0.020042675 -0.0018117735 0.25034824
-0.019552328 -0.0018156619 0.2508482
-0.019059902 -0.0018195441 0.25134814
-0.0185562 -0.0018225161 0.25172311
-0.0180599 -0.0018263871 0.25222304
-0.017544156 -0.0018284415 0.25247303
-0.017061075 -0.0018341112 0.25322294
-0.016607489 -0.0018433969 0.25447282
-0.074529454 -0.0012771022 0.26147208
-0.073714703 -0.0012738161 0.26059717
-0.073149599 -0.0012747967 0.26059717
-0.072619595 -0.0012763824 0.26072216
-0.071985684 -0.001276125 0.26047218
-0.071318865 -0.0012752464 0.26009721
-0.070653923 -0.0012743582 0.25972226
-0.069957115 -0.0012728467 0.2592223
-0.069329672 -0.0012725533 0.25897235
-0.06863717 -0.0012710219 0.25847238
-0.068045847 -0.0012713256 0.25834739
-0.0675859 -0.0012740835 0.25872236
-0.067059837 -0.0012756054 0.25884736
-0.066918783 -0.0012845177 0.26047218
-0.066357024 -0.0012854162 0.26047218
-0.065795511 -0.0012863072 0.26047218
-0.064639479 -0.0012754564 0.25809744
-0.063804232 -0.0012707633 0.25697255
-0.063127883 -0.0012691482 0.25647259
-0.062514901 -0.001268761 0.25622264
-0.061903201 -0.0012683653 0.25597265
-0.061322741 -0.0012685803 0.25584766
-0.060713362 -0.001268168 0.25559768
-0.06010526 -0.0012677475 0.25534773
-0.059527572 -0.0012679388 0.25522274
-0.058921739 -0.0012675013 0.25497276
-0.05834581 -0.0012676774 0.25484776
-0.057770614 -0.0012678455 0.25472277
-0.057196155 -0.0012680066 0.25459781
-0.056622408 -0.0012681594 0.25447282
-0.056076929 -0.0012689279 0.25447282
-0.055531643 -0.0012696898 0.25447282
-0.055013549 -0.0012710685 0.25459781
-0.054468349 -0.0012718169 0.25459781
-0.053923327 -0.0012725581 0.25459781
-0.053378481 -0.0012732925 0.25459781
-0.052807879 -0.0012733946 0.25447282
-0.052186631 -0.0012722372 0.25409785
-0.051567167 -0.0012710708 0.25372291
-0.050974596 -0.001270522 0.25347292
-0.050432995 -0.0012712185 0.25347292
-0.049965356 -0.0012737893 0.25384787
-0.049496271 -0.0012763554 0.25422284
-0.049073882 -0.0012801721 0.25484776
-0.048553769 -0.0012814723 0.25497276
-0.047727335 -0.001274596 0.25347292
-0.046558432 -0.0012582724 0.25009829
-0.045726072 -0.0012507322 0.24847345
-0.045173608 -0.0012507307 0.24834847
-0.044621814 -0.0012507217 0.24822348
-0.044092882 -0.001251335 0.24822348
-0.043278933 -0.0012437468 0.24659866
-0.042038627 -0.0012235296 0.24247409
-0.040077221 -0.0012289642 0.24309903
-0.03986517 -0.0012389998 0.24497382
-0.03956496 -0.0012465067 0.24634868
-0.03931845 -0.0012559115 0.24809849
-0.03902553 -0.0012640512 0.24959834
-0.038803451 -0.001274723 0.25159812
-0.038401876 -0.0012796948 0.25247303
-0.037921723 -0.0012821283 0.252848
-0.037236802 -0.0012775817 0.2518481
-0.036210161 -0.0012609723 0.24847345
-0.035305645 -0.0012481493 0.24584873
-0.034695312 -0.0012454655 0.24522381
-0.034122571 -0.0012440428 0.24484885
-0.033620119 -0.0012451524 0.24497382
-0.033134125 -0.0012468912 0.24522381
-0.032630529 -0.0012479881 0.24534878
-0.032290075 -0.0012554383 0.24672364
-0.032217458 -0.0012737026 0.25022328
-0.032066766 -0.0012894263 0.25322294
-0.03157663 -0.0012917839 0.25359792
-0.031146172 -0.0012966827 0.25447282
-0.030276138 -0.0012831019 0.25172311
-0.029181551 -0.0012593075 0.24697362
-0.028469749 -0.0012514284 0.24534878
-0.027964242 -0.0012524646 0.24547377
-0.027444307 -0.0012528562 0.24547377
-0.026938144 -0.0012538789 0.24559876
-0.026431527 -0.0012548952 0.24572375
-0.025924442 -0.0012559044 0.24584873
-0.025416894 -0.0012569072 0.24597372
-0.024908883 -0.0012579033 0.24609871
-0.024400406 -0.0012588927 0.24622369
-0.023879336 -0.001259236 0.24622369
-0.023370184 -0.0012602118 0.24634868
-0.022883741 -0.0012624597 0.24672364
-0.022407101 -0.0012653415 0.24722359
-0.021939456 -0.001268857 0.24784853
-0.021469222 -0.0012723672 0.24847345
-0.020996395 -0.0012758716 0.24909839
-0.020520972 -0.0012793703 0.24972332
-0.02005296 -0.0012835036 0.25047323
-0.019562341 -0.0012863505 0.25097319
-0.019069651 -0.0012891912 0.25147313
-0.018565675 -0.0012913847 0.2518481
-0.018060153 -0.0012935714 0.25222304
-0.017544402 -0.0012951109 0.25247303
-0.017069735 -0.0012998497 0.25334793
-0.016656669 -0.0013097143 0.25522274
-0.074494846 -0.0007198411 0.26134709
-0.073680371 -0.00071850041 0.26047218
-0.073115543 -0.000719562 0.26047218
-0.072516158 -0.00072026998 0.26034719
-0.071917608 -0.00072096952 0.2602222
-0.071217045 -0.00072062004 0.25972226
-0.070586897 -0.00072095328 0.25947228
-0.069890656 -0.00072058174 0.25897235
-0.069230266 -0.0007205467 0.25859737
-0.068571746 -0.00072050112 0.2582224
-0.067948043 -0.00072079437 0.25797245
-0.067521542 -0.00072317605 0.25847238
-0.067028388 -0.00072485377 0.25872236
-0.06656649 -0.0007268762 0.25909731
-0.066294268 -0.0007310005 0.2602222
-0.065322846 -0.00072739099 0.25859737
-0.064389952 -0.00072411384 0.25709754
-0.063618928 -0.00072258047 0.25622264
-0.063036479 -0.00072315091 0.25609764
-0.06242428 -0.00072335923 0.25584766
-0.061843615 -0.00072391209 0.25572267
-0.061263692 -0.00072445633 0.25559768
-0.060684524 -0.00072499237 0.25547272
-0.060047258 -0.00072480942 0.25509775
-0.05947011 -0.00072532753 0.25497276
-0.05886481 -0.00072548102 0.25472277
-0.058260798 -0.00072562543 0.25447282
-0.057686396 -0.00072611723 0.25434783
-0.057112716 -0.00072660053 0.25422284
-0.05656758 -0.00072743307 0.25422284
-0.056022644 -0.00072825816 0.25422284
-0.055505153 -0.0007294339 0.25434783
-0.054987311 -0.00073060283 0.25447282
-0.054442368 -0.00073140563 0.25447282
-0.053897623 -0.00073220092 0.25447282
-0.05335303 -0.00073298829 0.25447282
-0.052730814 -0.00073268701 0.25409785
-0.052110374 -0.00073237589 0.25372291
-0.051517088 -0.00073241576 0.25347292
-0.050925042 -0.00073244644 0.25322294
-0.050383978 -0.00073319196 0.25322294
-0.049916867 -0.00073501648 0.25359792
-0.049448311 -0.00073683565 0.25397286
-0.049050506 -0.00073973805 0.25472277
-0.048530668 -0.00074082054 0.25484776
-0.04768094 -0.00073680439 0.25322294
-0.046559095 -0.00072840345 0.25009829
-0.045726728 -0.00072434987 0.24847345
-0.045151521 -0.00072429189 0.24822348
-0.044622444 -0.00072495482 0.24822348
-0.044071317 -0.00072524499 0.24809849
