# .PCD v0.7 - Point Cloud Data file format
VERSION 0.7
FIELDS x y z normal_x normal_y normal_z curvature
SIZE 4 4 4 4 4 4 4
TYPE F F F F F F F
COUNT 1 1 1 1 1 1 1
WIDTH 563
HEIGHT 1
VIEWPOINT 0 0 0 1 0 0 0
POINTS 563
DATA ascii
0.069798447 0.046500433 -0.0068824864 0.70053995 0.071691312 -0.71000284 0.0037005858
-0.069640629 0.049751449 -0.0068808557 -0.55299783 0.023755964 -0.83284402 0.003525944
-0.066675417 0.050271209 -0.0084488792 -0.22888792 0.36300895 -0.90323573 0.0061987112
-0.065180533 0.050544124 -0.008867329 -0.11545622 0.4375065 -0.89177239 0.0060888939
-0.057278633 0.050791357 -0.0089541739 0.099398509 0.66489178 -0.74029642 0.0035955186
-0.055186555 0.050630733 -0.0085371053 0.21279806 0.69401002 -0.6877988 0.0021207572
-0.05233863 0.050094437 -0.0078893146 0.31087303 0.74196333 -0.59401041 0.0027079668
-0.049575049 0.049245477 -0.0074092001 0.34493503 0.76168358 -0.54850513 0.0018862487
-0.047063116 0.048469871 -0.0067669428 0.39442649 0.76815462 -0.50434721 0.00178817
0.052943368 0.048624311 -0.006835442 -0.42401752 0.71232378 -0.55928886 0.0020835304
0.055565786 0.049396623 -0.0075735729 -0.32473305 0.67454314 -0.66297817 0.0016246996
0.058399048 0.050077368 -0.0081860032 -0.243543 0.62119317 -0.74485284 0.0023382322
0.061401296 0.050512433 -0.0086375019 -0.11544056 0.57740206 -0.80825764 0.0049127135
0.064765878 0.05037697 -0.0087230215 0.10825367 0.42522529 -0.89859039 0.0075036162
0.067601129 0.049501836 -0.0080477875 0.44446853 0.22156572 -0.86796099 0.0067782509
0.069669478 0.049516935 -0.0066107125 0.68475723 0.12923963 -0.71722013 0.005282572
-0.069717199 0.05300856 -0.0065794978 -0.27512702 0.26601005 -0.92387432 0.0050259032
-0.067381613 0.052542314 -0.0075244284 -0.12821449 0.41538787 -0.90056312 0.0059018345
-0.064443819 0.05262078 -0.0079484181 -0.033175174 0.49471837 -0.86841995 0.0068257544
-0.061507281 0.052688014 -0.0077965683 0.094274916 0.63219589 -0.76905179 0.0058625969
-0.058528919 0.052463263 -0.0075530917 0.16013661 0.7315743 -0.66268796 0.0024941321
-0.055598378 0.052006636 -0.0071595707 0.24553406 0.73399371 -0.633219 0.0016443463
-0.052975763 0.051463768 -0.0065459795 0.34655157 0.75932258 -0.55075508 0.0016076256
0.056606576 0.051130384 -0.0062785926 -0.40703541 0.70675462 -0.57863641 0.0034361668
0.058763314 0.051744599 -0.006798116 -0.32887629 0.67236179 -0.66315156 0.0034010827
0.061560124 0.052379202 -0.0073047732 -0.21055913 0.58433747 -0.78371835 0.0045960303
0.064519085 0.052503601 -0.0077167475 -0.0060154018 0.46387094 -0.88588238 0.0052039279
0.067507051 0.052446682 -0.0072284699 0.3557066 0.2898823 -0.88850498 0.012606375
0.069407165 0.052359272 -0.0062773041 0.60349506 0.18667275 -0.7752077 0.0062891408
-0.069646202 0.054971937 -0.0062316316 -0.12730241 0.39819244 -0.90842551 0.0050375517
-0.067413248 0.055074085 -0.0065252376 -0.020018257 0.49034646 -0.87129772 0.006858781
-0.064508356 0.054815006 -0.0065244134 0.099656232 0.58810622 -0.80262047 0.0092178332
-0.061804485 0.054368671 -0.0062999935 0.17997323 0.69409287 -0.69702566 0.0048510712
0.062534273 0.054265782 -0.006207855 -0.32581288 0.60266286 -0.72845274 0.0060965586
0.064753599 0.054827128 -0.0064745187 -0.12231329 0.48429662 -0.86631191 0.010255951
0.067361735 0.055033237 -0.0064010154 0.15443364 0.37517607 -0.91399848 0.01736594
0.069014296 0.054163281 -0.0062147584 0.46180087 0.27344808 -0.84378088 0.028372658
0.025971156 0.0042091156 -0.0055963541 0.2171451 -0.84154201 -0.49462622 0.00071135978
0.027893746 0.0048597166 -0.0059348582 0.24014409 -0.84374338 -0.48002899 0.00078026962
0.030923326 0.0057744011 -0.0059817275 0.27302316 -0.84852958 -0.45327249 0.00070607441
0.032256208 0.006146282 -0.0058679068 0.31261778 -0.85988611 -0.40356672 0.0015346401
0.034479525 0.0066117654 -0.0049964525 0.32398242 -0.85753453 -0.3995873 0.0013813089
0.037399936 0.007664952 -0.0047221989 0.3567054 -0.87072784 -0.33851776 0.00074345706
0.039901618 0.0085880421 -0.0044260272 0.38621289 -0.87145984 -0.30231994 0.0012172851
0.041936863 0.0099994121 -0.0058459393 0.38916367 -0.85331148 -0.34700322 0.0029668531
0.043298081 0.010280398 -0.0047691148 0.41380122 -0.85609478 -0.30962929 0.0013275552
0.045458261 0.011128483 -0.0040869471 0.44181421 -0.84475923 -0.30196381 0.0014144981
0.047074642 0.012199392 -0.0045913244 0.46525258 -0.82813454 -0.3126232 0.0013204769
0.049572997 0.013672063 -0.0046888692 0.49139884 -0.8137033 -0.31050637 0.00095513207
0.052134037 0.014910244 -0.0036808392 0.53273308 -0.80775326 -0.25244853 0.0025620048
0.052693047 0.015760262 -0.0049759275 0.52706867 -0.78266782 -0.33110401 0.0017582146
0.054972682 0.017110951 -0.0043877214 0.55531067 -0.77041841 -0.31318617 0.0018467046
0.05635611 0.018339366 -0.0048695086 0.58422667 -0.75232434 -0.30444607 0.0017458837
0.058199037 0.019665217 -0.0045117131 0.61654574 -0.71530318 -0.32895705 0.0025112021
0.060240485 0.020920636 -0.0033247848 0.64254326 -0.73540163 -0.21522695 0.0028553973
0.059626758 0.021134263 -0.0051195393 0.63417745 -0.70273387 -0.32246584 0.002253223
0.061468091 0.022636874 -0.0044980315 0.6645624 -0.67808962 -0.31392872 0.002125137
0.062702306 0.024351455 -0.0053264 0.70335513 -0.62422389 -0.34005314 0.0014911034
0.064075641 0.025852911 -0.0051736184 0.71148014 -0.55463576 -0.43148026 0.0017105949
0.065465361 0.027765652 -0.00519581 0.74475634 -0.50768173 -0.43312502 0.0020163131
0.066633187 0.029005259 -0.0046404996 0.77169347 -0.47676393 -0.42093387 0.0018084456
-0.009405748 0.032929603 -0.0059848195 0.21096292 0.86014497 -0.4643763 0.0010316647
-0.00706178 0.032802619 -0.0054443511 0.16348207 0.91614872 -0.36598527 0.002445848
-0.0043558241 0.032590874 -0.0049572685 0.13329127 0.91971952 -0.36925527 0.0020922127
-0.0015086904 0.032396186 -0.0045478079 0.11051515 0.93304855 -0.34235486 0.0022556202
0.0015109117 0.032164685 -0.0045513459 0.052440021 0.94070756 -0.33514073 0.0024131367
0.0045149107 0.032081112 -0.0045408332 0.012530657 0.93642187 -0.35065237 0.0028018765
0.0074664853 0.032094058 -0.0045615211 -0.033465296 0.94756204 -0.31781498 0.0028091834
0.010470635 0.032286573 -0.0045884904 -0.096948698 0.93877941 -0.33059648 0.0022886468
0.013374366 0.03252558 -0.0047571245 -0.14332211 0.92510271 -0.35163 0.0021520311
0.016076138 0.032792073 -0.0053219423 -0.20161018 0.91726315 -0.34348467 0.0023027502
0.068048276 0.031570364 -0.0047769514 0.80993319 -0.40807927 -0.42128322 0.0024899601
0.069091186 0.032667086 -0.003870124 0.82593656 -0.39388955 -0.40333578 0.0019794456
-0.018602977 0.035763722 -0.0054124049 0.31896082 0.89180946 -0.3208425 0.0024132445
-0.016417554 0.035321336 -0.0046630986 0.28591916 0.90609646 -0.31183222 0.0024065494
-0.013502629 0.034560036 -0.0045176721 0.23593228 0.91274989 -0.33350196 0.0023986429
-0.010519979 0.033822279 -0.0045534372 0.19638476 0.92646295 -0.32109112 0.0021573754
-0.0077210725 0.033396591 -0.004181731 0.15943125 0.93562979 -0.31492645 0.0023128192
-0.0048875995 0.033180211 -0.0035003338 0.13075827 0.9377507 -0.32175452 0.0026078008
0.014215956 0.033076283 -0.0035055894 -0.1271863 0.95858854 -0.25481722 0.0018070716
0.016694723 0.033347175 -0.0041225427 -0.19621049 0.93052322 -0.30923784 0.0022140269
0.019485215 0.033889499 -0.004535614 -0.22777851 0.92164463 -0.31414667 0.0018278534
0.022496646 0.03467866 -0.0046110977 -0.26301953 0.91140151 -0.31649336 0.0015533647
0.025249282 0.035468057 -0.0046996651 -0.30188602 0.90500712 -0.29971126 0.0016632444
0.027416343 0.035819918 -0.005584355 -0.30871508 0.88843083 -0.3396847 0.0016885712
0.06864085 0.033650529 -0.0055729188 0.82210743 -0.33658695 -0.45918244 0.0031553369
0.069687046 0.03482518 -0.0044207242 0.85809213 -0.32640278 -0.39640769 0.0026697547
-0.027339138 0.03887973 -0.0058408286 0.4005813 0.83758402 -0.37146685 0.0035131807
-0.025208337 0.038470816 -0.0047925306 0.37615764 0.87498873 -0.30479521 0.0019522273
-0.022500193 0.037486847 -0.0045081726 0.34225887 0.88467211 -0.31656617 0.0020616923
-0.019766333 0.036540251 -0.0043068812 0.30601677 0.90332067 -0.30060837 0.0020928152
-0.017702116 0.036158729 -0.0033653004 0.2717208 0.93122786 -0.24286313 0.0022181401
0.02654025 0.036165785 -0.003805612 -0.29302958 0.90987033 -0.29371706 0.0020008015
0.028613267 0.036654849 -0.0044052652 -0.29798692 0.90490872 -0.30388144 0.0019903274
0.031477217 0.037605558 -0.0045949141 -0.34996259 0.88166213 -0.31654078 0.0026343679
0.03395256 0.038548257 -0.0047877152 -0.401342 0.85865873 -0.31879428 0.0023738318
0.070543908 0.037588645 -0.0045881625 0.8653928 -0.24573389 -0.43670371 0.0030475541
-0.033206318 0.041798692 -0.0057467818 0.41432646 0.83775437 -0.35567024 0.0032901776
-0.03126828 0.041267321 -0.0046959282 0.43502814 0.85452425 -0.28379333 0.00162272
-0.028506197 0.040011674 -0.0045502558 0.38847423 0.87091166 -0.3009994 0.0020959193
-0.026292205 0.039280426 -0.0038155925 0.37243998 0.88240039 -0.28750294 0.0016928576
0.035293162 0.039411206 -0.0041541359 -0.41925657 0.85275286 -0.31150681 0.0025661737
0.037588645 0.040545996 -0.0044868486 -0.46704656 0.82226944 -0.3251774 0.0026131535
0.039740261 0.041573565 -0.0051412568 -0.49900687 0.7953667 -0.34406984 0.0015139808
0.071126349 0.040403944 -0.0046146368 0.89144182 -0.1641926 -0.42234141 0.0022606989
0.072106555 0.041871183 -0.003169314 0.92474174 -0.12444802 -0.35967404 0.0056605106
-0.039187279 0.044892795 -0.0056517166 0.46379566 0.80337715 -0.37346846 0.0037665151
-0.037218586 0.044275153 -0.004702298 0.45567566 0.83814418 -0.29978994 0.0019244651
-0.034554478 0.04298006 -0.0044684396 0.42881051 0.85281003 -0.29805458 0.0022546372
-0.03248629 0.042201247 -0.0037147284 0.42378941 0.85573345 -0.29685488 0.0020313123
0.040980339 0.042584818 -0.0044642966 -0.4831861 0.80252218 -0.34998465 0.0017448269
0.043562528 0.044067401 -0.0048397966 -0.49630898 0.78612494 -0.36835447 0.0015054048
0.045377184 0.04489354 -0.0055164434 -0.50166047 0.77981186 -0.37447348 0.0032349471
0.07134556 0.043480992 -0.0048575951 0.86591583 -0.049988814 -0.49768552 0.0029029308
0.072138421 0.043812484 -0.0033461989 0.92678028 -0.078672498 -0.36727235 0.0025147812
-0.070599385 0.047785543 -0.005852249 -0.58491015 -0.015522731 -0.81094962 0.0011751129
-0.04501462 0.047806349 -0.0058865105 0.39757496 0.78472024 -0.4755505 0.0011642115
-0.043080747 0.047405556 -0.0047807135 0.45341229 0.82396591 -0.33984908 0.0023907979
-0.040494889 0.046114605 -0.0044992869 0.4499594 0.83240485 -0.32347915 0.0023879234
-0.038442735 0.045237768 -0.0038813837 0.44434437 0.83652008 -0.32061213 0.002352027
0.044644542 0.045202654 -0.0037430101 -0.52013022 0.792786 -0.31773409 0.001644369
0.04664354 0.046113048 -0.0045960736 -0.48494923 0.77812582 -0.39917988 0.002042996
0.048905507 0.04730906 -0.0050368537 -0.48831111 0.76684928 -0.4165265 0.0020790279
0.071342431 0.046544414 -0.004937314 0.84297115 0.020715894 -0.53755975 0.0031517751
0.072189711 0.046584144 -0.0034737966 0.90351927 -0.011100153 -0.42840371 0.0037039528
-0.071349561 0.049869392 -0.0054195262 -0.51561695 0.02193884 -0.85653836 0.0033723295
-0.049095239 0.050480932 -0.0050687897 0.40919197 0.82453597 -0.39077142 0.0030167662
-0.046500575 0.049376491 -0.0045203925 0.43438166 0.81919533 -0.37447509 0.0024574155
-0.044295359 0.048412096 -0.0039637983 0.43390527 0.83070225 -0.34879807 0.0020263388
0.05030774 0.048665296 -0.0041132625 -0.48320597 0.77259839 -0.4118298 0.0021118766
0.052309204 0.049601246 -0.0048025041 -0.47685492 0.76029742 -0.44108635 0.0020886327
0.054659773 0.050675113 -0.0054259119 -0.45232826 0.75732636 -0.47101584 0.0029824588
0.071174525 0.049523357 -0.0049591679 0.81301606 0.064842328 -0.57861942 0.0041768053
0.072196864 0.049473401 -0.0034043228 0.85783058 0.025526311 -0.51329815 0.0040126485
-0.072687 0.05306698 -0.0048320703 -0.52705979 0.058492783 -0.84781283 0.0026558402
-0.0714067 0.052677251 -0.005668113 -0.40282181 0.091570079 -0.91068631 0.0073294705
-0.057923526 0.053822082 -0.0057290569 0.22267844 0.76204354 -0.60803282 0.0020252811
-0.055156291 0.05337942 -0.0049196105 0.33074108 0.84514129 -0.41993639 0.0027300017
-0.05246691 0.052429721 -0.0045482642 0.36666542 0.82477498 -0.43046814 0.0025568686
-0.050009545 0.051485445 -0.0039414889 0.42582974 0.83061516 -0.35881403 0.0026302319
0.053620543 0.051179439 -0.0033887504 -0.47482425 0.76993674 -0.42630902 0.0016997155
0.055849776 0.05194382 -0.0044666934 -0.44835278 0.75594783 -0.47699335 0.0035837393
0.058366418 0.053076833 -0.0049817874 -0.40759024 0.73341298 -0.54403639 0.0054702382
0.060417186 0.053645205 -0.0057185381 -0.35343933 0.66437435 -0.65854943 0.0065128743
0.070927352 0.052548941 -0.0048597832 0.73869902 0.091612704 -0.66778058 0.0087715024
0.072185941 0.052591365 -0.0032581512 0.81625777 0.041345496 -0.57620633 0.005364412
-0.073311843 0.055705581 -0.0045071892 -0.55937427 0.27980807 -0.78026146 0.021719513
-0.07055869 0.056188602 -0.0056387782 -0.14073174 0.43835449 -0.88771617 0.012270437
-0.067365237 0.056578577 -0.0057170517 0.054961678 0.49883708 -0.86495137 0.0072523816
-0.064286597 0.056260575 -0.0052979439 0.21369278 0.62359929 -0.75197029 0.0045028566
-0.061495107 0.055681821 -0.0046151881 0.30835542 0.77556324 -0.55083448 0.0078563569
-0.058635164 0.054831911 -0.0043528918 0.27809951 0.83971322 -0.46641442 0.0042426833
-0.056118134 0.054332148 -0.0037915253 0.3347522 0.85997063 -0.38521627 0.0026651155
0.059279565 0.054423556 -0.0038469827 -0.46685055 0.72982955 -0.49939898 0.0047548376
0.061575409 0.055323526 -0.0046608192 -0.41411701 0.66322768 -0.62340695 0.0062063052
0.064280115 0.05623145 -0.0054566297 -0.23348783 0.4995622 -0.83421886 0.0081485789
0.067937158 0.056328844 -0.0058363671 0.093328901 0.37428927 -0.92260355 0.01700682
0.070577681 0.055554926 -0.0047424855 0.60495317 0.10855186 -0.78882706 0.012670744
0.072134323 0.054868538 -0.0032291578 0.85128355 0.025713501 -0.52407539 0.012064231
-0.072683133 0.057951111 -0.0042861095 -0.30211589 0.62653548 -0.71845615 0.021949144
-0.070274472 0.058575109 -0.0045705382 -0.11897913 0.65672308 -0.74468702 0.020262809
-0.067515858 0.058525532 -0.0043335059 0.12661971 0.68637085 -0.7161442 0.011703931
-0.064711563 0.057853099 -0.0039099418 0.3451359 0.71457279 -0.60849559 0.0078638
-0.062635332 0.057232473 -0.0033163771 0.40951547 0.73686993 -0.53788459 0.010400539
0.062706664 0.057374671 -0.0034490228 -0.60530013 0.56298113 -0.56272906 0.013235405
0.064761735 0.058270078 -0.0043340717 -0.39584804 0.44707316 -0.80214089 0.011929184
0.067569986 0.058394805 -0.005214008 0.015962798 0.29244313 -0.9561497 0.019878874
0.07055565 0.058531065 -0.0043744859 0.48703778 0.10639969 -0.86687565 0.023653561
0.072147988 0.058520358 -0.0031356879 0.84666896 0.0057212124 -0.53208929 0.01904518
-0.069563463 0.060085293 -0.0030808137 -0.14427458 0.83963513 -0.5236389 0.025275212
-0.068200558 0.060143754 -0.0030664126 0.12387463 0.84590459 -0.518749 0.018524401
0.065613262 0.060680974 -0.0036073921 -0.38788632 0.34025934 -0.85660249 0.011130907
0.067586333 0.061367575 -0.0042896136 -0.14180405 0.19984883 -0.96951121 0.022742517
0.070600212 0.061491083 -0.0040777745 0.35617262 0.055013534 -0.93279934 0.024881667
0.072154485 0.061224032 -0.0031841537 0.78612459 -0.045546822 -0.61638761 0.021506449
0.067914344 0.064350523 -0.0037954471 -0.22157681 0.097789675 -0.97022724 0.019316547
0.070589833 0.064462952 -0.0039582765 0.20039085 0.01463639 -0.97960669 0.027374476
0.072370313 0.064583771 -0.0032442918 0.50306892 -0.053978976 -0.8625589 0.022228124
0.068249069 0.06747967 -0.0035326844 -0.19804338 -0.014460633 -0.98008657 0.014015471
0.070610724 0.067408614 -0.003991216 0.07374385 -0.048978817 -0.99607384 0.038019642
0.072706044 0.067595616 -0.0034336895 0.54879773 -0.12391424 -0.82672024 0.0169935
0.068448067 0.06990201 -0.0033965679 -0.2248617 0.012095258 -0.97431564 0.019484712
0.070649333 0.070439138 -0.0041602631 0.11131303 -0.11708682 -0.98686379 0.03062447
0.07328555 0.070594944 -0.0037273385 0.41338846 -0.2150216 -0.8848027 0.021274267
0.068776339 0.073667243 -0.003371167 -0.56279546 0.26946431 -0.78144115 0.03924844
0.070637137 0.073235057 -0.004364341 -0.11200973 0.16994973 -0.97906631 0.058477532
0.073625155 0.073567778 -0.0043728855 0.40531901 0.22963838 -0.88486308 0.080069326
0.075421534 0.073959716 -0.0034762861 0.72370088 0.0028953918 -0.69010764 0.077944957
0.068676785 0.075735301 -0.0031739422 -0.21821108 0.7437467 -0.63184232 0.062252343
0.070782132 0.076143168 -0.0040299925 -0.043050107 0.65693778 -0.75271475 0.061753113
0.073325604 0.075616531 -0.0040697255 0.27678874 0.73585081 -0.61799008 0.069582634
0.075254798 0.075102337 -0.003324175 0.71894157 0.5904786 -0.36668521 0.070988171
0.036398921 0.0067276345 -0.0029851689 0.34992883 -0.87461895 -0.33554667 0.00066453015
0.040270995 0.0082259513 -0.0023416155 0.39131278 -0.87440932 -0.28684959 0.00077828678
0.043457329 0.0096172802 -0.0016170098 0.42002839 -0.86187547 -0.28415987 0.0012558651
0.046565823 0.011209375 -0.0017059029 0.47649744 -0.85272634 -0.21402797 0.0027464738
0.049852811 0.013078915 -0.0016628617 0.50407183 -0.8493647 -0.15649684 0.001113208
0.052153889 0.014524225 -0.0019158311 0.549945 -0.81934482 -0.16197126 0.0012736109
0.053431608 0.015360782 -0.0018686949 0.55698192 -0.81696749 -0.14944996 0.0010060942
0.055695578 0.016888442 -0.0015354371 0.57998377 -0.7996242 -0.15562783 0.00090303272
0.056886699 0.018004434 -0.0029099558 0.5790081 -0.78572178 -0.2176948 0.0035556366
0.058693402 0.019216549 -0.0016465823 0.64326996 -0.75208527 -0.14342779 0.0017541532
0.060443521 0.020639995 -0.0013279726 0.66827273 -0.73121917 -0.13685802 0.0029096107
0.061845567 0.021992683 -0.0014560806 0.69603187 -0.70577127 -0.13200961 0.0027508959
0.063318253 0.023476409 -0.0014844281 0.73452854 -0.66313607 -0.14393923 0.0027100074
0.06483762 0.025250344 -0.0016453945 0.75182366 -0.63925296 -0.16160746 0.002964728
0.066071555 0.026761755 -0.0014674101 0.79418856 -0.58808428 -0.15304057 0.0024974963
0.067639671 0.029090693 -0.0015001077 0.84597909 -0.48534673 -0.22081207 0.0035126046
-0.0009643946 0.032914039 -0.0027081205 0.096234217 0.97912741 -0.17902088 0.0022787747
0.0016359283 0.032848027 -0.0020172521 0.074221827 0.98615831 -0.14826672 0.0027110416
0.0045087389 0.032823335 -0.0015985925 0.024724843 0.99195564 -0.1241482 0.0028913484
0.0073852739 0.032821864 -0.001680823 -0.042002752 0.99149442 -0.12318517 0.0034041603
0.010200278 0.032880586 -0.0024471804 -0.087074645 0.98256898 -0.16424452 0.0022657877
0.012401822 0.032982487 -0.0026541832 -0.13878307 0.98025519 -0.1408511 0.0035081015
0.068656564 0.03100282 -0.0021668877 0.86474919 -0.45412692 -0.21442352 0.0037707067
0.069541708 0.032335043 -0.0011865506 0.88727677 -0.41793031 -0.1951261 0.0030266969
-0.015663849 0.035800099 -0.0018605686 0.30826116 0.9448095 -0.11095072 0.0026044773
-0.013520073 0.035281401 -0.0015482848 0.25615785 0.95924705 -0.11928202 0.0024526173
-0.010520931 0.034555878 -0.0015610358 0.20882867 0.96378559 -0.16585499 0.0035693308
-0.0075141639 0.033963356 -0.0015911087 0.16508622 0.97537041 -0.14628449 0.0027541153
-0.004550166 0.033522274 -0.0015164516 0.1215412 0.98460507 -0.12562099 0.002376653
-0.0016887643 0.033201888 -0.001350943 0.084333137 0.98940605 -0.11816774 0.0023340888
0.00088450703 0.033071201 -0.0007683349 0.044477541 0.99807012 -0.043334249 0.0025410382
0.0044543589 0.033020344 -0.0001123081 0.02227567 0.99921596 -0.032731626 0.00067407655
0.0085727526 0.033034515 -0.00030277841 -0.030369138 0.99934769 -0.019541705 0.00087585329
0.010651398 0.033120714 -0.0010402435 -0.07736136 0.99424607 -0.074095264 0.0030954268
0.013537045 0.033341616 -0.0016167527 -0.12556304 0.98123187 -0.14634879 0.0025660498
0.016486714 0.033868503 -0.0015939875 -0.1930764 0.97160989 -0.13673256 0.0030139924
0.019519666 0.034591828 -0.0016849464 -0.24656041 0.95533681 -0.16290924 0.0037118131
0.022488229 0.0353802 -0.0017597894 -0.271703 0.9536016 -0.12969743 0.0020640932
0.024408652 0.035914894 -0.0020363957 -0.3132115 0.93974078 -0.13706134 0.0020917594
0.070425384 0.03451265 -0.0019088848 0.90179205 -0.33782116 -0.26953301 0.0026746558
-0.024349347 0.038824681 -0.0020920036 0.40549359 0.90716743 -0.11234863 0.0024670733
-0.022494024 0.038182463 -0.0015794439 0.36776474 0.92120779 -0.1269857 0.0019335308
-0.019483397 0.037080202 -0.0015069108 0.31762812 0.93829209 -0.13682249 0.0029924863
-0.017043008 0.036306161 -0.0012986228 0.27984592 0.95434254 -0.10448255 0.0026761759
0.025756946 0.036389228 -0.0014408827 -0.29362196 0.94476783 -0.14560197 0.0025184709
0.028286522 0.037192643 -0.0015832001 -0.30566344 0.94086635 -0.14608307 0.001153611
0.031361837 0.038281035 -0.0015826788 -0.36263278 0.91519457 -0.17583081 0.0019023364
0.033178419 0.038839139 -0.0026035714 -0.39592823 0.90916461 -0.12907569 0.0032352302
0.071554162 0.037569147 -0.0016594417 0.92939806 -0.26911122 -0.25258356 0.0033333255
0.072013214 0.038500901 -0.00043362132 0.95814937 -0.26407588 -0.11051559 0.0059686494
-0.030599231 0.041707184 -0.0016785269 0.45790109 0.88203323 -0.11110289 0.0019499835
-0.028546445 0.040755223 -0.0015076624 0.41792488 0.90170223 -0.11077855 0.0020879621
-0.02576302 0.039520964 -0.0014833129 0.37730086 0.91931653 -0.11180907 0.0024833542
0.032919671 0.039024156 -0.00059277227 -0.39675796 0.90975708 -0.12216889 0.0025706722
0.034748461 0.039743196 -0.0016133491 -0.43354893 0.87861872 -0.20016131 0.0027395533
0.037375316 0.041160561 -0.0015741802 -0.49779779 0.85677153 -0.13468501 0.0024623754
0.071865432 0.039753716 -0.002585344 0.94176686 -0.16667622 -0.29205167 0.0035014187
0.072262377 0.040703237 -0.0014353289 0.97040778 -0.15302762 -0.18679194 0.0044934838
-0.03652529 0.044723604 -0.0017075735 0.47637227 0.87051415 -0.1235906 0.0023526649
-0.034498569 0.043683633 -0.0014969107 0.45736748 0.88171697 -0.11571564 0.0021491086
-0.032034654 0.042436749 -0.0014807223 0.42752868 0.897111 -0.11140561 0.002181682
0.03879847 0.042112045 -0.00094895886 -0.5380621 0.83230257 -0.13327272 0.002572631
0.040492095 0.04307127 -0.0015206956 -0.50953513 0.84924173 -0.13842854 0.0024422149
0.042739701 0.04448761 -0.0017264693 -0.54210764 0.83005297 -0.13088682 0.0024575347
0.071972862 0.042004805 -0.0029527629 0.93627435 -0.1606416 -0.31238541 0.0087286113
0.072619118 0.043615878 -0.0016062049 0.97445714 -0.075278722 -0.21158102 0.0039122095
-0.04225767 0.047805469 -0.0021359536 0.48784095 0.86251903 -0.13443248 0.0024183334
-0.040507469 0.046926152 -0.0015694886 0.48340702 0.86569417 -0.12996635 0.0024401795
-0.03798401 0.045545414 -0.0014299921 0.46029103 0.87943089 -0.12138146 0.0023231066
0.044262908 0.045525827 -0.0014730054 -0.53436345 0.83150232 -0.15185377 0.0034600366
0.046538837 0.046987616 -0.0015467252 -0.54139453 0.82745093 -0.14905342 0.0033037236
0.048081495 0.047769725 -0.0026436106 -0.52629995 0.83559424 -0.15745066 0.0030531688
0.072769612 0.046542328 -0.0016974533 0.97667736 -0.029227626 -0.21271366 0.0047726035
-0.048012521 0.050849378 -0.00276171 0.47006539 0.85795963 -0.2072289 0.0043503144
-0.046373948 0.050220717 -0.0015734838 0.49944311 0.8562001 -0.13220415 0.0021220963
-0.043695774 0.04872765 -0.0014634595 0.47014421 0.87316078 -0.12866493 0.0031391585
0.047963101 0.048025798 -0.00047054814 -0.55597174 0.82945919 -0.053785827 0.0072939433
0.04958361 0.048986401 -0.0015829804 -0.52723819 0.83106214 -0.17707534 0.0036570337
0.051774196 0.050465818 -0.0016788144 -0.57097846 0.80694348 -0.15108244 0.0029831717
0.0728468 0.049464211 -0.0016066679 0.96777034 -0.013179318 -0.25148949 0.0063629113
-0.054009818 0.053819053 -0.0026680406 0.39466783 0.90096998 -0.18025084 0.0057209334
-0.052209724 0.053333197 -0.0016909833 0.43964419 0.88181674 -0.17062315 0.0037227359
-0.049524859 0.051948417 -0.0015462661 0.44563636 0.87716341 -0.17886478 0.0036611769
-0.047871571 0.051145073 -0.00094448519 0.46811619 0.86840922 -0.16350155 0.0039902101
0.053202003 0.051480282 -0.0014215173 -0.52945673 0.82846212 -0.18255407 0.004634589
0.055729657 0.052952636 -0.0020285982 -0.52826428 0.80159563 -0.2799665 0.0027949747
0.05719531 0.053714596 -0.0026315581 -0.47533026 0.83593529 -0.27435967 0.0059373216
0.072863281 0.052484263 -0.0016295755 0.95738959 -0.008635791 -0.28867036 0.0093620969
-0.075251617 0.05625267 -0.0026901739 -0.58698583 0.57766306 -0.56723279 0.063737981
-0.060573936 0.05666538 -0.0020088544 0.49933019 0.84300822 -0.20001611 0.0098837614
-0.058516908 0.055890519 -0.0015319797 0.36711058 0.91106999 -0.18756667 0.0090769157
-0.055495214 0.054780584 -0.0015885429 0.33241889 0.92348158 -0.19151886 0.0041640732
-0.053646713 0.054146703 -0.00093975005 0.38928217 0.90303898 -0.18160391 0.0046630385
0.056893148 0.054061733 -0.00062068837 -0.52290899 0.85123193 -0.044389505 0.010945739
0.058912706 0.055156589 -0.0018440457 -0.51810426 0.78220791 -0.34600389 0.0047598239
0.060676105 0.056441233 -0.0019637006 -0.66606385 0.69730192 -0.26481891 0.0089359395
0.072893977 0.055574756 -0.0016602651 0.9295249 -0.003869975 -0.36873898 0.014457989
-0.075177625 0.057520851 -0.0010287857 -0.50512308 0.83430105 -0.22089039 0.030125046
-0.073502347 0.058453321 -0.0015989093 -0.48126188 0.85427451 -0.19647405 0.016265238
-0.071274102 0.059551299 -0.0016390248 -0.41099969 0.90041357 -0.14259973 0.0080630518
-0.066504747 0.059741545 -0.0027009752 0.28478968 0.85856581 -0.42633256 0.015802672
-0.064310052 0.059083272 -0.0016738948 0.50298917 0.82627928 -0.25350434 0.0074825487
-0.061952572 0.057704896 -0.0013966375 0.46605092 0.85584384 -0.22433916 0.011581995
0.062046431 0.057959907 -0.0015628124 -0.68764681 0.63153797 -0.35819227 0.016275411
0.063627899 0.059365809 -0.0024163299 -0.61006659 0.48975146 -0.62286621 0.011925053
0.073001288 0.058508519 -0.0017186329 0.88653594 -0.033480234 -0.46144673 0.018319555
-0.069507398 0.060301352 -0.001870262 -0.10429271 0.94845867 -0.29924768 0.022736194
-0.067281842 0.060582992 -0.0015481645 0.23445268 0.9173584 -0.3216916 0.019043535
-0.065656297 0.060216781 -0.00080986734 0.37277269 0.89283168 -0.25276884 0.020869667
0.064503148 0.061111175 -0.0021240015 -0.5700807 0.31640443 -0.75821912 0.0076740757
0.073219121 0.061457068 -0.0017648778 0.83696008 -0.056255098 -0.54436499 0.020402133
0.065397985 0.064310178 -0.0015746186 -0.62939495 0.24088439 -0.73880762 0.0037777887
0.066364147 0.064760342 -0.0027865327 -0.27122429 0.14048815 -0.95220816 0.014550609
0.073664963 0.064464934 -0.0017479053 0.79088521 -0.14209941 -0.59523809 0.022247329
0.06584096 0.066917546 -0.0010821393 -0.55785888 0.14494886 -0.81718016 0.0089552579
0.066994876 0.067640536 -0.0025388619 -0.33693847 0.047956999 -0.94030452 0.013388759
0.074195556 0.06734556 -0.0019738434 0.79417372 -0.23463365 -0.56056684 0.01840172
0.075158156 0.068280168 -0.00067973539 0.82930624 -0.25246912 -0.4985083 0.023174798
0.06724418 0.070462205 -0.0020088705 -0.56060886 0.039167993 -0.82715392 0.0076755602
0.074573278 0.069901764 -0.0025674168 0.6996361 -0.28247526 -0.65629029 0.025145799
0.075570412 0.070662305 -0.0014696047 0.85224634 -0.23922807 -0.46523771 0.021845965
0.067660734 0.073411815 -0.0019257888 -0.60305375 0.19080314 -0.77454531 0.035885386
0.076483503 0.073924169 -0.0016162372 0.90130782 0.26037073 -0.34619531 0.07951884
0.068415813 0.076962106 -0.0012644507 0.086922437 0.91837353 -0.38604981 0.081866838
0.070496589 0.076678783 -0.0015340232 0.069778532 0.91655391 -0.39377642 0.075893201
0.073530436 0.075752072 -0.0014746757 0.3906002 0.8988471 -0.1987595 0.035037573
0.075475864 0.0751504 -0.0014857422 0.44838384 0.87403703 -0.18711272 0.038353037
0.048901327 0.012387406 0.0012686446 0.49489713 -0.85756201 -0.14022969 0.0006144428
0.052104611 0.014276143 0.00021047033 0.52819008 -0.83918518 -0.12955116 0.0016877466
0.055289544 0.016470807 0.00090896944 0.58920962 -0.80797613 0.0025788588 0.0013052898
0.05738622 0.01794035 0.00018855747 0.61200196 -0.79084009 0.0050572706 0.0014686744
0.05889257 0.01925936 0.0012871578 0.64319319 -0.76295573 0.064815551 0.0011906491
0.060429573 0.020522607 0.00092819007 0.66466969 -0.74604887 0.040314719 0.0010981573
0.06219482 0.022281867 0.001560074 0.7020672 -0.71103752 0.039080892 0.00079215219
0.063460417 0.023582961 0.0014692228 0.73458558 -0.67627323 0.055123717 0.0013447312
0.065150119 0.025493503 0.0013588773 0.77569723 -0.62611204 0.079231627 0.0023494917
0.066166833 0.026714835 0.0010801478 0.79966819 -0.59546322 0.077164866 0.0021657269
0.06741146 0.028544923 0.0013620014 0.84123975 -0.53461879 0.080613002 0.0026945092
-0.00028533663 0.032952711 0.0027841057 0.094220363 0.98820364 0.12073136 0.0023714921
0.0017755964 0.032911941 0.0020858629 0.063255556 0.99252659 0.1043539 0.003022196
0.0045088488 0.032884274 0.0016489481 0.015415594 0.99480826 0.10059348 0.0028828538
0.0074502584 0.03288877 0.0016334015 -0.037027467 0.9955281 0.086907402 0.003372224
0.0099993376 0.032961998 0.0024284997 -0.097339787 0.98867327 0.11423749 0.0021505179
0.068673365 0.030621313 0.0014711285 0.8609888 -0.50032759 0.09149117 0.0027559397
0.069495909 0.032079082 0.0013472426 0.89485788 -0.43739107 0.088985428 0.0030534605
-0.015533711 0.035847872 0.0017590225 0.30656111 0.94906688 0.072749093 0.0026194041
-0.013485479 0.03533902 0.0014484394 0.2568875 0.96318191 0.079305872 0.0024986949
-0.010530193 0.034637991 0.0013757128 0.22293724 0.97003031 0.096644416 0.0027388015
-0.0074914903 0.034044292 0.001393437 0.16758248 0.98007923 0.10658733 0.0031647582
-0.0043549649 0.033566117 0.0014195751 0.12833767 0.98639441 0.10274028 0.0028972628
-0.0014608307 0.033231031 0.0013706208 0.076804489 0.99434662 0.07332015 0.0029155463
0.0012441372 0.033078238 0.00075112219 0.040510692 0.99855459 0.035322592 0.0032418466
0.0040833745 0.033011831 0.00046623492 0.022404224 0.99806607 0.057984475 0.0026309462
0.0080062589 0.033028547 0.00042567216 -0.041120365 0.99702471 0.065198384 0.0046474035
0.01055508 0.033136945 0.0012243077 -0.06876906 0.99665576 0.044136763 0.0038106905
0.013640272 0.033464137 0.0011260705 -0.12990201 0.99045199 0.046156812 0.0037389535
0.016252266 0.033886712 0.0015872321 -0.1968784 0.97881639 0.056190912 0.0027455448
0.019443939 0.034659706 0.001536095 -0.2579813 0.96592563 0.020816557 0.0020979198
0.02216346 0.035394628 0.0013502034 -0.27504462 0.96138787 0.0091543961 0.002357844
0.024133246 0.035903186 0.0018224103 -0.31658989 0.94580072 0.072331466 0.0031011663
0.070584238 0.034550235 0.0012066327 0.93783349 -0.34449059 0.042362876 0.0051037897
-0.024248401 0.038918253 0.0013964769 0.40272039 0.91344243 0.058644708 0.0035559337
-0.022485835 0.038249295 0.0014435654 0.35656363 0.93125474 0.075012878 0.0025397502
-0.019485733 0.037134361 0.0015080987 0.31625751 0.94357395 0.098231331 0.0025515673
-0.016931564 0.036314372 0.0013704234 0.27655873 0.95842332 0.070285648 0.0026890021
0.025128415 0.036302928 0.00082992512 -0.29302478 0.95610482 -0.00025002091 0.0025270006
0.028550263 0.037336059 0.0015227642 -0.30134487 0.95065469 0.073804177 0.001812909
0.031439163 0.038364757 0.0014235349 -0.37134263 0.92532784 0.076636158 0.0024934944
0.033408452 0.038962565 0.002752152 -0.43602917 0.88580555 0.15883046 0.0051197018
0.071591251 0.037505116 0.001432965 0.95456123 -0.27850053 0.10606764 0.0038180035
0.072068579 0.038665932 0.00052171829 0.98758817 -0.14540583 0.05938682 0.0069467826
-0.030467188 0.041709874 0.0016612794 0.45537317 0.88718998 0.074358277 0.0021610023
-0.028418913 0.040754698 0.0015211562 0.42175838 0.90338314 0.077580199 0.0021190268
-0.025665501 0.03954567 0.0013864542 0.38377294 0.92045617 0.074018911 0.0027943233
0.032944463 0.039014582 0.0014577283 -0.39275819 0.91739494 0.064246386 0.0041923085
0.034545936 0.039711528 0.001392934 -0.43408787 0.89661604 0.087449498 0.0034176116
0.037394945 0.04124717 0.0014497268 -0.49972305 0.86056513 0.098511703 0.0025485535
0.071927458 0.03943745 0.0024598993 0.96971327 -0.192035 0.15092628 0.0039075082
0.072287619 0.040636696 0.0012837055 0.98019797 -0.16153373 0.11453687 0.0040209019
-0.03641567 0.044749763 0.0015659971 0.49073508 0.86772972 0.078894012 0.0022956235
-0.03442597 0.043710593 0.0014965604 0.46126607 0.88441491 0.071020968 0.0022486278
-0.031952247 0.042473733 0.0012943131 0.42648134 0.90136892 0.075151972 0.0022284577
0.038841344 0.04216972 0.0011929581 -0.54265976 0.83463728 0.094345376 0.0026168285
0.040511683 0.043145649 0.0015086808 -0.50889838 0.85584122 0.092511147 0.0024446403
0.04264798 0.044537947 0.001402769 -0.53688502 0.84083623 0.068912491 0.0023922445
0.072777241 0.043595016 0.0010289368 0.9967199 -0.079183675 -0.016716024 0.0034423424
-0.042306609 0.0478606 0.0024312008 0.50379068 0.85378134 0.1313483 0.0050903643
-0.040471584 0.046994437 0.0014390876 0.48315325 0.87216759 0.076724708 0.0029524609
-0.037879251 0.045557465 0.0013842165 0.46107602 0.88379908 0.079424277 0.0024236003
0.04422877 0.045581575 0.0013316185 -0.53288269 0.84248453 0.079093739 0.0026883769
0.046470467 0.047026224 0.0014592744 -0.54120892 0.83581281 0.092249118 0.0034726418
0.04811883 0.047915388 0.0023543737 -0.5603931 0.8227433 0.095147982 0.0023471222
0.072969384 0.046488244 0.0010393927 0.99949068 -0.031564422 -0.0047111656 0.0051360619
-0.046329796 0.05028237 0.0014905161 0.48929584 0.86445534 0.1153542 0.0034399619
-0.043654542 0.048788298 0.0013948074 0.47565484 0.87586975 0.081268698 0.003233121
-0.041999713 0.048009813 0.00031607642 0.45414692 0.89016229 0.0369028 0.0061974772
0.049527407 0.049052443 0.0013852274 -0.5584963 0.82488328 0.08746136 0.0039726072
0.051675051 0.050538443 0.0014211241 -0.57511044 0.81400216 0.081538372 0.0028823069
0.073039301 0.049609452 0.0011763969 0.99993747 -0.0092067011 -0.006345022 0.0062516578
-0.052196454 0.053453133 0.0015569534 0.43455696 0.88997805 0.13820012 0.0044002756
-0.049474299 0.052033585 0.0014098114 0.44230011 0.88884318 0.1197014 0.0036491316
-0.04769678 0.051117752 0.0010450082 0.47002119 0.87730843 0.097004659 0.0050802263
0.053111881 0.051537558 0.001263527 -0.53732789 0.83926719 0.083122551 0.0032499584
0.055339884 0.052973263 0.0013053555 -0.56810337 0.81762516 0.093528651 0.0030471473
0.057173714 0.053885341 0.0026368611 -0.56812745 0.81974977 0.072398186 0.0032865796
0.072998673 0.052481201 0.0013171937 0.98975259 0.0059816265 0.14266784 0.00797169
-0.060511369 0.05682835 0.0018937461 0.46349835 0.87615979 0.13233756 0.011026663
-0.058551062 0.056023117 0.0014247546 0.38156411 0.91706562 0.11575606 0.0095881922
-0.055560991 0.054918896 0.0014534858 0.33293501 0.93417859 0.12831424 0.0042254678
-0.053633306 0.054197166 0.0012159987 0.39422587 0.91180921 0.11484739 0.005806908
0.056849234 0.054047912 0.00079053658 -0.59675598 0.8021493 0.02094892 0.0057885265
0.058549121 0.055192206 0.0010622701 -0.60754919 0.79388422 -0.025135262 0.0044599883
0.060495071 0.056781352 0.0007684849 -0.609007 0.78655142 -0.10221237 0.0054381192
0.073156841 0.055003196 0.0010809586 0.99990004 -0.01336875 -0.0046018721 0.013057339
-0.075161062 0.057662282 0.00055275555 -0.45999759 0.88717914 -0.036267713 0.0090096509
-0.073388353 0.058528788 0.0013241435 -0.43046615 0.90191597 0.035305176 0.0021221936
-0.071265951 0.059567347 0.0014725386 -0.38906094 0.92011166 0.045013022 0.0039116787
-0.066176511 0.059961792 0.0025086685 0.28311437 0.89198846 0.35242438 0.017043244
-0.064160891 0.059229076 0.0015406419 0.51719815 0.84168494 0.15515339 0.0089259585
-0.061823417 0.057811201 0.0011782908 0.48420131 0.86546153 0.12855116 0.01253274
0.061190329 0.057483405 0.00068856531 -0.68793494 0.6949805 -0.20915923 0.0085458811
0.073364355 0.05849354 0.00094060315 0.98835433 -0.087736063 -0.12433045 0.017686861
-0.069711551 0.060317185 0.0016485492 -0.23899995 0.96872598 0.066701248 0.0096421596
-0.067041546 0.06074594 0.0012813766 0.18823177 0.97928911 0.074576259 0.020169517
-0.065532051 0.060240809 0.00075682864 0.4030115 0.91439748 0.038197998 0.018442078
0.073650703 0.061376154 0.0010629543 0.97390383 -0.16719095 -0.15348803 0.019412264
0.074137509 0.064412788 0.0010605408 0.94840747 -0.24777016 -0.19782133 0.020315852
0.074790724 0.0667063 0.00068216055 0.89364725 -0.24003956 -0.37917748 0.010331913
0.075169943 0.068296053 0.00077345374 0.92934924 -0.26507553 -0.2569924 0.011935825
0.074907981 0.069572188 0.0023585835 0.95525557 -0.26215607 -0.13697122 0.01089255
0.075874269 0.070438176 0.00072415319 0.96494365 -0.24149956 -0.10276997 0.014875005
0.076678753 0.07435178 0.0012305364 0.79286087 0.60790259 0.042733595 0.064591266
0.068615146 0.077202477 0.00085970992 0.13647592 0.97478569 -0.17654218 0.058388907
0.070529304 0.076675646 0.0014481405 0.26218796 0.96260864 -0.068133868 0.0067392155
0.073478572 0.07576894 0.0014806582 0.33361796 0.94249755 0.019935289 0.0022628924
0.075473718 0.075154908 0.0014614783 0.42103907 0.90692693 -0.014480939 0.0058372444
0.05603737 0.017370645 0.0031980618 0.60781538 -0.79239202 0.051724799 0.0010991772
0.058082018 0.018919518 0.0030999519 0.63900793 -0.76652461 0.064101927 0.0011558372
0.060417607 0.020945841 0.0032980312 0.67154759 -0.7390365 0.053375788 0.00081350468
0.061237521 0.021681461 0.0031201069 0.70045388 -0.70807713 0.089393415 0.0020831521
0.064464487 0.025435762 0.0038786649 0.74622822 -0.61487454 0.25509351 0.00091982086
0.065663852 0.028341785 0.0059171137 0.79606044 -0.53006291 0.29209796 0.0016763788
0.066713095 0.028545734 0.0040394049 0.80077517 -0.51908731 0.29884371 0.0012500596
-0.0068462375 0.03291453 0.0055821673 0.16175434 0.92065042 0.3553004 0.0010230202
-0.0045169126 0.032692593 0.005271195 0.12985027 0.94282323 0.30695793 0.0019974932
-0.0015152284 0.032587659 0.004494186 0.086660825 0.95547605 0.28205588 0.0020746605
0.0014537497 0.03235409 0.0044900137 0.062459126 0.96274221 0.26310879 0.0022443018
0.0044303327 0.03235073 0.0042205197 0.020012567 0.96291739 0.26905328 0.0021506844
0.0073030484 0.032299276 0.0043806192 -0.037316475 0.96506208 0.25935054 0.0023013195
0.010544334 0.032588255 0.0041359444 -0.095341265 0.96907175 0.22761808 0.0024266918
0.013425581 0.032629535 0.0048798183 -0.14518429 0.94079095 0.30632314 0.0026474211
0.016049389 0.032841265 0.005553321 -0.19729882 0.93606186 0.2913098 0.0020238771
0.068267122 0.031261399 0.0042490377 0.82754552 -0.47005293 0.30695051 0.0015778582
0.069154203 0.032635454 0.0039488133 0.84813005 -0.42004454 0.32285902 0.0026977244
-0.018278388 0.035819698 0.0055072065 0.30323002 0.91027057 0.28188491 0.0022204993
-0.01632387 0.035513457 0.004518019 0.29225126 0.91800135 0.26807213 0.0022191948
-0.013499598 0.034736048 0.0044904416 0.24948187 0.92765236 0.27788448 0.0018365836
-0.010542526 0.034035604 0.0044178567 0.19817458 0.93824512 0.28358942 0.0022950934
-0.0076279729 0.033532817 0.0041919686 0.15906352 0.94817603 0.27506572 0.0020588217
-0.0045636967 0.033192735 0.0037544835 0.12613785 0.95455146 0.27003828 0.001998571
-0.0026363314 0.033020388 0.0031774621 0.09712445 0.9861626 0.13435104 0.002692519
0.013824382 0.033128761 0.003440907 -0.14282475 0.94895762 0.28121275 0.0028671981
0.016594352 0.033479944 0.0040174308 -0.20909837 0.95011842 0.23141494 0.0038236547
0.019448064 0.033975169 0.0046108947 -0.23439856 0.94015765 0.24730743 0.0014388629
0.022504259 0.034826651 0.0045342315 -0.26140344 0.9380697 0.22736229 0.0027671135
0.025225963 0.035585731 0.0046980921 -0.28387991 0.92004955 0.2700389 0.0017228154
0.068912461 0.033836409 0.0056006308 0.86728221 -0.34862801 0.35535908 0.0030693957
0.070220172 0.035212725 0.0038965882 0.89930391 -0.33180705 0.28487992 0.0070348531
-0.025039913 0.038568508 0.0047990754 0.37894493 0.88355768 0.27518466 0.0018810049
-0.022574035 0.03768437 0.0044917515 0.3566376 0.89158911 0.27906695 0.0018981603
-0.019603437 0.03660816 0.0044368058 0.30654067 0.91167897 0.27363166 0.002174193
-0.017511541 0.036131028 0.0037070054 0.29880682 0.91772264 0.26172444 0.0020790584
0.026220979 0.036211688 0.0035937484 -0.28424218 0.9234373 0.25781769 0.0016106612
0.028537787 0.036752943 0.0043608234 -0.30100825 0.91541588 0.26722246 0.0016859556
0.031414568 0.03776402 0.0043825889 -0.35317194 0.88753593 0.29588777 0.0031093098
0.033892497 0.038600061 0.004923108 -0.41929021 0.85956568 0.29213467 0.0030088737
0.070850849 0.037807114 0.0043785768 0.88863713 -0.2483324 0.38555825 0.0037019253
-0.031163951 0.041421618 0.0045970492 0.42207748 0.86681211 0.26549482 0.0018677749
-0.028501965 0.040196266 0.0044932468 0.39303342 0.87944269 0.26852417 0.0018740469
-0.026233278 0.039306086 0.0040926924 0.3695299 0.89151478 0.26200968 0.0022701568
0.035007752 0.039434325 0.0040081651 -0.42834398 0.8647207 0.26225847 0.0024863579
0.037482016 0.040663105 0.0043345792 -0.47315803 0.84571254 0.24676251 0.0022150965
0.039529689 0.041761622 0.004726409 -0.500229 0.83284879 0.23692593 0.0031518789
0.071417123 0.040568128 0.004432349 0.91084212 -0.16013983 0.38042316 0.0036533175
0.072078899 0.041797891 0.0034314336 0.91954798 -0.16385585 0.35718739 0.0052032168
-0.037079215 0.044425379 0.0045935228 0.44952121 0.84761846 0.28191048 0.0022610237
-0.034549367 0.043152079 0.0044589085 0.4291614 0.86010492 0.27575368 0.0018788826
-0.032521848 0.042304758 0.0038746905 0.41175658 0.87133086 0.26690665 0.0018134448
0.040730372 0.04272572 0.0040787566 -0.51641393 0.82138729 0.24215606 0.0014184867
0.043437015 0.044351399 0.0043499586 -0.52686453 0.81523389 0.24043162 0.0010256582
0.071582392 0.043602988 0.0049299458 0.89731985 -0.061703116 0.43704674 0.0037956678
0.072240941 0.043796238 0.0034573185 0.93033904 -0.091682255 0.3550545 0.0031760451
-0.042891949 0.04754192 0.0047271471 0.4604407 0.83602673 0.2984184 0.0026772458
-0.040480196 0.046332862 0.0044082589 0.45609441 0.83519298 0.30729544 0.0021212602
-0.038393009 0.045332562 0.0039812196 0.4380081 0.85260689 0.28497425 0.0020867377
0.044869591 0.045699015 0.0033443251 -0.53380597 0.81299549 0.23257165 0.0066635255
0.046444029 0.046194531 0.0045046969 -0.52803379 0.80969465 0.2560761 0.0018268095
0.048450772 0.04744634 0.0045430246 -0.53328776 0.80752891 0.25199461 0.0014996976
0.071528815 0.046504751 0.0052557327 0.887317 -0.018380664 0.46079355 0.0035326902
0.072269857 0.04676234 0.0037527811 0.91695327 -0.028847309 0.39795047 0.0041999184
-0.048755135 0.050612506 0.0049677696 0.44367671 0.83660847 0.32130554 0.0025710014
-0.046460252 0.049589533 0.0044709994 0.44577798 0.83417118 0.324716 0.0027133105
-0.044155855 0.048522871 0.0039527854 0.44436708 0.84266078 0.30407354 0.0022320973
0.049733486 0.048570678 0.0038957591 -0.54462868 0.80298465 0.24206455 0.0013361681
0.051979557 0.049952716 0.0041006804 -0.54626703 0.8102603 0.21229839 0.0017789316
0.07144583 0.049518213 0.0053045931 0.87108982 0.023787925 0.4905473 0.003765157
0.072335199 0.049505442 0.0035915291 0.91139436 0.017613823 0.41115695 0.0038053307
-0.057166971 0.053799435 0.0059047611 0.24396099 0.79162073 0.56019616 0.0022270416
-0.054924473 0.053616434 0.0048291837 0.34011334 0.86329544 0.37288576 0.0032428419
-0.052430138 0.05269016 0.0044774688 0.40292689 0.83800668 0.36796036 0.0027781434
-0.049964752 0.051607076 0.0040784939 0.4246543 0.84063244 0.33616349 0.0030766993
0.053711645 0.051338747 0.0035770251 -0.54840219 0.80917531 0.21092725 0.0012456166
0.055628926 0.052471995 0.0037314855 -0.54047489 0.81810308 0.19645439 0.00054476049
0.057445746 0.053855009 0.0033341686 -0.5958423 0.79849213 0.085920483 0.0032817668
0.071312204 0.052190032 0.0052559851 0.87362033 0.049774256 0.48405585 0.0046386728
0.072310977 0.052574437 0.0035378197 0.89488649 0.01539613 0.44602805 0.0040867389
-0.063536927 0.056471005 0.0053490824 0.36255103 0.75938165 0.54027426 0.0029674231
-0.061230149 0.055969175 0.0045473445 0.40530181 0.81686264 0.41044593 0.0043716216
-0.058493514 0.055143844 0.0041835546 0.32336304 0.86449963 0.38480738 0.0031831756
-0.055781439 0.054364029 0.0039298139 0.33883354 0.87702197 0.34062332 0.0025052384
0.071554035 0.05553858 0.0044988007 0.87391937 0.033178601 0.48493722 0.016578477
0.072215699 0.054825872 0.003637332 0.90496248 0.045428302 0.4230594 0.015698072
-0.073115528 0.058614604 0.0033264495 -0.38435367 0.92202795 0.046223432 0.0054726191
-0.070843428 0.059259519 0.0041128676 -0.29775375 0.8884756 0.34921876 0.020753618
-0.066828057 0.059300616 0.0038675179 0.38070086 0.82809883 0.41148418 0.016439263
-0.064275376 0.05808343 0.0039304239 0.44049907 0.79004943 0.42635956 0.0043194625
-0.062403325 0.057431519 0.0033080408 0.47307688 0.80801934 0.35114512 0.0038019817
0.07098639 0.05820464 0.0045471415 0.75977558 -0.022327397 0.64980197 0.0083796224
-0.069707334 0.060210485 0.0032627431 -0.22420269 0.91438639 0.33709159 0.025214056
-0.067692235 0.060312618 0.0031198263 0.23940729 0.92228019 0.30345246 0.024397358
0.071974441 0.060503755 0.0035244178 0.95976979 -0.12823953 0.24979305 0.020698758
0.072117366 0.061466921 0.0033702019 0.96710944 -0.10497785 0.23168734 0.02222039
0.075824939 0.07476341 0.0034025384 0.70518368 0.65429568 0.27315411 0.082925774
0.071162529 0.076457143 0.0036025422 0.2981109 0.95450914 0.0064981687 0.00067410426
0.073454075 0.075752586 0.0037681365 0.3335107 0.94253588 0.019917477 0.0023264575
0.075401321 0.075136043 0.0033454162 0.37843353 0.92546856 -0.017204586 0.0068704933
0.064338259 0.026575316 0.0060333549 0.7864812 -0.54830343 0.28427231 0.0025080387
0.066241175 0.029756801 0.0065084291 0.77916217 -0.47052857 0.41413674 0.0017021018
-0.012827692 0.032756642 0.0085290298 0.22146234 0.86099327 0.45787004 0.0015927383
-0.010195012 0.032468542 0.0079180514 0.19809684 0.86793238 0.45546797 0.0015204715
-0.0074246083 0.032178015 0.0073694601 0.17049979 0.87821633 0.44683999 0.0016234332
-0.004284807 0.031786758 0.0071839881 0.12384979 0.88935596 0.44012174 0.0015230566
-0.0013801212 0.031353399 0.0072927638 0.090473883 0.88269764 0.46115008 0.0022542612
0.0015455205 0.031085242 0.0073543414 0.064888477 0.90126032 0.42839158 0.0023304122
0.0040664948 0.031311505 0.0067914608 0.025830321 0.93537068 0.35272419 0.0019284753
0.0076541081 0.030905444 0.0075154016 -0.028691463 0.91293848 0.40708748 0.0017400458
0.011175459 0.031468354 0.0069075879 -0.097567163 0.9071579 0.40932283 0.0023942899
0.012986936 0.031405166 0.0074225487 -0.13127232 0.90633947 0.40164194 0.002794673
0.016380083 0.031979296 0.0074350359 -0.18542694 0.86257422 0.4707256 0.0018341499
0.019463729 0.032433115 0.0079758447 -0.21262732 0.84135401 0.49690354 0.0018696227
0.022014504 0.032715514 0.0086121447 -0.23455454 0.77909625 0.5813719 0.001013245
0.067487814 0.03193308 0.0064327805 0.81915808 -0.44234979 0.36511204 0.0019288335
-0.021529684 0.035688978 0.0082121873 0.31651694 0.83009344 0.45908803 0.0013168039
-0.019323518 0.035249155 0.0075686774 0.30743489 0.84860438 0.43052804 0.0016971991
-0.016542954 0.034436882 0.0073555508 0.26832876 0.85963064 0.43478128 0.0020588797
-0.013433677 0.033671338 0.0071399291 0.21930674 0.87283933 0.43595418 0.0014886651
-0.010643949 0.033265594 0.0065825856 0.18860953 0.89184809 0.41113693 0.0010507229
-0.0084909443 0.033025809 0.0060797008 0.1650559 0.89802092 0.40781727 0.0011513379
0.019774914 0.03324892 0.0066719288 -0.22133224 0.86375636 0.45269972 0.0017896403
0.022369398 0.033772137 0.0069958568 -0.24037494 0.8501541 0.46846339 0.0020679282
0.02546758 0.034410711 0.0075076702 -0.25414473 0.8485865 0.46401674 0.003079016
0.028165407 0.035392195 0.0072712325 -0.28792161 0.87297875 0.39371216 0.0017915076
0.030772932 0.035660896 0.0084471293 -0.27778044 0.79746944 0.53561234 0.0048043812
0.068354361 0.034502074 0.0068891668 0.80201685 -0.33350047 0.4955264 0.0014462494
-0.028067956 0.038512658 0.0079921111 0.37574577 0.8201071 0.43155465 0.0017666357
-0.025402879 0.037667457 0.0073741414 0.35133004 0.83753979 0.41844261 0.0018351722
-0.02271839 0.036631629 0.0072987508 0.31462482 0.84847116 0.42556784 0.0016397643
-0.020397088 0.036156844 0.0064749983 0.30347791 0.87213868 0.38376465 0.0012316039
0.029268768 0.036205538 0.0064537469 -0.3049821 0.87031996 0.38668987 0.0024986693
0.032046814 0.036408067 0.0078735901 -0.3263894 0.86346978 0.38456464 0.0025690412
0.033889167 0.037637532 0.0070369402 -0.36828557 0.8385002 0.40160072 0.0041178307
