# .PCD v0.7 - Point Cloud Data file format
VERSION 0.7
FIELDS x y z normal_x normal_y normal_z curvature
SIZE 4 4 4 4 4 4 4
TYPE F F F F F F F
COUNT 1 1 1 1 1 1 1
WIDTH 558
HEIGHT 1
VIEWPOINT 0 0 0 1 0 0 0
POINTS 558
DATA ascii
0.0014895092 0.013454602 0.0013232735 0.4830384 -0.00078137498 -0.87559873 0.028510706
0.003187581 0.013435365 0.0024457993 0.91230881 -0.00037155746 -0.40950283 0.019629082
-0.0034433536 0.017137004 0.00014054198 0.18921748 0.023947202 -0.98164314 0.00010716124
-0.0011220449 0.016537068 0.00058150338 0.27328429 0.0034191937 -0.96192724 0.0077594989
0.0014069952 0.016315186 0.0013044405 0.48371974 0.0026918966 -0.87521881 0.026870893
0.0031977911 0.016543314 0.0024533072 0.90771639 -0.00081868266 -0.4195835 0.018758457
-0.0036218122 0.019727141 0.00017652653 0.17640607 0.030116638 -0.98385668 0.0003516163
-0.0012013408 0.019476164 0.00061220612 0.25444177 0.013109938 -0.96699917 0.0080207912
0.0018642521 0.019533176 0.0014839302 0.60351241 0.0012954728 -0.79735249 0.041875474
0.0032063155 0.019642651 0.0024615838 0.90946263 -0.0029780595 -0.41577503 0.019153766
-0.0041547841 0.022621192 0.00019223301 0.15303238 0.035187311 -0.98759449 8.9474604e-05
-0.0013343975 0.02229996 0.00061348773 0.23426782 0.013693441 -0.97207564 0.0085785575
0.001889832 0.022494804 0.0014979675 0.60595894 0.0019031239 -0.79549366 0.04312937
0.0032116505 0.022452278 0.0024703238 0.91079354 -0.0044788839 -0.4128378 0.019411847
-0.0064646285 0.026183117 5.5170349e-05 0.13180037 0.038575791 -0.99052542 6.2787411e-05
-0.0048013213 0.025520094 0.00023420225 0.13784862 0.032366883 -0.98992425 7.9320773e-05
-0.00081939326 0.025441702 0.00072919979 0.40648243 -0.024002552 -0.91334325 0.017123599
0.001945199 0.025498472 0.0015357134 0.61270994 0.012311993 -0.79021198 0.040575303
0.0032170126 0.025392897 0.0024791392 0.8345114 0.015637429 -0.55076867 0.032169778
-0.0069126873 0.028870538 5.6409994e-05 0.12021013 0.035932101 -0.99209803 6.1326667e-05
-0.0050701792 0.028303012 0.00022390661 0.12915133 0.026847256 -0.99126136 0.00013831271
-0.0015446399 0.02843692 0.00053076219 0.2152926 0.0069032134 -0.97652519 0.0038619994
0.0015859772 0.028427713 0.0013835775 0.60994011 -0.0046881586 -0.79243368 0.036832184
0.0032230292 0.028468147 0.0024886653 0.88233066 0.014041931 -0.47042048 0.020967847
-0.0069039012 0.031872895 0.00013184674 0.11273908 0.032515638 -0.99309242 0.00011344571
-0.0051189163 0.031200368 0.00026971748 0.11721697 0.025349746 -0.99278277 0.00016588563
-0.0015494379 0.031468764 0.00054351776 0.15134528 0.0084968582 -0.98844445 0.00062512112
0.001593793 0.031462699 0.0013770291 0.7110076 -0.0049330741 -0.70316702 0.032992221
0.0032303135 0.031535942 0.0024982034 0.87490416 -0.0066914521 -0.48424998 0.021015475
-0.0068899374 0.034741208 7.2170777e-05 0.087166101 0.0090654893 -0.99615258 6.1223574e-05
-0.0053430228 0.033939153 0.00029574812 0.11031131 0.019089838 -0.99371374 0.00017098116
-0.0015552883 0.03450096 0.00055908534 0.14914738 -0.041966081 -0.9879241 0.0018390357
0.0017307273 0.03448901 0.0014402635 0.7219249 -0.049958877 -0.69016564 0.037693582
0.0032375809 0.034455709 0.0025069283 0.8762359 -0.080765449 -0.47506595 0.027669352
-0.0071014492 0.037126537 7.612953e-05 0.087385841 -0.071997933 -0.99356931 0.0023804086
-0.0046147271 0.037500352 0.00024036095 0.080252416 -0.1258852 -0.98879349 0.0030920741
-0.0015245943 0.037524361 0.00047694473 0.11223484 -0.16126575 -0.98050839 0.005928712
0.0016815603 0.037412036 0.0011005272 0.33447769 -0.33317819 -0.88154238 0.047068067
0.0036269249 0.037085615 0.0023837974 0.66218024 -0.31548825 -0.67969447 0.05789113
0.0072153159 0.03862112 0.0023054599 0.13754089 -0.88526881 -0.44427657 0.0065459623
0.0096615702 0.038731698 0.002670876 0.18835932 -0.94200361 -0.27775878 0.0042569307
-0.048117694 0.04055541 0.0028536778 -0.29590929 -0.84932035 -0.43714154 0.014766595
-0.046525039 0.040875949 0.0017906192 -0.3480579 -0.84533727 -0.40529081 0.016621668
-0.044015229 0.040321022 0.001566316 -0.37494075 -0.83513504 -0.40245366 0.019482253
-0.04173198 0.039558463 6.4833257e-05 -0.52160281 -0.69763571 -0.49115682 0.036773972
-0.0013788373 0.039416116 8.8222412e-05 0.065906502 -0.44172513 -0.8947264 0.0057028057
0.0016039334 0.039589506 0.00031068968 0.097470626 -0.59391564 -0.79860109 0.015928058
0.0045634769 0.039547186 0.00063847809 0.055253718 -0.78242415 -0.62028986 0.020449981
0.0074965074 0.039446961 0.00056250126 0.010987815 -0.87159413 -0.49010512 0.0058269543
0.010395446 0.039366052 0.0010008106 0.081479408 -0.94983542 -0.30194992 0.0070275245
0.013361738 0.039661452 0.0015199099 0.16030781 -0.96135217 -0.22383812 0.0027924301
0.016323747 0.040367492 0.0014666108 0.22632109 -0.96346599 -0.14322051 0.002423408
0.019584656 0.041524053 0.0021361606 0.37341923 -0.92290992 0.09378358 0.0013606516
0.021312211 0.041964214 0.00038362472 0.26679626 -0.96166456 -0.063412108 0.0018388119
-0.051179405 0.042819861 0.0013036877 -0.24233906 -0.89723915 -0.36909854 0.015232959
-0.049419586 0.042804874 0.001330144 -0.1970039 -0.87658799 -0.43907055 0.020237429
-0.046810977 0.042775948 0.0008088199 -0.31925854 -0.7736932 -0.54724115 0.01912012
0.020737611 0.042000797 0.0024277451 0.44811809 -0.86699092 0.21798371 5.9918355e-05
0.022555515 0.0426246 0.0016779993 0.37575883 -0.92188585 0.094508462 0.00050946174
0.025605006 0.044092756 0.0016734482 0.4308196 -0.86457396 0.25866276 0.0020248769
0.027353285 0.044795729 0.001037206 0.42804366 -0.85107577 0.30405381 0.0038551688
0.028914722 0.045852758 0.0015119142 0.48677012 -0.78161889 0.39003441 0.00088007655
0.031116031 0.047167648 0.0013457984 0.48629352 -0.75990504 0.4313502 0.0042356667
0.033226825 0.047854722 0.0001798751 0.49889541 -0.73878574 0.4530994 0.0062847128
0.032281868 0.048500411 0.0020471872 0.51054996 -0.70015395 0.49912238 0.0036054347
0.034360085 0.049728777 0.0014499618 0.52804422 -0.6182543 0.58217776 0.0052530146
0.036401682 0.050584041 0.00051343761 0.53715831 -0.59197319 0.6008566 0.0017059668
0.035359789 0.05180556 0.0023806451 0.58283931 -0.3803924 0.71805292 0.0027511949
0.03733867 0.052679159 0.0013275321 0.57758969 -0.43507713 0.69072282 0.00488389
0.039364088 0.053718906 0.00035642408 0.59797621 -0.44270584 0.66815865 0.0023152158
0.037900098 0.0554507 0.0021743188 0.57887197 -0.2029019 0.7897709 0.0020742479
0.039825696 0.055675354 0.00079624879 0.61392152 -0.24846464 0.74924344 0.0034463305
-0.049418926 0.057553876 0.00030829548 -0.28376326 0.89672375 -0.33965412 0.0058930181
-0.046904087 0.058567755 0.0011320801 -0.33327854 0.86911249 -0.36547098 0.0034210037
-0.044991482 0.059797361 0.0016268715 -0.28327638 0.86607856 -0.41190109 0.0020378307
0.038072102 0.058480386 0.0024898248 0.56447142 -0.018183114 0.82525241 0.0015841492
0.040081762 0.058591828 0.0011026025 0.60429955 -0.047018968 0.79536873 0.0023040874
-0.043267164 0.060331773 0.0019816007 -0.2846421 0.87019885 -0.40216035 0.0023361316
-0.040532134 0.060682617 0.0012463871 -0.20202425 0.90288115 -0.37946269 0.00028060045
-0.037188597 0.061545987 0.0016288711 -0.19333361 0.89383924 -0.40456593 0.00032255444
-0.034355331 0.062018555 0.0014291912 -0.16512311 0.88300991 -0.43934947 0.00052130281
-0.031677227 0.062301859 0.00098237745 -0.14889716 0.86248618 -0.48368087 0.00045297679
-0.028608305 0.06256479 0.00054758007 -0.13956131 0.83935845 -0.52535707 0.00044940383
-0.026621044 0.062703833 0.00021064811 -0.12514067 0.81246042 -0.56942779 0.00046078098
0.03800464 0.061492909 0.0022963556 0.54097128 0.086724862 0.83655781 0.00014634643
0.040103447 0.061556164 0.00089058268 0.59077972 0.087632433 0.80205983 0.00056954345
-0.03095079 0.063198052 0.0023596918 -0.18479642 0.85619539 -0.48247263 0.00030068523
-0.028636588 0.06363371 0.0022463112 -0.18091714 0.83559364 -0.51870251 0.00027610426
-0.02536778 0.063900456 0.0016228564 -0.17309481 0.81089079 -0.55901188 0.0004462059
-0.022428347 0.064423092 0.0014950018 -0.18481252 0.77778995 -0.60073882 0.00022954053
-0.019507559 0.064930938 0.0012599037 -0.19589069 0.75692928 -0.62344593 0.00045631779
-0.016836852 0.065293364 0.00078509498 -0.23412819 0.72248638 -0.6505363 0.00035454455
-0.014209613 0.065708809 0.00024614256 -0.2862719 0.69376898 -0.66085786 0.00046821291
0.037616633 0.064525209 0.0021229177 0.53690797 0.13215365 0.83322585 9.0407164e-05
0.039730139 0.064413168 0.00074555172 0.58620977 0.13657141 0.79856527 0.00038641944
-0.019261243 0.066224426 0.0027456519 -0.22513421 0.74799985 -0.6243484 0.0004516179
-0.016143151 0.066795081 0.0022037837 -0.25467232 0.73490888 -0.6285308 0.00031984452
-0.013456127 0.067291103 0.0015844157 -0.29619858 0.71118778 -0.63755655 0.00027982928
-0.01086005 0.067985184 0.00099121151 -0.35028034 0.68248045 -0.64150155 0.00051335857
-0.0082295323 0.068714023 0.00022748858 -0.41200191 0.64177328 -0.64682424 0.00039801732
0.035673056 0.067669958 0.0028042947 0.51214981 0.1598608 0.84388804 9.9212099e-05
0.037508506 0.067527398 0.0016656554 0.54541588 0.16558267 0.82164717 0.00023941838
0.039542153 0.06740474 0.00031122143 0.59202939 0.16914476 0.78796661 0.00046279727
-0.012226961 0.069026083 0.0027881633 -0.32439846 0.70204753 -0.63395184 0.00044084829
-0.009930945 0.069756024 0.0022880065 -0.35925207 0.71459943 -0.60023803 0.00086909183
-0.0074093179 0.07030379 0.0013033855 -0.43128112 0.67083514 -0.60330498 0.0011993892
-0.005466802 0.071573563 0.0012715493 -0.44903147 0.6854136 -0.57321817 0.0010172706
0.035181072 0.070597105 0.0024829197 0.49132031 0.2298587 0.84010077 0.00082471687
0.037598539 0.070543543 0.00095219549 0.54693252 0.21881732 0.80807418 0.0005087711
0.039288573 0.069541678 4.5877791e-06 0.59531498 0.22068329 0.77259237 0.00041384556
-0.0043159272 0.072654128 0.0017755851 -0.48234481 0.68148887 -0.55037838 0.00086657458
-0.0021191344 0.073437363 0.00088552514 -0.50942075 0.67316765 -0.53603727 0.00040349487
0.03239762 0.074398533 0.0026728134 0.43359798 0.41303688 0.80087042 0.0046482268
0.034540471 0.073598616 0.0019155777 0.4569695 0.35376808 0.81610477 0.0030439086
0.037128121 0.07314074 0.00054611336 0.54010373 0.33278799 0.77300721 0.0022459037
0.0094108414 0.077819891 0.0027182656 -0.070558995 0.97320372 0.21885143 0.00055636407
0.02398264 0.077850953 0.002685565 0.17502251 0.80800921 0.5625729 0.0024227763
0.026010271 0.077666298 0.0023487094 0.17641641 0.80256259 0.56988651 0.0033463382
0.028594987 0.077097505 0.0021527994 0.22839859 0.73431855 0.63922638 0.0023570615
0.031511996 0.076465257 0.0015946531 0.2998459 0.60600448 0.73678428 0.0031436873
0.03428882 0.075871557 0.0007979786 0.4340345 0.53409922 0.72550124 0.0023039477
0.01089488 0.078125909 0.0017276513 -0.079340786 0.97275531 0.21783528 0.00049739628
0.013257224 0.078486413 0.0010127197 -0.071113467 0.97678137 0.20209189 0.00035485788
0.016707167 0.078719959 0.0015807422 -0.045491867 0.96519029 0.25756225 0.0015786176
0.019376168 0.078802228 0.0014858341 -0.030003216 0.94968587 0.31176355 0.0026137249
0.022375371 0.078685716 0.0015005405 0.085931733 0.88487715 0.45782986 0.0012934878
0.025412392 0.078596793 0.0011341653 0.096000284 0.84650558 0.52365279 0.0042245383
0.028356114 0.078377061 0.00072863023 0.16729702 0.77913713 0.60411674 0.0039384705
0.030315574 0.07822673 0.00036301039 0.24960288 0.7119779 0.65634286 0.0028286276
0.02613071 -0.073670745 0.0057367417 0.42969835 -0.34510738 0.83442211 0.00071537605
0.028758002 -0.073030353 0.0049267667 0.43517831 -0.33581856 0.83537167 0.00085151574
0.031479318 -0.073273912 0.0034354846 0.45229694 -0.30524874 0.83800399 0.00022880596
0.029199433 -0.070854113 0.0056278179 0.44396952 -0.29598698 0.84574395 0.0021108007
0.031545866 -0.070507906 0.0044656801 0.46013382 -0.28505552 0.84084493 0.0006728337
0.033784103 -0.070190862 0.0033015346 0.47200528 -0.25440833 0.84408975 0.00090983929
-0.021688502 -0.066293493 0.0044241752 -0.21864417 -0.77000606 -0.59940416 0.00057098921
-0.019368747 -0.06667348 0.0039846925 -0.22667465 -0.74297988 -0.62976146 0.00039257601
-0.016511302 -0.067346685 0.0035780258 -0.25894079 -0.71740788 -0.64674228 0.00020437225
-0.013659838 -0.068335228 0.0033607541 -0.30291426 -0.68557292 -0.66199154 0.0003612852
0.029948875 -0.068817712 0.0057765725 0.46644694 -0.21269418 0.85859686 0.0013356601
0.031461045 -0.067565963 0.0051931883 0.48749006 -0.17833877 0.85472143 0.00017286956
0.034335788 -0.067262664 0.003584448 0.4991312 -0.16509739 0.85065323 0.00010237343
-0.034448385 -0.063000657 0.0046256678 -0.18968339 -0.88136035 -0.43269411 0.00034106013
-0.031414218 -0.063493207 0.0041050985 -0.19674967 -0.85444301 -0.48084998 0.00024689845
-0.028464291 -0.064061515 0.0037342303 -0.19442222 -0.82083631 -0.53705478 0.00039943637
-0.025245328 -0.065096885 0.0041308934 -0.18928054 -0.80056334 -0.56856948 0.00020345219
-0.022634048 -0.065442204 0.0036168764 -0.19334237 -0.78367436 -0.59031618 0.00041018112
-0.020853983 -0.065512143 0.0031609102 -0.2204314 -0.76241416 -0.60838693 0.00044392614
0.031956304 -0.064684361 0.0054379352 0.49999291 -0.14610314 0.85361642 0.00012064129
0.034479935 -0.064511523 0.0039825062 0.50561595 -0.13670248 0.85185975 5.0781287e-05
0.036165252 -0.063530475 0.0031305808 0.52168322 -0.13367651 0.84260148 8.2434046e-05
-0.042607859 -0.060364719 0.0032568614 -0.25585884 -0.89572132 -0.36362025 0.0010552952
-0.040471748 -0.061225299 0.0040833908 -0.20485041 -0.90718418 -0.36749581 0.00032025622
-0.037621543 -0.061938621 0.0040332293 -0.20961313 -0.89012402 -0.40464988 0.00016482823
-0.034374632 -0.062600613 0.0037674955 -0.18968372 -0.88136142 -0.43269178 0.00034243267
-0.032583248 -0.062728412 0.0032431523 -0.19155096 -0.86765915 -0.45877647 0.00046174121
0.032355491 -0.06184819 0.0056307944 0.51015824 -0.10540751 0.85359704 7.1983413e-05
0.034547366 -0.061388608 0.0043739318 0.51000571 -0.10016171 0.85431951 7.5810218e-05
0.036595114 -0.061418578 0.0031465064 0.52571958 -0.098119594 0.84498018 0.00010475423
-0.050162073 -0.057982016 0.0044338894 -0.32731652 -0.88081259 -0.34210113 0.0030546058
-0.046854418 -0.059530858 0.0041920515 -0.30152497 -0.87585819 -0.3767693 0.0034332508
-0.044431459 -0.059858978 0.0031043396 -0.28118491 -0.8679533 -0.40938011 0.0028644011
0.032609839 -0.058493931 0.0058229719 0.52693355 -0.04658059 0.84862912 0.00040369024
0.034430124 -0.058585819 0.0047166059 0.52886689 -0.033379901 0.84804821 0.00065455539
0.036649302 -0.058203679 0.0034022399 0.53471762 -0.013653144 0.84492052 0.0010578976
0.032664388 -0.055375982 0.0058317157 0.56243837 0.092381388 0.82166219 0.0022512716
0.034556672 -0.055370312 0.0045793494 0.53871411 0.10749111 0.83560324 0.0020265123
0.036484569 -0.055489358 0.0033086368 0.5445267 0.18286344 0.81856686 0.0037589406
0.03213992 -0.052231867 0.0054045464 0.57960933 0.28211764 0.76450157 0.0030764004
0.0344157 -0.052228399 0.0037952857 0.56180775 0.46592221 0.68358505 0.0023662422
-0.052616898 -0.0487988 0.003331356 -0.93040621 0.3556062 -0.088817567 0.037971821
0.029429993 -0.048564389 0.0054832166 0.56842679 0.53671181 0.62356347 0.0025891783
0.031486385 -0.049450886 0.0043561356 0.55011117 0.55189604 0.6267283 0.003404492
0.033554398 -0.050213002 0.0031654709 0.54021293 0.56401879 0.62454212 0.0020852853
-0.052361656 -0.0458901 0.0030194882 -0.93237662 0.32450181 -0.15928712 0.043553084
0.026244655 -0.045559734 0.0051883049 0.53218722 0.71983069 0.44566873 0.0037224069
0.028287387 -0.046567235 0.0043607694 0.5258227 0.68936145 0.49828839 0.0031131562
0.0306408 -0.047583789 0.0033087381 0.51783848 0.69865137 0.49368984 0.0030832982
-0.052179702 -0.043318171 0.0041015917 -0.82370692 0.5547601 -0.11725294 0.04591528
0.020749355 -0.042169526 0.005446048 0.46730295 0.84401494 0.26318568 0.0061058174
0.022630762 -0.042932436 0.0045252559 0.46280232 0.83943921 0.28487861 0.0018922384
0.025240351 -0.04429679 0.0041573476 0.47534987 0.78979605 0.38763985 0.0030701007
0.027073851 -0.044969611 0.0031048092 0.50245482 0.74342704 0.44142443 0.00273454
-0.051361091 -0.04116407 0.0047603315 -0.58864772 0.76467651 -0.26222825 0.025533568
-0.049577199 -0.040791448 0.0045803227 -0.35334316 0.85942191 -0.3695167 0.0085049067
-0.046663918 -0.039628789 0.0042975154 -0.32700923 0.88223666 -0.33870846 0.0043091383
-0.044332314 -0.039278448 0.0041587097 -0.35145697 0.87584215 -0.33072421 0.015744148
-0.041464541 -0.039019018 0.0033012319 -0.55254167 0.80181122 -0.22758865 0.032119483
0.014294702 -0.039158821 0.0043364763 0.31015173 0.95062441 -0.010909688 0.0029552283
0.016415589 -0.03992454 0.0043158797 0.33915395 0.94031626 0.027927322 0.0028837547
0.019474618 -0.041158993 0.0040456993 0.36609572 0.92361659 0.11360633 0.0022279702
0.021256877 -0.041898884 0.00360722 0.44488281 0.8614943 0.24475898 0.004112992
-0.04355875 -0.038507536 0.0047694952 -0.35448536 0.8552441 -0.37801805 0.022110799
-0.041517045 -0.037601419 0.0042299065 -0.67345464 0.65849876 -0.33591405 0.047020297
0.0024069236 -0.036421582 0.0036812755 0.68716407 0.50386935 -0.5233748 0.037992924
0.0048711221 -0.036814082 0.0043603522 0.51636404 0.68471175 -0.51433253 0.037816245
0.0075095133 -0.03733531 0.0046043596 0.26507038 0.8878758 -0.37605071 0.012559242
0.010489322 -0.038066521 0.0044727456 0.23443007 0.95477259 -0.18289874 0.0055597834
0.012868576 -0.038706806 0.004508683 0.28353831 0.95683527 -0.063814372 0.0029816108
-0.041109193 -0.033057239 0.0044621527 -0.95216852 0.12215441 -0.28009555 0.0088291653
0.0024030418 -0.034541763 0.0036892151 0.79047269 0.20433678 -0.57740748 0.039122824
0.0039119059 -0.034419157 0.0051702433 0.81384414 0.1755397 -0.55393451 0.023963606
-0.041653547 -0.031651016 0.005881099 -0.92442381 0.076569013 -0.37360114 0.0048684436
0.0024145499 -0.031411536 0.0037026438 0.84436798 0.0039615529 -0.53574914 0.0032053862
0.0038932625 -0.031493455 0.0051896288 0.8697688 0.0047832509 -0.49343619 0.0057394286
-0.041381348 -0.027774317 0.0051622726 0.9426946 0.096426167 0.31941956 0.0018604215
0.002400463 -0.028446367 0.0036837524 0.84800118 -0.0017953452 -0.52999139 0.0034288575
0.0038611796 -0.028481578 0.0051489421 0.86251843 -0.0063480763 -0.5059858 0.0059115081
0.0024364002 -0.02550672 0.0037280384 0.84981662 -0.0046672132 -0.52705795 0.0036895196
0.00385062 -0.025485093 0.0051357215 0.87008005 0.0023080527 -0.49290499 0.0054226671
0.0024717136 -0.02258122 0.0037720469 0.85092288 -0.0032144154 -0.52528095 0.0038477581
0.0039308607 -0.02253942 0.0052374066 0.86435604 0.010178866 -0.5027774 0.0055500809
0.002457595 -0.01965766 0.0037530561 0.85234129 -0.0033082515 -0.52297556 0.0040763728
0.003901792 -0.019348973 0.0052005886 0.86452591 -0.013096178 -0.50241756 0.0057858266
0.0024686197 -0.016601156 0.003766166 0.85360563 -0.0052291397 -0.52089363 0.0041394169
0.0038810258 -0.01640287 0.0051739854 0.86546093 -0.0102171 -0.50087214 0.0068157711
-0.042178605 -0.013295408 0.0056164954 -0.91047657 -0.011119484 -0.4134112 0.0023963891
0.0024799197 -0.01355952 0.0037792181 0.85587639 -0.0040291618 -0.51716483 0.0044011311
0.0038605963 -0.013440049 0.0051479186 0.87352002 0.0019112668 -0.48678443 0.0063818372
-0.042624343 -0.011636429 0.0050159548 -0.91048294 -0.011120231 -0.41339716 0.0023828959
0.0024922502 -0.010532333 0.0037922147 0.85738301 -0.0039782762 -0.51466352 0.0046242015
0.0039666127 -0.010371974 0.005282281 0.87509072 0.0091988845 -0.48387146 0.0058290693
-0.042598594 -0.0072379941 0.0049408828 -0.90327823 0.019932341 -0.42859218 0.0058395709
-0.04173464 -0.0074453736 0.0041058413 -0.91274494 0.014665548 -0.40826663 0.006050067
0.0025044191 -0.00752 0.0038051505 0.85869879 -0.0036971229 -0.51246738 0.0048206039
0.0038830873 -0.0074999952 0.0051762476 0.86398667 -0.0050695296 -0.50348908 0.0076288544
-0.042065714 -0.0042454619 0.0035460151 -0.92209023 -0.013380408 -0.38674363 0.0077316277
-0.040895317 -0.0037716944 0.0033731703 -0.92208964 -0.01337609 -0.3867451 0.0077307811
0.0025157544 -0.0045226812 0.0038180086 0.859815 -0.003497489 -0.51059377 0.0049995277
0.0038903633 -0.004496044 0.0051853978 0.85931748 0.0017681444 -0.51143944 0.0087855598
-0.042573858 -0.0029180248 0.0048686904 -0.90712315 -0.025873661 -0.42006931 0.0060195848
0.0025268388 -0.0015400231 0.0038308043 0.86609381 -0.01061554 -0.49976876 0.0071347468
0.0037735628 -0.0015349597 0.0050370437 0.85942227 0.0035966968 -0.51125383 0.0089039644
-0.042549234 0.0013228153 0.0047973022 -0.89305776 -0.027132336 -0.44912323 0.0037186111
0.00228621 0.0015276044 0.0035652891 0.87234682 -0.010086406 -0.4887836 0.0091080507
0.0037663034 0.0014505532 0.0050870194 0.86218834 0.0011707719 -0.50658649 0.0074446201
-0.042275283 0.0048520463 0.0040759225 -0.9224925 -0.00074921781 -0.38601437 0.0026242551
-0.041564263 0.004795474 0.0033547929 -0.92250013 -0.00075081119 -0.38599616 0.0026020971
0.0023008294 0.0044836705 0.0035786892 0.87785119 -0.0017253601 -0.47893032 0.010919022
0.0037704972 0.0044957995 0.005091832 0.86115432 -0.00016995052 -0.50834364 0.0075323433
-0.04228561 0.0085767834 0.004156996 -0.92250097 -0.00074622629 -0.38599414 0.002603194
-0.041693557 0.007121155 0.0039661019 -0.92250097 -0.0007464423 -0.38599414 0.002603194
0.0023166062 0.0075234058 0.0035924909 0.92448789 -0.036101315 -0.37949812 0.010992427
0.0037743729 0.0075334506 0.0050965967 0.8615697 0.00057277386 -0.50763905 0.0076204687
-0.042230878 0.0094325738 0.0044230376 -0.92250097 -0.00074633432 -0.38599414 0.002603194
0.0023278736 0.010546511 0.0036061322 0.93212771 -0.021091729 -0.36151493 0.017942073
0.0037921537 0.010562534 0.0051184851 0.87673527 -0.014693792 -0.48074871 0.011739529
0.0023684329 0.013552835 0.0036541147 0.93666542 -0.012256061 -0.35001114 0.02617077
0.0037825783 0.013586286 0.0051060347 0.87543881 0.011679105 -0.48318785 0.014108848
0.002352241 0.016548188 0.0036331688 0.93708628 0.0015448817 -0.34909451 0.023295723
0.0037863115 0.016415052 0.005110587 0.86269701 -3.2860778e-05 -0.50572127 0.010290962
0.0023359533 0.019529035 0.0036123979 0.93850362 -0.0059422506 -0.34521845 0.024183422
0.0037770746 0.019424606 0.0050981883 0.87529457 0.0041350736 -0.48357251 0.011565086
0.002377782 0.022491457 0.0036601399 0.9466722 -0.010007198 -0.32204288 0.024258785
0.0037945914 0.022471752 0.0051201349 0.86276543 -0.0012281886 -0.5056029 0.010234052
0.002391184 0.025441211 0.0036735113 0.94134516 -0.0024575752 -0.33743647 0.023346119
0.003812311 0.025511052 0.0051418366 0.85964274 0.0017414372 -0.51089263 0.011023145
0.0024303223 0.028467352 0.0037211308 0.91518754 0.0053060423 -0.40299338 0.026631063
0.0037898265 0.028547188 0.0051127458 0.86272454 0.0011806125 -0.50567269 0.010186067
0.0023855201 0.03148669 0.0036668011 0.9108085 -0.0028257042 -0.4128195 0.025766931
0.0037889055 0.031507079 0.005111102 0.85919034 -0.0010125915 -0.51165521 0.011260798
0.002428123 0.034483444 0.0037143927 0.90526795 -0.044634476 -0.42248988 0.032751694
0.0038298368 0.034468167 0.0051623522 0.83616972 -0.11049913 -0.53722447 0.020154577
-0.042580754 0.038692791 0.0031992625 -0.49532759 -0.82040852 -0.28562304 0.011748827
0.0028763921 0.036019403 0.0042620334 0.82222873 -0.19456621 -0.53486812 0.028103413
0.0049965447 0.036787141 0.0047643674 0.59436077 -0.59722322 -0.53857183 0.03762909
0.0073425733 0.037524335 0.0052672923 0.44044071 -0.74480283 -0.50127906 0.016113289
0.010394288 0.038489468 0.0044801319 0.27463332 -0.93295449 -0.23274975 0.0052361283
0.012193798 0.038880698 0.0054561859 0.27825618 -0.95258594 -0.12309968 0.003579804
-0.051206484 0.041662492 0.0046072872 -0.28589347 -0.87118572 -0.39912456 0.015853466
-0.049578119 0.041167617 0.004737576 -0.28584129 -0.87119681 -0.39913768 0.015866134
-0.04645915 0.039963003 0.0046954821 -0.24828969 -0.93167746 -0.26519674 0.0029648216
-0.044290882 0.039583717 0.0041420539 -0.28607783 -0.9276669 -0.23998663 0.0044152904
0.014032329 0.039550345 0.0042911642 0.24627204 -0.96518421 -0.088145189 0.0030831511
0.017070085 0.040758383 0.0049540577 0.38021982 -0.91855365 0.10813026 0.00067146716
0.019029489 0.041482139 0.0039408389 0.45935017 -0.85300148 0.24776174 0.0006901598
0.020017736 0.042316332 0.0054932763 0.47380689 -0.83809721 0.27037042 0.0012728085
0.022510651 0.043448064 0.0046437988 0.4630743 -0.82393479 0.32664001 0.0031392002
0.024796989 0.044498853 0.0040218476 0.48061514 -0.78914732 0.38243377 0.0032473486
0.026015559 0.045704044 0.0047609988 0.50434649 -0.74765462 0.43202698 0.0012452353
0.028166436 0.046906278 0.0041489932 0.52284116 -0.68624401 0.50567412 0.0046835267
0.030078869 0.047952492 0.0036006006 0.53506237 -0.64758819 0.54252905 0.0022975369
0.029287122 0.048840862 0.0052565341 0.58691519 -0.47540414 0.65537888 0.0025672757
0.031233763 0.049657885 0.0042077238 0.56670225 -0.53414953 0.62732208 0.0044819051
0.033132061 0.05064946 0.0034065577 0.54649401 -0.55046356 0.63113719 0.0027491504
0.032193527 0.052247945 0.0051301476 0.54320562 -0.34176597 0.76689225 0.0022202001
0.034166627 0.052765608 0.0038615966 0.56589586 -0.37299323 0.73528087 0.0029097246
0.032750446 0.054877181 0.0056363377 0.5341258 -0.11277312 0.83784962 0.0032567477
0.034499496 0.055548467 0.0045380169 0.53642333 -0.12449953 0.83471549 0.0028165043
0.036421258 0.055902362 0.003331745 0.54337764 -0.21158668 0.81238651 0.0035422838
-0.050186623 0.058732353 0.0051420294 -0.33237624 0.8801595 -0.33888835 0.0020538399
0.032852143 0.05920954 0.0056507285 0.5138073 0.024399718 0.85755861 0.0007119893
0.034452446 0.058476932 0.0047327471 0.52720207 0.015798394 0.8495931 0.00073388667
0.036544248 0.058447648 0.0034523616 0.53281099 -0.0003306561 0.84623426 0.0013096672
-0.045247734 0.060773943 0.0048218924 -0.30927494 0.89092314 -0.33257329 0.0017036255
-0.043036558 0.06116356 0.004167649 -0.24678759 0.91005933 -0.33299834 0.00022237052
-0.04018119 0.062006976 0.0043604318 -0.23276389 0.90202814 -0.36354664 0.00025895541
-0.037901469 0.062695667 0.0046439907 -0.22820379 0.89652252 -0.37969783 0.00023757032
-0.034377392 0.062893391 0.003082836 -0.2003361 0.88240051 -0.42571688 0.00042333035
0.032435495 0.061616514 0.005654857 0.50843161 0.10057276 0.85520899 7.7741424e-05
0.034483299 0.061461791 0.0044454457 0.5139209 0.09469524 0.85259491 9.4031013e-05
0.036411099 0.061659943 0.0032650838 0.52512974 0.09039142 0.8462081 0.00013343898
-0.036525495 0.063254707 0.0050678612 -0.22864664 0.88856894 -0.39770082 0.00038162331
-0.034316588 0.063667178 0.0046809223 -0.22071287 0.88078088 -0.41894025 0.00043151676
-0.031772222 0.064174592 0.0044474113 -0.20390299 0.86677164 -0.45511609 0.00034139596
-0.028470686 0.064977549 0.004379923 -0.2115718 0.85128123 -0.4801642 0.00081119913
-0.02541187 0.065372869 0.0038022429 -0.21099624 0.83281356 -0.51176375 0.0011703903
-0.023132201 0.065778047 0.0034922957 -0.20836002 0.80329907 -0.55793971 0.00094687846
0.032202698 0.064430274 0.0053991186 0.50170869 0.13372272 0.85463834 4.9754904e-05
0.03453929 0.064535566 0.0040036556 0.5055716 0.13241336 0.85256326 5.2889241e-05
0.036067627 0.06331224 0.0032691392 0.51946497 0.12934966 0.84464473 7.5929573e-05
-0.025118642 0.06640695 0.0052759871 -0.23504315 0.83301657 -0.5008375 0.00053568796
-0.022172404 0.066853039 0.0046393499 -0.2364216 0.81162685 -0.53419733 0.0010588473
-0.01942174 0.067488641 0.0043598134 -0.27340761 0.77050036 -0.57582766 0.00096915569
-0.016506387 0.068151943 0.0038587782 -0.27779251 0.74467766 -0.60686612 0.00097628671
-0.014509193 0.068374306 0.0032231018 -0.3194004 0.72039288 -0.61564398 0.00093953224
0.031760473 0.067539483 0.0050928905 0.49096143 0.17349896 0.85373008 0.0001660081
0.034227204 0.067394622 0.0036964656 0.49937737 0.1609491 0.85130352 0.00012784806
-0.016262505 0.069329947 0.0053133033 -0.29372686 0.78697509 -0.54258156 0.0017051505
-0.013337513 0.069967069 0.0045671305 -0.32874244 0.75869071 -0.56242061 0.0021037473
-0.010783799 0.070698917 0.0039509446 -0.35462242 0.72347057 -0.59231186 0.00084689161
-0.0085794004 0.071426317 0.0034238214 -0.38698196 0.71932632 -0.57690096 0.0012828445
0.029443834 0.070980169 0.005589982 0.47382066 0.24948797 0.84454119 0.00091896736
0.031440005 0.070492178 0.0046183313 0.46614233 0.24131094 0.85116416 0.0010631814
0.033586871 0.070347063 0.0034482256 0.48342639 0.23776342 0.84247702 0.00074804807
-0.0095197083 0.072005622 0.0050709327 -0.38162813 0.74661487 -0.54490942 0.00052577036
-0.0073293536 0.072471701 0.0040552369 -0.41124922 0.70865798 -0.57330453 0.0013807465
-0.005380474 0.073223479 0.0036398843 -0.4454135 0.68872863 -0.57206619 0.00093370961
0.02621736 0.074461415 0.0054479991 0.31248534 0.60583019 0.73165756 0.0021069599
0.028682431 0.073570386 0.0048720269 0.41774884 0.40280876 0.81439 0.0021504841
0.031377718 0.073249623 0.0037154795 0.40866381 0.39326552 0.82361168 0.0033765782
0.0050530871 0.076921292 0.0054789712 -0.045599416 0.96706849 0.25039837 0.0010343877
0.0073854788 0.077402242 0.0039653163 -0.067435019 0.9742316 0.21523333 0.00047370055
0.010539073 0.077540919 0.0050182571 -0.033938348 0.96514261 0.25951487 0.0025520618
0.013544232 0.077656589 0.0047942931 0.009775633 0.94927669 0.31429017 0.0049761171
0.016771421 0.077464975 0.004932873 0.072890304 0.8964206 0.43716937 0.0027808473
0.019608514 0.077250682 0.0047150105 0.138749 0.84794265 0.51160723 0.0021014484
0.022471189 0.076852687 0.0044590528 0.19910172 0.77705503 0.59711313 0.0035111387
0.025242059 0.076135173 0.0043424312 0.24613634 0.69248646 0.6781441 0.0031059524
0.028046517 0.075671941 0.0037114113 0.32406917 0.60941762 0.72359484 0.003454427
0.030042304 0.07521902 0.0032483819 0.32549945 0.60871768 0.72354198 0.0028799523
0.013382873 0.078130946 0.0032822373 -0.046913791 0.97139901 0.23277269 0.0017282144
0.016628465 0.078132242 0.0034090311 -0.0034122586 0.92687446 0.3753559 0.0039451746
0.019481417 0.078144208 0.003115702 0.074601091 0.87903172 0.47089064 0.0022756343
-0.01161276 -0.07203234 0.0088904127 -0.36848217 -0.86949253 -0.32894325 0.0028218166
-0.0073650968 -0.07320524 0.0083265202 -0.37573606 -0.84793073 -0.37394655 0.0026366068
-0.0048795613 -0.073797785 0.007047582 -0.43119437 -0.82314432 -0.36946571 0.0031681978
0.022306425 -0.072120786 0.0085182069 0.44296801 -0.32517368 0.8354888 0.0008932639
0.023798529 -0.071229897 0.0082407547 0.4432663 -0.32308078 0.83614218 0.0011825234
0.025671337 -0.070383988 0.0076492717 0.44434145 -0.31228989 0.83966404 0.0017618834
0.027825866 -0.07034795 0.0065326868 0.43656024 -0.3059485 0.84605598 0.0016543062
0.025980705 -0.067472331 0.0082871495 0.46989268 -0.21344991 0.85652792 0.00067742565
0.028419463 -0.067348748 0.0069585396 0.4732953 -0.19350472 0.85938793 0.00020487684
0.02660344 -0.064483576 0.0085266558 0.48269194 -0.15674773 0.8616488 5.3674998e-05
0.028715052 -0.064334616 0.0073802862 0.49036455 -0.1489397 0.85869646 8.2055616e-05
0.030506201 -0.064394265 0.0063401381 0.49445748 -0.15077509 0.85602492 8.4346015e-05
0.028381903 -0.061428111 0.0080211218 0.49760315 -0.1146874 0.85978949 7.5453827e-05
0.030786315 -0.061415356 0.0066217496 0.50432944 -0.10883105 0.8566258 7.4674717e-05
0.028919877 -0.058469951 0.0080353748 0.51168209 -0.065794669 0.85665196 0.00013853062
0.031201735 -0.058375843 0.0066846474 0.51200587 -0.060050726 0.85688037 0.00026140161
0.028818294 -0.055394303 0.0082606934 0.54182851 0.029536599 0.83996999 0.0013385223
0.030981036 -0.055510771 0.006906739 0.55161089 0.064270124 0.83162183 0.0020466801
0.028888777 -0.052325845 0.0078008911 0.55764109 0.19031222 0.80797142 0.0022040913
0.030760739 -0.052697789 0.0065848827 0.57581407 0.25123444 0.77802283 0.0037094236
0.026357222 -0.048603974 0.0081410687 0.55476063 0.47918427 0.68016398 0.002332567
0.028321242 -0.049686588 0.0072063785 0.56284803 0.49022222 0.66549551 0.0037057109
0.030001795 -0.050724506 0.0063677463 0.58876181 0.43651035 0.68030751 0.0024649254
0.023234418 -0.045564316 0.0082739238 0.54421633 0.61803502 0.56732821 0.0013291035
0.025231276 -0.046439871 0.0072638588 0.5586217 0.5933215 0.57957864 0.0045868466
0.027413186 -0.047711737 0.0065468415 0.55309194 0.55073738 0.62512207 0.0017604093
-0.051039997 -0.042604938 0.0087168552 -0.78041941 0.62324327 -0.050134145 0.016130272
0.019988999 -0.04274001 0.0077156294 0.49891454 0.77629548 0.38529158 0.002164633
0.022348961 -0.044041738 0.0071839821 0.52096397 0.71059781 0.47291362 0.0024657066
0.024014072 -0.044760164 0.0063460353 0.51360625 0.701491 0.494084 0.0040456485
-0.049618196 -0.039961457 0.0069879321 -0.47049361 0.84955966 -0.2385039 0.019313898
-0.047390148 -0.039058711 0.0064867223 -0.29755288 0.89830089 -0.32329208 0.0034193369
0.014251087 -0.039379347 0.0073387823 0.39735413 0.91333991 0.088993512 0.0026779233
0.016444774 -0.040546998 0.0074544679 0.44527465 0.85653538 0.26091692 0.0043313503
0.018706162 -0.041587234 0.0069264341 0.46398216 0.8231684 0.32728341 0.0035291864
-0.048133865 -0.038651273 0.0079743452 -0.40761563 0.87342304 -0.26642388 0.011206083
-0.046290644 -0.038637608 0.0076422603 -0.27931491 0.92094517 -0.27174118 0.0067090415
-0.043487426 -0.037979145 0.0073514734 -0.5791561 0.74012059 -0.34175986 0.057489693
0.0054443693 -0.036407873 0.0070344517 0.55148679 0.67810714 -0.48583221 0.041947145
0.0078606848 -0.036583897 0.0072122966 0.41418687 0.8075707 -0.41985574 0.026950285
0.010262161 -0.037600901 0.0075789909 0.43203783 0.88294178 -0.18373093 0.019813552
0.012497924 -0.038617477 0.0071733035 0.40470889 0.91430706 0.015918309 0.0063526989
-0.042474512 -0.034143109 0.0080262432 -0.92953193 0.11080994 -0.35169816 0.0049020085
-0.041930187 -0.035591558 0.0066117644 -0.91689724 0.24845916 -0.31235802 0.02370025
0.0052279881 -0.034615926 0.0068807974 0.74020934 0.28007886 -0.61126584 0.02749793
0.0069914865 -0.035089504 0.0081482287 0.67364812 0.45222509 -0.58454311 0.058432143
-0.042194013 -0.030222548 0.0072857793 -0.93828005 0.072501875 -0.33819246 0.0056534922
0.0052838922 -0.031458315 0.0069524478 0.75969416 0.017785782 -0.65003729 0.0015591034
0.0064462363 -0.031546518 0.0084261615 0.64986426 -0.0083524883 -0.76000446 0.020866543
0.0098450333 -0.030515699 0.0089511015 0.24536359 -0.24736801 -0.93733978 0.024022577
-0.0427326 -0.02879904 0.0086855767 0.91795772 0.072304443 0.39003307 0.0020756265
0.0052627879 -0.028464451 0.0069257482 0.72704881 -0.032697905 -0.68580669 0.0089155175
0.0064836647 -0.028834427 0.0084734084 0.51715559 -0.055228576 -0.85410762 0.036291376
0.0097733224 -0.027940981 0.0086991107 0.22129716 -0.10112548 -0.96994907 0.014342326
0.0052420944 -0.02545994 0.0068993294 0.72238165 -0.00017788948 -0.69149452 0.010014244
0.0064748395 -0.025676282 0.008272076 0.6137749 -0.010666437 -0.78940904 0.0189275
0.010030127 -0.025393063 0.0086133722 0.15149495 -0.015206909 -0.98834109 0.01458877
-0.044027362 -0.021807574 0.0086978469 -0.9016884 -0.072205618 -0.42631483 0.001840456
0.0052177035 -0.022445649 0.0068683554 0.71855527 0.023571055 -0.69507045 0.010983184
0.006390763 -0.022144243 0.0083550625 0.56423879 0.058492329 -0.82353699 0.027925001
0.0099120438 -0.022550037 0.0085972054 0.16342705 0.037740141 -0.98583329 0.017488236
-0.042634714 -0.019305456 0.0071688518 -0.90429038 -0.00035054525 -0.42691791 0.0029349539
0.0052058897 -0.019531755 0.0068532801 0.77033281 7.4119533e-05 -0.63764209 0.00063576357
0.0063633495 -0.019450411 0.0083200075 0.60655981 0.064748563 -0.79239696 0.031201499
0.0098125087 -0.01994466 0.0087079611 0.32506138 0.1147302 -0.93870765 0.033275574
-0.043387096 -0.017518589 0.0071460889 -0.90649229 -0.025697712 -0.42143968 0.0031706442
0.0052950862 -0.016422307 0.0069662514 0.80679649 0.0023590962 -0.59082466 0.0027304387
0.006436646 -0.016634842 0.0084128603 0.73514986 0.033155493 -0.67709321 0.008787903
-0.043690074 -0.013374291 0.0078008221 -0.91421878 -0.047283087 -0.40245295 0.002854944
0.005191593 -0.013520211 0.0068348744 0.82040823 0.014821705 -0.57158601 0.0024571584
0.0064090788 -0.013759725 0.0083782021 0.77810365 0.0062557608 -0.62810487 0.00020896102
-0.043140326 -0.010280343 0.0063599311 -0.91279638 -0.016858492 -0.40806699 0.0028976384
0.0053124055 -0.010512639 0.006987771 0.82693434 0.013255572 -0.56214219 0.0016626421
0.0063873548 -0.010641612 0.0084106149 0.78520155 0.00012419705 -0.61924034 2.7585835e-07
-0.043654758 -0.0089312587 0.0077001886 -0.91281825 -0.016868599 -0.40801752 0.0028647936
0.0051897964 -0.0075164908 0.0068324511 0.83927184 0.0033336575 -0.54370183 0.001101953
0.0063881278 -0.0076165395 0.0084112585 0.78533006 -0.00011189284 -0.61907738 4.825535e-07
-0.043620002 -0.0045736907 0.0076019429 -0.90349698 -0.0034403901 -0.4285807 0.0059079411
0.0052462309 -0.0045302389 0.0069634812 0.78518254 -8.956041e-05 -0.61926442 9.9462717e-08
0.0063892342 -0.0044503603 0.0084120836 0.78531015 -0.00011781821 -0.6191026 0
-0.043333326 -0.00094434019 0.006846928 -0.90602785 -0.021669904 -0.42266297 0.0050848518
0.0052237166 -0.0015313958 0.0069344998 0.78517652 -0.00010493983 -0.61927199 0
0.0063899918 -0.0012927371 0.0084129032 0.78529292 -0.00011643246 -0.61912447 4.6390295e-07
0.0052329544 0.0014670655 0.0069455355 0.78517276 -0.00011453431 -0.61927676 2.1889764e-07
0.0063911565 0.0015704166 0.0084135607 0.78529018 -0.00011494131 -0.61912793 0
-0.04330172 0.0032790871 0.0067558028 -0.89498866 0.0037018512 -0.44607359 0.0013990728
0.0052402942 0.0044994857 0.0069544734 0.78516406 -8.7683955e-05 -0.61928791 1.0679396e-07
0.0063919956 0.0045655118 0.0084142163 0.78529859 -8.1213482e-05 -0.61911726 4.2528802e-07
-0.043022398 0.0067851157 0.0060202838 -0.89298403 -0.0051665613 -0.45005864 0.0015421497
0.0052477885 0.0075244084 0.0069633871 0.78516454 -8.914154e-05 -0.61928725 1.993378e-07
0.0063929362 0.0075536338 0.008414872 0.78528047 -8.7838533e-05 -0.61914021 2.9209025e-07
0.0052326107 0.010500413 0.0069441376 0.78515422 -7.5505523e-05 -0.61930037 3.4414606e-07
0.0063940003 0.010395695 0.0084154475 0.7852726 -0.00010214617 -0.61915022 7.0213753e-07
0.0052747875 0.013500104 0.0069971662 0.7851302 -5.4047912e-05 -0.61933082 0
0.0063946582 0.013369866 0.0084162913 0.78236932 -0.0049108034 -0.6227954 7.901869e-05
0.0052336887 0.016451098 0.0069445865 0.78056443 -0.0001632096 -0.6250754 7.6684555e-05
0.0063953348 0.016480308 0.0084169861 0.68626738 -0.040166505 -0.72623938 0.012997019
0.0052462695 0.019482572 0.0069596763 0.77212393 -5.0881949e-06 -0.63547194 0.00062414451
0.006396221 0.019440338 0.0084172087 0.56234652 -0.089736544 -0.82201803 0.031491749
0.0099785458 0.020108711 0.008730473 0.19752909 -0.18407524 -0.96285957 0.021481657
0.005258631 0.022506358 0.0069748913 0.72939688 -0.031447109 -0.68336755 0.022206858
0.0065445541 0.022594098 0.0082939006 0.51507658 -0.018582251 -0.85694277 0.035846401
0.0097822677 0.022606457 0.0085652638 0.23318045 -0.071203329 -0.96982312 0.013228346
0.0052587269 0.025481049 0.0069749234 0.66444314 0.021822747 -0.74702018 0.015449446
0.0065445029 0.025376774 0.0082940469 0.49088958 0.0061500124 -0.87120008 0.036701608
0.0099351667 0.025515694 0.0085657407 0.24723022 0.023143401 -0.96868032 0.010927464
0.0052513708 0.028515294 0.0069649573 0.70940268 0.034556732 -0.70395571 0.014348732
0.0063990476 0.028561825 0.0084195137 0.49057886 0.10516335 -0.86502773 0.030223068
0.009664746 0.028084345 0.0086144991 0.1696822 0.10617778 -0.97976232 0.011368675
0.0052652871 0.031464219 0.0069820909 0.77039725 -0.0099977106 -0.6374858 0.00050985429
0.0064000348 0.031493001 0.0084201992 0.5944373 0.051910691 -0.80246466 0.033292044
0.0098689683 0.030620277 0.0088805845 0.23851073 0.20767675 -0.94867438 0.023139205
0.0052569928 0.034388799 0.0069709294 0.77045006 -0.19742653 -0.60615957 0.019859452
0.006651694 0.034534112 0.0084430836 0.75257629 -0.22858921 -0.61755639 0.023667766
-0.044934504 0.038576145 0.0082000131 -0.27310517 -0.93134677 -0.24084596 0.0027886308
0.0051190313 0.036410928 0.00648118 0.71163094 -0.52969658 -0.46152249 0.033287786
0.007688324 0.036712587 0.0074025663 0.58194971 -0.66205156 -0.47225234 0.02727765
0.010099185 0.038020462 0.0076722335 0.50140023 -0.73912078 -0.44977576 0.04375267
0.012321638 0.038987298 0.0068057082 0.41885763 -0.90574819 -0.064641975 0.016210239
-0.049538255 0.040078465 0.00711211 -0.28184026 -0.91929883 -0.27469212 0.0040669022
-0.047018331 0.039372485 0.0070113628 -0.24555933 -0.9294579 -0.27533355 0.0035929149
-0.044901878 0.039043047 0.0067777927 -0.25877938 -0.93613344 -0.23809128 0.0036420433
0.013478808 0.039641775 0.0078470949 0.43962422 -0.88595039 0.14772443 0.0073918896
0.016451141 0.041058205 0.0074416776 0.48039585 -0.80806977 0.34094444 0.0011213538
0.018614152 0.041892063 0.0065081897 0.4990696 -0.8070913 0.31548879 0.002981852
0.017513508 0.042096391 0.0085636852 0.48648313 -0.7929405 0.36685091 0.0019074155
0.01960874 0.043060064 0.0077340729 0.48188841 -0.80354142 0.34943506 0.0025480527
0.021973582 0.044263199 0.0070428234 0.51816136 -0.71741635 0.46564227 0.0019832242
0.023106379 0.045741312 0.0079201302 0.54130816 -0.66150671 0.51903218 0.0022330191
0.025130676 0.046874184 0.0071629873 0.55449009 -0.60533971 0.57105571 0.0037932999
0.027182681 0.04761814 0.0060695591 0.49702132 -0.62443107 0.60254109 0.0028793812
0.026183793 0.049178466 0.0081865462 0.5783326 -0.3915787 0.71567976 0.0026542442
0.028175253 0.049710568 0.0068760137 0.57855976 -0.47869951 0.66039038 0.0027173178
0.028571522 0.052301101 0.0078483354 0.57707703 -0.27649111 0.76846266 0.0044590263
0.030699091 0.052767966 0.0064683286 0.54517317 -0.31846869 0.77547657 0.0038808275
0.029045783 0.055465601 0.008087866 0.54382193 -0.0487587 0.83778304 0.0017155788
0.031364147 0.055509377 0.0066138692 0.53604347 -0.083520852 0.84004861 0.0026013083
0.02885027 0.058476847 0.0080901422 0.51430529 0.054857574 0.85585093 0.00023957041
0.031321384 0.058461685 0.0066202465 0.51370186 0.040096905 0.85703129 0.00063993386
-0.045138665 0.061649367 0.0072792331 -0.31676501 0.89605194 -0.31104815 0.0012038563
-0.042446349 0.062348995 0.0069684405 -0.25823206 0.90557414 -0.3365289 0.00015632283
0.028526844 0.061563496 0.0079354681 0.49773851 0.11083529 0.8602162 7.8297497e-05
0.031013116 0.061307754 0.0065326598 0.50000477 0.10616203 0.85949105 7.5876364e-05
-0.039505206 0.06342148 0.0074591367 -0.25318033 0.90175974 -0.35032716 0.0001229488
-0.037034821 0.064179361 0.007581627 -0.24765112 0.90091956 -0.35638866 0.00016357456
-0.034983519 0.064603828 0.0072163381 -0.23721233 0.89692819 -0.37316242 0.00025854379
-0.032053381 0.065407999 0.0071962862 -0.23859164 0.89509118 -0.37667739 0.00049605482
-0.029002517 0.065906614 0.0063952338 -0.24043992 0.88044608 -0.40866053 0.0010373195
0.026572695 0.064658575 0.0085843708 0.48712623 0.14944761 0.86044961 4.7648497e-05
0.028518444 0.064541303 0.0074959034 0.48975343 0.14275907 0.86009389 8.5354994e-05
0.030706739 0.064285904 0.0062862663 0.49415779 0.13812512 0.85832947 4.50603e-05
-0.030167818 0.066134483 0.0076425499 -0.25719705 0.88840431 -0.38024652 0.00060849212
-0.027498752 0.066702098 0.0072254254 -0.23977716 0.88195109 -0.40579456 0.0011572326
-0.024937851 0.067540862 0.0073925615 -0.24870282 0.85856807 -0.44833893 0.0010751748
-0.022456504 0.068111859 0.0069922395 -0.25794977 0.84060854 -0.47627643 0.00047873339
-0.020474082 0.068619996 0.0066561205 -0.28305888 0.8139171 -0.50736243 0.0016215718
0.026135569 0.067725293 0.0082330126 0.47111171 0.20028587 0.859034 0.00042688858
0.028473632 0.067485563 0.006981567 0.47788137 0.18578878 0.85855228 0.00017781142
0.030215099 0.066819452 0.0061423858 0.48803473 0.1786861 0.85433805 0.00014484294
-0.021336263 0.069245078 0.0087390952 -0.28570396 0.85063404 -0.44135594 0.00074995332
-0.018474057 0.069801375 0.0077537131 -0.2931487 0.82813448 -0.47776267 0.00069198606
-0.016707109 0.069793917 0.0064103282 -0.29372624 0.7869755 -0.54258132 0.0017054176
-0.013938101 0.071150333 0.0070892926 -0.33688152 0.77924788 -0.52847302 0.00086457859
0.023564218 0.07125593 0.0085838018 0.42661378 0.31266737 0.84866941 0.0021296341
0.025466865 0.070524342 0.0078584142 0.43816343 0.30178827 0.84672117 0.0026185114
0.028111445 0.070310727 0.0065052854 0.45266086 0.26802385 0.85044777 0.0014512924
0.017383382 0.07492134 0.0085782139 0.22017772 0.73667955 0.63939434 0.0026351174
0.019800188 0.074383579 0.0081936875 0.26972252 0.66305375 0.69829041 0.0017138951
0.022655666 0.07356324 0.0076415413 0.35381681 0.53851819 0.76472992 0.0042880154
0.025403121 0.07309296 0.0067052357 0.36819622 0.48913527 0.7906822 0.0039122612
0.027410477 0.072391927 0.0061376425 0.3938773 0.46614558 0.79219252 0.0035989876
0.0024977885 0.076394379 0.0072676423 -0.056746285 0.95114899 0.30347234 0.0028099359
0.0047449181 0.076512247 0.007704549 -0.019517194 0.95684373 0.28994694 0.0022510905
0.0077578672 0.076792069 0.0072904457 -0.0064189569 0.94983482 0.31268618 0.0033384701
0.010486369 0.076697581 0.0074919942 0.016164428 0.92584342 0.37756154 0.0052077002
0.013495852 0.076458655 0.0074811429 0.086601518 0.87177801 0.48218593 0.0033865955
0.016421594 0.076117173 0.0073053115 0.16448587 0.82030994 0.54775542 0.004868356
0.019343762 0.075768583 0.006879536 0.21210945 0.74089187 0.63725102 0.0037453282
0.022210738 0.075371608 0.0063072471 0.26272425 0.67183363 0.69254279 0.0028213002
-0.010161379 -0.072367378 0.010063933 -0.36819318 -0.86258936 -0.34694883 0.003063953
-0.0073310654 -0.073163129 0.0092929965 -0.37573606 -0.84793073 -0.37394655 0.0026366068
-0.021823101 -0.069270447 0.011410715 0.23407687 0.97163469 -0.033676159 0.00022946612
-0.019655509 -0.069855355 0.011656501 0.24224837 0.96896607 -0.04919919 0.00025469626
-0.016501443 -0.070664845 0.011217754 0.24143434 0.96613407 -0.091074064 6.4205495e-05
-0.013559478 -0.071426883 0.010748698 0.24237211 0.9655872 -0.094325036 7.8096731e-05
-0.011864685 -0.071809337 0.011096613 0.24240357 0.96558791 -0.094236463 7.4536983e-05
0.017506391 -0.070446014 0.011624369 0.42116404 -0.30434054 0.85439903 0.00021757482
0.019699704 -0.070125327 0.010768312 0.42765388 -0.31259575 0.84817225 0.00028131521
0.022476692 -0.06983564 0.0095272688 0.44543421 -0.26562971 0.85500246 0.0010658026
-0.033289153 -0.066203922 0.011908676 0.25356984 0.95763636 0.13651004 0.00073227874
-0.03140856 -0.066688083 0.011931782 0.23265123 0.96568793 0.11541318 0.00050089217
-0.029516257 -0.067164585 0.011915335 0.23902196 0.9658401 0.10010742 0.00047090623
-0.025304481 -0.06833262 0.011565922 0.24545321 0.96850997 0.041727707 0.00033043983
0.019773878 -0.067511268 0.011607218 0.43313375 -0.2454083 0.86727732 0.00074506988
0.022442661 -0.067552418 0.010197124 0.45599601 -0.23050886 0.85961235 0.0005511198
0.024485422 -0.06762825 0.0090790512 0.46558073 -0.2200903 0.85720176 0.00057974277
-0.042585101 -0.063118994 0.011386943 0.31767783 0.93501931 0.15754278 0.0003670945
-0.038284577 -0.064697042 0.011745909 0.3053652 0.93840283 0.16171645 0.0004880116
-0.035215404 -0.065732598 0.011976502 0.26115593 0.95694858 0.1266769 0.00075784064
0.02048561 -0.064542159 0.011876951 0.46300876 -0.16823868 0.87024057 6.4162065e-05
0.022587771 -0.064601399 0.010751273 0.47112328 -0.16442458 0.86660689 7.6716344e-05
0.025047613 -0.064759359 0.0093564885 0.47616041 -0.16165222 0.86437249 5.1097988e-05
-0.046905749 -0.061532073 0.01102144 0.30607781 0.91294837 0.26989213 0.00086880889
0.022506213 -0.061478436 0.011303186 0.47555542 -0.13202117 0.86972266 6.0489863e-05
0.025457891 -0.061680291 0.0096322726 0.48531815 -0.12622243 0.8651787 4.0587656e-05
0.022881838 -0.058637314 0.011480694 0.48533943 -0.094970711 0.86915261 9.3075803e-05
0.025520017 -0.058577377 0.010012325 0.49126318 -0.0892611 0.8664254 0.00010317728
0.027193889 -0.058180388 0.0090790456 0.50049341 -0.079851568 0.86204994 0.00012574611
0.023224583 -0.055414032 0.011564644 0.50520182 -0.031632058 0.86242139 0.00044638943
0.025553375 -0.055541664 0.010218277 0.49927723 -0.021319974 0.86617994 0.00045603813
0.027493205 -0.05552033 0.0090790568 0.51695496 0.0064714509 0.85598814 0.001249785
0.023220103 -0.052296359 0.011558363 0.54071158 0.092906319 0.83606184 0.0024227609
0.025617367 -0.052335024 0.010031967 0.53223395 0.15388779 0.8324936 0.0035079818
0.02731286 -0.053140759 0.0090790493 0.5326857 0.18841541 0.82507312 0.0033602032
