# .PCD v0.7 - Point Cloud Data file format
VERSION 0.7
FIELDS x y z normal_x normal_y normal_z curvature
SIZE 4 4 4 4 4 4 4
TYPE F F F F F F F
COUNT 1 1 1 1 1 1 1
WIDTH 551
HEIGHT 1
VIEWPOINT 0 0 0 1 0 0 0
POINTS 551
DATA ascii
0.031687889 0.025758414 -0.043439023 0.04275826 0.99907655 0.0042192899 0.00031031322
0.034592509 0.025607983 -0.043422125 0.10416839 0.99450743 0.010187077 0.00034801799
0.037527934 0.025168991 -0.043563232 0.17622057 0.98434818 -0.0022392566 0.00030144662
0.040604599 0.024566332 -0.043479923 0.22078271 0.97531623 -0.0036542981 0.00022226134
0.042287335 0.024122814 -0.043493632 0.27851516 0.96043175 0.00023586965 0.00011873894
0.078484982 -0.015192188 -0.041429069 0.97866333 0.20525409 0.0094251623 0.00015464654
-0.018920805 -0.012788515 -0.040271722 -0.9608745 0.27614191 0.021583147 0.00018869137
0.078389861 -0.014867663 -0.039878655 0.97750854 0.21085984 0.0039063939 0.00031841014
-0.018067319 -0.0097247669 -0.040295534 -0.95831466 0.28545108 0.012278601 0.00025832615
0.077391341 -0.01016618 -0.040456634 0.96393114 0.2654703 0.019031942 0.00062190008
-0.017314862 -0.0074691856 -0.040601525 -0.94591397 0.32407492 0.014905799 0.00025760205
0.076293483 -0.0071959845 -0.040499832 0.9375394 0.34751561 0.015900046 0.00025796331
-0.016221849 -0.0045996271 -0.040387563 -0.92872512 0.37052706 0.013391495 0.00019608987
0.074604236 -0.0030069081 -0.041760623 0.90989709 0.41401234 0.026098577 0.00050012156
0.075227834 -0.00443281 -0.040607411 0.92385107 0.38189107 0.025658336 0.00031912324
-0.015181819 -0.0021201759 -0.04030912 -0.90478921 0.4257949 0.0074268593 0.00063827797
-0.014530321 -0.00079670298 -0.040374391 -0.88558984 0.46446186 0.0024210368 0.00069954991
0.073814318 -0.001462867 -0.040412821 0.88559031 0.46380779 0.02474099 0.00029240499
-0.013284685 0.0013191178 -0.040416859 -0.85769647 0.51412737 0.0054649049 0.00023444102
0.071545787 0.0024780077 -0.040258855 0.84726316 0.53071481 0.022066813 0.00037121287
0.072406009 0.0010689754 -0.040649675 0.86341357 0.50407499 0.020626863 0.00039586774
-0.012065029 0.0032657725 -0.04051616 -0.82386965 0.56620401 0.025531217 0.00031325826
-0.010889309 0.0047943173 -0.040490504 -0.804892 0.59283513 0.026370781 0.00026477335
0.070167847 0.0045604887 -0.040509887 0.8252188 0.5641638 0.027078386 0.00050789304
-0.0093966527 0.0067908014 -0.040433373 -0.78752702 0.61555982 0.029785257 0.000211185
-0.008239693 0.008284458 -0.040412623 -0.76141441 0.64760262 0.029305408 0.00039927941
0.0677616 0.0077866954 -0.040530879 0.76984054 0.63723886 0.035666566 0.00062993937
0.06902682 0.0062485891 -0.040764973 0.79240167 0.60899961 0.034916088 0.0007877287
-0.006854374 0.009854422 -0.040482942 -0.73941016 0.67272997 0.026588093 0.00042756012
-0.005467834 0.011233651 -0.040498745 -0.70478427 0.70910764 0.021107847 0.00023454224
0.064780504 0.010905495 -0.040559907 0.69026423 0.72325188 0.021025907 0.00020223172
0.066309057 0.0094181821 -0.040376984 0.72514033 0.68818188 0.024025491 0.00057418988
-0.0039251875 0.012704308 -0.040603653 -0.67184144 0.74036908 0.021970432 0.00018866367
-0.002068782 0.014271182 -0.040367838 -0.62715626 0.77845007 0.026276993 0.00021833144
0.061699308 0.013689138 -0.040439956 0.65939242 0.75128597 0.027768595 0.00022690305
0.063422151 0.012122449 -0.040428001 0.67053545 0.74155182 0.021977123 9.954987e-05
-0.00059205334 0.015464708 -0.040488228 -0.6067912 0.79420644 0.032260846 0.00028052027
0.0015363323 0.016991066 -0.040527016 -0.56882429 0.82140607 0.041605648 0.00020803076
0.056472421 0.017675953 -0.040074371 0.53851628 0.84218496 0.026919262 0.0004892819
0.058433201 0.016377449 -0.040502958 0.58610827 0.8098157 0.025991704 0.0005203436
0.060183346 0.01507597 -0.040909965 0.62640637 0.77868599 0.035541952 0.00072811008
0.0046616206 0.019020658 -0.040489253 -0.5065937 0.86108655 0.043504726 0.00042176316
0.007378357 0.020503234 -0.040462609 -0.44231054 0.89518869 0.054760206 0.0002969421
0.050813053 0.020839602 -0.04053051 0.4395113 0.89774138 0.029836662 0.00020201606
0.052625809 0.019910626 -0.04049148 0.46963501 0.88226771 0.032350939 0.00013852339
0.055144623 0.01852349 -0.040536579 0.50531667 0.86250848 0.027096232 0.00030228632
0.0085974988 0.02113045 -0.041110922 -0.43099698 0.90119237 0.04575995 0.00038128463
0.010351345 0.021850323 -0.040462315 -0.37182495 0.92715424 0.046165157 0.00025702544
0.013305847 0.022952463 -0.040493879 -0.32735479 0.94384944 0.044575822 0.00022173117
0.01561405 0.023705482 -0.040390801 -0.28473544 0.95782965 0.038574941 0.00028104722
0.043907169 0.023595579 -0.04058636 0.30536917 0.95192355 0.024314871 0.00041160802
0.046534464 0.022791522 -0.040463708 0.3491157 0.93660891 0.029696727 0.0004733112
0.049304072 0.021560265 -0.040455274 0.41580194 0.90889752 0.031845409 0.00020794731
0.017056257 0.024124589 -0.040559497 -0.25829217 0.96544617 0.034624245 0.00033458427
0.019350788 0.024652744 -0.040536348 -0.20460692 0.97840071 0.029461203 0.00020929133
0.022511631 0.025247628 -0.040376712 -0.15560284 0.98698491 0.040602237 0.00054640177
0.025678091 0.025614092 -0.040443737 -0.078779995 0.9957124 0.048482589 0.00059369765
0.028672464 0.025904566 -0.040644005 -0.032228656 0.99888772 0.034420129 0.00085452804
0.031563662 0.025813194 -0.040514875 0.024976838 0.99880838 0.041929107 0.00087167893
0.034642052 0.025550084 -0.040421326 0.10332217 0.99412686 0.032192726 0.00033930759
0.037541676 0.025172574 -0.040406767 0.16892718 0.98489529 0.038009997 0.00041336718
0.040455636 0.024617705 -0.040550344 0.21434154 0.97649348 0.022764474 0.00062166894
0.042438425 0.024112413 -0.040364858 0.26329133 0.96416926 0.032485835 0.00081447646
0.078349791 -0.01548863 -0.037242062 0.97934395 0.20143853 0.017548321 0.00039303291
-0.018839976 -0.013067514 -0.037524451 -0.95946729 0.28159684 0.011213529 0.00021283107
0.078344472 -0.014867294 -0.038734626 0.97718233 0.21221988 0.0087951077 0.00037796373
-0.017966969 -0.0098251747 -0.037500892 -0.95867395 0.28387377 0.018972306 0.00026709138
0.077305704 -0.01047897 -0.037452456 0.96363008 0.26713687 0.0074134008 0.0015119748
-0.017196434 -0.0074959812 -0.037509803 -0.94833326 0.31640798 0.023454795 0.00057002035
0.076169319 -0.0073033725 -0.037618332 0.93273246 0.35924464 0.030876396 0.0003678682
-0.016139252 -0.0046728039 -0.037432197 -0.92814755 0.37173 0.018943798 0.00018621718
0.074462637 -0.0032394144 -0.037369307 0.89173836 0.45127004 0.034031179 0.00047954504
0.075140506 -0.0046936702 -0.037618447 0.9176206 0.39674512 0.023785323 0.0005681155
-0.015066016 -0.0020305456 -0.037486132 -0.90316623 0.42898992 0.016077735 0.00095887255
-0.014408131 -0.00063564477 -0.037531842 -0.88887179 0.45776066 0.019031363 0.0010275246
0.073583305 -0.0014310423 -0.037620816 0.88705724 0.46096185 0.025370067 0.00066762086
-0.013215803 0.0012489106 -0.037462547 -0.84922504 0.5269227 0.034193799 0.00069058448
-0.011949644 0.0029626188 -0.036487706 -0.82871002 0.5586099 0.034563456 0.0004396158
0.071650468 0.0019620864 -0.037532784 0.85478574 0.5182429 0.027670451 0.000494265
0.072540365 0.00047104809 -0.037402976 0.87722468 0.47903898 0.031597864 0.00042498411
-0.012007528 0.0031575318 -0.038620695 -0.82474273 0.56433553 0.036398202 0.00022169472
-0.010924874 0.0045222724 -0.037500814 -0.81255275 0.58154577 0.039527789 0.00038358395
0.068948261 0.0058395825 -0.037347026 0.78097808 0.62319255 0.041283578 0.00069913355
0.07015869 0.0042295936 -0.0375572 0.81277215 0.58120513 0.040026151 0.00097679975
-0.0093648015 0.0065528122 -0.037479769 -0.78027582 0.62466079 0.031119898 0.00036703332
-0.0080808708 0.0081203952 -0.037421323 -0.75460905 0.65520144 0.035725743 0.0005053255
0.067541502 0.0076483837 -0.037606504 0.78182483 0.6215688 0.049010605 0.00069033605
-0.0067037991 0.0097601088 -0.037627243 -0.72621077 0.68658751 0.034864176 0.0005022384
-0.0051768986 0.01132131 -0.037292361 -0.68644559 0.72664773 0.027847528 0.00036039134
0.064664572 0.010855231 -0.037581161 0.71927011 0.69437182 0.022322306 0.00077852077
0.066093974 0.0093480935 -0.037401337 0.72521776 0.6876393 0.034803655 0.00059770048
-0.0038623142 0.012589315 -0.037651323 -0.67843229 0.73417848 0.026675342 0.0003895009
-0.0021349764 0.014041805 -0.037453417 -0.64892268 0.76035833 0.027469303 0.00024549174
0.061423931 0.013703101 -0.037573032 0.64718127 0.76190776 0.025553411 0.00061247865
0.063342735 0.012055659 -0.037521116 0.68084681 0.73227364 0.014933737 0.00048808358
-0.00054442143 0.01530796 -0.037433393 -0.61185473 0.79055279 0.02569164 0.00048216409
0.0015812108 0.016773824 -0.037556674 -0.56813562 0.82252765 0.025886917 0.00066448411
0.0034316827 0.017949643 -0.036570858 -0.53252023 0.8459785 0.027248122 0.0010115241
0.056418285 0.017585455 -0.037513833 0.52955556 0.84780419 0.028266137 0.00094314117
0.058539715 0.016018597 -0.037462037 0.58916527 0.80719507 0.036338877 0.00087780447
0.0046908711 0.0188508 -0.0376192 -0.51332945 0.8575474 0.033246942 0.00056039728
0.0073523186 0.020230986 -0.037437301 -0.44196457 0.89562011 0.050319515 0.00044788339
0.009068667 0.020969097 -0.036744967 -0.41679746 0.90848446 0.030592479 0.0010548161
0.050533116 0.020790365 -0.037467476 0.42398342 0.90554297 0.015164758 0.00077185058
0.052553721 0.019731294 -0.037489153 0.46347228 0.88589013 0.019801447 0.00040997463
0.05483352 0.018503923 -0.037528474 0.52210599 0.85259175 0.022197347 0.00091931323
0.01043781 0.021659132 -0.037566006 -0.38671356 0.92124033 0.042057943 0.00066212931
0.013401031 0.022789145 -0.037555121 -0.31947443 0.94688189 0.036751818 0.00038087909
0.016107909 0.023607029 -0.037323501 -0.28028023 0.95922762 0.036405042 0.00040133239
0.041721907 0.0239406 -0.036391061 0.22052541 0.97511131 0.022944309 0.0025288435
0.043717068 0.0235165 -0.037285779 0.28786469 0.95722181 0.029330887 0.0026437603
0.046440862 0.02259141 -0.037538495 0.34446102 0.93845421 0.025503043 0.00036743082
0.048953783 0.021595005 -0.037508935 0.41957664 0.90745521 0.021920895 0.00081777823
0.0174095 0.024098702 -0.038357433 -0.27203149 0.96158087 0.036891673 0.00048124295
0.019316949 0.024475642 -0.037504304 -0.21817094 0.97525841 0.035672851 0.00048228024
0.022219541 0.025004549 -0.037462275 -0.15686126 0.98713017 0.031121844 0.00074977556
0.025541004 0.025303498 -0.037642118 -0.094201282 0.99484694 0.037491698 0.00048102249
0.028674735 0.025556192 -0.037608862 -0.006418149 0.99912828 0.041250255 0.0017341909
0.031621691 0.025583304 -0.037598271 0.052028634 0.99790603 0.038428158 0.0004963738
0.034513365 0.025328709 -0.037620615 0.10025919 0.99415916 0.039945509 0.00022223023
0.037592169 0.024962174 -0.03743387 0.1716304 0.98436707 0.039551992 0.0010629671
0.040456049 0.024387807 -0.037576348 0.22318438 0.9733206 0.053251989 0.0014066634
0.042441677 0.02411378 -0.038288433 0.26523986 0.96305907 0.046529409 0.0014034787
-0.018708147 -0.012723637 -0.035135228 -0.95820981 0.28606611 0.00043675338 0.00030948978
0.077919491 -0.012595234 -0.033959962 0.96786708 0.25100151 -0.015218839 0.0009943425
0.07802289 -0.013284355 -0.034764778 0.96744478 0.25288719 -0.009935366 0.0010241671
-0.018535538 -0.011747178 -0.033384316 -0.96105671 0.2758452 -0.016715862 0.00019258264
-0.017827913 -0.0094032511 -0.035097081 -0.96019417 0.27933341 -0.00017601492 0.00045051248
0.077287756 -0.010492889 -0.034241706 0.94920653 0.31435928 -0.013604832 0.00063018902
-0.01726927 -0.007740594 -0.034230437 -0.9457441 0.32469583 -0.011862864 0.00028169225
0.076161839 -0.0074094352 -0.034813613 0.93677008 0.3490625 -0.024844922 0.00044379639
-0.015975073 -0.0043275361 -0.034696218 -0.92852259 0.37087843 -0.01717449 0.00026584323
0.074646883 -0.0035720607 -0.034427624 0.91466105 0.4025968 -0.03620705 0.00075804529
0.075316086 -0.005047603 -0.034395836 0.91814333 0.39495859 -0.031944435 0.00080327666
-0.015264005 -0.0024969522 -0.034598939 -0.89946359 0.43694749 -0.0064892834 0.0010368691
-0.014571673 -0.001078357 -0.034552507 -0.88643247 0.46285513 -0.001614994 0.0009350669
0.07357122 -0.0014918306 -0.034566347 0.89399856 0.4467127 -0.034847163 0.00048380002
-0.013011654 0.0015562174 -0.034455463 -0.83461618 0.55082881 -0.0018562159 0.00065126282
-0.01192147 0.0029508541 -0.035666961 -0.81156796 0.58409649 -0.013732226 0.00062649295
0.071544521 0.0020770847 -0.034702707 0.85499829 0.5173977 -0.035743587 0.00056755421
0.072525322 0.00055533432 -0.034334283 0.87855411 0.47642389 -0.034102127 0.00062326383
-0.01092612 0.0044935332 -0.034527622 -0.8058809 0.59129208 -0.0304894 0.00053907541
0.068883575 0.0059368829 -0.035668708 0.77885425 0.62657362 -0.028136542 0.00012239098
0.070022181 0.0045352019 -0.034380879 0.81325066 0.58048868 -0.040696744 0.00052427279
-0.0095118135 0.0063542747 -0.034425091 -0.79633075 0.60412633 -0.029813388 0.00044550002
-0.008367599 0.0077647716 -0.034453228 -0.77692896 0.62913227 -0.023957085 0.00031145255
0.067715257 0.0074277162 -0.034508098 0.76864868 0.63892561 -0.030875042 0.00049110368
-0.0066720448 0.0097761005 -0.034527514 -0.72713679 0.6861226 -0.022537805 0.00067231053
-0.0050934171 0.011379829 -0.034552827 -0.68433923 0.72886378 -0.02091381 0.00056705216
0.064769186 0.010755721 -0.034481097 0.69334823 0.71979159 -0.034178879 0.00060284801
0.066189401 0.0092012146 -0.034648895 0.73425597 0.67825395 -0.028976751 0.00065119809
-0.0037492542 0.012627002 -0.034283325 -0.67846608 0.7343297 -0.021064896 0.00054522097
-0.0020254734 0.014088668 -0.034482159 -0.6488139 0.76067245 -0.020442303 0.00039423787
0.061486419 0.013741334 -0.034603637 0.64661932 0.76083654 -0.054874912 0.00061604491
0.06323944 0.012232477 -0.034429692 0.68855286 0.72403675 -0.040814139 0.00058908609
-0.00041241202 0.015412685 -0.034466214 -0.61351746 0.78927314 -0.025381789 0.00050444738
0.0016208681 0.016868848 -0.034602128 -0.55102324 0.83389693 -0.031453501 0.00026270619
0.0033090885 0.017918168 -0.034626201 -0.55294335 0.83271307 -0.029026775 0.00032678706
0.056461606 0.017511932 -0.034601413 0.53647745 0.84294492 -0.040446173 0.00088035967
0.058529072 0.016061701 -0.034427576 0.58766907 0.8078388 -0.045181993 0.00068419264
0.0045821173 0.018701717 -0.034430221 -0.50414306 0.86321026 -0.026603818 0.00055769517
0.0072621307 0.02016096 -0.03451062 -0.4540242 0.89010125 -0.039771173 0.00061636767
0.0090933489 0.020971587 -0.035416622 -0.42578238 0.90410554 -0.036092017 0.00037030104
0.050519958 0.02086422 -0.0347954 0.44071013 0.89712554 -0.030664736 0.00092380232
0.052486867 0.019866139 -0.034511082 0.47631666 0.87832367 -0.040865868 0.00043680126
0.054928824 0.018492024 -0.034456838 0.51960659 0.85357744 -0.037610579 0.00092475483
0.0086401058 0.021008845 -0.033284921 -0.42580327 0.90409648 -0.036071297 0.00037835687
0.010430443 0.021674613 -0.034407806 -0.3893581 0.92020214 -0.040351864 0.000715009
0.013327891 0.022755163 -0.03454965 -0.31221491 0.94949359 -0.031365331 0.0006002977
0.016322562 0.02364381 -0.034607008 -0.2751449 0.96122599 -0.018437665 0.0007223569
0.041718703 0.023866657 -0.035891704 0.22047834 0.97512245 0.02292384 0.0025374778
0.043496039 0.023548502 -0.034596302 0.28710863 0.95771241 -0.018858738 0.0025478867
0.046388727 0.022617219 -0.034486964 0.35199293 0.93565363 -0.025558125 0.00050103094
0.049122386 0.02157091 -0.034404971 0.41005248 0.91173226 -0.024520542 0.00044715934
0.017623449 0.02404392 -0.033717338 -0.27369767 0.96165031 -0.017844452 0.00075078965
0.019276844 0.02440379 -0.034488481 -0.2180841 0.97572166 -0.020163111 0.00075363507
0.022359287 0.025054775 -0.034567777 -0.16203654 0.98621178 -0.033624284 0.00086784718
0.025492636 0.025380926 -0.034519963 -0.091654986 0.99505407 -0.038299043 0.00010666288
0.02867849 0.025639186 -0.034420736 -0.031626198 0.99869007 -0.040222581 0.00050503225
0.031617094 0.025544636 -0.03445695 0.053376213 0.99801534 -0.033414163 0.00029968351
0.034558706 0.025297681 -0.034551751 0.095687628 0.99540544 -0.0034399019 0.00070596545
0.037437595 0.025009232 -0.034543026 0.17380798 0.98415464 -0.035077803 0.0011838641
0.040491391 0.024418911 -0.034445427 0.23748733 0.97029382 -0.046149701 0.00095829321
0.042179506 0.024118612 -0.033688907 0.26005146 0.96472985 -0.040859073 0.00086744613
0.079150282 -0.019622011 -0.032962989 0.98341489 0.18124026 -0.0068599302 9.8912591e-05
0.07875216 -0.01664518 -0.030822134 0.9803552 0.19656423 -0.016313586 0.00028801177
-0.019278962 -0.014458755 -0.031496625 -0.96578616 0.25887704 -0.015482806 4.0710369e-05
-0.018363517 -0.01086683 -0.031396739 -0.96101558 0.27576643 -0.02004911 0.00014831946
0.077562124 -0.010935935 -0.031512331 0.96578813 0.25932875 -0.0013421988 0.00087665598
-0.017234944 -0.0072685876 -0.031616144 -0.94083285 0.33821756 -0.021031808 0.00018183411
0.07648924 -0.0077056233 -0.031334303 0.94340676 0.3311699 -0.017612172 0.00051774044
-0.016228192 -0.0046152673 -0.031467572 -0.92635369 0.37626696 -0.017086849 0.00027967544
0.074770898 -0.0033746057 -0.031312812 0.91161215 0.40952119 -0.035436425 0.00054820173
0.07544113 -0.0048680985 -0.031279009 0.92459261 0.37956214 -0.032574337 0.00038309675
-0.015434502 -0.0027249025 -0.031638086 -0.91875118 0.39464146 -0.012421573 0.0002022237
-0.014430294 -0.00070578814 -0.031631038 -0.88538736 0.46464747 -0.013853594 0.00047263943
0.073802061 -0.0014060328 -0.031451672 0.88832128 0.45774755 -0.036776889 0.00030238411
-0.012948684 0.0018337099 -0.03156456 -0.84596777 0.53208935 -0.034922283 0.00045416821
0.071631774 0.0023744025 -0.031491097 0.84786326 0.52901876 -0.035595439 0.00027772906
0.072516151 0.00099162292 -0.03158192 0.86295468 0.5038864 -0.037518915 0.00045463289
-0.01223125 0.0030349544 -0.030166831 -0.8304472 0.55631602 -0.029496357 0.00043889435
-0.010989722 0.0046984642 -0.031664584 -0.80017018 0.59878665 -0.034383144 0.0001937702
0.070232093 0.0044783405 -0.031506792 0.81970221 0.5713464 -0.040639371 0.00041724803
-0.0096189901 0.0065062009 -0.031291138 -0.78805077 0.61469275 -0.033599038 0.00013598852
-0.008230716 0.008185192 -0.031411149 -0.75921983 0.65005314 -0.031877603 0.00016342638
0.067827977 0.0075424053 -0.031487387 0.76852876 0.63775772 -0.051270265 0.00023454703
0.069204293 0.0060136216 -0.030202342 0.79914653 0.60036194 -0.03050277 0.00050500181
-0.0066726762 0.0099587655 -0.03160695 -0.73119318 0.68150169 -0.030200852 0.00030821652
-0.0053505008 0.011356998 -0.031275749 -0.70873994 0.70504093 -0.024596322 0.00034349979
0.064936869 0.010823807 -0.03164646 0.72214448 0.68999833 -0.049087424 0.00021158083
0.066419221 0.0093010841 -0.031460013 0.73826373 0.6726827 -0.049646165 0.00027734472
-0.0038429718 0.012752276 -0.031453047 -0.67275941 0.73933411 -0.027925847 0.00023935109
-0.0021135786 0.014231716 -0.031608131 -0.64647782 0.76233041 -0.030312791 0.0001474634
0.061579362 0.01398426 -0.031596247 0.65348268 0.7554093 -0.048137389 0.00038149764
0.06336166 0.012384574 -0.031329878 0.67624581 0.73519701 -0.046656802 0.00015067415
-0.00056387566 0.015469891 -0.031309731 -0.6084857 0.79299843 -0.029978141 0.00025091827
0.0014749529 0.016919445 -0.031518973 -0.56988788 0.82111818 -0.031509444 0.00023835483
0.0030537955 0.017968385 -0.031508077 -0.53082007 0.84705871 -0.026864227 0.00041310943
0.056519307 0.017737698 -0.031592928 0.53787702 0.84179831 -0.045431208 0.00056191458
0.058609895 0.016299156 -0.031454142 0.58107036 0.81258428 -0.045433171 0.00019187453
0.060410004 0.015036331 -0.030456204 0.62726867 0.77746731 -0.045591906 0.00050355349
0.0046200654 0.018935081 -0.031472478 -0.49301726 0.86941391 -0.03245569 0.00027539762
0.0071722255 0.020297406 -0.03149632 -0.46579519 0.88451177 -0.025958199 0.00024614437
0.05241615 0.020074282 -0.03152249 0.4600459 0.88720137 -0.035092723 0.00012308819
0.05502072 0.018712536 -0.031429023 0.50897986 0.85984582 -0.040058862 0.00045706989
0.008678833 0.021075631 -0.031414773 -0.42909393 0.9026978 -0.031861085 0.00036627869
0.010469916 0.021873431 -0.031473801 -0.38736618 0.92105842 -0.039983895 0.00038846358
0.013463864 0.023038449 -0.031519406 -0.32106635 0.94628406 -0.03824769 0.00037300363
0.015941761 0.023747481 -0.03157803 -0.27699119 0.95995402 -0.042002555 0.00022155816
0.043639764 0.023692131 -0.031489614 0.30055466 0.95337641 -0.027207991 0.00026134137
0.04644065 0.022756074 -0.031434152 0.33435225 0.94189471 -0.032292955 0.00020245947
0.049377445 0.021592606 -0.031485502 0.40906051 0.9119553 -0.031734463 0.00038692457
0.017342312 0.024143748 -0.031201623 -0.25221261 0.9667238 -0.042824782 0.00013531809
0.01944482 0.024656186 -0.031532664 -0.21162938 0.97667366 -0.036352899 0.00023533766
0.02232589 0.025222769 -0.03143876 -0.1603581 0.98648548 -0.033640306 0.00055162882
0.025429931 0.02558618 -0.031439394 -0.096054062 0.99506807 -0.024762614 0.00023046309
0.028682435 0.025851386 -0.031463098 -0.0057506836 0.99933159 -0.036103908 0.0010466004
0.031611826 0.025712486 -0.031515416 0.063930571 0.99714971 -0.040067893 0.00024795788
0.034610409 0.025473269 -0.031463247 0.11289057 0.99284071 -0.039027285 0.00044384805
0.037480637 0.025168933 -0.031459048 0.16526142 0.9856531 -0.034302749 0.00047694714
0.040362954 0.024572685 -0.031563893 0.21624182 0.9760915 -0.02201988 0.00025781454
0.042153049 0.024133379 -0.031324476 0.28080356 0.95949143 -0.022924043 0.00035999998
0.078580759 -0.015865127 -0.028587203 0.98073936 0.19509149 -0.0094611682 0.0002231312
-0.019063305 -0.013513413 -0.028648604 -0.96369851 0.26651543 -0.015962532 9.0735099e-05
-0.018169953 -0.010083301 -0.028617967 -0.95958906 0.28122923 -0.0099470858 0.00015359512
0.077588685 -0.011481449 -0.028529417 0.9650678 0.26191387 -0.0067292578 0.00052549312
-0.017369624 -0.0075722425 -0.028327653 -0.94254494 0.33393255 -0.0099051297 0.00017556187
0.076371916 -0.007340733 -0.028525744 0.9423061 0.33466408 -0.0076929214 0.00058640994
-0.01631044 -0.00483994 -0.028506873 -0.92436671 0.38150513 2.534572e-05 0.00011995147
0.074660458 -0.0031346024 -0.029025292 0.90608788 0.42308286 0.0023762691 0.00059536321
0.075307921 -0.0046264781 -0.02843453 0.92063987 0.39041293 0.00023756747 0.00022673325
-0.015284945 -0.0024288874 -0.028509649 -0.90210283 0.43151754 -0.0017823788 0.00037408166
-0.014629736 -0.0010326878 -0.028578812 -0.89015323 0.45562574 -0.0056991498 0.00051399751
0.073821642 -0.001425223 -0.02843838 0.88559282 0.46443751 -0.0048221946 0.00047765989
-0.013343863 0.0012170327 -0.028553726 -0.86789203 0.49673617 -0.0040665655 0.00016756605
0.07149817 0.0026268119 -0.028406842 0.83589935 0.54883754 -0.0070408634 6.310051e-05
0.072442718 0.0010867533 -0.028518669 0.86119175 0.50824612 -0.0058869477 0.00028749558
-0.012158081 0.0031684216 -0.028490255 -0.82037002 0.57178718 -0.0072386721 0.00041289435
-0.010981849 0.0047958205 -0.028466005 -0.79341859 0.6086213 -0.0081939464 5.3378575e-05
0.070275605 0.0044696741 -0.028511751 0.83283526 0.55347228 -0.0073440839 4.1165258e-05
-0.0095151393 0.0066623087 -0.028501462 -0.7784704 0.62762314 -0.0085494658 8.7436943e-05
-0.0083114998 0.0081452765 -0.028641395 -0.76934737 0.63874143 -0.010677079 8.2725121e-05
0.067754462 0.0078334967 -0.028533181 0.78171194 0.62315577 -0.024562165 0.00018363887
0.06913954 0.0061109206 -0.028547371 0.80674601 0.59064502 -0.017301098 0.00046900759
-0.0069175554 0.0097466167 -0.028381323 -0.74353081 0.6686483 -0.0084472494 0.00020418952
-0.0053101927 0.011388537 -0.028488966 -0.68920511 0.72454953 -0.0049152868 0.00018289032
0.064916328 0.010981506 -0.028514165 0.71818197 0.69541812 -0.024662184 0.00028377157
0.066297807 0.0095946947 -0.028399412 0.73687696 0.67552781 -0.025969766 0.00035491752
-0.0036849603 0.012877869 -0.028493272 -0.6620729 0.74942297 -0.0049633957 9.8321689e-05
-0.0020750035 0.014306684 -0.02851557 -0.62833405 0.77788812 -0.0092995251 0.00034302883
0.061729331 0.013913383 -0.028468264 0.6386975 0.76928282 -0.016416354 0.00034952155
0.063298851 0.0125586 -0.028685054 0.67372566 0.73862535 -0.022943117 0.00015595039
-0.00065189204 0.01545578 -0.028668219 -0.61290175 0.79004669 -0.013327579 0.00033450147
0.0013974119 0.016893979 -0.028410725 -0.56442189 0.82545263 -0.0074763177 0.00034782922
0.056695458 0.017697072 -0.02843556 0.56314152 0.82629889 -0.010094698 0.00011066448
0.058513176 0.016405618 -0.028507609 0.58846354 0.80844563 -0.011245845 0.0002614898
0.060358383 0.015057529 -0.028590202 0.62073106 0.78391469 -0.013070677 0.00029029825
0.0044382368 0.018842023 -0.028508887 -0.50608814 0.86246371 -0.0055786902 0.00025798636
0.0072522406 0.020347448 -0.02848367 -0.45735911 0.88928193 -0.00066612591 0.00010906428
0.052290834 0.020203432 -0.02850391 0.46082476 0.88735861 -0.015338765 0.00011732426
0.055097964 0.018689524 -0.028509958 0.50914168 0.86063176 -0.0093646031 0.00044446904
0.0087358411 0.02111664 -0.028511334 -0.42854074 0.90352237 -0.00033511239 5.0438746e-05
0.010494372 0.021904679 -0.028486162 -0.38543561 0.92273146 0.002454709 0.00026267627
0.013520164 0.023037292 -0.028557813 -0.32788092 0.94470727 -0.0047261957 0.00023980111
0.015687577 0.023742972 -0.028413547 -0.27732611 0.96072751 -0.0096295662 0.00016138364
0.043779813 0.023662947 -0.028501656 0.2908231 0.95662135 -0.017247468 0.00017907591
0.04625874 0.022888407 -0.028530845 0.3353028 0.94194913 -0.017433051 0.00024418757
0.049262695 0.021698201 -0.028484518 0.40769306 0.9129014 -0.019933902 0.0003198788
0.017226234 0.02418161 -0.028534153 -0.26105571 0.96523339 -0.013208179 0.00017704595
0.019407639 0.024696551 -0.028507898 -0.20928647 0.97782612 -0.0074337278 0.00020929372
0.02228911 0.025204504 -0.02839765 -0.15751524 0.98751318 -0.0025746245 0.00039637703
0.025593255 0.025585817 -0.028600356 -0.095188908 0.99542445 -0.0083122393 0.00017823062
0.028685477 0.025831454 -0.02860973 -0.010524138 0.99994415 -0.0010034605 0.00077601749
0.031607073 0.025777444 -0.028629683 0.047450852 0.99875379 -0.015473955 0.0001985414
0.034464139 0.025586143 -0.028582098 0.080976002 0.99662668 -0.013345489 0.00033483125
0.037516639 0.025189945 -0.028403008 0.17236964 0.98494637 -0.013009891 0.00046135616
0.04040071 0.024595015 -0.028545231 0.22468355 0.97436649 -0.011279414 0.00021030035
0.042303119 0.024116006 -0.028265288 0.27534524 0.96122688 -0.015095814 0.00015005351
-0.020063391 -0.019205529 -0.025169963 -0.97920913 0.20277023 0.0057960153 0.00016346246
-0.018827289 -0.012484634 -0.025516758 -0.96552587 0.26018012 0.0081271166 0.00046327227
0.078246616 -0.013796129 -0.025665769 0.97584885 0.21839269 -0.0048665493 0.00021408427
-0.018045185 -0.0095936367 -0.026786294 -0.95936018 0.28215167 -0.0043129832 0.00016271565
-0.017942192 -0.0091912672 -0.025269711 -0.95290345 0.30317521 -0.0077348398 0.00058754196
0.077328414 -0.010103656 -0.02556973 0.95608652 0.2923882 -0.020190241 0.00051229552
-0.017206701 -0.0071151876 -0.025413495 -0.93412822 0.35680911 -0.0095723383 0.00023614727
0.076447435 -0.0074189808 -0.025788957 0.94140071 0.33667725 -0.020327263 0.00053282833
-0.016140085 -0.0043835742 -0.025331188 -0.92308044 0.38460451 -0.0013800346 0.00016858979
0.075452119 -0.0049060006 -0.025413236 0.92088395 0.38967094 -0.011372441 9.3571689e-05
-0.015133147 -0.002106444 -0.025391728 -0.9004299 0.43499169 -0.0028582069 0.00038455924
-0.014487309 -0.00077602331 -0.025490273 -0.88866752 0.45854479 0.0025640815 0.00037044386
0.073896818 -0.0015085682 -0.025774298 0.89612669 0.443396 -0.018894859 0.00020368991
-0.01324603 0.0014177966 -0.025564987 -0.85915905 0.51168019 0.0053998712 0.00043200501
0.0716253 0.0024712293 -0.025401546 0.84957135 0.52713698 -0.018846596 0.00042836324
0.072578676 0.00094261178 -0.025453992 0.86023438 0.509408 -0.022367027 0.0003628532
-0.012048279 0.0033724164 -0.025983525 -0.82256037 0.56867188 0.0025814222 0.00038068841
-0.010984518 0.0047940668 -0.025319282 -0.80463165 0.59371889 -0.0081150429 0.00044614973
0.070255861 0.0045373226 -0.02547534 0.82484239 0.56530744 -0.007898435 0.00017268378
-0.0094482237 0.0067747487 -0.025481803 -0.77928412 0.62656361 -0.011587455 0.00012577849
-0.0083121071 0.0081857853 -0.025532858 -0.75185418 0.65917617 -0.01421159 0.00021563318
0.0680025 0.0075948443 -0.025435362 0.77429944 0.63277084 -0.0078440672 0.00059343176
0.069039479 0.0062888912 -0.026062768 0.79668421 0.60439456 -0.0012403063 0.00017709233
-0.0069218818 0.0097924266 -0.025558339 -0.74310833 0.6690312 -0.013676885 0.00022758053
-0.0054138675 0.011305724 -0.025666265 -0.71024156 0.70375919 -0.016733643 0.00030296482
0.064879671 0.011081719 -0.025584364 0.69772422 0.71626979 -0.011766665 9.8128941e-05
0.066466607 0.0094923554 -0.025495613 0.73761857 0.67515606 -0.0091147795 0.00038389897
-0.0038131864 0.012815186 -0.025420999 -0.66170788 0.74965531 -0.012627608 9.5040021e-05
-0.0020440433 0.014361266 -0.025475128 -0.63025337 0.77635747 -0.0070539317 0.00022492796
0.061835367 0.013923005 -0.02550137 0.65576148 0.75491273 -0.0091500934 0.00021134385
0.063535191 0.012404983 -0.025360854 0.68431395 0.72909176 -0.011812996 0.00020998967
-0.00068991049 0.015480985 -0.025533421 -0.61324388 0.78988063 -0.0045456281 0.00030428707
0.0014234328 0.017002111 -0.025485221 -0.56034094 0.82824683 -0.0050153011 0.00033930881
0.056622587 0.017754797 -0.025522437 0.56186825 0.82715499 -0.010900335 0.00012244945
0.058429372 0.016519561 -0.02547691 0.571733 0.82037592 -0.010234366 9.884769e-05
0.060271338 0.015169273 -0.025642676 0.62107813 0.78370225 -0.0085316366 0.00019446501
0.0044551529 0.018869163 -0.025560334 -0.49648902 0.86802256 -0.0059667039 0.00036761942
0.007226612 0.020351321 -0.025482064 -0.45277947 0.89162213 -0.00080970308 0.00014536906
0.050998669 0.020971969 -0.024387635 0.45448849 0.89074129 0.0044922959 0.00052340492
0.052387476 0.020185856 -0.025550403 0.46260262 0.88651836 -0.0091629159 0.00019283348
0.055139255 0.018661467 -0.025558012 0.51040775 0.85982162 -0.013811411 0.00032380351
0.0087892702 0.021099301 -0.025644593 -0.4418132 0.89710355 0.0025267552 0.00016094519
0.010524758 0.021889236 -0.025489496 -0.38483724 0.92298174 0.0022354701 0.00023951687
0.013531019 0.023047503 -0.025469596 -0.33223081 0.94319636 -0.0018029474 0.00017032689
0.015785264 0.023800563 -0.025556382 -0.28251597 0.9592467 -0.0055207163 0.00027370013
0.043809392 0.023742238 -0.025609598 0.28887829 0.95735973 -0.0034144425 0.00012550291
0.046325982 0.022913851 -0.025482289 0.33930284 0.9406693 -0.0038598487 0.00032187862
0.049365312 0.021705333 -0.025531162 0.40407994 0.91463882 -0.012461269 0.00028312343
0.017230136 0.024201909 -0.025574468 -0.25947073 0.96574247 -0.004058511 0.00032628595
0.019437559 0.024712197 -0.02539137 -0.20204271 0.97937202 -0.0030072909 0.00019288706
0.022427317 0.025243571 -0.025555614 -0.1558834 0.98777413 -0.0016172858 0.00034846336
0.025530037 0.025577107 -0.02559709 -0.093317144 0.99563396 0.0022066205 9.2865273e-05
0.028688826 0.025804661 -0.025515113 -0.011847067 0.99992943 -0.00091613625 0.00064271351
0.031602241 0.025783069 -0.02552288 0.055887923 0.99843699 -0.00034043277 0.0003922302
0.034518018 0.025596235 -0.025590181 0.077369504 0.99699742 -0.003180959 0.00046200413
0.037378326 0.025233099 -0.025559373 0.173539 0.98481983 -0.0037384783 0.00032798148
0.04036938 0.024660602 -0.025409902 0.2218027 0.97509021 -0.001651142 0.00013268316
0.042388182 0.024154412 -0.025491979 0.27140972 0.96246165 -0.0021031015 0.00020284278
-0.019643078 -0.016377902 -0.022309884 -0.97882372 0.20469193 0.0022881906 0.00020578972
0.077945538 -0.012374666 -0.021874636 0.96579897 0.25904715 0.011267034 0.00031528954
0.078050703 -0.012702116 -0.02364119 0.96936536 0.24560446 -0.0030396448 0.00050105352
-0.018592225 -0.011454676 -0.022411365 -0.96714181 0.25330913 0.021710742 0.00054559624
0.077117741 -0.0092356075 -0.022527147 0.95388204 0.29931343 0.022812052 0.00046348199
-0.017414274 -0.0076755593 -0.022572618 -0.94228721 0.33423823 0.019483354 0.0001948249
0.076543845 -0.0075307153 -0.022388766 0.93950182 0.34234858 0.011563133 0.0002707626
-0.015985854 -0.0039677331 -0.022463122 -0.92070574 0.39015538 0.0089305835 0.00023978774
0.074966021 -0.0036429346 -0.022085378 0.91726351 0.39802083 0.014389905 0.00027738657
0.075495653 -0.0049128956 -0.02288777 0.9276216 0.37332034 0.012255014 0.00016248407
-0.015033499 -0.0018708776 -0.023407655 -0.89495718 0.44598675 0.012141166 0.00043146865
-0.014558162 -0.00097533222 -0.022299815 -0.88213009 0.47073683 0.015918933 0.00021620683
0.073993675 -0.0015079469 -0.022474796 0.89222229 0.45147067 0.010654649 0.00047174483
-0.013114857 0.0016138158 -0.022527685 -0.85515058 0.51818949 0.014045659 0.00030528507
0.071833782 0.0022817443 -0.02257652 0.84460396 0.53531808 0.0088709397 0.00040078541
0.072691962 0.0010041356 -0.022337243 0.86336458 0.50450903 0.0085047986 0.00063620385
-0.011081977 0.0047284388 -0.022461019 -0.81250733 0.58238631 0.025651867 0.00037286748
0.070331365 0.0044701453 -0.02253242 0.81650835 0.57723963 0.010416873 7.6706834e-05
-0.009524459 0.0068155625 -0.022565264 -0.78159529 0.62351418 0.018412573 0.00030849152
-0.0083215078 0.008252156 -0.02234224 -0.75845271 0.65142697 0.019810088 0.00034011601
0.06802617 0.0075815213 -0.022560468 0.7824555 0.62262571 0.010035714 0.00042720963
-0.0067730932 0.010011096 -0.022483308 -0.73244303 0.68064207 0.015923461 0.00042195953
-0.0053798226 0.011453113 -0.02258084 -0.69047177 0.72326159 0.011897016 0.0003764077
0.064991131 0.011009654 -0.022498678 0.69416332 0.71961641 0.017012678 0.0001863428
0.066382341 0.0095882332 -0.02239316 0.74143285 0.67087024 0.014507132 0.00043480564
-0.0039436584 0.012783118 -0.022651264 -0.66968989 0.74252743 0.012979442 0.00028894286
-0.0021207384 0.014307683 -0.022369012 -0.64191437 0.76646751 0.021760728 0.00018907276
0.06178613 0.013940814 -0.022535609 0.65112007 0.75844628 0.028316036 0.00029535007
0.063629292 0.012362819 -0.022392161 0.67798918 0.73465198 0.024840608 0.00036540144
-0.00060199737 0.015512406 -0.022369904 -0.60578454 0.79515684 0.027398888 0.0002435979
0.0014546599 0.016997047 -0.022510583 -0.55612284 0.83049339 0.031752184 0.00038475133
0.056547325 0.017851962 -0.022611765 0.5506478 0.83435649 0.025225796 0.00045694123
0.05833105 0.016621327 -0.022473259 0.57575214 0.81728077 0.023699166 0.00031131395
0.0601792 0.015262053 -0.022455655 0.60800934 0.79356277 0.024141965 0.00025916877
0.0045582629 0.018945588 -0.022494329 -0.50242621 0.8641755 0.027723027 0.0002851829
0.007343058 0.020415295 -0.022505105 -0.45699891 0.88916409 0.023220375 0.00023171151
0.050951343 0.020939985 -0.021804743 0.42275506 0.90541428 0.038770672 0.00053104974
0.052669607 0.020123938 -0.022417199 0.47253221 0.88060296 0.03538027 0.00057026808
0.055166248 0.018725868 -0.022550277 0.50597459 0.86207318 0.028628992 0.00058206252
0.008849794 0.021125758 -0.022517765 -0.43003097 0.90248173 0.024497058 0.00027660796
0.010599638 0.021929605 -0.022496559 -0.37791497 0.92542946 0.027578969 0.00030332559
0.013518565 0.023049245 -0.022440363 -0.33492053 0.94142908 0.039235812 0.00041165113
0.015792692 0.023812125 -0.022613401 -0.28531528 0.95761949 0.03950002 0.0005479441
0.043852847 0.023686303 -0.022451218 0.29397517 0.95484406 0.043028627 0.00027162596
0.046637878 0.022805836 -0.022503799 0.33813542 0.94021475 0.040750384 0.00038980079
0.049601857 0.02154634 -0.022536077 0.4038415 0.91403615 0.038078677 0.00059227913
0.017267348 0.024253214 -0.022458779 -0.24945672 0.96745539 0.042442404 0.00065310468
0.019408207 0.024677768 -0.0223855 -0.20925243 0.97648472 0.051875927 0.00044849931
0.022386096 0.025228813 -0.022630466 -0.15119927 0.9877528 0.038512342 0.00039753772
0.025542697 0.025611158 -0.022495963 -0.088899679 0.99553841 0.031626437 0.0003754553
0.028692298 0.025816964 -0.0224235 -0.017920977 0.99897069 0.041669212 0.00064355903
0.031597484 0.02577519 -0.022438208 0.046932522 0.99793518 0.043849256 0.00058971031
0.034504961 0.025608048 -0.02249706 0.080448151 0.99598813 0.039189368 0.00045999946
0.037419096 0.025236858 -0.022627674 0.17084222 0.98457265 0.037809994 0.00054914033
0.040399533 0.0246037 -0.022411413 0.21953335 0.97493988 0.036019277 0.00023322841
0.042253274 0.024117406 -0.02271229 0.26674923 0.96296477 0.039290588 0.00014796313
-0.019527683 -0.016365964 -0.019523652 -0.9799096 0.1994348 0.0016768145 0.00017622774
0.077881463 -0.012676473 -0.019485276 0.9616909 0.27309757 0.023841323 0.00038648702
-0.018449802 -0.01119586 -0.019573566 -0.96794832 0.25111234 0.0043199547 0.00079196895
0.077034414 -0.0095484648 -0.019605694 0.95497805 0.29583648 0.022308005 0.00065180956
-0.017284179 -0.0075894129 -0.019535175 -0.94233483 0.33441788 0.013028989 0.00020311111
0.076259606 -0.0071774544 -0.019405659 0.93832737 0.34514233 0.020456592 0.00039457236
-0.015999265 -0.0042878669 -0.019757446 -0.92297053 0.38486972 -0.00083702541 0.0003373225
0.074883007 -0.0037368119 -0.019673057 0.91739905 0.39741442 0.020994771 0.00033862548
0.075552724 -0.005263533 -0.019616455 0.92005473 0.3913444 0.018678235 0.000290861
-0.015465994 -0.0028830068 -0.018589871 -0.90661585 0.42194217 0.0035401408 0.00024370902
-0.014576847 -0.0011350039 -0.019504001 -0.88823235 0.45934227 0.0069221477 0.00053072145
0.073900715 -0.0016801571 -0.019555762 0.89954883 0.4358786 0.028666126 0.00024016839
-0.013042344 0.0015123086 -0.019494055 -0.85502291 0.51813096 0.021821706 0.00039909792
0.07172545 0.0022069437 -0.019380875 0.85241145 0.52256739 0.017835654 0.00092492311
0.072659642 0.00071946328 -0.01944598 0.86199337 0.50645047 0.021801885 0.0007005005
-0.010953989 0.0046791341 -0.019500805 -0.81265599 0.58233881 0.021720784 0.00057691924
0.070281893 0.0043915045 -0.019594504 0.82112962 0.57074082 0.0010060719 0.00041343039
-0.0094958367 0.0065492154 -0.01956808 -0.7751947 0.63114351 0.02703741 0.00036718664
-0.0083630392 0.0079177208 -0.01947305 -0.77033025 0.63699925 0.028690713 0.00035525273
0.067953862 0.0075146519 -0.019516842 0.77708417 0.62932396 0.0095649939 0.00081073126
-0.0066530895 0.0099246157 -0.01943974 -0.7279976 0.68490797 0.030341759 0.0004570712
-0.0053184796 0.011340401 -0.019575849 -0.68503118 0.72792971 0.029166471 0.00039626026
0.064812623 0.011013924 -0.019294249 0.68618602 0.72721231 0.017634435 0.00055187778
0.066343382 0.0095314281 -0.019778656 0.73007542 0.68318111 0.015922332 0.00078457355
-0.0039722999 0.012561651 -0.019520717 -0.67476702 0.73750275 0.027913501 0.00038187471
-0.002098093 0.014165904 -0.019491261 -0.64454925 0.76414877 0.025158761 0.00025837583
0.061696816 0.013779563 -0.019551845 0.65584415 0.7548002 0.012045852 0.00068188779
0.063385159 0.012330147 -0.019685211 0.6833697 0.72994173 0.013814819 0.00058897206
-0.00055535138 0.015354997 -0.019405968 -0.61276078 0.78992116 0.023426667 0.00045491621
0.0015335326 0.016834151 -0.019528171 -0.5601061 0.82808232 0.023678111 0.00085493299
0.0033730965 0.017993588 -0.018147143 -0.54580569 0.83782542 0.012029147 0.00056852767
0.056441184 0.017654959 -0.019217204 0.51892054 0.85445189 0.025164234 0.00088736956
0.058434501 0.016402613 -0.019620039 0.56010127 0.82812881 0.022116527 0.00062464003
0.060107589 0.015102439 -0.019371951 0.63037372 0.77618766 0.012713723 0.00067522039
0.0046585472 0.018772431 -0.019530421 -0.49930838 0.86596191 0.02830226 0.00042212495
0.0075349421 0.020346399 -0.019423913 -0.44989881 0.89283824 0.020760324 0.00056802278
0.050719202 0.020810226 -0.019524571 0.4036195 0.91465735 0.022208266 0.0012314804
0.052678466 0.019822679 -0.019515105 0.45745388 0.88888317 0.024951426 0.00096963043
0.055065263 0.018502288 -0.019612109 0.51372617 0.85749656 0.028018491 0.00079987687
0.0088899555 0.021055954 -0.020214334 -0.44486022 0.89533967 0.021593571 0.00067005365
0.010635557 0.021721419 -0.019514173 -0.3835685 0.92322022 0.023231041 0.00058251724
0.013611874 0.022861147 -0.019512555 -0.32012033 0.94684786 0.03165815 0.00071582862
0.016345469 0.02367273 -0.019474847 -0.26816145 0.96278197 0.033767402 0.001092011
0.043572992 0.023571467 -0.019517656 0.28648168 0.95789689 0.019017488 0.00084545044
0.046693936 0.022492649 -0.019467099 0.35647428 0.93402159 0.023017075 0.00086054578
0.04928036 0.021484066 -0.019470964 0.40624464 0.9135502 0.019785423 0.0010995496
0.017614774 0.024094833 -0.019945331 -0.26345223 0.96405524 0.034500904 0.001148199
0.0195069 0.024443263 -0.019445069 -0.19959426 0.97922766 0.035711367 0.00081227871
0.022402985 0.025023758 -0.019626135 -0.15979089 0.98639458 0.038635377 0.00055335573
0.025310149 0.025345743 -0.019515464 -0.11665115 0.99232364 0.041065846 0.00086150784
0.028453048 0.025517154 -0.019456614 -0.0078697605 0.99922848 0.038477503 0.0012122936
0.031593926 0.025524111 -0.019454291 0.05601716 0.99771464 0.037783936 0.0009594931
0.03449529 0.02534686 -0.019515133 0.11837159 0.99219912 0.039102826 0.0010111441
0.037402369 0.025029287 -0.019624216 0.17202227 0.9845528 0.03261999 0.00079614186
0.040298801 0.02443403 -0.019448269 0.22195739 0.97482705 0.021148862 0.00061010255
0.042033777 0.024031198 -0.02022315 0.22678731 0.97380549 0.01644644 0.00062758609
-0.019326767 -0.015351066 -0.01727497 -0.97643399 0.21581523 -0.00067327684 0.0001823299
0.078592218 -0.015638929 -0.016259037 0.97073191 0.23975837 -0.013985258 0.00030137869
-0.019147696 -0.014231248 -0.01583451 -0.97426957 0.22502275 -0.012786359 0.00012173298
0.077758543 -0.012192589 -0.01768497 0.9659158 0.25878635 -0.0060189208 0.00059703813
0.0784254 -0.014511208 -0.015094505 0.97138798 0.23602536 -0.026408538 5.041662e-05
-0.01827787 -0.010682103 -0.016674975 -0.96444213 0.26370028 -0.017703399 0.00065144501
0.077427231 -0.010667939 -0.016668651 0.96207041 0.27180415 -0.023304678 0.00021472567
-0.01718187 -0.0074568624 -0.016590649 -0.94215834 0.33462933 -0.018996602 0.00012824241
0.076407373 -0.0074997712 -0.016422961 0.9385069 0.34450009 -0.022900663 0.00041267229
-0.016137348 -0.0045010885 -0.01612851 -0.92230684 0.3864345 -0.0043016714 0.0005806461
0.07475768 -0.0035429776 -0.016909618 0.91723901 0.39796069 -0.017316109 0.00029630758
0.075386539 -0.0048170192 -0.016497282 0.91821283 0.39571947 -0.017067406 0.0002691845
-0.015351327 -0.0026087365 -0.016349114 -0.89184958 0.45220879 -0.01056294 0.00071114377
-0.014385828 -0.00084218825 -0.01648041 -0.88322049 0.46879247 -0.012455197 0.00049570028
0.073809318 -0.0014730827 -0.01653129 0.89065641 0.45439842 -0.015915619 0.00041231158
-0.012836398 0.0018525325 -0.016489118 -0.84900284 0.52809322 -0.01765307 0.00024899797
0.071582176 0.0025584034 -0.016333448 0.83221275 0.55390108 -0.024811346 0.0003661979
0.072509684 0.00093965139 -0.016576981 0.86291736 0.50483179 -0.022770427 0.00054545334
-0.010921429 0.0046971808 -0.016661352 -0.80750966 0.58933514 -0.024744233 0.00049557287
0.070147306 0.0046194606 -0.016666057 0.82019335 0.57144952 -0.026984237 0.00052486593
-0.0095788091 0.0064733876 -0.016284101 -0.77262866 0.63457191 -0.019068189 0.00024687144
-0.0082483916 0.0080648493 -0.016434621 -0.76991427 0.6378957 -0.017920921 0.00024768707
0.067824163 0.0077089886 -0.016485745 0.77268475 0.63456625 -0.016849523 0.00068020279
0.069199465 0.0060271174 -0.015238046 0.80152082 0.59648246 -0.042106219 0.00022431822
-0.0066547627 0.0098769059 -0.01650944 -0.72682577 0.68673015 -0.011228705 0.00042769522
-0.0053117052 0.011254538 -0.016457828 -0.71688169 0.69716984 -0.00590673 0.00040728381
0.0649895 0.010825083 -0.016552621 0.72338438 0.69003516 -0.023799533 0.00050215481
0.066440322 0.0093773147 -0.01653927 0.73402089 0.6788823 -0.018224321 0.00047314886
-0.0038434237 0.012659797 -0.016448654 -0.67701304 0.73594028 -0.0067186416 0.00039344718
-0.0020228901 0.014196682 -0.016546333 -0.6474871 0.7619915 -0.011371429 0.00029231914
0.061612733 0.014038288 -0.016577838 0.62824249 0.77682924 -0.042982966 0.00025591979
0.063354723 0.012504105 -0.01631511 0.66718769 0.74388373 -0.038698334 0.00045403873
-0.00042383649 0.015477511 -0.016529761 -0.61109698 0.7914111 -0.015129278 0.00028364739
0.001633763 0.016963225 -0.016464137 -0.5506053 0.83441317 -0.024257949 0.00029367238
0.0033848609 0.017986041 -0.017632514 -0.54296988 0.83925545 -0.028880281 0.00024259138
0.056646075 0.01761955 -0.016767964 0.55568469 0.83065194 -0.03509647 0.00025354489
0.058585156 0.016291713 -0.016501823 0.58150005 0.81279582 -0.034937389 0.0002644732
0.060153656 0.015152184 -0.016624017 0.62200844 0.78215343 -0.036624372 0.00026256623
0.0047874027 0.018875293 -0.016463587 -0.49542066 0.86820561 -0.027880656 0.00028866975
0.0076495153 0.020370761 -0.016576556 -0.44360664 0.89605552 -0.017251926 0.0005062237
0.050856888 0.020884342 -0.01667119 0.43369147 0.90052676 -0.031036761 0.00067362696
0.052610837 0.01992433 -0.016475821 0.46004805 0.88729429 -0.032628294 0.00014415466
0.055163208 0.018554715 -0.016390672 0.51233536 0.85797673 -0.037260719 0.0003931149
0.0089801131 0.021102181 -0.01557413 -0.41207159 0.91108346 -0.011129946 0.0010535475
0.01076446 0.021804487 -0.016505396 -0.37832057 0.92555106 -0.015124266 0.00038718135
0.013657958 0.022906965 -0.016510269 -0.32060191 0.94698453 -0.020851048 0.00022002046
0.016201213 0.023704691 -0.016577868 -0.27559921 0.96113193 -0.016446244 0.00024897954
0.043723267 0.023575332 -0.016637348 0.29737765 0.95403761 -0.037132673 0.00038798864
0.046710648 0.022591943 -0.016476011 0.35260734 0.93498206 -0.038427625 0.00021602551
0.049395517 0.021526951 -0.016457934 0.40309486 0.91462219 -0.031318109 0.00032478519
0.017625239 0.024107127 -0.016161248 -0.25982109 0.96543634 -0.020633062 0.00033060292
0.019516982 0.024509896 -0.016484821 -0.19886018 0.97982699 -0.01984171 0.00035086658
0.022422548 0.024956977 -0.016589584 -0.15853688 0.9869979 -0.026478922 0.00043225643
0.025322556 0.025321601 -0.016467366 -0.10943618 0.99363339 -0.026766147 0.00060979492
0.028457344 0.02559489 -0.01637567 -0.0097661214 0.99945033 -0.031679731 0.00077098486
0.03158902 0.025568608 -0.016384467 0.052021984 0.99812883 -0.032133393 0.00066590286
0.034482468 0.025352042 -0.016457163 0.071010359 0.99706787 -0.028515818 0.00061892136
0.03738188 0.025008174 -0.016572502 0.16620174 0.9857651 -0.025379712 0.00046780705
0.040477183 0.024451785 -0.016419364 0.21505469 0.97613323 -0.030256614 0.0004468899
0.042308982 0.024030937 -0.015966123 0.28087416 0.95916718 -0.033284742 0.00045370311
-0.018909184 -0.012891573 -0.013517911 -0.96654499 0.25529861 -0.024767902 0.00032685092
0.078283258 -0.01377737 -0.013506962 0.97053242 0.24014439 -0.01993854 0.00012942113
-0.018080495 -0.0097607886 -0.01421532 -0.95746905 0.28822118 -0.013472401 0.00032532896
-0.017975474 -0.0093370173 -0.012732578 -0.95747054 0.28821594 -0.013483988 0.00032611191
0.077355869 -0.0099671083 -0.013463522 0.96033126 0.27811858 -0.02034503 0.00018712718
-0.017279813 -0.0073743341 -0.013497989 -0.93950891 0.34197623 -0.019372148 0.00014014349
0.076498419 -0.0074368846 -0.013786147 0.93795931 0.34552056 -0.029117879 0.00031097396
-0.016212357 -0.0045763901 -0.013460746 -0.92684925 0.37534764 -0.0080367243 0.00027007647
0.07549943 -0.0048315097 -0.01344805 0.91898769 0.39382926 -0.018979037 7.7400895e-05
-0.015209937 -0.0022779377 -0.013566653 -0.8985498 0.4386884 -0.012680875 0.00041896661
-0.014561935 -0.00097794167 -0.013437245 -0.88359845 0.46791261 -0.017655145 0.00046732934
0.073939689 -0.0014892831 -0.013482804 0.89679897 0.4418093 -0.023582574 7.8540412e-05
-0.013291528 0.0012564728 -0.013483237 -0.85978496 0.51035368 -0.0175805 0.0002632018
0.071598336 0.0026976443 -0.013635673 0.8349787 0.54989886 -0.020537298 0.00031402396
0.072352119 0.0014935917 -0.013742268 0.86009336 0.50972205 -0.020561893 0.00052538863
-0.012121323 0.0031819027 -0.013486597 -0.83607221 0.5483579 -0.016940223 0.0005426695
-0.010954235 0.0048473463 -0.013498807 -0.80696177 0.59043092 -0.014284179 0.00044493334
0.070399433 0.0044348589 -0.013487635 0.82240671 0.56859779 -0.01854106 9.2288892e-06
-0.0095022805 0.0067319316 -0.013582295 -0.7787447 0.62720096 -0.01325193 0.00017621668
-0.0082976231 0.0081735346 -0.013593568 -0.76415068 0.64487112 -0.014664302 0.00015416915
0.067855194 0.00783055 -0.013620175 0.78018564 0.62533218 -0.016428994 0.00015236004
0.069126561 0.0062125307 -0.013600965 0.79201752 0.61019099 -0.019368535 0.00024324388
-0.006970223 0.0096782008 -0.013340242 -0.73627257 0.67655993 -0.013011526 0.00018351155
