# .PCD v0.7 - Point Cloud Data file format
VERSION 0.7
FIELDS x y z normal_x normal_y normal_z curvature
SIZE 4 4 4 4 4 4 4
TYPE F F F F F F F
COUNT 1 1 1 1 1 1 1
WIDTH 548
HEIGHT 1
VIEWPOINT 0 0 0 1 0 0 0
POINTS 548
DATA ascii
0.076770909 -0.0077201193 -0.11255432 0.95267481 0.30380365 0.010682079 0.00029846796
0.075689591 -0.0047808029 -0.11246911 0.92342693 0.38375843 0.0034959875 0.00026726938
0.074377812 -0.0019249645 -0.11218644 0.88692874 0.46190619 0.00018725068 0.00049506786
0.071804911 0.0025564206 -0.11117401 0.85240561 0.52283531 -0.006926103 0.00025202718
0.072863206 0.00084099115 -0.11383216 0.85391819 0.52040714 -0.00051609578 0.00038779803
0.070229366 0.0048794369 -0.11255924 0.83963639 0.54311508 0.0060616494 4.0299536e-05
0.016409218 -0.072753362 -0.10957056 -0.32031599 -0.94723272 0.012157783 0.00044100761
0.019572493 -0.073663615 -0.10958978 -0.20611042 -0.97806919 0.029985452 0.00072612101
0.022640942 -0.074070685 -0.10959889 -0.090424217 -0.99532163 0.034034245 0.00032013451
0.025549568 -0.074191324 -0.10949855 -0.015525671 -0.99963105 0.022286197 0.00022481337
0.028498502 -0.074238673 -0.10952833 5.0183112e-06 -0.99996668 0.0081691975 0.00026826985
0.031411748 -0.074144244 -0.10966009 0.055451982 -0.99845582 -0.0033208018 0.00013476252
0.034435626 -0.073907994 -0.10935537 0.10406478 -0.99452472 -0.0095475754 6.8398462e-05
0.03746023 -0.073508315 -0.10955121 0.16687115 -0.98594791 -0.0078001968 0.00026347462
0.040486723 -0.072968021 -0.109445 0.20788138 -0.97813767 -0.0056584803 0.00027264652
0.043072201 -0.072360232 -0.10958993 0.25976521 -0.96567172 -0.00032985993 0.00029644748
0.0083841803 -0.069304094 -0.10947667 -0.44309831 -0.89646995 0.002359377 0.00016458418
0.010198398 -0.070151575 -0.10937756 -0.41729233 -0.90877062 0.0017445895 7.0697824e-05
0.013523269 -0.071642563 -0.10970418 -0.38805309 -0.92159736 0.0085451799 0.00011268722
0.044664603 -0.07190454 -0.10940443 0.28420588 -0.95876116 0.002046468 0.00043083323
0.046595093 -0.071218148 -0.10944324 0.34842026 -0.93733817 0.00071227207 0.00013483339
0.049565136 -0.070036046 -0.10960233 0.39207131 -0.91993457 -0.0006903552 0.00023788358
0.051430672 -0.069215044 -0.10957 0.45132726 -0.89235848 7.8654884e-05 0.0003524218
0.0027478123 -0.066221558 -0.10970352 -0.49702597 -0.86772537 0.0042171082 0.00010412068
0.0045259702 -0.06727419 -0.10946488 -0.48892799 -0.87231755 0.0033882561 0.00020517626
0.0068326388 -0.068532847 -0.10977125 -0.44828242 -0.89388829 -0.0025667178 9.8078359e-05
0.053002641 -0.068396837 -0.10960411 0.47211763 -0.88153523 0.00074139162 0.00038103032
0.055467177 -0.066974349 -0.1094425 0.50858337 -0.86101246 -0.00069841323 0.00014395562
0.057047419 -0.066014245 -0.10906549 0.54444396 -0.83879316 -0.0026307353 0.00049225148
0.058575999 -0.06497068 -0.10958133 0.58360267 -0.81203789 -0.0015313606 0.00026951876
0.060569555 -0.063475512 -0.1094134 0.6230458 -0.78218478 -0.00091977871 0.00036084867
0.062071055 -0.062256847 -0.10944021 0.65633744 -0.75446659 -0.0011256766 0.00014549175
0.0637969 -0.060722884 -0.10954319 0.68424815 -0.72924888 -0.00076116773 0.00010516784
0.065297067 -0.059310131 -0.10945518 0.7180329 -0.69600779 -0.0013855484 0.00012997983
0.066663854 -0.057861272 -0.10952982 0.73215467 -0.68113184 -0.0029868293 0.00028500747
0.068202361 -0.056103725 -0.10950073 0.76064694 -0.64916021 -0.0026872221 2.3697561e-05
0.069391392 -0.054586329 -0.10940211 0.78911054 -0.61423796 -0.0040294812 0.00015661342
0.070904076 -0.052513272 -0.10947164 0.81763679 -0.57572687 -0.0029609513 0.0002645434
0.072858088 -0.049448296 -0.10958783 0.86143297 -0.50784308 -0.0053530228 0.00020012108
0.074370481 -0.046697605 -0.1094687 0.89084637 -0.45429301 -0.0032646172 0.00025553483
0.075103939 -0.045195322 -0.10916328 0.90101564 -0.43376014 -0.0047894521 0.00049062812
0.075818986 -0.04342467 -0.10951803 0.92771387 -0.37327299 -0.0037696089 9.8380202e-05
0.076963618 -0.040435303 -0.10944612 0.94600224 -0.32415998 -0.00026577222 0.00036702584
0.077710412 -0.038021412 -0.10955355 0.96272892 -0.27046061 0.0020372961 0.00024794301
0.078132585 -0.0364911 -0.10923861 0.96863097 -0.248469 0.0041593579 0.00026031033
0.078541733 -0.034497578 -0.10944454 0.98069096 -0.19555169 0.0022104885 0.00013240962
0.079080708 -0.031505175 -0.10974637 0.98759353 -0.15702379 0.0015945915 0.00012863141
0.079433694 -0.028527737 -0.10968626 0.995597 -0.09373007 0.0011180512 0.00010337755
0.079650328 -0.025389634 -0.10955217 0.99993807 -0.010598107 -0.0034104146 0.00066660153
0.079636529 -0.022497622 -0.10936587 0.99789536 0.064805172 -0.0022659958 0.00065631961
0.079404943 -0.019626962 -0.10961438 0.99551976 0.094550431 0.00083001686 0.0006851519
0.07896404 -0.016754471 -0.10956186 0.98247981 0.18625854 0.0064191311 0.00019637425
0.077939853 -0.012196727 -0.10908973 0.97375816 0.22741383 0.0088301161 0
0.078313604 -0.013746536 -0.10952865 0.97495812 0.22230977 0.0059230658 8.4333311e-05
0.077516787 -0.010504345 -0.10969438 0.96632284 0.25716665 0.0092495233 6.7993955e-05
0.076737911 -0.0076830941 -0.10957884 0.9543013 0.2987045 0.009197033 0.00029287065
0.074990362 -0.0031531022 -0.10910641 0.92188406 0.38738033 0.0081374524 0.00040290819
0.075715765 -0.00485565 -0.10961006 0.92537475 0.37905046 -0.0015078933 0.00024495597
0.074049778 -0.0012618836 -0.10927297 0.88589275 0.46389002 -0.00029361734 0.00050351676
0.072417393 0.0016022916 -0.10931911 0.85375363 0.52067578 -0.0012382165 0.00024055153
0.070555501 0.0043996763 -0.1092435 0.8360678 0.54862565 -0.00066700048 6.5498398e-06
0.016613713 -0.072800145 -0.10622357 -0.3114056 -0.9502483 0.0073932847 0.00034215735
0.019598015 -0.073589645 -0.10653427 -0.19524395 -0.9802931 0.030087791 0.00075765705
0.022531742 -0.073957495 -0.10645129 -0.077148631 -0.99662441 0.028068731 0.00031656961
0.025524721 -0.074132226 -0.10653868 -0.029417366 -0.9992587 0.024835421 0.00014055283
0.028438222 -0.074206561 -0.10639405 0.011951041 -0.99982297 0.014530711 0.00030429085
0.031291112 -0.074148506 -0.10657222 0.032414235 -0.99944401 0.0078182342 0.00036115485
0.034318145 -0.073946021 -0.10642341 0.10316461 -0.99466318 -0.0014990498 0.00015161054
0.037384819 -0.073527679 -0.10643679 0.17029406 -0.98539317 -0.00047684452 0.00030327117
0.040428463 -0.072980165 -0.1064961 0.2122454 -0.97721469 0.0018112373 0.00035829411
0.043151669 -0.072328158 -0.10655347 0.26342738 -0.96466696 0.0048588389 0.00025668988
0.0085233059 -0.069368705 -0.10676191 -0.44258931 -0.89672422 -0.00054006994 0.00013642384
0.010725045 -0.070378914 -0.10687377 -0.41523483 -0.9097054 0.0040103248 1.1114534e-05
0.013399281 -0.071563527 -0.10643953 -0.38722575 -0.92195326 0.0076479549 0.00015976329
0.04471891 -0.071871348 -0.10660348 0.28329289 -0.95902598 0.0037618577 0.00032695569
0.046568599 -0.071223184 -0.10638446 0.34613302 -0.9381817 0.0026470802 0.00023997655
0.049497977 -0.070057012 -0.10653219 0.39212623 -0.91990823 0.0024398565 0.00013423405
0.05147782 -0.069182798 -0.10650516 0.45224509 -0.89188743 0.0033696266 0.00046576111
0.0028733527 -0.066286303 -0.10785196 -0.49679711 -0.86786413 0.0021256921 4.187716e-05
0.0038378676 -0.066847667 -0.10637162 -0.48544106 -0.87426567 -0.0025485973 4.8967704e-05
0.0067839092 -0.068495184 -0.10655236 -0.46159095 -0.88708192 0.004409417 0.00021934112
0.052965436 -0.068410829 -0.10651467 0.4715578 -0.88183081 0.0027595197 0.0002640344
0.055593446 -0.0668943 -0.10644285 0.51989704 -0.85418957 0.0081990827 0.00031067722
0.057001296 -0.066040158 -0.10738892 0.54411864 -0.83896738 0.0082785618 0.00052240066
0.058557406 -0.064962626 -0.10655161 0.58426189 -0.81156224 0.0021593352 0.00032559902
0.060623113 -0.063433066 -0.10650217 0.62324202 -0.7820248 0.0025526513 0.00024776379
0.062124021 -0.062200449 -0.106566 0.65800965 -0.75300723 0.0018379515 0
0.063790552 -0.060720451 -0.10649925 0.66661727 -0.74539423 0.002976127 0.00015286014
0.065291293 -0.059306681 -0.10641345 0.69547397 -0.71855116 0.00020854284 0.00018238423
0.066759035 -0.057763882 -0.10656434 0.73011494 -0.68332386 -0.00074157934 0.00024368227
0.068281136 -0.05600553 -0.10662081 0.77836239 -0.62780762 -0.0030711589 0.00018350143
0.069492467 -0.054460745 -0.10638721 0.79012889 -0.61293519 -0.002585985 9.5811469e-05
0.070920192 -0.052519172 -0.10644612 0.8190338 -0.57374144 -0.0021106876 0.00035633089
0.071959049 -0.050967783 -0.10705667 0.8340854 -0.5516327 0.0017228784 0.00015932291
0.072868578 -0.049435515 -0.10649534 0.86832482 -0.49599567 -0.00065150362 0.00022297222
0.074337944 -0.046771489 -0.10645804 0.88925821 -0.45740449 -0.0010117461 0.0003137633
0.0750736 -0.045294788 -0.10651598 0.90058362 -0.43467337 -0.0028668779 0.0004516833
0.075758003 -0.043603428 -0.10642978 0.92809904 -0.37232894 -0.0018223135 0.00012780569
0.076902851 -0.040615804 -0.10652588 0.94690055 -0.32152638 0.00031842271 0.00034936483
0.077674322 -0.038117219 -0.10661239 0.96338105 -0.26812902 0.0019377504 7.9519799e-05
0.078112029 -0.036527772 -0.10655844 0.96843189 -0.24927324 0.0016037907 0.00017745481
0.07851842 -0.034503419 -0.10633633 0.97900993 -0.20367672 0.0074286154 0.00017392807
0.079069659 -0.031567663 -0.10651547 0.98717314 -0.15965338 -0.00019828764 0.00025379774
0.079456158 -0.028492749 -0.10645681 0.99556631 -0.09398108 -0.0039055252 0.00014230929
0.079650007 -0.025535103 -0.10641909 0.99945831 -0.032678448 -0.003912284 0.00013192695
0.079649739 -0.022447942 -0.10646635 0.99895531 0.045346707 0.0056586093 0.00025199421
0.079385854 -0.01961568 -0.1064775 0.99032021 0.13877527 0.0026978995 0.00045143627
0.078918643 -0.016535737 -0.10652419 0.98246455 0.18642762 0.0028662635 0.00012586598
0.077948675 -0.012232417 -0.10630158 0.97320038 0.22995497 -0.0013061088 0.00010789636
0.078327999 -0.013850071 -0.10655966 0.97497219 0.22232395 -0.0010909244 2.7651305e-07
0.077499375 -0.010485442 -0.10657328 0.96566164 0.259799 0.0013991188 0.00015108929
0.076666869 -0.0075312224 -0.10678875 0.94779581 0.31882125 0.0060052546 0.00035510343
0.074977033 -0.0031787984 -0.10632449 0.9184804 0.39540446 0.007006974 0.00027466551
0.075687237 -0.0048629399 -0.1065731 0.92744231 0.37386042 0.0088907229 0.00046965232
0.074068002 -0.0013626774 -0.10610855 0.89295828 0.44987389 0.015462595 0.00035001736
0.072555885 0.0013718229 -0.10630378 0.8559103 0.51711118 0.0036945194 0.0002323017
0.070890166 0.0039092014 -0.1059438 0.8378821 0.54582536 0.0053150863 0.00039499177
0.016585654 -0.072735563 -0.10288552 -0.30272067 -0.95303088 0.0096123712 0.00052832719
0.019472932 -0.073494062 -0.10358518 -0.18537261 -0.9820739 0.034172565 0.00055382098
0.022384496 -0.073838808 -0.10332397 -0.094396777 -0.99534148 0.019608643 0.0001543207
0.025504218 -0.07404869 -0.10362951 -0.048529364 -0.99852353 0.02440637 0
0.028455144 -0.074143901 -0.10330497 -0.0091255447 -0.99990112 0.010703188 0.00010288272
0.031644274 -0.074106038 -0.10352649 0.060899451 -0.99808717 0.0106428 0.00049489446
0.03462166 -0.073898442 -0.10341974 0.10281504 -0.99469942 0.0014126521 0.00014125346
0.037573967 -0.073491663 -0.10347479 0.17068948 -0.98530799 0.0057587735 0.000376968
0.040526293 -0.072946191 -0.10349327 0.21327476 -0.97698021 0.0048573567 0.00022812065
0.043043759 -0.072337463 -0.10354031 0.2624138 -0.96494305 0.0048930342 0.00028371051
0.0086905714 -0.069455147 -0.10403635 -0.44766256 -0.89419764 0.0029587157 0.00026374849
0.010623666 -0.070313893 -0.1036014 -0.41231909 -0.91102844 0.0044833669 1.9610585e-05
0.013470773 -0.071570255 -0.10298405 -0.3740032 -0.92740387 0.0066138906 0.0001222516
0.044594634 -0.071884319 -0.10357902 0.28437871 -0.95868915 0.0066271005 0.00032983636
0.046408113 -0.071281418 -0.10358737 0.33665422 -0.94162768 -0.0010642442 0.00022182376
0.04938516 -0.070102282 -0.10348183 0.39154473 -0.92015135 0.0037784285 9.336129e-05
0.05138218 -0.069213614 -0.10338698 0.45072594 -0.89265722 0.0030356769 0.0003334725
0.0040322049 -0.066950478 -0.10361578 -0.51094234 -0.85943329 0.017672006 0.00044714505
0.0067704879 -0.068484247 -0.10331889 -0.46288195 -0.88641924 0.0011170277 0.00022794724
0.052917268 -0.068425193 -0.10355482 0.47000408 -0.88265914 0.0029762376 0.00030430823
0.055409279 -0.066996008 -0.10346138 0.50622761 -0.86239928 0.0010774474 8.4100233e-05
0.058480158 -0.065013222 -0.10350033 0.56899363 -0.82233781 -0.0026176879 0.00015442907
0.060546547 -0.063503616 -0.10358617 0.62437057 -0.78112721 0.0012696744 0.00021159915
0.0620621 -0.062228069 -0.10348031 0.65819603 -0.75284201 0.0026345653 8.9689347e-05
0.063784294 -0.060718436 -0.10347924 0.68139058 -0.73191619 0.0023629079 8.1820392e-05
0.065274358 -0.059318613 -0.10339089 0.69133586 -0.72252971 -0.0023579877 0.00023479767
0.066725716 -0.057817079 -0.1036114 0.72767818 -0.68590552 -0.0042378595 0.00042228293
0.068227947 -0.056088466 -0.10357873 0.75880587 -0.65127748 -0.0071585486 0.00014515132
0.069415465 -0.054595165 -0.10349907 0.79102457 -0.61177415 -0.003537785 0.00028811125
0.070880823 -0.052557144 -0.10352698 0.82637054 -0.56312662 0.00023281551 0.00013115094
0.071938902 -0.050959993 -0.10269825 0.84401423 -0.53632057 -0.00030542698 0.00010389701
0.07283356 -0.04949658 -0.10350715 0.8633585 -0.50459069 0.00067701336 0.00013075682
0.074370228 -0.04672065 -0.10341977 0.88961548 -0.45671037 0.00010296114 0.00021737299
0.075120628 -0.045174848 -0.1033795 0.89957386 -0.43676785 -0.00083608803 0.00043712999
0.075829685 -0.043452568 -0.10344859 0.92829317 -0.37184894 0.00019381291 0.00013919747
0.076933376 -0.040502917 -0.10354771 0.94759363 -0.31947783 0.00046013991 0.00021877722
0.077736422 -0.03789679 -0.10347632 0.96291375 -0.26980424 0.0016441193 0.00018727093
0.078119196 -0.03648949 -0.10361821 0.96843755 -0.2492553 0.00068908348 0.00032453355
0.078514509 -0.034565751 -0.1035336 0.98058987 -0.19606982 -0.00034075731 0.00010797869
0.079073973 -0.031528957 -0.10336939 0.98716533 -0.15970133 0.00042554102 0.00025838747
0.079461455 -0.028500961 -0.10325123 0.9956342 -0.093340144 -0.00026613372 0.00013165934
0.079645008 -0.025443761 -0.10359962 0.99997395 -0.0050909603 0.0051244632 0.00067697105
0.07965073 -0.02256307 -0.10339268 0.99883908 0.048127044 0.0020581549 0.00035172291
0.079356119 -0.019553715 -0.10337258 0.9905265 0.13715962 0.0066602859 0.00042828481
0.078934327 -0.016645644 -0.10347275 0.98334074 0.18173951 0.0034283649 0.0001122992
0.077946648 -0.012131576 -0.10310932 0.97342706 0.22894819 -0.0047457567 1.8451636e-05
0.078318186 -0.013775129 -0.10361625 0.97576737 0.21879888 -0.0022656862 0.00012060309
0.077488437 -0.010390943 -0.10343502 0.96374434 0.2668274 -0.00017807826 3.4185159e-05
0.076655462 -0.0075891367 -0.10356836 0.94648892 0.32268709 0.0056259576 0.00035462089
0.074958444 -0.0031973091 -0.10356939 0.91957039 0.39283946 0.0082141552 0.00027666357
0.075663917 -0.0048765233 -0.10355063 0.92784691 0.37283882 0.0095589831 0.00026411968
0.074105583 -0.0014571054 -0.10326941 0.88992214 0.45610017 0.0033555294 0.00024597789
0.072591431 0.0012770363 -0.10345995 0.86568177 0.50059479 -8.0119004e-05 0.0003782718
0.071199983 0.0034519071 -0.10270744 0.84246224 0.53870279 0.007536537 0.00056494278
0.068525612 0.0071707126 -0.10279138 0.8269912 0.56221336 0.0012923846 0.00013631042
0.016745986 -0.072721519 -0.10020011 -0.29336888 -0.95591253 0.012882527 0.00057740376
0.019610707 -0.073412307 -0.10051887 -0.16130082 -0.98654866 0.026530897 0.0010767896
0.022526087 -0.073786631 -0.10038977 -0.10082217 -0.99482322 0.012712334 0.00011539801
0.025437884 -0.074003249 -0.10054954 -0.068545401 -0.99757189 0.01232748 0.00031842789
0.028586617 -0.074106403 -0.10040738 -0.01490804 -0.99988782 0.001430415 4.1128733e-05
0.031678408 -0.074093759 -0.10042758 0.05812221 -0.9982959 0.0052054259 0.00067319704
0.034520756 -0.07387346 -0.10054161 0.10490625 -0.9944492 0.0080894306 0.00017409316
0.037439261 -0.073492125 -0.10050505 0.14095397 -0.99000502 0.0047010849 0.00045154252
0.040626854 -0.072907276 -0.100436 0.21521083 -0.97656399 0.0026645346 6.9353657e-05
0.043128379 -0.072296157 -0.10049773 0.26889357 -0.96315712 0.0049658916 0.00028927709
0.0088405814 -0.069515049 -0.10050957 -0.44447777 -0.89577353 0.0054102535 0.00017317139
0.010755957 -0.070363276 -0.10009998 -0.40742624 -0.91321754 0.0061334516 3.8812155e-05
0.013497625 -0.071554944 -0.10044081 -0.37576047 -0.92665893 0.01036388 0.00022844806
0.044535629 -0.07188803 -0.10055765 0.28499377 -0.95850438 0.0069134068 0.00023020623
0.04659177 -0.071177155 -0.10056713 0.34193474 -0.93969488 0.0073619187 0.0001653267
0.049614847 -0.069993228 -0.10045582 0.39703047 -0.91774505 0.010519336 0.00024134296
0.051443566 -0.069168799 -0.10045537 0.45090452 -0.8925674 0.0029485051 0.00041691994
0.0045386734 -0.067234427 -0.10040242 -0.50052023 -0.86553812 0.017981376 0.00033960317
0.0072836452 -0.068734363 -0.10079961 -0.45376363 -0.8911196 -0.0021229398 0.0002323951
0.052952021 -0.068390876 -0.10054836 0.4694165 -0.882976 0.001232494 0.00026826366
0.055576347 -0.066904157 -0.10048902 0.52026862 -0.85400134 -0.0015490128 0.00021951039
0.057040334 -0.066026181 -0.10049812 0.54638392 -0.837533 0.0017885268 0.00038338971
-0.00020334592 -0.064109907 -0.10182504 -0.53219289 -0.84660774 0.0051063439 0.00017720714
0.00078351755 -0.064828359 -0.099093951 -0.52469057 -0.85128689 -0.0032307734 0.00027930763
0.058603231 -0.064941093 -0.10050405 0.57950413 -0.81496376 0.0030107454 0.00048085809
0.060588114 -0.063456014 -0.10060475 0.62506688 -0.78056628 -0.0027707771 0.00029850932
0.06206011 -0.062217329 -0.10048675 0.65989536 -0.75135344 -0.0024704558 0
0.063779503 -0.060717493 -0.1004811 0.6789667 -0.73416841 -0.00097472302 0.0001537574
0.065269209 -0.059315633 -0.10039624 0.68751711 -0.72616071 -0.0033105072 1.2303265e-05
0.066739187 -0.057857882 -0.10057149 0.72422308 -0.68953967 -0.0059956228 0.00039200042
0.068270825 -0.056076925 -0.1005488 0.75688022 -0.65349507 -0.0087501453 0.00030610699
0.069441721 -0.054594129 -0.10060744 0.79340816 -0.60865402 -0.0066127134 0.00013548562
0.070932105 -0.052479714 -0.10049159 0.82929367 -0.55877978 -0.006097103 0.00015271499
0.071986258 -0.050883465 -0.1000412 0.83610886 -0.54855609 -0.0028419327 0.00015692551
0.072864525 -0.049433764 -0.10053251 0.86303556 -0.50514013 -0.0017410602 0.0001589582
0.074372694 -0.046729572 -0.10049901 0.88941354 -0.45710149 -0.0013406907 0.00028844326
0.075063236 -0.045284346 -0.10036806 0.89917904 -0.43757388 -0.0024842294 0.00041510834
0.075788729 -0.043568235 -0.10047126 0.92830265 -0.37182024 -0.0019974203 6.5631109e-05
0.076900654 -0.040603377 -0.10042417 0.94861764 -0.31642452 -0.00037461478 0.00010389225
0.077655859 -0.038106356 -0.10043758 0.96319878 -0.2687805 0.0022506849 0.0001731518
0.078111216 -0.036513835 -0.10050754 0.9674964 -0.25288162 0.0012770689 0.00018987428
0.078544036 -0.034459159 -0.10044798 0.98003268 -0.19883649 -0.00011980761 0.00017666993
0.079073384 -0.031490985 -0.10069942 0.98755157 -0.15729167 0.0011546166 0.00014143607
0.07944642 -0.028457228 -0.1005922 0.99590194 -0.090055093 0.0083350837 0.00012003822
0.079628579 -0.025407508 -0.10058159 0.99992055 -0.004004153 0.011953291 0.00081375759
0.079598911 -0.02255916 -0.10041132 0.99771756 0.066644304 0.010873712 0.00067319593
0.079330571 -0.019593935 -0.10044236 0.99550092 0.094515331 0.0066900961 0.00049757597
0.07893724 -0.016738195 -0.10046446 0.98430687 0.17646517 3.1616735e-05 0.00024780497
0.077983633 -0.012203505 -0.10032177 0.96965218 0.24446124 -0.0036463921 0.00048641698
0.078315832 -0.013683911 -0.10049958 0.97569394 0.21912728 -0.0021403497 0
0.077503718 -0.01045494 -0.10049206 0.96235144 0.2718043 0.001456977 0.0001355772
0.076613478 -0.007543202 -0.10042583 0.94480801 0.3276087 0.0032240825 0.0002952356
0.074931629 -0.0032047972 -0.10084491 0.92033368 0.39106771 0.0072153537 0.0003875671
0.075606763 -0.0048039053 -0.10054468 0.92711991 0.37472498 0.0054611331 0.00033253801
0.074028686 -0.0013303396 -0.10020987 0.89438397 0.44726554 0.0055443929 0.00032759798
0.072776794 0.00093715865 -0.10011212 0.86990052 0.49322733 9.1965216e-05 0.00028244875
0.071419604 0.0031138295 -0.099625051 0.83907169 0.54392374 -0.010285287 0.00038207285
0.016353451 -0.072559372 -0.097862922 -0.28396603 -0.95849025 0.02568654 0.00052413141
0.01964657 -0.073335692 -0.097423695 -0.16740806 -0.98569548 0.019466776 0.00092977716
0.022566555 -0.073751926 -0.097514637 -0.10960113 -0.9938128 0.017988114 0.00020577131
0.025398724 -0.073979281 -0.097462043 -0.074842691 -0.99718493 0.0045604575 0.00025109906
0.028526423 -0.074096218 -0.097506903 -0.019045498 -0.99980491 0.005226586 7.5565469e-05
0.031639453 -0.07410986 -0.097500198 0.037676211 -0.99928457 0.0032942286 0.00019042671
0.034688536 -0.073850669 -0.09756726 0.10387443 -0.99458706 0.002598054 0.00014692743
0.037718453 -0.07345584 -0.097501755 0.17292452 -0.98492742 -0.0038773003 0.00045908516
0.040625963 -0.072907105 -0.097470686 0.2188413 -0.97575986 -0.0010761429 0.00022676676
0.043049004 -0.072303258 -0.097456969 0.26697266 -0.96370232 0.00183607 0.00018963785
0.0083911195 -0.069271311 -0.097242489 -0.4373382 -0.89929694 0.00052316766 0.0001466603
0.010369789 -0.070176221 -0.097186975 -0.40912867 -0.91247553 0.0014943765 0.00011234064
0.013490311 -0.071513616 -0.09795294 -0.36312649 -0.93165743 0.012392135 0.00018657392
0.044535693 -0.071852438 -0.09745533 0.28679246 -0.95799226 0.00093937112 0.00031359846
0.04645605 -0.07121788 -0.097603425 0.34129369 -0.93995667 0.00033847627 0.00012838632
0.049491104 -0.070028275 -0.097467542 0.38859668 -0.92140698 -0.0013211968 0.00022981284
0.051324319 -0.069217123 -0.097456627 0.44849709 -0.89378273 -0.0016424304 0.0004283645
0.0041832924 -0.067018151 -0.097716101 -0.51039869 -0.85993457 -0.0024017156 0.00030299078
0.0069275438 -0.068518803 -0.098120213 -0.45962989 -0.88809544 -0.0051810341 0.00023844876
0.052867066 -0.068442918 -0.09750215 0.46643147 -0.88454759 -0.0041442611 0.00040838192
0.055513579 -0.066952854 -0.097498953 0.51609987 -0.8565284 0.00013246191 9.3489762e-05
0.0011113154 -0.065046728 -0.097075619 -0.5398128 -0.84171426 0.010917945 0.00037465864
0.058474369 -0.065038793 -0.097507067 0.56684101 -0.82380056 -0.0066187694 0.00014692335
0.060538176 -0.063536048 -0.097544938 0.62503922 -0.78055477 -0.0077714636 0.00041721191
0.06208612 -0.06223423 -0.097479038 0.66236049 -0.74912 -0.0098866429 0
0.063778415 -0.060720526 -0.097501487 0.67967796 -0.73346156 -0.0084844716 0.00010848683
0.065305874 -0.059285861 -0.097452998 0.70749134 -0.70668632 -0.0071090283 0.00043241025
0.066837728 -0.057788644 -0.097623058 0.74204719 -0.67028934 -0.0088393642 0.0005213499
0.068267666 -0.056115229 -0.097468227 0.75473899 -0.6559127 -0.012146869 0.00039237773
0.069478422 -0.054595187 -0.09762463 0.79480225 -0.60672313 -0.013280463 0.000200533
0.070958182 -0.052491892 -0.097507589 0.82406914 -0.56634045 -0.012983297 0.00040505634
0.071941093 -0.050975982 -0.098357864 0.83745706 -0.54648095 -0.0049348241 7.718226e-05
0.072891541 -0.049415067 -0.097502001 0.86182916 -0.50713897 -0.0077823894 0.0002365515
0.074381046 -0.046723131 -0.097476944 0.89037669 -0.45520866 -0.0038001908 0.00025162878
0.075094201 -0.04522115 -0.097726285 0.89935088 -0.43722481 -0.0015983814 0.00028170968
0.07581494 -0.043553248 -0.097532727 0.92849755 -0.37133163 -0.0022819994 0.00012560679
0.076912694 -0.040590711 -0.097478315 0.94940239 -0.31403986 -0.0037375824 0.00024691314
0.0777108 -0.03789591 -0.097386412 0.96303707 -0.2693634 -0.0017310391 0.00018374613
0.078094564 -0.036507893 -0.097568028 0.96696991 -0.25487295 -0.0029911383 0.00031104047
0.078556545 -0.034501377 -0.097347058 0.9801755 -0.19811013 -0.0028940639 0.00022367953
0.079075553 -0.031476509 -0.097669788 0.98799312 -0.15449767 -0.00011446959 0.00034232964
0.079408929 -0.028569009 -0.097530328 0.99621576 -0.086497173 0.0085075432 0.00017075411
0.079574808 -0.025653187 -0.097456358 0.99956745 -0.029255675 0.0030098143 9.359965e-05
0.079576634 -0.022422029 -0.097521588 0.99887419 0.046124231 0.011083602 0.00041346459
0.079297625 -0.019400746 -0.097494505 0.9937402 0.11162049 0.0046098032 9.2334434e-05
0.078887589 -0.016411714 -0.09753 0.98506653 0.17193785 -0.009017718 0.0002268113
0.078317106 -0.013528114 -0.097460493 0.97549778 0.21991937 -0.0062878979 8.4916363e-05
0.077589683 -0.010665295 -0.097513445 0.96205676 0.27280983 -0.0046441276 8.0846403e-05
0.076574162 -0.0074001006 -0.097704649 0.94401896 0.32988241 -0.0024033033 0.00024979067
0.074963041 -0.0032881321 -0.098056234 0.91001827 0.41446343 0.009320355 0.00066417182
0.075534992 -0.0046723951 -0.097389914 0.92535323 0.37903741 0.007212026 0.00018849298
0.074138992 -0.0016017263 -0.097025201 0.89406478 0.44787756 0.0073411064 0.00014967803
0.07166215 0.0027460146 -0.096535407 0.85365039 0.52083331 -0.0036982829 0.0003133227
0.072767429 0.00092730206 -0.096314475 0.86597914 0.50007325 0.0026177422 0.0001275695
0.069971152 0.0052167731 -0.098001376 0.83268756 0.55372143 -0.0048903869 0.00015660455
0.016437629 -0.072515205 -0.09474548 -0.27892265 -0.95976084 0.032576695 0.00047493182
0.019725753 -0.073293768 -0.094303824 -0.20344719 -0.97821891 0.041195247 0.0005304027
0.022628181 -0.07373485 -0.09463603 -0.12338664 -0.99192303 0.029399207 0.00016639853
0.025477253 -0.073975235 -0.094505213 -0.079980828 -0.99660045 0.019764947 0.00042402817
0.028500373 -0.074113004 -0.094588518 -0.020378636 -0.9997111 0.012746911 1.5850359e-05
0.031582855 -0.074110851 -0.094616041 0.033246711 -0.99939799 0.009918781 0.00016844284
0.034564171 -0.073903881 -0.094559059 0.099285267 -0.99503547 0.0068474067 0.00024233252
0.037526291 -0.073511474 -0.094507404 0.17562766 -0.98443758 0.0061299033 0.0003311944
0.040480848 -0.072931983 -0.094458319 0.21936132 -0.97560394 0.0088057164 7.5223863e-05
0.043104235 -0.072287299 -0.094369687 0.26514089 -0.96414828 0.010880994 0.00016738243
0.0080634896 -0.069133744 -0.094694145 -0.43913829 -0.89841336 0.0033248751 0.00021242116
0.010550681 -0.070282266 -0.09492451 -0.39550313 -0.91841239 0.0097963037 0.00016866236
0.013390377 -0.071475342 -0.094401263 -0.35050383 -0.93617678 0.026837159 0.00029605624
0.044625517 -0.071858332 -0.094623774 0.28567755 -0.95828742 0.0085678771 0.00022612853
0.046619359 -0.071168751 -0.094603717 0.34133404 -0.93989748 0.0091543384 0.00027343092
0.04948682 -0.070038699 -0.094475865 0.38708955 -0.92201942 0.0064741694 0.00019093729
0.051447276 -0.069192834 -0.094313487 0.44523895 -0.89537805 0.0077824444 0.00033629517
0.0050781495 -0.067556985 -0.094830275 -0.49600515 -0.86829543 0.0064759348 0.00027246375
0.007081612 -0.068677768 -0.094087288 -0.45288092 -0.89148629 0.012291254 0.00026689292
0.052947082 -0.068419985 -0.094545253 0.46499541 -0.88529289 0.0059834849 0.00042992138
0.05556003 -0.066946179 -0.094456546 0.51318729 -0.85827482 -0.0017455926 0.00027210015
0.057071414 -0.066005737 -0.093738265 0.5615862 -0.82740217 0.0051657567 0.00029338384
0.0014936537 -0.065291598 -0.094183102 -0.54778701 -0.83612329 0.028762707 0.00033497857
0.058594868 -0.064962305 -0.09457732 0.58161694 -0.81344783 0.0049488936 0.00031450452
0.060712662 -0.06344454 -0.094471142 0.62008721 -0.78452516 0.0034850289 0.00026084029
0.062167685 -0.062212493 -0.094478361 0.65942597 -0.75176954 3.5723238e-05 0.0001346503
0.063798562 -0.060744196 -0.094516985 0.6704846 -0.74192238 -0.0012807382 0.00011647594
0.065285906 -0.059362937 -0.094421439 0.68800181 -0.72570568 -0.0021810995 0.00015879235
0.066799 -0.057878032 -0.094577707 0.72209358 -0.69179511 -0.00054124801 0.00038292908
0.068326354 -0.056119595 -0.094542705 0.75559473 -0.65503907 -0.00066587108 0.00026290881
0.069508977 -0.05466374 -0.094483972 0.79429448 -0.60753071 -0.0016773862 0.00023200325
0.070976593 -0.05254408 -0.094534412 0.8276453 -0.56121683 -0.0062371097 0.00018988781
0.072879687 -0.049524814 -0.094480723 0.86216998 -0.50661898 0.0002480532 0.00013903173
0.074405774 -0.046677664 -0.094521701 0.89159846 -0.45282638 0.00069146691 0.00020224339
0.075132236 -0.045150448 -0.094664469 0.9008317 -0.43415529 0.0033791435 0.00027348238
0.075862274 -0.043462753 -0.094551519 0.92824131 -0.37197763 0.00083272759 6.982241e-05
0.076987356 -0.040373955 -0.094490461 0.9490177 -0.315216 -0.0020854266 0.00029693189
0.077703431 -0.038001057 -0.094518334 0.96275139 -0.27035499 -0.0042455015 9.4923504e-05
0.078121975 -0.036460955 -0.09444245 0.9674418 -0.25306648 -0.0036939159 0.00022983243
0.078557067 -0.034579992 -0.094523072 0.98049664 -0.19653204 -0.0012404143 0.00034343998
0.079077542 -0.031529743 -0.094577931 0.98895305 -0.14815626 0.0046506808 0.00033806061
0.079394206 -0.028574793 -0.094512291 0.99648935 -0.083292633 0.0084421039 0.00018549447
0.079581395 -0.025472347 -0.094567314 0.99994636 -0.008296377 0.0062087267 0.00066870829
0.079596691 -0.022650745 -0.094423153 0.99910313 0.041856073 0.0064060288 0.00036248405
0.079328075 -0.019511737 -0.094527245 0.9938556 0.11060001 0.0043308055 7.0340167e-05
0.078932032 -0.016550679 -0.09453208 0.98626208 0.16510388 0.0052656182 0.00021935033
0.078362353 -0.013649739 -0.094551012 0.97946662 0.20160522 0.00068736158 0.00029814747
0.077594183 -0.010591482 -0.094423234 0.96131647 0.27543762 0.0021872541 0.00019435269
0.076592118 -0.0074630743 -0.094583213 0.94343752 0.33154118 -0.0024688432 0.00012042299
0.075494252 -0.0045317626 -0.094701506 0.92271185 0.38542396 0.0071530556 0.00025043738
0.074205555 -0.0017331208 -0.094210058 0.89321953 0.44943973 0.012756547 0.00018588798
0.071891606 0.002395848 -0.09348879 0.85402 0.51967859 0.024166998 0.00037258357
0.07283394 0.0007930838 -0.093498357 0.86837971 0.4958683 0.0055969167 0.00019194328
0.070973709 0.0038471401 -0.093876056 0.83581793 0.5488525 0.013012442 0.00028509714
0.016872624 -0.072465211 -0.091460355 -0.2665278 -0.95926625 0.09365461 0.00060140307
0.019468691 -0.073046334 -0.091340654 -0.2112052 -0.97216332 0.10144351 0.00064075243
0.022432486 -0.073551491 -0.091450028 -0.14275888 -0.98589832 0.087317891 0.00063283154
0.025521645 -0.073902495 -0.091391385 -0.077612013 -0.99611676 0.041566774 0.0015932653
0.028634772 -0.0740318 -0.091585822 -0.014475625 -0.99755645 0.068348914 0.00050081941
0.031530738 -0.074013039 -0.091383271 0.030573457 -0.99895 0.03412196 0.0012279232
0.034452211 -0.073885985 -0.091428332 0.079559863 -0.99491525 0.06175679 0.00062101177
0.037491743 -0.073478207 -0.091559298 0.16969484 -0.98370105 0.059462752 0.00047131823
0.040500224 -0.0728475 -0.091399215 0.21439762 -0.97527248 0.053639863 0.00015893299
0.042937055 -0.072276019 -0.091465943 0.2579608 -0.96465224 0.053872708 0.00027219081
0.0082109328 -0.06920521 -0.092070207 -0.4351047 -0.8988874 0.051819339 0.00052960491
0.010377004 -0.070161574 -0.091531731 -0.38536301 -0.92088395 0.058889072 0.00043948743
0.013481283 -0.071346201 -0.091652431 -0.342724 -0.93667918 0.07191886 0.00045976028
0.015395105 -0.071961217 -0.090965733 -0.28123224 -0.95508969 0.093338542 0.00066749909
0.044372328 -0.071843058 -0.091351643 0.28815508 -0.95604789 0.054212704 0.00031375227
0.046538878 -0.071145907 -0.091422901 0.3399283 -0.93888438 0.054266594 0.00035607419
0.049558591 -0.06994918 -0.091311477 0.39529926 -0.91637915 0.063147791 0.00028747818
0.051398553 -0.069136724 -0.091564052 0.43844661 -0.89734936 0.050286639 0.00039770835
0.0046390737 -0.067206331 -0.091311313 -0.51038283 -0.85842794 0.051095057 0.00019285164
0.007130939 -0.068552859 -0.090752713 -0.46365839 -0.88303155 0.072638407 0.00070183503
0.052808024 -0.06840419 -0.091289163 0.46628869 -0.8833316 0.047959413 0.00024849843
0.055481084 -0.066959992 -0.091487505 0.50329447 -0.8627196 0.049088024 0.00029764377
0.057021931 -0.066027194 -0.092133023 0.5559811 -0.82979709 0.048185684 0.00038553026
-0.000651401 -0.063556582 -0.090628006 -0.56647408 -0.82391346 0.016546987 0.00086476299
0.0012885935 -0.065075569 -0.091096148 -0.56641912 -0.82395071 0.016566021 0.00082911272
0.058543816 -0.064928643 -0.091479123 0.57697314 -0.81512308 0.051733278 0.0001622198
0.06059302 -0.063471638 -0.091703564 0.61360919 -0.78811294 0.048597924 0.00041494213
-0.0023347475 -0.062247355 -0.090703152 -0.56258827 -0.82671708 0.0057676956 0.00081898243
0.062065866 -0.062247772 -0.091351755 0.64963222 -0.7590934 0.041895591 0.00022525867
0.063840345 -0.060681179 -0.0915391 0.6731022 -0.7387352 0.034694552 0.00018468327
0.065272689 -0.059338327 -0.091373563 0.69205648 -0.72101402 0.034592766 0.00026926259
0.066753097 -0.057879146 -0.09157417 0.72587723 -0.68677694 0.037943762 0.00035631817
0.068229981 -0.05615868 -0.091414891 0.75601429 -0.65323532 0.041545626 0.00044166122
0.069435544 -0.054669037 -0.091587827 0.79367566 -0.60722804 0.036783218 0.00034541156
0.070956118 -0.052529484 -0.091451094 0.82515973 -0.56416881 0.028722189 0.00027106353
0.072865367 -0.049522247 -0.091430806 0.86016381 -0.50944066 0.024257546 0.00032970851
0.074316591 -0.046772718 -0.091474012 0.88957381 -0.45653751 0.015227863 0.0002651494
0.075079352 -0.045247257 -0.091292277 0.9012295 -0.43317801 0.011923935 0.00031448851
0.075820468 -0.043482553 -0.091607906 0.92862558 -0.37082276 0.012043903 0.00035036943
0.076928623 -0.040580373 -0.091459811 0.94792718 -0.31804043 0.016860072 0.0002752835
0.077739954 -0.037937816 -0.091426536 0.96232146 -0.27151191 0.014784621 0.00010346446
0.078131363 -0.036459655 -0.091584288 0.96837145 -0.24889617 0.017531807 0.00027501944
0.078579903 -0.034421518 -0.09157259 0.98204923 -0.18736412 0.021771351 0.00020422431
0.079045728 -0.031565666 -0.091501899 0.98917478 -0.14483307 0.023591537 0.00019022403
0.079355933 -0.028466756 -0.091492094 0.99641871 -0.083830647 0.011054092 0.00033238356
0.079539619 -0.025535546 -0.091610849 0.99925554 -0.030807955 0.023219727 0.00017870913
0.079553604 -0.022440996 -0.091477498 0.99903053 0.042237516 0.012411832 0.00042866261
0.079307228 -0.019567618 -0.09141504 0.9958967 0.086693645 0.025959693 0.00055248255
0.078902431 -0.016498273 -0.091507874 0.98577881 0.166069 0.025714668 0.00013109129
0.078269362 -0.013444191 -0.091631494 0.97652775 0.21461166 0.018314013 0.00015455281
0.077632293 -0.010755111 -0.091383763 0.96061718 0.27730632 0.017767662 0.00035284218
0.076516375 -0.0073131928 -0.091341369 0.94038975 0.33918744 0.024879511 0.00025836844
0.074778192 -0.0031714295 -0.090193927 0.90779144 0.41867688 0.024990078 0.00052180968
0.075433061 -0.0044543967 -0.091764934 0.92372996 0.38217908 0.025731293 0.00017878755
0.074164741 -0.0017233663 -0.091563679 0.89455175 0.44594279 0.030202981 0.00021174115
0.071750581 0.0025334784 -0.090973169 0.85083789 0.52469277 0.027792733 0.00046234249
0.072753742 0.00085197226 -0.090904072 0.87005949 0.49132082 0.040003918 0.00062001933
0.070106968 0.0049149669 -0.090985477 0.83059281 0.55682623 0.0077500367 0.00046984621
0.068040967 0.0078551853 -0.091548219 0.82502902 0.56502998 0.0082557006 0.00027196223
0.017228404 -0.072165005 -0.088337518 -0.27070969 -0.96265888 -0.0020243081 0.0035690649
0.019572034 -0.072712235 -0.088604912 -0.21115112 -0.97745121 0.0020871803 0.0031188154
0.022512052 -0.073165417 -0.088536128 -0.16462396 -0.98634076 0.0055555482 0.0029013145
0.025621368 -0.073530212 -0.088550366 -0.052175455 -0.99863464 0.0025544565 0.0026134753
0.028566528 -0.073720925 -0.088611908 0.0066562723 -0.99996501 0.005071898 0.0023772588
0.031492829 -0.073714651 -0.088528357 -0.0016825559 -0.99997944 0.0061825193 0.0024928025
0.03448325 -0.073519558 -0.088511981 0.061525576 -0.99808067 0.0070355372 0.0023516668
0.037481058 -0.073179938 -0.088632926 0.18091954 -0.98346198 0.0084127923 0.0017543855
0.040542047 -0.072584301 -0.088559493 0.22487289 -0.97437054 0.0058615711 0.0015638463
0.042520095 -0.07212574 -0.088688783 0.28215972 -0.95932728 0.0087824054 0.0018348196
0.0086692683 -0.069209181 -0.089956082 -0.44338387 -0.89430672 0.060218822 0.00034316463
0.010522311 -0.069916591 -0.088939309 -0.39209396 -0.91805583 0.05861574 0.00071284844
0.013565852 -0.071060136 -0.089127094 -0.33085099 -0.94322366 0.029441392 0.0023278107
0.015920648 -0.071797155 -0.088990033 -0.27433228 -0.96157914 0.010357294 0.0039932802
0.043947201 -0.071689136 -0.088475376 0.27150241 -0.96234894 0.013073447 0.0019405346
0.046521954 -0.070880748 -0.088441275 0.32489637 -0.9455815 0.01783183 0.0013774694
0.049533099 -0.069689639 -0.088380858 0.39022434 -0.92066401 0.010133862 0.0015220357
0.051255733 -0.069007955 -0.08960516 0.41994429 -0.90741289 0.015761722 0.00098167325
0.0038968823 -0.066429868 -0.089223728 -0.51638824 -0.85601306 -0.02418297 0.0012373083
0.0071797869 -0.068336323 -0.088259138 -0.4497883 -0.892892 -0.020840356 0.0036210255
0.052548338 -0.068272926 -0.088361867 0.45389077 -0.89104325 0.0050108633 0.0014476108
0.055306774 -0.066803887 -0.088586196 0.52068961 -0.85347742 0.021414218 0.0014844519
0.0026937528 -0.06580653 -0.08883135 -0.52415788 -0.85161799 -0.0023146896 0.0012039511
0.056786388 -0.065868475 -0.088302515 0.57373369 -0.81874335 0.022112399 0.0011375092
0.058474261 -0.064694718 -0.088575147 0.55834132 -0.82930589 0.02251293 0.0011210121
0.060405623 -0.063285738 -0.088770956 0.62108833 -0.78364104 0.012488165 0.0011359425
0.061904129 -0.062091485 -0.088470519 0.62091225 -0.78379941 0.011246679 0.0012407455
0.063757233 -0.060561169 -0.088533744 0.68439943 -0.72903258 0.01043833 0.00097085495
0.065252967 -0.059131067 -0.088594712 0.71854234 -0.69542831 0.0087455036 0.0011164336
0.066606328 -0.057693604 -0.088499382 0.72133988 -0.69251847 0.0093221255 0.00097525009
0.068169378 -0.055953566 -0.088510163 0.78352451 -0.62126815 0.010731895 0.0012308393
0.069339491 -0.054476477 -0.088529587 0.78193521 -0.6232807 0.0099193919 0.0010180924
0.070707642 -0.052581396 -0.088473573 0.82203114 -0.56939596 0.0072868555 0.0011597058
0.071881831 -0.050876617 -0.088657156 0.84517241 -0.53447896 0.0039743655 0.0011086604
0.072773919 -0.049370863 -0.088445403 0.85801506 -0.51361519 0.0030928233 0.00042739033
0.074292205 -0.0466845 -0.088508539 0.8895632 -0.45681161 0.00066198321 0.00065834005
0.075078875 -0.045190766 -0.088326961 0.89415622 -0.44772959 -0.0047902362 0.0007140697
0.075720318 -0.043536905 -0.08854121 0.92648 -0.37633258 -0.0029494516 0.00059843459
0.076849043 -0.040502541 -0.088637687 0.94911391 -0.31489861 -0.0046520787 0.00053471583
0.077666268 -0.037778907 -0.088414125 0.96465564 -0.26350152 -0.0025378468 0.00057066511
0.078089952 -0.03636416 -0.08949656 0.9659484 -0.25872084 -0.0026762139 0.00080325978
0.078415968 -0.034569945 -0.08849638 0.98154187 -0.19122691 -0.0028015177 0.00069013238
0.07891579 -0.031483933 -0.088587321 0.98942453 -0.14497589 -0.004583634 0.00058562
0.079269119 -0.02860133 -0.088631332 0.99671942 -0.080492139 0.0084513305 0.0003192891
0.079448722 -0.025420176 -0.088528775 0.99998355 -0.0010938609 0.0056347973 0.00093001086
0.079411037 -0.022580866 -0.08852838 0.99909753 0.0396455 0.015242898 0.00043325717
0.079179682 -0.019549925 -0.088582642 0.99238634 0.12314164 0.0023322369 0.00085237558
0.078791998 -0.016618958 -0.088553511 0.98549563 0.16969971 -0.00068054284 0.00052588421
0.077946573 -0.012263775 -0.088306703 0.96936935 0.24556415 0.0046122633 0.0010674099
0.078284286 -0.013853784 -0.088397168 0.9757722 0.21878374 0.001519781 0.00032152806
0.077450849 -0.010441732 -0.088599466 0.96081263 0.27718085 0.0031471679 0.00035951316
0.076452263 -0.0075022941 -0.088766538 0.93734413 0.34810802 0.014383064 0.00054768554
0.074779257 -0.0034540035 -0.088380799 0.90788317 0.41902891 0.012764754 0.0013156839
0.075505227 -0.0050407443 -0.08855053 0.91908735 0.39399773 0.0066477922 0.00070561579
0.073824912 -0.0014633393 -0.088440701 0.8934865 0.44868925 0.018969646 0.00064146915
0.072504416 0.0011332131 -0.088556796 0.86658174 0.49892181 0.010637762 0.00072997052
0.070682988 0.0038900631 -0.089728124 0.84465885 0.53519613 0.01079827 0.00052847719
0.016746176 -0.072385445 -0.085158519 -0.28077802 -0.95783788 -0.060912598 0.00089218153
0.01930612 -0.072940618 -0.085573971 -0.20204969 -0.97647375 -0.075332314 0.00029547745
0.022386458 -0.073547304 -0.085190311 -0.13964027 -0.98815584 -0.063628785 0.00065615133
0.025565891 -0.073849589 -0.085414574 -0.081249245 -0.99456638 -0.065086551 0.00049123925
0.028443908 -0.073999673 -0.085375272 -0.023571409 -0.99786621 -0.060888749 0.00040168167
0.03154194 -0.073981948 -0.085426018 0.035901032 -0.99760979 -0.059041072 0.00035506289
0.034474932 -0.073813155 -0.085362464 0.092447549 -0.99404371 -0.057710223 0.00017580636
0.037421193 -0.073406927 -0.085475966 0.168265 -0.98361051 -0.064785734 0.00052750111
0.040513486 -0.07281822 -0.085476197 0.2181097 -0.97392184 -0.062484525 0.00023602298
0.042816959 -0.072272219 -0.085239954 0.27391931 -0.95977527 -0.061642233 0.00035796184
0.0080907466 -0.069294661 -0.08407627 -0.43341741 -0.90037626 -0.038366426 0.0016608957
0.010243353 -0.069753744 -0.08668492 -0.37781367 -0.92380661 -0.061953548 0.00093080173
0.01287474 -0.070864029 -0.086348332 -0.34652236 -0.93562669 -0.067268647 0.00052269181
0.01527193 -0.071954183 -0.085831374 -0.29220599 -0.95399231 -0.067189097 0.00068374124
0.044223573 -0.071768865 -0.085798457 0.29264826 -0.95433331 -0.060042165 0.00012226419
0.046417933 -0.071071155 -0.085395545 0.33121908 -0.94179243 -0.057627745 0
0.049437229 -0.069899179 -0.085487917 0.38763845 -0.91966909 -0.062811561 0.00019851168
0.051291972 -0.069173887 -0.085070215 0.44839457 -0.89263886 -0.046240315 0.0005922835
0.0066050007 -0.06846495 -0.084802002 -0.46671575 -0.88275027 -0.054112989 0.001879892
0.052867852 -0.068333924 -0.085337125 0.45663127 -0.88822132 -0.050506726 0.00036172906
0.0555178 -0.066850506 -0.08550483 0.50798523 -0.85972834 -0.053086884 0.00038081082
0.0022609744 -0.065710351 -0.084399052 -0.53779966 -0.84253538 -0.030092489 0.00055322651
0.056895226 -0.06582544 -0.086539201 0.55957943 -0.82692057 -0.055436566 0.0002211112
0.058506779 -0.064861298 -0.0854524 0.5688231 -0.82045192 -0.057436734 3.6335881e-05
0.06056267 -0.063396469 -0.085423708 0.61604488 -0.78582418 -0.054489236 0.00034027876
0.062024489 -0.062174678 -0.085566893 0.65057242 -0.75769186 -0.051563088 0.00010486834
0.063731603 -0.060705673 -0.085402131 0.66136354 -0.74865872 -0.045917571 0.00014083747
0.065247193 -0.059289664 -0.085527524 0.69091147 -0.72182041 -0.040207382 0.00034167903
0.066774078 -0.057782456 -0.085387342 0.74382162 -0.66718835 -0.039864942 0.00022691611
0.068235032 -0.05604909 -0.085683957 0.77422315 -0.63159227 -0.040861595 0.00037909765
0.069400936 -0.054582857 -0.085391566 0.7912975 -0.61015242 -0.039526097 0.00023917817
0.070883721 -0.052579246 -0.085460261 0.82073808 -0.57013524 -0.036534883 0.00040533254
0.071952902 -0.050827757 -0.086062565 0.84539562 -0.53349835 -0.026189033 0.00023985954
0.072867759 -0.049386688 -0.085449502 0.86255103 -0.50560629 -0.019180194 4.3833399e-05
0.074374922 -0.046741124 -0.085446335 0.88559943 -0.46406549 -0.018890386 0.00030851515
0.075098731 -0.045229822 -0.085768141 0.89763242 -0.44047612 -0.015390495 0.00040970661
0.07584364 -0.043502524 -0.085510284 0.9292047 -0.36916843 -0.017125826 0.00033569918
0.076939195 -0.040582508 -0.085486591 0.94726264 -0.31963369 -0.022970976 0.00030675789
0.077739634 -0.037956592 -0.085595109 0.96150327 -0.27399382 -0.02095015 0.00020480482
0.078145638 -0.036502723 -0.085398927 0.96819103 -0.24924971 -0.021924971 0.00013765367
0.078592502 -0.034449868 -0.085312352 0.98276126 -0.18345632 -0.022889903 0.00026860126
0.079060651 -0.031521846 -0.085394368 0.98958546 -0.14195801 -0.02384395 0.0001875282
0.079350851 -0.028527137 -0.085532568 0.9966225 -0.081523091 -0.0098788338 0.00021941416
0.079497509 -0.025546635 -0.085386351 0.99946672 -0.025717266 -0.020123269 0.0002208998
0.079490967 -0.02239967 -0.085602455 0.99818802 0.055750702 -0.022637045 0.00031086113
0.079289027 -0.019589083 -0.085405052 0.994829 0.09874355 -0.023766877 0.00016191878
0.078949034 -0.01662872 -0.085405685 0.98575681 0.16535138 -0.030700019 0.00020729679
0.078280263 -0.0134537 -0.085312225 0.97505456 0.22068389 -0.023818128 0.00013685068
0.077544145 -0.010660211 -0.0857016 0.96054679 0.2772761 -0.021627283 0.0001821826
0.076573111 -0.0075556403 -0.085464999 0.93885779 0.3434397 -0.024395965 0.00027182163
0.07494697 -0.0034740255 -0.084640317 0.92000145 0.3906019 -0.03205552 0.00011982304
0.075179599 -0.0042560981 -0.086031891 0.91820163 0.39535633 -0.024479456 0.00036290387
0.071993582 0.0021190604 -0.085281737 0.86100841 0.50821167 -0.019634211 0.00036020085
0.072545022 0.00091376744 -0.086260818 0.8655566 0.50067747 -0.011575521 0.00061198539
0.071216837 0.0033815154 -0.085461751 0.84353667 0.53705889 -0.0036806536 0.00027620932
0.01661412 -0.072422378 -0.082614131 -0.25241408 -0.96758527 -0.0081130238 0.00023719527
0.019615598 -0.073155336 -0.082573168 -0.21200225 -0.97725165 -0.0058633392 0.00034615031
0.022718646 -0.073751397 -0.082465328 -0.13185085 -0.99118149 -0.013208824 0.00066151068
0.02558952 -0.07402619 -0.082565889 -0.065043777 -0.99779248 -0.013399397 0.00057326676
0.028424732 -0.074180022 -0.082405858 -0.03279797 -0.99927807 -0.019174945 0.00042888022
0.031452995 -0.074139789 -0.082547978 0.02270641 -0.9995271 -0.02073681 0.00042323524
0.034526508 -0.073923387 -0.082505755 0.095811598 -0.99516088 -0.021795072 0.00031834724
0.037456404 -0.073586419 -0.082497947 0.17046545 -0.98510766 -0.022457616 0.00037143068
0.040479638 -0.073000669 -0.082441777 0.2164022 -0.97607785 -0.021027401 0.0003051534
0.043106638 -0.07234858 -0.08266113 0.26785272 -0.96319431 -0.022618018 0.0005344894
0.0084611513 -0.069399104 -0.082493037 -0.41947696 -0.90757728 -0.018508945 0.0015997729
0.010620178 -0.070396699 -0.082953885 -0.37241185 -0.92737633 -0.035812657 0.0010650908
0.013484523 -0.07145077 -0.082893498 -0.33734834 -0.94110346 -0.022812145 0.00069388037
0.01518088 -0.071992345 -0.082321167 -0.30029118 -0.95356572 -0.023186831 0.0010255668
0.044537362 -0.071897484 -0.082521357 0.2992852 -0.95383114 -0.025189521 0.00044361464
0.046461698 -0.071244143 -0.082408898 0.3404564 -0.93980372 -0.029296966 0.00024882786
0.049611948 -0.070067383 -0.082638308 0.38314897 -0.92339587 -0.023172496 0.00055234495
0.051419184 -0.069203988 -0.082500294 0.44273177 -0.89636737 -0.022674084 0.00037568764
0.0049585453 -0.067558937 -0.082197472 -0.49983308 -0.86612105 0.0011104413 0.00052380882
0.0070688576 -0.068671197 -0.081919491 -0.44839048 -0.89318156 0.034245372 0.00031966309
0.052983545 -0.068375111 -0.082371883 0.47086534 -0.88197809 -0.020009624 1.0159958e-05
0.055489518 -0.067026824 -0.082591988 0.50526291 -0.8624115 -0.030915724 0.00031477865
0.057039209 -0.066127926 -0.082283214 0.55387425 -0.83197433 -0.032280844 0.00031030521
-0.00041237139 -0.063910782 -0.08224944 -0.56291234 -0.82643765 -0.011420162 0.00024237436
0.058568459 -0.065051854 -0.082413197 0.58167028 -0.81314039 -0.021500293 0.00028776948
0.060668085 -0.063513108 -0.08247602 0.6135481 -0.7893464 -0.022158056 0.00031490973
0.06215848 -0.062317789 -0.082499944 0.65204477 -0.75793612 -0.01924675 0.00031889591
0.063909113 -0.060773026 -0.082498059 0.68129677 -0.73178738 -0.017944433 0.00046845464
0.065381549 -0.059333727 -0.082458302 0.70944411 -0.70466363 -0.011761664 0.00035785008
0.06674429 -0.057887137 -0.082537308 0.72962308 -0.68375057 -0.011631232 0.00021105794
0.068300761 -0.056200039 -0.082411692 0.75909293 -0.65089417 -0.010704032 0.0002704091
0.069512293 -0.054669 -0.082463719 0.79271954 -0.60950464 -0.0099941455 0.00046920902
0.071024872 -0.052513398 -0.082533218 0.82671165 -0.56255722 -0.008788039 0.00025647337
0.072892636 -0.04948575 -0.082554772 0.86317217 -0.50484014 -0.008378353 8.8487854e-05
0.074401207 -0.04669201 -0.082478978 0.88879812 -0.45829833 0.00069927407 0.00020229878
0.075149693 -0.045191098 -0.083197795 0.90074044 -0.43432444 0.0053808079 0.00039336356
0.075856492 -0.043505784 -0.082522556 0.9276765 -0.37334335 0.0055725719 0.00011715049
0.077019297 -0.040399369 -0.082437165 0.94682997 -0.32170135 0.0046132351 0.00013615764
0.077748217 -0.038082946 -0.082423829 0.96167731 -0.27416235 0.0034260037 0.00017329062
