# .PCD v0.7 - Point Cloud Data file format
VERSION 0.7
FIELDS x y z normal_x normal_y normal_z curvature
SIZE 4 4 4 4 4 4 4
TYPE F F F F F F F
COUNT 1 1 1 1 1 1 1
WIDTH 558
HEIGHT 1
VIEWPOINT 0 0 0 1 0 0 0
POINTS 558
DATA ascii
-0.0045730826 -0.043362375 0.014516799 0.018188562 0.036294643 0.99917555 0.0072693033
-0.0015780167 -0.043352503 0.014842421 -0.033570871 0.008479191 0.99940038 0.00074726704
0.0014257556 -0.043491259 0.01483963 -0.018305466 0.011261308 0.99976897 0.00053380703
0.0044303555 -0.043685731 0.014801126 -0.013293834 0.0043489519 0.99990219 0.00036322189
0.0074482583 -0.043632418 0.014819574 -0.019797726 -0.0082524586 0.99976999 0.00032954154
0.010376357 -0.043695211 0.014890443 -0.039798915 -0.017355528 0.99905694 0.00068549917
0.012499105 -0.044427138 0.014962725 -0.047135908 -0.01099625 0.99882793 0.00055319566
0.043984201 -0.043125816 0.014979662 0.025996363 0.0094036926 0.99961782 9.8320939e-05
0.046432529 -0.043420304 0.014910868 0.011087107 -0.0028673038 0.99993443 0.0002404581
0.049428552 -0.043586928 0.014919259 -0.010686897 -0.027676994 0.99955982 0.00016423488
0.052273687 -0.044218909 0.014944079 -0.0079614157 -0.053747676 0.99852282 0.00011355991
0.055510491 -0.044654351 0.01495725 -0.00014743053 -0.063030869 0.99801153 0.00014078934
0.058493838 -0.044597507 0.014951156 0.021853147 -0.083956502 0.99622971 0.00029890286
0.061751671 -0.043964282 0.014890706 0.051975351 0.020665796 0.99843448 0.0034878049
0.064455427 -0.043517876 0.0146944 -0.041232385 0.090411156 0.99505061 0.0083459169
0.066516712 -0.043348592 0.014815371 -0.25681722 0.13750428 0.95662814 0.0027531795
0.07691884 -0.043676626 0.013790294 0.82248318 -0.39762476 0.40671369 0.040089261
-0.0094787311 -0.039723001 0.014756228 0.28677598 0.12216131 0.95017695 0.0060671899
-0.0075942227 -0.040507469 0.014466646 0.19849737 0.13009518 0.97142881 0.0094172396
-0.0045091435 -0.04039913 0.014632409 -0.027633818 -0.0077536814 0.99958801 0.00084961572
-0.0016141142 -0.040349666 0.014841705 -0.026558023 0.010956708 0.99958724 0.00053228776
0.0014231126 -0.040306434 0.014834689 -0.0021307042 0.0012715835 0.99999696 0.00036630948
0.0044115302 -0.040510647 0.014765472 -0.035612959 -0.0059637981 0.99934787 0.00064071146
0.0070927772 -0.040796213 0.014922804 -0.05176108 -0.023951095 0.99837226 0.00023203908
0.0097061805 -0.0418844 0.014974648 -0.041211065 -0.041058421 0.99830651 0.00027538603
0.041624833 -0.039252907 0.014996794 0.023311485 -0.020991523 0.99950778 0.00024194649
0.043335062 -0.04066629 0.014985862 0.0080857752 -0.010698252 0.99991012 0.00029617277
0.04613759 -0.041337974 0.014975916 -0.0079986779 -0.03883484 0.99921364 0.00010010656
0.048241757 -0.041741747 0.014996979 -0.0059396015 -0.032648426 0.99944931 0.00018632121
0.056754783 -0.039510183 0.014950797 0.059833959 0.091007859 0.9940511 0.0022797731
0.058591403 -0.039967243 0.014721286 0.077120535 0.094674572 0.99251652 0.001762606
0.06153965 -0.040503874 0.014515943 0.06260056 0.042761002 0.99712217 0.0025667287
0.064606369 -0.040630717 0.014330739 -0.02157714 0.041791048 0.99889332 0.0050565908
0.067210846 -0.04028054 0.014550711 -0.18473844 0.089742206 0.97868174 0.010386978
0.069072306 -0.03910213 0.014998021 -0.19970208 0.096103571 0.97513235 0.010291217
0.07782045 -0.041543353 0.013708503 0.89513117 -0.38197589 0.22985782 0.0059058778
0.078312278 -0.040040854 0.013580264 0.87171173 -0.32837242 0.36371723 0.022917906
-0.0099022891 -0.03733059 0.014654356 0.26443177 0.088610478 0.96032494 0.0084132515
-0.0075057382 -0.037546918 0.014544863 0.049941011 0.024503579 0.99845153 0.0075401608
-0.0044587185 -0.037438393 0.014723358 -0.025928481 0.014313319 0.99956131 0.00056999078
-0.0014764729 -0.037345443 0.014735252 -0.025881585 0.012666943 0.99958479 0.00042758475
0.0015104369 -0.037431523 0.014675726 -0.048752483 -0.023542684 0.99853337 0.00094162469
0.0042473054 -0.037558515 0.01480087 -0.052614491 -0.028858047 0.99819785 0.0008825197
0.0067101866 -0.038437951 0.014973481 -0.056456469 -0.033849794 0.99783111 0.00021320574
0.053138793 -0.036648393 0.014751188 0.082365267 0.089627855 0.99256372 0.0026477841
0.055497434 -0.037201736 0.014605847 0.050818384 0.028028226 0.99831456 0.0051919944
0.058269702 -0.037481613 0.014485156 0.048105031 0.013476628 0.99875134 0.0049665612
0.061385613 -0.037632819 0.014612821 0.0039929477 -0.06642694 0.9977833 0.000992093
0.064536311 -0.037576344 0.014709638 -0.0050188359 -0.057083908 0.9983567 0.00093666464
0.06752269 -0.037411768 0.014625416 -0.092957273 0.018571598 0.99549693 0.0077207116
0.069024988 -0.038187437 0.014860569 -0.30357915 0.06595818 0.95052052 0.0037427137
0.078968897 -0.037638947 0.013705728 0.98100847 -0.1807429 0.070387952 0.033958163
-0.010298486 -0.03443753 0.014432005 0.20069818 0.072754502 0.97694778 0.0081538418
-0.0074161822 -0.034515575 0.014431839 0.015102167 0.026843352 0.99952555 0.0045728865
-0.0045018299 -0.034484286 0.01464525 -0.049583264 -0.0029626205 0.99876565 0.00054768234
-0.0014666219 -0.034457877 0.01460367 -0.028059248 -0.027967678 0.99921495 0.00072630309
0.0015574576 -0.03454487 0.014761306 -0.053873453 -0.047298543 0.99742693 0.00078116258
0.0034128092 -0.035383631 0.014951991 -0.059347894 -0.049664229 0.99700117 0.00055734732
0.047648426 -0.033305719 0.014781445 0.0072626933 0.10177219 0.9947812 0.0061002905
0.049601741 -0.033730775 0.014688218 0.033577204 0.14876862 0.98830181 0.0035170503
0.05239043 -0.034373097 0.014505635 0.034215156 0.019280108 0.99922848 0.0069861114
0.055321421 -0.034557153 0.014626387 -0.0045304089 -0.071031444 0.99746376 0.0043206518
0.058455471 -0.034885827 0.01477511 -0.018254939 -0.10396153 0.99441379 0.0010167679
0.06153284 -0.034660205 0.014918165 0.033927619 -0.0270913 0.99905699 0.0014654995
0.064377964 -0.03455101 0.014847442 0.04422994 -0.0012128646 0.99902064 0.0010907467
0.067501694 -0.03452494 0.014685222 -0.058799237 0.031335589 0.99777788 0.005697283
0.069824919 -0.03396228 0.014831312 -0.26381633 0.068309344 0.96215117 0.003156526
0.079703957 -0.034425996 0.013915317 0.95778888 -0.026608801 0.28623843 0.081390843
-0.012183884 -0.032314964 0.014954292 0.35609806 0.021078151 0.93421084 0.0034338403
-0.010424023 -0.03162726 0.014433188 0.19635122 0.015778854 0.98040664 0.0074368198
-0.0074213413 -0.031549826 0.014422777 -0.0019982732 -0.040995471 0.99915731 0.0032754631
-0.0044613448 -0.031525943 0.014718633 -0.051097553 -0.040666118 0.99786538 0.00030180722
-0.0015929409 -0.03150494 0.014880718 -0.037875541 -0.041755121 0.99840969 0.00030780811
0.00055085338 -0.031957977 0.014937713 -0.055310167 -0.039648328 0.99768174 0.00047470583
0.041796725 -0.030520774 0.014797067 0.098021358 0.041890059 0.99430233 0.0051595336
0.043797653 -0.030971777 0.01436505 0.11517122 0.059013419 0.99159122 0.0053502265
0.04663559 -0.031500529 0.014319177 0.020712869 0.010451856 0.99973083 0.010075469
0.049415987 -0.031434037 0.014468992 -0.038940832 -0.034767646 0.99863648 0.0083325673
0.052165084 -0.032156389 0.014662559 -0.048241083 -0.051372848 0.99751371 0.0061417813
0.054401588 -0.032624673 0.014886734 -0.027304502 -0.043053407 0.99869955 0.0052277297
0.059612088 -0.030764416 0.01495746 0.05305225 0.031752501 0.99808675 0.00016670048
0.061454337 -0.031533342 0.014831485 0.066197574 0.030098246 0.99735242 9.6807649e-05
0.064486519 -0.031548698 0.014670799 0.051103927 0.024541179 0.99839169 0.00032016597
0.067562319 -0.031532302 0.01441567 -0.024527509 0.034162391 0.99911529 0.0033497969
0.069916636 -0.03151248 0.014626347 -0.22498822 0.055736043 0.9727661 0.0050870879
0.08027254 -0.031527761 0.014072284 0.96091896 -0.19331777 0.19814904 0.06633345
-0.012511977 -0.027995965 0.01480496 0.31590143 0.053286854 0.94729441 0.0050812443
-0.01032419 -0.028495053 0.014560045 0.10141975 0.028115068 0.99444634 0.0086453408
-0.0072804419 -0.028580351 0.014674058 -0.0061280997 -0.0017725122 0.99997967 0.0033666871
-0.0044041132 -0.0285681 0.014822203 -0.053892452 -0.0073256749 0.9985199 0.00032301203
-0.0015731858 -0.028556574 0.014916959 -0.042844858 -0.00022897638 0.99908167 0.00010026455
0.00037138807 -0.028437318 0.014976963 -0.043238834 -0.0011009901 0.99906421 7.559736e-05
0.014193773 -0.027383273 0.014971197 0.021305073 0.052784476 0.99837869 4.969072e-05
0.016613053 -0.027853826 0.014958596 -0.001946604 0.045946304 0.99894208 0.00015482129
0.018538846 -0.027853843 0.014968194 -0.023080016 0.034462608 0.99913943 0.00022946445
0.04167771 -0.028442532 0.014879237 0.10346326 -0.018983221 0.99445212 0.0052177599
0.043368001 -0.028356006 0.014799505 0.07154043 -0.035806686 0.99679476 0.0050794748
0.046138588 -0.028553279 0.014647043 -0.056249894 -0.12906165 0.99003994 0.0016738483
0.048313539 -0.029191798 0.014861524 -0.070158504 -0.083756313 0.99401343 0.003579007
0.058810979 -0.028352818 0.014921282 0.060242586 0.028541079 0.99777561 6.1789688e-05
0.061400265 -0.028554054 0.014780293 0.049912956 0.015632031 0.99863124 6.9293477e-05
0.064318873 -0.028543515 0.014682198 0.047915086 -0.00022328179 0.99885142 0.00020836243
0.067462951 -0.028532261 0.014573759 -0.022778841 -0.00062468625 0.99974036 0.003333437
0.070067555 -0.02843383 0.01452118 -0.2028529 0.0092196129 0.97916579 0.0062563838
0.080646046 -0.028759047 0.014029915 0.86638176 -0.24885929 0.43295693 0.090406984
-0.012575408 -0.025621852 0.014764789 0.25841004 0.018207859 0.9658637 0.0031603444
-0.010483537 -0.025620295 0.014475518 0.11152377 0.019873263 0.99356306 0.0061877477
-0.0073270998 -0.025616402 0.014590666 -0.016949667 0.025146043 0.99954009 0.0006552476
-0.0044565508 -0.025612852 0.014727274 -0.04874045 0.024137001 0.99851978 3.8967675e-05
-0.0016160341 -0.025609439 0.014838321 -0.05158459 0.01351663 0.99857712 9.2756272e-05
0.00038877447 -0.025606936 0.014962662 -0.047701899 0.0031660676 0.9988566 6.9044683e-05
0.0087126857 -0.024543291 0.014980659 0.032167941 0.038115215 0.99875546 2.425345e-05
0.01062989 -0.025190689 0.014937174 0.033306807 0.048141923 0.99828506 3.4950033e-05
0.013432124 -0.025592748 0.014850568 0.022932783 0.051092893 0.99843055 4.9828781e-05
0.016397925 -0.025589556 0.014862628 -0.021893622 0.030817298 0.99928516 0.00019128858
0.018300502 -0.025696807 0.014967524 -0.041241433 0.01719561 0.99900126 0.00023214106
0.043139622 -0.02658141 0.014951559 0.041806363 -0.063542694 0.99710304 0.0012429015
0.045630362 -0.026733963 0.014811535 -0.015638437 -0.083833158 0.99635702 0.0013112713
0.056429241 -0.02523463 0.014968093 0.048950933 0.026016193 0.99846232 6.6703491e-05
0.058463473 -0.025543205 0.014869773 0.049626138 0.013449855 0.99867731 0.00014273328
0.061387505 -0.025540359 0.014745403 0.03427026 -0.001155046 0.99941194 8.2682913e-05
0.064351782 -0.025543658 0.014644539 0.020656006 -0.023925086 0.99950033 0.00021644338
0.067503944 -0.02552858 0.014588952 -0.012443289 -0.017173124 0.99977511 0.0019097299
0.070304886 -0.025465643 0.014544865 -0.15830594 -0.0025847512 0.98738676 0.0075476617
0.08065246 -0.025293341 0.013808019 0.95824474 -0.034675624 0.28383908 0.082072116
-0.012432395 -0.022396488 0.014849735 0.25590611 0.016837688 0.966555 0.0040245568
-0.010485246 -0.02264609 0.014472041 0.087546401 0.020900372 0.99594122 0.0040173801
-0.0073845494 -0.022651024 0.014488076 -0.011857538 0.01889709 0.99975109 0.0014933045
-0.0045000594 -0.022656197 0.014648581 -0.059647836 0.011798203 0.99814981 6.984084e-05
-0.0016171462 -0.022661405 0.014836373 -0.055238742 0.0071495408 0.9984476 4.7310255e-05
0.0001974263 -0.022489693 0.014973604 -0.044653449 0.0084491074 0.99896687 9.6789205e-05
0.00562465 -0.021453202 0.014987793 0.011733335 0.004049703 0.99992299 0.00014566447
0.007711208 -0.022497365 0.014940788 0.03133212 0.011716598 0.99944037 0.00021104487
0.010457012 -0.022680016 0.014851451 0.031204795 0.015554314 0.99939197 0.00018041019
0.01338756 -0.022684202 0.014761812 0.014612956 0.012611354 0.99981368 0.00017578073
0.016449902 -0.02258338 0.014798263 -0.025493186 0.013748819 0.99958044 0.00025754914
0.018706992 -0.021998411 0.014945974 -0.054433811 0.026003383 0.99817878 9.4824645e-05
0.05377439 -0.021580435 0.014989833 0.030460084 0.014618488 0.99942905 0.00014022015
0.055645891 -0.022378346 0.014940694 0.023776414 0.0079667894 0.99968553 0.00018770841
0.058461081 -0.022521745 0.014863553 0.018966231 -0.014777622 0.99971086 0.00019564826
0.061407227 -0.022526698 0.014799449 0.020539332 -0.037167136 0.999098 0.00015948863
0.064342335 -0.022531632 0.014748091 0.015879257 -0.048750136 0.99868476 9.3555849e-05
0.067534976 -0.022537272 0.014780733 0.017646108 -0.049274638 0.99862939 5.4379092e-05
0.070462517 -0.022580067 0.014685352 -0.12517783 -0.019497398 0.9919427 0.0052620401
0.080674574 -0.022733472 0.013744595 0.77966255 -0.0047585159 0.62618178 0.082392678
-0.012594671 -0.019666338 0.014731295 0.27189067 -0.0023908045 0.96232516 0.0031524494
-0.01056924 -0.01967019 0.014324535 0.11204592 0.013290501 0.99361414 0.0058743563
-0.0074165673 -0.019684602 0.014431099 -0.016707052 0.010901933 0.99980104 0.0011570457
-0.0044868509 -0.019699518 0.014672499 -0.062098514 0.011184481 0.99800742 4.4793782e-05
-0.0016178215 -0.019713255 0.014835056 -0.04841109 0.018433113 0.99865741 9.6993346e-05
0.0012675156 -0.019285701 0.014941168 -0.031420358 0.033115748 0.99895751 1.4854827e-05
0.0041636317 -0.018679881 0.014988617 -0.0067846221 0.02588789 0.99964184 0.0001796203
0.0077949371 -0.020241341 0.014962205 0.020878578 -0.014152885 0.99968189 0.000104208
0.010541603 -0.019610656 0.01492063 0.024901198 -0.02172716 0.99945384 2.5699277e-05
0.013427113 -0.019534025 0.014840595 0.024281437 -0.018120408 0.99954098 7.8451223e-05
0.016566332 -0.019474555 0.014769162 -0.010529832 0.0091009466 0.99990314 0.00052688381
0.019606639 -0.019320266 0.014858686 -0.03496616 0.035565864 0.99875546 0.00021678719
0.021737024 -0.018810436 0.014951273 -0.052258167 0.047120444 0.99752128 1.9387544e-05
0.053774714 -0.019946735 0.014990689 0.024854789 0.00017565505 0.99969107 7.7461256e-05
0.055548243 -0.019521171 0.014962638 0.0070922012 -0.015202728 0.99985921 4.1217358e-05
0.058394305 -0.019673325 0.014963258 0.0036143558 -0.032486342 0.99946564 0.00012176787
0.061411377 -0.020008538 0.014957335 0.0064923358 -0.052816905 0.99858314 7.6472774e-05
0.06450557 -0.019971732 0.014918753 0.01185391 -0.057657216 0.99826604 8.7523702e-05
0.06748613 -0.019626806 0.014861162 0.058166016 -0.0059538023 0.99828923 0.0010868885
0.070294902 -0.019525368 0.014801766 -0.10573313 -0.011546578 0.99432755 0.0084117549
0.080473177 -0.019588016 0.01378004 0.77932346 -0.096307442 0.61917669 0.075279169
-0.012405496 -0.0169394 0.014814539 0.28416231 -0.041401818 0.95788187 0.0035932993
-0.010553214 -0.016695686 0.01435279 0.14536497 -0.046825148 0.98826939 0.0079192026
-0.0074186535 -0.016718252 0.014427365 -0.0026285972 0.012863424 0.99991387 0.0017676628
-0.0045132926 -0.016495086 0.014624563 -0.051008821 0.033999164 0.99811929 0.00012238565
-0.0015842804 -0.0164514 0.014731613 -0.037918061 0.04351503 0.99833292 5.4844451e-05
0.0015005855 -0.016353957 0.014827984 -0.031189159 0.045828529 0.99846226 3.353841e-05
0.0044887885 -0.016319554 0.014912075 -0.030012295 0.037048735 0.99886268 7.420178e-05
0.0072287871 -0.015999641 0.014964091 -0.014954895 0.029565124 0.99945092 9.3115123e-05
0.010984145 -0.016304351 0.014989528 0.017668132 -0.0086112358 0.99980682 0.00012455798
0.013468684 -0.016385155 0.014923419 0.027133992 -0.01123247 0.9995687 3.8152299e-05
0.016637284 -0.016405914 0.014804115 0.0041203005 -7.1606803e-05 0.99999154 0.00029318247
0.019558672 -0.016426232 0.014759544 -0.018259887 0.011683375 0.99976498 0.00030366046
0.022504775 -0.016415562 0.014878893 -0.048290879 0.046182636 0.99776506 3.8257876e-05
0.024848878 -0.01580262 0.014964448 -0.051745273 0.049094241 0.99745291 3.9771287e-05
0.035549354 -0.015477473 0.014943061 0.032808274 0.034180857 0.99887705 0.0020878536
0.036821298 -0.015775861 0.014935904 -0.021131851 0.021635119 0.99954253 0.0019175631
0.055974055 -0.017766679 0.014994489 0.0031552198 -0.019339969 0.99980795 5.2792817e-05
0.064647406 -0.01529352 0.014914955 0.068003915 0.096094817 0.99304646 0.001223935
0.067779787 -0.016250011 0.014704676 0.0089066708 0.062728025 0.99799097 0.0049736127
0.069921605 -0.016679557 0.014640921 -0.12943943 -0.010575544 0.99153095 0.010207823
0.080150791 -0.016496038 0.013789347 0.84055519 0.02954543 0.54091972 0.073893264
-0.01217953 -0.014959862 0.014961912 0.25853658 -0.078230843 0.96282852 0.0023909095
-0.010483718 -0.013724256 0.014474382 0.17021285 -0.042711817 0.98448122 0.0058639366
-0.0074857925 -0.013501045 0.014307392 0.053483821 0.0038378565 0.99856132 0.0047973087
-0.0046153166 -0.013285643 0.014439877 -0.025107287 0.043370124 0.99874347 0.00034131564
-0.0014996196 -0.013319174 0.014543083 -0.042080373 0.033802826 0.99854219 0.00022930949
0.0015977051 -0.013352606 0.014645549 -0.043486342 0.020316029 0.99884748 0.0003075533
0.0044155833 -0.013383893 0.014773295 -0.03851312 0.024744038 0.99895161 0.00014740333
0.0074963216 -0.013418048 0.014912375 -0.024346447 0.015506875 0.9995833 7.5621021e-05
0.010518965 -0.013449547 0.014972952 0.0046732128 0.011385906 0.9999243 6.5651555e-05
0.013469416 -0.013477528 0.014924963 0.023376772 0.0060110167 0.99970865 3.388818e-05
0.016661244 -0.013507339 0.014852769 0.017957544 0.0035406586 0.99983245 6.2691317e-05
0.019571368 -0.013534445 0.014785659 0.0061729467 0.019609444 0.9997887 0.00021871025
0.022496002 -0.013563253 0.014780719 -0.027347423 0.028289178 0.99922562 0.00023665697
0.025411427 -0.013552947 0.014866074 -0.049014427 0.067271151 0.99653006 0.00011808926
0.028218688 -0.012769893 0.014921827 -0.029656978 0.036774419 0.99888343 0.0013473181
0.031749453 -0.012997028 0.014939696 -0.037134413 0.033226725 0.99875772 0.0011051819
0.035594258 -0.014567965 0.014946941 -0.00077946455 0.0032901475 0.99999434 0.0015962824
0.036866307 -0.014705698 0.014937604 -0.030173257 -0.0046915906 0.99953371 0.0017936376
0.062074456 -0.013211995 0.014899548 0.079473287 0.063454598 0.99481535 0.0010121017
0.064518608 -0.01351111 0.014553634 0.079989746 0.074935839 0.99397498 0.00074796419
0.067638569 -0.013539001 0.014377702 -0.052519884 0.050394934 0.99734753 0.0070056329
0.069754153 -0.013760274 0.014796469 -0.2650595 -0.038957432 0.96344471 0.0045627006
0.079592444 -0.013325737 0.013762153 0.87741286 0.2722396 0.39500928 0.044762198
-0.010145796 -0.010509784 0.014572727 0.2378754 -0.033587635 0.97071475 0.0035969527
-0.0075130044 -0.010284603 0.014258483 0.078149512 0.010634876 0.99688488 0.0031479846
-0.0046535931 -0.010281279 0.014272933 -0.014391319 0.022907365 0.99963403 0.0010134905
-0.0015148825 -0.01040119 0.014442236 -0.056018423 0.0036262376 0.99842316 0.00021569342
0.0015964129 -0.010411704 0.014643196 -0.052131753 -0.006340778 0.99862009 7.2986288e-05
0.0044350368 -0.010452811 0.014810192 -0.039694499 -0.0039789034 0.99920392 3.6596106e-05
0.0074973162 -0.010494631 0.014914266 -0.018706048 0.010404903 0.99977088 0.00010823334
0.010500825 -0.01053305 0.014937351 0.010170356 0.019913692 0.99975002 9.3717725e-05
0.013439159 -0.01056752 0.01486467 0.022005733 0.023139516 0.99949008 6.9319161e-05
0.016645545 -0.010606308 0.014820978 0.021719674 0.021956613 0.99952298 0.00013411666
0.019549573 -0.010640049 0.014740605 0.0098676411 0.016431132 0.99981636 0.00019571425
0.022475099 -0.0106287 0.014661257 -0.02724121 -0.001291682 0.99962807 0.0010322599
0.025600081 -0.010472479 0.014627527 -0.04482526 -0.031093806 0.99851078 0.0012995158
0.02849452 -0.010779802 0.014820814 -0.05010666 -0.015333585 0.99862617 0.0020298467
0.030854411 -0.011545691 0.014890029 -0.028737448 0.0018330988 0.99958539 0.0011707527
0.059223201 -0.0090536177 0.014911011 0.05948082 0.13811307 0.9886288 0.00195721
0.061610203 -0.010372516 0.014829033 0.10248148 0.05450825 0.99324036 0.00037281815
0.064453527 -0.010454019 0.014547183 0.083435245 0.035699781 0.99587351 0.00047423772
0.067546003 -0.01058923 0.014334516 -0.13189489 -0.019399365 0.99107385 0.0098586651
0.069713049 -0.010916381 0.014805347 -0.33088368 -0.073232941 0.94082564 0.0049390052
0.078923091 -0.010524855 0.01369958 0.94109058 0.22159442 0.25542974 0.030694738
-0.0096255681 -0.0073638842 0.014601408 0.24659482 -0.08694499 0.96521068 0.0028371506
-0.0075676916 -0.0073124184 0.014160845 0.16690299 -0.10010138 0.98087877 0.004429684
-0.0047273999 -0.007358517 0.014237007 -0.0057258289 -0.022660697 0.99972677 0.0015910147
-0.0015259939 -0.0074174562 0.01449484 -0.068032682 -0.0055415439 0.99766767 4.522235e-05
0.0016342009 -0.0074741454 0.014713815 -0.047284413 -0.0093577448 0.99883765 9.6703094e-05
0.004441875 -0.0075211087 0.014823086 -0.026123775 0.0027453771 0.99965495 0.000169194
0.0074778777 -0.0075693214 0.01487666 -0.0063000997 0.025476348 0.9996556 0.00022078805
0.01045078 -0.0076129586 0.014839292 0.013926721 0.032122035 0.99938697 5.9427035e-05
0.013374338 -0.0076532364 0.014735439 0.013319076 0.028989593 0.99949098 0.00011561145
0.016632263 -0.0075699543 0.014668216 -0.0028912053 -0.0085492907 0.99995929 0.00085166231
0.019481353 -0.0074996701 0.014599887 -0.011805037 -0.027641263 0.9995482 0.00094799086
0.022437563 -0.0075153629 0.014726182 -0.027862087 -0.054191258 0.99814177 0.0008196116
0.024927443 -0.0078745661 0.014882213 -0.040766153 -0.07135085 0.99661785 0.00044501212
0.02728989 -0.0085876053 0.01486002 -0.053017244 -0.048695307 0.99740565 0.00090339361
0.049914774 -0.0062658018 0.014970873 0.047293264 0.069842041 0.99643636 0.00090580963
0.053049892 -0.0063552372 0.014783656 0.039696395 0.086570896 0.99545455 0.0016921604
0.055498574 -0.0066793994 0.014563262 0.034970548 0.096066803 0.99476045 0.0031069776
0.058377776 -0.0073654661 0.01454611 0.022356413 0.041107576 0.99890465 0.0054746843
0.061333947 -0.0074487678 0.014599313 0.065335765 0.055012912 0.9963457 0.0021518888
0.064460509 -0.0074903779 0.014391143 0.0087468289 -0.018072037 0.99979848 0.0047551417
0.067389779 -0.0076112477 0.014317015 -0.19255488 -0.094697744 0.97670615 0.016685255
0.069005921 -0.0082711922 0.014805165 -0.42446679 -0.15473208 0.89212435 0.0035624683
0.077601142 -0.0065426901 0.014024493 0.7971732 0.4524017 0.39980936 0.1017579
0.078265727 -0.0082234787 0.013853278 0.9276188 0.30585501 0.21442033 0.043216784
-0.0094283149 -0.005579541 0.014845176 0.22233455 -0.15268065 0.96294129 0.0040918351
-0.0074131358 -0.0045964466 0.014574616 0.15550441 -0.16336691 0.97423285 0.0038970406
-0.0047040125 -0.0044005043 0.014279235 0.089576326 -0.12438631 0.98818225 0.0057553393
-0.0015038489 -0.0044694445 0.014535557 -0.031933855 -0.025450565 0.99916589 0.0019230484
0.0016390479 -0.0045342655 0.014722844 -0.03437636 0.0097214123 0.99936169 0.00025575148
0.0044321311 -0.0045878668 0.014804527 -0.0089592254 0.016716393 0.99982005 0.00011793793
0.0074104732 -0.0046382239 0.014746566 0.0012862606 0.024170142 0.99970704 0.0001322777
0.010654365 -0.0046462915 0.014663899 0.0035267633 0.010547215 0.99993819 0.00032700013
0.013575061 -0.0044626887 0.014687072 -0.013591554 -0.01957405 0.99971604 0.00057692907
0.01645387 -0.0045041437 0.014711691 -0.032435637 -0.059262879 0.99771529 0.00019688894
0.019422906 -0.0044190884 0.014897304 -0.038697992 -0.059540473 0.9974755 0.00026365367
0.021790612 -0.005265859 0.014970781 -0.038143922 -0.065642722 0.99711388 0.00025664826
0.0473423 -0.0033646512 0.014964134 0.037000541 0.052309483 0.99794519 0.00031037399
0.049793743 -0.0042263572 0.014836845 0.051733878 0.036118574 0.9980076 0.00062485674
0.05241615 -0.0045045502 0.014722455 0.055488575 0.042525388 0.99755335 0.0014409126
0.055413708 -0.0045599616 0.014704214 -0.00024089385 -0.0099712983 0.99995023 0.0029935115
0.058456484 -0.0045196456 0.014712031 0.0034352022 -0.020359902 0.99978679 0.0030586454
0.061386447 -0.0044416361 0.014742575 0.033123441 -0.055530477 0.99790746 0.000602543
0.064510085 -0.0044902703 0.014530395 -0.042103838 -0.091731489 0.99489331 0.0091145383
0.066892251 -0.0049381806 0.014511989 -0.26555371 -0.17208698 0.94861341 0.010767979
0.076705679 -0.0042483397 0.013476246 0.88979179 0.36833102 0.26944911 0.051481947
-0.0061697448 -0.0020826899 0.014857742 0.23650771 -0.15641578 0.95895678 0.0028062554
-0.004520054 -0.0013655568 0.014433575 0.18606718 -0.12497862 0.97455597 0.0045342362
-0.0014092933 -0.0015855236 0.014477406 0.0072400989 -0.017079351 0.99982792 0.0041696662
0.0016198308 -0.0015916399 0.014686928 -0.040393058 0.021601219 0.99895036 7.7117606e-05
0.0045276424 -0.0015853938 0.014702052 -0.0095317606 0.016194606 0.99982339 0.00015528154
0.0075499658 -0.0016309009 0.014664829 -0.012022976 -0.0065155765 0.99990642 0.00036710539
0.010364879 -0.0014874891 0.014733662 -0.01991754 -0.032720927 0.99926603 0.00024547338
0.013430173 -0.0013575291 0.014847042 -0.028410818 -0.043602217 0.99864489 4.0687355e-05
0.016364029 -0.0014934072 0.01494911 -0.031315681 -0.050048456 0.99825573 0.00012703397
0.01842167 -0.0023535513 0.014983568 -0.030609556 -0.04183 0.99865574 0.0002062386
0.035569672 -0.00028518235 0.014989352 0.019717164 0.025495719 0.99948043 3.3050794e-05
0.037621748 -0.00061278604 0.0149765 0.010969604 0.032435354 0.99941367 2.7472212e-05
0.040270329 -0.00094862655 0.014958902 0.0075603966 0.034457289 0.99937761 0.00010443291
0.043542195 -0.0010863206 0.014896794 0.014653357 0.031710461 0.99938959 0.00027837005
0.046400357 -0.0015759725 0.014832116 0.01477431 0.037706636 0.99917966 0.00051185308
0.049478702 -0.0015131693 0.014787364 0.018423235 0.0058465987 0.99981314 0.00063880527
0.052452166 -0.0014705736 0.014814814 0.0016367082 -0.016912179 0.99985564 0.00011842496
0.055472441 -0.0015381927 0.014857935 -0.012971791 -0.018926498 0.99973673 0.00046518314
0.058413658 -0.0014962411 0.014889834 0.018883577 0.0013009529 0.99982083 0.0011753058
0.06140295 -0.0014303386 0.014787529 -0.015472581 0.021845222 0.9996416 0.0027876531
0.064129829 -0.0016879804 0.014791399 -0.16060635 -0.065498225 0.98484296 0.011311446
0.066082418 -0.0024571882 0.014816059 -0.30256572 -0.17672174 0.93660212 0.0057771872
0.074809641 -7.615771e-05 0.014062311 0.8730492 0.44434875 0.20084631 0.014385394
0.075606212 -0.0018025209 0.013719782 0.85467964 0.3290202 0.40158239 0.043040395
-0.0037901448 0.0011752585 0.014643682 0.19243358 -0.091800891 0.97700661 0.005148882
-0.0014892351 0.0014953095 0.014411968 0.10822034 -0.076754995 0.99115938 0.0057979114
0.0015536059 0.0013580668 0.014563153 -0.013360582 0.0018113033 0.9999091 0.0013158482
0.0044455007 0.0013530063 0.014640831 -0.032223526 0.026349409 0.99913329 0.0003156868
0.0073927674 0.0016080871 0.014768131 -0.039445926 0.0022924962 0.99921906 0.00030839903
0.010487091 0.0016162161 0.014910638 -0.038573802 -0.014871918 0.99914509 0.00018852306
0.013157648 0.0012062631 0.014975674 -0.027872102 -0.024863349 0.99930227 0.00014543024
0.015793225 0.00039815743 0.014996128 -0.019709585 -0.019038312 0.99962443 0.00011384764
0.031802926 0.0027765688 0.014992849 0.010977868 0.015360152 0.99982178 0.00014699933
0.03479901 0.0014555752 0.014969093 0.014422338 0.0092496388 0.99985325 9.3400588e-05
0.037480839 0.0014533586 0.014926253 0.0070600891 0.0072612222 0.99994874 0.00010234804
0.040309418 0.0013858587 0.014919762 0.0046818457 0.0015927138 0.99998778 0.00013733667
0.043380275 0.0015480128 0.014916702 0.0025091947 -0.0037485743 0.99998981 0.00021901421
0.046424992 0.0014757703 0.014892496 0.0081322873 -0.027936922 0.99957663 2.7442988e-05
0.049397256 0.0015129989 0.014875202 0.004650889 -0.030499198 0.999524 2.236663e-05
0.052474704 0.0015642943 0.014872324 0.0011035644 -0.023539156 0.9997223 8.5195759e-05
0.055482849 0.0014900182 0.014885045 0.027579432 0.0043275352 0.99961025 0.00082525419
0.058451533 0.0014206636 0.014837991 0.024647567 -0.0055432487 0.99968082 0.0029611867
0.061374255 0.0014922476 0.01455312 -0.0885823 -0.051915016 0.99471503 0.012303728
0.063235968 0.0010852237 0.014631171 -0.23471506 -0.16381785 0.95816106 0.0079218904
0.073919259 0.001503112 0.013922225 0.74651092 0.53739345 0.39233875 0.049770392
-0.01336416 0.0034220007 0.01486887 -0.02900066 -0.0054983185 0.99956429 0.02643789
-0.0034413347 0.0033402841 0.014884398 0.20174335 -0.13100742 0.9706372 0.0029214448
-0.0013863252 0.0042791171 0.014549669 0.19130181 -0.17559862 0.96569604 0.0017752792
0.0014380262 0.0043172548 0.014346995 0.02535977 -0.082594708 0.99626052 0.0061267749
0.0043989993 0.004600483 0.014504215 -0.017734481 -0.0064378758 0.99982196 0.0026544768
0.0075105629 0.0045578359 0.014700611 -0.047943983 0.039690524 0.99806118 0.00010648571
0.010458033 0.0045366259 0.014853721 -0.04514293 0.036893465 0.99829906 0.00016097575
0.013423567 0.0045227618 0.014960196 -0.024778983 0.022695897 0.99943525 3.3776971e-05
0.016291346 0.0050088149 0.014986214 -0.015032287 0.021895239 0.9996472 4.3475906e-05
0.018471779 0.0055225361 0.014995027 -0.011428439 0.020422617 0.99972612 3.2882766e-05
0.029499536 0.0053178123 0.014984828 0.022764085 0.014098859 0.99964142 6.1929662e-05
0.031566083 0.0044865375 0.014964652 0.0017076355 0.0079776086 0.99996674 3.4275086e-05
0.034478776 0.0042073671 0.014986065 -0.0010039569 -0.0042369119 0.99999058 4.1133473e-05
0.037500184 0.0038198954 0.014970864 0.0036887771 -0.015621314 0.99987113 1.8798397e-05
0.040287327 0.0039506028 0.014971756 -0.0010023202 -0.020445772 0.99979043 1.0774562e-05
0.04325413 0.0038099207 0.01498148 -0.00053228124 -0.027636237 0.99961787 1.6059943e-05
0.046605278 0.0036813936 0.01497901 0.0024416687 -0.03456689 0.99939942 7.2590797e-06
0.049491979 0.0037403347 0.014966443 0.0049146963 -0.039321695 0.99921453 3.6278559e-06
0.052695915 0.004298693 0.014956719 0.031095354 0.048970211 0.99831611 0.0021330039
0.05548548 0.004519436 0.014891613 0.040062707 0.013475123 0.99910635 0.0029678668
0.058272053 0.0044114483 0.014524055 -0.11384104 -0.03791998 0.99277508 0.016349234
0.060599647 0.0037207636 0.01461742 -0.20853473 -0.18595749 0.96017343 0.012418685
0.071503617 0.0052154642 0.014054979 0.80963451 0.57420987 0.12155252 0.013156003
0.072575286 0.0036658389 0.013879329 0.75808358 0.56741244 0.32148451 0.065449111
-0.00052308233 0.0061771907 0.014809787 0.1749725 -0.2214558 0.95934451 0.0026556442
0.0017355826 0.0068425285 0.014544233 0.10080308 -0.18555902 0.97744906 0.0047495533
0.0045655514 0.0076028141 0.014462804 0.093788803 -0.047124572 0.9944762 0.0080402717
0.0075345533 0.0075668548 0.014459568 0.035621352 0.018533038 0.99919349 0.005184669
0.010372509 0.0074678343 0.014686191 -0.035132106 0.037509654 0.99867857 0.002045447
0.013427409 0.0073679634 0.014841558 -0.043384265 0.063694075 0.99702603 0.00029545071
0.016464818 0.0074722995 0.014934085 -0.024699001 0.050272334 0.99843013 0.0001435626
0.019321842 0.0075838063 0.014937771 -0.015189971 0.042726122 0.99897128 5.1640123e-05
0.022334354 0.0078586265 0.01495714 -0.018840285 0.036371734 0.99916071 1.3950935e-05
0.024872702 0.0085129458 0.014990121 -0.015770337 0.0290311 0.99945408 2.831953e-05
0.029302511 0.0067131706 0.014986988 0.0090030618 5.7726753e-05 0.99995947 6.3717875e-05
0.031461272 0.007353934 0.014975501 0.00018304901 -0.0083110547 0.99996543 2.0457208e-05
0.033539433 0.0062212697 0.014994164 -0.0047647203 -0.0028943869 0.99998444 1.7771385e-05
0.049872324 0.0081116185 0.01486538 0.05813773 0.084351033 0.99473864 0.0053413841
0.052411791 0.0075688958 0.014516252 0.04061874 0.11743698 0.99224931 0.003328911
0.05537593 0.0074893632 0.014401091 -0.13709365 -0.025108634 0.9902398 0.019493788
0.057723776 0.0069157309 0.014578449 -0.23050132 -0.15860774 0.96005869 0.012936251
0.068947285 0.0087752873 0.014634871 0.68016344 0.47100794 0.56171989 0.06779585
0.069916144 0.0073935017 0.014267271 0.77404612 0.40177101 0.48931858 0.075453922
0.0050756992 0.010104158 0.014655775 0.14475991 -0.16712528 0.9752506 0.004028711
0.0075533856 0.010518126 0.014330724 0.091015361 -0.096386164 0.99117398 0.010313651
0.010499245 0.01041887 0.014321982 -0.0098539451 -0.062877327 0.99797261 0.008094037
0.013549607 0.010309242 0.014580413 -0.0092155635 0.029279191 0.99952883 0.0055161794
0.016514374 0.01066029 0.014706307 -0.027692007 0.077584177 0.99660116 0.00061029417
0.019524435 0.010531235 0.014795511 -0.034298472 0.077188201 0.99642634 0.00042801638
0.022534357 0.010468539 0.014861385 -0.030431496 0.062577151 0.99757612 0.00023529788
0.025484765 0.010367336 0.014944982 -0.019900581 0.046316661 0.99872857 9.8343648e-05
0.028103268 0.011094982 0.01496083 -0.017889449 0.054275934 0.9983657 0.00018842553
0.031271797 0.011212836 0.014973412 -0.0066725314 0.040601056 0.9991532 0.00044985962
0.037924461 0.011469488 0.014957271 0.027037306 0.077553682 0.99662149 0.0016165605
0.040532012 0.011539702 0.014960848 0.032747552 0.13044599 0.99091446 0.00325135
0.043392032 0.011274134 0.014944538 0.044028632 0.16402559 0.98547298 0.0024948947
0.046572644 0.010908003 0.014670161 0.033731014 0.066639379 0.99720681 0.016039081
0.049483377 0.010523498 0.014214369 0.051123973 0.099909499 0.99368227 0.0064672101
0.052394837 0.010351348 0.014255109 -0.16416931 -0.14645118 0.97550011 0.021703511
0.054776385 0.0096300654 0.014670146 -0.18338673 -0.26490209 0.94667637 0.0091479179
0.066847324 0.010892573 0.013807579 0.61095297 0.41914293 0.6716069 0.058096033
0.0086313542 0.012294912 0.01482283 0.1275669 -0.2851041 0.94996965 0.0025596262
0.010677398 0.01286389 0.01448512 0.085702039 -0.21709436 0.97238123 0.01036296
0.01346691 0.013621626 0.014273358 0.08702147 -0.10133916 0.99103862 0.014962618
0.016540963 0.013553306 0.014267782 0.0060442085 -0.031932205 0.99947178 0.011198019
0.019495713 0.013558081 0.014422991 -0.02208359 0.011407743 0.99969107 0.0074718953
0.022524381 0.013313263 0.014676322 -0.0047926409 0.044433959 0.99900085 0.005697181
0.025611907 0.013522993 0.014724953 -0.0061620893 0.075761497 0.99710697 0.0040531205
0.028475504 0.013602348 0.014692939 -0.012818813 0.13321343 0.99100441 0.00089290639
0.031477701 0.01352114 0.014851483 -0.0054397006 0.14549021 0.98934472 0.00080668443
0.034583051 0.013416302 0.014810815 0.013738533 0.14599137 0.98919046 0.00063224544
0.037585437 0.013359428 0.014657351 0.049090128 0.041920032 0.99791425 0.0091453902
0.040451001 0.013563712 0.014386329 0.048166361 0.022762356 0.99857998 0.014961459
0.043468915 0.013590361 0.014128222 -0.004509266 -0.0045257332 0.99997962 0.026774622
0.046518147 0.013397343 0.014147408 -0.11519013 -0.15355974 0.98140234 0.029340643
0.049266744 0.012973221 0.01443624 -0.13262911 -0.3113845 0.94098306 0.016553646
0.051215328 0.012126897 0.014863007 -0.092645168 -0.21807052 0.97152573 0.020823797
0.062960051 0.014553246 0.014320885 0.27241164 0.41551125 0.86783767 0.039600249
0.064641751 0.013113846 0.014210788 0.43134713 0.46786198 0.77139151 0.043991718
0.014313044 0.0155334 0.014777938 0.13609289 -0.27361852 0.95216161 0.0063185128
0.016600139 0.015710559 0.014455834 0.072439127 -0.27712947 0.95809805 0.0085628508
0.0196038 0.016199784 0.014354484 0.027690576 -0.20587203 0.97818702 0.012479298
0.02248572 0.01653108 0.014324605 0.028558478 -0.14638226 0.98881578 0.014799186
0.02534646 0.016634919 0.014160666 0.033158619 -0.10617109 0.99379486 0.017624678
0.028437715 0.016626853 0.014095535 -0.013805118 -0.094898939 0.99539113 0.021898935
0.031582642 0.016407249 0.014167853 -0.059995517 -0.12626934 0.99018008 0.021527955
0.03452098 0.016561814 0.014143405 -0.022229152 -0.11266958 0.99338382 0.018992754
0.037439276 0.016134927 0.014215318 -0.023834495 -0.18182687 0.9830417 0.021471757
0.040322371 0.015890798 0.014285745 -0.039211761 -0.2833876 0.95820349 0.016406205
0.043124344 0.015662251 0.014506762 -0.085418195 -0.34420004 0.93500268 0.010715295
0.045354038 0.015162162 0.01475832 -0.03368964 -0.19166133 0.9808827 0.029488383
0.059016917 0.017719371 0.014354623 0.38176227 0.50715464 0.77269125 0.049042549
0.061237562 0.016049575 0.013929302 0.40522343 0.55965084 0.72290039 0.03085734
0.026233131 0.018255677 0.014852588 0.039272241 -0.37163264 0.92754889 0.0073434594
0.028568644 0.018171048 0.014785284 0.00096176285 -0.28212148 0.95937818 0.022796832
0.031236965 0.018055104 0.01489602 -0.022511315 -0.26165101 0.96489996 0.0204916
0.055475008 0.02002524 0.013774243 0.2851983 0.42694044 0.85812807 0.049953558
0.057493951 0.018720891 0.014270764 0.4064706 0.67704451 0.61350834 0.023746338
0.049200937 0.023054667 0.014237273 0.11285613 0.43403795 0.89379787 0.026105933
0.026558548 0.026847137 0.014985375 0.026226403 0.24853347 0.96826816 0.028773833
0.027022783 0.026841806 0.014851217 0.026243908 0.24849783 0.96827686 0.028775617
0.031179547 0.026656188 0.01476815 -0.01409227 0.27119374 0.9624216 0.026262993
0.041580342 0.025678625 0.014891411 0.15582921 0.38196635 0.91094398 0.011485042
0.043434609 0.025021153 0.014740702 0.13264173 0.30827582 0.94200432 0.032894462
0.045897126 0.024410196 0.014637467 0.15712214 0.4633159 0.87215304 0.028287826
0.026598305 -0.075118273 0.015070938 -0.020554177 -0.26106027 0.96510369 0.025916977
0.027974365 -0.075037748 0.015204264 0.02267533 -0.24229597 0.96993732 0.026639545
0.014851513 -0.072043262 0.017143631 0.056301702 0.079789914 0.99522042 0.0017626632
0.016764568 -0.072723508 0.016588505 0.045362633 0.072570056 0.99633121 0.0020019535
0.019578641 -0.073087446 0.016500687 0.025216203 0.058084507 0.99799311 0.0017214622
0.022535164 -0.073162392 0.016685607 0.098960504 -0.10686962 0.98933601 0.013400931
0.025504183 -0.073257223 0.016756946 0.069552302 -0.13374652 0.98857188 0.029838514
0.028538993 -0.073281959 0.016672188 -0.071991034 -0.11163478 0.99113828 0.028621878
0.031494036 -0.073605783 0.016512856 -0.092317455 -0.13497105 0.9865396 0.011255953
0.034503307 -0.073348477 0.01668543 0.047509465 0.0039261123 0.99886304 0.014173925
0.037384138 -0.073210351 0.016499473 0.12719642 -0.12746347 0.98365355 0.032085277
0.040531036 -0.073027335 0.016531793 0.030138081 -0.38397291 0.92285234 0.025690943
0.043426905 -0.072632559 0.016072866 0.18324241 -0.6047433 0.77505338 0.033557419
0.045840736 -0.072237037 0.01594067 0.28492749 -0.52018189 0.80512553 0.059148982
0.0080338232 -0.069575317 0.016470794 0.034844544 0.038538191 0.99864942 0.0018371955
0.010582871 -0.07007169 0.016744096 0.021636613 0.09119042 0.99559844 0.0025610412
0.013509694 -0.070304319 0.016910402 0.020334663 0.092524081 0.99550277 0.002672622
0.016503854 -0.0705171 0.016593682 0.060129277 0.093761571 0.99377722 0.0026593111
0.019478463 -0.070465103 0.016580947 0.03431496 0.05720327 0.99777269 0.001858194
0.022514364 -0.070627153 0.016484236 0.021958949 0.12191521 0.99229759 0.0050926753
0.025413625 -0.070514813 0.016224589 0.044084057 0.15297587 0.9872461 0.0051928801
0.028486634 -0.070482038 0.016301868 0.0083853751 0.013139874 0.99987859 0.013450558
0.031570014 -0.070497423 0.01628053 -0.05170586 0.027413731 0.99828607 0.010934529
0.034589849 -0.07055933 0.016081108 0.00079340214 0.12567255 0.99207145 0.0028688982
0.037604198 -0.070478544 0.016126374 -0.026501615 -0.03267391 0.99911463 0.017797161
0.040500838 -0.070617452 0.016340081 0.087286815 -0.17855331 0.9800508 0.031190304
0.043491095 -0.070465319 0.016524052 0.14949115 -0.23282337 0.96096087 0.041391913
0.046604756 -0.070517622 0.016623301 0.09680973 -0.28736895 0.95291501 0.055491351
0.049443658 -0.070088357 0.016563395 0.23365374 -0.55317056 0.79963005 0.06721019
0.052152317 -0.069439724 0.016179865 0.22824761 -0.54848641 0.8044039 0.060651455
0.0023198586 -0.066322252 0.016507737 -0.010912755 0.035694148 0.99930322 0.0031826138
0.0046313833 -0.066770196 0.016928747 0.040398605 0.064716719 0.99708557 0.0036229435
0.0075153806 -0.067362018 0.016857874 0.0251885 0.061584964 0.99778396 0.0033552253
0.010559422 -0.067510024 0.01674534 0.060285032 0.13791868 0.98860711 0.008289814
0.013533363 -0.067622364 0.016457755 0.063543141 0.12131292 0.99057829 0.0011675606
0.016404187 -0.067462869 0.016341705 0.06336391 0.20739974 0.97620195 0.0067030042
0.019511027 -0.067394897 0.016417606 0.05276794 0.21400972 0.97540528 0.0064242692
0.022438359 -0.067458749 0.016325174 0.078461044 0.23842432 0.9679864 0.0066813426
0.025431145 -0.067431197 0.016119614 0.059100207 0.27583462 0.95938647 0.0093093114
0.028453795 -0.067551181 0.015969159 0.0038826622 0.29608002 0.95515525 0.0085409442
0.031581629 -0.067450777 0.015971052 -0.01888936 0.27081153 0.96244699 0.0064132493
0.034534406 -0.067519613 0.016026083 -0.02020146 0.23350151 0.97214657 0.0071772179
0.037409145 -0.067405686 0.016130392 -0.049155254 0.21062616 0.97633004 0.0089615053
0.040457107 -0.067514859 0.016382517 -0.083551042 0.19795468 0.9766438 0.0093713766
0.043493021 -0.067456424 0.01627855 -0.059169512 0.16152734 0.98509288 0.0074253902
0.046463788 -0.067489728 0.016226795 -0.032952942 0.028860617 0.99904019 0.0030351006
0.049480338 -0.067472965 0.016417107 0.12093638 -0.07493563 0.98982781 0.047302973
0.05258929 -0.067464903 0.016752372 0.17553528 -0.25811425 0.9500339 0.066613309
0.055431351 -0.067111894 0.016501389 0.24904591 -0.35303858 0.90185362 0.048331212
0.057575367 -0.066314325 0.016067708 0.32572013 -0.43180409 0.84110141 0.047906801
-0.0013444995 -0.063767612 0.01623911 -0.061504256 0.014192918 0.99800599 0.0049394923
0.0016745477 -0.06442748 0.016875429 -0.0071415482 0.042270776 0.99908066 0.0032909655
0.0046681189 -0.064515568 0.016878299 0.063295878 0.15264028 0.98625278 0.0059627104
0.0074813003 -0.064399913 0.01655478 0.10888871 0.20094118 0.97353268 0.0051300088
0.010567633 -0.064376712 0.01645343 0.12178975 0.23970422 0.96317661 0.0065769572
0.013456806 -0.064466387 0.016083661 0.15528011 0.33788034 0.92829144 0.0070243995
0.016360449 -0.064797476 0.015903698 0.067132585 0.32396361 0.9436847 0.0067495778
0.019401221 -0.065224595 0.015534133 0.060211148 0.3164683 0.94669026 0.0075016185
0.022213252 -0.065297276 0.015207116 0.08872316 0.31533507 0.94482374 0.0090751564
0.034917202 -0.065536417 0.01517503 -0.024373973 0.26585343 0.96370524 0.0084222546
0.037504613 -0.065665469 0.015151799 -0.034739483 0.33233443 0.94252163 0.0061380453
0.040502824 -0.065485656 0.015460054 -0.09113089 0.31658134 0.94417757 0.0083903382
0.043572661 -0.064942434 0.015988469 -0.099126905 0.28376725 0.95375568 0.0080296258
0.046524867 -0.064499475 0.01619406 -0.096797496 0.23781042 0.96647632 0.0081511931
0.04956039 -0.064486779 0.016269859 -0.098406352 0.18826087 0.97717655 0.0072251162
0.052470218 -0.064485654 0.016217897 -0.054422375 0.056337357 0.99692744 0.0029290046
0.0555548 -0.064508878 0.016465196 0.090938821 -0.031400539 0.99536127 0.027081309
0.058572486 -0.064435974 0.016570473 0.32942003 -0.3611365 0.8723892 0.039591294
0.061091837 -0.063728251 0.016111275 0.54848027 -0.62271494 0.55802822 0.074070074
-0.0061522056 -0.06032351 0.015689863 -0.041061282 -0.054539025 0.99766701 0.0074587329
-0.0038820528 -0.060976777 0.016770655 -0.020061376 -0.0067028548 0.99977624 0.007829099
-0.0013448645 -0.061324637 0.016799759 -0.023916868 0.013338901 0.99962497 0.0077776061
0.0013556167 -0.061630454 0.016509559 0.027634105 0.066745639 0.99738729 0.0055223382
0.0044631716 -0.061624534 0.016417783 0.13110612 0.22847211 0.96468216 0.0078697708
0.0075786798 -0.061534777 0.016019102 0.1476763 0.31285498 0.93825024 0.005067219
0.010162495 -0.062062237 0.015503484 0.17842899 0.29318506 0.93925798 0.0059945094
0.012209972 -0.062692285 0.015103285 0.11016299 0.23329979 0.96614462 0.018002637
0.025690585 -0.060599554 0.01504643 -0.0035983087 -0.10392439 0.99457872 0.00034799438
0.028679518 -0.060215008 0.015028168 -0.00719157 -0.07136628 0.9974243 0.00051474187
0.030948164 -0.060761191 0.01505631 0.021951929 -0.074731842 0.99696207 0.001057456
0.038554244 -0.060362779 0.015022669 3.2151362e-05 -0.08656913 0.9962458 0.0021362074
0.039836153 -0.060320675 0.015013528 0.0074068429 -0.091667771 0.99576211 0.0020773544
0.04724152 -0.062771723 0.015278289 -0.10373513 0.28213659 0.95374948 0.0086776577
0.049875569 -0.061992381 0.01569356 -0.13960807 0.26291674 0.95466459 0.0068844208
0.052617464 -0.061534118 0.016140535 -0.14076944 0.20830435 0.96788085 0.0062191491
0.05552825 -0.061540388 0.016302986 -0.089150131 0.14952642 0.98473054 0.0049327691
0.058456402 -0.061449081 0.016173508 0.077478632 -0.043726876 0.99603468 0.031789489
0.061578646 -0.061549768 0.016456721 0.19976071 -0.1914746 0.96095425 0.050163742
0.064173669 -0.061098512 0.015999801 0.28399396 -0.29018494 0.91386002 0.033894934
-0.0069865785 -0.058002785 0.016566431 0.010280856 0.0057367701 0.99993068 0.0088555235
-0.0044677146 -0.058346968 0.016796252 0.027105687 0.062786862 0.99765879 0.013098513
-0.0014612385 -0.0584656 0.016413623 0.0046224468 0.082135364 0.99661052 0.011348522
0.0015923685 -0.058345985 0.016336316 0.19573848 0.2275001 0.95390254 0.010179721
0.0042319568 -0.058870479 0.015779084 0.19942428 0.29234225 0.9352892 0.0066993171
0.0067204162 -0.059824411 0.015254797 0.16980013 0.33131155 0.92811668 0.0062137102
0.016651295 -0.057312284 0.015013768 -0.020353733 -0.06521339 0.99766374 0.00038902881
0.01952091 -0.057801414 0.015032328 -0.0075074015 -0.043666903 0.99901795 7.4550291e-05
0.022699151 -0.057957273 0.015048443 -0.015808567 -0.037433501 0.99917406 0.00014429769
0.02555914 -0.058634784 0.015103997 -0.0081089744 -0.058033928 0.99828166 0.00046722632
0.028466156 -0.058508035 0.015117458 -0.0019112466 -0.040212575 0.99918932 0.00047378297
0.031508248 -0.058392681 0.015089047 0.011131885 -0.032235157 0.99941838 0.00026373184
0.034716334 -0.057997204 0.015084315 -0.00027307018 -0.062566794 0.99804074 0.00075254811
0.037423354 -0.058301587 0.015091408 -0.0055080573 -0.064517707 0.99790132 0.002257148
0.039469935 -0.059333224 0.015024856 0.039830327 -0.05441124 0.99772388 0.0033789796
0.053061746 -0.059382148 0.015347717 -0.1692369 0.22595701 0.95932388 0.0054992088
0.055511307 -0.058606546 0.015813751 -0.13537319 0.21737181 0.96665591 0.0060037365
0.058459375 -0.05843671 0.016181342 -0.10509222 0.14463252 0.98388875 0.006055227
0.061509278 -0.058521528 0.016341163 0.073095903 -0.078776062 0.99420887 0.036573619
0.064537697 -0.058470711 0.016550964 0.15271045 -0.18294908 0.9711895 0.038550813
0.066983365 -0.058237735 0.016109448 0.29382816 -0.31921116 0.90098232 0.040061459
-0.0096088946 -0.055190962 0.016502926 0.066401236 0.060187727 0.99597603 0.0018576893
-0.007326799 -0.055494368 0.016882032 0.10315601 -0.001848722 0.99466354 0.0088006202
-0.0045762286 -0.055627894 0.016247733 0.060232725 0.014324764 0.99808151 0.011204499
-0.0013891008 -0.055347696 0.016269227 0.19853941 0.2277386 0.95326662 0.010714734
0.00091778225 -0.055961043 0.015540327 0.24624678 0.31085119 0.91800553 0.0063664271
0.010534393 -0.054015279 0.015002175 -0.028483061 -0.032526378 0.99906492 0.00015665655
0.014085313 -0.055215966 0.015049595 -0.017679755 -0.03147183 0.99934834 2.3773313e-05
0.016505323 -0.05554026 0.015080134 -0.013787852 -0.026835615 0.9995448 4.5285953e-05
0.019453153 -0.055455565 0.015092684 -0.0060398527 -0.022479055 0.99972904 7.0407141e-06
0.022614397 -0.055398833 0.015108936 -0.014062074 -0.023658717 0.99962127 3.4936307e-05
0.025543764 -0.05547674 0.015165169 -0.0059294379 -0.022195945 0.99973601 8.0466292e-05
0.028419467 -0.055544633 0.015163741 0.0053818971 -0.020215459 0.99978119 6.128438e-05
0.031603608 -0.055583995 0.015130707 0.0047282209 -0.020087451 0.99978703 8.9872483e-05
0.034479789 -0.055498533 0.015163617 0.0029276188 -0.021251962 0.99976981 0.00016059913
0.037298433 -0.055421941 0.015100962 0.023318542 -0.02324779 0.99945778 0.00018653342
0.04044101 -0.054598361 0.015051484 0.015116356 -0.035280343 0.99926317 0.00041580977
0.043598901 -0.054759193 0.01509528 0.00045680281 -0.065250754 0.99786878 0.00030680632
0.046365641 -0.055040527 0.015070153 0.011957809 -0.064030439 0.99787635 0.00068432436
0.048504192 -0.054870218 0.015020896 0.028271195 -0.056522217 0.99800104 0.00080263038
0.05618085 -0.056318033 0.015346834 -0.15004919 0.1914167 0.96997166 0.0056446092
0.058556061 -0.055758532 0.015694108 -0.15449594 0.23651291 0.95926678 0.0041087689
0.061429121 -0.055518407 0.016258731 -0.14877915 0.15689419 0.97634465 0.0056792004
