# .PCD v0.7 - Point Cloud Data file format
VERSION 0.7
FIELDS x y z normal_x normal_y normal_z curvature
SIZE 4 4 4 4 4 4 4
TYPE F F F F F F F
COUNT 1 1 1 1 1 1 1
WIDTH 537
HEIGHT 1
VIEWPOINT 0 0 0 1 0 0 0
POINTS 537
DATA ascii
-0.011636876 0.0027024674 -0.071130909 -0.84816802 0.52958524 -0.012264569 0.0010557162
-0.010240843 0.0045927367 -0.070351586 -0.804869 0.59299964 -0.023180563 0.0011363188
-0.0078832032 0.0074863173 -0.070584543 -0.76710361 0.64125919 -0.01840353 0.0010826358
-0.0063180733 0.0093520069 -0.070482396 -0.74046594 0.67180395 -0.019738108 0.0010803177
-0.0050014164 0.01084557 -0.070317931 -0.71387887 0.70026857 0.00086869928 0.0025479621
-0.0034429729 0.012423323 -0.069976658 -0.69762808 0.71612114 -0.022037093 0.0010368233
-0.0015675045 0.013950429 -0.070090614 -0.65156883 0.75837761 -0.017930722 0.0016261664
0.001210087 0.016141754 -0.069978513 -0.57587582 0.81744707 -0.01213832 0.0020662802
0.0032399658 0.017548742 -0.069664575 -0.54884374 0.83555228 -0.024959449 0.0010622629
0.0047671353 0.018523356 -0.069641083 -0.52378309 0.85157692 -0.02163408 0.0018556694
0.010544037 -0.069916479 -0.067809902 -0.45717129 -0.88937694 0.0017532404 0.00090724463
0.013679796 -0.071190216 -0.066888198 -0.42043769 -0.90728849 0.0077261403 0.0002337344
0.004730715 -0.066810139 -0.067679636 -0.51432729 -0.85635245 -0.046128418 0.00090257818
0.007766068 -0.068495616 -0.067757443 -0.45210409 -0.8902123 -0.055893123 0.00080558751
-0.00063159742 -0.06325309 -0.067167625 -0.60263151 -0.79570067 -0.060792118 0.00034074084
0.0014189743 -0.06459339 -0.067650035 -0.56814027 -0.82105827 -0.05549698 0.00015523244
-0.0035937405 -0.060743675 -0.067853794 -0.67920959 -0.73205799 -0.052587979 0.00057897129
-0.0019227458 -0.062202312 -0.067941763 -0.63866836 -0.76723337 -0.058785807 0.0011204019
-0.0066534542 -0.057505284 -0.068038858 -0.74312353 -0.66645974 -0.059989803 0.00037758442
-0.0052128909 -0.059131831 -0.067788169 -0.72138518 -0.69016236 -0.057265975 0.00043320545
-0.0092881108 -0.054326501 -0.067769848 -0.79513836 -0.60385847 -0.055767611 0.00043678019
-0.00806328 -0.055953674 -0.067307331 -0.76916397 -0.63680869 -0.053493172 0.00046540188
-0.01071985 -0.052384935 -0.067617856 -0.82505929 -0.56179422 -0.060534101 0.00045270039
-0.012676008 -0.049311262 -0.067709297 -0.86730045 -0.49510789 -0.051556725 0.00040618304
-0.011710281 -0.050889511 -0.067727633 -0.83748889 -0.54361987 -0.0555855 0.00059932761
-0.015047525 -0.045139436 -0.067159332 -0.90368843 -0.4252696 -0.049930573 0.00087275455
-0.014274787 -0.04640175 -0.06758979 -0.89096236 -0.45030546 -0.058403831 0.00080354454
-0.01559929 -0.043547142 -0.067775637 -0.91526598 -0.39906374 -0.055103555 0.00081372028
-0.016791714 -0.040569521 -0.067634173 -0.94137973 -0.33275613 -0.055475201 0.00032972722
-0.018086791 -0.036459137 -0.067161717 -0.96307439 -0.26175424 -0.063027456 0.00029488024
-0.01763452 -0.037944704 -0.067672074 -0.95586354 -0.28673694 -0.064084478 0.00040816457
-0.018521326 -0.034457523 -0.067765944 -0.97029907 -0.23158248 -0.06992352 0.00021178898
-0.019187976 -0.031356338 -0.067603998 -0.98556411 -0.16047348 -0.053959873 0.00096680562
-0.01940055 -0.028701795 -0.068135455 -0.9961471 -0.085004278 -0.021570835 0.00042550836
-0.019660991 -0.025673196 -0.067384146 -0.99749011 -0.059033807 -0.039094802 0.00020514875
-0.019750966 -0.022574155 -0.067713447 -0.99930167 0.018688379 -0.03235713 0.00047357375
-0.019547479 -0.019543428 -0.067411855 -0.99390268 0.10473964 -0.034451775 0.00028422609
-0.019097304 -0.016445305 -0.067714617 -0.98500675 0.16938671 -0.032707967 0.00020698502
-0.018553615 -0.013530518 -0.067775413 -0.9767977 0.21181305 -0.031648364 0.00025784966
-0.018122248 -0.011617328 -0.067289688 -0.96885818 0.24600132 -0.028234525 0.00051653979
-0.017676279 -0.010107332 -0.067242362 -0.95722544 0.2870281 -0.036528312 0.000305425
-0.016810583 -0.0074493634 -0.067510985 -0.94164413 0.33491984 -0.033691477 0.00019413205
-0.015608755 -0.0044133337 -0.067758486 -0.91980934 0.39070094 -0.036105011 0.00027124968
-0.014158607 -0.0013457455 -0.067621157 -0.88698095 0.45992687 -0.041617617 0.00038355126
-0.012775602 0.0011454222 -0.067448638 -0.86105263 0.50678259 -0.041950714 0.00021956084
-0.011826141 0.0026207457 -0.06812229 -0.82598615 0.56196219 -0.044106539 0.00031955075
-0.010587125 0.0045031048 -0.067585006 -0.80926412 0.58592129 -0.042282198 0.00027998755
-0.0091649145 0.0063151796 -0.068263084 -0.78847069 0.61250436 -0.05614588 0.00030889112
-0.0079699717 0.0078398986 -0.067597464 -0.76212913 0.64496344 -0.056403223 0.00029477791
-0.0064807059 0.0095393993 -0.067919746 -0.73677355 0.67376554 -0.05661032 0.0003390093
-0.0049482286 0.011193904 -0.067373157 -0.70818931 0.70433933 -0.04872239 0.00026695643
-0.0035316413 0.012522641 -0.067655548 -0.68758023 0.72414339 -0.053382918 0.00035608443
-0.0017808682 0.014104899 -0.068185605 -0.64285934 0.76231456 -0.074889556 0.00066592824
-0.00041828133 0.015356537 -0.06736163 -0.61860639 0.78201586 -0.076008141 0.00067746482
0.001598799 0.016771471 -0.06770473 -0.57115787 0.81732768 -0.075856432 0.00056593638
0.0030627667 0.017646933 -0.06853231 -0.54075754 0.83853775 -0.066601351 0.00039692863
0.0049632653 0.018939644 -0.067814983 -0.50314301 0.86175275 -0.065033339 0.00037705974
0.0072773602 0.020183602 -0.068371467 -0.48838308 0.86989999 -0.068963565 0.00058758189
0.0090568149 0.020992441 -0.06887123 -0.42820296 0.90144628 -0.06353642 0.0011506166
0.0089605926 0.021121716 -0.067530721 -0.42820036 0.90144658 -0.063549332 0.0011503472
0.010724067 0.021865191 -0.067827977 -0.41639841 0.90849435 -0.035360262 0.00057860633
0.014288265 0.023242543 -0.067820519 -0.40022838 0.91589552 -0.030865721 0.00022427263
0.0089618042 -0.06914302 -0.064254969 -0.44275483 -0.8963744 -0.021934591 0.00045137078
0.010805696 -0.07005547 -0.06381093 -0.42282006 -0.90611547 -0.013342585 0.00016373371
0.0041986047 -0.066672556 -0.064672552 -0.52995688 -0.84742785 -0.031807102 0.00034594443
0.0068431739 -0.068144768 -0.065538481 -0.47416475 -0.87992096 -0.030113075 0.00050328515
-0.0003133346 -0.063569956 -0.063575223 -0.61600262 -0.78747004 -0.020776773 0.00044309878
0.0014671852 -0.064833529 -0.064945668 -0.56985325 -0.82118648 -0.030331722 0.00025828157
-0.0037522018 -0.060625352 -0.064665772 -0.68939894 -0.72429925 -0.010940046 8.900743e-05
-0.0018457761 -0.062351108 -0.064919531 -0.62525845 -0.78006226 -0.023552528 0.00043655757
-0.0065202988 -0.057847332 -0.064618595 -0.73987526 -0.67268008 -0.0092822444 0.00021870056
-0.0053129145 -0.059113413 -0.06455633 -0.72549635 -0.68815041 -0.01019802 0.00019838389
-0.0093711931 -0.054486874 -0.065318152 -0.78613925 -0.6178472 -0.015808297 0.00025544665
-0.0081544723 -0.055919707 -0.063983031 -0.76931775 -0.63877338 -0.010892709 0.00026346964
-0.010904439 -0.052380025 -0.064465918 -0.8184818 -0.5741818 -0.020069825 0.00041005958
-0.012680748 -0.049485657 -0.064554922 -0.86483341 -0.50146043 -0.024506247 0.00018859608
-0.014140655 -0.046771012 -0.064686537 -0.89054763 -0.45471972 -0.012443337 0.00034415632
-0.015764464 -0.043369234 -0.064552717 -0.91863096 -0.39493102 -0.012111632 0.0003973149
-0.016900789 -0.040465713 -0.064457498 -0.94219881 -0.33442995 -0.020447372 0.00020695738
-0.01811029 -0.036612753 -0.06466262 -0.96379364 -0.26621124 -0.015277345 0.00022946602
-0.017706418 -0.038010534 -0.064496703 -0.95767981 -0.28734598 -0.016781233 0.0001272159
-0.018627632 -0.034527857 -0.064588465 -0.97753781 -0.2105543 -0.0093066934 0.00018786294
-0.019225154 -0.031146314 -0.064319976 -0.99175954 -0.12797248 -0.0060008774 0.00058065652
-0.019458933 -0.028540421 -0.064684793 -0.99653095 -0.082339086 -0.012092043 0.00020899296
-0.019662632 -0.025681771 -0.064450316 -0.9980768 -0.061931722 -0.0026682541 0.00011750058
-0.019823419 -0.022691865 -0.064547278 -0.99999303 -0.0020579507 -0.0031032998 0.00078244729
-0.019551188 -0.019181024 -0.064532332 -0.99228442 0.12385716 -0.0055776965 0.0005172735
-0.019120645 -0.016386181 -0.064673916 -0.98453611 0.17516108 -0.0027021656 0.00016304421
-0.018570811 -0.013564472 -0.064380936 -0.97774976 0.20977432 0.00037482253 0.00011499131
-0.018120904 -0.011630194 -0.064701147 -0.96465921 0.26349917 0.00095291511 0.00025438404
-0.017709879 -0.010106038 -0.064379707 -0.95833617 0.28564268 -0.00011488589 0.00023568388
-0.016867697 -0.0075729797 -0.064546317 -0.94281304 0.33328956 -0.0046596238 0.00021872891
-0.015687261 -0.0044969348 -0.064661965 -0.92095977 0.38957322 -0.008103379 0.00023542001
-0.015028538 -0.0029203638 -0.063285343 -0.90066409 0.43447167 -0.0062089963 0.00021372574
-0.014279937 -0.0013951296 -0.064463302 -0.89240563 0.45107397 -0.012017907 0.00030589473
-0.012856424 0.0011634418 -0.064625621 -0.86542046 0.50088984 -0.012525641 0.0004059335
-0.011882069 0.0028302262 -0.06460683 -0.83933526 0.54342717 -0.014254758 0.00057808397
-0.01070676 0.0044478709 -0.064309172 -0.81599593 0.57794899 -0.011205422 0.00032537288
-0.0092490986 0.0063874493 -0.064601205 -0.78314841 0.62160552 -0.016888784 0.00015097368
-0.0080624754 0.0079058073 -0.064589657 -0.75844711 0.65152133 -0.016669191 0.00018500954
-0.0065256809 0.0096092969 -0.06463635 -0.74528432 0.66658837 -0.014532541 0.00012925368
-0.0052390094 0.010962679 -0.064612977 -0.72072935 0.6930182 -0.016580377 9.6737123e-05
-0.0035772454 0.012622906 -0.064457059 -0.69016254 0.7234748 -0.016120058 0.00021054849
-0.0021154471 0.013977181 -0.064896524 -0.65663987 0.754035 -0.015977787 0.00016879341
-0.00062927842 0.015241039 -0.064567871 -0.62930292 0.77701497 -0.01502417 0.000421573
0.00078426115 0.01632786 -0.064766914 -0.58453596 0.81126076 -0.013174878 0.00052892452
0.0042526261 0.018603956 -0.064371943 -0.52568996 0.85035789 -0.023269268 0.00013449317
0.0071858293 0.020289255 -0.064522445 -0.46371907 0.88586313 -0.014533393 0.00019415242
0.0097360266 0.021536959 -0.063638955 -0.42185211 0.90642929 -0.020660905 0.00014793525
0.012866255 0.022834962 -0.065192536 -0.39320338 0.91909176 -0.025715942 0.000159123
0.010789008 -0.07010565 -0.060568433 -0.43582979 -0.89997017 -0.010296649 0.00030346974
0.0042314623 -0.066634588 -0.060744118 -0.53202164 -0.84672993 0.001227156 0.00033949449
0.0073448136 -0.068355314 -0.060701579 -0.46138272 -0.88716394 -0.0081286868 0.00015422821
-0.0007425347 -0.063207798 -0.061422046 -0.61659449 -0.78727388 -0.0033137649 0.00031017273
0.0010854003 -0.064564362 -0.061805312 -0.58028543 -0.81438065 -0.0072784051 0.00025398182
-0.0036224728 -0.060772292 -0.060856305 -0.68381894 -0.72962004 -0.0068027782 0.00051978824
-0.0023043531 -0.061958797 -0.0617918 -0.65791756 -0.75307012 -0.0054614418 0.00019693836
-0.0066205352 -0.057712086 -0.061621681 -0.73855329 -0.67419034 0.0025452669 0.00024005596
-0.0050577391 -0.05938996 -0.061020862 -0.70734555 -0.70686585 -0.0017398554 0.00019902604
-0.0094608804 -0.054330513 -0.060995717 -0.7805205 -0.62512922 -0.0011427677 0.0002092182
-0.008177205 -0.055840537 -0.061303247 -0.77149999 -0.63622797 0.0012943026 0.00017003168
-0.010786778 -0.052556168 -0.061513312 -0.81975907 -0.57270777 -0.00094647391 0.00072199921
-0.012904664 -0.049120963 -0.061549343 -0.86309594 -0.50496471 -0.0087259393 0.0001467181
-0.011987543 -0.050684877 -0.062154967 -0.85056424 -0.52585518 -0.0041005933 0.00058175664
-0.014331717 -0.046515211 -0.061671231 -0.89131713 -0.4530566 -0.017129797 0.00017716787
-0.015787588 -0.043462489 -0.061479464 -0.91812038 -0.39585614 -0.018785272 0.00020927566
-0.016981119 -0.040380634 -0.061545812 -0.943739 -0.33048773 -0.011602054 0.00024983019
-0.018089734 -0.036694825 -0.061641052 -0.96450728 -0.26400527 -0.0051908535 0.0001741038
-0.017676912 -0.038141169 -0.061615862 -0.9596622 -0.2810159 -0.0088649485 0.00018537074
-0.018596787 -0.03459717 -0.061519504 -0.97617829 -0.21694754 0.003100421 0.00024504177
-0.019144101 -0.031662893 -0.061346322 -0.98824602 -0.15286238 -0.0017196196 0.00066518312
-0.019464189 -0.028308073 -0.061399657 -0.99774027 -0.066933349 0.0058482005 0.0001241623
-0.019664563 -0.025570782 -0.061565492 -0.99857336 -0.052289918 0.010818725 4.3719556e-05
-0.019765511 -0.022445207 -0.061649054 -0.99984086 0.013907067 0.011173785 0.00045635505
-0.019592591 -0.019616423 -0.061407991 -0.99500501 0.098854728 0.013883237 0.00032817881
-0.019138418 -0.016526215 -0.061524764 -0.98373747 0.17960018 0.0020717632 0.00020250097
-0.01857027 -0.013638641 -0.061422132 -0.976336 0.2162582 0.00069355016 0.00013710797
-0.018081028 -0.01154243 -0.061609134 -0.96379036 0.26663405 0.0038056879 0.00028114577
-0.017599242 -0.0097860089 -0.061496917 -0.95939887 0.28203219 0.0034172703 0.0002407689
-0.016783496 -0.0073603373 -0.061593533 -0.94353253 0.33126745 0.002884537 0.0002257162
-0.015648233 -0.004428714 -0.061628342 -0.92277557 0.38532165 0.0035270914 0.00016697509
-0.014281929 -0.0014089006 -0.0612818 -0.89421105 0.44763401 0.0032119877 0.00030653566
-0.012685676 0.0014843682 -0.06149745 -0.85619456 0.51664168 0.0034920964 0.00035000386
-0.010706518 0.0044940272 -0.061508201 -0.81336689 0.58175027 0.00098714791 0.00033710682
-0.0093906261 0.0062286775 -0.061690047 -0.78305846 0.62189651 -0.0080104358 0.0002472979
-0.0080299443 0.0079335412 -0.061731696 -0.77290529 0.63444787 -0.0096585322 0.00023280832
-0.0066232295 0.0095114484 -0.061171502 -0.73186207 0.6813997 -0.0085074129 6.888093e-05
-0.0051104166 0.011143163 -0.061193239 -0.72595704 0.68764162 -0.011636026 8.9136658e-05
-0.0037665954 0.012499412 -0.061323851 -0.70077467 0.71330529 -0.010510671 0.00021685926
-0.0018843695 0.014188439 -0.06151402 -0.64055067 0.76784456 -0.010468371 0.00035165373
-0.00030358371 0.015491602 -0.061794616 -0.62946963 0.77702159 -0.002334387 0.00031976681
0.0015631721 0.016860699 -0.062057208 -0.57516843 0.81801003 -0.0063910517 0.00043766564
0.0047432738 0.018919351 -0.061182067 -0.53235912 0.84646904 -0.0091529572 0.00036674397
0.0074540055 0.020432767 -0.060373046 -0.46241954 0.88651019 0.016368825 0.0003371058
0.010373285 0.021827368 -0.060949914 -0.43329608 0.90122956 -0.006307994 0.00033871693
0.0090167569 -0.06926766 -0.05740482 -0.46221507 -0.88667285 0.012980483 0.0003059016
0.0044963174 -0.066848613 -0.058494236 -0.52492213 -0.85085404 0.022455461 0.00040678791
0.0069740349 -0.068288356 -0.058414839 -0.47877738 -0.87790132 -0.0078365263 0.00050409808
-0.00053877314 -0.063417971 -0.059002716 -0.60290051 -0.79780155 0.0048545222 0.00098725292
0.0015999196 -0.064963929 -0.058446269 -0.56389582 -0.82584178 0.0026086834 0.00047074683
-0.0037796767 -0.060674682 -0.058654163 -0.68578255 -0.72777569 -0.0066865827 0.00075049291
-0.0019274699 -0.062331602 -0.058673337 -0.64496928 -0.7642045 0.002493086 0.00082820799
-0.0067185224 -0.057575505 -0.058572143 -0.7493661 -0.66191119 0.018000532 0.00025627937
-0.0054033664 -0.059038009 -0.05850571 -0.72747856 -0.68553418 0.028598106 0.00064469472
-0.0094102733 -0.054438557 -0.058006801 -0.79039413 -0.61167067 0.033705693 0.00057341933
-0.0079325065 -0.05617838 -0.05880814 -0.7627055 -0.64658821 0.014281565 0.00030106941
-0.010921296 -0.052405655 -0.058778863 -0.83362031 -0.55182958 0.023690756 0.0004648274
-0.012928041 -0.049127918 -0.058615841 -0.86770272 -0.4970217 0.0078363437 0.0001765558
-0.01186058 -0.050877724 -0.058858149 -0.83361959 -0.55183089 0.023688547 0.0004657786
-0.015099588 -0.045044575 -0.05770757 -0.91258383 -0.40763116 0.032055721 0.0011455303
-0.014410851 -0.046528418 -0.058600314 -0.88969529 -0.45624819 0.016728938 0.00070236792
-0.015768269 -0.043603517 -0.058636248 -0.9234193 -0.38315955 0.022034518 0.00062400638
-0.016971227 -0.040486097 -0.058549013 -0.94328111 -0.32978073 0.038279258 0.0004189082
-0.018112903 -0.036773033 -0.05874493 -0.96671808 -0.25315902 0.036968313 0.0005665847
-0.017767882 -0.037956417 -0.058974288 -0.96260124 -0.27010998 0.020962637 0.00049834984
-0.01861644 -0.03459103 -0.058846865 -0.97872752 -0.20224243 0.03450292 0.00038656464
-0.019233776 -0.031307723 -0.058583967 -0.98823392 -0.14592989 0.045806155 0.00070537342
-0.019455366 -0.028452383 -0.058593832 -0.99657828 -0.071836926 0.040879276 0.00026925391
-0.019572521 -0.025436411 -0.058112543 -0.99811369 -0.052695386 0.031498864 0.00013465664
-0.019717366 -0.022537656 -0.058653623 -0.99922842 0.010053562 0.037967637 0.00038999904
-0.019518232 -0.019110402 -0.058415283 -0.99299186 0.11604889 0.022356862 0.00063037325
-0.019114489 -0.01630242 -0.058765072 -0.98490864 0.17195323 0.019674635 0.00027400287
-0.01853735 -0.01348179 -0.058526602 -0.97742867 0.21082473 0.01364187 0.0001423317
-0.018131284 -0.011727753 -0.058812596 -0.96506435 0.26135087 0.01861521 0.00026033408
-0.01769851 -0.010202085 -0.058363229 -0.95745885 0.28799793 0.01815954 0.00021199793
-0.016856892 -0.0075527639 -0.05841649 -0.94356763 0.33045658 0.021876879 0.00026090912
-0.015684461 -0.0045359652 -0.05871835 -0.92175215 0.38704687 0.023825921 0.00017724976
-0.014379913 -0.0016316675 -0.058657847 -0.89715588 0.44121414 0.021008885 0.00032094511
-0.012723728 0.0014388522 -0.058448907 -0.85966617 0.51084524 0.0033568707 0.00036722905
-0.010690471 0.0045443559 -0.05861751 -0.82163316 0.57001299 0.002016231 0.00033045321
-0.0092814378 0.0064440533 -0.058510922 -0.78483927 0.61924595 0.023701482 0.0003214656
-0.0082246698 0.0077898628 -0.058673527 -0.764274 0.64466304 0.017169699 0.00038685821
-0.0067606186 0.009445441 -0.058405235 -0.74336857 0.66856134 0.020710576 0.00026184981
-0.0052229078 0.011056043 -0.058826707 -0.71262008 0.70122939 0.02121448 0.00019830294
-0.0036456091 0.012679328 -0.059124485 -0.6827246 0.73034388 0.02201779 0.0003230806
-0.0020568871 0.014115651 -0.058495205 -0.66713965 0.74474835 0.016575653 0.00033059804
-0.00048547029 0.015385116 -0.058830749 -0.6188426 0.78543121 0.011472164 0.00080841652
0.0015711754 0.016907763 -0.058536027 -0.57533741 0.81784827 -0.010536558 0.00062213826
0.0031152801 0.017913958 -0.059852749 -0.54164338 0.8406083 0.00040144156 0.00044484067
0.0048419475 0.01894914 -0.058007032 -0.53276181 0.84613895 0.01461824 0.00026934891
0.010489363 0.021947915 -0.059781946 -0.43986094 0.89803749 0.0071383109 0.00032023355
0.012975316 0.02299496 -0.058361787 -0.41122842 0.91152596 0.0034123925 0.00011360709
-0.0078916699 -0.055967044 -0.055660877 -0.76558691 -0.64074278 0.05766505 0.00040249611
-0.010236008 -0.052866668 -0.055127267 -0.80781257 -0.58626783 0.061065447 0.00030428128
-0.012423742 -0.049786154 -0.05600822 -0.84818619 -0.52768201 0.04617247 0.00028160313
-0.014253486 -0.046701305 -0.056640163 -0.88809001 -0.45747435 0.044871178 0.00046860179
-0.015569836 -0.043540914 -0.055442285 -0.91868782 -0.3900885 0.061996661 0.00037737531
-0.016631708 -0.040603556 -0.055308845 -0.94564444 -0.32076263 0.053553186 0.00034076395
-0.01816377 -0.036027648 -0.05692257 -0.97486049 -0.21808554 0.045669634 0.00044289543
-0.017574888 -0.037661724 -0.055553246 -0.95962822 -0.27451354 0.06128687 0.00036260689
-0.018296078 -0.034738809 -0.055387177 -0.97568715 -0.21177587 0.056441855 0.00031760725
-0.018890275 -0.031811748 -0.055563975 -0.98686737 -0.15563267 0.04325942 0.0006366595
-0.019189404 -0.028368277 -0.054636698 -0.99681592 -0.078909554 0.011460809 0.001132288
-0.019426608 -0.025442561 -0.055527132 -0.99853498 -0.041310146 0.034950294 0.00020622106
-0.019621627 -0.022527898 -0.056259234 -0.99898368 0.012872096 0.043196663 0.00030365234
-0.019372294 -0.01933801 -0.055323269 -0.99352515 0.10654934 0.039434429 0.00060882157
-0.019069608 -0.016651535 -0.055649195 -0.98422277 0.17179745 0.042322218 0.00047736926
-0.018525792 -0.013853665 -0.055562142 -0.97501123 0.2198492 0.031929359 0.0002425329
-0.017986754 -0.012132187 -0.054237299 -0.96645087 0.25410488 0.03746416 0.00013914415
-0.018071905 -0.011665427 -0.056582838 -0.96199089 0.27046311 0.037724517 0.00025195669
-0.017615555 -0.010393493 -0.055568755 -0.95947093 0.27900395 0.039653279 0.00021909247
-0.016770866 -0.0076465951 -0.055819672 -0.94427103 0.32685643 0.038950488 0.00017202696
-0.015629806 -0.0046984074 -0.055660278 -0.9222225 0.38492903 0.036541935 0.0001673674
-0.014793126 -0.0030402138 -0.054624025 -0.90070564 0.43408471 0.017314931 0.00058773463
-0.014230296 -0.0015052122 -0.056163181 -0.90028763 0.43442073 0.027583191 0.00029625191
-0.012764205 0.0012145266 -0.055651732 -0.87785792 0.47831807 0.024026066 0.00066654029
-0.011848642 0.0028180212 -0.05592753 -0.83745176 0.54598147 0.024056442 0.0016316053
-0.010923984 0.0041640485 -0.056075968 -0.80838943 0.58812648 0.024774557 0.0008102748
-0.0090958364 0.006209142 -0.054069225 -0.78137636 0.6232658 0.031475291 0.00038718359
-0.0081331274 0.0075875302 -0.055225786 -0.77531832 0.63072729 0.032627542 0.00033028293
-0.0063148271 0.009703896 -0.055042692 -0.73388565 0.67885858 0.023726022 0.00046027181
-0.005038626 0.011052616 -0.055448253 -0.70753717 0.70637172 0.020737888 0.00036539586
-0.0036217859 0.012441822 -0.055390179 -0.69456875 0.71897048 0.025607698 0.00049741875
-0.0026440476 0.013314144 -0.054944083 -0.66776949 0.74370039 0.031522326 0.00031855813
0.00020750071 0.015955264 -0.056627747 -0.61127394 0.79100055 0.025737001 0.00051696465
0.0053918725 -0.06701079 -0.051048063 -0.51336145 -0.85553879 -0.067182578 0.00093625946
0.007303115 -0.068143681 -0.051354013 -0.48196492 -0.87376523 -0.065146834 0.00029096569
0.0011094477 -0.064174145 -0.05195009 -0.57381839 -0.81557834 -0.074595198 0.00093023246
0.0032895224 -0.065741524 -0.052255906 -0.53716964 -0.84137112 -0.059525564 0.00080835028
-0.0035357047 -0.060366627 -0.052322574 -0.68539017 -0.72525376 -0.065171614 0.00064437004
-0.0018594539 -0.061880767 -0.052074175 -0.64690673 -0.75813574 -0.082108721 0.00088629936
-0.0063612885 -0.057536304 -0.051732313 -0.7388128 -0.6717779 -0.053573065 0.0020441222
-0.0051017241 -0.058806207 -0.052448709 -0.70947498 -0.69544303 -0.1140361 0.00043160125
-0.0091708023 -0.054001972 -0.052401286 -0.7966215 -0.60391074 -0.02618907 0.0019316685
-0.0079910746 -0.055595271 -0.052191094 -0.77102929 -0.63600153 -0.031874295 0.0021121912
-0.010565849 -0.052209739 -0.052262869 -0.81466866 -0.57806253 -0.046461694 0.0016535594
-0.012619874 -0.049104679 -0.052036993 -0.86130375 -0.50731277 -0.028097652 0.002101864
-0.011702888 -0.050550681 -0.052155759 -0.81562167 -0.57791835 -0.027780926 0.0017633175
-0.013933745 -0.046521332 -0.052428696 -0.88820058 -0.45944858 0.0026066371 0.002004565
-0.015546513 -0.043134566 -0.052346073 -0.91551358 -0.40095669 -0.032691021 0.0011343724
-0.014845179 -0.044777516 -0.051806875 -0.90551978 -0.42274153 -0.036380045 0.0015430199
-0.016583633 -0.040557999 -0.052436013 -0.93868476 -0.34436402 -0.016862094 0.0010109205
-0.017569812 -0.037458681 -0.052499589 -0.96176505 -0.27245212 -0.027889982 0.00050625094
-0.018324155 -0.034416012 -0.052533947 -0.97655189 -0.21385619 -0.02473582 0.00042110772
-0.018868359 -0.031471714 -0.052491959 -0.99147046 -0.1258505 -0.033882882 0.001008225
-0.019299457 -0.028390996 -0.051950175 -0.99597657 -0.083749712 -0.03188597 0.00032872095
-0.019402314 -0.025449505 -0.052338429 -0.99972725 -0.015817719 -0.017181456 0.0012092541
-0.019408993 -0.022511629 -0.052364215 -0.99997479 0.0015602394 -0.0069370596 0.00097650511
-0.019280182 -0.019688535 -0.051992752 -0.99597752 0.088457316 -0.014283649 0.00065201084
-0.018953491 -0.016502095 -0.052459728 -0.9860025 0.16673024 0.00024175695 0.00085413532
-0.018340059 -0.013485574 -0.05222179 -0.97572041 0.21801539 -0.020949796 0.0009449012
-0.017995976 -0.012078872 -0.052223224 -0.96917528 0.24611183 -0.011320786 0.0010359325
-0.017507201 -0.010475431 -0.052453201 -0.95930821 0.28204086 -0.013444177 0.0014289159
-0.016574204 -0.0075190128 -0.052400768 -0.93860799 0.34449667 -0.018361194 0.0010451829
-0.015497377 -0.0046296255 -0.052311786 -0.92082149 0.38964662 -0.016224388 0.00061841035
-0.014950415 -0.0035122212 -0.053195875 -0.91508824 0.40318057 -0.0076771751 0.0012366354
-0.014159251 -0.0015822476 -0.052332744 -0.90397781 0.42731035 -0.015162429 0.00055209507
-0.012770739 0.0011292773 -0.052326981 -0.8609221 0.5087164 -0.0045577376 0.0010560111
-0.01180019 0.0027327605 -0.052827898 -0.82107645 0.57079279 -0.0053987126 0.00086333667
-0.010485374 0.004567849 -0.052313585 -0.80622238 0.59102184 -0.02643409 0.0013927517
-0.0091306707 0.0063270158 -0.052262269 -0.78913468 0.61194479 -0.052820202 0.00049951731
-0.0080226306 0.0077003776 -0.052296083 -0.77976513 0.62445939 -0.044909071 0.00045048582
-0.0066360589 0.0093525359 -0.052347235 -0.75664097 0.65299112 -0.033120975 0.00040116039
-0.0050252052 0.011146439 -0.052193318 -0.70981789 0.70379716 -0.028778313 0.00022905713
-0.0036372473 0.012459814 -0.05172443 -0.66424501 0.74705625 -0.02618162 0.00051842141
-0.0018006613 0.013989327 -0.052496906 -0.63792127 0.76893306 -0.042407438 0.0010055255
-0.00031611882 0.015255212 -0.051965173 -0.63597894 0.77165836 -0.0086159417 0.0013465678
0.0017097794 0.016745068 -0.051849015 -0.57918173 0.81513757 -0.0099661034 0.0016058518
0.0047142096 0.018661115 -0.052263938 -0.49765411 0.86736649 -0.0039654039 0.0011404699
0.0073737386 0.020233206 -0.052012127 -0.46238241 0.88567781 -0.042157885 0.00048083579
0.0097115692 0.021331236 -0.051904149 -0.44320324 0.89453876 -0.058062285 0.00067448919
0.0085459789 -0.069006823 -0.04843618 -0.45312235 -0.89061546 -0.038525615 0.00074062531
0.010081983 -0.069683738 -0.049629539 -0.44507354 -0.8951726 -0.023990309 0.00072956271
0.01289437 -0.070862673 -0.049900621 -0.44997236 -0.89304161 0.0012531449 0.00071944651
0.0045382068 -0.066698998 -0.050134297 -0.52562469 -0.84816647 -0.065820552 0.000727128
0.0069255531 -0.068084814 -0.049861122 -0.48196054 -0.87376791 -0.065144673 0.00029701993
-0.00072863058 -0.063110925 -0.049615771 -0.62011188 -0.78311056 -0.046894807 0.00081578892
0.0010335615 -0.064417727 -0.049580187 -0.58488464 -0.81038409 -0.0344605 0.00040193851
0.0031149455 -0.065924242 -0.05010391 -0.53555357 -0.84303141 -0.04980281 0.00075258431
-0.0037189014 -0.060602807 -0.049171366 -0.68068564 -0.73070693 -0.052291479 0.00052003918
-0.0020453746 -0.062069178 -0.050206415 -0.64697009 -0.7580992 -0.08194714 0.00094524142
-0.0064639701 -0.05775686 -0.049850427 -0.74319708 -0.66648471 -0.058790848 0.00049703754
-0.0051369756 -0.059200574 -0.049178958 -0.70824432 -0.70449132 -0.045628715 0.00044538817
-0.0092354007 -0.054442536 -0.049705327 -0.79091823 -0.60884094 -0.061328799 0.00068782276
-0.0080729099 -0.05596187 -0.049988251 -0.77117974 -0.63301325 -0.067646377 0.00059955183
-0.01066954 -0.052519031 -0.04962201 -0.81596476 -0.57385039 -0.069979876 0.00058773783
-0.012803236 -0.049238272 -0.04945318 -0.86677653 -0.49502075 -0.060438737 0.00055294769
-0.011853863 -0.050845359 -0.050053265 -0.83114779 -0.55343682 -0.053861678 0.00059876079
-0.014281768 -0.046494897 -0.049758069 -0.89352196 -0.44528952 -0.057757024 0.00036847815
-0.015662855 -0.043508478 -0.049723908 -0.91813987 -0.3928352 -0.051958624 0.0004711849
-0.016829714 -0.040464163 -0.049677275 -0.9437561 -0.32725006 -0.047241759 0.00027743043
-0.018074036 -0.036407754 -0.049060848 -0.96320641 -0.26605034 -0.038086437 0.00029230028
-0.017627599 -0.03790798 -0.049663704 -0.95971859 -0.27679154 -0.0482358 0.00029073021
-0.018489987 -0.03454021 -0.04946943 -0.97704667 -0.20813854 -0.04536685 0.0002511878
-0.019059004 -0.031529222 -0.049576685 -0.98687482 -0.15787245 -0.033976004 0.00038673764
-0.019470863 -0.028412504 -0.049464162 -0.9960416 -0.084245712 -0.028351611 0.0004003745
-0.019578571 -0.025225392 -0.049271517 -0.99919939 -0.028710654 -0.027859313 0.00020710267
-0.019643711 -0.022621628 -0.049163651 -0.99918193 0.016514385 -0.036916923 0.00030552511
-0.019415088 -0.019366544 -0.049601495 -0.99566615 0.090828277 -0.019978024 0.00061556022
-0.019059651 -0.016695682 -0.049579173 -0.98662621 0.15895465 -0.036085818 0.00025329195
-0.018531267 -0.013628494 -0.049625311 -0.97919261 0.199788 -0.035589062 0.00022961052
-0.018125968 -0.011642811 -0.049256597 -0.9634701 0.26365593 -0.047020525 0.0003544444
-0.017642614 -0.010010378 -0.049719427 -0.9555375 0.29100901 -0.047557868 0.00042692103
-0.016785517 -0.0074480674 -0.049541295 -0.94257975 0.33098543 -0.044631742 0.00027556531
-0.015685271 -0.0045842174 -0.049806356 -0.9225716 0.38379687 -0.039516795 0.0002802278
-0.014199012 -0.0013353326 -0.049118802 -0.89397281 0.44683272 -0.033958584 0.00027987934
-0.012870033 0.001239373 -0.049290441 -0.86899227 0.49412566 -0.026311081 0.00036905333
-0.011991438 0.0026494667 -0.049545422 -0.83302027 0.55262762 -0.026076548 0.00020660998
-0.010729552 0.0045201494 -0.049749304 -0.81576836 0.57767397 -0.028545847 0.00032592445
-0.0094309412 0.0063261813 -0.049406558 -0.78563339 0.61753386 -0.037842732 0.00028139076
-0.0079943417 0.008087988 -0.049301714 -0.76245254 0.64594048 -0.037775639 0.00031641216
-0.0066843238 0.0095464913 -0.04963829 -0.74476075 0.66639876 -0.035270251 0.00023147756
-0.0054745493 0.010823307 -0.049366031 -0.71617317 0.6973027 -0.029408554 0.00018837061
-0.0035174056 0.012778001 -0.049444221 -0.67866981 0.73380816 -0.030544395 0.00021739585
-0.0018918074 0.014211792 -0.049512915 -0.64424682 0.7641241 -0.032563362 0.00047384069
-0.00048576607 0.01543592 -0.049753249 -0.61704284 0.78635556 -0.03005136 0.00061471865
0.0013415866 0.016697489 -0.049745493 -0.57210672 0.81904644 -0.04309148 0.00048233627
0.0044058934 0.018710498 -0.050098516 -0.51220292 0.85748243 -0.048703499 0.00037640921
0.0067333318 0.020074638 -0.04956381 -0.47779927 0.87774432 -0.035675749 0.00047496072
0.0089194356 0.021132609 -0.050813686 -0.44320288 0.89453894 -0.05806246 0.00067459524
0.011266495 0.022200486 -0.050133605 -0.43468642 0.90012628 -0.028644688 0.00047423816
0.013232366 0.023017185 -0.050045621 -0.4271903 0.90407991 -0.012166236 0.00026571125
0.0050093061 -0.067099191 -0.046850525 -0.51045966 -0.85978013 -0.014461108 0.00037452005
0.0063815517 -0.067871392 -0.047977883 -0.47824878 -0.87755936 -0.034171656 0.00032051466
-0.00027310013 -0.06347657 -0.045323003 -0.61993545 -0.78447735 -0.016596397 0.00017051942
0.0018949597 -0.065109819 -0.046369776 -0.57006812 -0.82159519 -0.0019376046 0.00013589778
-0.003735116 -0.06061624 -0.045410439 -0.67960417 -0.7335726 0.0030765913 0.00067171652
-0.0018944517 -0.062201779 -0.046893846 -0.63122874 -0.77553838 -0.0095158266 0.00012850072
-0.0066362177 -0.057643116 -0.047541004 -0.74376833 -0.66819543 -0.017985322 0.00033854882
-0.005400022 -0.058934301 -0.045253824 -0.72823501 -0.68532479 -0.0019334541 8.8566194e-05
-0.0095167421 -0.05428917 -0.047739968 -0.79200345 -0.61038709 -0.01257206 0.00036270751
-0.0082614291 -0.055774916 -0.046309665 -0.76715249 -0.64146471 -0.0003312437 0.0004200348
-0.010795309 -0.052443501 -0.046283707 -0.81604642 -0.57794434 -0.0069700051 0.00034948284
-0.012872875 -0.049236398 -0.046529062 -0.86194062 -0.50700903 -0.00033500657 0.00032297138
-0.011811223 -0.050967753 -0.047902998 -0.83734876 -0.54562455 -0.033776324 0.00056942704
-0.015004361 -0.045062784 -0.045234766 -0.89983582 -0.43616211 -0.0076218382 0.00010243362
-0.014289779 -0.046637923 -0.0467293 -0.89455652 -0.44690606 -0.0065983934 0.00019256212
-0.015769061 -0.043429051 -0.046881266 -0.92052525 -0.39062685 -0.0066326703 0.00023746374
-0.016905852 -0.040405903 -0.046295229 -0.945687 -0.32494634 -0.0092709623 0.00024189184
-0.018139847 -0.036291908 -0.046513125 -0.96510452 -0.26177222 -0.0069756452 0.00016487854
-0.017734075 -0.037823394 -0.046731085 -0.9622786 -0.27170968 -0.01392284 0.00017985668
-0.018564146 -0.034507614 -0.046614133 -0.97916478 -0.20296417 -0.0064695072 0.00015202141
-0.019075552 -0.031646851 -0.046443097 -0.98823291 -0.15291528 -0.0035421243 0.00041539303
-0.019427825 -0.028241038 -0.046880506 -0.99663717 -0.081776574 -0.0051810243 0.00016675443
-0.019570369 -0.025665328 -0.046398707 -0.99916553 -0.039936312 -0.0085656159 0.00018836428
-0.019664871 -0.022295052 -0.046267729 -0.99981481 0.013329522 -0.013883688 0.00024147506
-0.019547548 -0.019514361 -0.04657812 -0.99509823 0.09716469 -0.018398756 0.00035925279
-0.019044461 -0.016264208 -0.046425432 -0.98646629 0.16330104 -0.014731905 9.514796e-05
-0.018542808 -0.013324912 -0.046532538 -0.98086876 0.19445841 -0.00908159 0.0002322298
-0.018163906 -0.011660751 -0.04660435 -0.96322328 0.26864186 -0.0056837746 0.00037268561
-0.017749282 -0.010207293 -0.046438724 -0.95546877 0.29508123 -0.002544787 0.00019219179
-0.016808264 -0.0074433233 -0.046480805 -0.94341451 0.3315683 -0.0056267553 9.6812175e-05
-0.015662575 -0.0043821041 -0.0466341 -0.92375278 0.38265032 -0.016108146 0.00022117559
-0.01438685 -0.0015673796 -0.046400905 -0.89209151 0.45172989 -0.01062935 0.00042063487
-0.012795054 0.0013633008 -0.046392363 -0.8643297 0.50288045 -0.0067345984 0.00032424173
-0.011891365 0.0028459311 -0.046175528 -0.82931399 0.5587787 -0.0021746354 0.00016792252
-0.010740502 0.0045551551 -0.046661757 -0.82148492 0.57022995 0.00056973484 0.00015875568
-0.0093101561 0.0064595616 -0.046021461 -0.78649336 0.61759847 0.00048276296 0.00015702394
-0.0080312649 0.0080992952 -0.046496503 -0.75887203 0.65123928 -0.00085359189 0.00024150911
-0.0065436577 0.0097945193 -0.046249971 -0.72975606 0.68369955 -0.0033157968 0.00023694117
-0.0051620333 0.011191313 -0.046382774 -0.7017116 0.7124362 -0.0059503405 9.2805742e-05
-0.0037035034 0.012611988 -0.046264008 -0.68851155 0.72521776 -0.0033306791 0.0001126491
-0.0024155038 0.013786732 -0.045775604 -0.66453516 0.74724674 0.0039033105 0.00018839622
-0.00042860772 0.015414447 -0.046773352 -0.61378992 0.78946316 0.0031545358 0.00047269068
0.001636243 0.016924242 -0.045967657 -0.57441378 0.81849635 0.010615106 0.00027333593
0.0030914578 0.017943451 -0.047449991 -0.55129641 0.83410269 -0.018571792 0.00027634733
0.005150679 0.019209037 -0.046404462 -0.49908179 0.86651725 -0.0080771772 0.00039188706
0.0081583895 0.020836925 -0.047850341 -0.44235289 0.89665043 -0.018489616 0.00026781837
0.009577102 0.021515483 -0.047063824 -0.42939043 0.90296525 -0.016662367 0.00034559684
0.010415418 -0.069885284 -0.042734005 -0.44268951 -0.89666641 0.0039107017 0.00037620286
0.012176609 -0.070617512 -0.044505756 -0.4389883 -0.89848804 -0.0029060836 0.00030603274
0.0045369072 -0.06680426 -0.043775357 -0.5441379 -0.83891249 -0.011824477 0.00045946226
0.0071182884 -0.068269961 -0.043885846 -0.45941487 -0.88809961 0.014731813 0.00033262954
-0.00048248837 -0.063369863 -0.043172672 -0.61091781 -0.79162526 -0.010431763 0.00037830064
0.0010199999 -0.064461678 -0.043919943 -0.57799965 -0.81602752 -0.0039348868 0.00035826908
0.0032210334 -0.065965541 -0.043345314 -0.55008566 -0.83508056 -0.006805086 0.00052422204
-0.0035735273 -0.060809508 -0.042931404 -0.6711325 -0.74127328 -0.0097546326 0.00052081456
-0.0021244264 -0.062068749 -0.043846253 -0.63312048 -0.77391165 -0.014802448 0.00019983109
-0.0065928884 -0.057655577 -0.04347188 -0.74662346 -0.66524655 -0.00063430896 0.00017236979
-0.0052171294 -0.059126869 -0.04267253 -0.71786624 -0.69607896 -0.011919794 0.00038808575
-0.0093749249 -0.054394275 -0.043244779 -0.78516215 -0.61929023 -0.00030763334 0.00047371042
-0.0081391437 -0.055937827 -0.043900017 -0.76425034 -0.64488989 -0.0062045278 0.00046889359
-0.010733032 -0.052555878 -0.043755624 -0.81584382 -0.57827175 0.00087064848 0.00024467238
-0.012646474 -0.049641721 -0.043368418 -0.85852134 -0.51277286 0.0022555215 0.00036750728
-0.014203418 -0.046732903 -0.043313399 -0.8945325 -0.44699615 -0.0024592415 0.00015392675
-0.01571985 -0.043480013 -0.043718904 -0.91990006 -0.39214608 -0.0022870563 0.00023761066
-0.016845183 -0.04061877 -0.043199904 -0.94645697 -0.3228294 -0.00068315654 0.00030218682
-0.018105771 -0.036376446 -0.043193281 -0.96398813 -0.26593953 -0.001715984 0.00014997474
-0.017675621 -0.037922207 -0.043334674 -0.96109074 -0.27622446 -0.0021321343 0.00013594844
-0.018600088 -0.034347046 -0.04358561 -0.97834545 -0.20696683 -0.002200902 0.00025387987
-0.019148374 -0.031227306 -0.043359425 -0.98858631 -0.15058546 -0.0046051205 0.00052199
-0.019368323 -0.02858622 -0.043647196 -0.99460077 -0.1033789 -0.0090567386 0.00035554243
-0.019608991 -0.025469482 -0.043598246 -0.99897081 -0.044889428 -0.0065034945 0.00018157843
-0.019670907 -0.02247793 -0.04383767 -0.99990171 0.013452426 -0.0039507044 0.0002022002
-0.019552436 -0.019480858 -0.043379463 -0.99544001 0.095375575 -0.0016524351 0.0004138675
-0.019140905 -0.016757205 -0.043407924 -0.98593152 0.16709174 -0.0044012568 0.00014432223
-0.018630957 -0.013721594 -0.043520708 -0.97895533 0.20406455 -0.0020153534 0.00038827615
-0.018150097 -0.011673511 -0.043719348 -0.96159005 0.27448905 -0.00051057892 0.0003725485
-0.017619561 -0.0098741259 -0.043263964 -0.95711583 0.28968832 -0.0031682961 0.00031669735
-0.01678168 -0.0073821391 -0.043186851 -0.94455558 0.3283006 -0.0057759942 0.00013893202
-0.015699651 -0.0044597974 -0.043644082 -0.9264307 0.37638134 -0.0079498552 0.00016770887
-0.014366722 -0.0014392283 -0.043767504 -0.89659649 0.44274244 -0.0096862502 0.00037980388
-0.012830717 0.0013409851 -0.043452941 -0.85607994 0.51683873 -0.0022260484 0.00040829703
-0.011790748 0.0029862032 -0.04378064 -0.82455957 0.56577516 0.00022091799 0.00018208027
-0.010766492 0.0044876877 -0.043489467 -0.81358862 0.58141035 0.0059684557 0.00027244279
-0.0093629491 0.0063672489 -0.043206107 -0.80131161 0.59823859 0.0032007769 8.3091938e-05
-0.0082253991 0.0077977828 -0.043605328 -0.78093654 0.6246103 0.00038911516 0.0001593357
-0.0066300943 0.0097078495 -0.043602902 -0.74919778 0.66234297 -0.0021106703 0.00042020454
-0.0049660387 0.011392687 -0.04377228 -0.69736528 0.71667379 -0.0077642556 6.2732746e-05
-0.0034341908 0.012840555 -0.043429978 -0.66762865 0.7444939 -0.00094128418 0.00017340374
-0.0018549418 0.014254723 -0.043584693 -0.65548527 0.75520104 0.0032447756 0.00017125183
-0.00049150793 0.015355335 -0.044151165 -0.62846237 0.77783191 -0.0035571966 0.00026123572
0.001568491 0.016895631 -0.043074388 -0.57999986 0.81457984 0.0077307965 0.00018258282
0.0045893933 0.018890824 -0.043612219 -0.53538465 0.84459984 -0.0038031316 0.00060765754
0.0072703604 0.020390373 -0.043411031 -0.48752841 0.87309003 0.0054649366 0.00054555724
0.010300024 0.021837145 -0.043976665 -0.43616897 0.89984721 -0.0056216004 0.00041837862
0.00389113 -0.066452146 -0.041192017 -0.54340804 -0.83866566 0.036709528 0.00052746129
-0.00074243895 -0.063247159 -0.0411634 -0.61628544 -0.78669703 0.036055908 0.00073035125
0.0017555215 -0.064963162 -0.04152149 -0.57175952 -0.82042104 -0.0005456385 7.8633973e-05
-0.0040771961 -0.060407642 -0.040735271 -0.69198811 -0.72189438 0.0045633377 0.00061386265
-0.001517062 -0.062616162 -0.041819964 -0.62325698 -0.78193504 -0.011330463 0.0005199982
-0.0066390852 -0.057643648 -0.03965247 -0.74831027 -0.66174966 0.04603491 0.00061559689
-0.0050883237 -0.059305813 -0.04025507 -0.71729362 -0.69555587 0.041131932 0.0011964213
-0.0091735432 -0.054755986 -0.040509358 -0.79520571 -0.60492891 0.041338667 0.00058694667
-0.0080439867 -0.056095026 -0.041564964 -0.76214665 -0.64719051 0.016642602 0.00062516419
-0.010800491 -0.052480023 -0.04102559 -0.82336098 -0.56609029 0.040229701 0.00052206503
-0.012949184 -0.04915493 -0.040568598 -0.86158401 -0.50635087 0.035801407 0.00067572971
-0.011868464 -0.05086438 -0.039944585 -0.83011454 -0.55468619 0.056860831 0.00055209466
-0.014448036 -0.046277571 -0.040731203 -0.89902371 -0.43708503 0.026702924 0.00033453049
-0.015650658 -0.043758336 -0.040745053 -0.91877156 -0.39357615 0.030928956 0.00043922145
-0.016895553 -0.040566269 -0.040726896 -0.94459695 -0.32562387 0.041300837 0.00052165077
-0.018117428 -0.03645711 -0.040008657 -0.96620238 -0.25374222 0.045473006 0.00058591814
-0.017760957 -0.037658863 -0.040370248 -0.958184 -0.28211069 0.047926243 0.00053040584
-0.018576397 -0.034559947 -0.040535815 -0.97832304 -0.20352171 0.038247298 0.00050348521
-0.019122954 -0.031501137 -0.040629208 -0.98884076 -0.14552386 0.03188616 0.00059556862
-0.019428719 -0.028488083 -0.040727574 -0.99665457 -0.075643286 0.030948203 0.0003346428
-0.019707162 -0.025353916 -0.04083734 -0.99869436 -0.043870475 0.026172247 0.00050580793
-0.0196849 -0.022685092 -0.040847864 -0.99957657 0.012864665 0.026099563 0.00028777859
-0.019538436 -0.019457772 -0.041154031 -0.99583113 0.087295383 0.026455648 0.00045151019
-0.019115031 -0.016438467 -0.040598921 -0.98618972 0.16450065 0.019218983 0.00015596865
-0.018580023 -0.01342342 -0.040704619 -0.9778136 0.20922777 0.010215814 0.00045252457
-0.018120794 -0.011410408 -0.04074169 -0.96133143 0.27508742 0.012991887 0.00039881733
-0.017642494 -0.0098561989 -0.040887825 -0.95846182 0.28491461 0.013214522 0.00039911174
-0.016896281 -0.0075929598 -0.040268354 -0.94403547 0.32938367 0.017422102 0.00017458484
-0.015837269 -0.0047630444 -0.040535424 -0.92837739 0.37149855 0.010210783 0.00026337962
-0.015094051 -0.0029358405 -0.040322378 -0.91668695 0.39960253 -0.0016408777 0.00076315401
-0.014344311 -0.0012902875 -0.040695567 -0.89568579 0.44462201 0.0076327217 0.00057268573
-0.012884166 0.0013138977 -0.040539563 -0.8613416 0.50792092 0.01034231 0.00044081913
-0.010754979 0.0044722459 -0.040725723 -0.81792772 0.57511443 0.015417644 0.0001456578
-0.0094052758 0.0062763677 -0.040316429 -0.79050428 0.61182523 0.027801426 0.00016048973
-0.0081973402 0.0078845406 -0.040696174 -0.77105296 0.6360324 0.030662619 0.0003729302
-0.0065247021 0.0098787406 -0.041253533 -0.73634279 0.67650521 0.011837315 0.00075053284
-0.0051036198 0.011297391 -0.041297987 -0.70513248 0.70889336 0.016077979 0.00054695812
-0.0038855625 0.012457333 -0.041063689 -0.68635172 0.72723138 0.007469546 0.00020969217
-0.0018332377 0.014230312 -0.040460788 -0.64967406 0.75980437 0.024918677 0.00015527876
-0.00013032144 0.015624036 -0.041052215 -0.62335002 0.78187317 0.010441674 0.00026308696
0.0017241463 0.016909547 -0.039730385 -0.57833934 0.81556565 0.01939619 0.0001951865
0.0045198668 0.018838935 -0.041044258 -0.54054576 0.84107143 0.020226255 0.00025954569
0.0011908863 -0.064229906 -0.03667919 -0.58313751 -0.80916923 -0.072082482 0.0010181126
0.0031093592 -0.065458514 -0.03615123 -0.57739204 -0.81626028 0.018374419 0.0010470434
-0.0017598012 -0.061889619 -0.036794361 -0.64898491 -0.75991827 0.036644347 0.0014529749
-0.0092607308 -0.054309402 -0.038778499 -0.78804272 -0.61253387 0.061571147 0.00063298875
-0.0071295332 -0.056466475 -0.036313698 -0.75920957 -0.65075547 0.010868055 0.0020763052
-0.010336013 -0.052534562 -0.037148062 -0.82307053 -0.56542915 0.053337015 0.0010643093
-0.01234233 -0.049381509 -0.036446359 -0.85234004 -0.52078569 0.047945932 0.0017255557
-0.011882526 -0.05042256 -0.03791086 -0.84837079 -0.52769828 0.042444009 0.0016501868
-0.01412943 -0.046511423 -0.037781268 -0.88697982 -0.45956451 0.045467727 0.000892493
-0.015673202 -0.043053597 -0.037160531 -0.91832811 -0.39325127 0.045021728 0.00039330142
-0.014799313 -0.044915289 -0.036012333 -0.89664781 -0.4425109 0.014382848 0.0008381115
-0.016677972 -0.040401645 -0.037525009 -0.95080268 -0.30651227 0.044994541 0.00075537665
-0.017486235 -0.037464526 -0.036850709 -0.96139699 -0.27311027 0.033566114 0.0011561475
-0.018386435 -0.034179024 -0.037225716 -0.9735868 -0.22317113 0.048202291 0.00070860807
-0.017877946 -0.0359856 -0.036903355 -0.97402334 -0.22380672 0.034483638 0.0012700513
-0.018938262 -0.031548925 -0.037499715 -0.98614186 -0.16134118 0.03864415 0.0010224851
-0.019209888 -0.028515207 -0.037679106 -0.99299532 -0.11180927 0.038196106 0.00071051728
-0.019411661 -0.025345501 -0.036806367 -0.99905294 -0.042720728 0.0082557295 0.0012393887
-0.019438272 -0.022174636 -0.036910567 -0.99976325 0.017989149 0.012240545 0.00092167064
-0.019464336 -0.019612478 -0.038304038 -0.99547327 0.089509949 0.031952005 0.00032249902
-0.018990016 -0.016387092 -0.03755483 -0.99092484 0.13044302 0.032443713 0.00075301802
-0.018411925 -0.013255945 -0.037507076 -0.97878247 0.20328383 0.025701633 0.00031450432
-0.017709099 -0.010577195 -0.037344839 -0.96074253 0.27661735 0.021367637 0.00039540231
-0.016725184 -0.0075219334 -0.037198152 -0.94514966 0.32580239 0.023345202 0.00012061384
-0.015540656 -0.0042087613 -0.037736185 -0.929268 0.36883107 0.020606786 0.00015188828
-0.014331758 -0.0014110733 -0.037469208 -0.89685655 0.44199643 0.016953044 0.00053643575
-0.012709284 0.0014007137 -0.037272025 -0.84630328 0.5323385 0.019660119 0.00043278217
-0.011781051 0.0027916778 -0.037539039 -0.83045596 0.55672354 0.020044928 0.00074541388
-0.010573605 0.0044976985 -0.03731456 -0.80871016 0.58766609 0.025228234 0.00034544853
-0.0092013972 0.0062469221 -0.036506392 -0.78964204 0.61310023 0.023950325 0.00054591836
-0.0085753305 0.0070424373 -0.037354577 -0.78029686 0.62456506 0.032485709 0.0003509516
-0.0065691667 0.0093890289 -0.036375768 -0.7597509 0.64948505 -0.030785205 0.00030362446
-0.0052101472 0.011005557 -0.037685268 -0.70163226 0.71169448 0.034685962 0.00042797037
-0.0038054627 0.012428758 -0.037828501 -0.69241983 0.72075278 0.032714993 0.00055060792
-0.0027794391 0.013134622 -0.03630266 -0.65808702 0.75287604 0.0099523878 0.00075340719
-0.00027231718 0.015341387 -0.037663158 -0.61742425 0.78593862 0.032982185 0.00049898296
0.0025243366 0.017240452 -0.036145251 -0.57375336 0.81896621 0.010070777 0.00061128102
0.0104602 -0.069618978 -0.033474997 -0.43294081 -0.90101045 -0.027248047 0.00054217729
0.0046820277 -0.066647366 -0.03438789 -0.51359463 -0.85596848 -0.059485331 0.00070901465
0.0079208259 -0.068349853 -0.03397166 -0.47683752 -0.87758726 -0.049665149 0.00075954158
-0.00017185972 -0.063248217 -0.034388643 -0.60774791 -0.79131186 -0.06684351 0.0013297427
0.0017533377 -0.064621106 -0.03384478 -0.58334857 -0.80917764 -0.070257619 0.00097888743
0.0031981401 -0.06564793 -0.033934619 -0.55586308 -0.8299998 -0.0460063 0.00049529184
-0.0034302829 -0.060565945 -0.033869535 -0.67471248 -0.73401988 -0.077317163 0.00050003908
-0.0020051363 -0.061755817 -0.034058418 -0.64455056 -0.76100725 -0.073638514 0.0015583334
-0.0064003323 -0.05766188 -0.034077059 -0.73754495 -0.67002821 -0.084199898 0.0008633266
-0.004943945 -0.059020728 -0.034309167 -0.71001923 -0.69738078 -0.097635314 0.00058829575
-0.0092012295 -0.054022387 -0.034428272 -0.79018271 -0.61223084 -0.028014174 0.0014738044
-0.0079390304 -0.055679161 -0.034279592 -0.76948565 -0.63432366 -0.074332364 0.00068372418
-0.01044488 -0.052374456 -0.034519654 -0.80682188 -0.58919525 -0.043445792 0.0010378285
-0.012663399 -0.049200058 -0.034446564 -0.85991293 -0.50991207 -0.023223344 0.0013695253
-0.011866085 -0.050597593 -0.034687024 -0.83951449 -0.54206663 -0.037138872 0.0025654917
-0.013989397 -0.046529304 -0.0341358 -0.8898555 -0.4549821 -0.033890545 0.00071001629
-0.015573231 -0.043293603 -0.034613129 -0.91845852 -0.39485899 -0.02281365 0.00054040062
-0.016615808 -0.040512092 -0.034228429 -0.94857192 -0.31485716 -0.03280567 0.00052950042
-0.018037191 -0.03607627 -0.033097666 -0.96666235 -0.25170782 -0.04697929 0.00020057839
-0.017504167 -0.037584446 -0.034721777 -0.9619863 -0.26877537 -0.048396513 0.00042431842
-0.018348681 -0.034377594 -0.034312446 -0.97545373 -0.2154351 -0.045582283 0.00056135771
-0.01882836 -0.031831894 -0.034599688 -0.9848603 -0.170013 -0.033848424 0.0007753548
-0.019235281 -0.028542852 -0.034441996 -0.99260265 -0.11727004 -0.031426173 0.00070082303
-0.019471576 -0.025726821 -0.034893848 -0.99902725 -0.043293849 -0.0083848434 0.0012661036
-0.019541407 -0.022439891 -0.03453039 -0.99865323 0.042223081 -0.030149402 0.0013603228
-0.01929746 -0.019265475 -0.034562651 -0.9932487 0.11433948 -0.019582691 0.001187874
-0.018973876 -0.016678678 -0.034252793 -0.98533052 0.17009783 -0.013799408 0.00046822222
-0.01844432 -0.013661494 -0.034241654 -0.97745538 0.21014759 -0.020467995 0.0004172656
-0.01802356 -0.011570579 -0.033044398 -0.96155298 0.27362064 -0.023399482 0.00039904748
-0.0176444 -0.010402564 -0.034529261 -0.96030569 0.27806455 -0.02220575 0.00036997409
-0.016690014 -0.007449151 -0.034270365 -0.94714952 0.32034934 -0.016855707 0.00022099612
-0.015546484 -0.0043509956 -0.034510817 -0.9293592 0.36887136 -0.015014761 0.00018769426
