# .PCD v0.7 - Point Cloud Data file format
VERSION 0.7
FIELDS x y z normal_x normal_y normal_z curvature
SIZE 4 4 4 4 4 4 4
TYPE F F F F F F F
COUNT 1 1 1 1 1 1 1
WIDTH 546
HEIGHT 1
VIEWPOINT 0 0 0 1 0 0 0
POINTS 546
DATA ascii
0.079875529 -0.022508379 -0.073720932 0.99746865 0.060230024 0.037796494 0.00060843455
0.079613842 -0.019605562 -0.073474608 0.99486643 0.09207806 0.041980881 0.0005608194
0.07923194 -0.016683066 -0.073716424 0.98450112 0.17000832 0.043066718 0.00024339158
0.078615241 -0.013534264 -0.073589817 0.97437328 0.21954122 0.048972029 0.00039628413
0.077710681 -0.010123725 -0.073638342 0.95831597 0.28397605 0.031434231 0.00024332221
0.07814312 -0.011412024 -0.074027225 0.96083403 0.27453154 0.037821203 0.00030067918
0.076842777 -0.0075247022 -0.073408626 0.94252157 0.33144125 0.042425759 0.00017486446
0.075726762 -0.0045907539 -0.073918954 0.91989672 0.39097863 0.03042582 0.00024541395
0.074309468 -0.0015748281 -0.073375367 0.89672321 0.44123703 0.034603201 0.00024246745
0.072746985 0.0013707647 -0.074694373 0.86413515 0.50251758 0.027322454 0.0002648519
0.071214922 0.0038359917 -0.07454522 0.82882363 0.55894494 0.025142727 0.00026015766
0.017512202 -0.072123893 -0.069658808 -0.28756079 -0.95775592 -0.0035224892 0.0019591055
0.019459872 -0.072589174 -0.070359245 -0.22803088 -0.9736535 0.00091121771 0.0015983299
0.022476064 -0.073174454 -0.070359565 -0.17813325 -0.98396903 0.0085646659 0.0016893445
0.02551844 -0.073563069 -0.070391715 -0.055833895 -0.99843216 0.0039613419 0.0018177968
0.02858839 -0.073702328 -0.070483297 -0.0033289469 -0.99998957 -0.0031222198 0.0020712116
0.031491872 -0.07371138 -0.070328049 0.015642609 -0.99961531 -0.022902815 0.0018108445
0.034523539 -0.073543012 -0.070450939 0.090325117 -0.99559289 -0.025222106 0.0021455826
0.03753775 -0.073187828 -0.070421644 0.1748046 -0.98460037 -0.0023451739 0.0018931823
0.040575001 -0.072669066 -0.070522025 0.21444188 -0.97673678 -0.00012743633 0.0017134201
0.042654235 -0.072177552 -0.07049986 0.27470624 -0.96152461 -0.0026286233 0.0017775215
0.011060552 -0.069887131 -0.070607252 -0.41289762 -0.91077179 0.0032124431 0.0012760079
0.013589896 -0.070835799 -0.070695587 -0.324673 -0.94579858 0.0072484096 0.0016157615
0.016037246 -0.071651749 -0.070332699 -0.27542639 -0.96132219 0.00027227143 0.0021951864
0.044128817 -0.071762018 -0.070384324 0.25985309 -0.96564233 -0.0033392815 0.0018647462
0.046504345 -0.071008451 -0.070360437 0.31635454 -0.94863284 -0.0039374158 0.0015450964
0.049486242 -0.069867104 -0.070333257 0.39308295 -0.91950297 0.00030776675 0.0018017032
0.051123202 -0.069161601 -0.070923142 0.45813999 -0.88887495 0.0030355772 0.0018765015
0.0058296565 -0.067274094 -0.071288928 -0.46949199 -0.88203013 0.040001567 0.0016506922
0.0075604971 -0.068194926 -0.070313014 -0.47400051 -0.87992239 -0.032560665 0.001072389
0.0091016125 -0.068959013 -0.069891661 -0.42578211 -0.90465862 -0.017388035 0.0019506461
0.052684076 -0.068354025 -0.07045681 0.45050839 -0.8927657 0.0034125831 0.0017531732
0.055431779 -0.066855609 -0.07038106 0.51193124 -0.85902554 -0.0012683704 0.0021638344
0.0036665327 -0.065908723 -0.07014633 -0.53450537 -0.84515959 0.0030302033 0.0019469104
0.056943998 -0.065930821 -0.070703439 0.57293743 -0.81959647 -0.0020988446 0.0020306089
0.058540203 -0.064832717 -0.070428066 0.56091017 -0.82787138 -0.0029663446 0.0020757585
0.060497828 -0.063385651 -0.070512518 0.62353247 -0.78179729 -0.00054893061 0.0019141847
0.061989337 -0.062231183 -0.070465401 0.61816174 -0.78605002 -0.0011873934 0.0017578207
0.063716874 -0.060752314 -0.070458844 0.65813333 -0.75289381 -0.0034015826 0.0016582862
0.065202616 -0.059266549 -0.070485339 0.72381777 -0.68997645 -0.0045040515 0.0011433553
0.066692725 -0.057767041 -0.070469834 0.74857694 -0.66304797 -0.00024717898 0.0013138067
0.068217844 -0.056107134 -0.070536569 0.74193352 -0.67046434 0.0034955468 0.0012158653
0.069387443 -0.054583348 -0.070499703 0.78166157 -0.623685 0.0047017001 0.0015487532
0.070822984 -0.052569132 -0.07040596 0.83013791 -0.55755079 0.0028539193 0.0016250872
0.071954541 -0.050879627 -0.070339411 0.82442147 -0.56597489 0.0013333233 0.0016134155
0.072841898 -0.049457435 -0.070420817 0.85841691 -0.51294982 0.001662016 0.0016275216
0.074347459 -0.046737082 -0.070524208 0.89002699 -0.4559074 -0.00067205884 0.0011997804
0.075095192 -0.045248859 -0.070232689 0.88890553 -0.4580887 0.0012875821 0.0014186141
0.075877234 -0.043569472 -0.070543379 0.92054027 -0.39064732 0.0005672985 0.0010621964
0.077026315 -0.040532436 -0.070400231 0.94430119 -0.32906857 0.0030110732 0.00082490413
0.07776659 -0.038331907 -0.070635803 0.96052897 -0.27813986 0.0047192657 0.00086722418
0.078225218 -0.036843095 -0.070330672 0.96041423 -0.2784026 0.0098191993 0.00070392247
0.078795575 -0.034544528 -0.070443757 0.97601092 -0.21758699 0.0076548434 0.00074541382
0.079339743 -0.031555377 -0.070562281 0.98739225 -0.15819511 0.0055522481 0.0010386489
0.079624549 -0.028522262 -0.070711598 0.99748075 -0.070610441 0.0068144477 0.00028741118
0.079743408 -0.025505437 -0.070739269 0.99992526 0.01145089 0.0042752582 0.0011653558
0.079669133 -0.022479611 -0.070496373 0.99868822 0.050605297 -0.0078115612 0.00078765478
0.079429217 -0.019625345 -0.070316456 0.9965443 0.082911558 0.0050154775 0.0011367382
0.079023972 -0.016629912 -0.070504308 0.98504442 0.17225967 0.0037600785 0.00080918125
0.078480132 -0.013647871 -0.070455723 0.97588414 0.21828313 -0.001623621 0.0013209382
0.077541597 -0.010266761 -0.070563771 0.95774776 0.28760934 -0.00041428974 0.0014526335
0.078051902 -0.011707469 -0.069373563 0.95604956 0.29320404 0.00076545356 0.0014378388
0.076601751 -0.0073992386 -0.07013125 0.9410007 0.33829314 -0.0086854966 0.0012326537
0.074925289 -0.003143288 -0.070239931 0.91366553 0.40612867 0.016576653 0.0014220044
0.075751983 -0.0049781464 -0.070432246 0.91963196 0.39275146 -0.0048404946 0.00089369086
0.074249625 -0.0016863989 -0.070695423 0.88135791 0.47233251 -0.010499168 0.0011913038
0.071553878 0.0027604843 -0.07029108 0.85329419 0.52142859 -0.0011037033 0.0014570536
0.073195338 0.00039919539 -0.070183545 0.86978084 0.49332157 0.010726199 0.00094400754
0.070021398 0.0051166802 -0.069753081 0.83000791 0.55775166 -0.00021663069 0.000877121
0.016859401 -0.072178043 -0.067286246 -0.263933 -0.96277457 -0.058348514 0.00035979549
0.019378165 -0.072792575 -0.067482546 -0.21825869 -0.97426873 -0.05624615 9.077906e-05
0.022499399 -0.073441163 -0.067485452 -0.17556162 -0.98229128 -0.065436825 0.00041816942
0.025490096 -0.073794827 -0.067450665 -0.089401923 -0.99451101 -0.054362692 0.00027907058
0.028526416 -0.0739507 -0.067605741 -0.035599384 -0.9985534 -0.040296841 0.00106714
0.031595409 -0.074062169 -0.067595661 0.035278831 -0.996499 -0.0757965 0.00082155148
0.0344791 -0.073910929 -0.067649662 0.088384792 -0.99526024 -0.040560339 0.0018636348
0.037417144 -0.073485821 -0.067537256 0.16615638 -0.98318887 -0.075707689 0.00044648434
0.040511865 -0.072932541 -0.067477718 0.21048921 -0.9753809 -0.065775566 0.00015412788
0.043101441 -0.072323799 -0.067430548 0.25547594 -0.96490711 -0.060714923 0.00013225821
0.0087574879 -0.069053352 -0.066017799 -0.45738912 -0.88863719 -0.033452999 0.00024403039
0.010486831 -0.069865324 -0.067761593 -0.40973696 -0.91081423 -0.050330698 0.00028333237
0.013419065 -0.071041279 -0.067703567 -0.32642844 -0.94240683 -0.072897129 0.00029757878
0.015662061 -0.071829066 -0.067679569 -0.28970245 -0.95489341 -0.065200381 0.0001441979
0.044542078 -0.071873814 -0.067820251 0.27991015 -0.95807499 -0.061176591 0.00017667048
0.046588372 -0.071258634 -0.067488663 0.33595693 -0.93991947 -0.060699455 0.00031994935
0.049466774 -0.070128851 -0.0674183 0.38188431 -0.92271692 -0.05251589 0.000236362
0.051468097 -0.069224581 -0.067478724 0.43939579 -0.8966732 -0.053929612 0.00042428606
0.0049671638 -0.066966198 -0.067690738 -0.51236874 -0.85748035 -0.046964608 0.00064735068
0.0075950562 -0.068413489 -0.067847982 -0.45917848 -0.88726467 -0.043778863 0.00015465368
0.052979406 -0.068476781 -0.067689061 0.46164057 -0.88528365 -0.056221645 0.00023385051
0.055536002 -0.067061864 -0.067495883 0.50104272 -0.8632499 -0.06128452 0.00022439148
0.057221796 -0.066101827 -0.066724896 0.54857928 -0.83373034 -0.06288556 0.00019175559
-0.00061492051 -0.063236512 -0.067206129 -0.55829799 -0.82844222 -0.044575501 0.00010541554
0.0012005315 -0.064408734 -0.067857206 -0.55830139 -0.82843679 -0.044632539 0.00010312019
0.0030364955 -0.065781988 -0.066733852 -0.53646404 -0.84284675 -0.042611424 0.0004253076
0.058615189 -0.065082513 -0.067564361 0.57154423 -0.81811893 -0.063392989 0.0001688966
0.060767181 -0.063558914 -0.067428455 0.61346084 -0.78733861 -0.061349507 0.00037183019
-0.0016807658 -0.062397871 -0.067748897 -0.55829799 -0.82844222 -0.044575501 0.00010541554
0.062213875 -0.062336121 -0.067660339 0.65175515 -0.75623691 -0.057627905 0.00038847074
0.063943185 -0.060842536 -0.067385584 0.68442947 -0.72701168 -0.054866977 0.00034383137
0.065409288 -0.059385922 -0.067670271 0.71793091 -0.69419891 -0.051604509 0.00028051983
0.06680683 -0.057931717 -0.067500517 0.72930014 -0.68249637 -0.048167661 0.00018710109
0.068279527 -0.056206953 -0.06754633 0.75545937 -0.65354693 -0.046448387 0.00029045559
0.06958738 -0.054672316 -0.067574739 0.7878691 -0.61391151 -0.048733663 0.00022044676
0.071115553 -0.052538332 -0.067555502 0.82242548 -0.56628716 -0.054177672 0.00017063596
0.072102092 -0.051128369 -0.066870339 0.83622861 -0.5457601 -0.053550217 0.00024184455
0.073045447 -0.04950998 -0.067527153 0.86275291 -0.50307477 -0.050726965 0.00010274812
0.074433975 -0.046995495 -0.067568019 0.88571388 -0.46174985 -0.047937341 0.00046002166
0.075168982 -0.045586903 -0.067354664 0.89709044 -0.4396449 -0.044058397 0.00042703399
0.076035112 -0.043540966 -0.067509592 0.92280775 -0.38297763 -0.041880175 0.0001250593
0.077240579 -0.040481567 -0.067520298 0.94232315 -0.33222932 -0.040630795 0.00024668468
0.077874556 -0.038422808 -0.067593336 0.95927876 -0.28007564 -0.036631342 9.4913608e-05
0.078267679 -0.037018176 -0.067418724 0.96499592 -0.26039815 -0.031234447 0.00020623572
0.078876413 -0.034543432 -0.067440972 0.97674966 -0.21258932 -0.027672704 0.00012740529
0.079435855 -0.03152601 -0.067732543 0.98734909 -0.15650477 -0.025457621 0.00057853101
0.079744272 -0.028490631 -0.067554653 0.9972384 -0.070698768 -0.022742001 0.000203784
0.079874858 -0.025644386 -0.067654558 0.99947214 -0.015803734 -0.028384073 0.00016777882
0.079834409 -0.022487899 -0.067587152 0.99817091 0.048640672 -0.035902105 0.00020257375
0.079556987 -0.019354729 -0.067478955 0.99163914 0.12138095 -0.043800376 0.00025437685
0.079197444 -0.016456692 -0.067572393 0.98534697 0.16510402 -0.042800725 0.00030968702
0.078640491 -0.01352442 -0.067564957 0.97692031 0.20923063 -0.04300357 0.00032632815
0.077745706 -0.010193014 -0.067718878 0.95343453 0.29758722 -0.049036067 0.00020416481
0.078161411 -0.011474989 -0.06717632 0.96209145 0.26874173 -0.046453394 0.00022519463
0.076904528 -0.0075331149 -0.067546129 0.94382226 0.32736537 -0.045072477 0.0001826736
0.075829148 -0.0046515777 -0.067518286 0.92219692 0.38412362 -0.044743251 0.00034394077
0.074286722 -0.0015074335 -0.067489088 0.88903606 0.45703927 -0.027018756 0.0002315641
0.071610548 0.0029563708 -0.068785146 0.83779866 0.54433531 -0.042338807 0.00074474938
0.072693765 0.0013390081 -0.067467332 0.86049056 0.50803798 -0.038124748 0.00031888002
0.071044773 0.0039505223 -0.067753121 0.82786006 0.55994761 -0.03326406 0.00027509392
0.068605036 0.0073704505 -0.066992119 0.82634902 0.56310058 -0.0080582481 0.00070141384
0.016781075 -0.072266117 -0.064561412 -0.26218677 -0.9648478 -0.018077867 0.0001511007
0.019550947 -0.072929241 -0.064387485 -0.21823518 -0.97573501 -0.017737294 0.00017550764
0.022501426 -0.073536761 -0.064479612 -0.17501467 -0.98443872 -0.015819516 0.00055365235
0.025418311 -0.073955484 -0.064380936 -0.097059049 -0.99500227 -0.023452124 0.00036019538
0.028364306 -0.074112006 -0.064507082 -0.054786395 -0.99827129 -0.021280916 0.00039171113
0.031336389 -0.074164443 -0.064521164 0.015227246 -0.99935001 -0.03267315 0.0004831765
0.034525428 -0.074042931 -0.06458585 0.086546242 -0.99573535 -0.031951971 0.0005537062
0.037531573 -0.073662885 -0.064567432 0.15443173 -0.98734462 -0.036076389 0.00042611
0.040494744 -0.073083475 -0.064448752 0.2157682 -0.97606575 -0.027197307 0.00014135294
0.043397494 -0.072343461 -0.064519465 0.26142615 -0.96489966 -0.025000559 0.00016503033
0.0087150242 -0.069057621 -0.063826099 -0.44804892 -0.89393646 -0.011389097 5.4956295e-06
0.010227445 -0.069786273 -0.064107686 -0.42009979 -0.90747017 -0.0037406429 0.00013153967
0.013361759 -0.071193382 -0.064438269 -0.35783851 -0.93364388 -0.01614565 0.00026796819
0.0153284 -0.071852103 -0.064093575 -0.28663269 -0.95784748 -0.019236498 0.00028301173
0.044753522 -0.071956731 -0.064748108 0.28273097 -0.95898551 -0.020250678 0.00036916602
0.046433114 -0.071393237 -0.064480163 0.33917767 -0.94052452 -0.019291798 0.00016250982
0.049657434 -0.070156775 -0.064483419 0.38392425 -0.92319411 -0.017742652 8.4154861e-05
0.05159831 -0.069273725 -0.064544193 0.43642199 -0.89953351 -0.01937492 0.00024230528
0.0046693948 -0.066969968 -0.064696133 -0.49123123 -0.87087131 -0.016584508 0.00029303774
0.0074613867 -0.068483457 -0.064717174 -0.4596034 -0.88792706 -0.018719546 3.9552539e-05
0.053018551 -0.068580844 -0.064563766 0.46025866 -0.88749671 -0.022617476 0.00021459931
0.055554815 -0.067199908 -0.06452021 0.50091892 -0.86524242 -0.02087442 0.00021747862
0.057268403 -0.066177204 -0.06433405 0.55210835 -0.83350873 -0.020969756 0.00034642272
0.00063925015 -0.064259663 -0.064661726 -0.5628038 -0.82624656 -0.023840507 0.00017648946
0.058772009 -0.065140404 -0.064577483 0.57376969 -0.81881613 -0.018124107 0.00017940902
0.060778618 -0.063651308 -0.064423643 0.6169067 -0.78677237 -0.020380104 0.00039088831
0.06232363 -0.062399343 -0.064511478 0.6567803 -0.75383574 -0.019269558 0.0001846857
0.063950263 -0.060954049 -0.064514548 0.67219055 -0.74004704 -0.022141056 0.00011065031
0.065413825 -0.059515778 -0.064468071 0.70326036 -0.7106452 -0.02020354 7.9386737e-05
0.066890009 -0.057988066 -0.064489782 0.73240501 -0.68051767 -0.021877224 0.00023382307
0.068389855 -0.056285415 -0.064607635 0.75674069 -0.65346134 -0.018215667 0.00014091773
0.069598578 -0.054781027 -0.064528815 0.78788126 -0.61560774 -0.01643792 0.00035438527
0.071102493 -0.052768074 -0.064489931 0.82278359 -0.56824392 -0.011225881 0.00025534705
0.072128117 -0.051205985 -0.064406961 0.83590281 -0.54870957 -0.013579437 0.000286806
0.073134325 -0.049505454 -0.064524218 0.86383897 -0.50356084 -0.014448987 1.0759432e-05
0.074500695 -0.047069475 -0.06451945 0.88708723 -0.46138129 -0.014266873 0.00042949614
0.07525745 -0.045541119 -0.06450031 0.89846176 -0.43877172 -0.015683783 0.00039166978
0.076194167 -0.043435048 -0.064476572 0.92381018 -0.38258943 -0.01413974 0.00018610535
0.077287801 -0.040526293 -0.064534098 0.942985 -0.33250156 -0.014901555 0.00018475967
0.077881493 -0.038703889 -0.064590208 0.96063918 -0.27746966 -0.013522186 0
0.078333125 -0.037141629 -0.064486198 0.96629387 -0.25713488 -0.012561574 6.5889464e-05
0.078974895 -0.0345219 -0.064435877 0.97787064 -0.20897472 -0.0099319704 0.00024957056
0.079485074 -0.03151409 -0.064738639 0.98816329 -0.15330718 -0.0054926169 0.00045123184
0.079762645 -0.02864076 -0.064631484 0.99720389 -0.074281678 -0.0081536453 2.4843839e-05
0.079916626 -0.025514269 -0.06457413 0.99965042 -0.022645049 -0.013652342 0.0001327307
0.079920776 -0.022493258 -0.064678617 0.99886286 0.043655239 -0.019160826 0.00022904642
0.079688922 -0.01954834 -0.064388901 0.99427986 0.10410582 -0.023866253 0.00011475201
0.079274483 -0.016568052 -0.064424224 0.98575503 0.16708295 -0.019244485 0.00033043802
0.078749247 -0.013671211 -0.06454809 0.97611338 0.21683455 -0.013616663 0.00022855742
0.077756755 -0.0099534318 -0.06445992 0.95682281 0.29050052 -0.0099771488 8.3409279e-05
0.078215979 -0.011457223 -0.064526767 0.96154952 0.27434778 -0.01247742 9.3977207e-05
0.076967955 -0.0075552743 -0.064291216 0.94351143 0.33118722 -0.010059938 0.00012978604
0.075890906 -0.004726964 -0.064488046 0.92256105 0.38581935 -0.0049537802 0.00032509063
0.074405886 -0.001533304 -0.064150922 0.88578242 0.46387568 -0.014448226 0.00025194418
0.075108372 -0.0029264959 -0.064588413 0.90531373 0.42434707 -0.018345892 0.0007765136
0.072908722 0.0011121882 -0.0647645 0.86695647 0.49756801 -0.02850646 0.000156754
0.071729131 0.0031182773 -0.064978555 0.84597659 0.53245097 -0.028629528 0.00046432021
0.017067181 -0.07236743 -0.061399821 -0.27058274 -0.96266907 -0.0073027941 0.00027552419
0.019513736 -0.07296598 -0.061420735 -0.21849373 -0.97580785 -0.0077180336 0.00033559449
0.022507597 -0.073487148 -0.061560314 -0.17559561 -0.98444796 -0.0053197597 0.00029294295
0.025607677 -0.073908478 -0.061457634 -0.10477282 -0.99448407 0.0049187704 0.00038936295
0.028473746 -0.074149273 -0.061405376 -0.032958243 -0.99944204 0.005415766 0.00029464799
0.031533368 -0.07413353 -0.061473686 0.0037108979 -0.99999273 0.00094247726 0.00067693571
0.03451623 -0.073978178 -0.061524399 0.077782907 -0.99693757 0.0080840243 0.00021263803
0.037516616 -0.073651463 -0.061432358 0.16543508 -0.98620957 -0.0046792985 0.00084415707
0.04050453 -0.073118642 -0.061502494 0.22439469 -0.97443902 -0.010751698 0.00039585409
0.043270804 -0.072411492 -0.061414335 0.27234057 -0.96217322 -0.0072972933 0.00010110247
0.0086080702 -0.069037504 -0.060114093 -0.45337299 -0.89128959 -0.007474672 0.00014232735
0.010489678 -0.069951184 -0.061101388 -0.41751349 -0.908584 -0.012560556 0.00019131327
0.013378426 -0.071184359 -0.061499715 -0.3519299 -0.93600053 -0.0069549195 0.00050188415
0.015467945 -0.071856253 -0.060990635 -0.28625402 -0.95814717 -0.0035651673 8.0434227e-05
0.044808798 -0.071949072 -0.061939418 0.28381535 -0.95887548 -0.0025964635 0.00016588571
0.046494156 -0.071377881 -0.061579637 0.33115977 -0.94356221 -0.0048505538 0.00011541544
0.049465235 -0.070229337 -0.061557289 0.38444513 -0.92311126 -0.0082135182 0.000219607
0.051598769 -0.069327302 -0.061547633 0.4388265 -0.89853507 -0.008133688 0.00038714384
0.0051828353 -0.067249179 -0.061389223 -0.4859142 -0.87400609 -0.0008847203 0.00033580948
0.0072477693 -0.068326816 -0.061608113 -0.45206326 -0.89188987 -0.013087276 0.00017217807
0.053126484 -0.068532787 -0.061496638 0.45463994 -0.89063734 -0.008218525 0.00034256291
0.055446163 -0.06727203 -0.061498284 0.50667942 -0.86211264 -0.0061422396 0.00020563892
0.057285976 -0.066173092 -0.061541669 0.55654281 -0.83081138 -0.0035423548 0.00022169908
0.0030569455 -0.065905564 -0.060961787 -0.52477479 -0.85122371 -0.0054328791 0.00032025663
0.058825936 -0.065096311 -0.061492119 0.5700658 -0.82158697 -0.0044549652 0.00031357666
0.060858488 -0.063593745 -0.061400101 0.61776197 -0.78632593 -0.0078528039 0.00019648885
0.062360503 -0.062401645 -0.061454296 0.65757644 -0.75331432 -0.010527013 0.00018568215
0.064028978 -0.060924891 -0.061582573 0.66952634 -0.74268389 -0.012461574 0.00024793559
0.065503694 -0.059477214 -0.061589867 0.70077741 -0.71325505 -0.013350654 5.2250627e-05
0.066946141 -0.057952296 -0.061479129 0.74822658 -0.66329962 -0.013811247 0.00028263865
0.068422884 -0.056273952 -0.06150439 0.75779819 -0.65239775 -0.010913407 0.00020478372
0.06956894 -0.054789953 -0.061457541 0.78904611 -0.61430275 -0.006193452 0.00025084862
0.071132846 -0.052663766 -0.061491329 0.82377183 -0.5669058 -0.0042239986 0.00036234473
0.072126314 -0.051187627 -0.061372094 0.83224863 -0.55438042 -0.0049729119 0.00039661
0.073144466 -0.049516901 -0.061509248 0.86132473 -0.50800776 -0.006912841 0.00030496388
0.074503079 -0.047096837 -0.06154881 0.88904285 -0.45779228 -0.0053969212 0.00018724074
0.07525745 -0.045548905 -0.061451863 0.89806068 -0.43986377 -0.0026192868 0.00022299371
0.076145463 -0.043562286 -0.061499842 0.92363101 -0.38327742 -0.0020600369 0.00025512566
0.077307805 -0.040507276 -0.061557975 0.94410717 -0.3296344 -0.0016752179 0.00016840412
0.077905767 -0.038596395 -0.06160149 0.96224117 -0.27219397 -0.0015386136 0.00021255689
0.078321248 -0.037171442 -0.061478276 0.96659809 -0.25629139 0.0016606246 0.00010369115
0.078937955 -0.034537498 -0.061390266 0.97864759 -0.20550588 0.0040389444 0.00032318797
0.079462193 -0.031504277 -0.061656557 0.98809391 -0.1537901 0.0043681376 0.00053507066
0.079769351 -0.028449856 -0.061756004 0.99687564 -0.078985542 0.00056081748 0.00014585856
0.079928279 -0.025450839 -0.061790992 0.99965423 -0.026044002 -0.0036257261 0.00012870504
0.079931311 -0.022563513 -0.06166536 0.99979413 0.019579947 -0.005319424 0.00054486847
0.079698086 -0.019518483 -0.061378609 0.9949314 0.10050247 -0.0032897005 9.4402254e-05
0.079342254 -0.016574429 -0.061490204 0.98486459 0.17312005 -0.0084373681 0.00043712367
0.078758664 -0.013523924 -0.061668612 0.97462255 0.22371587 -0.0078830523 0.00022625354
0.077724136 -0.0098414198 -0.061317313 0.95687836 0.29036868 -0.0083501721 0.00015104374
0.078157887 -0.011333296 -0.061100312 0.96079248 0.27717081 -0.0073566656 0.00016069102
0.076929256 -0.0074072434 -0.061479278 0.9432956 0.33183742 -0.0087992679 0.000221168
0.075712658 -0.004265842 -0.061439905 0.91668558 0.39954787 -0.0070033609 0.00024955274
0.074393541 -0.001474447 -0.061765805 0.88778311 0.45999414 -0.015700424 0.0003977358
0.07503964 -0.0027748104 -0.060958505 0.89172632 0.45251074 -0.0076253731 0.00044320864
0.072738551 0.0014495903 -0.061791852 0.857454 0.51447773 0.0092366114 0.00040125175
0.070832267 0.0043472848 -0.061571579 0.8373161 0.54666895 -0.0073925094 0.00042368451
0.017082693 -0.072416455 -0.05852171 -0.26261094 -0.96401668 0.041319951 0.00071595481
0.019444715 -0.072982125 -0.05865163 -0.20703278 -0.9777652 0.033354845 0.00046250049
0.022475421 -0.073532425 -0.05853124 -0.16709544 -0.98547173 0.030407611 0.00047847978
0.025410626 -0.073983192 -0.058629025 -0.1077224 -0.99380356 0.02739436 0.00043335432
0.028508356 -0.074175909 -0.058482014 -0.030612528 -0.99920398 0.025577854 0.00049611327
0.031561032 -0.074143134 -0.058507793 0.037235592 -0.99878693 0.032223079 0.00030669087
0.034533624 -0.073980048 -0.058658972 0.074746951 -0.99670738 0.031422172 0.00031552083
0.037528764 -0.073707253 -0.058503006 0.15837 -0.98700476 0.027210094 0.00085217954
0.040544819 -0.073177986 -0.058436874 0.21762986 -0.97571093 0.025008531 0.00053446036
0.043310676 -0.072396711 -0.058539808 0.26912725 -0.96287799 0.02089091 0.00038078777
0.0087611275 -0.069192007 -0.05806426 -0.45183671 -0.89147615 0.033373125 0.00043302253
0.010803825 -0.070179574 -0.058481019 -0.40230551 -0.91506708 0.028328473 0.0006219963
0.013514498 -0.071253747 -0.058445737 -0.34424591 -0.93809599 0.038349912 0.00062354922
0.015431978 -0.071868137 -0.058058307 -0.29941815 -0.95325094 0.040760476 0.0005571511
0.044776112 -0.071954362 -0.058534015 0.29466996 -0.95542562 0.018208576 0.00018485246
0.046574686 -0.071373396 -0.058547311 0.33678332 -0.94144732 0.015933758 0.00015826977
0.049531091 -0.070255056 -0.058572352 0.38096133 -0.9244433 0.016523292 0.00024125946
0.051688783 -0.069308922 -0.058495622 0.43358535 -0.90098464 0.01518276 0.00029521139
0.0044729845 -0.06685403 -0.05832405 -0.50137532 -0.86483854 0.026021937 0.00028402678
0.0071146064 -0.068342015 -0.059121251 -0.47175437 -0.88172972 0.00063532806 0.00037872075
0.05320099 -0.068541251 -0.058604535 0.45973238 -0.88790184 0.016627371 0.00033600061
0.055525433 -0.0672483 -0.058488205 0.50349396 -0.8639062 0.012643727 0.00016667384
0.057213981 -0.066234581 -0.058516234 0.55100691 -0.83434725 0.016001225 0.00029514631
0.0031037838 -0.065968476 -0.059542 -0.52963382 -0.84819567 0.0072094933 0.00036336773
0.058726903 -0.06519714 -0.058438417 0.57304353 -0.81940442 0.0140517 0.00012230707
0.060852163 -0.06365405 -0.058472134 0.61319351 -0.78970331 0.019036036 0.00029260875
0.062352862 -0.062468149 -0.058500446 0.65233243 -0.75770622 0.018537877 0.00036573241
0.064038746 -0.06096641 -0.058515888 0.68234581 -0.73075795 0.019924596 0.00037327653
0.065550238 -0.059510406 -0.058520496 0.71621895 -0.69767874 0.016578807 0.00016093749
0.066919811 -0.058066677 -0.058508921 0.73529017 -0.67750186 0.018430334 0.00039317535
0.06843923 -0.056351461 -0.05859087 0.76273739 -0.64646602 0.017699068 0.00037941986
0.069618963 -0.054823637 -0.058497481 0.79327643 -0.60864669 0.016177313 0.00035775668
0.071075559 -0.052791875 -0.05851296 0.81873041 -0.57411176 0.0087245889 0.00026378795
0.072147094 -0.051251721 -0.058290299 0.83440077 -0.55111128 0.0071950168 0.00024833396
0.073191293 -0.049516968 -0.058571678 0.86466551 -0.50226325 0.0092256628 0.00028539952
0.074532025 -0.047067229 -0.058557983 0.88948023 -0.45680013 0.012593924 0.00034830076
0.07525894 -0.045572471 -0.058516327 0.90014821 -0.43536121 0.013923902 0.00021641521
0.076197334 -0.043441478 -0.058474619 0.9256804 -0.3779749 0.015833929 0.00029781557
0.077313446 -0.040503342 -0.058590233 0.94644344 -0.32270634 0.010272467 0.00028843273
0.077879414 -0.038747974 -0.058571935 0.9605391 -0.27761352 0.017184533 0.00020542585
0.078315116 -0.037208188 -0.058451504 0.967471 -0.25259811 0.013931562 0.00016824807
0.078941748 -0.034499597 -0.05840788 0.97962236 -0.20037988 0.013710159 0.00030682143
0.079438694 -0.031493939 -0.058547027 0.98822105 -0.15232867 0.014667384 0.00028865348
0.079790868 -0.028481638 -0.058767624 0.99645483 -0.083215125 0.012368747 7.2828618e-05
0.079972774 -0.025485568 -0.058735497 0.99955159 -0.028002908 0.010603723 0.00019291702
0.079941265 -0.022472085 -0.058615893 0.99843878 0.054730821 0.011162749 0.00026519664
0.079719782 -0.019505408 -0.058435917 0.99556375 0.093689598 0.0086620608 0.00010547342
0.079377629 -0.016547929 -0.058547433 0.98534989 0.17038399 0.0074020885 0.00056743983
0.078751236 -0.013460021 -0.058460712 0.97352058 0.2284507 0.0082448302 0.00028125616
0.077724971 -0.0096652182 -0.058470476 0.9576605 0.28742221 0.016578721 0.00022683878
0.078139119 -0.011115912 -0.058548756 0.96152675 0.27409136 0.018445602 0.00019053833
0.076987348 -0.0073932218 -0.058619455 0.94320834 0.33190206 0.014108757 0.00038397219
0.07584212 -0.0044844556 -0.058365691 0.91875565 0.39400816 0.025408177 0.00043533274
0.074387528 -0.00142361 -0.059372559 0.88596845 0.46352121 0.014423833 0.00032037171
0.075056031 -0.0027548645 -0.058590315 0.89446241 0.44605941 0.031112591 0.00030074315
0.072929919 0.0011565825 -0.05842365 0.85834545 0.51277494 0.017464884 0.00056198851
0.070363835 0.0050121057 -0.058625478 0.84551138 0.53364307 0.018318871 7.0950649e-05
0.017510306 -0.072309747 -0.055725086 -0.27831021 -0.95845014 0.062583968 0.00057762081
0.01977828 -0.072789274 -0.055755828 -0.21419007 -0.974747 0.063172415 0.00048972439
0.02271889 -0.073340788 -0.055333637 -0.17162575 -0.98289508 0.066797622 0.00017987429
0.025548436 -0.073759764 -0.05555613 -0.080946371 -0.99400002 0.073564313 0.0007037677
0.028423907 -0.073960759 -0.055560317 -0.053056676 -0.9960711 0.070903152 0.00075360353
0.031299375 -0.073913395 -0.055494327 0.0024939126 -0.9982245 0.059511576 0.00040895116
0.034461085 -0.073828936 -0.055534765 0.07334359 -0.99692041 0.027758526 0.0012145902
0.037544891 -0.073460683 -0.055504758 0.15715635 -0.98626781 0.050772004 0.00067261385
0.040532544 -0.07295794 -0.055492539 0.21217753 -0.97614694 0.046021007 0.00072084094
0.043185733 -0.072311021 -0.055547629 0.27399847 -0.96094441 0.038867552 0.00024415486
0.010937936 -0.070028223 -0.055687081 -0.39412928 -0.91571927 0.078232788 8.2882652e-05
0.013479288 -0.070969343 -0.055499516 -0.33471531 -0.93908387 0.078020871 0.0001972108
0.01589765 -0.071678437 -0.054854661 -0.28791004 -0.95513123 0.069513582 0.00058934401
0.044598296 -0.071884111 -0.055482469 0.28247979 -0.95848709 0.038828909 0.00030102633
0.046442065 -0.071302861 -0.05552597 0.32563075 -0.94477278 0.037001252 0.0001230437
0.049459033 -0.070150301 -0.055434402 0.38146415 -0.92338854 0.042879734 0.00016422285
0.051467489 -0.069231682 -0.055291757 0.43916318 -0.8972671 0.045249946 0.00015198223
0.0038459944 -0.066310242 -0.055803325 -0.50702101 -0.86076862 0.044801645 0.00021321283
0.0080892434 -0.068702772 -0.055987909 -0.45284197 -0.889911 0.054705784 0.00034150248
0.053037591 -0.068515003 -0.055608474 0.45790219 -0.8876875 0.048337542 0.00035548047
0.055465821 -0.067153998 -0.055510577 0.49765548 -0.86593115 0.050022725 0.00027709283
0.057214897 -0.066139892 -0.056310881 0.53781044 -0.84151155 0.05116776 0.00045466534
0.0028899766 -0.065595239 -0.054203473 -0.5144279 -0.85692161 0.032391544 0.001030869
0.05863259 -0.065094531 -0.055413745 0.57847053 -0.81442583 0.045633897 0.00050549814
0.060729966 -0.063614339 -0.055660348 0.61480349 -0.78748506 0.043405261 0.00025171268
0.062223256 -0.062314376 -0.055311885 0.65700328 -0.75281364 0.040228941 0.00020345797
0.063970879 -0.060837395 -0.05553462 0.68766022 -0.72482651 0.041833211 0.00025079076
0.065400824 -0.059440315 -0.055399444 0.72275233 -0.68990642 0.040722664 0.00017789494
0.066780843 -0.057972942 -0.055456288 0.73132753 -0.68062937 0.043630809 0.00023134303
0.068261772 -0.056261834 -0.055425707 0.75707638 -0.65194911 0.042398218 0.00023077086
0.069495089 -0.054770358 -0.055590201 0.78750437 -0.61482263 0.04277844 0.00030187547
0.071080215 -0.052600332 -0.055479161 0.82174891 -0.5678789 0.047353324 0.00031786729
0.07212241 -0.051197372 -0.056131169 0.82962769 -0.55634046 0.046938464 0.0002939851
0.073089279 -0.049525622 -0.055536643 0.8628397 -0.50321788 0.047743134 0.00031616777
0.074462369 -0.046941731 -0.055468194 0.88831186 -0.45752594 0.039648965 0.00010366781
0.075217716 -0.045476511 -0.055656724 0.89879608 -0.43674171 0.037712902 0.00025801724
0.076027729 -0.043629512 -0.055582102 0.925228 -0.37751812 0.037857864 0.00029192065
0.077162825 -0.040514056 -0.055522975 0.94320363 -0.32946646 0.042647172 9.0840724e-05
0.077829994 -0.038502254 -0.05550468 0.95932049 -0.27921748 0.041735705 0.00029044264
0.078301467 -0.036977317 -0.055496942 0.96561402 -0.25674331 0.040894605 0.00037583764
0.078826837 -0.034625221 -0.055544522 0.9788419 -0.20130754 0.036657751 0.00025814018
0.079375155 -0.031397894 -0.055538278 0.98756868 -0.15300246 0.036030922 0.00026508752
0.079682022 -0.028521607 -0.055524331 0.99708802 -0.068963923 0.032549337 0.00046680614
0.079877347 -0.025530785 -0.055579908 0.99841601 -0.049596269 0.026565323 0.00039274537
0.079862028 -0.022595929 -0.055416819 0.99904579 0.043421824 0.0047062309 0.00090887392
0.079603717 -0.019419026 -0.055443194 0.99278176 0.1162902 0.02934443 0.00036122248
0.079312943 -0.016448814 -0.055690087 0.98423976 0.17336236 0.034892689 0.00065872987
0.078759797 -0.013757288 -0.055458654 0.97172749 0.23384395 0.032598976 0.00029958671
0.07760337 -0.009990518 -0.0551759 0.95668203 0.28884423 0.036448319 0.00016102454
0.078104787 -0.011513544 -0.055761222 0.96078533 0.27533457 0.032902468 1.1232415e-05
0.077091284 -0.00799629 -0.055702262 0.9473772 0.31834835 0.033626992 0.0003191267
0.076056555 -0.0053145289 -0.055457596 0.92459565 0.37768093 0.049799211 0.00069345796
0.074293584 -0.001713143 -0.055277593 0.89104515 0.45183596 0.043390911 0.00020119833
0.073475957 4.5275818e-05 -0.056680638 0.88003469 0.47424132 0.025181064 0.00017292763
0.017591581 -0.072147906 -0.052059025 -0.29663318 -0.95476896 -0.020614654 0.0015466574
0.019301033 -0.072569408 -0.05254437 -0.22494693 -0.9742474 -0.015520666 0.0019912035
0.022321168 -0.073087066 -0.052354082 -0.17988321 -0.98357582 -0.014852949 0.0013033232
0.025467435 -0.073527575 -0.052403174 -0.10528229 -0.99417138 -0.023212982 0.0013661215
0.028575143 -0.073712215 -0.052313644 -0.032283634 -0.99914199 -0.025945537 0.0013044638
0.031587072 -0.0737665 -0.052384339 0.017795067 -0.99958223 -0.022776037 0.00084268121
0.034556605 -0.0737051 -0.052389253 0.074921884 -0.9968611 -0.025585815 0.00072693935
0.037457604 -0.073322847 -0.052486409 0.16047168 -0.98695356 -0.01310086 0.0010292268
0.040582687 -0.07288906 -0.052465335 0.21461159 -0.97663814 -0.010947778 0.00091026182
0.042958815 -0.072296157 -0.052447636 0.27512065 -0.96133989 -0.011592232 0.00089237688
0.01063621 -0.069625169 -0.052567687 -0.40072408 -0.91616488 -0.0078902142 0.0016686687
0.013609606 -0.070810601 -0.052681878 -0.32547906 -0.94546694 -0.012474899 0.0014265414
0.016113304 -0.071643762 -0.052379925 -0.29047966 -0.9566943 -0.018911939 0.0016517403
0.044454824 -0.071797594 -0.052611638 0.27449089 -0.9614976 -0.013311082 0.00085146289
0.046481688 -0.071125083 -0.052446935 0.33010724 -0.94381028 -0.015854068 0.00093927077
0.049499776 -0.069985479 -0.052396085 0.39201304 -0.91986567 -0.01314431 0.0010027019
0.051261604 -0.069192626 -0.052281782 0.45282114 -0.89153862 -0.010577203 0.0013545139
0.0046946234 -0.066527635 -0.052137673 -0.51971453 -0.85433805 0.0017792457 0.0012519164
0.0074493089 -0.068139479 -0.052598406 -0.48152629 -0.876055 -0.025692239 0.0020092912
0.0090790857 -0.068915725 -0.05322513 -0.38645026 -0.92222637 0.012442855 0.0020453015
0.05274063 -0.068442456 -0.052503083 0.4495315 -0.89322197 -0.0087164966 0.001165454
0.055568289 -0.066908032 -0.052478161 0.51269543 -0.85855794 -0.0046642493 0.0011609023
0.001021555 -0.064198606 -0.051023103 -0.56000638 -0.82834864 -0.015208418 0.00082028739
0.0035379627 -0.065822646 -0.052568555 -0.5272125 -0.84942597 0.022860087 0.0013517448
0.05855896 -0.064965099 -0.052453969 0.57949966 -0.81496185 -0.0041786204 0.001263256
0.060680199 -0.063483171 -0.052423425 0.61907011 -0.78525531 -0.011233915 0.00084408192
0.062155169 -0.062308975 -0.052571841 0.66227591 -0.74916446 -0.011967765 0.00088307442
0.063819319 -0.060859542 -0.052519374 0.6621322 -0.74926633 -0.013452468 0.00066860864
0.065335602 -0.059351206 -0.052515738 0.72922337 -0.68417537 -0.011722467 0.00085618166
0.066751525 -0.057892799 -0.052415445 0.72793156 -0.68554181 -0.012163783 0.00066140678
0.068220332 -0.056165706 -0.052514076 0.75077313 -0.66041291 -0.013948497 0.00062643649
0.069463387 -0.054634124 -0.052442979 0.78271556 -0.62216932 -0.016175441 0.00090882793
0.070925221 -0.052583423 -0.052512836 0.82858109 -0.5597778 -0.010109548 0.0015028474
0.071966633 -0.050892096 -0.052528039 0.82649493 -0.56290138 -0.0069383751 0.0016892565
0.072902694 -0.049520932 -0.052401561 0.86048794 -0.50943238 -0.0062576914 0.0015304835
0.074378185 -0.046810683 -0.052528445 0.89354324 -0.44890952 -0.0077922847 0.0011762602
0.075139143 -0.045296937 -0.052075423 0.89172661 -0.45251024 -0.0076235635 0.0012230984
0.075905032 -0.043544035 -0.052589558 0.92278165 -0.3851876 -0.010223235 0.0011129336
0.077049576 -0.040484883 -0.052391358 0.94814903 -0.31759113 -0.0122175 0.0008761909
0.077784546 -0.038181309 -0.052507699 0.96555364 -0.26006621 -0.0084740864 0.0011607826
0.078197472 -0.036707077 -0.052485585 0.9643153 -0.26473916 -0.0030323267 0.0011770914
0.078680858 -0.034491748 -0.052489281 0.97820765 -0.20758484 -0.0042824908 0.00084157055
0.079254419 -0.031447262 -0.052430965 0.98724705 -0.15913503 -0.004384391 0.0010169216
0.079567738 -0.028470177 -0.052258071 0.99646533 -0.083393261 -0.010122218 0.00033227066
0.079767294 -0.025556456 -0.052294064 0.99892849 -0.044044584 -0.014213904 0.00034343419
0.079859577 -0.02255973 -0.052376229 0.99902767 0.035519429 -0.026118834 0.00077535643
0.079514407 -0.019481432 -0.052349441 0.99412608 0.10624675 -0.02061516 0.00046497997
0.07912384 -0.016473934 -0.052423205 0.98374897 0.17953452 -0.002303055 0.0011121057
0.078537673 -0.013428189 -0.05245984 0.97157538 0.23657796 -0.0084966281 0.00063703035
0.077614762 -0.010088907 -0.052541416 0.95998859 0.27979174 -0.011766532 0.00063812197
0.078063585 -0.011540238 -0.05212028 0.95642859 0.29175991 -0.010977296 0.00044055792
0.076726496 -0.0074199978 -0.052284129 0.94493496 0.32706937 -0.011112986 0.00093179796
0.075537845 -0.0044795806 -0.052505933 0.91534054 0.40203965 -0.022711542 0.00050573249
0.074132554 -0.0014507177 -0.052168619 0.8920216 0.45162946 -0.018116342 0.00073665672
0.072522983 0.0013652039 -0.05189601 0.86004335 0.50994039 -0.01692096 0.0007567131
0.070977516 0.003775527 -0.051796656 0.83857781 0.54411101 -0.027027968 0.0010408259
0.017097557 -0.072289936 -0.049600903 -0.26737112 -0.96244264 -0.047081605 0.00052147632
0.019590756 -0.072855398 -0.04955427 -0.20959415 -0.97665 -0.047171026 0.00040964238
0.022601526 -0.073443092 -0.049544454 -0.16584156 -0.98485136 -0.050641384 0.00038768063
0.025620585 -0.073868029 -0.049479332 -0.088634595 -0.99431479 -0.059008684 0.00075567566
0.028514504 -0.074054599 -0.049674742 -0.035558943 -0.99891394 -0.030109268 0.0012975585
0.031392917 -0.074054092 -0.049438164 0.0079682972 -0.99851739 -0.05384611 0.00044148107
0.034534443 -0.073894218 -0.049567211 0.076728471 -0.9966836 -0.027099997 0.00079049787
0.037555516 -0.073578432 -0.049561672 0.16102499 -0.98611659 -0.040560681 0.00074808288
0.040522758 -0.073014349 -0.049508989 0.20776255 -0.97751975 -0.035914253 0.00045496065
0.043339521 -0.072297752 -0.04952798 0.25520632 -0.96625823 -0.034854528 4.8932478e-05
0.0088161789 -0.069055349 -0.05074469 -0.46544221 -0.88287246 -0.06244836 0.00061120896
0.010490645 -0.069887765 -0.049476899 -0.39637959 -0.91682649 -0.048087936 0.00048409437
0.013626888 -0.071111314 -0.049696211 -0.3499108 -0.93518347 -0.054720156 0.00026867018
0.015807403 -0.071818382 -0.050211295 -0.28717598 -0.95565343 -0.06524273 0.00035946572
0.044766307 -0.07197129 -0.04945761 0.28051633 -0.95891833 -0.042263672 0.00042807288
0.046392504 -0.071401827 -0.049543042 0.33907428 -0.93959618 -0.046771567 0.0002342103
0.049489476 -0.070216194 -0.04963021 0.38182876 -0.92319483 -0.04379651 0.00034051764
0.051621657 -0.069265246 -0.049416404 0.43632036 -0.89862663 -0.045768823 0.00020130379
0.0047265976 -0.066850103 -0.049793717 -0.52063292 -0.85178447 -0.058348548 0.00044226923
0.0073201526 -0.06836281 -0.049713317 -0.46560958 -0.88278878 -0.062383082 0.00076235237
0.053114541 -0.068506353 -0.049604222 0.46431997 -0.88444263 -0.046564024 0.00039421249
0.055456795 -0.067205228 -0.049622867 0.49948645 -0.86530799 -0.041896243 0.00033861067
0.057224397 -0.066152424 -0.049375162 0.53856236 -0.8415122 -0.042517681 0.0005030483
-0.00054305315 -0.063331373 -0.048840456 -0.55733365 -0.82976776 -0.029403659 0.00051148346
0.0015653388 -0.064802498 -0.049633287 -0.5572719 -0.82980835 -0.029431265 0.00046473052
0.058751952 -0.065096028 -0.049535491 0.57830989 -0.81504226 -0.035549853 0.00022902944
0.060795382 -0.06359686 -0.049567588 0.60993308 -0.7917555 -0.033241544 0.00026388813
-0.0014975215 -0.062576883 -0.049486112 -0.55727035 -0.82980931 -0.029431276 0.00046658993
0.062271196 -0.062411938 -0.049560606 0.65136784 -0.75821894 -0.028704105 0.00039842317
0.064018503 -0.060906954 -0.049517635 0.68551862 -0.72738814 -0.031155946 0.00018381653
0.065504961 -0.059410863 -0.049654979 0.71846378 -0.69479764 -0.032649692 0.00017267022
0.066911705 -0.057934284 -0.049475517 0.74293816 -0.6684159 -0.035538848 6.2289866e-05
0.068415403 -0.05622638 -0.049586877 0.75813097 -0.65106702 -0.03673033 0.0001204992
0.069594204 -0.054789826 -0.049427278 0.78705049 -0.61548752 -0.041552544 0.00022177065
0.071084276 -0.052763376 -0.049614232 0.82299006 -0.56611937 -0.046863716 0.00048916991
0.072133236 -0.051249858 -0.049296085 0.8378706 -0.54393673 -0.045888111 0.000543089
0.07313747 -0.049512152 -0.04951226 0.86367971 -0.50194651 -0.045903344 0.00031851968
0.0745003 -0.047011007 -0.049656153 0.88637143 -0.46098956 -0.042828303 0.00032019382
0.075253606 -0.04551927 -0.049289279 0.90059322 -0.43267548 -0.04151981 0.00035142823
0.07612209 -0.043513816 -0.04964862 0.92481273 -0.37831822 -0.039958764 0.00036151439
0.077270381 -0.040562309 -0.049433809 0.94597262 -0.32231587 -0.035330154 0.00033899708
0.077860169 -0.038563337 -0.049802106 0.96053702 -0.27456108 -0.044552188 0.00015275394
0.078286 -0.037033945 -0.049445268 0.96899587 -0.24357456 -0.041453388 5.0995393e-05
0.078884415 -0.034510229 -0.04955934 0.97918183 -0.19991235 -0.035185356 0.00013928334
0.079399772 -0.031536609 -0.049564809 0.98781723 -0.15219522 -0.032460921 0.00044047291
0.079700962 -0.028546173 -0.049304567 0.99599737 -0.085295282 -0.026720202 0.00020339232
0.079879642 -0.02550788 -0.049188286 0.99829698 -0.050950196 -0.028413521 0.00019912049
0.080007553 -0.022632755 -0.049522132 0.99932986 0.030049475 -0.020900633 0.0010147271
0.079767115 -0.019590205 -0.049429603 0.99540108 0.089214131 -0.034891907 0.0011268613
0.079338834 -0.016628893 -0.049593419 0.98338294 0.17904183 -0.030034751 0.00042308669
0.07867869 -0.013503959 -0.049454775 0.97524089 0.21958494 -0.026223412 0.00026465458
0.077708937 -0.0098337708 -0.049633741 0.95657796 0.28917405 -0.036564525 0.00024827098
0.078160241 -0.011456337 -0.049403489 0.96416986 0.26360208 -0.029840898 0.00011663006
0.077003375 -0.0076038847 -0.049554218 0.94427085 0.32653356 -0.041574541 0.00035383692
0.075900413 -0.0047612605 -0.049528595 0.91727459 0.39638072 -0.038594704 0.00044659598
0.074464388 -0.0017162034 -0.049788062 0.88974375 0.45439696 -0.043352026 0.00050969713
0.075059928 -0.0028215409 -0.04808509 0.89511782 0.44495976 -0.027839566 0.00031025623
0.073051192 0.00096901105 -0.04965305 0.86019605 0.5088383 -0.03385777 0.00049767172
0.071010001 0.0040961835 -0.050036065 0.83560812 0.54754502 -0.044198886 0.00061799557
0.068512201 0.0073167235 -0.050765827 0.82780081 0.56087554 -0.012822122 0.00053815817
0.01710918 -0.072283678 -0.046750341 -0.27047151 -0.96272415 -0.0027341242 0.00015068648
0.019579111 -0.072892815 -0.046456721 -0.21866761 -0.97579235 -0.0037054035 1.3969257e-05
0.022588942 -0.07347203 -0.04644829 -0.17597491 -0.98438442 -0.0044906465 0.00023898901
0.025578303 -0.0738656 -0.046348728 -0.10290471 -0.99463594 -0.01048725 0.00013862373
0.028657435 -0.074098766 -0.046556812 -0.033018034 -0.99927247 -0.019086989 0.0004697862
0.031679142 -0.074080959 -0.046575818 0.026257649 -0.99946433 -0.019532286 0.00025397359
0.034556124 -0.073946282 -0.046583802 0.073034041 -0.99720615 -0.015677046 0.00017171625
0.037624046 -0.073617622 -0.046583958 0.16326511 -0.98651105 -0.011849986 0.0007000785
0.040570565 -0.073057666 -0.046500154 0.21648766 -0.9761709 -0.014948869 0.00011204612
0.043313045 -0.072381914 -0.046478424 0.2536439 -0.96719784 -0.013897613 0.00014332587
0.008999275 -0.069270559 -0.046420958 -0.41446567 -0.91001576 -0.0094653321 0.00010409497
0.010913273 -0.070101656 -0.045994673 -0.40071419 -0.91617191 -0.0075520459 0.00034282016
0.013372268 -0.071088299 -0.046003837 -0.33573642 -0.94192272 -0.0079132346 9.9741475e-05
0.015547723 -0.071806103 -0.047098398 -0.29160815 -0.95652592 -0.0047754808 0.0002954622
0.044853926 -0.07199046 -0.046560466 0.2739163 -0.96167868 -0.011997922 0.00035821515
0.046476156 -0.071409903 -0.046639729 0.3292672 -0.94403648 -0.019447977 0.00039491942
0.049511328 -0.070232846 -0.046673842 0.38483182 -0.92296469 -0.0063657924 0.00028674499
0.051670566 -0.069294624 -0.046788622 0.4396469 -0.89815432 -0.0054252874 0.00035364862
0.0040567336 -0.066541024 -0.046533544 -0.52551901 -0.85067064 -0.013754306 0.00020812578
0.0072425758 -0.068355434 -0.046636265 -0.46856332 -0.88336045 -0.01108069 0.00028882053
0.053108357 -0.068579189 -0.046561074 0.46040964 -0.88767761 -0.007175622 0.00041198227
0.055476535 -0.067229003 -0.046511885 0.50959021 -0.86039746 -0.0058371532 0.00021923082
0.057280362 -0.066145271 -0.046619456 0.55528355 -0.83164203 -0.0056395405 0.00034455222
0.058763385 -0.065134019 -0.0464545 0.57066345 -0.82117212 -0.0044236728 0.00032702228
0.060775891 -0.063622698 -0.046498641 0.61712897 -0.78684121 -0.0057239681 9.2245864e-05
0.062272593 -0.062437914 -0.046551619 0.65356803 -0.75685352 -0.004649376 0.00028784183
0.064005308 -0.060928624 -0.046491757 0.68502945 -0.72848672 -0.006465822 0.00022435744
0.065475412 -0.059502408 -0.046652868 0.71914989 -0.69481498 -0.0074619446 0.00029589093
0.066910483 -0.058016255 -0.046388049 0.73105556 -0.68223828 -0.01042436 0.00023861977
0.068404302 -0.05630061 -0.046557426 0.75578475 -0.65477866 -0.0073688105 9.3381299e-05
0.069640368 -0.054787215 -0.046404429 0.78525531 -0.61914963 -0.0052725822 0.00020066439
0.071152069 -0.052753977 -0.046527434 0.82413375 -0.56639206 -0.0018750639 0.00030344105
0.072137967 -0.051232852 -0.046445508 0.8368479 -0.54743052 -0.0023185434 0.00043099184
0.073150262 -0.049526241 -0.046486162 0.86416858 -0.5031842 -0.0042753424 0.00010189443
0.074529298 -0.047111314 -0.046538491 0.88905877 -0.45773268 -0.007432105 0.00024482611
0.075285487 -0.045585304 -0.046375163 0.89954495 -0.43675494 -0.0080024991 0.00025637524
0.076134853 -0.043536618 -0.046607681 0.9247756 -0.38046962 -0.0057332371 0.00024430599
0.077297524 -0.040556513 -0.046466526 0.94220936 -0.33488742 -0.0095941788 0.00014282123
0.077911444 -0.038768589 -0.046445068 0.96332991 -0.26808509 -0.011215813 0.00039216652
0.078299038 -0.037319478 -0.046514634 0.96905905 -0.24658784 -0.010910283 0.00028943983
0.078919753 -0.034509178 -0.046515692 0.98044908 -0.19665278 -0.0068794647 0.00021114135
0.079378568 -0.031618707 -0.046643563 0.99054348 -0.13685656 -0.0096939271 0.0001898139
0.079749636 -0.028548585 -0.046556976 0.99609405 -0.087252386 -0.013554123 0.00014548589
0.079950824 -0.025470827 -0.046536218 0.99867046 -0.049522687 -0.014309969 0
0.080054633 -0.022460675 -0.046637397 0.99959147 0.028066525 -0.0054040533 0.00053937145
0.079786979 -0.019630481 -0.046358194 0.99292576 0.11866721 -0.0040675197 0.00010115871
0.079319619 -0.016597698 -0.046417609 0.98300457 0.18358135 0.00010157319 0.00037135766
0.078685001 -0.013442392 -0.046511088 0.97587383 0.21827801 -0.004994351 4.0829222e-05
0.077739894 -0.0097226612 -0.046266396 0.95911658 0.28282401 -0.010294182 0.00033647797
0.078129448 -0.01113636 -0.046663664 0.96442169 0.26417705 -0.010061397 0.00034096805
0.077001154 -0.0075090248 -0.046554133 0.94151586 0.33690339 -0.0066315681 0.00024633159
0.075721636 -0.0042950027 -0.046347205 0.91685563 0.39921719 -0.0011609005 0.00036406727
0.074474603 -0.001664944 -0.046101458 0.89046568 0.45504782 -0.0015461087 0.00014853937
0.072944723 0.0011553535 -0.047051188 0.86289465 0.50528991 -0.0097387405 0.00028267698
0.070992455 0.0041912263 -0.046291616 0.82538629 0.56398147 -0.025735697 0.00027860247
0.017033668 -0.072262041 -0.043666627 -0.27058449 -0.96269578 0.000906859 0.00012707876
0.01952276 -0.072865508 -0.043494448 -0.22515956 -0.9743219 5.1265979e-05 0.00030897849
0.022575147 -0.073470928 -0.04353058 -0.17704535 -0.98418045 -0.0066178017 0.00039934527
0.025511893 -0.073872 -0.043352611 -0.10263984 -0.99468708 0.0079168882 0.00035172736
0.0286198 -0.074094623 -0.043550588 -0.016150432 -0.9998517 -0.0059831887 0.00058446563
0.031561173 -0.074052662 -0.043626152 0.027365489 -0.99962544 0.00010393885 7.7383753e-05
0.034568354 -0.073943384 -0.043591976 0.059923157 -0.99820209 -0.0013783209 0.00027225248
0.037498992 -0.073671117 -0.043491405 0.11862767 -0.99293751 -0.0016323623 0.000766846
0.040483508 -0.073100179 -0.043612596 0.21558931 -0.97646862 -0.0054921648 8.6684617e-05
0.043432377 -0.072396703 -0.043480944 0.25772405 -0.96620619 -0.004893078 0.00021908214
0.0087673012 -0.069130808 -0.043931305 -0.45141211 -0.8923133 0.002014867 0.00013011761
0.010720719 -0.070055053 -0.043288901 -0.39794156 -0.91740066 0.0043078503 0.00020593888
0.01339149 -0.071099095 -0.043326855 -0.34181896 -0.93976575 -0.00050910213 0.00021996464
0.015453549 -0.071773224 -0.043997675 -0.28443637 -0.95869297 0.0019212501 0.00028311822
0.044911653 -0.071983285 -0.04360722 0.27649048 -0.96100795 -0.0040863501 0.00023166287
0.046589509 -0.0713863 -0.043627482 0.34507763 -0.9385727 -0.0016571998 0.00010249164
0.049507454 -0.070227884 -0.043520048 0.38674787 -0.92218119 -0.0027985715 0.00035097843
0.051581267 -0.069326647 -0.043557316 0.43801987 -0.89896065 -0.0029108759 0.00040157244
0.0049056886 -0.067040771 -0.044045888 -0.50163758 -0.86504996 0.0069510099 0.00042071895
0.007108748 -0.068305477 -0.043481022 -0.45459962 -0.8906796 0.0053835022 4.7696212e-05
