# .PCD v0.7 - Point Cloud Data file format
VERSION 0.7
FIELDS x y z normal_x normal_y normal_z curvature
SIZE 4 4 4 4 4 4 4
TYPE F F F F F F F
COUNT 1 1 1 1 1 1 1
WIDTH 545
HEIGHT 1
VIEWPOINT 0 0 0 1 0 0 0
POINTS 545
DATA ascii
-0.02354387 -0.059480201 -0.0020543495 -0.067108743 -0.77051097 -0.63388425 0.025980471
0.041759256 -0.058548961 -0.00021221225 0.66174495 0.013679007 0.74960423 0.0019895269
0.043149959 -0.05887441 -0.0015433029 0.70699936 0.0075235358 0.70717412 0.0023698986
-0.051565837 -0.055931788 -0.0015331396 -0.63776141 -0.72826314 -0.25078535 0.042005245
-0.049480848 -0.056697283 -0.0016118594 -0.20093885 -0.93554115 -0.29049325 0.010282302
-0.046753779 -0.056654256 -0.0017876702 -0.18747294 -0.87964344 -0.43712839 0.015598361
-0.044726368 -0.056494359 -0.0026434131 -0.29000074 -0.83193386 -0.47305986 0.01520557
0.041147489 -0.055473726 -0.00044387125 0.61556387 0.18209617 0.76676083 0.0020565689
0.042664841 -0.056192726 -0.0014944379 0.67942536 0.082398444 0.72910327 0.0028142903
-0.052276962 -0.052665945 -0.0015382681 -0.95810938 -0.26369014 -0.11177693 0.014483554
0.039601732 -0.053126708 -0.00017031233 0.60556251 0.22309467 0.76388675 0.0015603047
-0.052469429 -0.04946515 -0.0015739609 -0.9966951 0.021411344 -0.078361362 0.0017205668
-0.052352551 -0.046731297 -0.0015274691 -0.99777496 0.055181775 -0.03741714 0.0032097625
-0.051999304 -0.044110838 -0.0015606675 -0.99458218 0.081239112 -0.0648572 0.0014729801
-0.040766995 -0.033344656 -0.00086074491 -0.92151648 0.09600307 -0.37628561 0.020129899
-0.024685711 -0.033190329 -0.0020564978 0.078471221 -0.085372232 -0.99325418 1.4259776e-05
-0.022077011 -0.033620272 -0.0018051721 0.087572433 -0.082998201 -0.99269456 1.1864126e-05
-0.019257173 -0.033720937 -0.0015458735 0.091745384 -0.080374062 -0.99253356 1.4628888e-05
-0.016883126 -0.033795897 -0.0013162695 0.095226705 -0.07921236 -0.99229902 9.3742574e-06
-0.013513005 -0.033396147 -0.0010211699 0.10633612 -0.070140399 -0.99185336 4.2365595e-05
-0.040740699 -0.030802902 -0.000910784 -0.93146598 0.06792818 -0.35743099 0.023455434
-0.038991559 -0.032397833 -0.0026009497 -0.89664179 -0.013641763 -0.44254646 0.026920741
-0.033673838 -0.031447526 -0.0029709602 0.093082033 -0.15316007 -0.9838078 0.00099089683
-0.03162653 -0.03052184 -0.0028241181 0.12086627 -0.13765144 -0.98307854 0.00030721031
-0.028413245 -0.031073371 -0.0024878411 0.088844068 -0.090340286 -0.9919402 0.00012450565
-0.025527133 -0.031533252 -0.0022555089 0.08025486 -0.088776566 -0.99281311 4.4704138e-05
-0.022323865 -0.031536169 -0.0020106104 0.086415738 -0.081433393 -0.99292547 1.1673637e-05
-0.019628841 -0.031526625 -0.0017703885 0.091108792 -0.080447286 -0.99258626 1.6043685e-05
-0.01653607 -0.031498156 -0.0014736393 0.098865718 -0.074077703 -0.99233973 2.1111353e-05
-0.01363687 -0.031454626 -0.0011712769 0.10869409 -0.064528361 -0.9919787 2.8724513e-05
-0.010629612 -0.031574775 -0.00083622936 0.11532699 -0.053492539 -0.9918862 3.8351951e-05
-0.0077918041 -0.03075574 -0.00055510964 0.11827921 -0.050479066 -0.99169648 5.0166946e-05
-0.040372442 -0.028093616 -0.0016781284 -0.91357517 -0.00017256627 -0.40667006 0.023044845
-0.03084508 -0.029101361 -0.0029420932 0.12843435 -0.14363016 -0.98126197 0.00019111672
-0.0286268 -0.028305907 -0.0027926683 0.10398763 -0.12591325 -0.98657614 0.00010011646
-0.025640102 -0.028552145 -0.0025169272 0.083184913 -0.097865641 -0.99171704 0.00010474517
-0.022596167 -0.028498363 -0.002279934 0.088955812 -0.084749602 -0.99242353 3.2893124e-05
-0.019269791 -0.028502362 -0.0019690024 0.098951876 -0.076985545 -0.99210978 1.7241482e-05
-0.016458891 -0.028558325 -0.0016755598 0.10844471 -0.06989982 -0.991642 3.0829484e-05
-0.013385965 -0.027926605 -0.0013796433 0.12455956 -0.052578066 -0.99081814 2.822954e-05
-0.01044241 -0.028124154 -0.0010127665 0.1268713 -0.043301914 -0.99097359 3.7873178e-05
-0.0078372043 -0.028401405 -0.00067455764 0.12836377 -0.03598037 -0.99107426 2.8710489e-05
-0.0049922941 -0.028239552 -0.00032122387 0.1353085 -0.02425606 -0.99050659 3.4475685e-05
-0.04011013 -0.025336569 -0.001673816 -0.86452615 -0.030277129 -0.50167489 0.017187696
-0.027814379 -0.026573844 -0.0029295315 0.11443732 -0.13824484 -0.98376447 0.00011058502
-0.025611077 -0.025617933 -0.0028424507 0.1048224 -0.12040181 -0.98717558 8.4383071e-05
-0.022855928 -0.025139563 -0.0026228596 0.10854339 -0.11027721 -0.98795617 7.0390844e-05
-0.019654749 -0.024845894 -0.0023085123 0.11384974 -0.092058219 -0.98922372 8.9316658e-05
-0.016573424 -0.025290232 -0.0019260806 0.12045919 -0.065044843 -0.99058509 4.2758602e-05
-0.013353873 -0.025426861 -0.0015117179 0.12864009 -0.053555246 -0.99024421 3.1533073e-05
-0.010231569 -0.025486469 -0.0010985167 0.13275751 -0.042045441 -0.99025637 3.471176e-05
-0.0074438564 -0.02536143 -0.00072199502 0.13700575 -0.03165257 -0.99006444 3.4012541e-05
-0.0046909363 -0.02531708 -0.00033892517 0.14326645 -0.021308696 -0.98945469 3.3844248e-05
-0.03999614 -0.022575226 -0.0015900113 -0.87916118 0.0026598016 -0.47651708 0.01357879
-0.024425182 -0.023709606 -0.0029361406 0.11327149 -0.12684512 -0.98543388 0.00014817962
-0.022253437 -0.022559552 -0.0028178731 0.11617047 -0.10605751 -0.98755062 6.5140732e-05
-0.019446703 -0.022418857 -0.0024898318 0.12128245 -0.092655756 -0.98828417 8.1496393e-05
-0.016676471 -0.022582941 -0.002126042 0.13147339 -0.071563661 -0.98873323 7.0711423e-05
-0.013721608 -0.022468664 -0.0017265225 0.13826053 -0.055928256 -0.98881555 6.2055784e-05
-0.010323694 -0.022574814 -0.001235081 0.14462456 -0.042258788 -0.9885838 4.0595907e-05
-0.0074689481 -0.022520076 -0.00081503764 0.14907229 -0.03040874 -0.98835862 3.8034508e-05
-0.004682316 -0.02246581 -0.00039344878 0.15364584 -0.019532392 -0.98793292 3.6360885e-05
-0.002726486 -0.022873869 -7.0676084e-05 0.15231627 -0.019075159 -0.98814768 2.6558308e-05
-0.039685842 -0.019469626 -0.0013751987 -0.94727254 0.012494897 -0.32018527 0.010452922
-0.021671062 -0.020668613 -0.0029442878 0.13713558 -0.12583202 -0.98252743 0.00014572854
-0.019397583 -0.019608602 -0.0027453466 0.13883573 -0.096554495 -0.98559725 9.3143201e-05
-0.016313871 -0.019326141 -0.0023188379 0.15062872 -0.078526758 -0.98546666 0.00011589803
-0.013641095 -0.019736694 -0.0018742506 0.15403159 -0.058732841 -0.98631877 7.2522293e-05
-0.010470677 -0.01948694 -0.001388896 0.15709578 -0.04564219 -0.98652816 5.9237842e-05
-0.0074861748 -0.019628458 -0.0009025929 0.16116562 -0.031113263 -0.98643684 4.5657041e-05
-0.0045976909 -0.019509235 -0.00043451192 0.16506678 -0.017223967 -0.98613203 3.3061464e-05
-0.0024226848 -0.019837407 -6.0906823e-05 0.16969393 -0.011252953 -0.98543262 2.5299818e-05
-0.039553918 -0.016499557 -0.0013967529 -0.95848149 0.027118275 -0.28386226 0.0090531167
-0.038965024 -0.01552218 -0.0027829341 -0.92442155 0.050991926 -0.37794775 0.044865727
-0.018895797 -0.01732563 -0.0029053485 0.16491055 -0.10437709 -0.98077005 0.000112567
-0.016513571 -0.016531188 -0.0025715139 0.16520546 -0.088878423 -0.98224628 0.00013060484
-0.013523215 -0.016467646 -0.0020650914 0.17103975 -0.066700831 -0.9830038 7.8992729e-05
-0.010545926 -0.016413238 -0.0015464213 0.17193463 -0.05173685 -0.98374885 6.6990542e-05
-0.0075317509 -0.01654616 -0.0010117069 0.17427814 -0.034611061 -0.984088 5.7714831e-05
-0.0045821052 -0.016423345 -0.00049133122 0.17398636 -0.018965235 -0.98456544 4.5371035e-05
-0.0023859646 -0.016843984 -8.2496343e-05 0.17761035 -0.013015011 -0.98401481 2.740118e-05
-0.03949891 -0.013590815 -0.0015440377 -0.96719497 0.04074635 -0.25074604 0.011310253
-0.038959436 -0.013438447 -0.0028018774 -0.9890303 0.058437943 -0.13566174 0.010842538
-0.016044183 -0.013248242 -0.0027962488 0.19150521 -0.090512596 -0.97730917 9.0179448e-05
-0.013514559 -0.013283654 -0.0023039479 0.19137479 -0.076714091 -0.97851449 7.4706339e-05
-0.010521521 -0.013298322 -0.0017294592 0.1917045 -0.056352992 -0.97983348 5.9588714e-05
-0.007969073 -0.013158787 -0.0012397687 0.19490007 -0.045470245 -0.97976863 6.3550724e-05
-0.0045363689 -0.013489882 -0.00055313262 0.18823506 -0.022379614 -0.98186904 5.3879943e-05
-0.0023490619 -0.01383075 -0.00011161758 0.18651973 -0.01135926 -0.98238558 3.4129771e-05
-0.039579548 -0.01053408 -0.0013372351 -0.96061671 0.017868035 -0.2773017 0.0093787499
-0.038968671 -0.010625947 -0.0028695178 -0.97847646 0.011360591 -0.2060457 0.016760321
-0.015347498 -0.010323745 -0.002918666 0.21436784 -0.088973634 -0.97269219 7.2026771e-05
-0.013385301 -0.010467175 -0.0024898071 0.20420709 -0.078538932 -0.97577202 8.5852495e-05
-0.010632786 -0.01049763 -0.0019166087 0.20504561 -0.060858577 -0.9768585 7.134935e-05
-0.0078532593 -0.010589086 -0.0013283618 0.20743477 -0.047682803 -0.97708607 6.5061147e-05
-0.0046460009 -0.010316108 -0.00067092857 0.21103673 -0.031982757 -0.97695476 6.1519597e-05
-0.002312107 -0.010809587 -0.00015281374 0.21347231 -0.018955883 -0.97676522 6.6908498e-05
-0.039620213 -0.007448216 -0.0012353067 -0.95664126 -0.083793029 -0.27895567 0.0085025989
-0.038991828 -0.0073371693 -0.0026150646 -0.9849627 -0.062677212 -0.16099712 0.019476868
-0.013346314 -0.007425705 -0.0027272049 0.22243021 -0.079736248 -0.97168249 9.0335649e-05
-0.010619507 -0.0072661638 -0.0021212141 0.22178245 -0.064561605 -0.97295654 9.1680013e-05
-0.0076581822 -0.0074872007 -0.0014335435 0.22124311 -0.047207832 -0.97407544 7.3094685e-05
-0.0044193068 -0.0074672787 -0.00070575619 0.22108825 -0.03219562 -0.97472227 6.3777909e-05
-0.0019160716 -0.0072848662 -0.00014597649 0.23137093 -0.019622542 -0.97266769 0.00012369915
-0.040071387 -0.0047724964 -0.0015112177 -0.95768243 -0.10959174 -0.26614651 0.0086433478
-0.038996045 -0.0055968123 -0.0026060238 -0.98259073 -0.13712911 -0.12534414 0.016909396
-0.012928653 -0.0046640439 -0.0028618469 0.23751803 -0.074957885 -0.96848667 5.3790882e-05
-0.010546188 -0.0043400372 -0.0022993234 0.23719347 -0.062847599 -0.96942741 6.9701571e-05
-0.0073842504 -0.0044515156 -0.0015208884 0.23689294 -0.046921339 -0.970402 7.6639662e-05
-0.0042441357 -0.0043057012 -0.00076488638 0.235165 -0.030369859 -0.97148079 7.422729e-05
-0.0018566803 -0.0044619767 -0.00017840395 0.24182492 -0.01809408 -0.97015119 8.563124e-05
-0.040225454 -0.0015420681 -0.0013331261 -0.9584322 -0.035197798 -0.28314099 0.012694222
-0.012391937 -0.0020478975 -0.0029108101 0.25141653 -0.04708039 -0.96673322 0.00017853394
-0.010204711 -0.0015089902 -0.0023940091 0.24816699 -0.047342621 -0.9675597 8.921988e-05
-0.007252933 -0.0015193477 -0.0016292521 0.24846824 -0.028901193 -0.96820879 9.7181641e-05
-0.0043906639 -0.0014477285 -0.00088861625 0.24845071 -0.019652203 -0.96844512 6.1438703e-05
-0.0017931501 -0.001611572 -0.00021644303 0.25265539 -0.011358411 -0.96748966 5.3287098e-05
-0.040283293 0.0016438437 -0.0011144705 -0.95497018 -0.0098842159 -0.2965371 0.014076365
-0.010291726 0.0014469502 -0.0025040258 0.2520127 -0.0058688307 -0.96770614 0.00011888173
-0.0072570951 0.0012262195 -0.0016968193 0.25323251 -0.0052823918 -0.96739101 8.0552469e-05
-0.0040735793 0.0014436604 -0.00084528682 0.25484788 -0.00076539034 -0.96698087 3.3855853e-05
-0.0017478133 0.0013255265 -0.00022832662 0.26048854 0.00089316792 -0.96547657 5.7794616e-05
-0.040465742 0.0047702692 -0.0013287407 -0.93160641 0.071862005 -0.35629395 0.0098426454
-0.012101429 0.0045291027 -0.0028931424 0.24768347 0.02678567 -0.96847063 0.00011637311
-0.010213667 0.0046184682 -0.0024081802 0.25007522 0.032030065 -0.96769649 3.5418467e-05
-0.0070569548 0.0039382591 -0.0016053197 0.25529531 0.016679283 -0.96671921 6.382486e-05
-0.0040817196 0.0043863892 -0.00081760599 0.25101399 0.014694976 -0.9678719 4.3913551e-05
-0.0017408284 0.0038322443 -0.00021340008 0.25993717 0.0093103377 -0.96558064 6.6024644e-05
-0.03961068 0.0078492826 -0.0012795111 -0.96981037 0.070018016 -0.23359205 0.010440539
-0.038999718 0.0086731603 -0.0028327522 -0.97340584 0.03026958 -0.22707893 0.024130093
-0.012442291 0.0081600435 -0.0028114279 0.24428611 0.047277648 -0.96855003 3.7091453e-05
-0.010932694 0.0071435212 -0.0024912055 0.24374628 0.045238711 -0.96878338 4.5863635e-05
-0.0075870208 0.0072126295 -0.0016330945 0.24470942 0.035550136 -0.96894449 4.4721659e-05
-0.0048991255 0.0075770481 -0.00092744175 0.24015383 0.02598072 -0.9703871 4.4978671e-05
-0.0024841235 0.0075845527 -0.00033232514 0.24422477 0.016195759 -0.96958339 6.758533e-05
-0.039668556 0.010704033 -0.0012221128 -0.95325959 0.0038554387 -0.30212796 0.013205995
-0.038956799 0.010800338 -0.0028744978 -0.9796536 0.013056854 -0.20027056 0.015814872
-0.012807209 0.010484409 -0.0027428016 0.22972001 0.0734585 -0.97048056 8.1124846e-05
-0.010225415 0.009969119 -0.0021581862 0.23193349 0.056984041 -0.97106111 6.7483918e-05
-0.0073319352 0.010536737 -0.001431514 0.23169692 0.040585555 -0.97194105 5.7275363e-05
-0.0046512503 0.010365472 -0.00080645882 0.23010769 0.026600191 -0.97280157 6.9488393e-05
-0.0022861471 0.010540717 -0.00024222959 0.22971128 0.015127578 -0.97314125 9.7752498e-05
-0.039572962 0.013583139 -0.001476381 -0.96832025 -0.01820671 -0.24904704 0.009915865
-0.038951494 0.013382356 -0.0028909259 -0.98232478 -0.035908502 -0.18370789 0.014556369
-0.013818206 0.013678044 -0.0026833422 0.20588776 0.09130951 -0.97430634 0.00010978364
-0.010343898 0.013380917 -0.0019540656 0.21398972 0.069572642 -0.97435516 0.00010201589
-0.0071629346 0.013870426 -0.0012396094 0.21154878 0.04696124 -0.97623861 0.00011574962
-0.0045440267 0.013539587 -0.00068080745 0.20856242 0.026816398 -0.97764134 0.00013296351
-0.0021174515 0.013514519 -0.00016455963 0.21834774 0.010673276 -0.97581267 0.00011249967
-0.039615043 0.016388819 -0.001370382 -0.96415502 -0.015977176 -0.26485813 0.01107574
-0.038948275 0.016326949 -0.0028982232 -0.98540264 -0.016601313 -0.1694282 0.018392671
-0.016435204 0.016852226 -0.0028635277 0.18998046 0.11371063 -0.97518069 7.4941505e-05
-0.013781132 0.01654616 -0.0024125911 0.19157821 0.09814515 -0.97655791 0.00010772458
-0.010556183 0.016449086 -0.0018046614 0.19226925 0.07182692 -0.97871011 0.00015399059
-0.0078270249 0.016290696 -0.0012480157 0.18853633 0.054829054 -0.98053443 0.00019896764
-0.0043203677 0.016308689 -0.00058898033 0.18735686 0.028971884 -0.98186457 0.00012569925
-0.0018675771 0.016317816 -0.00010685413 0.20345643 0.014225253 -0.97898066 0.00013934272
-0.03963792 0.019498412 -0.0014361825 -0.95491022 -0.014381557 -0.29654613 0.010719424
-0.038936127 0.019629337 -0.0027689266 -0.93947619 -0.023488611 -0.34180808 0.027503761
-0.018507799 0.019280901 -0.0029563881 0.17580931 0.1311073 -0.97565466 0.00010396854
-0.016720783 0.019667182 -0.002588788 0.18190917 0.12393491 -0.97547388 6.5998385e-05
-0.013596076 0.019429363 -0.002041433 0.17330536 0.10140506 -0.97963375 0.00011400808
-0.010354049 0.019794026 -0.0014367998 0.17146131 0.07860487 -0.98205006 0.00016787497
-0.0073731369 0.019490726 -0.00098540215 0.16898406 0.055631418 -0.98404753 0.00015793263
-0.0043851696 0.019404307 -0.00048968458 0.17067698 0.029978946 -0.98487091 9.7880198e-05
-0.002522191 0.019457115 -0.00013361502 0.19358967 0.024927147 -0.98076594 0.00029901156
-0.040013593 0.022502722 -0.0015841102 -0.90424097 0.035746712 -0.42552373 0.012039144
-0.038806282 0.021292647 -0.0029005737 -0.71891963 0.094772384 -0.68860203 0.029387102
-0.021513304 0.023040144 -0.0029199549 0.15600163 0.13620119 -0.97832143 7.588126e-05
-0.019543275 0.022987481 -0.0026622252 0.16442338 0.128672 -0.97796142 9.6154763e-05
-0.016645115 0.02254753 -0.0022292363 0.16282214 0.10854521 -0.98066658 0.00012293746
-0.013438687 0.022574581 -0.0017151667 0.15433562 0.090841025 -0.98383355 0.00012017951
-0.010391599 0.022482546 -0.001276176 0.1484409 0.066884205 -0.9866569 0.00010962391
-0.0079791676 0.022951871 -0.00088936905 0.14196691 0.050529379 -0.98858088 7.1193725e-05
-0.0044269916 0.02233462 -0.0003953244 0.15083462 0.038103979 -0.98782432 7.3855583e-05
-0.0026531629 0.02281606 -8.8518849e-05 0.15554686 0.029400751 -0.98739094 0.00013680509
-0.040045436 0.025313422 -0.0011587432 -0.9222362 0.027723189 -0.38563162 0.014480341
-0.025157219 0.026925938 -0.0028600446 0.12074908 0.15679596 -0.98022181 5.5166001e-05
-0.022115937 0.025631715 -0.0027069012 0.12782198 0.13431273 -0.98266053 0.0001188409
-0.019316098 0.025629424 -0.0023049694 0.14213791 0.11798093 -0.98279059 0.00012478876
-0.01630874 0.025561366 -0.0018568694 0.14103647 0.098094903 -0.98513252 0.00017314177
-0.013227012 0.02574062 -0.0013953156 0.13798223 0.073848888 -0.98767769 0.00012558508
-0.010638732 0.025968112 -0.0010758998 0.1307864 0.053719576 -0.98995411 8.8448985e-05
-0.007213688 0.025328422 -0.00065323611 0.13481788 0.041189235 -0.9900139 0.00011342238
-0.0045184107 0.025813496 -0.00025912176 0.13113023 0.023300244 -0.99109137 0.00011480851
-0.0025763768 0.025203465 -1.6133426e-05 0.14421715 0.01754584 -0.98939043 0.00016765484
-0.04032211 0.028109558 -0.0013633689 -0.86811346 0.038043305 -0.4949058 0.017529868
-0.02732151 0.028871264 -0.0028531416 0.1052724 0.13659711 -0.98501724 6.6389883e-05
-0.025241088 0.029106855 -0.0026018042 0.10541564 0.12386234 -0.9866842 4.8233927e-05
-0.022704884 0.028724421 -0.002362445 0.11389434 0.11746897 -0.98652375 0.00010850819
-0.019368464 0.028544638 -0.0019675917 0.12448649 0.10677356 -0.98645955 0.00014903137
-0.016232185 0.028260756 -0.0016161636 0.12286283 0.084503308 -0.98881942 0.00020554996
-0.01329706 0.028815342 -0.00126563 0.11596517 0.056280907 -0.99165744 7.316062e-05
-0.010607022 0.028898919 -0.00093418971 0.11602194 0.044517733 -0.99224854 4.2981657e-05
-0.0074443291 0.028075157 -0.00059512415 0.11926119 0.030917015 -0.99238145 9.2820177e-05
-0.0045198104 0.028593218 -0.00025011311 0.11695575 0.014558528 -0.99303043 8.7291664e-05
-0.0023127659 0.028832277 -2.1557473e-05 0.13319057 0.0011443936 -0.99108982 0.00015336588
-0.040185474 0.031443562 -0.0015251265 -0.83553702 0.062187873 -0.54590344 0.01751912
-0.038583007 0.031464729 -0.0028941331 -0.72614712 0.10586383 -0.67934024 0.013338026
-0.033084232 0.032253742 -0.0029707388 0.087408334 0.1478242 -0.98514354 0.00046476521
-0.031102799 0.031788692 -0.0028499225 0.097762279 0.12641487 -0.98714828 4.9630478e-05
-0.028467428 0.031553388 -0.0026117919 0.097619303 0.12257963 -0.98764604 6.1444305e-05
-0.025412906 0.031829096 -0.0022774073 0.10047986 0.11405416 -0.98838025 5.0351635e-05
-0.022234753 0.031307176 -0.0020107958 0.10602619 0.10312876 -0.98900104 0.00010030606
-0.019595321 0.031805828 -0.0016822247 0.10310686 0.08004038 -0.99144465 0.00014195207
-0.016532544 0.031634003 -0.0013812946 0.099679306 0.070809074 -0.99249697 8.0917067e-05
-0.013357839 0.031549416 -0.001074302 0.10343172 0.054225497 -0.99315733 6.5450222e-05
-0.0099524278 0.0309816 -0.00076015695 0.10522632 0.04065977 -0.9936167 5.0407358e-05
-0.0074423305 0.031337351 -0.00048421524 0.10190536 0.024351412 -0.99449599 7.2812523e-05
-0.00460906 0.031281602 -0.00020127522 0.10463446 0.016893091 -0.99436724 5.6064458e-05
-0.0022091933 0.030953161 -1.2650115e-05 0.12978584 0.0049961354 -0.99152946 0.00019316675
-0.039747033 0.035110034 -0.0016609367 -0.81899691 -0.034932647 -0.57273358 0.024088422
-0.03819545 0.034499001 -0.0026926829 -0.71527797 0.038980749 -0.69775218 0.017369112
-0.034148268 0.0346549 -0.002827324 0.025684778 0.082481511 -0.99626154 0.0017431276
-0.031381216 0.034425702 -0.0025580341 0.099706441 0.078362904 -0.99192637 0.00053656066
-0.028450787 0.034637496 -0.0022768637 0.09871266 0.065740883 -0.99294209 0.00033869004
-0.025261499 0.034730025 -0.0019720772 0.090944193 0.05007109 -0.99459642 0.0012900424
-0.02252206 0.034264334 -0.0017596656 0.093759298 0.07077112 -0.99307638 0.0003149531
-0.019431807 0.034681305 -0.0014473796 0.09049461 0.051592678 -0.99455971 0.00012138469
-0.016513735 0.034541816 -0.0012162672 0.089160599 0.025260946 -0.99569678 0.00078083732
-0.013269278 0.034039397 -0.00096949335 0.092360809 0.028664682 -0.99531287 0.00012873353
-0.010440689 0.034410778 -0.00068391906 0.093911715 0.0048860009 -0.99556857 0.00086858799
-0.0074239336 0.034468837 -0.0004059819 0.092621848 0.0057056015 -0.99568498 9.9473109e-05
-0.004429284 0.034336373 -0.00014201614 0.088005923 -0.0086396886 -0.99608248 0.00019926718
-0.042065296 0.038954549 -3.2971122e-06 -0.44309634 -0.729635 -0.52086318 0.022748023
-0.040372558 0.037959855 -0.0012118914 -0.68894458 -0.29888272 -0.66032141 0.060225204
-0.037907094 0.037405878 -0.0025000689 -0.5182234 -0.05251313 -0.8536315 0.028103668
-0.034673292 0.037763815 -0.002751152 0.014614916 -0.063675359 -0.99786365 0.0081242723
-0.031745531 0.037439451 -0.0026123761 0.071092442 -0.041804884 -0.99659336 0.0021994095
-0.028745826 0.037828021 -0.0021477612 0.09839604 -0.076584026 -0.99219608 0.0023219669
-0.025756247 0.03784205 -0.0019227536 0.067527212 -0.093849577 -0.9932937 0.0034480619
-0.022566909 0.037514444 -0.001647421 0.079586342 -0.10738183 -0.9910273 0.0037562028
-0.019488603 0.037682913 -0.0013891131 0.088648856 -0.11303364 -0.98962861 0.0040014521
-0.016166113 0.037457451 -0.0010993904 0.086605445 -0.095694564 -0.99163604 0.002588395
-0.013468585 0.037580974 -0.0009198105 0.089872479 -0.1348035 -0.98678821 0.0048317611
-0.010813846 0.037926417 -0.00074654561 0.066906072 -0.13900599 -0.98802882 0.0047749379
-0.007621841 0.037505988 -0.000447497 0.068617113 -0.14955628 -0.98636943 0.0042569172
-0.0044090603 0.037850741 -0.00021753978 0.092020705 -0.15553553 -0.98353487 0.0043298653
-0.0014987161 0.038627867 -0.00014654556 0.101152 -0.28544375 -0.95304257 0.014266096
0.0003074393 0.038958393 -0.00014344971 0.13035579 -0.55602443 -0.82088017 0.0053141867
-0.045599133 0.041227609 -0.00068161509 -0.34953302 -0.75053471 -0.56082457 0.015686695
-0.043405477 0.040934484 -0.0013026858 -0.41024616 -0.66946679 -0.61928368 0.022197273
-0.040827751 0.040155035 -0.0017203103 -0.43665752 -0.60451567 -0.66625154 0.035163365
-0.037824329 0.040051304 -0.0026094925 -0.42609894 -0.38950041 -0.81653488 0.035950061
-0.034750372 0.040594511 -0.0028093397 0.047302552 -0.44891608 -0.89232099 0.016408753
-0.031942956 0.040840697 -0.0028178683 0.044054624 -0.42187876 -0.9055813 0.011200899
-0.028429568 0.040704772 -0.00259862 0.049670711 -0.32464477 -0.94453084 0.010427406
-0.025535492 0.040645286 -0.0024112863 0.048136298 -0.31701356 -0.94719863 0.00690646
-0.022212943 0.040956635 -0.002281284 0.077487476 -0.38418376 -0.91999924 0.0038099501
-0.019457849 0.040897667 -0.0020223621 0.088760756 -0.399748 -0.91231745 0.0040812944
-0.016502434 0.040532168 -0.0016616526 0.058619585 -0.32152534 -0.94508475 0.0041071526
-0.01353931 0.040538803 -0.0014593191 0.055370841 -0.33013234 -0.94230914 0.0041711964
-0.010411541 0.040750336 -0.0013841524 0.039077174 -0.35228318 -0.93507731 0.0045383708
-0.0074242591 0.040638972 -0.0012275811 0.031318258 -0.39828962 -0.91672492 0.0048043956
-0.0044644522 0.040683813 -0.0011738603 0.02189385 -0.46841642 -0.88323653 0.0064149923
-0.0014611706 0.040666368 -0.0011267181 0.028830234 -0.4796569 -0.87698233 0.0073886253
0.00159384 0.040810555 -0.0012757872 -0.033388454 -0.6666553 -0.74461794 0.0069442489
0.0045551071 0.040635649 -0.0015261917 -0.073538125 -0.81599152 -0.57336724 0.0033870705
0.0075928234 0.040201772 -0.001521342 -0.057174694 -0.87451226 -0.48162159 0.0025393246
0.010546786 0.040070195 -0.0015447302 0.020994795 -0.92102635 -0.38893405 0.004170855
0.013552521 0.040249988 -0.0015420089 0.10800018 -0.94344074 -0.31345743 0.0048317597
0.01669826 0.040801838 -0.0015238146 0.19154803 -0.96209019 -0.19414371 0.0035895412
0.019396491 0.041420236 -0.0014591839 0.23889025 -0.96325463 -0.12276782 0.0028937091
0.021249557 0.041882779 -0.0013877191 0.28935018 -0.95566231 -0.054644432 0.0024922888
-0.051672626 0.043944463 -0.0014390673 -0.61364692 -0.77379888 -0.1570753 0.050039314
-0.049515978 0.043553401 -0.0015204666 -0.2322564 -0.91024613 -0.34279588 0.040178731
-0.046641216 0.043559775 -0.0016650035 -0.26131946 -0.83186758 -0.48960027 0.02460604
-0.044095483 0.043192215 -0.0026992308 -0.26945528 -0.76182097 -0.58908641 0.014882255
-0.04089519 0.042137355 -0.0026306827 -0.18614697 -0.59016228 -0.78553027 0.027601451
-0.03762899 0.04316831 -0.0025849782 -0.13432291 -0.67311168 -0.72724003 0.062454537
-0.024751462 0.042135272 -0.0029258109 0.072530441 -0.53202748 -0.84361488 0.0089780008
-0.022232845 0.042300243 -0.0028499153 0.092744157 -0.55341595 -0.82772535 0.0031784538
-0.019325228 0.042556137 -0.0027024068 0.077143349 -0.51911527 -0.85121584 0.0032307385
-0.016543319 0.042684231 -0.0025206311 0.061169736 -0.50391644 -0.86158365 0.0031203348
-0.013453644 0.042972386 -0.0024767949 0.035127103 -0.50888133 -0.86011964 0.0029437002
-0.010481491 0.043053489 -0.0024989091 0.0034779194 -0.53548783 -0.84453583 0.0028040751
-0.0074643581 0.042823676 -0.0024115185 -0.026817244 -0.57940865 -0.81459594 0.0027302147
-0.0044809463 0.042683929 -0.0024529982 -0.046856329 -0.63107806 -0.7743029 0.0029971364
-0.0015406366 0.042528588 -0.0025278288 -0.074056998 -0.69517684 -0.71501386 0.0034796875
0.0011085974 0.042293116 -0.0026597697 -0.13675247 -0.74003744 -0.65851599 0.0028853752
0.020763556 0.042042084 -0.0026143838 0.19175148 -0.96896142 -0.15602945 0.002761754
0.02265371 0.042394537 -0.0014960666 0.32363302 -0.94617218 0.0044716769 0.0042699873
0.025475107 0.043418687 -0.0015026229 0.34988189 -0.93379623 0.074882373 0.0024299836
0.028162688 0.04450383 -0.0017126522 0.38516945 -0.90829366 0.16323952 0.0025872272
-0.052303337 0.046481606 -0.0013956514 -0.93409437 -0.33142501 -0.13275971 0.040700354
0.029505221 0.045286335 -0.0010763031 0.44069713 -0.86624986 0.23536602 0.0027100779
0.031378839 0.046096258 -0.0016164053 0.44963324 -0.84904701 0.27739716 0.002257847
0.03391616 0.047376495 -0.0018588261 0.45382839 -0.80957025 0.37233832 0.0027807751
0.036174979 0.047911908 -0.0029957064 0.49942189 -0.75295484 0.4285287 0.0034331351
-0.052475318 0.0494317 -0.0014551501 -0.99478734 -0.05352224 -0.08679606 0.0031166596
0.035257541 0.048669185 -0.0010743345 0.49936312 -0.74928153 0.43498701 0.0033484765
0.037406627 0.049713105 -0.0018264959 0.51597017 -0.72306728 0.45929131 0.003074988
0.039531007 0.050788149 -0.0024969419 0.59233689 -0.6096105 0.52679408 0.0029612789
-0.05230337 0.052474279 -0.0018880868 -0.99807137 0.043541282 -0.044245128 0.0021014721
0.038227588 0.05137654 -0.00064162497 0.55904382 -0.58140969 0.59112829 0.0032949494
0.040173531 0.052489977 -0.0015799714 0.62210763 -0.55583012 0.55139363 0.003046551
-0.051865857 0.055418316 -0.001495349 -0.99524683 0.075433381 -0.061591905 0.0022341285
0.041406885 0.054668948 -0.0011582954 0.68829644 -0.42106134 0.59072453 0.0042780563
0.04267801 0.055108573 -0.0023627388 0.72174543 -0.39174563 0.57063031 0.0038670078
0.041421365 0.058006998 -0.00015213244 0.65959054 -0.074621662 0.74791175 0.0026329947
0.043060068 0.058717251 -0.0016963459 0.74880844 -0.11680091 0.65241367 0.0042170575
0.041467756 0.061305355 -0.00029363585 0.65592551 0.074235626 0.75116634 0.00059467403
0.043243296 0.061532248 -0.001930922 0.72526735 0.041923981 0.68718976 0.0016918273
0.041296721 0.0643721 -0.00063165772 0.65168029 0.13478795 0.74642146 0.00050068973
0.043318201 0.064411782 -0.0024417154 0.72294539 0.11575376 0.68113953 0.0010596849
0.040703025 0.067629904 -0.00082898192 0.63009018 0.17584118 0.7563507 0.00071006548
0.042430881 0.066924118 -0.0021493018 0.68546146 0.19033061 0.70279217 0.00096208457
0.038639393 0.071940236 -0.00032730371 0.59824759 0.21860059 0.77091736 0.0013298859
0.040395021 0.070551835 -0.0013624631 0.63823664 0.21513176 0.73917001 0.00049003045
0.038030755 0.07263574 -4.6778263e-05 0.58265251 0.23665646 0.7775023 0.0018280252
0.040094394 0.073034465 -0.0019266228 0.62969881 0.23223123 0.74131507 0.00061532803
0.011807909 -0.078047521 0.00040812045 -0.13749832 -0.98407084 0.11268868 0.002661305
0.013716527 -0.078177087 0.0010540034 -0.12262481 -0.97877365 0.16421121 0.0029473766
0.01649967 -0.078363918 0.001266685 -0.061056178 -0.96864343 0.24083604 0.0028337138
0.019457446 -0.078472957 0.0011632029 -0.008128047 -0.94062483 0.33935079 0.003184722
0.022400033 -0.078484267 0.00092766463 0.045905836 -0.89901775 0.43549946 0.0036618514
0.025275843 -0.078396551 0.00060593872 0.10191619 -0.84849501 0.51929688 0.0037463163
0.027829608 -0.078231215 0.000288487 0.1612761 -0.78743315 0.59492767 0.0028795511
0.030375199 -0.078034788 0.00022768369 0.22415403 -0.73358577 0.64156598 0.0031149108
-0.00022148518 -0.075084314 0.0027009782 -0.54101175 -0.80334449 -0.24888535 0.010697985
0.0017603578 -0.075522169 0.0017799721 -0.37453896 -0.90172791 -0.21588756 0.0092769619
0.0045544626 -0.076375306 0.0014998245 -0.27453625 -0.95472252 -0.11460692 0.0038098816
0.0075331577 -0.077127144 0.0014998434 -0.22769538 -0.97342074 -0.024633408 0.0041264831
0.010487221 -0.077684805 0.0015460491 -0.14617738 -0.98560375 0.084955692 0.0034551795
0.013139453 -0.077879913 0.0024056546 -0.069080405 -0.98004127 0.18640536 0.0037863897
0.016142316 -0.077925943 0.0027341519 -0.0085606268 -0.95807964 0.28637412 0.0029404219
0.019572154 -0.077860817 0.0026727594 0.066135496 -0.9054985 0.41916409 0.0031707599
0.02260772 -0.077662043 0.0024386502 0.12335408 -0.85542005 0.50303113 0.0030666238
0.025576793 -0.077378184 0.0020649696 0.16957544 -0.80487764 0.56869692 0.002624142
0.028583063 -0.076867834 0.0016912586 0.21633285 -0.73448497 0.64322007 0.0026964429
0.031258959 -0.076440595 0.0011026341 0.29026821 -0.63850814 0.71277755 0.0028333876
0.033995621 -0.07573542 0.00049628143 0.40056995 -0.56365246 0.72238469 0.0020974244
0.03628524 -0.075053751 0.00020866719 0.51007551 -0.48267367 0.71193343 0.005037345
-0.0032578311 -0.072210744 0.0025767996 -0.53170449 -0.75088376 -0.39174464 0.0067812661
-0.0012080364 -0.073507704 0.001626491 -0.60502619 -0.73298615 -0.31092533 0.0085486816
0.000529463 -0.074641332 0.00090413634 -0.52967662 -0.80476171 -0.26795754 0.0087527493
0.02992209 -0.074854188 0.0028979436 0.33068267 -0.56923932 0.75273865 0.0080564106
0.031952634 -0.074180573 0.0025000551 0.37854117 -0.47306201 0.79556203 0.00405411
0.034472592 -0.073713839 0.0014347452 0.4478808 -0.39985213 0.79970068 0.003219048
0.036695819 -0.073328316 0.00036497222 0.50287604 -0.39317819 0.76975751 0.0030990951
-0.012206935 -0.069136441 0.0028175248 -0.31175795 -0.86221808 -0.39923301 0.018804844
-0.010357345 -0.069411188 0.0022672771 -0.36098415 -0.809448 -0.46312463 0.013948727
-0.0074063446 -0.069860488 0.0015784241 -0.36942306 -0.8047595 -0.46463823 0.010991961
-0.0045229178 -0.070784673 0.0015042524 -0.45103681 -0.79879475 -0.39811152 0.0082364976
-0.0023641244 -0.071593396 0.00077923719 -0.57879871 -0.74142134 -0.33953878 0.0099131325
0.032769959 -0.071789607 0.0029862614 0.47659627 -0.29320857 0.82878512 0.0023142828
0.034627203 -0.071057908 0.0023012673 0.490143 -0.24418089 0.83674109 0.00080290937
0.037212241 -0.070843071 0.0007398724 0.5407815 -0.24220185 0.80553937 0.0012425079
0.039218601 -0.069493532 0.00018834889 0.59455752 -0.22327577 0.77243078 0.00073320587
-0.018588958 -0.066314779 0.0026324985 -0.24036959 -0.82309884 -0.51451987 0.013923801
-0.016276957 -0.066626236 0.0021891443 -0.26080549 -0.81500828 -0.51743793 0.012052469
-0.013294045 -0.067292765 0.0017006199 -0.3232334 -0.80168879 -0.50280732 0.012147027
-0.010560798 -0.067908876 0.0013704197 -0.36774099 -0.7812593 -0.50438124 0.014960845
-0.0080613755 -0.068440348 0.00094613573 -0.38961005 -0.75981081 -0.52047247 0.011947727
-0.0054498003 -0.068672299 0.00044792384 -0.42094478 -0.73884916 -0.5262199 0.019165039
0.035273124 -0.068118691 0.0025984256 0.51611054 -0.1677108 0.83994222 0.00017768519
0.037265964 -0.067447506 0.0014506084 0.53676707 -0.17720853 0.82491106 0.00032910166
0.039439838 -0.067263536 0.00031034523 0.58020276 -0.1735401 0.7957691 0.00033511201
-0.030799611 -0.063197955 0.0026436448 -0.19680801 -0.90899622 -0.36741328 0.015269412
-0.028365085 -0.063485093 0.0023025803 -0.18615238 -0.87077546 -0.4550795 0.0090692425
-0.02533311 -0.063826039 0.0018857534 -0.17517971 -0.84168929 -0.51075542 0.007686398
-0.022422304 -0.064289257 0.0016414876 -0.16277665 -0.8253901 -0.54058743 0.0087613799
-0.019681782 -0.064667717 0.001422916 -0.2215008 -0.80950284 -0.54373014 0.013177844
-0.016589617 -0.065240249 0.0010242368 -0.26737821 -0.76792002 -0.5820719 0.0097832941
-0.014268981 -0.065621518 0.00056499586 -0.2985861 -0.71838796 -0.62830335 0.0064539099
0.035785872 -0.064237013 0.0028341289 0.51927185 -0.13812894 0.84337246 0.00013366269
0.037123311 -0.064120181 0.0021493798 0.53539413 -0.1372246 0.83338022 0.00022556454
0.039628886 -0.064659156 0.00056497985 0.57926381 -0.13632068 0.80366045 0.00031639755
-0.042916767 -0.060259692 0.0023065545 -0.20744507 -0.95395178 -0.21666238 0.013650422
-0.040375035 -0.06061307 0.0017021542 -0.1867968 -0.93994051 -0.28569007 0.0037913579
-0.037445582 -0.06112745 0.0015868252 -0.19439743 -0.92414713 -0.32887954 0.0028860036
-0.034442287 -0.061700448 0.0015629069 -0.17327727 -0.91475821 -0.36495528 0.0085394131
-0.031585582 -0.062125284 0.001355547 -0.18543145 -0.89969283 -0.39518094 0.011587992
-0.028648814 -0.062359519 0.0010020246 -0.14614406 -0.86227554 -0.48489451 0.0074977181
-0.025787802 -0.062539168 0.0005366854 -0.13947332 -0.82240164 -0.55154574 0.0047933902
-0.022806667 -0.062669657 0.00092842313 -0.1637778 -0.77663219 -0.60829216 0.010278955
0.03789397 -0.062062543 0.0019561697 0.54494756 -0.11839633 0.83006895 0.00019624413
0.039890025 -0.061162662 0.00073935615 0.57912922 -0.12174121 0.80609453 0.00064953032
-0.051512778 -0.057431869 0.001746294 -0.54461569 -0.80830079 -0.22370447 0.033133615
-0.049545895 -0.057645015 0.0016248246 -0.34014389 -0.89350504 -0.29317391 0.016253343
-0.046465397 -0.05901954 0.001531742 -0.33143061 -0.88122326 -0.33704486 0.0082832398
-0.043744933 -0.05962576 0.001165233 -0.22378117 -0.94307464 -0.24603269 0.012809071
-0.041116476 -0.059875172 0.00069345138 -0.18756592 -0.93228137 -0.30930638 0.0041761864
0.037814982 -0.058630385 0.0025015005 0.55058974 -0.021148168 0.83450806 0.00085683167
0.040283635 -0.058767717 0.00081247534 0.58501446 -0.017125919 0.81084204 0.0013115666
-0.052149337 -0.055715356 0.001288919 -0.79919273 -0.52332163 -0.29567799 0.041868083
0.037809104 -0.055805929 0.0022811599 0.55740345 0.042900007 0.82913262 0.00093664543
0.039841589 -0.056124706 0.00097968173 0.5963794 0.079969265 0.79870927 0.0014098397
-0.052719589 -0.052589327 0.0015043359 -0.97846854 -0.14033216 -0.15134819 0.0014862366
0.035282984 -0.052430205 0.0028499996 0.56171584 0.28244358 0.7776252 0.00092371216
0.037419055 -0.052903548 0.0014739746 0.56437796 0.29889032 0.76950777 0.00051838008
-0.052914519 -0.049560681 0.0016072149 -0.99446207 -0.00054976298 -0.10509425 0.0035919619
-0.052634194 -0.046223577 0.0010406905 -0.98927402 0.094188109 -0.11164953 0.0013370322
-0.05233768 -0.043733846 0.0014898536 -0.98988676 0.12413402 -0.068666577 0.0044544865
-0.040678494 -0.031197585 0.0015913305 -0.95587695 0.016017992 -0.29333049 0.0081599904
-0.0012695469 -0.0303038 0.00016144234 0.13770178 -0.010204591 -0.99042118 5.4802364e-05
-0.040660579 -0.027878148 0.0015615266 -0.96550053 0.051820215 -0.25519308 0.0035210338
-0.0013020143 -0.028432461 0.00014816986 0.13770175 -0.010204837 -0.99042118 5.483134e-05
-0.0407403 -0.025476582 0.0017086763 -0.96290898 0.028482646 -0.26831898 0.0024569426
-0.00088661874 -0.025519433 0.0001958575 0.14740984 -0.0063134404 -0.98905534 3.3490775e-05
-0.040718094 -0.022503784 0.0016473505 -0.9549188 0.027100936 -0.29562759 0.0017071915
-0.0018667607 -0.022195812 3.8144928e-05 0.15479892 -0.0091924556 -0.98790324 2.4402394e-05
0.00011301428 -0.022532204 0.00034490254 0.15601839 -0.0071618943 -0.98772818 2.2691827e-05
-0.040666979 -0.01951611 0.00151011 -0.9431057 0.023918809 -0.33163166 0.00077999849
-0.0014343908 -0.019368064 9.072449e-05 0.16752966 -0.0094764642 -0.98582149 3.2725955e-05
0.00034509902 -0.019454386 0.00038606289 0.17092729 -0.0028800725 -0.98527944 6.4013082e-05
-0.040636171 -0.016506344 0.0014256708 -0.91966087 -0.0011854856 -0.39271173 0.0025931499
-0.0012824573 -0.016395977 9.9295066e-05 0.18370499 -0.007626601 -0.98295182 4.2917462e-05
0.00047225915 -0.016307909 0.00042421103 0.18368882 -0.0082193604 -0.98295015 4.3425985e-05
-0.040581707 -0.013452773 0.0012794732 -0.91723734 -0.013642434 -0.39810738 0.0029868465
-0.0011826882 -0.013345356 9.5301082e-05 0.19594446 -0.0070229853 -0.98058987 6.8020927e-05
0.00087265752 -0.013521669 0.00052550423 0.19487309 -0.0061029904 -0.98080945 7.5400065e-05
-0.040670671 -0.010532137 0.0015073583 -0.8935343 -0.030801989 -0.44793704 0.0065324022
-0.0011507989 -0.010379262 7.5275842e-05 0.21163331 -0.006279381 -0.97732896 0.00014678617
0.0011910642 -0.010645573 0.00065361452 0.22992334 0.00087240268 -0.97320837 0.00021241306
-0.040633865 -0.0075751068 0.0014077058 -0.88489401 -0.096879624 -0.4556061 0.0083091129
-0.0005898028 -0.0070634442 0.00015188525 0.23161201 -0.01588114 -0.97267866 0.00010048566
0.0015890418 -0.007611454 0.00083409366 0.31114838 0.0026632673 -0.95035768 0.0022826439
-0.042293187 -0.0037179335 0.0027222685 -0.865749 -0.04404651 -0.49853644 0.0084601771
-0.040788557 -0.0046767113 0.0015960101 -0.89455903 -0.085857585 -0.43862584 0.010296859
-0.00074389332 -0.0048006843 0.00010694395 0.28495118 -0.013831254 -0.95844221 0.0010876745
0.00075213483 -0.0042944783 0.00049504515 0.29713598 -0.0043736771 -0.95482516 0.0010809964
0.003229826 -0.0046281964 0.0018371794 0.3495861 -0.0075150616 -0.93687415 0.0023558412
-0.042438857 -0.0014031328 0.0026716494 -0.89202529 -0.015771501 -0.45171016 0.0057288911
-0.040724549 -0.0015174909 0.0013657598 -0.8946017 -0.017143728 -0.44653547 0.013555655
-0.00070432923 -0.0017978742 8.3314888e-05 0.28211734 -0.0017272033 -0.95937836 0.00093490753
0.00082538323 -0.0013076284 0.00050083664 0.31972158 -0.0044081444 -0.94750124 0.0010035133
0.0031311456 -0.00090501428 0.0017212409 0.58795577 0.044596791 -0.80766279 0.024770826
-0.042399749 0.0012613456 0.0025651688 -0.89226037 0.010519044 -0.45139867 0.0063309874
-0.040773548 0.0015711334 0.0014837789 -0.89683688 0.024658248 -0.44167373 0.013817647
-0.00054237491 0.0015147707 0.00010787865 0.26701537 0.0028307249 -0.96368814 5.5699631e-05
0.0010995616 0.0017338493 0.00059910316 0.32200229 0.0043216241 -0.946729 0.0010082991
0.0031940881 0.0017541469 0.001795737 0.68689519 0.10193353 -0.71957248 0.034976326
-0.042413868 0.0040864809 0.0027218624 -0.87593716 0.054168932 -0.47937435 0.011373179
-0.040743865 0.0046443148 0.0015894354 -0.88885164 0.078360625 -0.45144463 0.014269838
-0.0005380307 0.0051468834 0.00012506761 0.2765913 0.0083915917 -0.96095109 0.00069647213
0.0012608315 0.0043493193 0.00065338425 0.32167074 0.007311943 -0.94682336 0.0011912656
0.0032566953 0.0044056093 0.001856312 0.7826184 0.0048763859 -0.62248272 0.034005549
-0.040471457 0.0076106968 0.00087914959 -0.8813619 0.084916867 -0.46474758 0.006278899
-0.00062680925 0.0079223411 0.00011186031 0.28614244 0.011615717 -0.95811671 0.0012650887
0.00092912425 0.0073597333 0.0005480526 0.29225165 0.010710296 -0.95628148 0.00098634197
0.0033414531 0.0079923235 0.0019407265 0.78336728 -0.00083741191 -0.62155861 0.032116931
-0.040488843 0.010758301 0.00091462705 -0.9095031 0.036941767 -0.41405249 0.010318048
-0.00049506465 0.010396477 0.00016882102 0.28133774 0.010656524 -0.95954967 0.0015000292
0.0010093895 0.010489842 0.00060633512 0.3045229 0.01121936 -0.95243895 0.0018018167
0.003406072 0.010726897 0.0020086798 0.78105003 -0.0167845 -0.6242429 0.032404773
-0.040531442 0.013837676 0.0010223404 -0.9253701 0.0096831629 -0.37894121 0.0099860365
-0.0004851835 0.013378027 0.00017934952 0.22506088 0.0054981317 -0.97432917 0.00016078945
0.0010733838 0.013359127 0.00062324567 0.29874825 0.0081333797 -0.9542973 0.0020252899
0.0034715477 0.013496199 0.0020775022 0.77110565 -0.012234296 -0.63658977 0.036827113
-0.040569156 0.016522961 0.0011159992 -0.92766958 0.010508247 -0.37325424 0.0064822803
-0.00074806163 0.017190605 0.00013726142 0.20424427 0.0091873836 -0.97887689 0.00015314136
0.0013127108 0.016343532 0.00068606366 0.29551005 0.0035551987 -0.95533299 0.0018449978
0.003537694 0.016293781 0.0021470382 0.76499969 0.018803874 -0.64375615 0.036013432
-0.040766466 0.019490978 0.0016261898 -0.95267236 -0.017362153 -0.30350289 0.0016662586
-0.0012927516 0.019801421 6.4648026e-05 0.18342224 0.016558765 -0.98289484 0.00019320151
0.00075923424 0.019247133 0.0005242225 0.26423597 -0.00086093356 -0.96445769 0.0020107655
0.0033099148 0.019123286 0.001907028 0.75308949 0.019243203 -0.65763658 0.036521312
-0.040771749 0.022438435 0.0016360596 -0.95209336 -0.018793903 -0.30522963 0.0012804242
-0.0010660313 0.022302913 0.00012163455 0.16472335 0.018223336 -0.98617142 0.0001803339
0.00076876691 0.022504615 0.00049202022 0.24043027 0.0054442114 -0.97065115 0.0017173159
0.0031016935 0.022925679 0.0016814894 0.76822442 -0.01493977 -0.6400063 0.03375154
-0.040688079 0.025466492 0.0014128215 -0.95772612 -0.016970828 -0.28718051 0.0023738977
-0.0010844547 0.025378035 0.0001724765 0.14510353 0.011766551 -0.9893465 0.00017357453
0.0010985963 0.025625469 0.00059023045 0.21598986 0.0097880708 -0.97634655 0.0020193106
0.0031664018 0.025811344 0.0017431303 0.74110711 -0.018580081 -0.6711297 0.044661693
-0.040689286 0.02852596 0.0014108594 -0.96110696 -0.016074784 -0.27570805 0.0025669327
-0.0012801437 0.028293734 0.00014277495 0.13801099 0.0059452429 -0.99041283 0.00014997354
0.00099880598 0.028296813 0.00054099748 0.20411402 0.0042152749 -0.97893804 0.0025676652
0.0032319222 0.028733235 0.0018051465 0.73651588 -0.019117987 -0.67615008 0.046845481
-0.040707003 0.031534117 0.0014656435 -0.96163535 0.0028384789 -0.27431634 0.0029419763
-0.0011080543 0.031385254 0.00016745481 0.12878881 0.0066021895 -0.9916501 0.00018904165
0.0013083115 0.031100603 0.00066178676 0.32824916 -0.0031984386 -0.94458574 0.021330988
0.0032981876 0.031688172 0.0018686826 0.75069892 0.0062245755 -0.66061521 0.045567606
-0.040901735 0.034480348 0.0015673706 -0.95240366 -0.101723 -0.28736684 0.012956882
-0.0032530185 0.034629896 1.703303e-05 0.07942462 -0.02355434 -0.9965626 0.00065209664
-0.0013403866 0.034571588 0.00015256053 0.12412865 -0.046259556 -0.99118721 0.0027204044
0.0016289838 0.034634173 0.00080918224 0.268949 -0.041480973 -0.96226078 0.0049359021
0.0033659805 0.034707312 0.0019416076 0.80856788 -0.23889014 -0.53772628 0.034512736
-0.042561956 0.038235724 0.0019951377 -0.68500221 -0.631899 -0.36259571 0.022220336
-0.041233525 0.037628297 0.0013924168 -0.83866972 -0.37845084 -0.39167339 0.03510822
-0.0032267179 0.037442934 1.9193649e-06 0.054789241 -0.16977702 -0.98395836 0.006940681
-0.0010851551 0.037297983 0.00012655392 0.12492167 -0.20622981 -0.97049665 0.011551589
0.0018564075 0.038203478 0.0005735631 0.13777643 -0.54254615 -0.82865024 0.020123042
0.0048196674 0.038442191 0.0015682923 0.149911 -0.82323951 -0.54754305 0.025465315
0.0075723827 0.038501814 0.0019473042 0.075686365 -0.93244392 -0.35329863 0.0038557278
0.010276444 0.038773302 0.0021046868 0.19117826 -0.95184994 -0.23965091 0.0042325482
-0.051526446 0.041941833 0.0029109747 -0.60313857 -0.75036949 -0.27049866 0.039447177
-0.048684515 0.040951438 0.0024488193 -0.3522487 -0.83667266 -0.41940397 0.014036424
-0.046381611 0.040565144 0.0015682145 -0.37648675 -0.83016461 -0.41119882 0.01419156
-0.043764964 0.039789528 0.0013635983 -0.43983465 -0.82163757 -0.36257023 0.014835901
-0.041439027 0.039346628 0.0011406484 -0.57227051 -0.73043102 -0.37279612 0.020920455
0.0023574105 0.039368588 8.7297849e-05 0.13010043 -0.6040476 -0.78625721 0.014975683
0.0045848093 0.039296865 0.00033956554 0.029924249 -0.80450976 -0.59318513 0.009919622
0.0075470288 0.039168809 0.00038937278 0.0055799498 -0.90368748 -0.42815632 0.0040280316
0.010905913 0.039247263 0.00069983752 0.08948075 -0.94727588 -0.30767122 0.0037136236
0.013530756 0.039542753 0.0014493346 0.23679978 -0.96008128 -0.14889546 0.0039666393
0.016728939 0.040431194 0.0015274119 0.3067674 -0.95112157 -0.035518013 0.0040124115
0.01940609 0.04133644 0.0014117385 0.3279765 -0.94391841 0.03807234 0.0030451396
0.021194585 0.041887268 0.0010320984 0.3811307 -0.91837031 0.10646801 0.0032464261
-0.051919587 0.043135412 0.0016060851 -0.73857898 -0.60432953 -0.29880905 0.042306162
-0.049614932 0.042549968 0.001351302 -0.2862348 -0.85142457 -0.4394834 0.014571697
-0.047446724 0.042843234 0.00042161756 -0.32201347 -0.79944152 -0.5071494 0.019300891
0.020552972 0.042030331 0.0028454748 0.39290297 -0.91495663 0.092096269 0.0028215398
0.02256378 0.042624168 0.0015486452 0.39688069 -0.90387034 0.15970035 0.0026098262
0.025473591 0.044017453 0.0014987256 0.43890834 -0.85959566 0.26163867 0.0026466271
0.027452301 0.044705451 0.00047426717 0.44992775 -0.83571935 0.31486219 0.0028975261
-0.052692831 0.046392012 0.0016348367 -0.94286537 -0.27416548 -0.18930955 0.026151277
0.026642026 0.045176566 0.002679849 0.47209793 -0.81857318 0.32720235 0.003923547
0.028654076 0.04583431 0.0015529962 0.48484129 -0.79566669 0.36310259 0.0016156449
0.031057693 0.047152758 0.0010924737 0.49608597 -0.74751979 0.44171578 0.0024458433
0.033187862 0.04777265 0.00018372161 0.47734058 -0.71798241 0.5066036 0.0036625774
-0.052859552 0.049243443 0.0014405637 -0.9933908 -0.0013775219 -0.11477265 0.0020671408
0.032328498 0.048931215 0.0022351348 0.5532828 -0.60882646 0.56851423 0.0021194506
0.034007736 0.04928644 0.00094510271 0.52436125 -0.66474015 0.53213322 0.0024785474
0.036360603 0.050793231 0.00047664336 0.54220068 -0.58171606 0.60632062 0.00094900001
-0.052713022 0.052353147 0.0012066467 -0.99006045 0.074225686 -0.11946024 0.001397941
0.035099722 0.051915884 0.0023526761 0.55376464 -0.52100283 0.64953887 0.0015711576
0.03734516 0.052634537 0.0010070923 0.5584591 -0.51559639 0.64983374 0.0023089487
0.039195579 0.053477723 0.00017510419 0.58450627 -0.46961102 0.66167819 0.0036874721
-0.052306127 0.055408765 0.0015656862 -0.9907366 0.11923024 -0.065000772 0.0050427313
0.037790351 0.055321027 0.0020591773 0.57199347 -0.23358749 0.78629541 0.0025059504
0.039816372 0.05551073 0.00057497615 0.61456639 -0.2617535 0.74417287 0.0031967447
-0.051886007 0.057352901 0.0016947956 -0.98067439 0.18278226 -0.069772534 0.0050808829
0.038172681 0.058423564 0.0022731032 0.56556875 -0.023137582 0.82437658 0.001896835
0.040128816 0.058354814 0.0008912785 0.60631323 -0.058382116 0.79307997 0.0029951395
0.037760668 0.061513726 0.0022958938 0.54337251 0.085327096 0.8351441 0.00021516343
0.039901163 0.061380439 0.00088462466 0.57674819 0.081487164 0.81284773 0.00048553667
0.03751367 0.064770706 0.0019979726 0.53666508 0.13106054 0.83355492 7.1338269e-05
0.039617218 0.06416212 0.00070710335 0.56809014 0.13340662 0.81208146 0.00024374117
0.035415579 0.067699693 0.0027938168 0.51148289 0.1615832 0.84396452 7.7810742e-05
0.037456796 0.067646645 0.0015241681 0.54352027 0.16054136 0.82390058 0.00023157797
0.039518248 0.06684123 0.00028400938 0.59264976 0.16908604 0.78751272 0.00041468532
0.035192236 0.070408031 0.0023747906 0.51018709 0.20077543 0.83630049 0.00015793953
0.037441283 0.070444524 0.00093111175 0.54720616 0.19904254 0.81298679 0.00052110193
0.039065462 0.069247931 7.7349636e-05 0.59218788 0.20653082 0.77888286 0.00043094478
0.032228377 0.074295945 0.0026880482 0.45388383 0.29178563 0.84193265 0.00032441359
0.034403261 0.07284832 0.0021659029 0.49021429 0.26967844 0.82883269 0.00053644628
0.036737423 0.073068038 0.00069089694 0.55055028 0.22148077 0.80488557 0.0010601451
-0.00077260262 -0.075260028 0.0048990557 -0.44295713 -0.87848306 -0.17904292 0.013313329
0.0015157533 -0.075860418 0.0044922647 -0.32238206 -0.9411177 -0.10182032 0.010941426
0.0045569148 -0.076510713 0.0045295055 -0.20443875 -0.97837132 0.031533662 0.0062931585
0.0074983016 -0.076951154 0.0045244144 -0.11680178 -0.97855473 0.16967015 0.0050807223
0.010499108 -0.077210508 0.0045190537 -0.055180259 -0.96739405 0.24719185 0.0046996847
0.013480891 -0.077287547 0.0045112465 -0.0063880445 -0.94468081 0.32792899 0.0041104225
