# .PCD v0.7 - Point Cloud Data file format
VERSION 0.7
FIELDS x y z normal_x normal_y normal_z curvature
SIZE 4 4 4 4 4 4 4
TYPE F F F F F F F
COUNT 1 1 1 1 1 1 1
WIDTH 564
HEIGHT 1
VIEWPOINT 0 0 0 1 0 0 0
POINTS 564
DATA ascii
-0.031982768 0.042320341 -0.0011966988 0.43934962 0.89618367 -0.061861247 0.0013721127
0.038447943 0.042133939 -0.00071530265 -0.51065552 0.85750633 -0.062560298 0.0018932205
0.040461816 0.043288842 -0.0014028632 -0.5386405 0.84033346 -0.060878504 0.0015047798
0.042524543 0.044605769 -0.0015564029 -0.54119253 0.84052598 -0.025034431 0.00074683304
0.07198792 0.042461351 -0.0028641769 0.95751154 -0.095611602 -0.27208474 0.001462409
0.072594531 0.043308418 -0.0011737004 0.97742605 -0.10431697 -0.18372893 0.004941504
-0.073227428 0.046516426 -0.0011269114 -0.94159406 -0.33461905 -0.037823293 0.0058549671
-0.042321891 0.047743145 -0.0019000992 0.48679402 0.86970395 -0.081526935 0.0017598079
-0.040304769 0.046641637 -0.0016564109 0.48073438 0.8721844 -0.090492241 0.0015413339
-0.038020607 0.045441065 -0.0011168137 0.4659988 0.88080984 -0.083780609 0.0018350407
0.043858729 0.04552412 -0.0012429005 -0.55555868 0.8310771 0.025796175 0.00081544649
0.046203453 0.047046266 -0.0015796727 -0.56020308 0.82832706 0.0068371845 0.00014330093
0.07266403 0.046519917 -0.0013016117 0.99213654 -0.032449771 -0.12088017 0.0043594171
-0.07521414 0.05078331 -0.00039869646 -0.92429388 -0.3797017 -0.03882486 0.017153146
-0.074223019 0.049239416 -0.0011876596 -0.93097425 -0.36280057 -0.040775798 0.0090794871
-0.04815349 0.050934173 -0.0023929684 0.47540089 0.86541545 -0.15827227 0.0037949351
-0.046382278 0.050078467 -0.0015506424 0.48307854 0.87106383 -0.088785812 0.0027760856
-0.043500442 0.048489381 -0.0013283807 0.48032254 0.87420344 -0.071123362 0.0022383819
0.047735475 0.048193995 -0.00074504712 -0.55562198 0.83121705 0.019035704 0.00011217593
0.049509525 0.049305867 -0.00131699 -0.55692536 0.83024371 0.023012308 9.2323207e-05
0.051196303 0.050443772 -0.0013067082 -0.53982508 0.83749974 0.084753059 0.0010281564
0.07277061 0.049284589 -0.0012146685 0.99323446 -0.03641339 -0.11026959 0.0053293845
-0.075662605 0.052521616 -0.0011666296 -0.92991567 -0.34176224 -0.13585068 0.017575102
-0.07482668 0.051311407 -0.0021182615 -0.91649616 -0.37370974 -0.14274383 0.011087377
-0.054357972 0.053932361 -0.0026062015 0.32392806 0.92253232 -0.20977338 0.0046248864
-0.052330434 0.053323913 -0.0012788265 0.43015656 0.9005174 -0.063511498 0.0027949475
-0.049615543 0.051866267 -0.0014803624 0.46724778 0.88119996 -0.071875222 0.0030449806
-0.047797989 0.051033691 -0.0003511681 0.46325782 0.87528169 -0.13883132 0.0048101731
0.05311301 0.051758159 -0.0010238471 -0.55844617 0.82505947 0.086109012 0.0013744429
0.055329479 0.053202029 -0.0010675122 -0.5659402 0.81657189 0.113675 0.0014268374
0.072847389 0.052365243 -0.0014712395 0.99169713 -0.050968014 -0.11806392 0.010066137
-0.075985119 0.054682422 -0.0017231292 -0.92369229 -0.29380447 -0.24590926 0.02955116
-0.060475573 0.056671679 -0.0017619143 0.46333522 0.88354021 -0.068390295 0.0080673276
-0.058180694 0.055725738 -0.0012989932 0.39923596 0.91442251 -0.066649467 0.0061673527
-0.055558585 0.05462705 -0.0015231922 0.34616539 0.91853732 -0.19094166 0.0043572141
-0.0538553 0.054085292 -0.00064580608 0.36369276 0.92165297 -0.13521563 0.0066319993
0.058247562 0.055327192 -0.00068164279 -0.61050683 0.74971038 0.25537378 0.0047450727
0.073007062 0.055494521 -0.0011985112 0.99594498 -0.045094248 -0.077847101 0.013917062
-0.07324677 0.058799107 -0.0010890958 -0.38908899 0.92060703 0.033051763 0.0094270324
-0.071324259 0.05972629 -0.00078779791 -0.26810709 0.95504612 0.12651286 0.01828487
-0.066443406 0.059764497 -0.0024255144 0.29565728 0.89450783 -0.33532447 0.017447269
-0.064352669 0.05904974 -0.0015352539 0.47249925 0.83380204 -0.28551453 0.010661783
-0.061914515 0.057560239 -0.0015826579 0.4414053 0.86115551 -0.25213593 0.0075301696
0.062123194 0.059029326 -0.00064090057 -0.72761846 0.59218097 0.34625566 0.010796985
0.073236547 0.058463845 -0.0010140991 0.99914759 -0.040340636 0.0087596914 0.016110912
-0.069897965 0.060405031 -0.0011719778 -0.12882006 0.98340839 0.12772362 0.021452222
-0.067276657 0.060597613 -0.0013899982 0.21118017 0.93822187 -0.27412155 0.024593033
-0.065786816 0.060238879 -0.00049448916 0.42704499 0.9037475 -0.029547298 0.014756714
0.062877499 0.060099065 -0.00070448214 -0.83988363 0.49233502 0.228477 0.011977327
0.063648984 0.061762027 -0.00071973703 -0.83619177 0.42920616 0.34141666 0.01220539
0.073595896 0.061417446 -0.0010598006 0.99409473 -0.097674251 0.047280114 0.012736628
0.064565144 0.064402677 -0.00072691985 -0.87391424 0.32438448 0.3620064 0.020941338
0.074026994 0.064685851 -0.0010787154 0.98408359 -0.17697752 -0.016077278 0.014854243
0.065280735 0.067339443 -0.00072614243 -0.93393344 0.22212973 0.28004786 0.019711995
0.066518791 0.066324748 -0.0028453658 -0.7435292 0.24400321 -0.6225968 0.023145594
0.074567147 0.067169711 -0.0012712621 0.95941931 -0.27492344 -0.062702954 0.015769934
0.075233355 0.068453953 -0.00051379565 0.96937966 -0.22495748 -0.098474741 0.025825517
0.065795168 0.069469579 -0.00068731012 -0.91887599 0.21276291 0.33226323 0.020470388
0.066957824 0.070905134 -0.0018573708 -0.87103462 0.1701697 -0.46080461 0.013968503
0.074605897 0.069490552 -0.0022237066 0.87462801 -0.28829107 -0.38976151 0.018272376
0.075686485 0.070641518 -0.0010602236 0.95182693 -0.27402174 -0.1376138 0.025150072
0.067111969 0.07370007 -0.0015936443 -0.9735291 0.20713666 -0.096619733 0.020936294
0.074989289 0.072120585 -0.0029957783 0.68889612 -0.40277317 -0.60265744 0.035982024
0.076582193 0.073155239 -0.00115094 0.98728621 -0.14113688 -0.073117219 0.035918865
0.067538649 0.076563559 -0.00096539914 -0.71752208 0.53200185 0.44959536 0.047714088
0.070516132 0.076589882 -0.0014526892 0.26926363 0.96231461 0.038048025 0.0013690445
0.073514402 0.075667016 -0.0014936486 0.33810562 0.94035077 -0.037750185 0.00098877703
0.075278483 0.075121023 -0.0015060154 0.44745556 0.89427459 -0.0075233593 0.004897913
-0.018271461 0.0028134803 0.0026230274 -0.25364602 -0.96729708 -0.00042077384 0.007665779
-0.016349223 0.0024821816 0.001832403 -0.22596861 -0.97324342 0.041659422 0.0062215175
-0.013623268 0.0018874471 0.0017434505 -0.19815232 -0.97842377 0.058503024 0.0019268688
-0.010630322 0.0013868271 0.0014591682 -0.14931816 -0.984864 0.088017248 0.0046671098
-0.0074147452 0.0010015531 0.0016907363 -0.11783478 -0.982481 0.14438184 0.0049063768
-0.004551677 0.00062761689 0.0015826066 -0.084676094 -0.99126607 0.10110133 0.0036687395
-0.0014183401 0.00044820106 0.0016401029 -0.038981922 -0.98630989 0.16022834 0.0050941589
0.0014863678 0.00032865425 0.0015044148 -0.015757985 -0.99786979 0.063305251 0.0049713608
0.0046121464 0.00032201491 0.0016330644 0.019627137 -0.98827755 0.15140116 0.0031793551
0.0074556349 0.00046278752 0.0017228748 0.052819807 -0.97155881 0.23083222 0.0055972049
0.010605959 0.00063004473 0.0017681012 0.079207733 -0.97167212 0.22266455 0.0054808911
0.013366786 0.00088370184 0.0015899988 0.10933245 -0.96981198 0.21797054 0.0053418325
0.016471496 0.0013068249 0.0016223335 0.13171481 -0.97073197 0.20082512 0.0045375042
0.019501556 0.0017653696 0.0016048891 0.17632933 -0.9713468 0.15935327 0.0039421632
0.022391882 0.0024090726 0.0016861821 0.19349141 -0.96574354 0.1729176 0.0030882522
0.024780963 0.0028547151 0.0012726089 0.21698436 -0.96911818 0.11716539 0.0027930704
-0.027771477 0.0057667247 0.0022650729 -0.34193575 -0.93740451 -0.065975547 0.0097859297
-0.025133872 0.0050892457 0.0019749471 -0.31432816 -0.94915307 -0.017499084 0.0066578411
-0.022357471 0.0042626034 0.0016186262 -0.31243354 -0.94988739 -0.0099617429 0.0023776484
-0.019637957 0.0034150383 0.0015122014 -0.29763058 -0.95443386 -0.021726744 0.0025008374
-0.017793378 0.0030933358 0.00057247706 -0.2330907 -0.96846753 -0.087973781 0.0022896135
0.025917495 0.0032239244 0.0018702612 0.26158553 -0.95198232 0.15906796 0.0023202838
0.028541561 0.0039254795 0.0015982795 0.28373632 -0.95142639 0.1195053 0.0022786902
0.031527638 0.0048088985 0.0015264933 0.29241174 -0.94865084 0.12065234 0.0022427097
0.033982996 0.0056320294 0.0013383745 0.32206944 -0.94100291 0.10384978 0.0024149518
-0.036300763 0.0089299399 0.0028001165 -0.3972604 -0.90942472 -0.12300757 0.014577955
-0.034448266 0.0083324835 0.0024077164 -0.35713142 -0.93391591 -0.016068101 0.011750709
-0.031847149 0.0074997805 0.0020212317 -0.35534033 -0.93349051 -0.048256692 0.009204559
-0.028748119 0.0066550141 0.0012119068 -0.37029484 -0.91838151 -0.13948905 0.0048119486
-0.026673878 0.006168636 0.00061875815 -0.32747734 -0.93389171 -0.14354411 0.0039519095
0.035459161 0.0062309564 0.0016726115 0.36947611 -0.9228344 0.10892219 0.0022634719
0.037534893 0.0070104515 0.0015399448 0.37532657 -0.92033386 0.11007105 0.0021743861
0.040460229 0.0082470458 0.0015064883 0.39720553 -0.91063005 0.11393266 0.0027553868
0.042149238 0.0089084804 0.00057438173 0.41939798 -0.90288937 0.09431909 0.0032796252
-0.042225983 0.011842996 0.0024988838 -0.4382028 -0.88732415 -0.14364536 0.014108718
-0.04004379 0.011076169 0.0021599592 -0.42925715 -0.89831644 -0.093625762 0.0074943765
-0.037652068 0.0099872453 0.0020402316 -0.45703954 -0.8837623 -0.10039466 0.0088575138
-0.034918834 0.0095001841 0.00065222563 -0.38897389 -0.88887089 -0.24209066 0.0029285769
0.041961916 0.009037788 0.0018542542 0.42638376 -0.9001646 0.088884801 0.0034059943
0.043737147 0.0098336292 0.0016660526 0.43816188 -0.8860991 0.15113756 0.0021837556
0.04643039 0.011175114 0.0014810752 0.46773979 -0.87738127 0.10687261 0.0022848018
0.048129071 0.011943992 0.00070392626 0.47934905 -0.87117183 0.10622677 0.0026009406
-0.045921382 0.014445199 0.0021917557 -0.56256932 -0.81384844 -0.14548703 0.009063852
-0.043557972 0.013421894 0.0014635909 -0.52124387 -0.82025337 -0.23556153 0.0068888273
-0.040973656 0.012566667 0.0006728319 -0.44648525 -0.85848606 -0.25229484 0.0050229328
0.047805622 0.01215325 0.0025389453 0.47898692 -0.86377448 0.15641326 0.0024426582
0.049487423 0.012929867 0.0014990461 0.50797099 -0.85357314 0.11566447 0.0021314996
0.051900938 0.014371531 0.0014550908 0.53139263 -0.84012353 0.10869355 0.0019670287
-0.051166743 0.017710209 0.0027796885 -0.54370201 -0.81526387 -0.19933125 0.010645081
-0.049101822 0.016980922 0.0018186573 -0.57202184 -0.79048002 -0.21893463 0.0059825317
-0.04675436 0.015910175 0.0011248642 -0.56530762 -0.79674613 -0.21359508 0.0042609945
-0.044821072 0.015155969 0.00048066699 -0.57528329 -0.7891205 -0.21526277 0.0077866041
0.053393178 0.015429646 0.0016779887 0.56132466 -0.81878448 0.12044287 0.0019780188
0.05548102 0.016853355 0.0014699348 0.56715298 -0.8125965 0.13425517 0.0021604905
0.057183482 0.017869567 0.00069299567 0.59585643 -0.79777873 0.092218041 0.0035452491
-0.054487709 0.020606471 0.0025027113 -0.62674099 -0.75345105 -0.19876422 0.0071117785
-0.052353978 0.019642787 0.0016306634 -0.59469581 -0.7649129 -0.24747746 0.0061729997
-0.050191477 0.018660389 0.00083692465 -0.60486728 -0.7585209 -0.24244903 0.0039170943
0.056614865 0.018014027 0.0027842827 0.5947783 -0.78536767 0.17157072 0.0034104965
0.058580082 0.019190855 0.0015405413 0.62136042 -0.77042127 0.1426965 0.0025774778
0.06040347 0.020662013 0.0013020562 0.66408509 -0.73982501 0.10793492 0.0035961638
-0.057550114 0.02348033 0.002383908 -0.66283149 -0.73661917 -0.13433811 0.007130567
-0.055633813 0.022451425 0.0014331822 -0.62713355 -0.7448287 -0.22788973 0.0043412084
-0.053544104 0.021323096 0.00080045301 -0.58028924 -0.77742749 -0.24263339 0.004143137
0.061868273 0.022097649 0.0015565341 0.69170475 -0.71378022 0.1098289 0.003387338
0.063372299 0.023574857 0.001218047 0.73404306 -0.67137843 0.10213617 0.003162941
-0.060430735 0.026449474 0.0018058961 -0.71430194 -0.68578887 -0.13952202 0.0011471146
-0.05871122 0.024996063 0.0016519281 -0.66474825 -0.7413342 -0.092376523 0.0018447799
-0.05675989 0.024080362 0.00040456557 -0.62394011 -0.74156785 -0.24652758 0.0045566307
0.064970523 0.025522061 0.0015611862 0.76635689 -0.62898123 0.13068907 0.0027380036
0.066167697 0.026820431 0.00079269154 0.79730034 -0.58985811 0.12798238 0.0042607454
-0.063353814 0.029667392 0.0020639484 -0.77199978 -0.63445652 -0.038488537 0.0036341269
-0.061832879 0.028235301 0.0013265194 -0.72680491 -0.6766116 -0.11811524 0.00092369522
0.065945633 0.0270846 0.0026186379 0.79204786 -0.58682877 0.16820315 0.0044854851
0.067233615 0.028546877 0.0015029771 0.83053058 -0.53960425 0.1380076 0.0032176902
-0.064725116 0.031518653 0.0012793294 -0.7880863 -0.61428314 -0.03970046 0.001513864
-0.00071441662 0.032940902 0.0027862184 0.088203013 0.96553385 0.24487665 0.0018059365
0.0015579369 0.032917615 0.0020769555 0.061771642 0.96028632 0.27209291 0.0025362619
0.0045714579 0.032919671 0.0014817262 0.00011269658 0.96043056 0.27851933 0.0024548268
0.0074828812 0.032917351 0.0017109365 -0.052834257 0.95872873 0.27937007 0.0026415905
0.0099656852 0.032931425 0.0026414283 -0.077196419 0.95361805 0.29095232 0.0022319786
0.068568282 0.03073623 0.0016275813 0.85935748 -0.49640301 0.12283594 0.0031570427
0.069406599 0.032206606 0.0013525328 0.89219767 -0.4323391 0.13063751 0.0036687879
-0.067072034 0.034591947 0.0013829779 -0.81710446 -0.57607728 0.021801066 0.0014580614
-0.065870807 0.03315796 0.0014714597 -0.81066579 -0.58546394 -0.0072813709 0.0016656162
-0.015653471 0.035842732 0.0022267555 0.28431943 0.92701173 0.24456429 0.0015110364
-0.013430125 0.035268426 0.0017429737 0.25124294 0.94651222 0.2024639 0.0023870978
-0.010399333 0.034529507 0.001770794 0.20011131 0.9397071 0.27731943 0.0025967697
-0.0071125734 0.033938698 0.0020449676 0.15843748 0.9511748 0.26488528 0.0027230158
-0.0042822124 0.03346163 0.0020591628 0.11955331 0.9628849 0.24199104 0.0021532474
-0.0022193771 0.033327345 0.00090653903 0.098612659 0.9844557 0.14533573 0.0033718259
0.0010115053 0.033058371 0.00080880447 0.044861287 0.99434549 0.096252307 0.004870228
0.0034655242 0.033013906 5.5397588e-05 0.030704748 0.99585021 -0.085671932 0.0026695502
0.0083580539 0.033049338 0.00055556698 -0.041560337 0.99699616 0.065356337 0.0056823292
0.0106209 0.033144642 0.0012894615 -0.075594798 0.99445885 0.073054694 0.0053938273
0.013471469 0.033438142 0.0019425923 -0.14283538 0.94653118 0.28926945 0.0020649564
0.016417472 0.033963799 0.001848952 -0.20008828 0.94693434 0.25155532 0.0023254922
0.019580362 0.034737866 0.0018832557 -0.25064588 0.93938416 0.2339531 0.0018437837
0.02265038 0.035601787 0.0017189786 -0.28589022 0.9427824 0.17154628 0.0029341355
0.024240321 0.035943698 0.0027622713 -0.29620388 0.92588341 0.23452772 0.0011874313
0.070388712 0.034465987 0.0015575445 0.92256218 -0.36059773 0.13728912 0.0032671625
-0.069480382 0.038209844 0.0014836708 -0.86173606 -0.49785355 0.097738259 0.003080521
-0.068547897 0.036735661 0.0014958984 -0.83995944 -0.53953695 0.058034722 0.0018316822
-0.024344012 0.038910709 0.0017973261 0.39192474 0.91353601 0.10884347 0.002682378
-0.022554616 0.038150877 0.0019710893 0.36006722 0.90768975 0.21552496 0.0026687055
-0.019512581 0.037047565 0.0018212046 0.30433679 0.92667925 0.22055523 0.0027588245
-0.017142354 0.036321804 0.0019397322 0.27583861 0.93660772 0.21605338 0.0019349661
0.023932908 0.036051314 0.00074454979 -0.24790224 0.96432984 0.092803687 0.0040318491
0.025760971 0.036493257 0.0019368656 -0.28742543 0.93124574 0.22398205 0.002218452
0.028628252 0.037472136 0.0016208172 -0.31818318 0.93298376 0.16822831 0.0025845808
0.031111853 0.038350381 0.0018521836 -0.35653371 0.91579396 0.18494631 0.0032242825
0.07142704 0.037458327 0.0015102829 0.94979978 -0.28020266 0.13916467 0.004476435
0.072109357 0.038716879 0.00070688769 0.97827321 -0.18980318 0.083404541 0.0082210489
-0.070687957 0.040386092 0.001534923 -0.89325464 -0.43558821 0.11117102 0.0035087352
-0.030637745 0.041648962 0.001801522 0.45635036 0.88484526 0.093772143 0.0043595275
-0.028565237 0.04067865 0.0016603789 0.41427478 0.90229285 0.1193481 0.0029908074
-0.026244318 0.039702412 0.0017894977 0.37622494 0.90408361 0.20270067 0.0024789607
0.032756343 0.039095666 0.0012499555 -0.35565978 0.92911047 0.10129089 0.0041527315
0.034542419 0.039900821 0.0015635299 -0.4425239 0.89131057 0.098681793 0.0041163201
0.0371463 0.041241445 0.0016681945 -0.49881351 0.85800409 0.12253192 0.0033298056
0.071857497 0.03984588 0.0022801489 0.96508861 -0.1981166 0.17132959 0.0043070996
0.072232828 0.040855791 0.0012687118 0.98009998 -0.15111889 0.12871276 0.0047505489
-0.07243529 0.044303227 0.00088738394 -0.93082166 -0.35262746 0.096046463 0.0061763404
-0.071755372 0.042901639 0.0018171081 -0.90794641 -0.39252463 0.14682567 0.0035790636
-0.036440995 0.044650067 0.0016434853 0.48762494 0.870184 0.070722558 0.0033807147
-0.034848209 0.043825835 0.0018722998 0.44904014 0.88547492 0.11957046 0.0036294588
-0.032360677 0.042536303 0.0016863128 0.43963215 0.8810823 0.17440647 0.0025714564
0.038602747 0.042181939 0.0010203483 -0.54362702 0.83254379 0.10649171 0.0038738393
0.040516734 0.043308124 0.001467179 -0.53062654 0.83900273 0.12045736 0.0030681025
0.042444751 0.044539861 0.0016139061 -0.54366326 0.83198613 0.11058654 0.0023961102
0.071986243 0.042331379 0.0027161662 0.97686958 -0.10343875 0.18715324 0.0044798115
0.072515987 0.043320898 0.0014537368 0.98400551 -0.08790563 0.15493801 0.0035791297
-0.073067799 0.046600565 0.0016080504 -0.93311113 -0.30830577 0.18507057 0.0055369074
-0.042195659 0.047705997 0.0023173904 0.48208132 0.86577278 0.13429467 0.0037638545
-0.040550888 0.046901468 0.0014740982 0.48312923 0.87119067 0.087252371 0.0031967435
-0.038020115 0.045506984 0.0013789438 0.46352136 0.8832038 0.071407996 0.003521892
0.044053368 0.045607373 0.0015359576 -0.5284555 0.84119827 0.1145434 0.0027464675
0.046250787 0.04707747 0.0015314819 -0.55399567 0.81962198 0.14597479 0.0037589855
0.072667584 0.04645896 0.0016259135 0.98819882 -0.035701893 0.14895783 0.0049143764
-0.075183131 0.050844181 0.00045732383 -0.89719445 -0.38119131 0.22301394 0.0094442954
-0.074126333 0.04946395 0.0015455264 -0.91018462 -0.37441137 0.17714441 0.0093472898
-0.048210852 0.050926983 0.0025699686 0.4722175 0.86999297 0.14185548 0.0060930881
-0.046374306 0.050106864 0.0017899552 0.47866967 0.85653239 0.19294471 0.0025441502
-0.043705285 0.04867037 0.001484271 0.47095865 0.87667888 0.098142549 0.0039370749
0.047739763 0.048051968 0.0017523499 -0.53028882 0.83407158 0.15204729 0.0036842229
0.049510282 0.04917207 0.0020398337 -0.5205397 0.81482744 0.25513679 0.0026094858
0.051521305 0.050554663 0.0018067404 -0.5304755 0.83129644 0.16595778 0.0045409733
0.072794877 0.049477577 0.0015629216 0.98581243 -0.024784971 0.16601054 0.0063939416
-0.075578727 0.052573185 0.0014604111 -0.92565107 -0.31538382 0.20905282 0.011125524
-0.074671254 0.051315896 0.002375741 -0.86846727 -0.3170597 0.38110059 0.0079259612
-0.054311439 0.053855889 0.0028578225 0.34963107 0.8695994 0.34864733 0.0027570343
-0.052460637 0.053392962 0.0017461791 0.41675597 0.8780939 0.23508617 0.003764811
-0.049582072 0.051853795 0.0017853784 0.4605265 0.86768603 0.18717961 0.0041397726
-0.047772579 0.051025711 0.00096908957 0.47593465 0.87423527 0.095911697 0.0060261767
0.052921295 0.051491722 0.0018519996 -0.51923466 0.8126992 0.2644155 0.0030504821
0.055052031 0.052793596 0.0021189176 -0.5135709 0.78863227 0.33808881 0.0025428673
0.057032444 0.053926624 0.0027065785 -0.51215112 0.78128344 0.35678771 0.0037019216
0.072913773 0.052466575 0.0014703466 0.9804979 -0.027236266 0.19463319 0.0091036903
-0.076108262 0.054801755 0.0020885873 -0.80074227 -0.10632034 0.58949786 0.026580451
-0.060544744 0.056702334 0.0019134171 0.46638021 0.84960407 0.24629755 0.0075954436
-0.05851787 0.05582248 0.0017145567 0.3769317 0.89572757 0.23578498 0.0060934275
-0.055638805 0.054666422 0.0017350642 0.34727353 0.9114176 0.2207242 0.0043914467
-0.053828664 0.054136403 0.00062394794 0.32735258 0.9431628 0.057307988 0.0067680059
0.056868427 0.054295838 0.00077768601 -0.57421196 0.78866166 0.21975753 0.004393653
0.058566444 0.05526102 0.0019966075 -0.54271924 0.73417431 0.40797538 0.0044189505
0.060734317 0.056688789 0.0024929186 -0.59324509 0.66980165 0.44657132 0.0073609301
0.0729701 0.055459116 0.0016007723 0.97096682 -0.026535651 0.23773773 0.012721117
-0.075466409 0.057319261 0.002071254 -0.74391145 0.46379209 0.48113692 0.099899292
-0.073713884 0.058531299 0.0018234809 -0.55272722 0.77131671 0.31553641 0.027826417
-0.071382187 0.059705015 0.0014928281 -0.39394635 0.90209943 0.17613323 0.008804312
-0.066242114 0.059614327 0.0027726574 0.33319306 0.79127467 0.51270533 0.0099920472
-0.064425416 0.059078358 0.0017777848 0.47324476 0.81840199 0.32597178 0.0079976842
-0.061995029 0.05760866 0.0015303605 0.46414369 0.84387243 0.26916534 0.0088466955
0.061900616 0.058148801 0.0019132169 -0.6483708 0.57102269 0.50353593 0.009893829
0.063320927 0.05953202 0.0025156466 -0.67791766 0.52889681 0.51058382 0.0095862094
0.073078595 0.058579493 0.0016006056 0.9195928 -0.04444465 0.39035079 0.01800386
-0.069686748 0.060383342 0.0022869699 -0.13015807 0.94605064 0.29672727 0.029363003
-0.067312337 0.060537264 0.001820944 0.23047413 0.9169628 0.32566988 0.023809385
-0.065801561 0.060214031 0.00092266378 0.42198843 0.86598301 0.26832682 0.016966252
0.062907651 0.060223468 0.00036251056 -0.79841065 0.516653 0.30920905 0.010369867
0.064217061 0.061583836 0.0020566017 -0.6616888 0.4067156 0.62988114 0.013129928
0.073273681 0.061608408 0.0016585808 0.8765474 -0.06175787 0.47733715 0.017011151
0.065190248 0.064436406 0.0018837419 -0.6935994 0.26454204 0.67002791 0.0096088294
0.066214643 0.065108806 0.0027906168 -0.5418089 0.23569594 0.80677795 0.018751172
0.073624082 0.064542763 0.0017214048 0.83504581 -0.13631327 0.53302646 0.027071124
0.065636009 0.06741105 0.0013323214 -0.61479092 0.18878467 0.76576269 0.015404765
0.066856518 0.067969874 0.0025608107 -0.37013757 0.14886038 0.91697258 0.01696674
0.074053243 0.067324877 0.0020558601 0.77080023 -0.25426978 0.58413512 0.018917814
0.075153887 0.068391055 0.00059106096 0.92213869 -0.27068472 0.27638748 0.02395035
0.065895498 0.069656625 0.00068261707 -0.82112217 0.20888202 0.531156 0.02591734
0.067712978 0.070732899 0.0025073905 -0.48017809 0.047512986 0.87588334 0.017098809
0.0690483 0.070930511 0.0028432461 -0.3593466 -0.023535119 0.93290734 0.019021761
0.074611068 0.069789924 0.002482611 0.79248554 -0.32449844 0.51639867 0.025689304
0.075669169 0.070671611 0.0012651151 0.91725838 -0.29773369 0.26455975 0.019430699
0.068041541 0.07315594 0.0024080733 -0.53817475 0.0015246564 0.84283191 0.023819344
0.069132879 0.072279498 0.002951538 -0.59566778 -0.062904343 0.80076402 0.0084422873
0.076361991 0.073060088 0.0017321504 0.88899875 -0.1852995 0.4187426 0.044862688
0.067855678 0.07611946 0.0018964503 -0.61576337 0.2408378 0.75022167 0.046349391
0.06979496 0.076830253 0.0018057419 -0.31094679 0.52831912 0.7900576 0.06970197
0.073488802 0.075674497 0.0014684676 0.39608207 0.90021652 0.18091232 0.032111168
0.075295076 0.075118862 0.0014365473 0.45390645 0.87402332 0.17335559 0.035347816
-0.018491246 0.0029047097 0.0032913778 -0.24240838 -0.96770132 0.069226936 0.0068327612
-0.01614676 0.0026355772 0.0041618366 -0.18322936 -0.94255275 0.27932307 0.0040091765
-0.013400716 0.0022648014 0.004609473 -0.17229468 -0.93695486 0.30402344 0.0035599661
-0.01050088 0.0018021499 0.0045929481 -0.12344813 -0.94515496 0.30239484 0.0034873288
-0.0075156316 0.0014502985 0.0045724181 -0.096176036 -0.94386405 0.31602344 0.0034740486
-0.0044758781 0.0012026932 0.0046287677 -0.063269392 -0.94007736 0.33503973 0.0035980202
-0.0014751643 0.0010487386 0.0045719976 -0.02934777 -0.93796957 0.34547335 0.0030301872
0.0015066836 0.00099302188 0.0044575445 0.0042056274 -0.93339294 0.35883129 0.0023814007
0.0045219599 0.0010807877 0.0044890111 0.034230664 -0.92956048 0.36707699 0.0020096968
0.0075183981 0.0013047616 0.0045631644 0.051531397 -0.92413062 0.3785857 0.0019528482
0.010457449 0.0014461423 0.0045769899 0.073390871 -0.92359877 0.37626994 0.0020657689
0.013488265 0.0017361756 0.0045449203 0.1060514 -0.92075223 0.37545764 0.0025924474
0.0164977 0.0020899251 0.0045569516 0.11886566 -0.9190594 0.37576687 0.0030096641
0.019405389 0.0024333724 0.0043556844 0.14961781 -0.92131823 0.35886943 0.0035808068
0.022017535 0.0027318876 0.0037169221 0.20191181 -0.92228478 0.32957923 0.0034687612
0.02414136 0.0029664277 0.0031553218 0.18671824 -0.96838218 0.16544572 0.0039335703
-0.027461885 0.0057602925 0.0036401451 -0.28820488 -0.93840468 0.19061644 0.010782768
-0.025311589 0.0053477692 0.0043776515 -0.27435821 -0.91553384 0.29415193 0.0046799448
-0.022595879 0.0045718779 0.0045903232 -0.27734777 -0.91918844 0.27959046 0.0050729867
-0.019405318 0.0036350999 0.0046807867 -0.26816827 -0.91140568 0.31213063 0.004598421
-0.01684312 0.0032673401 0.0053709126 -0.21414641 -0.92042965 0.32703295 0.0036633441
-0.014590887 0.0030638266 0.0058559254 -0.17883185 -0.89772463 0.40262851 0.0011307751
0.020126129 0.0031761765 0.0057011833 0.15714641 -0.87763375 0.45284006 0.0032349769
0.022766242 0.0034034296 0.0050748019 0.19608484 -0.89830834 0.3931829 0.0040265713
0.025564888 0.0038336855 0.0045877444 0.22291371 -0.90567744 0.36063534 0.0031966683
0.028498083 0.0046622078 0.0045989822 0.24444592 -0.90051502 0.3596094 0.0031575332
0.031344377 0.00539093 0.0043237926 0.28644288 -0.89710605 0.33637962 0.0030312263
0.03345526 0.0058010514 0.0035226834 0.31947073 -0.90909952 0.26735109 0.0025498925
-0.036136623 0.0089070108 0.0035368996 -0.34676072 -0.93157232 0.10922447 0.029732402
-0.034010991 0.0084562441 0.0043616858 -0.35408941 -0.90558487 0.23353128 0.0055374028
-0.031524625 0.0075743985 0.0044943062 -0.33732295 -0.89956081 0.27749535 0.0047394442
-0.028908888 0.0066808504 0.0047162641 -0.34051746 -0.89707386 0.28161383 0.0040609334
-0.026430128 0.006159245 0.0055999942 -0.28522193 -0.89818877 0.33452255 0.0027713152
0.032395963 0.0061802291 0.0055226213 0.29680899 -0.87721872 0.37734821 0.0028372721
0.034629516 0.0066710217 0.0046729511 0.33811995 -0.88347208 0.3242715 0.002353169
0.037477899 0.0077124587 0.0045869425 0.33594495 -0.8762334 0.3454794 0.0025650482
0.039849646 0.0085907225 0.0042696008 0.37703392 -0.87086487 0.31534088 0.0024208683
-0.042335749 0.011919319 0.0033437426 -0.44220769 -0.88949096 0.11514395 0.014383383
-0.040108167 0.011253299 0.0044078585 -0.41841942 -0.8799997 0.22477932 0.0061389175
-0.037464488 0.010056768 0.0045690117 -0.42065626 -0.8768779 0.23266611 0.0030533355
-0.035363022 0.0093349312 0.0053408463 -0.37536111 -0.87432748 0.30766132 0.0031171404
0.041116241 0.0094169462 0.0049115382 0.40202048 -0.85624027 0.32439506 0.002282405
0.043439198 0.010358463 0.0044998536 0.41195554 -0.85673165 0.31032792 0.0021413404
0.045895025 0.011495864 0.0042009084 0.44328725 -0.84291637 0.30493984 0.0020713764
-0.045829657 0.01452735 0.0045038881 -0.50607789 -0.8209728 0.26436496 0.0083665401
-0.043649837 0.013224028 0.0046801432 -0.48860532 -0.81081831 0.3222397 0.0036967641
-0.041480087 0.012259349 0.0053837043 -0.42870343 -0.83041388 0.35584575 0.0030814637
0.047183819 0.012482419 0.0048761913 0.47060344 -0.8251068 0.31261975 0.0020098609
0.049485307 0.013686921 0.004546483 0.49522978 -0.80791366 0.31941041 0.0022159843
0.051518925 0.014636138 0.0039148577 0.50933152 -0.80535698 0.30328462 0.0024229849
-0.051216751 0.017809961 0.0037843972 -0.59328353 -0.80348343 0.04928476 0.028546408
-0.049372397 0.016881619 0.0045622839 -0.53727794 -0.77895659 0.32335609 0.0042698979
-0.047217097 0.015566421 0.0048934319 -0.53631771 -0.79173136 0.29244623 0.0054310295
0.050965909 0.015048923 0.0058650016 0.51895326 -0.7720719 0.36686859 0.0049415976
0.052844562 0.015877223 0.0046297121 0.53846264 -0.78363484 0.30979756 0.0017996173
0.055086188 0.017270498 0.0042811944 0.55461919 -0.77621657 0.29980883 0.002391838
-0.054615658 0.020642031 0.0043501593 -0.60730928 -0.75211138 0.2559374 0.011754829
-0.052472033 0.01923342 0.0048117666 -0.56802732 -0.7616322 0.31186745 0.0063437745
-0.050554994 0.018149035 0.0054752044 -0.54249108 -0.76720834 0.34219119 0.0039815721
0.056243967 0.018406998 0.0049561812 0.56829417 -0.75453162 0.3282128 0.0022775501
0.058299698 0.019820319 0.0044573075 0.60750049 -0.71736008 0.34108302 0.0024241616
0.06016073 0.02083073 0.003433326 0.64324969 -0.71190685 0.28181285 0.0027936727
-0.057702936 0.023321623 0.0044544828 -0.6506778 -0.74868637 0.12683512 0.015342166
-0.055887699 0.021944825 0.0050557051 -0.60908222 -0.73361272 0.30138221 0.0056447675
0.059672486 0.021326941 0.00514455 0.63230711 -0.68224144 0.36706179 0.0025622942
0.061324369 0.022605022 0.004511327 0.67375982 -0.66830713 0.31529877 0.0023378094
0.0631667 0.023724273 0.0032997234 0.71055251 -0.64245021 0.28700677 0.0024562629
-0.060602255 0.026140232 0.0044216746 -0.72385925 -0.66876024 0.16966869 0.012008535
-0.059017796 0.024796871 0.0049628145 -0.67055124 -0.69605821 0.25663996 0.0056101079
0.062645242 0.024358612 0.0052928478 0.68388349 -0.62858343 0.37038672 0.003098509
0.064199485 0.02564423 0.0043922816 0.73082423 -0.60236841 0.32101136 0.0017468971
-0.063480102 0.029564345 0.0044869557 -0.76008022 -0.6034857 0.24100418 0.010279629
-0.062482942 0.028685337 0.0052199825 -0.71926439 -0.59515512 0.35839799 0.0061492226
0.065403789 0.02779885 0.0051740925 0.74811876 -0.53409678 0.39377525 0.0027256289
0.066719621 0.028940069 0.004224923 0.7856397 -0.51291752 0.34595647 0.0032763253
-0.066025384 0.032873914 0.0037647402 -0.80761969 -0.54797876 0.21787539 0.012109132
-0.064620852 0.031391293 0.0048784241 -0.79284185 -0.54767758 0.26730323 0.0077921106
-0.0073570628 0.032845005 0.0054349918 0.16603518 0.91367137 0.37099466 0.00094903255
-0.0043666675 0.032609295 0.0049598957 0.12689275 0.92053032 0.36948907 0.0010883441
-0.0015524334 0.032391097 0.0046378155 0.099093184 0.92674619 0.36238381 0.001159035
0.001506716 0.032182556 0.0046347189 0.04867553 0.93214875 0.35878888 0.002026703
0.0044526546 0.032089233 0.0046656476 0.018125778 0.93917084 0.34297162 0.0019222932
0.0074560852 0.032141332 0.004618695 -0.043280315 0.93725508 0.34594756 0.0021793351
0.010637391 0.032322068 0.0046805176 -0.10256802 0.92798603 0.35822022 0.0018025307
0.013390691 0.032596275 0.0048646196 -0.13907725 0.91839433 0.37041786 0.0017006019
0.016184689 0.03282671 0.0054718461 -0.20122145 0.90755224 0.36859047 0.0021098002
0.068023413 0.03140663 0.0045664376 0.82856411 -0.4271895 0.36192623 0.0031527665
0.069201425 0.032557439 0.0034874224 0.84501296 -0.42292979 0.32723624 0.0030448129
-0.066878483 0.034697469 0.0044397609 -0.82882351 -0.49443904 0.26188114 0.0066721933
-0.065744229 0.033272069 0.0052421638 -0.82369721 -0.51318526 0.24117175 0.007796078
-0.018766224 0.035779841 0.0055018184 0.29795295 0.88516819 0.35735321 0.0013230029
-0.016473159 0.035359833 0.0049102176 0.2753033 0.89347893 0.35482889 0.0010052817
-0.013495512 0.034460861 0.0049138702 0.24414606 0.8978827 0.36633226 0.0010762552
-0.010664122 0.03371916 0.0049863691 0.1957051 0.90678716 0.37341198 0.0013593602
-0.0078113973 0.033500474 0.0040743328 0.15838228 0.92859912 0.33558705 0.0013022147
-0.0053704637 0.03333101 0.0033853252 0.13852316 0.92943442 0.3419984 0.0019694443
0.014279301 0.033274833 0.0035192687 -0.14006531 0.9264394 0.34941629 0.0019651935
0.016698441 0.033488676 0.0041370844 -0.1958694 0.920169 0.33900487 0.0020834366
0.019574622 0.034020826 0.0046073892 -0.2318339 0.90871286 0.34712243 0.0019649053
0.022563068 0.034849934 0.004631754 -0.2612083 0.89909327 0.3512857 0.0020599302
0.025305724 0.035536811 0.004861359 -0.28492835 0.88714314 0.36303285 0.0021076009
0.027477894 0.035875645 0.0056788139 -0.30617747 0.86502981 0.39746547 0.0014398418
0.068632312 0.033667155 0.0055254335 0.81892943 -0.34447405 0.45901206 0.0022710101
0.069670916 0.034689479 0.0043275496 0.86759263 -0.3471761 0.35602221 0.0039656195
-0.06922321 0.038448192 0.0036490583 -0.85113275 -0.44352424 0.28081912 0.0048444048
-0.068223968 0.037267372 0.0046680085 -0.84907597 -0.44237494 0.28874618 0.0047724578
-0.027240945 0.03886418 0.0058369641 0.38284937 0.85171318 0.35778627 0.0019079024
-0.025128026 0.038384676 0.0050701713 0.36982706 0.86423814 0.34105772 0.0010594688
-0.022339659 0.037332863 0.0048183855 0.32860097 0.87673724 0.3512167 0.0011738525
-0.019734222 0.036453694 0.0046357419 0.29839805 0.89150149 0.34085724 0.0013102998
-0.017664386 0.036137227 0.003662626 0.28665894 0.90662414 0.30961159 0.0022679174
0.026379453 0.0362853 0.0037934349 -0.27701044 0.91401941 0.29636759 0.0015607239
0.028594082 0.036759619 0.0044936505 -0.301144 0.89232212 0.33626404 0.0020014446
0.031486467 0.037737623 0.0046594162 -0.36035356 0.86822677 0.34106818 0.0023425093
0.033854235 0.038664836 0.0049792533 -0.40769896 0.8483901 0.33766222 0.0019575399
0.07047572 0.037527367 0.0045696776 0.87141597 -0.25235736 0.42065436 0.0028247419
-0.069861889 0.040397663 0.0042945608 -0.86333752 -0.372168 0.34079224 0.003185574
-0.068832323 0.039335936 0.0056423265 -0.82345271 -0.36363688 0.43553859 0.0085392594
-0.033329666 0.0418531 0.005671401 0.41866413 0.84338731 0.33677608 0.0026984247
-0.031384569 0.04119179 0.0048772711 0.42177072 0.84959006 0.31671154 0.0015646624
-0.028530797 0.039944824 0.0046301335 0.38160715 0.86827278 0.31698316 0.0017407549
-0.026254108 0.039366376 0.0035970451 0.36770645 0.8770743 0.30908364 0.0012985711
0.035106957 0.039514776 0.0043002004 -0.41533449 0.84369111 0.34012136 0.0018778616
0.037498061 0.040659443 0.0046248529 -0.45001033 0.82700413 0.33697903 0.0019746292
0.039611001 0.0417124 0.005153494 -0.49993241 0.7912606 0.35209978 0.0019126587
0.071163267 0.040410407 0.0046085729 0.90427732 -0.16690525 0.39296958 0.0031818028
0.072076142 0.041550048 0.0033682515 0.94531405 -0.17524742 0.2750811 0.0036714862
-0.072137207 0.044748086 0.0031917689 -0.89823347 -0.31824055 0.30314931 0.0077603366
-0.070792519 0.043312076 0.0048786984 -0.82201588 -0.23565146 0.51841903 0.0041374969
-0.039217085 0.044877827 0.005681105 0.43440458 0.81464976 0.38423741 0.0024581207
-0.037359625 0.044297911 0.0047460943 0.44698751 0.8353883 0.31988844 0.0013548159
-0.034812793 0.043072201 0.0046133883 0.4325754 0.84410626 0.31680134 0.0016720357
-0.032739997 0.042250853 0.0039473446 0.43120599 0.85587996 0.28553629 0.0022883799
0.040972948 0.042920131 0.004227364 -0.48606169 0.79156667 0.37035948 0.0016318375
0.04366054 0.044348225 0.0049458011 -0.48360255 0.77912837 0.3988578 0.0025420596
0.045081832 0.044842191 0.0058038086 -0.45976916 0.77056402 0.44141066 0.0032948661
0.071462497 0.043316696 0.0048103756 0.90262359 -0.075511351 0.42375547 0.0033192004
0.072147548 0.043974586 0.0033658359 0.95026815 -0.082796529 0.30022547 0.0034996455
-0.072563037 0.047035389 0.0036897964 -0.82103443 -0.2336864 0.52085805 0.0041904831
-0.071401164 0.04630227 0.0052668029 -0.79503369 -0.17724971 0.58008963 0.0044381656
-0.045047943 0.047917865 0.0058566565 0.4383536 0.79079449 0.42718872 0.0021821782
-0.043152533 0.047344502 0.0049070008 0.44526821 0.82299262 0.35273123 0.0018042485
-0.040574074 0.046129726 0.0044565019 0.44059607 0.82601088 0.3515411 0.0015464164
-0.038516041 0.045351829 0.0036426464 0.44867638 0.85714298 0.25297332 0.0023677398
0.044582155 0.045436252 0.0037403007 -0.49424466 0.79181933 0.35880959 0.0018106367
0.0463828 0.046342447 0.0043603722 -0.49652201 0.77174872 0.39732838 0.0019994662
0.049047969 0.047586139 0.0053729061 -0.47829038 0.75606537 0.44677004 0.0028699145
0.071435124 0.046454426 0.0050435383 0.88088214 -0.0082980515 0.473263 0.0029637781
0.072193258 0.046502031 0.0034888599 0.92999071 -0.022562414 0.36688998 0.0024506983
-0.072885923 0.049782701 0.0044095153 -0.76849717 -0.208207 0.60503054 0.006887536
-0.07164108 0.049038298 0.0057078199 -0.68996525 -0.13081469 0.71192378 0.0060403976
-0.048913728 0.050457615 0.0049106195 0.42853105 0.82111496 0.37700298 0.0025619157
-0.046562761 0.049370002 0.0045220032 0.43784294 0.82409501 0.35938969 0.0019442484
-0.044153214 0.048333086 0.0038854475 0.44207156 0.82944411 0.34146038 0.0014693426
0.049908146 0.048700731 0.0042055184 -0.48131847 0.76846868 0.42164961 0.0018933339
0.052359533 0.049945354 0.0048466609 -0.48721185 0.76595443 0.41945007 0.0025909515
0.054239802 0.050691642 0.0055391612 -0.48179203 0.75204575 0.44978169 0.0046937233
0.071401335 0.049687415 0.0050394 0.85979396 0.021431331 0.51019114 0.0043364028
0.072196998 0.049371395 0.0035481651 0.90811729 -0.016147856 0.41840431 0.0044898181
-0.075316459 0.05394483 0.0031603219 -0.82459205 -0.20094444 0.52883762 0.023661725
-0.073478557 0.052566197 0.0046672574 -0.6665253 -0.14355046 0.73153085 0.0071664327
-0.071806923 0.052574083 0.0059207212 -0.60371506 -0.038483944 0.79627073 0.0070928922
-0.057543375 0.053728342 0.0057584411 0.27210885 0.80215079 0.53151745 0.0033642992
-0.055252116 0.053390231 0.0049463175 0.33073586 0.85028249 0.40943062 0.0031147997
-0.052486651 0.052454628 0.0045316815 0.37353498 0.82960886 0.41499487 0.0021563505
-0.050134439 0.051427379 0.0041447091 0.4216373 0.82853258 0.36845049 0.0022073509
0.053625923 0.051263876 0.0038853618 -0.46683776 0.76629609 0.44142139 0.0018636843
0.055546515 0.051939651 0.0047596311 -0.44154245 0.75912708 0.47829524 0.0035001817
0.058138486 0.053274799 0.0051389807 -0.42498785 0.73306596 0.53103644 0.00609496
0.060313895 0.053997003 0.0059352042 -0.41256285 0.66360486 0.62403566 0.0045408723
0.071135275 0.052627914 0.0051419162 0.7736448 0.084700763 0.62793267 0.004835546
0.072272532 0.052413642 0.0034782714 0.89539164 0.006270302 0.44523525 0.0053945878
-0.075328633 0.055292308 0.0034406444 -0.73160559 -0.063031919 0.67880797 0.025428183
-0.072943732 0.055726867 0.005410681 -0.3713685 0.20263547 0.90610391 0.012758361
-0.071467288 0.056306776 0.0058643958 -0.22970864 0.30939069 0.92277366 0.01413135
-0.066839263 0.056861699 0.0058435001 0.10118592 0.57174695 0.81416637 0.0071081943
-0.06416972 0.056372482 0.0055468692 0.21955138 0.66171914 0.71688557 0.008038694
-0.061493289 0.055829097 0.0046488587 0.32208559 0.79092491 0.52028716 0.0079816049
-0.058592308 0.054815821 0.0044549736 0.28244326 0.84309494 0.45762074 0.0030140835
-0.056183651 0.054272488 0.0037971055 0.32348004 0.86744839 0.37801325 0.0022871571
0.059090979 0.054590479 0.0041022496 -0.48598686 0.708978 0.51104492 0.0047531179
0.061499104 0.055674795 0.0047687609 -0.45571187 0.65666562 0.60093009 0.0066644256
0.063845478 0.05642911 0.005562102 -0.30352846 0.58255154 0.75399214 0.010537447
0.068683639 0.056822278 0.0059318813 0.34322122 0.26367602 0.90148443 0.01331971
0.070831425 0.055547036 0.0050343922 0.65876949 0.1330456 0.74048746 0.012095323
0.072205529 0.055295609 0.0035157208 0.85425925 0.023147337 0.51933163 0.0070943302
-0.075092487 0.057270549 0.0030572414 -0.75262475 0.12834518 0.64582008 0.045439802
-0.073204532 0.057669736 0.0046205348 -0.50149447 0.40023014 0.76701969 0.026789684
-0.070347317 0.058185901 0.0053617167 -0.066022418 0.53059661 0.84504926 0.014805157
-0.067356959 0.05847057 0.0047587072 0.17695829 0.66389012 0.72659177 0.011068732
-0.064386472 0.057823841 0.0040941169 0.29509839 0.71786988 0.6305393 0.004875246
-0.062636487 0.057314474 0.0034379209 0.32632548 0.7208057 0.61151522 0.0067136926
0.06255243 0.057649203 0.0035200564 -0.53490102 0.61297613 0.58149898 0.0074776937
0.065038681 0.05815975 0.0050549293 -0.19917683 0.47210878 0.85874438 0.01429425
0.067551933 0.058600295 0.0055022659 0.051439032 0.33986351 0.93906701 0.012626223
0.070536464 0.058514927 0.0046312995 0.46682733 0.19450754 0.86269283 0.014328627
0.072208904 0.05843794 0.0032494664 0.79680926 0.037410025 0.60307169 0.018162131
-0.069632567 0.060105398 0.0035391804 -0.026132807 0.77867538 0.62688249 0.021458799
-0.068234436 0.060151588 0.0033883366 0.24069694 0.82912433 0.50459671 0.021583701
0.065352544 0.061200392 0.0035804224 -0.53404129 0.31184703 0.78584433 0.0084036356
0.067851372 0.061515082 0.0045387568 0.030449253 0.27277744 0.96159524 0.021355612
0.070616998 0.061502993 0.0040070671 0.35761032 0.1384463 0.92355156 0.019041844
0.072204106 0.061485205 0.0032354814 0.7723726 0.0037896107 0.6351583 0.023678647
0.065702036 0.063064694 0.0031581013 -0.25132835 0.29618314 0.92147142 0.019324418
0.067815252 0.064505555 0.0037114737 -0.13282157 0.18117489 0.9744404 0.018959144
0.070558578 0.064364888 0.0036511479 0.24900101 0.065250359 0.96630269 0.017760318
0.072254904 0.064653799 0.0032804129 0.5554803 -0.060531363 0.82932359 0.029926121
0.068278566 0.067169502 0.0033078131 -0.19099668 0.10821266 0.97560763 0.012829879
0.070542455 0.067506738 0.0034904899 0.040240947 0.042219192 0.99829763 0.024806503
0.072722398 0.067776017 0.0033422711 0.46041718 -0.10638894 0.88130438 0.021642812
0.068604127 0.069918737 0.003079043 -0.2229479 -0.0033046056 0.97482479 0.01340791
0.070607029 0.070518836 0.0037078054 -0.13395661 -0.095407471 0.9863838 0.022362992
0.07330057 0.070599005 0.0036792648 0.36780599 -0.23771401 0.89900541 0.027117422
0.075176857 0.071521632 0.0030002401 0.84571028 -0.30212992 0.43987682 0.02540095
0.068873152 0.073906347 0.0031580201 -0.40784675 -0.11730181 0.90548396 0.01757865
0.070805065 0.073627807 0.0043859771 -0.19065957 -0.1595591 0.96860194 0.02307898
0.073576838 0.073440231 0.0044410061 0.31185848 -0.18696126 0.93155229 0.039943777
0.075498268 0.073574796 0.0034555858 0.73222882 -0.17521809 0.65813345 0.062084727
0.068831906 0.075858146 0.0033679877 -0.50620472 0.22624554 0.83220774 0.053639244
0.070522755 0.075508155 0.0045314506 -0.25776199 -0.059263684 0.9643892 0.036805876
0.073048398 0.0753114 0.004813605 0.12103103 -0.040030446 0.99184126 0.067099132
0.075206004 0.075013623 0.0033671465 0.73860848 0.46118668 0.49169552 0.10256749
-0.015054448 0.0029916468 0.0060634636 -0.22835417 -0.90143937 0.36777914 0.0084241722
-0.012768227 0.0028633198 0.0063231718 -0.16220441 -0.87908232 0.44822314 0.00083727291
-0.010272929 0.0026344445 0.0065922821 -0.11791785 -0.88044596 0.45924971 0.0016624418
-0.0073358342 0.0024963608 0.0070033548 -0.083410792 -0.88544321 0.45720136 0.0018129896
-0.0043602879 0.0023545492 0.0071615078 -0.049993057 -0.87873209 0.47468999 0.0017199647
-0.0014711265 0.0022819589 0.0072127059 -0.016699666 -0.87234461 0.48860624 0.0017755877
0.0014999347 0.0022986783 0.0072424277 0.011547971 -0.87117553 0.49083591 0.0018559692
0.0044989241 0.0023462719 0.0071685845 0.044298943 -0.87024224 0.49062821 0.0016972839
0.0074763065 0.0024589885 0.0069678724 0.062335022 -0.86397457 0.49966225 0.0013498282
0.010540177 0.0025596512 0.0067741112 0.080907412 -0.8633647 0.4980514 0.00083313882
0.013241218 0.0026904573 0.0063576163 0.10440892 -0.8573572 0.50402129 0.00085775193
0.016042359 0.0028846648 0.0062073092 0.11928453 -0.8458252 0.51995283 0.00085571298
0.018465335 0.0029433775 0.0060823783 0.16034995 -0.83746457 0.52243763 0.0019758849
-0.024485679 0.0058248411 0.0062687569 -0.28016064 -0.88417196 0.37383154 0.0024040125
-0.022457737 0.0055308882 0.0069116484 -0.26286775 -0.86425418 0.42891154 0.0012045389
-0.019385086 0.0049045663 0.0074510705 -0.22774144 -0.85659331 0.46301374 0.00094068941
-0.01642639 0.0042159697 0.0074986047 -0.19007227 -0.86688679 0.46084678 0.0012852023
-0.01350348 0.0037188095 0.0076775863 -0.15826301 -0.86177754 0.48196715 0.0011644996
-0.010607708 0.0034672567 0.0080612991 -0.11698671 -0.85360789 0.50760984 0.0014197468
-0.0076895184 0.0033719977 0.0084750159 -0.084192857 -0.83360922 0.5459004 0.0012937109
-0.0046241707 0.0032391625 0.0086322846 -0.040586472 -0.82484967 0.56389338 0.0013115922
-0.0014533219 0.0032186741 0.0087312758 -0.012958345 -0.81206071 0.58342916 0.0011721988
0.0015339985 0.0031646788 0.008716993 0.0098889945 -0.82774615 0.56101555 0.0016868558
0.0046487972 0.0032192823 0.0086577367 0.04626051 -0.83669883 0.54570603 0.001805312
0.0075682625 0.0033789393 0.0084630614 0.064535916 -0.81749773 0.57230455 0.001110554
0.010592645 0.0034686539 0.008231191 0.08615192 -0.83455253 0.54415065 0.00082502607
0.013566685 0.0036584437 0.0078740614 0.11424008 -0.83258563 0.54198742 0.00055971101
0.016535122 0.0039423825 0.0076666921 0.12367278 -0.82405132 0.55285114 0.0005725571
0.01950348 0.0043146154 0.0075231278 0.1520004 -0.81008971 0.56626016 0.00094240421
0.022473458 0.004800362 0.0074387877 0.16225825 -0.79511422 0.58435059 0.0014290913
0.025436878 0.0051591815 0.0071144155 0.19228299 -0.80626947 0.55942541 0.0027416956
0.028185284 0.0055458187 0.0066569359 0.22398768 -0.81670779 0.53180611 0.0029228628
0.03056507 0.0059231282 0.006241451 0.2790817 -0.82657731 0.48875695 0.0030138302
-0.033207793 0.0088951886 0.0064401105 -0.3496615 -0.86298054 0.3646934 0.0030104939
-0.031263605 0.0084886262 0.0070082662 -0.30794823 -0.84540725 0.43641102 0.0010400191
-0.028575066 0.0078036329 0.0075081671 -0.28888741 -0.85403711 0.43262529 0.0015234277
-0.02555884 0.006852455 0.007646475 -0.26300335 -0.84374243 0.46789733 0.0010478914
-0.022849776 0.006385243 0.008237374 -0.25452971 -0.84836304 0.46421412 0.0012253447
-0.020606909 0.0062395465 0.0088615892 -0.21986857 -0.79429525 0.5663504 0.00052023085
0.023178058 0.0061312071 0.0088574709 0.16622891 -0.74143821 0.65010566 0.00047286844
0.025868097 0.0064256387 0.0085279215 0.1802132 -0.73872983 0.6494624 0.0007470476
0.028690169 0.0066906316 0.0080321683 0.20102617 -0.78107029 0.59120029 0.0030585306
0.031562097 0.0071474812 0.0075655319 0.24611451 -0.79954666 0.54786199 0.0029367986
0.034407668 0.0079659335 0.0073579014 0.27408716 -0.79419863 0.54233265 0.002905542
0.03716724 0.0085622501 0.0067356885 0.32602268 -0.81097335 0.48583069 0.0021183672
0.039104316 0.0089293933 0.0061199777 0.34613171 -0.80071354 0.48892808 0.0028119085
-0.039450884 0.011780873 0.0065304153 -0.39585766 -0.82250392 0.40839213 0.0015770911
-0.037270054 0.011231134 0.0075057517 -0.37539026 -0.81419432 0.44291049 0.0010739345
-0.034524348 0.010095092 0.007704115 -0.34996948 -0.82377881 0.4459931 0.0010142301
-0.031817399 0.0094543807 0.0083921179 -0.30275235 -0.8251909 0.4768658 0.00094186328
-0.02958403 0.0091183688 0.0088757714 -0.28605774 -0.7964893 0.5327062 0.0011741815
0.035207614 0.0092317434 0.0086915493 0.25108945 -0.71559411 0.65182757 0.0019937234
0.037814386 0.0097514894 0.0081256256 0.29596305 -0.76786333 0.56814766 0.0032831917
0.040455151 0.010489495 0.0075250207 0.34947449 -0.79172283 0.50104129 0.0027123473
0.043044802 0.011409849 0.0071093915 0.37800178 -0.77680719 0.50367177 0.0021404244
0.045205463 0.011878098 0.0062374654 0.4397485 -0.78933001 0.4284617 0.0030682217
-0.045330577 0.014926165 0.0063854149 -0.50810724 -0.78125322 0.36258841 0.0039080917
-0.043300133 0.014229009 0.00729748 -0.46424213 -0.77052426 0.43677402 0.0011164739
-0.040602285 0.012947283 0.0077550323 -0.40656316 -0.79748064 0.44579262 0.0010492929
-0.038292971 0.012350786 0.0085959574 -0.37463668 -0.80040085 0.46798056 0.00080621045
0.041551132 0.012151222 0.008836071 0.31765547 -0.69322908 0.64693773 0.0025957853
0.04379946 0.012574499 0.0083245644 0.35796502 -0.74780613 0.55914843 0.0027136377
0.046504922 0.013498123 0.0075117862 0.41791898 -0.76901633 0.48369169 0.0019204315
0.048970737 0.014431819 0.0067981319 0.4548775 -0.75709814 0.46892303 0.0020671592
-0.04863584 0.017434869 0.0069327317 -0.51116115 -0.74368328 0.43087053 0.0011459463
-0.046412304 0.016406599 0.0077029383 -0.48729101 -0.75355673 0.44124791 0.0010477944
-0.044204641 0.01542245 0.0083707962 -0.46453041 -0.75725001 0.45911211 0.0012306158
0.047718901 0.015200743 0.0088819368 0.39239877 -0.66899353 0.63124543 0.0022933823
0.049827352 0.015740762 0.0079817846 0.4463107 -0.72612369 0.52302122 0.0029425833
0.052248899 0.016967824 0.0073591648 0.48874184 -0.7078191 0.51002312 0.0024454696
0.054282304 0.017653285 0.0064423876 0.51710325 -0.71510243 0.4703539 0.0016988945
-0.054146897 0.020850059 0.006192259 -0.57213628 -0.73897809 0.35576895 0.0054281303
-0.052212127 0.020227475 0.0072299563 -0.54163969 -0.71588856 0.44060189 0.001106626
