# .PCD v0.7 - Point Cloud Data file format
VERSION 0.7
FIELDS x y z normal_x normal_y normal_z curvature
SIZE 4 4 4 4 4 4 4
TYPE F F F F F F F
COUNT 1 1 1 1 1 1 1
WIDTH 560
HEIGHT 1
VIEWPOINT 0 0 0 1 0 0 0
POINTS 560
DATA ascii
-0.055463612 -0.015499577 0.020993041 -0.85985088 0.10066837 -0.50052202 0.0004559097
-0.054337248 -0.013945661 0.019351486 -0.84468651 0.10567663 -0.52472579 0.00030401256
-0.054133788 -0.011258277 0.019634847 -0.85565561 0.13014571 -0.50091475 0.00037435401
-0.053438559 -0.0081737898 0.019506233 -0.86595953 0.18217625 -0.46575299 0.00082173961
-0.052941974 -0.0052841869 0.019660845 -0.89538348 0.15786058 -0.41637519 0.0015373527
-0.052603174 -0.0024804655 0.019713514 -0.91262442 0.17386754 -0.36998215 0.00040812275
-0.051948246 -0.0014023385 0.018719392 -0.91436368 0.1708528 -0.36708075 0.00035459749
-0.052132837 0.0007681963 0.020327639 -0.91582561 0.22680943 -0.3313925 0.00046672407
-0.051429842 0.0012976525 0.018906025 -0.90854698 0.22123262 -0.3543987 0.00050770876
-0.050917488 0.0038194205 0.019147646 -0.90887612 0.26283139 -0.3238267 0.00053904095
-0.049954325 0.0069752382 0.019393615 -0.9042632 0.30154347 -0.30229071 0.00028936259
-0.049381088 0.0091515407 0.019923838 -0.89630717 0.33615786 -0.28919083 0.00012727139
-0.048643481 0.010622408 0.019348586 -0.89608955 0.3367382 -0.28918999 0.00012459472
-0.047843978 0.012769541 0.019714026 -0.89498782 0.35721004 -0.26720363 0.00085372973
-0.045769654 0.018304855 0.018984737 -0.92265737 0.32947409 -0.20037499 0.00038080112
-0.044191744 0.022378061 0.019413667 -0.91115403 0.36083785 -0.19898355 0.0001030181
0.063962609 0.043728773 0.019066976 0.2307774 0.69650048 -0.67943269 0.026908629
0.06594637 0.043595236 0.018679749 -0.11205793 0.66784471 -0.73581684 0.0069200206
0.058586244 0.047093116 0.018124597 0.31238627 0.69538879 -0.64718556 0.0057666968
0.060514994 0.046525449 0.019472675 0.46780863 0.727355 -0.50210524 0.0018325403
0.063698649 0.045211751 0.020332636 0.037373576 0.56317377 -0.82549292 0.028049573
0.066293627 0.045560628 0.019907527 -0.22208779 0.56128556 -0.7972675 0.002152127
0.068370774 0.044455737 0.018654751 -0.22593181 0.60507751 -0.76343697 0.0024079441
0.052208301 0.049873032 0.018839726 0.30080545 0.69066048 -0.65765059 0.0046073566
0.054462831 0.04926119 0.018796666 0.30050838 0.67756897 -0.67126375 0.0065363762
0.0572525 0.048782308 0.019280525 0.37626943 0.69682699 -0.61061722 0.0087541258
0.059349839 0.047816932 0.019736068 0.50950629 0.70589256 -0.49205601 0.0018354964
0.066047616 0.047428876 0.021081703 -0.18328108 0.52063417 -0.83387542 0.0021882278
0.049032036 0.052824784 0.019891391 0.41373074 0.66461122 -0.62218875 0.0043600886
0.05142796 0.051721863 0.020095263 0.30148765 0.64644843 -0.70086348 0.0015457309
0.054190204 0.051240474 0.020361762 0.30640694 0.68310618 -0.66293335 0.0072083259
0.056216672 0.050623685 0.020583617 0.34337941 0.71759593 -0.60592633 0.0095582055
0.040812075 0.056265041 0.018208699 0.34689602 0.65114784 -0.67503309 0.0006611459
0.042614739 0.055921845 0.018520614 0.32782656 0.65231907 -0.68338096 0.00079290295
0.045345332 0.054893535 0.019194033 0.4285799 0.69363761 -0.57895267 0.0023510687
0.047790345 0.053979088 0.020340035 0.39432636 0.68960994 -0.60740829 0.0062556961
0.037078906 0.058714144 0.018652009 0.36488196 0.64887619 -0.6676982 0.00018875462
0.039512429 0.058073737 0.019234119 0.34095964 0.64862329 -0.68046623 0.00051083218
0.042228799 0.057259481 0.019968418 0.36263344 0.74010921 -0.56633508 0.0022188283
0.031269949 0.062106404 0.018529939 0.39396566 0.6390332 -0.66062665 0.00045862552
0.033583581 0.061056845 0.018970519 0.38214827 0.63363802 -0.67265564 0.00025893896
0.036216374 0.060605679 0.019903185 0.37153563 0.67248517 -0.64009762 0.0013747606
0.03852177 0.060027458 0.020659603 0.42375436 0.69928086 -0.57570696 0.003091445
0.027771113 0.064491436 0.018813334 0.39308602 0.63878882 -0.66138655 0.00033601452
0.030269274 0.063821055 0.019511677 0.39991695 0.67645609 -0.61844462 0.0022547271
0.033209149 0.062953159 0.020490984 0.41044945 0.67145199 -0.61699557 0.0016434462
0.022120273 0.068096451 0.018883156 0.41057903 0.74116677 -0.53112787 0.001328253
0.024705237 0.066917755 0.019236384 0.4102467 0.7140215 -0.56733668 0.0032148769
0.027153313 0.06599813 0.019943923 0.41385359 0.71661949 -0.56141037 0.0025646815
0.016309397 0.070628598 0.018692346 0.43420511 0.63084942 -0.64303577 0.0047945394
0.018645521 0.070365325 0.019755216 0.41557136 0.64257956 -0.64373285 0.0059755743
0.020973768 0.069294721 0.02019565 0.43422604 0.67181814 -0.60009009 0.0039601247
0.023167571 0.068524584 0.020697402 0.38867766 0.69520277 -0.60466748 0.0053047403
0.013289522 0.073754467 0.01891146 0.45819384 0.60256267 -0.65343451 0.0015100203
0.015560673 0.072820075 0.019596074 0.44564992 0.58684152 -0.67602742 0.0026655034
0.017796488 0.072155833 0.020446129 0.43436697 0.59085429 -0.679865 0.0024957089
0.0044350782 0.077321313 0.018409627 0.58868915 0.46677557 -0.65997398 0.043722205
0.0067680273 0.076804496 0.019127332 0.37687314 0.73332077 -0.56586856 0.013063108
0.0093415799 0.07617861 0.019381655 0.3840183 0.73970759 -0.55259627 0.010740357
0.012176044 0.075217791 0.019723488 0.3663336 0.77555287 -0.51411813 0.0087103946
0.014496451 0.074764542 0.020734759 0.42030886 0.71454477 -0.55925506 0.0072772475
0.0040471829 0.079020895 0.01901984 0.62316424 0.23051141 -0.74734932 0.020505348
0.0061106654 0.078920081 0.020367246 0.5668391 0.19260271 -0.80099791 0.011701312
0.0043243305 0.081083342 0.018747475 0.62697333 0.0036221475 -0.77903229 0.003748663
0.0063226055 0.081357367 0.02034355 0.60368353 0.16073357 -0.78085268 0.012262768
-0.035523742 -0.069815293 0.023866039 -0.20392463 -0.5381974 -0.81777638 0.00019312197
-0.03232098 -0.070516773 0.023602286 -0.16763683 -0.55701065 -0.81341082 0.00017747299
-0.029478207 -0.070768692 0.023312962 -0.10537852 -0.58740574 -0.80240262 0.00041380891
-0.026567679 -0.070891172 0.023170605 -0.052636545 -0.61037314 -0.79036325 0.00017931528
-0.02356221 -0.070868142 0.02302172 0.003051003 -0.63063163 -0.77607632 0.00044800784
-0.020668121 -0.070807837 0.023112494 0.063239925 -0.64932859 -0.75787413 0.00020057445
-0.017579222 -0.070643522 0.023333812 0.10632356 -0.66290349 -0.74111694 0.00010854691
-0.014804119 -0.070346899 0.02353495 0.15465589 -0.67534661 -0.72110218 0.00030116187
-0.011593138 -0.069852516 0.02387148 0.20917739 -0.69094688 -0.69198066 0.00024716929
-0.040935107 -0.067035712 0.023836235 -0.32058406 -0.46622506 -0.82453632 0.0003212537
-0.038388856 -0.067684963 0.023299899 -0.27074397 -0.49926242 -0.82306427 0.00043555061
-0.035544939 -0.067976065 0.022656845 -0.22327775 -0.53501201 -0.81480628 0.00029085821
-0.032575283 -0.068374343 0.02222117 -0.18561272 -0.54777908 -0.81577331 7.6150209e-05
-0.029574567 -0.06864737 0.021789918 -0.12061525 -0.58142096 -0.80461276 0.00034824639
-0.026588392 -0.068967514 0.021681236 -0.069993906 -0.60337323 -0.79438132 0.00020619684
-0.023487624 -0.069004357 0.021510711 -0.017288208 -0.6277346 -0.7782355 0.00026831156
-0.020503616 -0.069014862 0.021580087 0.046401024 -0.64490557 -0.76285237 0.00030520427
-0.017397989 -0.068855383 0.021767899 0.093508907 -0.65977019 -0.74562681 8.6365537e-05
-0.014434732 -0.068708725 0.022069579 0.13439809 -0.67252773 -0.72776622 0.00029070111
-0.011559634 -0.068317719 0.022362309 0.1833062 -0.68460101 -0.70549285 0.0002265739
-0.0085869366 -0.067899182 0.022890097 0.2342356 -0.69543928 -0.67933625 0.00014285716
-0.0057182424 -0.067223392 0.023252334 0.27443397 -0.70126706 -0.6579594 0.00011570632
-0.0036763512 -0.066889994 0.023772942 0.31542107 -0.69789439 -0.64300311 0.00024738166
-0.044012465 -0.064510077 0.023667144 -0.3729026 -0.43414959 -0.82003522 0.00051671127
-0.041488692 -0.065084875 0.022906151 -0.33017924 -0.47693592 -0.81456363 0.00012380336
-0.038777467 -0.065213695 0.021928649 -0.29122299 -0.49867186 -0.81640399 0.00038080465
-0.035699487 -0.066005222 0.021425528 -0.22845754 -0.52846372 -0.81763881 0.00030929563
-0.033786494 -0.066522881 0.021252261 -0.1934697 -0.5449481 -0.8158437 0.00013154857
-0.0082802773 -0.066321686 0.021361362 0.22207423 -0.69207895 -0.68681139 0.00015670646
-0.0053524077 -0.065737963 0.021831222 0.259965 -0.69449419 -0.67089188 9.6128882e-05
-0.0025140001 -0.065130867 0.022429341 0.31346929 -0.69201171 -0.65027446 0.00020331089
0.00016660488 -0.064459354 0.023069331 0.38166183 -0.69368833 -0.61084425 0.00021116088
0.0023285989 -0.063902736 0.023879038 0.42042032 -0.69578832 -0.58234471 0.00012868344
-0.047053486 -0.061410051 0.023609525 -0.44839832 -0.39045212 -0.80404365 0.00042418475
-0.04459032 -0.062090281 0.022652747 -0.41210157 -0.41931278 -0.80891854 0.00016759212
-0.041892681 -0.062536173 0.021614721 -0.35762787 -0.45449299 -0.81580538 0.00038645708
0.00071046129 -0.063053653 0.021895021 0.34956938 -0.70146507 -0.62108606 0.00056524685
0.0033458234 -0.062219307 0.022642191 0.39721164 -0.70108646 -0.59219986 0.00051860267
0.0058644894 -0.061110362 0.023112318 0.42594212 -0.73475075 -0.52793425 0.00056040712
-0.049610622 -0.058421869 0.023711242 -0.49970612 -0.35879278 -0.78839171 0.00022742459
-0.047513001 -0.059120685 0.022772558 -0.46280655 -0.38637045 -0.79782701 0.00013478483
-0.04507345 -0.059615843 0.021633888 -0.43161643 -0.40399402 -0.8065334 0.00040451379
0.0047495915 -0.060579613 0.021454053 0.38517538 -0.72694141 -0.56850338 0.00022643224
0.0068648839 -0.059770439 0.022013633 0.41443294 -0.73089272 -0.54225564 0.0001234685
0.0092519196 -0.058851548 0.02267207 0.46426859 -0.72032464 -0.51535147 0.00038503233
0.011604323 -0.057873867 0.023693087 0.52192771 -0.70119095 -0.48571873 0.00011069895
-0.050343066 -0.055963997 0.023153055 -0.53196365 -0.3298966 -0.77986079 0.00035720802
-0.047945704 -0.056267589 0.021711275 -0.49601015 -0.35661599 -0.79170632 0.00037446455
0.010544448 -0.057154868 0.021565892 0.48770919 -0.71109223 -0.50644606 0.00036643108
0.012507976 -0.056270499 0.022418555 0.53244227 -0.69048697 -0.48962539 0.00010440493
0.014583125 -0.055108979 0.023060931 0.55953819 -0.6874947 -0.46289104 0.00014312868
-0.052825246 -0.052874267 0.023717603 -0.5880127 -0.28366548 -0.75747937 0.00027362059
-0.050825607 -0.053149555 0.022326136 -0.56417531 -0.29689959 -0.77042639 0.00024336505
-0.048988961 -0.053775929 0.021311061 -0.53587776 -0.32410562 -0.7796092 0.00017694378
0.015896372 -0.053636976 0.0224506 0.56882173 -0.6823765 -0.45913407 0.00018729601
0.017658696 -0.052405126 0.022785094 0.58714491 -0.66840911 -0.45660707 0.00021613273
-0.053238239 -0.049940996 0.023046045 -0.6172694 -0.2416411 -0.74872428 0.00031887845
-0.051384863 -0.05038061 0.02169808 -0.59210926 -0.27674583 -0.75684762 0.00039255005
0.018834133 -0.050810333 0.022038486 0.60211939 -0.651568 -0.46142316 0.00040971558
0.020555267 -0.049520366 0.022627121 0.62889016 -0.65457094 -0.41956419 0.00063490716
-0.055267941 -0.046703085 0.023859816 -0.66571635 -0.2005856 -0.71873993 0.00017909166
-0.053561606 -0.047178231 0.02245798 -0.64299917 -0.22321042 -0.73261797 0.00027489272
0.02202278 -0.047803536 0.022427252 0.61516666 -0.68781757 -0.38532701 0.0016358998
0.023717377 -0.04647921 0.02270643 0.62378073 -0.70047802 -0.3467392 0.0006308736
-0.055530615 -0.043975744 0.023399249 -0.68639791 -0.17874175 -0.70491791 0.00019938394
-0.053953439 -0.044276517 0.021976702 -0.67843986 -0.19298421 -0.70885569 0.00014589043
0.025158787 -0.04518152 0.022241401 0.64011693 -0.70268935 -0.31060907 0.00052614277
0.027104773 -0.0436083 0.022873541 0.667171 -0.68086272 -0.30217341 0.00063544221
-0.056005228 -0.041082349 0.023189628 -0.71252114 -0.15653825 -0.68396598 0.00025315411
-0.054450504 -0.0410446 0.02159016 -0.693712 -0.17249428 -0.699292 0.00017974696
0.028424459 -0.041919932 0.02226712 0.6983341 -0.65228373 -0.29471263 0.00027993086
0.029839836 -0.0406265 0.023039188 0.70754266 -0.64629173 -0.28581527 0.00016612357
-0.056326564 -0.0379759 0.022887081 -0.73403782 -0.11615612 -0.669101 0.0002591919
-0.054883581 -0.038497046 0.021429531 -0.71537131 -0.13962321 -0.68465269 0.00014058821
0.031135784 -0.038828209 0.02215031 0.72757423 -0.63124156 -0.26864448 0.0002012796
0.032764953 -0.037012786 0.022122489 0.7458114 -0.61361665 -0.25930697 0.00032456985
-0.056473184 -0.035142478 0.022563996 -0.74456465 -0.088555396 -0.66165048 0.0002418419
0.034133602 -0.035300039 0.022239016 0.78461444 -0.56711227 -0.25052693 0.00053260563
0.035604198 -0.033850595 0.023542719 0.79944026 -0.54813647 -0.24584889 0.00064409076
-0.056436285 -0.032128528 0.022267122 -0.7682035 -0.033611905 -0.63932282 0.00037615333
0.036349855 -0.032155696 0.02269152 0.82380909 -0.51552683 -0.23573455 0.001004296
-0.056628443 -0.029225709 0.022455627 -0.79203981 -0.014907837 -0.61028737 0.00056025974
-0.056745727 -0.026161108 0.022569839 -0.82203645 -0.031951506 -0.56853789 0.00079086272
-0.056888767 -0.02330556 0.022625271 -0.85040021 0.010628831 -0.52602887 0.00069293042
-0.05675365 -0.020085337 0.022375932 -0.8599894 0.05016702 -0.50784004 0.00025162112
-0.056680489 -0.01730998 0.022718171 -0.86085767 0.079340883 -0.50262219 0.00015053227
-0.056151234 -0.014237002 0.022457078 -0.86779344 0.12666699 -0.48051012 0.0001259664
-0.055911053 -0.011403709 0.022980193 -0.88328892 0.16213173 -0.43990237 0.00055689784
-0.05498074 -0.010355502 0.021485226 -0.87741429 0.16506761 -0.45044068 0.00043519156
-0.05536392 -0.0082052154 0.023149751 -0.88282919 0.21419761 -0.41800952 0.00047338111
-0.054679185 -0.0081321746 0.021685623 -0.87947637 0.19643192 -0.43351561 0.0004707842
-0.055282895 -0.0063046073 0.023983436 -0.88502693 0.23610309 -0.40122631 0.00042431068
-0.054319374 -0.0052044024 0.02276854 -0.88418168 0.24897715 -0.39526334 0.00017499509
-0.053612027 -0.0023183781 0.02277202 -0.9174304 0.20220041 -0.34269008 0.0008045829
-0.052794296 0.00089136628 0.022297924 -0.92447942 0.23462695 -0.30047968 0.00056505966
-0.052467801 0.0029698159 0.023246007 -0.91921026 0.28287053 -0.2739284 0.00015453254
-0.051641993 0.0043132934 0.021969514 -0.91579205 0.29086277 -0.27699044 0.00017401668
-0.050812423 0.0070368024 0.022247877 -0.90974534 0.31826857 -0.26658702 0.00015793463
-0.049938362 0.009764947 0.022546077 -0.90629929 0.34045282 -0.2504265 0.00020627494
-0.049202465 0.01223968 0.023299472 -0.89039952 0.38373446 -0.24481931 0.00052003883
-0.048392568 0.013169423 0.021830713 -0.88557726 0.38671792 -0.25729793 0.00051367236
-0.047163218 0.015731573 0.022028701 -0.90587997 0.35791159 -0.22645244 0.00081761042
-0.045176208 0.020851001 0.021177309 -0.91963404 0.34307644 -0.19123754 0.00024220624
0.061758477 0.046925984 0.021434443 0.12971979 0.66762298 -0.7331115 0.048603233
0.063246407 0.046536908 0.021484911 0.041724931 0.56555527 -0.82365423 0.030011132
0.064970292 0.046892039 0.021132397 -0.1628323 0.53127444 -0.83140427 0.0027227923
0.05807057 0.050010968 0.022262717 0.38844663 0.74098647 -0.54776663 0.022289786
0.060699157 0.048856374 0.023036052 0.20940639 0.63679892 -0.74204862 0.042616699
0.063387997 0.048916817 0.022557743 -0.20156984 0.46630922 -0.86135089 0.003709276
0.065564997 0.048368052 0.021770235 -0.1746282 0.46643749 -0.86714536 0.002559942
0.052228019 0.052868679 0.021198632 0.27571827 0.65084928 -0.70737153 0.0017883489
0.054614194 0.052568588 0.022172958 0.42072892 0.71134323 -0.56300789 0.0091480725
0.057046521 0.051156763 0.022739554 0.42807406 0.74506652 -0.51149637 0.012553539
0.061582383 0.050763518 0.023996877 -0.03838459 0.55097765 -0.83363676 0.027512953
0.062912524 0.051242374 0.023615524 -0.21123283 0.45889512 -0.86301559 0.0028663778
0.04623054 0.056119751 0.022182258 0.31375 0.67941958 -0.66328728 0.0054126089
0.048570532 0.0553031 0.022124385 0.32584411 0.66993439 -0.66709334 0.0055653597
0.051425602 0.054644279 0.022520851 0.32227284 0.68770951 -0.65053505 0.0031107084
0.05365156 0.054025885 0.023172067 0.46230507 0.6890586 -0.558097 0.0077895215
0.042773463 0.058537122 0.022586966 0.36082008 0.6655575 -0.65333158 0.0058086799
0.045378175 0.057817452 0.023112927 0.28193855 0.63919157 -0.71550316 0.0019501306
0.048167013 0.057368275 0.023459451 0.32010514 0.65945679 -0.68018341 0.0050389078
0.050367411 0.056475122 0.023828344 0.33440155 0.68324584 -0.64911538 0.005392116
0.037100352 0.061842542 0.021952819 0.41205779 0.71807325 -0.56087351 0.0011633016
0.039619245 0.060975906 0.023091415 0.42263111 0.66075438 -0.62031162 0.0043340595
0.041748978 0.059857488 0.023618693 0.3761642 0.64332545 -0.66680807 0.0055647385
0.030809613 0.06511271 0.021421732 0.40442345 0.7294178 -0.55171669 0.0019012394
0.033551779 0.064383529 0.022806833 0.40410045 0.70182234 -0.58664143 0.0033143465
0.035828002 0.063210189 0.022967381 0.40626711 0.69877404 -0.58877999 0.0027053198
0.038095731 0.062498163 0.023951935 0.3616482 0.67022938 -0.64807659 0.0054391529
0.025397718 0.067962974 0.02170323 0.4311302 0.65186322 -0.62385994 0.0065382882
0.027641181 0.067516662 0.022751942 0.38206464 0.6687637 -0.63779444 0.0042916532
0.030079044 0.066569112 0.0232097 0.40425569 0.67020869 -0.6224128 0.0050662234
0.032082826 0.0657617 0.023869114 0.40709689 0.66034216 -0.63104695 0.0059173116
0.02167148 0.070473321 0.021771844 0.41488233 0.62556344 -0.66071403 0.0037982794
0.024379579 0.069962099 0.022846734 0.41216937 0.58733416 -0.6965307 0.0022508614
0.027111325 0.069016226 0.023738006 0.39795089 0.57054752 -0.71840841 0.0011436114
0.016699405 0.074095279 0.021561312 0.45458582 0.59599131 -0.66192609 0.0030837096
0.018541858 0.073352635 0.021975659 0.43411463 0.61722875 -0.6561808 0.0019607467
0.021224733 0.072422929 0.022820594 0.42714784 0.61113423 -0.66637802 0.0016881406
0.023525104 0.071935862 0.023789581 0.39164495 0.6168384 -0.68273324 0.0019957034
0.0096488921 0.077143513 0.021901073 0.42475545 0.56076956 -0.71071815 0.02751782
0.012316315 0.07664746 0.022809811 0.37494349 0.62075096 -0.68853873 0.047671989
0.015393608 0.075218506 0.02211237 0.36621231 0.79368275 -0.48575327 0.0038864049
0.018053995 0.074796885 0.023503449 0.40291309 0.77938986 -0.47980452 0.0051632239
0.0074600745 0.079196148 0.021246182 0.48825839 0.35988781 -0.79503739 0.029092388
0.0094645284 0.07899189 0.022409942 0.48034564 0.17666517 -0.85910273 0.0068507618
0.011631038 0.079090379 0.023749221 0.45994881 0.13732231 -0.87726259 0.011922188
0.0074613029 0.081378579 0.021304758 0.56658345 0.19196999 -0.80133057 0.011704073
0.0092432369 0.081379369 0.022579486 0.5017159 0.074572764 -0.86181206 0.0035252394
0.012149839 0.080874652 0.023672549 0.46674174 0.11960635 -0.87626845 0.011895823
-0.032007113 -0.075610355 0.027019536 -0.042425226 -0.49961004 -0.86521095 0.0015866919
-0.029534899 -0.075615793 0.027052669 -0.012000186 -0.57522017 -0.81791061 0.001494777
-0.026778018 -0.075593762 0.026918391 0.014580599 -0.62104893 -0.78363609 0.0012277073
-0.024032589 -0.07560458 0.026984366 0.056579772 -0.63011593 -0.77443689 0.0013443261
-0.040890966 -0.073034979 0.026959626 -0.21467584 -0.42284825 -0.88040537 0.00069630495
-0.038481023 -0.0734879 0.02668882 -0.17673609 -0.43127599 -0.88474035 0.00099471572
-0.035535242 -0.073864274 0.026413331 -0.12494974 -0.48067009 -0.86795384 0.0011652365
-0.032544665 -0.074020438 0.02608371 -0.10571128 -0.54408646 -0.83234316 0.0021697527
-0.029520582 -0.074086539 0.025866373 -0.056677721 -0.57661235 -0.81504959 0.00098160445
-0.026457418 -0.074041091 0.025650265 -0.019817088 -0.62554204 -0.7799387 0.00014716278
-0.023613887 -0.074056923 0.025660554 0.032756224 -0.64549387 -0.76306266 0.00027800532
-0.020629583 -0.074027494 0.025943266 0.09260077 -0.66290939 -0.74295104 0.00014104447
-0.017611351 -0.073752739 0.026146332 0.13601519 -0.67292005 -0.72710276 0.00020422954
-0.014802075 -0.073221914 0.026260188 0.18666442 -0.68515956 -0.70406872 0.00030685897
-0.012097366 -0.07293418 0.026785562 0.23822397 -0.69219905 -0.681256 0.0002088503
-0.046307128 -0.070118442 0.027062135 -0.29631174 -0.3680945 -0.88130909 0.00046092636
-0.04431466 -0.070701107 0.026761899 -0.24684887 -0.3824566 -0.89038903 0.00072025019
-0.041567925 -0.071105674 0.026328033 -0.23654763 -0.41398382 -0.87901235 0.0012241543
-0.038462751 -0.070946135 0.025292184 -0.22018452 -0.4837009 -0.84708452 0.0012514923
-0.035786476 -0.071252696 0.024917224 -0.17901053 -0.52441138 -0.83243495 0.00071439089
-0.032756299 -0.07186383 0.024628056 -0.13975787 -0.56332684 -0.81432831 0.00067716214
-0.029850665 -0.072249584 0.024444954 -0.081175484 -0.59889472 -0.79670304 0.00032264728
-0.026635796 -0.072444901 0.024384456 -0.036852181 -0.62003696 -0.78370661 0.00014827507
-0.023624856 -0.072430201 0.024291497 0.02226375 -0.63686681 -0.77065223 0.00044879946
-0.020353815 -0.072323054 0.024477707 0.078768477 -0.65715468 -0.74962872 0.0001911123
-0.017749688 -0.072190739 0.024698168 0.11944915 -0.66667843 -0.73571169 0.00015472631
-0.014465052 -0.07156644 0.024758223 0.1691383 -0.68163788 -0.71187216 0.00024381661
-0.011534751 -0.071322337 0.025364434 0.22433862 -0.6923095 -0.68584234 0.00025034085
-0.0087740114 -0.070731476 0.025754808 0.25948048 -0.69931787 -0.66605127 7.3661511e-05
-0.0058154808 -0.070231453 0.026449231 0.30149984 -0.70167625 -0.6455605 0.00025162459
-0.047192894 -0.067818619 0.026532544 -0.33360982 -0.33068529 -0.88280904 0.0014975577
-0.044581775 -0.068224162 0.025833262 -0.2789261 -0.39540637 -0.87513089 0.0012174369
-0.041849617 -0.068341039 0.024963764 -0.30070812 -0.43992776 -0.84619045 0.00093238812
-0.0393916 -0.068986878 0.02440872 -0.25823331 -0.48858795 -0.83342505 0.00080801069
-0.0077799116 -0.069183588 0.024505384 0.2525183 -0.70007622 -0.66792798 5.9202346e-05
-0.0054712016 -0.068804197 0.025059137 0.27862954 -0.70210934 -0.65529233 0.00010961929
-0.0026875348 -0.068109021 0.025636187 0.33046067 -0.70452535 -0.62804449 0.00020741348
0.00030856638 -0.067212678 0.026406592 0.40085262 -0.70552433 -0.58442485 0.00012018061
-0.050039902 -0.064908341 0.026832232 -0.39866462 -0.30175063 -0.86603296 0.0016583791
-0.047637403 -0.065033108 0.025671856 -0.40420288 -0.3445465 -0.84729439 0.0011218481
-0.044901822 -0.065477051 0.024629613 -0.33759043 -0.43469557 -0.8349086 0.0008812095
-0.042742051 -0.066404551 0.024191247 -0.32057318 -0.46617961 -0.82456619 0.00033573582
-0.0014926387 -0.066428363 0.024356099 0.33992437 -0.70096099 -0.62698096 0.00039132449
0.00052243355 -0.06580475 0.024858242 0.3800827 -0.70165503 -0.60267514 0.00031981358
0.0033331853 -0.064847931 0.025745472 0.43573123 -0.68924934 -0.57885557 0.00018115752
0.0055603101 -0.064206123 0.026723413 0.47178048 -0.68378484 -0.55665207 0.00027650126
-0.05251193 -0.061380304 0.026822178 -0.47391483 -0.27856115 -0.83534926 0.0027664178
-0.050591856 -0.062169846 0.02601395 -0.45709378 -0.31660831 -0.83115846 0.0012119598
-0.04807752 -0.062467832 0.024705393 -0.43963972 -0.38218313 -0.81280559 0.00051710854
0.0046136617 -0.06299758 0.024579989 0.45251647 -0.69577789 -0.55778319 0.0003031285
0.0065909536 -0.062417828 0.025512645 0.48209336 -0.69297916 -0.53606516 0.00051541429
0.008867247 -0.061340604 0.02617597 0.50456464 -0.70505172 -0.49831384 0.0011227942
-0.053074382 -0.058874592 0.026259983 -0.54010451 -0.2988801 -0.78673869 0.00068457448
-0.05069533 -0.059331495 0.024823904 -0.49219918 -0.35217962 -0.79605871 0.00027695473
0.0099678645 -0.059975374 0.025170654 0.49812838 -0.724222 -0.47683385 0.00044204318
0.012443635 -0.058588538 0.025747942 0.53863072 -0.71174771 -0.45087934 0.00022494579
0.014167831 -0.057975769 0.026700335 0.56935984 -0.69438624 -0.44006503 0.00058504491
-0.055631202 -0.055467825 0.026863018 -0.58996379 -0.2686688 -0.76141959 0.00043964796
-0.053666715 -0.056131374 0.025600513 -0.57904935 -0.28723866 -0.76301759 0.00016509673
-0.051679473 -0.056585241 0.024313169 -0.5466342 -0.31138405 -0.77732301 0.00024589885
0.013269403 -0.057155438 0.024505408 0.53703874 -0.70189023 -0.46790975 0.00029204099
0.015305598 -0.056183003 0.025503689 0.58182001 -0.68408918 -0.43989468 0.00034130941
0.0174326 -0.05459255 0.025962071 0.61232758 -0.67186505 -0.41671607 0.00027495439
-0.056031909 -0.052862626 0.026332779 -0.6250053 -0.23860046 -0.74326181 0.00025196967
-0.054179382 -0.053223066 0.024910672 -0.602337 -0.26225629 -0.75393087 0.0004392376
0.016840741 -0.054471478 0.02492954 0.59713876 -0.67577738 -0.43214607 0.00026711068
0.018734064 -0.053116083 0.025434388 0.61798936 -0.66776657 -0.41494209 0.00025813907
0.02037135 -0.052062143 0.026223755 0.64439839 -0.65676057 -0.39168391 0.00025350577
-0.056464434 -0.050074272 0.025910808 -0.66198409 -0.20104299 -0.72205174 0.00034847454
-0.054681849 -0.050478052 0.024437241 -0.63524818 -0.22414957 -0.73906475 0.00024489663
0.02170364 -0.050196934 0.025464831 0.66686696 -0.63389724 -0.39174306 0.00020898817
0.022973632 -0.049762219 0.026965098 0.70334536 -0.62540787 -0.33789092 0.00043364396
-0.058377251 -0.046451971 0.026846128 -0.69821304 -0.161836 -0.69735765 0.00014900276
-0.056673657 -0.047156703 0.025328724 -0.67911255 -0.1816487 -0.7112031 0.00022218449
0.022847699 -0.048427612 0.024697619 0.68067503 -0.62889075 -0.37573645 0.00059001846
0.024536015 -0.047140133 0.025491783 0.67618036 -0.65359753 -0.33998603 0.0015978325
0.026270766 -0.045911521 0.026941465 0.68296796 -0.67586255 -0.27706441 0.0005645646
-0.058582257 -0.044102482 0.026537003 -0.72225827 -0.13961133 -0.67738599 0.00021857361
-0.057087749 -0.044158824 0.025002331 -0.70162117 -0.15821239 -0.69476372 0.00016841375
0.027318757 -0.044625252 0.026137764 0.68736339 -0.67462474 -0.26909664 0.00035282059
0.029281542 -0.042871162 0.026757063 0.7097894 -0.66490757 -0.23258755 0.00049419928
-0.058771491 -0.041034188 0.026166024 -0.73887724 -0.11390985 -0.66414225 0.00017782133
-0.057373628 -0.041316167 0.024686873 -0.72264826 -0.13546215 -0.67781234 0.00018325703
0.028841265 -0.042380765 0.024362998 0.707811 -0.64960855 -0.2775107 0.00030681278
0.030560648 -0.040833857 0.025446272 0.73921072 -0.62879503 -0.24121426 0.00050499378
-0.058782075 -0.038116843 0.025713159 -0.76267499 -0.082656607 -0.64147866 0.00029163162
-0.057511166 -0.038552437 0.024332242 -0.749412 -0.10635766 -0.65350562 0.00024395405
0.03301166 -0.037804577 0.025254088 0.75606579 -0.61795384 -0.21563271 0.00024306859
-0.059149954 -0.035211407 0.025856001 -0.78483391 -0.054026652 -0.61734658 0.00040156321
-0.058055583 -0.033905774 0.024315672 -0.77425456 -0.070908457 -0.62888944 0.00026675474
0.034619045 -0.035583608 0.024833413 0.78815502 -0.57577056 -0.21748522 0.00073071645
0.035586119 -0.034890458 0.026581066 0.81412721 -0.55537301 -0.16958109 0.00057646458
-0.059361707 -0.032102283 0.025954628 -0.81109536 -0.0081806984 -0.58485663 0.00015878277
-0.058037542 -0.03198361 0.024173729 -0.7880671 -0.023704328 -0.61513275 0.00025317553
0.036944475 -0.03268227 0.026412578 0.81879538 -0.5387553 -0.19828463 0.00081346655
-0.059359059 -0.029084016 0.025933938 -0.81708866 0.027074752 -0.57587594 0.00012303026
-0.058038246 -0.028705783 0.024179282 -0.79257035 0.011356014 -0.60967475 0.00025712606
-0.058951408 -0.026089188 0.025694618 -0.83158499 0.063470826 -0.55175883 0.00070238771
-0.058061898 -0.027077243 0.024365382 -0.81028557 0.02620033 -0.58544922 0.00095039548
-0.058613572 -0.023193026 0.025620164 -0.85619092 0.051321022 -0.51410431 0.0017715867
-0.058484334 -0.020017734 0.025529491 -0.88043499 0.069389954 -0.469062 0.00094165339
-0.058434956 -0.017288953 0.025859306 -0.89131451 0.10973457 -0.43990543 0.00055274909
-0.057520986 -0.016147235 0.024410225 -0.87216252 0.10902549 -0.4769128 0.00026365762
-0.05834968 -0.014567554 0.026629226 -0.89224404 0.17289758 -0.4171415 0.00025752414
-0.057454579 -0.01374462 0.025123265 -0.88443708 0.1664138 -0.43597883 0.00045486441
-0.057073306 -0.010952395 0.025599582 -0.88854754 0.19471517 -0.41541448 0.00027778768
-0.056329686 -0.0078403009 0.025585288 -0.8930192 0.24079226 -0.38017872 0.00022612173
-0.055721838 -0.0050865081 0.025910465 -0.88989264 0.26870564 -0.36863047 0.00014210539
-0.054812212 -0.0041225706 0.024613308 -0.89486945 0.25886202 -0.36359197 0.00024932786
-0.055072811 -0.0019324126 0.026790159 -0.89407146 0.3048141 -0.32821405 0.00076860416
-0.054631259 -0.0022078259 0.025389152 -0.89578402 0.28411904 -0.34182942 0.0010763396
-0.053642135 0.00066645048 0.025128672 -0.91373861 0.29593542 -0.27839553 0.0013711337
-0.052883826 0.0036855037 0.025675373 -0.9258216 0.28954038 -0.24294202 0.00019629489
-0.052021328 0.0051655616 0.024115341 -0.92376691 0.29658407 -0.24226552 0.00020321287
-0.052230768 0.0060205976 0.025959896 -0.91899747 0.31698638 -0.23444249 0.00027108984
-0.05158494 0.0070990101 0.025093587 -0.91415656 0.32315743 -0.24471821 0.00013309187
-0.050662968 0.0097070262 0.025416562 -0.9093768 0.35718548 -0.21319552 0.0002849267
-0.049457271 0.012866929 0.025672572 -0.89870453 0.38881338 -0.20286533 0.00053418049
-0.048767246 0.013913795 0.024336116 -0.89446765 0.38658661 -0.22467394 0.00067726034
-0.047716491 0.016117224 0.024744915 -0.89991456 0.39767873 -0.17890052 0.001981799
0.059969701 0.049966089 0.024180757 0.068124115 0.59757948 -0.79891038 0.043613628
0.055708367 0.053350307 0.025024461 0.44096285 0.68008471 -0.58569318 0.013319938
0.057814866 0.052211676 0.025346318 0.18686594 0.62449163 -0.75834775 0.020813361
0.060379062 0.051948551 0.024896039 -0.03978055 0.56570494 -0.82364768 0.026929196
0.062365156 0.052761436 0.024689103 -0.18987763 0.48547101 -0.85338408 0.0059153275
0.052706651 0.055823546 0.025098803 0.45985863 0.69581223 -0.55170232 0.0080643641
0.054629657 0.05524195 0.02659302 0.33790615 0.62216425 -0.70620894 0.026444383
0.057673756 0.054622658 0.02676242 0.033118252 0.45728245 -0.88870466 0.012027256
0.060020246 0.054665443 0.026155164 -0.012944079 0.4839668 -0.87499058 0.013402942
0.045964248 0.05918467 0.024338149 0.28367025 0.63775367 -0.71610153 0.0020679811
0.048668358 0.058598381 0.025151253 0.42518809 0.68426043 -0.59245485 0.0069671981
0.051037967 0.057173096 0.025637282 0.47418165 0.71409214 -0.51499933 0.0018174462
0.040687226 0.061835632 0.024402814 0.42506501 0.6316061 -0.64837754 0.0055736336
0.042696759 0.061189152 0.024971595 0.31664494 0.60493249 -0.73061115 0.0014090632
0.045128118 0.060721129 0.025451953 0.33979946 0.68227959 -0.64732593 0.0085274931
0.047495071 0.060089901 0.026237803 0.39492205 0.73872596 -0.54618728 0.0055448082
0.034675501 0.065117128 0.024414606 0.3446604 0.60262734 -0.71975648 0.0023525755
0.036684781 0.064423867 0.024890548 0.35736153 0.63530129 -0.68460572 0.0037508418
0.039385326 0.063753508 0.025343681 0.36529604 0.63893986 -0.67698938 0.004795813
0.04189992 0.063391283 0.026293034 0.39144364 0.63786262 -0.66325194 0.0074804318
0.031038294 0.067500345 0.024505924 0.37918448 0.63126075 -0.67655671 0.0043608742
0.033349626 0.067019239 0.025212001 0.3748357 0.64717674 -0.66382265 0.0056811837
0.036285613 0.0664564 0.026068347 0.39232633 0.68581545 -0.61297405 0.0056449487
0.038511526 0.065806925 0.026535111 0.34848538 0.66429418 -0.66126484 0.0052410308
0.025550591 0.071272917 0.024179565 0.3964476 0.59274143 -0.70106125 0.0022330773
0.027605372 0.070245415 0.024782794 0.42471614 0.61708647 -0.66243517 0.0038858657
0.030271491 0.069373898 0.025494767 0.38784307 0.62610453 -0.67643988 0.003728156
0.032551464 0.068897925 0.026402595 0.39544234 0.68157899 -0.61569095 0.0061099641
0.021750214 0.073645815 0.024634015 0.38246986 0.75838906 -0.52779049 0.0083844746
0.024473961 0.07262364 0.025377942 0.42167324 0.7496798 -0.51007044 0.0066303145
0.026970824 0.071773082 0.025864074 0.42285994 0.75233126 -0.50516063 0.0063883341
0.013357723 0.077145204 0.024428185 0.4781166 0.34712318 -0.80678993 0.058945328
0.015815735 0.076658122 0.02541141 0.51851273 0.51150113 -0.6852088 0.050047904
0.018258104 0.075904064 0.02603898 0.49463135 0.61346132 -0.61563396 0.034144677
0.020223554 0.075031318 0.026940273 0.41218364 0.58785135 -0.69608587 0.045300994
0.012960829 0.078915156 0.024541896 0.47551075 0.11057418 -0.872733 0.012084258
0.015503504 0.078926563 0.025699543 0.46479997 0.022620205 -0.88512677 0.0038743077
0.017629964 0.079106554 0.026894199 0.48845214 0.086210281 -0.8683216 0.011195115
0.012855844 0.081286073 0.024404595 0.46674696 0.11970449 -0.87625229 0.011891839
0.014763542 0.080820143 0.024979984 0.45077717 0.015414625 -0.89250338 0.0039462508
0.017737333 0.080475532 0.026654931 0.48843837 0.086153425 -0.86833489 0.011200301
-0.038240973 -0.078746662 0.029292481 -0.17348969 -0.56416047 -0.8072325 0.0077906619
-0.035268489 -0.079273589 0.029139807 -0.13825539 -0.62365407 -0.76937711 0.0059427004
-0.032625638 -0.079592459 0.02915732 -0.085862949 -0.57784218 -0.81161928 0.0064586289
-0.029514667 -0.079673819 0.029117746 0.0019487471 -0.53821725 -0.84280396 0.0028521172
-0.026712816 -0.079710223 0.029341599 0.066851668 -0.52887076 -0.8460654 0.0021279815
-0.023888882 -0.079241097 0.029643049 0.14538866 -0.51718062 -0.84343719 0.001276711
-0.021137901 -0.078862816 0.029974477 0.17243887 -0.54844093 -0.81821597 0.0018588807
-0.043683667 -0.076252311 0.029582052 -0.25770563 -0.49308795 -0.83093446 0.0014930624
-0.041404385 -0.076866694 0.029060336 -0.24604265 -0.54530269 -0.80131638 0.0047800383
-0.038650218 -0.076971591 0.028329493 -0.2008201 -0.51287585 -0.83464342 0.005134373
-0.035591297 -0.076799318 0.027779432 -0.091910847 -0.46478966 -0.88063788 0.00034494131
-0.032680858 -0.076978676 0.02772717 -0.031778101 -0.466465 -0.88396865 0.00048041917
-0.029583104 -0.077120572 0.027828192 0.016449025 -0.49734709 -0.8673957 0.0011589647
-0.026569594 -0.077169158 0.02811701 0.064194947 -0.54052842 -0.83887309 0.0031342038
-0.023465557 -0.077105716 0.028369905 0.11260534 -0.57327843 -0.81158608 0.0030561865
-0.020526914 -0.076975994 0.028607132 0.13552329 -0.62220675 -0.77103323 0.0016833557
-0.017601717 -0.076668367 0.028873404 0.18374227 -0.65947026 -0.72892922 0.0009406365
-0.014618887 -0.076422311 0.029438144 0.22114284 -0.68822098 -0.69097596 0.00026208014
-0.01255482 -0.076067597 0.029805126 0.2644192 -0.69594491 -0.66763997 6.5312845e-05
-0.049291842 -0.072665423 0.029278653 -0.4229627 -0.39041302 -0.8177287 0.0064443797
-0.047417834 -0.073662587 0.029093498 -0.35385796 -0.49916673 -0.7909596 0.0047854465
-0.044610355 -0.07424356 0.02840746 -0.2645148 -0.47359022 -0.8400858 0.001994384
-0.041690845 -0.074231535 0.027560389 -0.22282195 -0.44073316 -0.86954284 0.0014312727
-0.03883696 -0.074904136 0.027325893 -0.16535361 -0.44752288 -0.87885237 0.00059266709
-0.017253846 -0.075048268 0.027426643 0.15214941 -0.67560548 -0.72139305 0.00021164883
-0.014300384 -0.074797198 0.027937641 0.19979043 -0.6847887 -0.70081967 0.00021086517
-0.011585887 -0.074451543 0.028523808 0.25507137 -0.69011313 -0.67726105 0.00017832738
-0.0088573815 -0.073808372 0.028963501 0.28341621 -0.70038915 -0.65508038 0.00020398782
-0.0058433879 -0.073043548 0.029485373 0.34360793 -0.70680159 -0.61835676 0.0004691612
-0.052393928 -0.070262611 0.029833855 -0.48005852 -0.48393607 -0.73167592 0.004323524
-0.050188661 -0.070632145 0.028625881 -0.43869215 -0.40098771 -0.80421269 0.0065580243
-0.047555756 -0.071156286 0.027892301 -0.29477289 -0.37804946 -0.87760335 0.00044769401
-0.045089915 -0.071870148 0.027395604 -0.2427232 -0.38918868 -0.88860434 0.00050954148
-0.0081363693 -0.072245553 0.027602965 0.27014595 -0.69820321 -0.66297311 5.1368315e-05
-0.0055807102 -0.071576282 0.028006585 0.3046307 -0.70133048 -0.64446539 0.00015920897
-0.0027642883 -0.070753969 0.028645718 0.3746202 -0.7113421 -0.59468657 0.00042762046
-0.00024504849 -0.070086278 0.029581854 0.42426255 -0.70808637 -0.56445986 0.0001519342
-0.055613644 -0.066840872 0.029766845 -0.50518286 -0.41113898 -0.75878513 0.0062250034
-0.053516183 -0.067983784 0.029006192 -0.42612875 -0.39016634 -0.81620121 0.0066259592
-0.050562896 -0.068069607 0.027826937 -0.36749947 -0.3044157 -0.87879193 0.0015710212
-0.048389118 -0.068634495 0.027252132 -0.33322752 -0.29825556 -0.89442891 0.00067142589
-0.0014907296 -0.069075443 0.027442368 0.37120119 -0.71504676 -0.59238321 0.00042242708
0.00056747044 -0.068614148 0.028326897 0.41857046 -0.70428926 -0.57338935 0.00047244114
0.0029063206 -0.067633025 0.028870704 0.44478539 -0.70656317 -0.55039471 9.4033981e-05
0.0054272581 -0.066668257 0.029849457 0.49172267 -0.70209587 -0.51504391 8.6958709e-05
-0.056189202 -0.064736478 0.029441806 -0.4968774 -0.2452593 -0.83244264 0.0027571039
-0.053601291 -0.065069646 0.028311389 -0.39865062 -0.22093648 -0.89009249 0.00049714185
-0.051337633 -0.065430515 0.027413333 -0.40034911 -0.23696035 -0.88519502 0.0010326698
0.0042959265 -0.066089898 0.028006995 0.46103978 -0.70298433 -0.54153061 0.00034733163
0.0065901843 -0.064955235 0.028616896 0.51499385 -0.68193436 -0.51937163 0.00029875676
0.0085957954 -0.063959651 0.029264363 0.53305924 -0.67591417 -0.50890857 0.00023276568
-0.058218796 -0.061702099 0.029953456 -0.54328793 -0.17440946 -0.82123053 0.0022661402
-0.056436606 -0.06212189 0.028949996 -0.47808784 -0.16867258 -0.86196381 0.0016395329
-0.053835504 -0.062118068 0.027833505 -0.45657572 -0.20493376 -0.86576021 0.00265427
-0.051831558 -0.063550904 0.027289437 -0.45913348 -0.24846765 -0.85291278 0.0013024114
0.0070358077 -0.063544735 0.027244406 0.49145493 -0.67535007 -0.54988581 0.00033776523
0.009706106 -0.062305033 0.028389627 0.55065656 -0.68587077 -0.47577161 0.00053491862
0.011498163 -0.0614806 0.029320465 0.58978438 -0.66352874 -0.46030864 0.00095331733
-0.058300152 -0.059108444 0.029866835 -0.54435194 -0.11315607 -0.83118993 0.0018774838
-0.056467995 -0.059154477 0.028721875 -0.51926184 -0.1610166 -0.83930975 0.0021109125
-0.054428428 -0.059640065 0.027538022 -0.530469 -0.24068856 -0.81281716 0.0027467983
0.012782625 -0.059915293 0.028430974 0.55479008 -0.71670765 -0.42253754 0.00066967966
0.015214601 -0.058391489 0.028928248 0.58929527 -0.70982003 -0.38585833 0.00056718901
-0.058667984 -0.056066424 0.029493479 -0.61285537 -0.17211837 -0.77122205 0.0020380781
-0.056696158 -0.056193203 0.027989155 -0.59574652 -0.23198698 -0.76893955 0.0012197465
0.015993053 -0.056997754 0.027689101 0.57820261 -0.69391251 -0.42914718 0.00045765581
0.017868761 -0.055775691 0.028597126 0.6276772 -0.67730188 -0.38377532 0.00028052062
-0.059192795 -0.052983467 0.029202012 -0.66349453 -0.18205139 -0.7256943 0.00057109247
-0.057530582 -0.053289622 0.027765462 -0.65279824 -0.20669262 -0.7287885 0.00041811247
0.019577947 -0.054185662 0.028767442 0.6549387 -0.6616534 -0.3650617 0.0001869894
0.021235643 -0.052766785 0.02924264 0.67269009 -0.65394908 -0.34617749 0.00011720373
-0.059474595 -0.049977783 0.028758788 -0.69121414 -0.16865647 -0.7026934 8.2317347e-05
-0.057891566 -0.050629135 0.027354049 -0.67394221 -0.18001877 -0.71651602 0.00021599264
0.022225386 -0.051292099 0.028388323 0.69304597 -0.64118809 -0.32949224 0.00042747919
0.023758188 -0.049806494 0.028673043 0.7123667 -0.62366462 -0.32183248 0.00034825713
-0.061553001 -0.045661449 0.030054377 -0.74194235 -0.10955604 -0.66145223 0.00029568584
-0.059892002 -0.047172911 0.028561378 -0.71823144 -0.14408308 -0.68072295 0.0001736438
0.025263006 -0.047851916 0.028454455 0.73778892 -0.60664272 -0.2960611 0.0002244684
0.026713824 -0.046445429 0.029583903 0.75154722 -0.60820031 -0.25547841 0.00056192017
-0.061510585 -0.043971509 0.029736171 -0.75521696 -0.096884206 -0.64827532 0.0002746981
-0.060110673 -0.044103805 0.02818978 -0.73911762 -0.11709115 -0.66332108 0.00027883949
-0.061640806 -0.040950045 0.02952644 -0.77820152 -0.066605926 -0.62447262 0.00029894011
-0.060379401 -0.041156556 0.028012095 -0.76101154 -0.09149538 -0.64225388 0.00025334788
0.030735938 -0.041593358 0.027857708 0.74773908 -0.63119912 -0.2060919 0.00053970783
-0.0617432 -0.038136594 0.029405711 -0.79872286 -0.03531538 -0.60066181 0.00027559846
-0.060441639 -0.038127825 0.027724287 -0.78265584 -0.058328565 -0.61971575 0.00028593122
0.033338778 -0.038317926 0.028250324 0.76543939 -0.60917097 -0.20739616 0.00019286209
-0.061727244 -0.035087444 0.029286349 -0.81258047 -0.0006912853 -0.58284861 0.0002395349
-0.060712505 -0.034985248 0.027881706 -0.80255866 -0.025564644 -0.59602523 0.00029472128
-0.061742805 -0.032055534 0.029402463 -0.83175558 0.02722447 -0.55447417 0.00025597287
-0.060708992 -0.032228839 0.027855115 -0.82206941 0.0011422972 -0.56938612 0.00022382323
0.037952945 -0.03171955 0.028490143 0.81649876 -0.55307794 -0.16563408 0.00045019586
-0.061614864 -0.029248327 0.029331902 -0.84735465 0.053667832 -0.52830845 0.00030724169
-0.060722373 -0.029205102 0.027956476 -0.83578551 0.039140124 -0.5476591 0.00028566175
0.038449526 -0.030577779 0.027878867 0.80140305 -0.57611471 -0.16076398 0.0019446617
-0.061490983 -0.025984326 0.02958913 -0.85020739 0.09387473 -0.51801062 0.00029154593
-0.060510077 -0.025965732 0.027911289 -0.84170383 0.085043579 -0.53320003 0.00026861127
-0.061559238 -0.024073973 0.030101167 -0.86503285 0.14337942 -0.48079151 0.00019614375
-0.060288146 -0.023022762 0.028317092 -0.85573941 0.11065468 -0.505436 0.0010461636
-0.060082447 -0.020247592 0.028806591 -0.88588655 0.15552516 -0.43705478 0.00093244592
-0.059521727 -0.016828641 0.028611405 -0.90450084 0.14242215 -0.40198776 0.00060873124
-0.059083849 -0.014001167 0.028601741 -0.90875435 0.17130706 -0.38055146 0.00017227327
-0.058827732 -0.011557581 0.029146353 -0.90310854 0.21520104 -0.37159574 0.00027437613
-0.057943504 -0.010467302 0.027766624 -0.89679432 0.20964032 -0.3896293 9.7569879e-05
-0.058159348 -0.0085631358 0.029481189 -0.90009499 0.27204704 -0.34032252 0.0003023383
-0.057432674 -0.0079923272 0.028086917 -0.89927286 0.25719807 -0.35377607 0.00057092548
-0.056815978 -0.0051034209 0.028670637 -0.89954287 0.29075107 -0.32601622 0.00043375965
-0.055722699 -0.0021146166 0.028376011 -0.89030105 0.32600397 -0.31793937 0.00076547702
-0.055402931 -0.00027014338 0.029547678 -0.88077301 0.37223431 -0.29271206 0.00028876725
-0.054503877 0.00082876056 0.02848945 -0.90564662 0.34037146 -0.25288638 0.00079267676
-0.053446259 0.0039556869 0.028566675 -0.92053789 0.33337197 -0.20364931 0.00050479791
-0.052539028 0.0068999971 0.028674768 -0.92092097 0.33433634 -0.20030922 0.00041183349
-0.051824108 0.0079697073 0.027223097 -0.91291773 0.35109234 -0.20812331 0.00050438743
-0.052116647 0.0085840821 0.02982785 -0.9153527 0.35354075 -0.19271323 0.00043779513
-0.051184271 0.010217428 0.028899627 -0.91125321 0.36427984 -0.19214001 0.00023407121
-0.050216191 0.011832848 0.027613001 -0.90939957 0.36284202 -0.20331757 0.00016286441
-0.046964567 0.018463701 0.028124826 -0.90004849 0.41026387 -0.14695667 0.0010597254
0.054899886 0.056201123 0.027276007 0.26235142 0.60877728 -0.74870688 0.023320019
0.056857232 0.055958048 0.027286829 0.013518996 0.51959544 -0.85430545 0.011186159
0.060932592 0.055266753 0.027141409 -0.11207743 0.4388923 -0.89152241 0.0070270458
0.05168156 0.058410678 0.028297579 0.32668263 0.69183856 -0.64392388 0.016813241
0.054530017 0.058123134 0.028543303 -0.010418048 0.47474432 -0.88006216 0.0031683408
0.057152513 0.057869762 0.027840214 -0.056610506 0.45517585 -0.88860011 0.0044678375
0.059484471 0.057118155 0.027276402 -0.015936041 0.46707553 -0.88407373 0.0074177585
0.046249051 0.061905634 0.028685646 0.35491014 0.73727816 -0.57485628 0.014276032
0.048532479 0.06099131 0.029367914 0.3018837 0.60306042 -0.73836601 0.030528294
0.051758353 0.060499612 0.029866962 -0.0093098283 0.35374841 -0.93529421 0.019764047
0.054027233 0.060599905 0.0295073 0.013276125 0.34199539 -0.93960786 0.014137537
0.056555908 0.059985988 0.029431136 -0.092332117 0.39765185 -0.91287881 0.0045070658
0.040641837 0.065260455 0.027760135 0.46839947 0.69663608 -0.54341537 0.0064970045
0.042947169 0.064093187 0.028792122 0.43795997 0.62561524 -0.64559788 0.018940745
0.045025762 0.063226126 0.029660081 0.23761424 0.4401505 -0.86591399 0.017321691
0.052199472 0.063106962 0.029981242 -0.01989785 0.24328792 -0.96974999 0.014311798
0.053044401 0.062847637 0.030101167 -0.10435259 0.11529832 -0.98783445 0.0041551427
0.036562253 0.067830406 0.028343679 0.3776007 0.71401751 -0.58957332 0.010376545
0.038861491 0.06645754 0.028376339 0.38407931 0.69099194 -0.61238331 0.011834526
0.030582184 0.070792221 0.027908003 0.42249608 0.75198346 -0.50598216 0.0025168417
0.033543833 0.069518141 0.028544886 0.4401713 0.67135221 -0.59626806 0.0081315702
0.035515197 0.068765886 0.02902207 0.34261408 0.73411441 -0.58625215 0.0073309569
0.024939587 0.074044317 0.028802099 0.36008731 0.59937501 -0.7149033 0.052698698
0.02744139 0.072992466 0.028971901 0.38177061 0.57906407 -0.72037202 0.046301428
0.029849635 0.072025277 0.029357145 0.44009924 0.5644033 -0.69839931 0.033997711
0.018973604 0.076682337 0.027638534 0.4722006 0.14710067 -0.86913067 0.013357246
0.021533169 0.076031044 0.028454749 0.38401657 0.49250486 -0.78100592 0.038713101
0.024487026 0.075998805 0.029323032 0.27311152 0.1844368 -0.9441362 0.0048460187
0.026923776 0.076180443 0.029876055 0.29542443 0.15939528 -0.94197536 0.012551049
0.01898719 0.078703083 0.027722126 0.46831566 0.15584959 -0.86970758 0.01345622
0.021325871 0.078494631 0.028378693 0.38119072 0.07863152 -0.92114639 0.0083178096
0.024246363 0.078286484 0.029410737 0.29045403 0.10961536 -0.95058978 0.0018735891
0.026728362 0.07774467 0.029814737 0.29543319 0.15940578 -0.94197083 0.0125484
0.018585682 0.080575019 0.027188765 0.48844936 0.086232334 -0.86832094 0.011200563
-0.031451911 -0.081829228 0.031101929 -0.089834891 -0.68596005 -0.7220723 0.0034341118
-0.029409004 -0.082182266 0.031099817 0.0033879611 -0.63477474 -0.77268982 0.00092567957
-0.026424685 -0.082653761 0.031520136 0.085018508 -0.60596836 -0.79093254 0.002082387
-0.023583241 -0.082721211 0.031898633 0.15417041 -0.59076184 -0.79197967 0.0016382235
-0.020757573 -0.082542278 0.032213345 0.19536953 -0.58531809 -0.78691381 0.0018475136
-0.018253721 -0.082136244 0.032841563 0.28812835 -0.55632216 -0.77941495 0.0010954442
-0.038355779 -0.079404734 0.030714 -0.20553456 -0.61674333 -0.75985736 0.0050079701
-0.035611454 -0.080437325 0.031074824 -0.1682068 -0.66614336 -0.72660822 0.0037895544
-0.032237258 -0.081153437 0.030412043 -0.086196385 -0.57777786 -0.81162977 0.0069216196
-0.030289652 -0.081129462 0.030275153 -0.0069937771 -0.57239109 -0.81995094 0.0019248968
-0.026131563 -0.081116408 0.030200755 0.07853207 -0.54452789 -0.83505815 0.0021170271
-0.023411533 -0.080649182 0.030497806 0.15740666 -0.5292508 -0.83373654 0.00083763519
-0.020549253 -0.080289088 0.030943258 0.19966702 -0.5430361 -0.81562549 0.00094343349
-0.017681688 -0.08019869 0.03175392 0.27092493 -0.54802632 -0.79137021 0.0022113454
-0.014666319 -0.079327814 0.032405958 0.28861603 -0.62277079 -0.72722578 0.0027190493
-0.012347904 -0.078784436 0.032784387 0.29151642 -0.67813909 -0.67464477 0.00062807283
-0.044954747 -0.076124266 0.030150371 -0.269943 -0.48784366 -0.83014423 0.0014812216
-0.017279835 -0.078251906 0.030453658 0.21754922 -0.64493608 -0.73261845 0.0020321077
-0.014523876 -0.077864937 0.030953432 0.25549915 -0.66249949 -0.70414102 0.0011144771
-0.011381948 -0.07714127 0.031420097 0.27832696 -0.70014048 -0.65752369 0.00013145991
-0.0086111398 -0.07653144 0.031991318 0.33316755 -0.70372295 -0.62751365 0.00037734635
-0.0063602109 -0.076130874 0.032734573 0.37327793 -0.70541406 -0.60254014 0.00022110832
-0.0079735899 -0.0749809 0.030613193 0.31075501 -0.70643175 -0.63591307 0.00044895173
-0.0055409707 -0.07450828 0.031350039 0.34857303 -0.70668805 -0.61570191 0.00040108062
-0.0029514129 -0.073614709 0.032021113 0.39932299 -0.70358777 -0.58779711 7.9260913e-05
-0.00037387689 -0.072637945 0.032655612 0.45052052 -0.70560247 -0.54695195 0.00022349568
-0.053082965 -0.070442669 0.031023974 -0.48007578 -0.48410249 -0.73155445 0.0042996616
-0.051226042 -0.07175342 0.030531118 -0.45861423 -0.47232375 -0.7527172 0.0047241612
-0.0017658097 -0.072049156 0.030905521 0.4060632 -0.71113205 -0.57393712 0.00025404076
0.00053519895 -0.071149349 0.031497709 0.4540444 -0.70675951 -0.5425263 0.00024038197
0.0028430871 -0.070184335 0.032206066 0.48131761 -0.70293713 -0.52365327 0.0005176813
-0.056109391 -0.067708209 0.030817302 -0.50518286 -0.41113898 -0.75878513 0.0062250034
