# .PCD v0.7 - Point Cloud Data file format
VERSION 0.7
FIELDS x y z normal_x normal_y normal_z curvature
SIZE 4 4 4 4 4 4 4
TYPE F F F F F F F
COUNT 1 1 1 1 1 1 1
WIDTH 561
HEIGHT 1
VIEWPOINT 0 0 0 1 0 0 0
POINTS 561
DATA ascii
-0.058834009 0.016557194 0.012221575 -0.92636859 -0.026234536 -0.37570336 6.5777014e-05
0.08771269 0.017588507 0.01140148 0.2160069 0.33566937 -0.916879 0.0025109369
-0.058782555 0.019470578 0.011882612 -0.92885178 -0.01695664 -0.37006313 0.00013806731
0.082443938 0.020854218 0.011159938 0.27304116 0.42957261 -0.86076474 0.0016535532
0.084483065 0.020005032 0.011385893 0.21225503 0.38240018 -0.8992874 0.0025367874
0.08706817 0.019588973 0.011780608 0.20970926 0.37111858 -0.90459549 0.0033274831
-0.058746681 0.022384608 0.011646256 -0.9378767 -0.0063522691 -0.34691063 0.00016896805
0.079464316 0.023393501 0.01133891 0.32158881 0.4653714 -0.82462728 7.2828196e-05
0.081756257 0.022756949 0.011894122 0.29195109 0.44034019 -0.84903771 0.00074869971
0.084717572 0.022450641 0.012566233 0.19753301 0.43152007 -0.88021088 0.0028859256
0.086678877 0.022418464 0.01273375 0.15920712 0.45995876 -0.87355077 0.0041769175
-0.058765076 0.025582803 0.011767477 -0.9454025 0.0096380087 -0.32576251 0.00024204723
0.073586024 0.026695186 0.011128288 0.30124661 0.53516871 -0.78920519 0.00014368461
0.075910382 0.02617931 0.011674382 0.30039629 0.51560044 -0.80244523 0.00032839191
0.078662314 0.025619898 0.01236983 0.30877143 0.51773685 -0.79787761 0.00041637773
0.081525594 0.025218362 0.013234671 0.27367571 0.5203132 -0.80893499 0.0010791059
0.084687293 0.024634568 0.013783902 0.20410453 0.50903797 -0.83619481 0.0031589507
0.086246513 0.024353687 0.013544252 0.2040793 0.50904095 -0.83619916 0.0031626082
-0.058832586 0.028538119 0.012212142 -0.94697523 0.031433653 -0.31976536 7.780896e-05
0.070027836 0.029206924 0.011610497 0.28233346 0.57951188 -0.76449573 0.00031666952
0.072759107 0.028631276 0.012210026 0.29019183 0.56847578 -0.76982081 0.00034378713
0.075434364 0.028375089 0.013032636 0.29630759 0.57119143 -0.76546854 0.00015492602
0.078056939 0.027901154 0.013680218 0.30472896 0.56402093 -0.7674768 0.00017953847
-0.058925673 0.031511992 0.012825325 -0.94385821 0.042568654 -0.32759666 0.00020571948
0.061518326 0.032591451 0.011251574 0.27454716 0.66040623 -0.69891864 0.00062549859
0.063860595 0.032160193 0.011752812 0.26733342 0.65203983 -0.7094906 0.00057439908
0.06671188 0.031656154 0.012400599 0.27192038 0.63687897 -0.72141838 0.00038961778
0.069474421 0.031076632 0.012943208 0.27254388 0.62241894 -0.7336992 0.00028947546
0.072308198 0.030519087 0.013524476 0.27942893 0.6094715 -0.74193263 0.0001771416
-0.058629341 0.034766942 0.012428744 -0.93723857 0.064090237 -0.34274825 0.00013972294
0.052297637 0.035760585 0.011558374 0.25963679 0.74369675 -0.61603892 0.0013728242
0.054712258 0.035423089 0.011758648 0.19024508 0.73170984 -0.65452844 0.00023607265
0.057738669 0.034920096 0.012110725 0.22372121 0.72151405 -0.65526044 0.00038275865
0.060603432 0.034262892 0.012571791 0.26021078 0.68735594 -0.67810935 0.00023905969
0.063536741 0.033867862 0.013313673 0.2544404 0.69124335 -0.67634505 0.00029831778
0.065972589 0.033446554 0.013708871 0.25676763 0.67779237 -0.68896151 0.00031910895
-0.058442138 0.037354071 0.012563825 -0.93665278 0.033701893 -0.34863406 0.00059016322
0.043576837 0.038557559 0.01113086 0.22867216 0.76285923 -0.60477674 7.3823518e-05
0.045963675 0.03828783 0.011676461 0.23544721 0.75973362 -0.60611016 0.00012039842
0.048647314 0.037915979 0.012347396 0.27413353 0.76401323 -0.58406723 0.00024025931
0.051515952 0.037110128 0.012813022 0.23405856 0.74883354 -0.62005246 0.0016414712
0.054595575 0.036861263 0.013371356 0.178396 0.75381738 -0.63240343 0.00025105482
0.057328172 0.036333684 0.013547832 0.22610354 0.73516577 -0.63906848 0.00026089736
-0.058459125 0.040760852 0.012761759 -0.91061145 -0.1853141 -0.3693853 0.0058753681
0.031254008 0.041656453 0.011590248 0.2492016 0.84946215 -0.46509418 0.00050142093
0.033705335 0.041471124 0.01222338 0.17883104 0.83383662 -0.52224112 0.001578237
0.03668797 0.041250724 0.012486791 0.13272291 0.83748513 -0.53009742 0.00014353752
0.039597705 0.04064649 0.012498448 0.19389796 0.81347185 -0.54833114 0.00044076049
0.042591989 0.039893556 0.012563279 0.21797656 0.79388976 -0.56764889 0.00029842203
0.045495555 0.039506476 0.013106091 0.23010287 0.78928906 -0.56927633 0.00033488584
0.047537439 0.03932333 0.013700074 0.26299408 0.78898853 -0.55527574 0.00047161311
-0.059437916 0.043352764 0.012336055 -0.89265233 -0.25274587 -0.37321746 0.0025630991
0.01384073 0.044980966 0.011604493 0.17213662 0.91046011 -0.37607357 0.0018775016
0.015710181 0.045022897 0.012004295 0.10235843 0.90269649 -0.41792554 0.00097512023
0.01863119 0.044737685 0.011818705 0.11444056 0.89061326 -0.44012657 0.00061167171
0.021768194 0.044302758 0.012114322 0.17599103 0.88250858 -0.43612576 0.00014819867
0.024448883 0.043882109 0.012452917 0.18025856 0.88311535 -0.43314451 0.00011095589
0.027707161 0.043205965 0.012452604 0.22205871 0.86823505 -0.44368669 0.00025628123
0.030463047 0.042651229 0.01290766 0.21945642 0.85677874 -0.46665737 0.00075293571
0.032851927 0.042542558 0.013835102 0.13234688 0.87069213 -0.4736872 0.00071171101
-0.060073689 0.046445858 0.012583541 -0.90252823 -0.22956154 -0.36434105 0.0016644179
-0.0047878651 0.047718346 0.012313416 0.094064951 0.96262813 -0.25396645 0.0012367504
-0.0024006553 0.047763132 0.012716653 0.04799277 0.95960701 -0.27722016 0.00037344469
0.00053273188 0.047566071 0.012536537 0.080681115 0.95196009 -0.29540241 0.00032225033
0.0039234376 0.047112167 0.012334155 0.11971172 0.94458926 -0.30564737 0.0003476133
0.006433771 0.046820514 0.012448404 0.12612143 0.94278949 -0.3086119 0.0003438711
0.0095930863 0.046416219 0.012581149 0.18320002 0.92600363 -0.33008307 0.00032562544
0.01229682 0.045770638 0.01259725 0.1537475 0.92227566 -0.35463965 0.0016858705
0.015470477 0.045692012 0.013294017 0.076826215 0.90767628 -0.41257909 0.00086409255
0.018631352 0.045375638 0.013183337 0.11613549 0.90612775 -0.40674964 0.00041490651
0.020819496 0.045193709 0.013632556 0.16872776 0.89174289 -0.41991153 0.00024174208
-0.061060242 0.048575994 0.012835791 -0.89439827 -0.23538053 -0.38032579 0.0015263021
-0.060318224 0.048158843 0.011493256 -0.89304286 -0.24827468 -0.37527871 0.0013457414
-0.023265624 0.04948635 0.013796201 0.054148179 0.98345119 -0.17289224 0.00061657728
-0.020560648 0.049426712 0.013276633 0.042726282 0.98370409 -0.17464449 0.00035860707
-0.013278561 0.048705887 0.011629393 0.11422034 0.9644658 -0.23824245 0.00017156068
-0.012013702 0.048876435 0.013131421 0.088461764 0.97425967 -0.20734684 0.00039989012
-0.0079870336 0.048264667 0.012435509 0.12063139 0.96702039 -0.22432022 0.00037454517
-0.062011726 -0.04850192 0.015483251 -0.91122037 0.13855281 -0.38791829 0.0015869301
-0.022221552 -0.049425412 0.014162501 0.048862576 -0.9830755 -0.17656443 0.00027038646
-0.010224981 -0.049002115 0.015156036 0.10192369 -0.97369742 -0.20377657 0.00014410209
-0.0094700642 -0.049150694 0.016478857 0.0873354 -0.97439826 -0.20717295 0.00032176095
-0.0051359758 -0.048483498 0.015313478 0.071004301 -0.96802467 -0.24059655 0.00036457941
-0.0024580583 -0.048500128 0.015463289 0.066461243 -0.96725947 -0.24493289 0.00037538292
-0.00059562922 -0.048603225 0.016391402 0.066305667 -0.97848803 -0.19535796 0.00041254296
0.0045152297 -0.047993232 0.015732717 0.094933979 -0.96425939 -0.24736886 0.00042500047
0.0058555733 -0.048087526 0.016591018 0.12345333 -0.95997286 -0.25141856 0.00038192092
-0.061751775 -0.046523575 0.015688114 -0.90542728 0.14021288 -0.40067661 0.001256937
0.002913862 -0.047878504 0.014688086 0.092274249 -0.96436244 -0.24797274 0.00041929574
0.007464957 -0.047301512 0.014306461 0.12919289 -0.95463681 -0.26828656 0.00033310399
0.0093428306 -0.047263328 0.015187575 0.15780811 -0.95248592 -0.2605134 0.00049959647
0.012796719 -0.046763562 0.015703728 0.12922323 -0.93852532 -0.32011181 0.001481726
0.015246001 -0.046535581 0.015482519 0.083741963 -0.93813187 -0.33599964 0.00029739985
0.01900352 -0.046182524 0.015527256 0.11212242 -0.93050897 -0.34868562 0.00022541574
0.021907564 -0.045645677 0.015281165 0.15227532 -0.91449583 -0.37484601 0.00021880653
0.024378039 -0.045444623 0.01574255 0.1518179 -0.91605794 -0.37119958 0.00030356421
0.026834004 -0.045400333 0.01661252 0.18998565 -0.91377681 -0.35905063 0.00051757309
-0.061388783 -0.043463763 0.016074166 -0.90876442 0.21240173 -0.35921124 0.0040309997
-0.060546815 -0.042523023 0.01468437 -0.88531762 0.26120993 -0.38468441 0.002819642
0.025659703 -0.044632334 0.014366379 0.17531896 -0.90268594 -0.39296493 0.00039172149
0.027802194 -0.044563364 0.015185721 0.20752665 -0.89116263 -0.40343747 0.00040731754
0.030858232 -0.043925058 0.015552118 0.18304938 -0.88635081 -0.42529416 0.00089997443
0.033528134 -0.043443594 0.015411584 0.12543477 -0.87762898 -0.46263757 0.00074195856
0.036473729 -0.043094724 0.015433168 0.14697123 -0.86664283 -0.47679102 0.00021484387
0.03958945 -0.042535044 0.015589852 0.1720397 -0.85514635 -0.48900616 0.00010227423
0.042434037 -0.04228238 0.016153062 0.17299549 -0.85018986 -0.49724218 0.00031375702
0.044590101 -0.042178597 0.016671902 0.21874191 -0.83982384 -0.49683776 0.00045406708
-0.061153926 -0.04165918 0.01686733 -0.86235869 0.31805927 -0.39392367 0.00091535674
-0.060169995 -0.040475693 0.015717255 -0.87872863 0.27298179 -0.3915571 0.0017347666
0.039552227 -0.041662429 0.014088085 0.1868325 -0.83148682 -0.52318573 0.00016022527
0.042770691 -0.041296907 0.014663309 0.18275802 -0.83903682 -0.51246148 0.00023896048
0.045700468 -0.041077603 0.01525523 0.22221999 -0.82663453 -0.51700449 0.00039786648
0.048602514 -0.040118899 0.015324585 0.2344449 -0.81508452 -0.52978575 0.00082938094
0.051454477 -0.039843328 0.016017474 0.19256511 -0.79716355 -0.57223153 0.001103499
0.054285601 -0.0396205 0.016428227 0.18979624 -0.78960627 -0.58352321 0.00036258338
0.057068869 -0.039142165 0.016807299 0.2294492 -0.77548146 -0.588202 0.00027729408
-0.060016572 -0.038663704 0.01646932 -0.90647846 0.16408803 -0.38906544 0.0079777827
0.051853843 -0.038601905 0.014466668 0.21663749 -0.75815737 -0.61503303 0.0012397463
0.05478365 -0.03837036 0.014960123 0.19410864 -0.77263421 -0.60444868 0.00039394051
0.057765059 -0.037723888 0.015280329 0.2359975 -0.7491352 -0.61895216 0.00046725268
0.060551465 -0.037011843 0.015545037 0.25329545 -0.73370624 -0.63048917 0.00063881942
0.063497797 -0.036628474 0.01623936 0.25052664 -0.71781856 -0.64959443 0.00034886555
0.06584838 -0.036265548 0.016729554 0.24508137 -0.71402526 -0.6558224 0.00026399147
0.061509289 -0.035532046 0.014329961 0.26014116 -0.70309591 -0.66180265 0.00038959287
0.063784122 -0.03510892 0.01476853 0.25603819 -0.68533051 -0.68173784 0.00011943529
0.066693872 -0.0346408 0.015399372 0.25853664 -0.68483448 -0.68129319 1.6358774e-05
0.069504417 -0.034144033 0.01596467 0.26378012 -0.68440425 -0.67971373 0.00021561584
0.072440997 -0.033398703 0.016334621 0.2654773 -0.66127443 -0.70159662 0.00017470616
0.074746847 -0.033047225 0.016862249 0.2738781 -0.66563088 -0.69420916 0.00027761635
-0.060453571 -0.030820748 0.015816391 -0.94154716 -0.033494752 -0.33521175 0.00080100883
0.069924638 -0.032516401 0.014549261 0.26832664 -0.65969187 -0.70200241 9.5239389e-05
0.072884187 -0.031586464 0.014844982 0.27327612 -0.63201052 -0.72517782 0.00018314223
0.075599454 -0.031304039 0.015652888 0.27864304 -0.62947631 -0.72533971 0.00031144041
0.0783379 -0.030812798 0.01633475 0.30003858 -0.6161803 -0.72821617 0.00035595358
0.080388568 -0.030352253 0.016806116 0.23147953 -0.6154846 -0.75338966 0.002518839
-0.060452037 -0.028403983 0.015806427 -0.93235701 -0.021414831 -0.36090428 0.00057253474
0.076129414 -0.029465266 0.014293488 0.29063916 -0.6047163 -0.74151677 5.2607476e-05
0.078784183 -0.028777964 0.014804346 0.31239584 -0.578242 -0.7536875 0.00029460606
0.081656769 -0.028337659 0.015763722 0.25390136 -0.59087718 -0.76576644 0.0024222457
0.084391423 -0.028028455 0.016119454 0.153008 -0.57804221 -0.8015334 0.00080992695
-0.060457319 -0.025452847 0.015840694 -0.92568904 0.0022930477 -0.37827834 1.4943508e-05
0.082029633 -0.026260016 0.014377575 0.26142639 -0.53105152 -0.80600286 0.0021491847
0.08445707 -0.025860453 0.014653031 0.16039784 -0.54158896 -0.82519931 0.0022736539
-0.060482822 -0.022508124 0.016006013 -0.92860204 -0.0029247075 -0.37106565 5.8365353e-05
-0.060464494 -0.019548515 0.01588718 -0.93330514 -0.010437029 -0.35893261 4.0094226e-05
-0.060446955 -0.016590685 0.015773531 -0.93623793 -0.013350119 -0.35111284 4.7314847e-05
-0.060405962 -0.013361675 0.015507758 -0.93608898 -0.0080573186 -0.35167113 0.00010958556
-0.060367674 -0.010404246 0.015259603 -0.93354428 0.011444183 -0.35827947 0.00031229891
-0.060225628 -0.007369665 0.015494937 -0.93704277 0.0049187695 -0.34918007 0.00059546059
-0.060493551 -0.0045139324 0.016075542 -0.94200492 0.0062314859 -0.33554119 0.00069625489
-0.060505144 -0.001560193 0.016150644 -0.94300586 0.015832158 -0.33239937 0.00054741022
-0.060480312 0.0016648329 0.01598978 -0.94974607 0.035582349 -0.31099236 9.0851921e-05
-0.059908815 0.0047383378 0.014886139 -0.94692785 0.046497464 -0.31806549 0.00014624227
-0.059788615 0.0075550186 0.014979776 -0.94575018 0.033442434 -0.32316899 0.00035468006
-0.059823647 0.01050749 0.015208663 -0.9369911 0.0029233566 -0.34934106 0.00023671522
-0.060053349 0.013735812 0.0155372 -0.93337727 -0.022718355 -0.35817695 8.465087e-05
-0.060103163 0.016559996 0.015436975 -0.93431652 -0.021361528 -0.35580376 4.0518065e-05
-0.060150869 0.019485962 0.015429918 -0.93720889 -0.0025981357 -0.34875876 9.6640673e-05
-0.060046583 0.02235909 0.015258968 -0.93958408 0.019604219 -0.3417564 0.00012312295
-0.059755646 0.025494531 0.014764395 -0.94336647 0.032657944 -0.33014119 0.00013923562
0.081876747 0.026531642 0.014216552 0.24962831 0.51394987 -0.82069564 0.0018631095
0.084647596 0.026052209 0.014609523 0.19777301 0.5241999 -0.82831174 0.0033840514
0.086529866 0.025513714 0.015085092 0.1979485 0.52426279 -0.82823002 0.0033676787
-0.059854388 0.028483078 0.01540958 -0.94926035 0.03468775 -0.3125726 3.6465302e-05
0.076359645 0.029616144 0.014339542 0.2892262 0.58573043 -0.75714469 0.00016650009
0.078848451 0.028997311 0.014867179 0.30394068 0.57976925 -0.75596797 0.00024090131
0.081746764 0.028617419 0.015723141 0.18281168 0.55273283 -0.81305993 0.0035068428
0.084426962 0.028318008 0.015760755 0.16797055 0.53134751 -0.83033466 0.0036357332
-0.059918709 0.031463888 0.015829882 -0.95021033 0.037833013 -0.30930412 0
0.069937639 0.032706439 0.014515722 0.26461264 0.6612798 -0.7019183 0.00025279299
0.07271298 0.031896025 0.014835542 0.26764825 0.62639672 -0.73211449 0.00025608699
0.075612277 0.031442899 0.01553013 0.28238365 0.61276245 -0.73809326 0.00012763278
0.078404106 0.031032506 0.016300635 0.28898031 0.60861415 -0.73897177 0.00050032133
0.080376305 0.030453388 0.016733607 0.16723672 0.62169838 -0.76519483 0.0037917385
0.084180586 0.030468378 0.016946664 0.099416062 0.57946062 -0.80891401 0.0023325861
-0.060017012 0.034199569 0.016472192 -0.94737774 0.037062883 -0.31796518 0.00025020787
0.061240308 0.03563419 0.014317513 0.24806087 0.7319504 -0.63459796 0.00023943445
0.063787572 0.035214871 0.014795488 0.23921955 0.70458961 -0.66807741 0.00021708228
0.066747986 0.034842916 0.015452486 0.24408139 0.71086395 -0.65961862 0.00022180236
0.069489628 0.034241144 0.015862217 0.25728443 0.68326777 -0.68333733 0.00048366142
0.07260628 0.033607423 0.016350701 0.25576061 0.66296685 -0.70360607 0.00027868673
0.074713506 0.03313718 0.016648686 0.26890469 0.66692924 -0.69490701 0.00030001943
-0.059206426 0.037806086 0.014674844 -0.93774039 -0.040199105 -0.3450028 0.0044332971
0.049734056 0.038842797 0.014296999 0.27425039 0.76417935 -0.58379495 0.00030217366
0.051881038 0.038573917 0.014876941 0.21406169 0.75715488 -0.61716616 0.0013390027
0.054638185 0.038290456 0.015100237 0.17771277 0.77243423 -0.60972416 0.00025615448
0.057710521 0.037732754 0.01543851 0.22331586 0.7601999 -0.61010325 0.00020858935
0.060546815 0.03700472 0.015629321 0.23614433 0.74040973 -0.62930864 0.00016189725
0.063418619 0.036654383 0.016251618 0.23025568 0.73192388 -0.64130324 0.00022670427
0.065572649 0.03636761 0.016680961 0.23380694 0.72551405 -0.64727408 0.00014457031
-0.059641376 0.040767465 0.01541567 -0.91424507 -0.18924212 -0.35825041 0.0049974876
0.039827846 0.041686598 0.01419574 0.19039202 0.82885271 -0.52607417 0.00024300716
0.042755544 0.041368224 0.014825134 0.21084791 0.82711428 -0.52098471 0.00053286715
0.045584351 0.040986586 0.015384808 0.22580893 0.82841039 -0.51258808 0.00019513373
0.048578613 0.040091984 0.01539604 0.25426143 0.80574363 -0.53490973 0.00061922777
0.05153352 0.039818626 0.016179686 0.17841628 0.79117918 -0.58498132 0.0011520057
0.054266766 0.039588723 0.016605971 0.17445403 0.78530991 -0.59401524 0.00042987542
0.056982674 0.039071571 0.016836172 0.20791282 0.78549302 -0.58290046 0.00025556114
-0.060979195 0.043535959 0.015743669 -0.8909449 -0.25214964 -0.37767401 0.0018012447
-0.060110912 0.04227585 0.014751535 -0.89507329 -0.22373371 -0.38572922 0.0037607974
0.025129324 0.04474641 0.014471045 0.17626831 0.89847839 -0.40207714 0.00032343925
0.027694141 0.044587687 0.015235094 0.2118243 0.88499033 -0.41463554 0.00028580337
0.030661022 0.043879926 0.015517754 0.19324833 0.87780887 -0.43829983 0.0016347724
0.033820394 0.043300033 0.015291836 0.12514149 0.87413484 -0.4692845 0.00069512246
0.036466811 0.043170825 0.015591644 0.13635775 0.87010926 -0.47362059 0.00027696634
0.039617278 0.042609431 0.015761347 0.17327167 0.85823858 -0.48311841 0.00017352239
0.042677641 0.042249154 0.016307713 0.19346599 0.8484965 -0.49256927 0.00028653283
-0.061647326 0.046950463 0.015552834 -0.89707291 -0.22740492 -0.37887624 0.0012792931
-0.06083253 0.046119612 0.014800584 -0.89707792 -0.22740111 -0.37886664 0.0012843586
0.0015793382 0.047939546 0.014304882 0.085358478 0.96289426 -0.25602475 0.00020758728
0.0026412783 0.048037045 0.01518262 0.095765583 0.9666568 -0.23749438 0.00031134769
0.0071980054 0.047441188 0.01463899 0.12559396 0.95487607 -0.26914263 0.00015291615
0.0095595224 0.047334947 0.015622756 0.15776895 0.94648731 -0.28155074 0.00032834004
0.012561715 0.046664331 0.015375854 0.12559645 0.93804568 -0.32294863 0.0020031263
0.015504543 0.046407521 0.014986193 0.073142417 0.92952234 -0.36143941 0.00055775739
0.019003047 0.046285141 0.015508344 0.10684397 0.92986649 -0.35204068 0.00032539069
0.021880204 0.045705754 0.015314428 0.168394 0.90920281 -0.38078046 0.00028679147
0.024460632 0.045506638 0.015882522 0.16121672 0.91114038 -0.37925243 0.00037550501
0.026571315 0.045521047 0.01675286 0.20072198 0.91169697 -0.35849595 0.00044884719
-0.022788391 0.049582426 0.014633229 0.036089443 0.98308301 -0.17956984 0.00038247142
-0.019018343 0.049540218 0.014265528 0.043759286 0.98397619 -0.17284662 0.00021845034
-0.01850635 0.049585771 0.014662405 0.043764517 0.98397756 -0.17283759 0.00021907485
-0.010991009 0.048999231 0.014212867 0.10186729 0.97597408 -0.19260763 0.00039912018
-0.0054207314 0.048654128 0.015903255 0.081258759 0.96172023 -0.26170811 0.00061318197
-0.0024649017 0.048640583 0.015782705 0.054633468 0.97099018 -0.23279423 0.00052173599
-0.00032703485 0.04871222 0.016420465 0.06303975 0.97149777 -0.22851266 0.00042970886
0.0042452468 0.048134189 0.016057184 0.091227315 0.96475893 -0.24681537 0.00037912818
0.005585812 0.048224431 0.016869565 0.1007234 0.96506923 -0.24185976 0.00039485825
-0.0628452 -0.048170719 0.017348459 -0.91862863 0.13061737 -0.37290832 0.0018023503
0.00072388677 -0.048809662 0.01824994 0.080041379 -0.98122346 -0.17548117 0.00036642485
0.0072023687 -0.04823133 0.017900258 0.11072326 -0.97140932 -0.21001019 0.00034452273
0.0082876086 -0.04843447 0.019749632 0.10999246 -0.97411096 -0.19750805 0.00042719927
-0.063040346 -0.046369601 0.01942165 -0.91897798 0.13319811 -0.37113038 0.0018294838
0.010439259 -0.047691118 0.017893713 0.10894994 -0.96880472 -0.22259226 0.0011069876
0.012608919 -0.04778704 0.018776914 0.065045036 -0.96219045 -0.26449716 0.00075151236
0.015613176 -0.04752503 0.018490249 0.067412533 -0.95552242 -0.28711054 0.00047250304
0.018541416 -0.047189478 0.018246248 0.10976467 -0.94429582 -0.31025326 0.00018049761
0.021380497 -0.046870787 0.01841701 0.12190699 -0.94383359 -0.30711061 0.00033974758
0.024851995 -0.046441384 0.018542426 0.14684181 -0.93203926 -0.33127078 0.0001856294
0.027730132 -0.045864131 0.018477187 0.18832539 -0.9130199 -0.36183995 0.00049840991
0.030830633 -0.045359295 0.018581687 0.13514303 -0.91460276 -0.38110122 0.001287245
0.033468083 -0.045253754 0.018921178 0.096920319 -0.90852129 -0.40644252 0.00044935939
0.036169752 -0.045153264 0.01945175 0.1364481 -0.90167934 -0.41031241 0.00026542571
-0.062434144 -0.043040615 0.018152777 -0.90652984 0.19415697 -0.37484202 0.0043616639
0.029279418 -0.044911761 0.017094126 0.15167804 -0.91855621 -0.36503187 0.0011030376
0.033865005 -0.044386499 0.017225003 0.11639772 -0.88261271 -0.45546269 0.0001688357
0.036875311 -0.044321377 0.017912159 0.14334233 -0.88680708 -0.43934739 0.00032604716
0.039663322 -0.04407103 0.018467758 0.15681747 -0.8861261 -0.43610632 0.00040039231
0.042662635 -0.043509811 0.018467966 0.17236435 -0.8691445 -0.46354967 0.0001853326
0.045555815 -0.042891588 0.01846033 0.2040962 -0.8639074 -0.46044406 0.00023207693
0.048328549 -0.042558465 0.019210985 0.19038163 -0.86407042 -0.46597984 0.00060570199
0.050819322 -0.042476643 0.019768035 0.15411566 -0.86274087 -0.48158747 0.00028667835
-0.062038079 -0.041231453 0.018687593 -0.87060922 0.27635244 -0.40702438 0.0022987444
-0.060724631 -0.03930008 0.017573422 -0.85973287 0.29014814 -0.42032534 0.0019230434
0.048930638 -0.041540463 0.017744014 0.21771742 -0.84101164 -0.49527621 0.00087207311
0.051792473 -0.041280039 0.018172912 0.16809778 -0.83536893 -0.52335644 0.00015702489
0.054677784 -0.040956452 0.018559773 0.18691924 -0.82193214 -0.53804153 0.00022478783
0.057696655 -0.040011685 0.018346237 0.22315526 -0.80987012 -0.54250526 0.00036133997
0.060486324 -0.039606951 0.018902006 0.22639394 -0.79411328 -0.56402999 0.0003541389
0.063083529 -0.039310157 0.019497141 0.22319983 -0.78594911 -0.57659853 0.00022670378
-0.061017975 -0.037845653 0.019474914 -0.91224939 0.15543397 -0.37900048 0.01031041
-0.060293585 -0.037128627 0.017397745 -0.95084268 0.067953043 -0.30212674 0.011175531
0.060980737 -0.03836818 0.017392572 0.24043991 -0.75805569 -0.60625094 0.00035999229
0.063680805 -0.038074303 0.018084783 0.24104176 -0.76278067 -0.60005373 0.00065508712
0.066559367 -0.037554961 0.01858593 0.24315771 -0.76122993 -0.60116827 0.00011236535
0.069424808 -0.036914825 0.018907841 0.24130295 -0.73385125 -0.63500798 0.00026468738
0.072357915 -0.036584668 0.019651698 0.24945655 -0.73812282 -0.62685418 0.00022246326
0.074670896 -0.035981406 0.019846758 0.25746363 -0.71279633 -0.65240633 0.00020105377
-0.060779281 -0.03447701 0.017927712 -0.9527694 -0.062326528 -0.29723045 0.0012472324
0.068042107 -0.035751659 0.017026057 0.26489484 -0.71532559 -0.64663744 0.00069827389
0.069941588 -0.035595704 0.017592033 0.2540234 -0.70904547 -0.65781951 0.00019398922
0.072692856 -0.034950305 0.017986676 0.255555 -0.70919245 -0.65706754 0.00023104527
0.075672299 -0.034322698 0.018502215 0.27381307 -0.68469858 -0.67543632 8.6126187e-05
0.078405328 -0.033750579 0.019013347 0.25098029 -0.66316903 -0.70513529 0.00083432841
0.081484146 -0.033332508 0.019623449 0.1606396 -0.65872371 -0.73503608 0.0024692141
0.083850414 -0.03325789 0.019660657 0.070467778 -0.63025761 -0.7731815 0.0010080666
-0.061488993 -0.031046748 0.019021988 -0.94409209 -0.085654207 -0.31836063 0.00026308847
-0.060654372 -0.032258701 0.017117998 -0.94321054 -0.086779341 -0.32066065 0.00025984639
0.076669201 -0.03252684 0.017103216 0.28768843 -0.64927453 -0.70404404 0.0004058003
0.078904383 -0.032024238 0.017592514 0.27923474 -0.6297372 -0.72488546 0.00043516941
0.081698634 -0.031622484 0.018293466 0.19902071 -0.60962951 -0.76729566 0.0027240668
0.083935514 -0.031311531 0.01839095 0.14613891 -0.59653902 -0.78916711 0.0012235577
-0.061335154 -0.028548485 0.01803275 -0.94100225 -0.048656639 -0.33488399 0.00070516852
0.082332551 -0.029837783 0.017154848 0.22249004 -0.60476208 -0.7646966 0.0022151112
0.084213495 -0.029728511 0.017131837 0.16269088 -0.57076269 -0.80483639 0.0007786171
-0.061327644 -0.025307434 0.017984476 -0.9276911 0.0012350265 -0.37334654 8.2806459e-05
-0.06135048 -0.022346964 0.018131295 -0.92824924 0.0073202066 -0.37188679 4.6831959e-05
-0.061356805 -0.019380135 0.018171996 -0.93569154 -0.0028033017 -0.35280806 0.00021755778
-0.061343811 -0.016407881 0.018088415 -0.93434894 -0.0048985477 -0.35632575 9.8326691e-06
-0.061347201 -0.013440003 0.018110227 -0.93745744 -0.0076831686 -0.34801507 4.3924007e-05
-0.061311252 -0.010466265 0.017879078 -0.93418354 0.0044286004 -0.35676527 0.00025010528
-0.061253905 -0.0074924696 0.017510276 -0.93254888 0.011396836 -0.36086389 0.0002945294
-0.061337322 -0.0045332322 0.018046722 -0.93397683 0.013360972 -0.35708365 0.00045720386
-0.06145253 -0.0015667521 0.018787554 -0.93057263 0.019402338 -0.36559278 0.00045163091
-0.06156487 0.0014086503 0.019509956 -0.92724025 0.036113035 -0.37272161 0.00079847511
-0.060692348 0.004903126 0.017364142 -0.94627881 0.039561789 -0.32092249 0.00016135228
-0.060701407 0.0075981747 0.017422905 -0.94163615 0.0094534177 -0.33649957 0.00015286369
-0.061613038 0.011705141 0.019819727 -0.94201005 -0.015442064 -0.33522904 0.0001525823
-0.060684249 0.010559412 0.017311683 -0.93774503 -0.013328281 -0.34706882 0.00019545942
-0.061585449 0.013595912 0.019642299 -0.94344372 -0.015519734 -0.33116916 4.3050273e-05
-0.060650051 0.012707949 0.017090004 -0.93405014 -0.020617222 -0.35654634 6.8064146e-05
-0.061543889 0.016564786 0.019375077 -0.94269919 -0.020460587 -0.33301586 0.00011116868
-0.06149105 0.019526726 0.019035235 -0.93984282 -0.0039715916 -0.34158397 0.00012750883
-0.061520979 0.022511968 0.019227674 -0.93655258 0.022912551 -0.34977752 0.00010880161
-0.06065201 0.023747973 0.017102679 -0.9356488 0.036325186 -0.35105801 0.0001273454
-0.061584048 0.025241267 0.01963326 -0.92979503 0.048332032 -0.36489081 9.8880701e-05
-0.060728841 0.025662547 0.017600687 -0.93514919 0.049363025 -0.35079807 0.00013028056
-0.060900554 0.030052189 0.018713763 -0.94101804 0.044594396 -0.33540469 0.00035715874
-0.060829386 0.028400835 0.018252471 -0.93680292 0.053651288 -0.34571925 0.00019714939
-0.060972311 0.031707905 0.019178918 -0.94281 0.049465016 -0.32964012 0.00033764602
0.078996889 0.032312136 0.017607111 0.26169282 0.64202231 -0.72064149 0.0015737738
0.081771553 0.031620283 0.017965712 0.15428968 0.60819179 -0.778651 0.0037980317
0.08393348 0.031711433 0.018158909 0.062701501 0.62759256 -0.77601296 0.0015736162
-0.061055459 0.033913881 0.019717883 -0.94314241 0.030608827 -0.33097655 0.00018962972
-0.060100384 0.035857398 0.017016998 -0.94546378 0.012854235 -0.32547349 0.0007567234
0.069931187 0.035697024 0.017520389 0.23547924 0.72148341 -0.65116131 0.00044557211
0.072680973 0.035222538 0.018031737 0.24340752 0.71760648 -0.65252882 0.00020087295
0.075676881 0.034461208 0.01835086 0.26540327 0.68821818 -0.6752162 0.0003438374
0.078357644 0.033920106 0.01886381 0.24901988 0.67224109 -0.69719511 0.0012157814
0.081743442 0.033607583 0.019576976 0.14071462 0.67745793 -0.72197658 0.0021071739
0.083741896 0.033540413 0.019557297 0.11694749 0.69168735 -0.71266538 0.0021426724
-0.061029233 0.037691008 0.019547882 -0.9321937 -0.085254274 -0.35177651 0.0043684756
-0.060178228 0.037516903 0.017525658 -0.93804872 -0.044262785 -0.34366456 0.0024125054
0.060794525 0.03843886 0.017504295 0.22510864 0.76031643 -0.60929883 0.00016908985
0.063741796 0.038073745 0.018110808 0.22361587 0.76430094 -0.60484719 0.00035868169
0.06656 0.037607528 0.018562764 0.22478183 0.76387894 -0.60494798 6.576952e-05
0.069527507 0.037030213 0.018932015 0.22316925 0.74736589 -0.62581122 0.00035524255
0.072298422 0.036717914 0.019563373 0.23693942 0.74552846 -0.62293422 0.00020958974
0.074647672 0.036078993 0.019696837 0.24695632 0.71544206 -0.65357119 0.0003786743
-0.0613828 0.040795561 0.018835645 -0.88807338 -0.23303017 -0.39626077 0.0016928477
-0.060520299 0.04022298 0.017645786 -0.91016591 -0.18358091 -0.37134358 0.0044974936
0.046794839 0.041801926 0.017245775 0.23493302 0.83750457 -0.49334836 0.00018280312
0.048974358 0.041556589 0.01805691 0.20946532 0.83946395 -0.50142252 0.00073235156
0.05168549 0.041281443 0.018430617 0.16963708 0.82039583 -0.54605305 0.00083657523
0.054557934 0.040847868 0.01854969 0.17979877 0.81281132 -0.55408508 0.00021986189
0.057626486 0.040009934 0.018425291 0.21172465 0.79863584 -0.56334132 0.00016046329
0.06052658 0.039675526 0.019032059 0.21385978 0.78998351 -0.57462156 0.00032074278
0.063249536 0.039313644 0.019523082 0.21136317 0.78285664 -0.58520174 0.00020270089
-0.06204541 0.043924 0.018256566 -0.88128674 -0.25082469 -0.40052563 0.00099322584
0.030906864 0.044681776 0.017311782 0.17177387 0.90663779 -0.38535932 0.0016327116
0.033617973 0.044530332 0.017586967 0.10283464 0.89873356 -0.42626649 0.00026952973
0.03689602 0.04441474 0.018212495 0.13983172 0.88894302 -0.43615064 0.00032835611
0.039622314 0.044092242 0.018577728 0.15296581 0.88406569 -0.44162115 0.00044492327
0.042505868 0.043460619 0.018437186 0.18351558 0.86923802 -0.45907238 0.00014916666
0.045433618 0.042878706 0.018600956 0.21679407 0.85608274 -0.46917227 8.1346414e-05
0.048063703 0.042537883 0.01926901 0.19167681 0.85227281 -0.48671457 0.00081685313
-0.062723346 0.046300083 0.018466396 -0.88317555 -0.22463246 -0.41175389 0.0011356093
0.010440663 0.04781859 0.01807484 0.1183506 0.96131575 -0.24872695 0.0012227495
0.012810437 0.047689166 0.018735817 0.060774501 0.96384543 -0.25943884 0.000984638
0.01545203 0.047565624 0.018447151 0.067831077 0.94627583 -0.31616586 0.00037230749
0.0185402 0.047291819 0.018194029 0.11448499 0.94499069 -0.30640775 0.00041792417
0.021397602 0.046923645 0.018351767 0.13181737 0.94256014 -0.30692771 0.00045756283
0.024673581 0.046493944 0.018582372 0.15468302 0.92941123 -0.33506408 0.0002612891
0.027656736 0.045941301 0.018547403 0.18237837 0.92267704 -0.33971336 0.00030283359
0.030601703 0.04534727 0.018773764 0.1465939 0.91320378 -0.38022241 0.001812107
0.033702597 0.04521149 0.018957194 0.095238805 0.9080779 -0.4078286 0.00055286521
0.035641223 0.04528353 0.019652104 0.12898648 0.9030354 -0.40974316 0.00022142279
0.0012616385 0.048935134 0.018405339 0.085286424 0.9741292 -0.20928071 0.00020387858
0.0023270641 0.049096953 0.019846132 0.085285358 0.97412944 -0.20928046 0.00020396557
0.0069332258 0.048360143 0.018091379 0.10936976 0.97214645 -0.20729074 0.00029260272
0.0017788634 -0.049049962 0.020413389 0.077242061 -0.98328042 -0.16490361 0.00018869642
0.0023102993 -0.049175564 0.021544209 0.079719372 -0.98454434 -0.15593973 5.7058929e-05
0.0088379048 -0.048623953 0.02147471 0.070621893 -0.98145539 -0.17820731 0.00077227224
0.013210265 -0.048780393 0.022898983 0.046841878 -0.97667843 -0.20953576 0.0003183021
0.01697094 -0.047961403 0.020382276 0.079222366 -0.96655369 -0.24392155 0.00042079619
0.018629707 -0.048082307 0.021495625 0.087445222 -0.96559691 -0.24489976 0.00043536775
0.020572443 -0.048219252 0.022756567 0.109081 -0.95963842 -0.25922057 9.0691974e-05
-0.064258143 -0.046248499 0.021523019 -0.91693097 0.090960927 -0.38854042 0.0021480962
-0.063303657 -0.04631719 0.020228108 -0.9176895 0.12848856 -0.3759478 0.0015536472
0.016420629 -0.047923524 0.020033529 0.063711323 -0.96486008 -0.25492325 0.00052860042
0.022408016 -0.047452513 0.020695955 0.11978863 -0.95640528 -0.26634496 0.00012533607
0.024358131 -0.047584157 0.02192202 0.13092862 -0.95526367 -0.26519594 0.00015242551
0.027578643 -0.046757352 0.02096577 0.14527884 -0.94197369 -0.30262142 0.00049262331
0.030588485 -0.04643644 0.021361599 0.096988924 -0.94053352 -0.32556066 0.0005282627
0.033859078 -0.046269961 0.021498231 0.095647939 -0.92896664 -0.3575927 0.00027712493
0.036746494 -0.045795277 0.021293974 0.13932943 -0.91868812 -0.36959368 0.00022681008
0.039306015 -0.045509238 0.021595841 0.13170585 -0.91925091 -0.37098697 0.00030951272
0.042365246 -0.045457479 0.022421507 0.14567669 -0.90871191 -0.39117905 0.0002931933
-0.064254574 -0.043584052 0.022774419 -0.88618201 0.10126211 -0.45213649 0.0023195553
-0.063349001 -0.044176608 0.020512909 -0.90606743 0.1142564 -0.40741533 0.0030398068
0.04082495 -0.044681687 0.020141652 0.14949654 -0.90838575 -0.39049459 0.00034039462
0.042779602 -0.044661019 0.020830756 0.16621758 -0.89669603 -0.41025355 0.00029277557
0.045664482 -0.044360247 0.021355119 0.18519269 -0.88289791 -0.43150306 0.00022248733
0.048671253 -0.043676328 0.021395219 0.17141438 -0.87175465 -0.45897809 0.00079218752
0.05172383 -0.043270454 0.021485798 0.1524436 -0.8734023 -0.46252498 0.00028313656
0.05468452 -0.042633634 0.021391541 0.17904206 -0.85949725 -0.4787572 0.00012880344
0.057450913 -0.042358372 0.022073532 0.19091892 -0.85057449 -0.48997241 0.00023977939
0.059850276 -0.042220775 0.022776907 0.19350614 -0.83899295 -0.50857282 0.00017743708
-0.064254537 -0.040856741 0.022774225 -0.8335256 0.24654394 -0.4944199 0.010945958
-0.06282758 -0.040031902 0.021104138 -0.84069586 0.31606388 -0.43969765 0.0082161445
0.057864241 -0.041376352 0.020553594 0.20842882 -0.83477831 -0.50961018 0.00023373545
0.060727276 -0.041068334 0.021203805 0.204776 -0.83014262 -0.51858467 0.00017204315
0.063720882 -0.040538974 0.021569397 0.21254858 -0.81316906 -0.54182947 0.0002324313
0.066439912 -0.039899725 0.021657858 0.21535674 -0.79889464 -0.56159496 0.0001770706
0.069337159 -0.039591931 0.022353632 0.21878648 -0.80174226 -0.55618501 9.4233787e-05
0.072664186 -0.038944352 0.022739014 0.22564185 -0.77888405 -0.58517134 0.0001626015
-0.061868735 -0.03777701 0.021850424 -0.85224712 0.23960318 -0.46504322 0.0087457402
0.067437381 -0.038742904 0.020439994 0.22984698 -0.77088928 -0.59405392 0.00027755473
0.069778837 -0.038441613 0.020942671 0.22850713 -0.7780292 -0.58519655 0.00013329646
0.072634891 -0.037824254 0.021259803 0.23330428 -0.76806551 -0.59635925 0.00012478183
0.075569436 -0.03715995 0.02161048 0.25563514 -0.75060147 -0.60930127 0.00018761125
0.078420892 -0.036572054 0.022078147 0.17641294 -0.71515465 -0.67633742 0.0017867784
0.081607044 -0.03646202 0.022399452 0.096691631 -0.70792806 -0.69963455 0.0011373296
0.083521552 -0.036192659 0.022439977 0.10295075 -0.70539331 -0.70129979 0.00098510925
-0.061890878 -0.034493558 0.021606401 -0.9379434 -0.060998954 -0.34138146 0.00092124532
0.076600142 -0.035455976 0.020051947 0.2615816 -0.71200532 -0.65163147 0.00034984763
0.078978643 -0.035152335 0.02077659 0.21237987 -0.71421659 -0.66692537 0.0017158278
0.08177086 -0.034715168 0.020965854 0.12398772 -0.66719455 -0.73449194 0.0021724985
0.083539359 -0.03471639 0.02098239 0.10001098 -0.66049218 -0.74414229 0.0014161444
-0.06216155 -0.032314386 0.021592421 -0.94683272 -0.072361425 -0.31348297 0.00055252848
-0.062276684 -0.027628746 0.020596689 -0.95236975 -0.04234346 -0.30199146 0.00056269561
-0.062206574 -0.025431933 0.020149376 -0.94637573 0.0059230803 -0.32301393 0.00086203101
-0.062488645 -0.022256047 0.0209546 -0.94696909 -0.010443433 -0.32115516 0.00078941014
-0.062484093 -0.019233294 0.02104968 -0.93986386 -0.018638445 -0.34104046 0.0003697614
-0.06276039 -0.01639588 0.021783877 -0.93896264 -0.015629588 -0.34366387 0.00018532439
-0.062680952 -0.013421315 0.021593435 -0.93493772 -0.0017169558 -0.35480797 2.139041e-05
-0.062769488 -0.010410002 0.021841673 -0.93676144 -0.0040053912 -0.34994569 1.4948449e-05
-0.062677972 -0.0074363966 0.021574141 -0.93732888 0.0018944003 -0.34844056 9.1751739e-05
-0.062760182 -0.0044214888 0.021782145 -0.935009 0.0080075804 -0.35453346 0.00014596834
-0.06267187 -0.0014517742 0.021535365 -0.92731386 0.021546489 -0.37366396 0.00032922384
-0.062474586 0.0015963657 0.02147053 -0.91892695 0.031522758 -0.39316595 0.00043176909
-0.062089354 0.0046758982 0.021133199 -0.92079401 0.029677195 -0.38891861 0.00069217989
-0.062132932 0.0075486484 0.02156933 -0.92139816 0.023168208 -0.38792866 0.00086538983
-0.062106974 0.010039781 0.021491982 -0.93590277 0.0099785905 -0.35211706 0.0005885858
-0.062618762 0.01396748 0.022779057 -0.93433249 -0.0079088556 -0.35631484 0.00059909705
-0.062572151 0.016683383 0.022481754 -0.94087332 -0.014652173 -0.33844155 0.00040789679
-0.062468454 0.019652149 0.021820173 -0.94622302 -0.016055213 -0.32311654 7.1225622e-05
-0.062450111 0.022640223 0.021703133 -0.94136924 0.0024846145 -0.33736902 0.00023155854
-0.062384486 0.025831427 0.021778574 -0.93333411 0.032496367 -0.35753503 0.0001354152
-0.062158205 0.028618027 0.021571994 -0.92812181 0.058288366 -0.36768511 0
-0.061869718 0.031603139 0.021470314 -0.92692131 0.066158645 -0.36937773 3.5098314e-05
-0.061764546 0.03485189 0.02179035 -0.93067455 0.018066244 -0.3654018 0.00087123911
0.07902316 0.035273369 0.020696126 0.20595644 0.70226592 -0.68147224 0.0011901431
0.081583329 0.035021644 0.020861939 0.14955959 0.7182129 -0.67956024 0.0015961304
0.083603792 0.034815781 0.02083311 0.11670895 0.6935975 -0.71084565 0.0022204854
-0.061927974 0.03746606 0.022343401 -0.90032804 -0.14809893 -0.40923849 0.0052827331
0.067444801 0.038858403 0.020493766 0.21583 0.78842354 -0.57602584 0.00017176225
0.069779947 0.038553655 0.020950707 0.21648867 0.78115177 -0.58560628 0.00014313558
0.072624363 0.03799133 0.021261215 0.22301257 0.77187991 -0.59537119 0.00011035199
0.075616434 0.037293047 0.021520715 0.22991669 0.75071627 -0.61932492 0.00098360842
0.078522086 0.036803059 0.021863239 0.16441117 0.73222721 -0.6609177 0.0021181933
0.081327327 0.036676683 0.02235849 0.1483123 0.70571774 -0.69279581 0.0013707274
-0.062688097 0.040674012 0.021615295 -0.87141788 -0.24205227 -0.42666331 0.001078722
0.056005262 0.041535806 0.020114055 0.18753634 0.82241309 -0.53709102 0.0001118525
0.057933293 0.041436885 0.020703694 0.19885707 0.83265668 -0.5168547 0.00029982906
0.060719438 0.041143056 0.021286419 0.19771956 0.82448572 -0.53021717 0.00013759885
0.063580334 0.040578131 0.021472696 0.2047587 0.81071681 -0.54846352 0.000250716
0.066385612 0.039962769 0.021611294 0.2078833 0.79866695 -0.56472611 0.00017075504
0.069331221 0.039701261 0.022312069 0.20892648 0.80384082 -0.55694669 8.5717387e-05
0.073235959 0.039073441 0.022913715 0.21496069 0.78300822 -0.58368659 0.00013231137
-0.064207092 0.044758663 0.022478512 -0.87028623 -0.23233061 -0.43430907 0.00084914878
-0.063312791 0.043367952 0.021650132 -0.87197644 -0.24980654 -0.4210152 0.00055209256
0.040568329 0.044811182 0.020328751 0.14271753 0.90182191 -0.40785912 0.00027866554
0.042916976 0.044661481 0.020853007 0.17345805 0.88634264 -0.42931229 0.00024887882
0.045716405 0.044332381 0.021490842 0.19969696 0.87677044 -0.43748689 0.00039350169
0.048746146 0.043408807 0.021225719 0.16806667 0.86635727 -0.4702965 0.0010845239
0.051486067 0.043267 0.021532072 0.13834223 0.86374712 -0.4845641 0.00035349064
0.0546031 0.042663872 0.021412265 0.16613545 0.85185015 -0.49673977 0.0002562578
0.057464741 0.042482674 0.022193311 0.18215682 0.8456341 -0.50171894 0.00038042592
0.059860215 0.042342331 0.022859564 0.18723029 0.85118586 -0.49033394 0.00026936224
-0.064012103 0.045993906 0.021263173 -0.87294507 -0.25327489 -0.41691574 0.00058305153
-0.063351877 0.045374643 0.02053093 -0.87183189 -0.24465953 -0.42432407 0.00057600043
0.016964838 0.048043471 0.020122102 0.079078376 0.95785153 -0.27616486 0.00057491928
0.022138122 0.047567543 0.020732788 0.12934329 0.95328397 -0.27298322 0.00015993565
0.024622591 0.047570884 0.021762421 0.15047835 0.95486349 -0.25610924 0.00033357713
0.027540855 0.046869859 0.021315958 0.15257551 0.94512123 -0.28890589 0.0013995279
0.030787122 0.046336178 0.021279255 0.10489869 0.93115717 -0.34920275 0.0014347878
0.033363312 0.046225835 0.021392431 0.087560557 0.92696577 -0.36478454 0.00017355708
0.03678152 0.045813322 0.02147893 0.11773927 0.92197222 -0.3689236 0.00012069675
0.039320752 0.045642156 0.021796001 0.12617789 0.91399866 -0.38559747 0.00023997604
0.042106569 0.045588732 0.022595942 0.16264032 0.90025055 -0.40385285 0.00040895585
0.04540322 0.045072753 0.022882273 0.18993706 0.88461459 -0.42588836 0.0003985519
0.0031316746 0.04921535 0.020900374 0.094676554 0.98068035 -0.17117982 0.00010303361
0.0088399081 0.048758622 0.021678835 0.096877225 0.97891086 -0.17985657 0.00051698252
0.018633246 0.048207305 0.021613792 0.090226732 0.96563584 -0.24373479 0.00048549444
0.020301864 0.048341017 0.022831013 0.098040327 0.96636236 -0.23776408 0.00039289449
0.0028364337 -0.049405221 0.023611655 0.078865565 -0.9855243 -0.15007409 1.4502199e-05
0.010216724 -0.048886184 0.023862055 0.065338425 -0.97744423 -0.20083223 0.00071361178
0.011850122 -0.048818517 0.02324607 0.052492101 -0.97753376 -0.20413785 0.00048606194
0.015151285 -0.048953123 0.02447152 0.051395256 -0.98001045 -0.19219281 0.00026001953
0.022253126 -0.048354052 0.023997677 0.11954495 -0.96226561 -0.24444588 0.00030147322
0.023680609 -0.048526097 0.025581798 0.10985267 -0.97225875 -0.20650741 0.00040407313
0.028606758 -0.04794522 0.025284788 0.076114476 -0.96109194 -0.2655353 0.0010259585
0.029996302 -0.04798165 0.02562399 0.055671263 -0.96189082 -0.26770651 0.00082666829
-0.065522753 -0.045354351 0.024980487 -0.89997828 0.059475586 -0.43185845 0.00088750455
0.025788039 -0.047757167 0.023533305 0.10794853 -0.96273905 -0.24795264 0.00073946099
0.027736435 -0.047658682 0.024311 0.10605595 -0.958278 -0.26543471 0.00095101015
0.030703099 -0.047204565 0.023475388 0.090095632 -0.94776767 -0.30597287 0.00033107708
0.033494264 -0.047307316 0.024443438 0.099288411 -0.94589984 -0.3088938 0.00023496641
0.036375053 -0.046897832 0.024264278 0.11009881 -0.94630301 -0.30395538 0.00035990594
0.039878905 -0.046513408 0.024409788 0.11678614 -0.93430489 -0.33680168 0.00029100428
0.042731315 -0.046223011 0.024543041 0.14282796 -0.92802197 -0.34405708 0.00038000749
0.045728892 -0.045578316 0.024263592 0.16662167 -0.91182935 -0.37523916 0.0005411086
0.048441045 -0.045351673 0.024727104 0.12935486 -0.91424978 -0.38394618 0.00064001943
0.051385783 -0.045213405 0.025395749 0.13879378 -0.91169852 -0.38670686 0.00048438302
-0.06544289 -0.043533627 0.025051879 -0.90853715 0.097314797 -0.40631282 0.0022618179
0.049526945 -0.04444566 0.023205271 0.15335172 -0.88342476 -0.44276845 0.00038946437
0.051769376 -0.044411864 0.023777321 0.14812143 -0.89003581 -0.43115684 0.00027276188
0.054703213 -0.044225153 0.024479358 0.16293709 -0.88968873 -0.42650384 0.00032451397
0.057724409 -0.043612506 0.024449205 0.17816086 -0.87447613 -0.45116547 0.0003855197
0.060683183 -0.043010812 0.024497295 0.17840348 -0.86358565 -0.47158456 0.00014714341
0.063557006 -0.042673875 0.024977231 0.18114413 -0.85531765 -0.48540542 0.00023577765
0.065946408 -0.042483196 0.025538256 0.18812622 -0.85857785 -0.47691998 0.0001900908
0.068998896 -0.041956726 0.025777658 0.19635849 -0.83152074 -0.51963127 0.00022858479
-0.065051228 -0.040452734 0.024324706 -0.87681079 0.21544974 -0.42986533 0.008504929
-0.063826159 -0.039011914 0.02350994 -0.79961419 0.32725579 -0.50350845 0.010128087
0.063750848 -0.041734651 0.023409968 0.19562155 -0.84288985 -0.50126725 0.00025256418
0.066813573 -0.041487489 0.024173766 0.20104674 -0.83180499 -0.51737875 0.0002495232
0.069734558 -0.040805016 0.024264989 0.21216829 -0.81424809 -0.54035604 0.00023041561
0.072685279 -0.040130693 0.024425456 0.21944074 -0.80414057 -0.5524525 0.00017273077
0.07558123 -0.039586648 0.024770224 0.20688224 -0.79125655 -0.57542402 0.00029912271
0.07834433 -0.039257098 0.025263304 0.11817535 -0.77823359 -0.61675525 0.0018619356
0.080869295 -0.03937846 0.025602968 0.097698726 -0.79317552 -0.60110527 0.002406864
-0.064429872 -0.038228881 0.025005134 -0.8441214 0.29946458 -0.44472456 0.012835054
-0.063085988 -0.037551992 0.024206577 -0.80280924 0.3358542 -0.49264517 0.010742452
0.076304361 -0.038314328 0.023340126 0.22775553 -0.75872707 -0.61029541 0.00032549317
0.078854352 -0.038070373 0.023905208 0.14904411 -0.74161595 -0.6540578 0.0020656066
0.081522204 -0.037920054 0.023972776 0.10173881 -0.73845702 -0.66658109 0.00097085349
-0.063127093 -0.034314241 0.024430418 -0.90473306 0.024054959 -0.42529926 0.0073255063
-0.063184284 -0.031205971 0.024202058 -0.92509258 -0.051308513 -0.37625945 0.0016428622
-0.063264959 -0.028697232 0.024569923 -0.93964648 -0.036358215 -0.34020966 0.0015372039
-0.063515715 -0.025436137 0.025003729 -0.94598424 -0.013368628 -0.32393679 0.0013371486
-0.063426368 -0.022667103 0.024438141 -0.95341378 -0.012843702 -0.30139202 0.00031775518
-0.06331154 -0.019896442 0.023711294 -0.95116627 -0.032265197 -0.30698797 0.00033328839
-0.064136557 -0.015857846 0.025459586 -0.94489998 -0.02574284 -0.32634535 0.00015974384
-0.064110905 -0.013383044 0.025298426 -0.94416243 -0.0087216115 -0.32936496 0.00017476054
-0.064117603 -0.010366522 0.025340537 -0.94285947 0.0025250351 -0.33318114 0.00014697241
-0.064135246 -0.0073505505 0.025451364 -0.94109935 0.00038100162 -0.33812997 0.00014571573
-0.064134859 -0.0043321117 0.025448943 -0.93841505 -0.0074556917 -0.34542969 2.6054797e-05
-0.06411998 -0.0013133745 0.025355449 -0.93314141 0.0031154447 -0.35949591 0.00011784671
-0.064131424 0.0014304657 0.025427332 -0.93024951 0.010371933 -0.36678097 4.8414666e-05
-0.063202858 0.0019673416 0.023023278 -0.92126846 0.028591271 -0.38787487 0.00044911049
-0.064161994 0.0044510099 0.025619363 -0.92873299 0.018653309 -0.37027964 3.6474168e-05
-0.063243993 0.0044266814 0.02328369 -0.91457689 0.038798675 -0.40254661 0.0004816365
-0.064205796 0.0074752197 0.025894513 -0.91382861 0.033522945 -0.40471405 0.00036367
-0.063330352 0.007439713 0.023830345 -0.90976107 0.03898263 -0.41329792 0.00034079459
-0.064223476 0.0091255857 0.026005557 -0.91173536 0.037490498 -0.4090637 0.00010708145
-0.063178807 0.01072499 0.024023129 -0.91740316 0.027540078 -0.39700487 0.00080247177
-0.06338951 0.013301919 0.024780983 -0.91615599 0.021170219 -0.40026242 0.00042277438
-0.063538782 0.01651179 0.025149787 -0.92676693 0.0019315376 -0.3756319 0.00071166479
-0.063566223 0.019535616 0.025323434 -0.93560159 -0.0026609083 -0.35304752 0.00057557726
-0.063474186 0.022523196 0.024740817 -0.94059324 -0.0066686277 -0.33947003 0.00021235687
-0.0634339 0.025522625 0.02448584 -0.93951774 0.01424233 -0.34220403 0.00016994594
-0.063520871 0.028570587 0.025036337 -0.93363106 0.054374155 -0.35408527 5.8430342e-05
-0.062983468 0.031284172 0.024105063 -0.9307974 0.064323597 -0.35983145 4.3898177e-05
-0.063029535 0.034787349 0.024899142 -0.88845313 -0.064905286 -0.45435488 0.0059625404
-0.064169973 0.037945285 0.025669469 -0.86015356 -0.19025861 -0.47322047 0.0027273346
-0.063183099 0.03758195 0.024630254 -0.866754 -0.19319971 -0.45979497 0.0038228657
0.076023035 0.03856042 0.023286602 0.20616393 0.7913748 -0.57551908 0.00031740539
0.07867647 0.03835075 0.023726635 0.14141467 0.73853064 -0.6592226 0.0027940182
0.081651144 0.038121965 0.024002541 0.14374387 0.74051017 -0.65649241 0.0019809268
0.083153859 0.036937106 0.023466727 0.14106023 0.71737731 -0.68225491 0.0012591513
-0.064411506 0.040344894 0.024889836 -0.86609256 -0.21368015 -0.45191211 0.0021949986
-0.063292697 0.039679851 0.023592932 -0.85845965 -0.22002168 -0.46328971 0.0020667261
0.064025924 0.041741502 0.023427257 0.19235805 0.84191895 -0.50415361 0.00032454496
0.066750735 0.041500028 0.024049912 0.19419296 0.83263057 -0.51866698 0.00020399207
0.06961862 0.040999793 0.024340702 0.19956101 0.81677359 -0.54134667 0.00019957442
0.072645895 0.04030617 0.024450665 0.20862305 0.80990344 -0.54820877 0.00026219679
0.075561218 0.039691143 0.024641538 0.19819155 0.79973167 -0.56670046 0.00031484323
0.078340359 0.039371509 0.025238028 0.10813408 0.79129332 -0.60179901 0.0027056267
0.080998316 0.039558299 0.025280992 0.12522411 0.77789223 -0.61579424 0.0032203714
