# .PCD v0.7 - Point Cloud Data file format
VERSION 0.7
FIELDS x y z normal_x normal_y normal_z curvature
SIZE 4 4 4 4 4 4 4
TYPE F F F F F F F
COUNT 1 1 1 1 1 1 1
WIDTH 550
HEIGHT 1
VIEWPOINT 0 0 0 1 0 0 0
POINTS 550
DATA ascii
0.015221465 -0.0089935511 -0.041313544 -0.11996905 0.58641636 -0.80107629 0.0001272349
0.01823483 -0.0086987847 -0.041505054 -0.076405369 0.60489422 -0.7926318 0.00021453654
0.021415308 -0.0086279372 -0.041660856 -0.018650845 0.62688941 -0.77888501 0.00030020156
0.024440931 -0.0086291218 -0.041619137 0.036011327 0.64683759 -0.7617771 0.00026429814
0.027411876 -0.0087008113 -0.041433886 0.092393443 0.66876525 -0.73771036 0.00036000187
0.03045476 -0.0089968927 -0.041197751 0.13532232 0.68938321 -0.71164501 0.00036354855
0.033399653 -0.0093188323 -0.040852461 0.15386902 0.72197646 -0.67459202 0.00077208562
0.036407951 -0.0096254917 -0.040406533 0.21119262 0.73429549 -0.64514166 0.0008571436
0.039219301 -0.010091416 -0.039989308 0.25651976 0.73518658 -0.62745386 0.0015648417
0.042229954 -0.010613976 -0.039625347 0.33926013 0.71211797 -0.61464679 0.0077995351
0.044232342 -0.010893912 -0.038851857 0.38716155 0.69033086 -0.61118668 0.0091518853
0.0069699162 -0.008143438 -0.038927637 -0.25365099 0.52448821 -0.81275666 0.00027312222
0.0095775137 -0.0076570581 -0.039298877 -0.19848582 0.55490887 -0.80788589 0.00028059137
0.012484186 -0.007195733 -0.039575305 -0.15164235 0.56901538 -0.80822402 0.00013438032
0.01541937 -0.0069716135 -0.039860062 -0.11389304 0.58762479 -0.80107772 7.5100972e-05
0.01837112 -0.0067420993 -0.040026467 -0.058590855 0.62014312 -0.78229767 0.00031619699
0.021310106 -0.0068328232 -0.040197428 -0.016465586 0.62503558 -0.78042263 0.00022492891
0.02431532 -0.0068032979 -0.040070888 0.055225328 0.65562719 -0.75306249 0.00033338065
0.027300887 -0.0071075065 -0.04000587 0.11527371 0.67243528 -0.73112434 0.00045004941
0.030221032 -0.0074244416 -0.039740298 0.15979333 0.68861622 -0.70730031 0.00020421417
0.033255599 -0.007816175 -0.039343406 0.18779108 0.71097565 -0.67767859 0.00022599475
0.035727061 -0.0081426837 -0.038954191 0.22799583 0.73540652 -0.63811845 0.00075499137
-0.01560289 -0.047625378 -0.036437105 -0.94694483 0.18699527 -0.2613965 0.15473577
-0.014836823 -0.045639198 -0.037148554 -0.76462573 -0.1805106 -0.61867887 0.053057868
-0.012961493 -0.044628527 -0.037552536 0.62632781 -0.72146028 -0.29531077 0.098456204
-0.016464049 -0.042053305 -0.036105555 -0.79856431 -0.25340009 -0.54597008 0.029337471
-0.014980758 -0.042769119 -0.037577648 -0.70606643 -0.16298409 -0.68913454 0.016614404
-0.010334672 -0.041371077 -0.035878312 0.42920679 -0.60169047 -0.67360979 0.037769053
-0.01646175 -0.039687019 -0.036165666 -0.76128632 0.011661101 -0.64831108 0.0017587211
-0.015067934 -0.039872073 -0.037696972 -0.70682901 0.028344957 -0.70681638 0.00098478189
-0.008328964 -0.040081847 -0.036375515 0.22144751 -0.65837544 -0.71937662 0.00049307226
-0.0058401357 -0.039223287 -0.036722802 0.31407696 -0.67942762 -0.6631242 0.0039446675
-0.0035655759 -0.038661171 -0.036201756 0.41933981 -0.67768288 -0.60406959 0.0058103083
-0.016473688 -0.037360147 -0.035853628 -0.75829118 0.10902429 -0.64273489 0.00082689809
-0.014901519 -0.036711782 -0.037512284 -0.70090193 0.1347634 -0.70041078 0.0015282284
-0.0050670551 -0.037318069 -0.038008928 0.2851004 -0.65635192 -0.69851267 0.0012073345
-0.0025409798 -0.036811154 -0.037446294 0.35127771 -0.71399856 -0.60564846 0.0060495632
-0.00058102718 -0.035886113 -0.037227951 0.47818244 -0.71179777 -0.51447594 0.0094700251
-0.01468439 -0.033917684 -0.036946654 -0.69094425 0.20023161 -0.69462454 0.00046829734
-0.012958243 -0.033376459 -0.03842489 -0.65154779 0.21014215 -0.728921 0.00042857911
0.00051150552 -0.034750346 -0.038155612 0.40760377 -0.71919775 -0.56268448 0.0091878641
0.0030787922 -0.033427805 -0.037236635 0.48223567 -0.75166923 -0.44993562 0.0031046052
0.0052400366 -0.032368168 -0.036232155 0.43732005 -0.73601872 -0.51674706 0.0060434267
-0.014135722 -0.030992318 -0.036550563 -0.66066623 0.24000961 -0.71127731 0.00014270806
-0.012450243 -0.030581549 -0.037918225 -0.64410371 0.2461631 -0.72424734 8.9043657e-05
0.0045796083 -0.032043166 -0.038104951 0.48015267 -0.72948736 -0.48713616 0.002958308
0.0065142955 -0.031037502 -0.037301376 0.46031854 -0.70692432 -0.53699619 0.0037195706
0.0090330774 -0.030040117 -0.036497515 0.38518777 -0.65531486 -0.64976364 0.0011991494
0.010912994 -0.02956832 -0.0358635 0.36151791 -0.64880157 -0.66959792 0.00042234987
-0.013539147 -0.028087053 -0.036084909 -0.64189905 0.25223148 -0.72411662 8.4202809e-05
-0.011694987 -0.027741097 -0.037559904 -0.61388654 0.27034429 -0.74165845 5.6119494e-05
-0.0098042041 -0.026524922 -0.038657408 -0.60013962 0.27705419 -0.75038213 7.7362776e-05
0.0097105345 -0.028703628 -0.037478171 0.4068675 -0.74105346 -0.53413332 0.0053059529
0.012338893 -0.027913582 -0.036593482 0.38356888 -0.7335031 -0.56111324 0.0042768056
0.014866749 -0.027043611 -0.036156405 0.39932847 -0.69456983 -0.59842259 0.002192091
-0.013170523 -0.026269203 -0.03578056 -0.6367926 0.24748607 -0.73023689 0.00014638132
-0.011346043 -0.024893733 -0.036813866 -0.61749053 0.26272705 -0.741404 6.9733906e-05
-0.0094026783 -0.0245324 -0.038239006 -0.59872591 0.27553755 -0.75206804 3.6668927e-05
0.013638224 -0.026067002 -0.038511198 0.46962026 -0.74446106 -0.47458881 0.0022703968
0.015718844 -0.02559383 -0.03706006 0.39631191 -0.73660678 -0.5480395 0.0038880364
0.01815014 -0.024514997 -0.036679368 0.42578861 -0.69016469 -0.58512962 0.0035807246
0.020429682 -0.023738289 -0.035960507 0.40392646 -0.66380793 -0.62944603 0.0014731869
-0.010766751 -0.022051362 -0.036257189 -0.6003868 0.27446589 -0.75113529 9.5866897e-05
-0.0087919729 -0.02171121 -0.037670892 -0.57170695 0.2962352 -0.76511163 0.00012817452
-0.0069922651 -0.020667663 -0.038625132 -0.54296535 0.32910621 -0.77257872 0.00025808616
0.019061791 -0.023055952 -0.037951637 0.4323962 -0.77506441 -0.46076959 0.0046964656
0.021604476 -0.022314882 -0.036696047 0.40518168 -0.77966464 -0.47744209 0.0063348883
0.024216088 -0.021114208 -0.03654331 0.38650522 -0.77261263 -0.50366992 0.0065525384
0.026244963 -0.020585721 -0.036053028 0.41671333 -0.7786572 -0.46908727 0.0026358403
-0.010334556 -0.020123607 -0.035883557 -0.58117318 0.29037967 -0.76020879 0.00010629185
-0.0085980538 -0.018949747 -0.036764469 -0.5677219 0.29551655 -0.76835012 0.00014247227
-0.0063653621 -0.018559944 -0.038156174 -0.53339338 0.32604939 -0.78050202 0.00023463731
0.025365775 -0.019975087 -0.038444083 0.41834894 -0.74040282 -0.52610624 0.0075968527
0.027516982 -0.01935195 -0.037305836 0.40963265 -0.76049805 -0.50382924 0.0045147184
0.030160168 -0.018064376 -0.037208736 0.43829098 -0.73567647 -0.5164119 0.0049424362
0.032160293 -0.017763471 -0.035871308 0.35343111 -0.75151747 -0.55705285 0.0058305529
-0.00793745 -0.016393747 -0.036199212 -0.52114576 0.34033227 -0.78267556 0.00023482113
-0.0056286668 -0.015772289 -0.037410181 -0.49064887 0.36126542 -0.79293829 0.00011233348
-0.0032432545 -0.014819724 -0.03836083 -0.43295768 0.40308994 -0.80626684 0.00020388886
0.030959757 -0.016806893 -0.038235731 0.44746229 -0.60613698 -0.65755254 0.0022458511
0.03337314 -0.01583817 -0.03751079 0.41957164 -0.60819519 -0.67383838 0.0036535426
0.036073517 -0.015183263 -0.03645549 0.44701245 -0.57034504 -0.68912005 0.0027011831
-0.0051706587 -0.013037137 -0.036406696 -0.46236056 0.3812376 -0.80055016 0.00041256912
-0.0025751211 -0.012702356 -0.037646607 -0.41044423 0.42179704 -0.80846936 0.00014783285
-0.00042864558 -0.012005031 -0.038363174 -0.3732478 0.44008696 -0.8167066 0.00039970255
0.034293957 -0.013885736 -0.038263969 0.45633405 -0.53515363 -0.71089369 0.00074281986
0.036838531 -0.013692944 -0.036733355 0.45533216 -0.53149033 -0.71427637 0.00078512984
0.038433772 -0.013190872 -0.036081385 0.46140006 -0.50856721 -0.72695899 0.00042574364
0.045538727 -0.011655351 -0.037650853 0.39205807 0.69330156 -0.60466802 0.0089236386
0.047657311 -0.011601842 -0.036526237 0.48781559 0.64945728 -0.5833019 0.022625623
-0.0043541561 -0.010996164 -0.03585761 -0.43661296 0.40287688 -0.80439997 5.0726037e-05
-0.0023381938 -0.010069673 -0.036394935 -0.39709786 0.42807826 -0.81182659 0.00030484129
0.00024738535 -0.0098762773 -0.037487805 -0.35481191 0.45901579 -0.8145017 0.00025328295
0.0029264227 -0.0092873657 -0.038258489 -0.3067801 0.48517266 -0.81883669 0.00042238788
0.03980808 -0.0089590317 -0.038255587 0.27777076 0.73846078 -0.6144259 0.0018071939
0.042426046 -0.0091809249 -0.037277035 0.29318005 0.73972577 -0.60568243 0.0032345962
0.045375992 -0.010096272 -0.037083969 0.38541049 0.70929897 -0.59021491 0.0076750256
0.047727089 -0.010768226 -0.036391389 0.48781297 0.64945966 -0.58330142 0.022623232
0.00056490069 -0.0075363019 -0.036299884 -0.34350324 0.46272317 -0.81724709 0.00017927162
0.0033714166 -0.0069052982 -0.03699816 -0.27668765 0.50248331 -0.81911808 0.00030205978
0.0063031921 -0.0066800108 -0.037776578 -0.23419617 0.52734768 -0.81673527 0.0004906744
0.0092656594 -0.0061093364 -0.038162597 -0.17848593 0.55649537 -0.81145287 0.00021001004
0.012281914 -0.0056244587 -0.038412653 -0.13586585 0.57862943 -0.80419427 0.00013962272
0.014571458 -0.0054329094 -0.038616132 -0.091478884 0.59926337 -0.79530817 0.00017460939
0.025814915 -0.0054309131 -0.038716715 0.12178258 0.66678244 -0.7352348 0.0003495483
0.027708618 -0.0055529 -0.038473662 0.13814209 0.6819765 -0.71820945 0.00039393737
0.030462319 -0.0058188452 -0.038076594 0.17667545 0.69214088 -0.69980478 0.00011926981
0.033402491 -0.0063076788 -0.037756447 0.20038249 0.69930613 -0.68616164 5.5684097e-05
0.03644656 -0.0067400481 -0.037202846 0.25016099 0.6979205 -0.6710636 0.00030281401
0.039249815 -0.0075199516 -0.03686351 0.29309079 0.7236613 -0.62482965 0.00071632228
0.041311622 -0.0080707138 -0.03636751 0.33837175 0.73412424 -0.58869874 0.0016929327
0.0042209392 -0.0048544519 -0.036039423 -0.2652823 0.50967103 -0.81845015 0.00034902486
0.0065512038 -0.0043095523 -0.036288247 -0.21196885 0.535972 -0.81719232 0.00025171542
0.0093473289 -0.0039596115 -0.03667758 -0.16385148 0.56124163 -0.81127089 0.00023583784
0.012318524 -0.0037859718 -0.037079841 -0.12381114 0.58632034 -0.80056185 0.00018817234
0.015326062 -0.0038085522 -0.037471563 -0.073150992 0.60470062 -0.79308641 0.00015197377
0.018372357 -0.0038055379 -0.037661459 -0.029694211 0.61947024 -0.78445828 0.00037492288
0.021427032 -0.0038054229 -0.037664469 0.043014575 0.65302771 -0.75611144 0.00015259547
0.024306273 -0.0038404453 -0.037445437 0.10880953 0.67378366 -0.73087358 0.00033305871
0.027277507 -0.0038987945 -0.036980238 0.16014519 0.68461102 -0.71109861 0.0001427316
0.030292889 -0.004304158 -0.036595996 0.19035742 0.69093782 -0.69740158 8.1008475e-05
0.033112861 -0.0047332225 -0.036214408 0.21268123 0.6962133 -0.68560463 9.3139788e-05
0.035230577 -0.0050151558 -0.035859536 0.25149077 0.70135432 -0.66697407 0.00027470622
0.012562769 -0.0021812455 -0.03593307 -0.10791951 0.59538215 -0.79616165 0.00022816115
0.015390534 -0.0019439566 -0.03604091 -0.058332782 0.61349356 -0.7875424 0.00021926461
0.018215679 -0.0019425931 -0.036169939 -0.0031589845 0.63414806 -0.77320516 0.00031989071
0.021178842 -0.0019616578 -0.036082689 0.055062428 0.65440005 -0.75414103 0.0003423146
0.024366338 -0.002181377 -0.035921153 0.11769112 0.6684016 -0.73443043 0.00029569052
-0.017103055 -0.051099721 -0.033384953 -0.80931789 -0.19594711 -0.55372316 0.01548986
-0.01608026 -0.050874583 -0.033726316 0.91947949 -0.39102814 -0.040675044 0.11974569
-0.016968541 -0.048968352 -0.033884544 -0.82598299 -0.18446568 -0.53265792 0.016230036
-0.015779136 -0.049036548 -0.0345372 -0.79382205 0.096133471 -0.60050386 0.16124219
-0.017168339 -0.045487646 -0.033674471 -0.76049554 -0.10734976 -0.6404081 0.035721101
-0.014629701 -0.0453365 -0.034366708 -0.29163539 -0.63289064 -0.71721566 0.29869959
-0.011822007 -0.044967365 -0.03314304 0.31539097 -0.68335015 -0.65845364 0.0014316157
-0.0099264197 -0.044572443 -0.032832365 0.34219554 -0.68236119 -0.64597642 0.0045511415
-0.017631397 -0.042817358 -0.0342259 -0.7527765 -0.26016757 -0.60468203 0.023507601
-0.016012561 -0.044006862 -0.035554808 -0.72978747 -0.18934044 -0.65693265 0.055044707
-0.01091027 -0.043237563 -0.034356825 0.5171091 -0.65095389 -0.55574918 0.032416001
-0.0087437127 -0.042700388 -0.03432392 0.23053554 -0.65989256 -0.715119 0.00029060018
-0.0064341133 -0.04213272 -0.033997674 0.34374776 -0.70320475 -0.62236691 0.012123321
-0.017745161 -0.0398167 -0.03437015 -0.82975268 -0.0066201114 -0.55809194 0.00054852851
-0.0082134316 -0.040922746 -0.035666194 0.21405293 -0.66519725 -0.71532798 0.00050104503
-0.0052204491 -0.040594548 -0.035024654 0.36013576 -0.70503449 -0.61092442 0.0074771503
-0.0027101263 -0.039293807 -0.034257457 0.50410205 -0.7072733 -0.49562642 0.0035163197
-0.017612932 -0.036709893 -0.034309249 -0.78587401 0.083960101 -0.61266041 0.0014064594
-0.001519556 -0.038072225 -0.034313016 0.51983809 -0.70518047 -0.482171 0.0033503217
0.00039550208 -0.036883339 -0.033810772 0.4489803 -0.69414097 -0.56265885 0.0061651901
0.0031664455 -0.035921741 -0.033435259 0.34945607 -0.69233876 -0.63130623 0.0019781888
0.0055380673 -0.035515044 -0.032985594 0.37066215 -0.7169435 -0.5904249 0.0027635198
-0.017353727 -0.033877958 -0.034136713 -0.74152565 0.13765672 -0.6566509 0.00088447606
-0.015922196 -0.033006366 -0.035443466 -0.7158767 0.17389585 -0.67622536 0.00069422601
0.0014756249 -0.035304248 -0.035147619 0.45090741 -0.74158138 -0.49672893 0.0066124802
0.0038465094 -0.034292091 -0.034798682 0.40432069 -0.71530336 -0.56996995 0.0057177092
0.0064040325 -0.033678174 -0.034206308 0.35998487 -0.70743632 -0.60823083 0.0023804025
0.0088100778 -0.033035137 -0.033665512 0.39910096 -0.7057606 -0.585338 0.0039546909
-0.017186673 -0.030964267 -0.033597898 -0.71151006 0.19037716 -0.67639482 0.00070346333
-0.01555693 -0.030633822 -0.035091966 -0.67478788 0.21820582 -0.70501596 0.0003105861
0.0072632651 -0.031847082 -0.035458598 0.40513548 -0.71034026 -0.575571 0.0045814062
0.009498544 -0.031487361 -0.034922648 0.4023048 -0.70301318 -0.5864498 0.0035767944
0.012010143 -0.030503193 -0.034363005 0.42238253 -0.69936424 -0.57661319 0.0036161165
0.014810365 -0.029559949 -0.033088323 0.44675291 -0.75202763 -0.48463011 0.0020961585
-0.016749892 -0.028149031 -0.033155445 -0.67879605 0.22415666 -0.699278 0.00021129996
-0.015076631 -0.027673921 -0.034537882 -0.66288871 0.23607159 -0.71052718 0.00010556829
0.013159555 -0.028936014 -0.035342753 0.3813251 -0.7070114 -0.59558892 0.0018556406
0.01555378 -0.028155636 -0.034682207 0.40583479 -0.69951057 -0.58820337 0.0028547333
0.018143365 -0.027064297 -0.034096267 0.39727178 -0.72881675 -0.55767483 0.0034383065
0.020276178 -0.026463779 -0.033153143 0.43846807 -0.73840261 -0.51235461 0.0025318495
-0.014486567 -0.024859821 -0.034112841 -0.64032656 0.24517226 -0.72792339 8.5000378e-05
-0.012612399 -0.024022888 -0.035475455 -0.61805993 0.26321578 -0.74075592 6.6619454e-05
0.018594259 -0.025715092 -0.035463069 0.40137565 -0.67006278 -0.62443066 0.0010233048
0.021374991 -0.024737392 -0.034643061 0.41369456 -0.67192817 -0.61430395 0.0024169974
0.024038505 -0.023965241 -0.033776198 0.38932139 -0.70033294 -0.59829974 0.0034085175
0.026244167 -0.023632741 -0.032821726 0.40724984 -0.73698187 -0.53944904 0.0047165798
-0.013988232 -0.022077346 -0.033587623 -0.62260282 0.24925621 -0.74177969 0.00010553355
-0.012065511 -0.021612598 -0.035069846 -0.60914242 0.2597245 -0.74932551 0.00015066859
0.022500725 -0.022977708 -0.035559591 0.39211476 -0.6959036 -0.60163468 0.0017098468
0.024653969 -0.022370489 -0.034853928 0.3942568 -0.64973164 -0.64993107 0.0010277672
0.027249202 -0.021759911 -0.033757765 0.41558534 -0.68070894 -0.60326117 0.0029481896
0.02945777 -0.020950789 -0.033102907 0.43095088 -0.66391391 -0.61114615 0.0016623398
-0.01350861 -0.019375307 -0.033127803 -0.61006397 0.2541846 -0.75047457 0.00014275957
-0.011581589 -0.01875012 -0.034440164 -0.58043563 0.27917689 -0.76495415 7.2463903e-05
-0.0098727401 -0.017788237 -0.035390835 -0.56614852 0.28426665 -0.7737366 0.00010893798
0.028294224 -0.020017445 -0.034997623 0.39031678 -0.73747033 -0.55117178 0.0047601284
0.03036963 -0.019578107 -0.034112755 0.4227165 -0.75117201 -0.50700229 0.0033027721
0.033125866 -0.018261215 -0.034031115 0.35462007 -0.77946174 -0.51641458 0.0041939756
0.035746589 -0.017482933 -0.033964366 0.36868557 -0.79166812 -0.48716787 0.0036767281
-0.011301953 -0.015895952 -0.033604901 -0.56826884 0.2916801 -0.76941097 0.00028081503
-0.0090793287 -0.015548144 -0.035067011 -0.53428966 0.3211261 -0.78192872 0.00038038817
0.034065586 -0.017300254 -0.035694133 0.4059056 -0.68280697 -0.60746646 0.0074000345
0.036654375 -0.016467499 -0.034887049 0.4320879 -0.64611357 -0.62915593 0.0084027583
0.039120372 -0.01555584 -0.033969332 0.44191778 -0.58559585 -0.67954856 0.0031107287
0.041376047 -0.014991345 -0.033166412 0.44901869 -0.54752147 -0.70611787 0.002045051
-0.010660763 -0.013415353 -0.033097029 -0.53571588 0.32673177 -0.7786237 0.00016540819
-0.0087136989 -0.012870975 -0.034173321 -0.5141409 0.33810148 -0.78825539 0.00018722733
-0.0064972555 -0.01232118 -0.035296433 -0.47458458 0.36354271 -0.80162722 0.00023899581
0.039801508 -0.013457646 -0.035079673 0.46278593 -0.55233568 -0.69336462 0.0017100687
0.042120401 -0.013314535 -0.033649627 0.46369311 -0.54813957 -0.69608307 0.0017758473
0.043858685 -0.012687928 -0.032779168 0.49304208 -0.50134552 -0.71102899 0.00074095099
0.049244124 -0.011712118 -0.033445146 0.072402522 -0.99627632 -0.046812031 0.16919994
0.050998751 -0.011854189 -0.03327506 0.51856077 0.65695131 -0.54727483 0.028287586
-0.0082225222 -0.010208705 -0.033282205 -0.47915739 0.37197703 -0.79501021 0.00031371097
-0.0057102935 -0.009696098 -0.034483872 -0.4408564 0.39570659 -0.8056438 0.00012391372
-0.0031255824 -0.0087643797 -0.035336576 -0.37894836 0.42947638 -0.81972444 0.00024129487
0.043522112 -0.0083269542 -0.035619926 0.37858209 0.72518599 -0.57513553 0.0048384201
0.0455321 -0.0086807143 -0.034652308 0.37879622 0.74009508 -0.55567324 0.00243112
0.04847417 -0.009988918 -0.034482341 0.50512129 0.71892655 -0.47749031 0.020685881
0.051032551 -0.010832564 -0.033689357 0.51845133 0.65716994 -0.54711592 0.028331166
-0.0051978631 -0.0070311101 -0.033420645 -0.41812024 0.41346702 -0.80883902 0.00038242465
-0.0025473144 -0.0066978331 -0.034503315 -0.35345095 0.44589981 -0.82234162 0.00016981503
3.0701747e-05 -0.0060965125 -0.035250559 -0.32697859 0.46917713 -0.8203401 0.00027395613
0.0019441607 -0.0054923506 -0.035605948 -0.3147096 0.48166147 -0.81789982 0.00014373708
0.037144881 -0.0054922984 -0.035608511 0.2613638 0.7027505 -0.66168773 0.00020494295
0.039584603 -0.0059767491 -0.035025213 0.31522143 0.69730139 -0.64374393 0.00021247442
0.042396694 -0.0067254961 -0.034277655 0.3693473 0.71210009 -0.59707296 0.00047073452
0.04498516 -0.0075640683 -0.033483267 0.43215314 0.7238189 -0.53789395 0.0017209807
-0.0042148824 -0.0050696493 -0.032915663 -0.36929649 0.45838335 -0.80839652 0.00053246773
-0.0022916924 -0.0042504026 -0.033281405 -0.34873998 0.46604156 -0.8131333 0.00038583024
0.00029842684 -0.0038615225 -0.034058567 -0.30118367 0.48409748 -0.82154608 0.00030144604
0.0032251552 -0.0036766788 -0.034977403 -0.26099345 0.50399858 -0.82332724 0.00038265905
0.0062021618 -0.0029879471 -0.03533297 -0.1900405 0.54786748 -0.81469369 0.00013365477
0.0085589448 -0.0026573301 -0.035608832 -0.14659855 0.57231814 -0.80682147 0.00015886732
0.028171876 -0.0026580379 -0.035552632 0.1650161 0.68360054 -0.71095705 0.00018804845
0.030580414 -0.0029774948 -0.035201717 0.19904464 0.69062948 -0.69527847 5.6408135e-05
0.033544619 -0.0033975143 -0.034729816 0.21830496 0.69720882 -0.68281972 9.5063369e-05
0.036339443 -0.0038587761 -0.034206253 0.26242054 0.6941666 -0.67027479 0.00019775753
0.039079793 -0.0045053288 -0.033670019 0.3339445 0.69913757 -0.63220865 0.00032042537
0.041203026 -0.0050659166 -0.033117931 0.37707466 0.70289952 -0.60311443 0.00037612446
0.00075833313 -0.0018670266 -0.033068147 -0.29348752 0.51551217 -0.80505419 0.00026273148
0.0035256655 -0.0012301642 -0.033499986 -0.23599568 0.52926737 -0.81497365 0.00034183337
0.0064978986 -0.00081306061 -0.033923078 -0.16576633 0.56351811 -0.80930144 0.00011725342
0.009301791 -0.00077448686 -0.034425091 -0.13140489 0.57652563 -0.80644333 0.00023227379
0.012339446 -0.00057450921 -0.034698691 -0.079244509 0.60349464 -0.79341942 0.00014049778
0.015448792 -0.00029925822 -0.034748681 -0.039294668 0.62125289 -0.7826243 0.00024575443
0.01828789 -0.00029892504 -0.034793966 0.017864529 0.64267141 -0.76593357 0.00029259088
0.021373862 -0.00036734127 -0.034657214 0.072940528 0.6577394 -0.74970567 0.00024579297
0.024428796 -0.00050597748 -0.034354404 0.13425338 0.67126173 -0.72896069 0.0002707672
0.027249558 -0.00095579406 -0.034155946 0.17690946 0.68578887 -0.70597214 0.0001159821
0.030195398 -0.001390626 -0.033751652 0.2094498 0.68780386 -0.6950227 4.1980747e-05
0.0331515 -0.0018302272 -0.033278607 0.23504858 0.69544107 -0.6790536 0.0001835632
0.035277575 -0.0022147209 -0.032918315 0.28009376 0.69811028 -0.6589306 0.00024934986
0.0076833782 0.0011156588 -0.032799523 -0.15273446 0.59002858 -0.79280418 0.00020848142
0.0095813572 0.0012747915 -0.03299481 -0.11536386 0.58945388 -0.79952192 0.00019913143
0.012428638 0.0014338184 -0.033184845 -0.068691075 0.60573214 -0.79269797 0.00022870065
0.015352121 0.0016161962 -0.033199713 -0.01953066 0.62576365 -0.77976817 0.00031523249
0.018250434 0.0015330355 -0.033240549 0.036230665 0.64556456 -0.76284581 0.00025425147
0.021228127 0.0013544013 -0.03313813 0.091394253 0.66069919 -0.74506623 0.00028479661
0.023857486 0.0011159837 -0.032930661 0.14519311 0.67126793 -0.72685504 0.00018995228
-0.017810082 -0.054168582 -0.030508567 -0.83425009 -0.18346217 -0.51996958 0.015466602
-0.017783567 -0.051820777 -0.03158826 -0.83256149 -0.2107486 -0.51227558 0.013640177
-0.016132222 -0.051782258 -0.032322925 -0.90829414 0.34817886 -0.2318906 0.1424261
-0.019583279 -0.047337547 -0.029799651 -0.8710984 -0.16668132 -0.46195772 0.00031600895
-0.018355433 -0.048595347 -0.031380326 -0.85382962 -0.16167627 -0.49480882 0.0036031362
-0.014144986 -0.048256215 -0.030790094 0.38240689 -0.82208514 -0.42183048 0.044973399
-0.011900623 -0.047898915 -0.030097097 0.29900295 -0.72276634 -0.62306178 0.0015533934
-0.0099870842 -0.047319584 -0.029940974 0.39932734 -0.69509321 -0.59781522 0.0026268323
-0.019629158 -0.045426983 -0.030295592 -0.84347373 -0.15487356 -0.51435995 0.0013326982
-0.018504139 -0.046206079 -0.031897817 -0.84612215 -0.13966961 -0.51436335 0.0013810678
-0.013431562 -0.046857223 -0.03232979 0.40816909 -0.58386427 -0.70178384 0.060973857
-0.011402115 -0.046347488 -0.031718485 0.29885215 -0.68429095 -0.6651566 0.001342411
-0.0089371344 -0.045567505 -0.031481426 0.36901584 -0.71919513 -0.5887152 0.0047697225
-0.0066256276 -0.044715445 -0.030329805 0.50403684 -0.7172032 -0.48121351 0.0038933915
-0.019778453 -0.042669132 -0.030770876 -0.86124867 -0.10822891 -0.49652514 0.00043472552
-0.019001171 -0.042991932 -0.032105412 -0.83932137 -0.11620869 -0.53106982 0.0013090051
-0.0075522787 -0.044140592 -0.032464188 0.38244751 -0.69004345 -0.61447054 0.008741173
-0.0055067441 -0.043081425 -0.031224582 0.52301908 -0.70164859 -0.48388046 0.0039124154
-0.0027935291 -0.041854389 -0.030325394 0.39023349 -0.70294237 -0.59463418 0.0039449781
-0.00063693122 -0.041569635 -0.029906299 0.40402365 -0.70533913 -0.58246166 0.0040658973
-0.019954881 -0.039670397 -0.030842472 -0.85692352 -0.045236416 -0.51345474 0.00024570417
-0.018987373 -0.039858542 -0.032415964 -0.8385365 -0.02387956 -0.54432189 0.00038929781
-0.0042175585 -0.041280374 -0.03248195 0.49131322 -0.72505498 -0.48260397 0.0058267401
-0.0021768431 -0.040493123 -0.031288963 0.41441244 -0.70650864 -0.57367939 0.0035891496
0.00013995753 -0.039578125 -0.031195905 0.3566896 -0.69126457 -0.62843132 0.0024773008
0.0025311303 -0.038905893 -0.03072517 0.42641267 -0.71332783 -0.55617958 0.002249561
-0.020041626 -0.036835369 -0.030805569 -0.8383314 0.0023480367 -0.54515588 0.00053053326
-0.018986087 -0.03675871 -0.032444935 -0.81739259 0.037259482 -0.57487476 0.00067512953
0.0011412582 -0.037824169 -0.032508072 0.38689953 -0.70182782 -0.59811902 0.002591769
0.0033615292 -0.037373565 -0.031952698 0.37158805 -0.70298254 -0.60641384 0.003286212
0.005895114 -0.036427286 -0.030991454 0.47024465 -0.7308985 -0.49462849 0.0030082171
-0.019995591 -0.033748016 -0.030738242 -0.81149685 0.052446149 -0.58199853 0.00073631178
-0.018834077 -0.033676147 -0.032293826 -0.77378935 0.09345635 -0.62651104 0.0010716366
0.0075563476 -0.035023347 -0.031501573 0.48605856 -0.74247551 -0.46095252 0.0014230087
0.0094911996 -0.033875454 -0.031183489 0.4745931 -0.74380308 -0.47065729 0.0013664255
0.011895782 -0.032739107 -0.030343208 0.45682657 -0.74445325 -0.48692802 0.0019403924
-0.019893449 -0.03086647 -0.030504264 -0.77561641 0.10785232 -0.62192208 0.0012101759
-0.018608158 -0.030681316 -0.032013241 -0.73349053 0.15305078 -0.66224402 0.00094116468
0.012790679 -0.03166122 -0.031491045 0.4339253 -0.76309192 -0.47895667 0.001008869
0.01522666 -0.030396177 -0.031032998 0.43365631 -0.76451063 -0.47693366 0.00077192939
0.017334353 -0.029722869 -0.030130915 0.43531281 -0.74526602 -0.50505573 0.00082146417
-0.019728802 -0.028126447 -0.030113332 -0.73348427 0.16480763 -0.65942341 0.00085287885
-0.018175667 -0.027692199 -0.031603824 -0.69299835 0.20041496 -0.69252229 0.00049362442
0.016755916 -0.028918615 -0.032190513 0.44040474 -0.77315187 -0.45637673 0.00048902724
0.018613569 -0.028384924 -0.031191614 0.42518479 -0.77095103 -0.474186 0.00085983943
0.021161268 -0.027147783 -0.030878857 0.41983452 -0.77176869 -0.47761083 0.00050317141
0.023093311 -0.026696762 -0.030006628 0.41567028 -0.77031952 -0.48355576 0.00054330967
-0.017812071 -0.02490174 -0.031106904 -0.67671931 0.21540147 -0.7040264 0.00033893809
-0.016006393 -0.024010913 -0.032506745 -0.6541093 0.23331456 -0.71951753 0.00011763207
0.022324696 -0.025907904 -0.032076661 0.42387995 -0.77385873 -0.4706043 0.00033689497
0.024362722 -0.025193483 -0.031320553 0.40612516 -0.78830677 -0.46220651 0.00082593737
0.027022853 -0.024134319 -0.030885085 0.40197945 -0.78151423 -0.47712481 0.0028935899
0.029799722 -0.023336699 -0.030071359 0.39273825 -0.77125525 -0.50092119 0.0029776306
-0.017162669 -0.021839371 -0.030777711 -0.64393276 0.22224292 -0.73209208 0.00011103019
-0.015407264 -0.021597782 -0.032218438 -0.63565481 0.23347972 -0.73581946 9.6379212e-05
0.028191723 -0.022921205 -0.032261901 0.43258241 -0.682033 -0.58966392 0.0029501917
0.030465743 -0.021872846 -0.031742234 0.41794404 -0.68843031 -0.59277856 0.0025965574
0.033064339 -0.021063846 -0.030818284 0.43195373 -0.70814461 -0.55852246 0.0028111062
0.035323169 -0.020467451 -0.029955667 0.39676487 -0.69620478 -0.59822786 0.0048910943
-0.016685976 -0.018953029 -0.030313592 -0.63719702 0.22723544 -0.73644012 0.00010352435
-0.01477193 -0.018570598 -0.031802908 -0.61741281 0.24203157 -0.74847984 0.00010466582
0.033566508 -0.019376507 -0.031800028 0.39702463 -0.7422545 -0.53984237 0.0062308479
0.036182895 -0.01878673 -0.030762263 0.39579388 -0.74719757 -0.5338943 0.0077291294
0.038638949 -0.017690791 -0.030344915 0.38429466 -0.76454115 -0.51748872 0.0067145284
-0.016340641 -0.016752632 -0.029933017 -0.62511379 0.24743675 -0.74027544 8.4155799e-05
-0.014504387 -0.015857115 -0.031139832 -0.59980327 0.25619015 -0.75802547 0.00016214147
-0.01255464 -0.015260875 -0.032451406 -0.57884735 0.27415746 -0.76796705 0.00014594875
0.040067963 -0.016856711 -0.031892054 0.3716698 -0.75189108 -0.54453772 0.0078178551
0.042528033 -0.015905971 -0.031413067 0.47266817 -0.63066995 -0.61550003 0.0077704531
0.044931944 -0.015128506 -0.030650973 0.46276194 -0.62093502 -0.63268554 0.0073523708
-0.014045221 -0.013032017 -0.030513741 -0.5778082 0.30254745 -0.75802559 0.00023865017
-0.011970568 -0.012688685 -0.031884354 -0.54954165 0.3108981 -0.77546531 0.00029459895
0.043264128 -0.013971459 -0.032436613 0.45827526 -0.54534882 -0.70183933 0.0024512084
0.045343932 -0.013346701 -0.031416193 0.5053094 -0.54267341 -0.67094558 0.0020384504
0.04733387 -0.012845234 -0.030239582 0.47283334 -0.62634939 -0.61977017 0.043768987
0.052325808 -0.012068521 -0.032365475 0.51957399 0.60847431 -0.5998348 0.024432888
0.054098539 -0.012043909 -0.030858081 0.55426031 0.67289346 -0.48990813 0.010995354
-0.013502522 -0.010717765 -0.029969964 -0.57026482 0.33771586 -0.74882978 0.00026760038
-0.011525501 -0.0098723592 -0.031033278 -0.53799397 0.34135553 -0.77073926 0.00023304316
-0.0093626603 -0.00937247 -0.032209627 -0.49138343 0.36045215 -0.79285342 0.00028787387
0.048747335 -0.0088281501 -0.031799607 0.47879067 0.69134575 -0.5411104 0.015129081
0.051278692 -0.0096432231 -0.031118419 0.4290663 0.70735496 -0.56173927 0.022071853
0.053603504 -0.010835757 -0.031211134 0.49072936 0.68290275 -0.54113632 0.025382742
-0.010940263 -0.0072944076 -0.030196354 -0.5102067 0.38440731 -0.76936346 0.0004289932
-0.0087646116 -0.0067703729 -0.031328741 -0.47732186 0.39803675 -0.78340954 0.00022449145
-0.0064421566 -0.0061914409 -0.032365121 -0.43414193 0.40383759 -0.80525517 0.00027037479
0.043186497 -0.005555226 -0.032421883 0.41064641 0.70879042 -0.5735727 0.00015643485
0.045490254 -0.0063943006 -0.031648349 0.45305476 0.69825411 -0.55424047 0.00055736757
0.047932573 -0.0073232432 -0.030709647 0.47642916 0.7085911 -0.52049392 0.00089469657
-0.0083021177 -0.0044878507 -0.030370057 -0.45480153 0.42566764 -0.78228039 0.00087106432
-0.0056926413 -0.0038721787 -0.031477883 -0.41873157 0.45777467 -0.78428704 0.00034523831
-0.0030670164 -0.0031341291 -0.032357115 -0.34690133 0.48619702 -0.80204231 0.00036101887
0.037463684 -0.0026959837 -0.032477465 0.29932407 0.70386499 -0.64418882 0.00029256014
0.039614104 -0.0031798212 -0.031896297 0.34281477 0.70144951 -0.62485725 0.00032564122
0.042253464 -0.0040551443 -0.031242404 0.39940327 0.70343417 -0.58792633 0.00027752228
0.044617876 -0.0048420811 -0.030415647 0.46368846 0.7013061 -0.5414452 0.00018266059
-0.0050887754 -0.0015880952 -0.030284319 -0.37550452 0.49092379 -0.78612351 0.00061987375
-0.0025244677 -0.0008343333 -0.031085927 -0.32925966 0.51072693 -0.79419529 0.00061639876
0.00014909368 -0.00040917023 -0.031905878 -0.28729773 0.53269833 -0.79604805 0.00033838046
0.0030650194 0.00033189179 -0.032365963 -0.2260465 0.56478047 -0.79367876 0.00037563138
0.0053053396 0.00063935813 -0.032704692 -0.16945943 0.5839349 -0.79391664 0.00030904126
0.028077735 0.00054338574 -0.03249998 0.18492705 0.68221545 -0.70737821 0.00012387849
0.030498462 0.00025562232 -0.032035798 0.21794061 0.6872406 -0.69296628 5.881938e-05
0.033392727 -0.00026735815 -0.031599261 0.25512314 0.69836134 -0.66873288 0.00035945448
0.036259227 -0.0010234348 -0.031190354 0.29415825 0.70229566 -0.64826816 0.00019155098
0.039117575 -0.0017062854 -0.030483834 0.36663458 0.70350134 -0.60882252 0.00033856655
-0.0017160189 0.0012285947 -0.029977102 -0.28531522 0.51259202 -0.80984235 0.0016930047
0.00045440788 0.0018182124 -0.030385524 -0.26891285 0.5306688 -0.80378884 0.00088244525
0.0033473303 0.0022199387 -0.031051464 -0.20472713 0.59112817 -0.78016293 0.00041237197
0.0063549704 0.0023954883 -0.03162666 -0.16354282 0.59308189 -0.78835756 0.00019136973
0.0092945118 0.0026513352 -0.031943806 -0.10671213 0.60575098 -0.7884658 0.00021487089
0.012144941 0.0028484149 -0.03206842 -0.053793948 0.61917466 -0.78340852 0.00012111446
0.015331458 0.0030216391 -0.03206221 -0.0014627457 0.63052058 -0.77617115 0.00028577395
0.018528933 0.0029265194 -0.032015704 0.053712577 0.64926106 -0.75866657 0.00023530015
0.021305121 0.0027839378 -0.031852927 0.10670295 0.66187435 -0.74198169 0.00021427743
0.024322068 0.0024305389 -0.031601168 0.14870606 0.67328364 -0.72427589 0.00010618669
0.027287761 0.0022415712 -0.03107544 0.19620855 0.67811239 -0.70828366 0.00024581794
0.030302944 0.0017853708 -0.030574158 0.23577254 0.69070852 -0.68361759 0.00014464001
0.032968935 0.0012889202 -0.030144747 0.2730847 0.69966513 -0.66022217 0.00024274204
0.0043987995 0.0039859205 -0.029861759 -0.18947609 0.56999189 -0.79950488 0.0014559091
0.0066049071 0.0042424626 -0.030189741 -0.15195501 0.60895008 -0.77851754 0.00013404617
0.0095202671 0.0045992462 -0.030438967 -0.10609005 0.62260991 -0.77530754 0.00024819394
0.012284553 0.0047008051 -0.030610982 -0.047402106 0.62881708 -0.77610701 0.00010611153
0.015338138 0.0046735178 -0.030714184 0.011011281 0.64288241 -0.76588583 0.00035195082
0.01839307 0.0047015534 -0.030505545 0.070439227 0.65544593 -0.75195009 0.0002337617
0.021324441 0.0044346461 -0.030352257 0.12117251 0.66850245 -0.73377228 0.00018104352
0.024046788 0.0041446448 -0.030089226 0.16376457 0.67495579 -0.71945524 0.00015598854
0.02598585 0.0039863228 -0.029781651 0.19885376 0.67974246 -0.7059797 0.00013031777
-0.019202689 -0.057028338 -0.027569886 -0.88777953 -0.24400207 -0.39026976 0.016283682
-0.018487528 -0.05681771 -0.027364876 0.94737625 -0.30675048 -0.091555536 0.088267088
-0.019150386 -0.054926328 -0.028747063 -0.9800086 0.11494429 -0.16239117 0.12537085
-0.018298754 -0.055013716 -0.028972279 -0.98419535 0.086752132 -0.15438138 0.11878313
-0.019560259 -0.051808707 -0.02787802 -0.91197115 -0.26626465 -0.31210852 0.11265609
-0.018761976 -0.052191537 -0.029385667 -0.90252221 -0.27904645 -0.32800418 0.12970826
-0.014824648 -0.050945308 -0.027737875 0.33216473 -0.72271067 -0.60609895 0.003735343
-0.012154751 -0.050735466 -0.02728112 0.30890265 -0.71790648 -0.62385046 0.004169764
-0.020066656 -0.04866739 -0.028267749 -0.88039249 -0.17896637 -0.4391813 0.00027903626
-0.01911643 -0.050014399 -0.029511284 -0.84574145 -0.18901737 -0.49899283 0.011512793
-0.014140003 -0.049553391 -0.029007211 0.57071406 -0.69141752 -0.44297549 0.040333062
-0.011609758 -0.049232267 -0.028661706 0.27326643 -0.71939105 -0.63859367 0.001269086
-0.0093317349 -0.048205331 -0.02838894 0.48434874 -0.6973595 -0.5282954 0.0037017323
-0.020678325 -0.045758713 -0.028176788 -0.88097656 -0.16176395 -0.44464898 0.00044043857
-0.0078151328 -0.046668064 -0.028578602 0.49285409 -0.70865101 -0.50488466 0.0031452542
-0.0055724559 -0.045455448 -0.027728103 0.41142234 -0.71395648 -0.56656659 0.0036106408
-0.0030158488 -0.044984516 -0.027208567 0.36968732 -0.70119584 -0.60963565 0.002050831
-0.021149445 -0.042716417 -0.028269377 -0.87607867 -0.12391737 -0.46597284 0.00037112681
-0.0046238899 -0.043890484 -0.028932579 0.44161353 -0.70621979 -0.5533815 0.0033674811
-0.0024695673 -0.043369923 -0.028680153 0.35977718 -0.70309746 -0.61336315 0.0032946244
6.2031555e-05 -0.042470507 -0.028055925 0.45622548 -0.70793873 -0.53914839 0.0029167142
0.0020256941 -0.041374251 -0.027348023 0.52403367 -0.71335465 -0.46531051 0.00019357698
-0.021487268 -0.039881669 -0.028206032 -0.86714989 -0.076304942 -0.49216732 0.00042520568
0.0012070026 -0.040848967 -0.02919624 0.41625041 -0.69921571 -0.58123392 0.0049098744
0.0032217032 -0.039924022 -0.028213575 0.5106405 -0.71542329 -0.47688144 0.00091391703
0.0054633054 -0.038769625 -0.027448371 0.48552004 -0.72998601 -0.48103085 0.00087076105
-0.022623725 -0.035640724 -0.026738059 -0.85552949 -0.04460277 -0.51582938 0.00034030518
-0.021547562 -0.036771718 -0.028411176 -0.85342479 -0.031139016 -0.52028513 0.00051661982
0.0044029611 -0.038244434 -0.02960239 0.47994676 -0.72171426 -0.49877825 0.0029373406
0.0068842764 -0.037228692 -0.028484609 0.47314048 -0.72289121 -0.50355375 0.0017747325
0.0092272339 -0.036181666 -0.027886454 0.45133024 -0.72305655 -0.52296293 0.0016003237
0.011448399 -0.035610914 -0.027047765 0.42529562 -0.71036714 -0.56080478 0.00057695049
-0.022620652 -0.033943426 -0.026795987 -0.84501916 -0.0019881898 -0.53473228 0.00031073054
-0.021573372 -0.033795808 -0.028400216 -0.83114135 0.025888884 -0.55545819 0.00029863237
0.010121141 -0.034643993 -0.028980579 0.45381984 -0.71837699 -0.52723992 0.0016675567
0.012418293 -0.033991989 -0.028269615 0.40822104 -0.73031068 -0.54772437 0.00059291581
0.014905399 -0.033102185 -0.027707245 0.41897309 -0.73135835 -0.53812331 0.00016795895
-0.022621833 -0.031770118 -0.026773732 -0.8411718 0.0099808387 -0.54067582 0.00016230103
-0.021426348 -0.030748904 -0.028418634 -0.80849952 0.071592934 -0.58412588 0.00051474618
0.015552532 -0.031746436 -0.028905433 0.4213337 -0.73020643 -0.53784436 0.00038705021
0.018150711 -0.030793257 -0.028231263 0.42314565 -0.72736871 -0.54026157 0.00023749009
0.020715635 -0.030000819 -0.027298432 0.414511 -0.72677004 -0.54770964 0.00010022497
-0.02119505 -0.027691318 -0.028275114 -0.76727873 0.12232241 -0.62953991 0.0013169614
0.019612506 -0.028984552 -0.029374938 0.42699254 -0.73428017 -0.5277406 0.00055400917
0.021641828 -0.028476223 -0.028557248 0.41074213 -0.73547721 -0.53885454 0.00017275052
0.02432891 -0.027494276 -0.027925644 0.41046286 -0.73742574 -0.53639871 0.00043571627
0.026723953 -0.026572324 -0.027342625 0.4068054 -0.73975098 -0.53598303 0.00074717525
-0.020619709 -0.024799347 -0.028228655 -0.71767694 0.16810735 -0.67578077 0.00041531597
-0.019113973 -0.023849562 -0.029566597 -0.69295537 0.19594564 -0.69384301 0.00045471432
0.025061896 -0.02603096 -0.02926999 0.41663837 -0.75264639 -0.50983906 0.00078393129
0.027441157 -0.025284035 -0.028445181 0.39807343 -0.76092637 -0.51237553 0.0010546506
0.030019375 -0.024233662 -0.028071433 0.38123527 -0.78739995 -0.48441803 0.0006257511
0.03216419 -0.023492543 -0.027688902 0.3947899 -0.78183597 -0.48256952 0.00068118167
-0.02032234 -0.021813499 -0.027846564 -0.69811225 0.18018509 -0.69294494 0.00039570965
-0.018733399 -0.021597546 -0.029290978 -0.67213923 0.20258288 -0.71217209 0.00023506051
0.031534154 -0.022899775 -0.029410686 0.40498319 -0.78303403 -0.47206593 0.00080242817
0.03377144 -0.022370039 -0.028570689 0.36865255 -0.78697485 -0.49473816 0.00084132672
0.036400039 -0.021351278 -0.028174244 0.3813481 -0.72199357 -0.5773204 0.0041485177
0.038798101 -0.020783843 -0.027276736 0.41087848 -0.6875335 -0.59872919 0.0032276467
-0.019825537 -0.019022865 -0.027525112 -0.68251789 0.21730994 -0.69781494 0.00016634597
-0.018102052 -0.018675542 -0.02900834 -0.64758873 0.21745555 -0.73030269 0.00010557752
0.03722731 -0.019705413 -0.029296089 0.40581122 -0.6439808 -0.64854145 0.00068908627
0.039384451 -0.019016312 -0.028433576 0.40194175 -0.66697043 -0.62737024 0.0023163534
0.041930407 -0.018126402 -0.027441032 0.3705506 -0.71021378 -0.59857213 0.0042787376
-0.019384941 -0.016286159 -0.027092934 -0.67518771 0.22998193 -0.7008779 0.00073010055
-0.017664263 -0.015739111 -0.028490365 -0.64037281 0.24818018 -0.72686273 0.00017978378
0.042896681 -0.017172053 -0.028722338 0.34235394 -0.80194664 -0.4895665 0.0020887356
0.045547754 -0.01643071 -0.028360605 0.34024617 -0.7573933 -0.5573042 0.0066158329
0.048199806 -0.015422367 -0.027773403 0.44755429 -0.61644876 -0.64783192 0.0036868704
0.050195627 -0.014846798 -0.026880346 0.48935169 -0.60906112 -0.62416303 0.0040362636
-0.017146667 -0.012952435 -0.027947545 -0.624264 0.28056404 -0.72909415 0.00035915599
-0.015344959 -0.012401588 -0.02926746 -0.60689485 0.29440019 -0.73824596 0.00035712132
0.048671111 -0.013389749 -0.028891116 0.50148749 -0.55812877 -0.66106164 0.0020880497
0.050707232 -0.013064221 -0.027543206 0.50022835 -0.55311126 -0.66621286 0.0011099548
0.055577822 -0.012200047 -0.029395252 0.27119109 0.93829811 -0.21459767 0.12677526
0.057129089 -0.012251849 -0.027985197 0.52273667 0.83197755 -0.18590246 0.10099272
-0.01658868 -0.010050443 -0.027112953 -0.59619087 0.29259083 -0.7476275 0.00092936278
-0.014685075 -0.0096279178 -0.028506521 -0.5706836 0.32995191 -0.75196534 0.00037384138
-0.012876663 -0.0087331822 -0.029495072 -0.55035096 0.34009963 -0.76252609 0.00017905355
0.051988401 -0.0088170702 -0.028629191 0.561746 0.72182328 -0.40424326 0.0030397198
0.053924713 -0.0099101113 -0.027997985 0.58661866 0.71703845 -0.37647626 0.0038008923
-0.014394778 -0.0070304819 -0.027607568 -0.53557581 0.31007284 -0.78550196 0.0010010541
-0.012096485 -0.0065414202 -0.029024225 -0.51616454 0.36976689 -0.77255851 0.00093409757
0.046627522 -0.0056097717 -0.029659163 0.47704098 0.69636905 -0.53619218 0.00017722385
0.048760142 -0.0062841661 -0.028455026 0.51981437 0.69520003 -0.49647743 0.00017935615
0.050922096 -0.007571314 -0.02792922 0.53602326 0.71221125 -0.45324856 0.00066495599
-0.013781333 -0.0044319588 -0.027024571 -0.49655992 0.32224175 -0.80597055 0.00041110255
-0.011715301 -0.0039550606 -0.028004874 -0.4843469 0.34663862 -0.80327439 0.0007832218
-0.0091860192 -0.0034805092 -0.029216483 -0.4441095 0.4099496 -0.79668564 0.0011526302
0.043236557 -0.0030559411 -0.029246829 0.44074684 0.70990205 -0.54934627 0.00063053123
0.045455147 -0.0038348727 -0.028316274 0.49365988 0.70194012 -0.5134005 0.00014403139
0.047581971 -0.0047554756 -0.027532078 0.51276284 0.70029974 -0.49664319 0.0002416115
-0.011220208 -0.0012280655 -0.027215164 -0.43751949 0.36220324 -0.82303429 0.00033063424
-0.0088211149 -0.00082159083 -0.028152838 -0.40434933 0.38628507 -0.82902682 0.00081938331
-0.0060486621 -0.00031843892 -0.029114619 -0.36432925 0.43828353 -0.82168835 0.0015266389
-0.0037554409 0.00062786933 -0.029598754 -0.31508023 0.49113184 -0.81210464 0.0013204927
0.036796868 0.00048940349 -0.029257551 0.31528029 0.70645845 -0.63365191 0.00016715538
0.039428305 -0.00017055357 -0.028497286 0.39214516 0.70128423 -0.59533411 0.00073496386
0.042024534 -0.0014083493 -0.028109346 0.43442824 0.70202166 -0.5643028 0.0001973709
0.044197038 -0.0021170885 -0.027206771 0.47880951 0.70414805 -0.52432537 9.7658572e-05
-0.0083661433 0.00190691 -0.027207013 -0.37697256 0.4146437 -0.82822835 0.0005540477
-0.0056183725 0.002260962 -0.028092604 -0.32683367 0.43424025 -0.83941364 0.00055245357
-0.002662306 0.0024436757 -0.029007718 -0.26602715 0.48431605 -0.83346713 0.00046248737
8.459168e-05 0.0031757217 -0.029410291 -0.22491062 0.5302583 -0.81746036 0.0013995487
0.0020034094 0.0035072803 -0.029605102 -0.21319084 0.55883914 -0.801404 0.0018259392
0.028160702 0.0035074069 -0.029571276 0.21495768 0.68587232 -0.69524997 0.00012134021
0.030548735 0.0031248282 -0.029137917 0.24808376 0.69228762 -0.67763728 0.00018679909
0.033557903 0.0026015625 -0.028464176 0.29191253 0.70255876 -0.64899778 0.00027614937
0.036263634 0.0019336708 -0.027885281 0.33161917 0.71156287 -0.61944085 0.00039088677
0.038616333 0.001295361 -0.027320962 0.39790982 0.70976317 -0.58129507 0.00038265274
-0.0050680609 0.0044081276 -0.027145248 -0.30940208 0.48611018 -0.81729257 0.00032391091
-0.0024540289 0.0050676852 -0.027669858 -0.25584054 0.49725869 -0.82902318 0.00034866933
0.00033063442 0.0051984736 -0.028295014 -0.19573957 0.50234586 -0.84222013 0.0005124092
0.0031793751 0.0052289288 -0.028775964 -0.16296756 0.53419107 -0.8295067 0.0011161332
0.0062021678 0.0056148884 -0.029013216 -0.11769906 0.58963764 -0.79904592 0.0011894078
0.0093075186 0.0060064113 -0.029267989 -0.081706434 0.61891514 -0.78119665 0.00081084529
0.012328992 0.0061491267 -0.029391397 -0.03406531 0.65429944 -0.75546789 0.00020230324
0.015205968 0.0061481381 -0.029485222 0.018862331 0.66169161 -0.74953884 0.00026808304
0.018434329 0.0061025475 -0.029257197 0.078644283 0.66790152 -0.74008286 0.00017801428
0.021538509 0.0058625196 -0.029009081 0.1301558 0.67452121 -0.72669154 0.00013968961
0.024461526 0.005542744 -0.028679308 0.17290984 0.68134135 -0.71124965 0.00015649822
0.027278829 0.0051629129 -0.028235719 0.21591653 0.6797415 -0.7009505 0.00011663957
0.030099021 0.0047103111 -0.027688526 0.27449459 0.69101202 -0.66869652 0.00019405651
0.032527886 0.0041600629 -0.027208451 0.31076667 0.70011508 -0.64285529 0.0001870157
-0.0013524796 0.0069008111 -0.026832264 -0.2564975 0.52775162 -0.80974513 0.00035203627
0.00057892757 0.0072770789 -0.027106792 -0.19437154 0.52994293 -0.82545757 0.00051413063
0.0032836227 0.0075862925 -0.027429733 -0.13065 0.551718 -0.82373405 0.00046787626
0.0063646706 0.0078571383 -0.027584393 -0.086603403 0.57057977 -0.81666315 0.00089017226
0.0094955666 0.007854864 -0.02775399 -0.047557238 0.60361737 -0.79585451 0.0012372053
0.012384743 0.0078533124 -0.027861275 -0.015242335 0.64560819 -0.76351672 0.00062332791
0.015276851 0.0078532891 -0.027867723 0.028823495 0.66716558 -0.74435163 0.00038389637
0.018154509 0.0077161323 -0.027814649 0.082671613 0.68066096 -0.72791904 0.00013883643
0.021263663 0.0075564869 -0.027504768 0.1405645 0.68269777 -0.71705323 0.00027331221
0.024196405 0.0071600303 -0.02718547 0.19045988 0.68921852 -0.69907296 0.00016407519
0.026194684 0.0069004237 -0.026864242 0.22101861 0.6907326 -0.68850499 8.0092592e-05
-0.019326668 -0.059636295 -0.024779391 0.96916866 -0.23598275 -0.070882045 0.085027613
-0.018853573 -0.05992585 -0.02448396 -0.89445847 -0.28734824 -0.34260035 0.013634593
-0.019573223 -0.0578654 -0.026040424 -0.91509348 -0.23186018 -0.32991621 0.015104179
-0.018473132 -0.058128957 -0.02581387 0.88343567 -0.239705 -0.40259516 0.07770744
-0.020059343 -0.054630931 -0.025183469 -0.92635459 -0.27168658 -0.26087081 0.12033901
-0.016619254 -0.054440625 -0.024423052 0.4271532 -0.76041204 -0.48919705 0.074687347
-0.014654302 -0.05393118 -0.024388839 0.26113418 -0.74283117 -0.61645007 0.0023737943
-0.012635646 -0.053586677 -0.024269097 0.30439305 -0.72356433 -0.6195156 0.0048798868
-0.020764576 -0.051804285 -0.025202006 -0.89353418 -0.2166422 -0.39327177 0.00010291444
-0.016358126 -0.053117245 -0.026221585 0.46686372 -0.73215199 -0.49597543 0.10057911
-0.014603892 -0.052453533 -0.025878608 0.22275601 -0.72500807 -0.65172309 0.0010556205
-0.011675129 -0.052030351 -0.025414925 0.31664321 -0.7197457 -0.6178214 0.0044805929
-0.0096823275 -0.05112445 -0.024593212 0.52795279 -0.68610048 -0.50053161 0.0017688971
-0.02229072 -0.047608651 -0.023835879 -0.8964597 -0.20037691 -0.39523309 3.4083914e-05
-0.021315262 -0.048905324 -0.025389597 -0.8957054 -0.19848916 -0.39788672 2.1648904e-05
-0.0081863822 -0.049119812 -0.025323629 0.48443201 -0.70147985 -0.52273464 0.0023841301
-0.0056780898 -0.048192918 -0.024814978 0.37124896 -0.7042833 -0.60511088 0.00086733769
-0.0034169382 -0.047683977 -0.024204191 0.45963386 -0.71504992 -0.52672589 0.0034048979
-0.022371033 -0.045564465 -0.024633959 -0.89313835 -0.19023743 -0.40757042 2.8655168e-05
-0.021610312 -0.046117797 -0.02606415 -0.89210218 -0.17579231 -0.41623411 6.1650484e-05
-0.0052235085 -0.046654031 -0.026293539 0.38207394 -0.69852138 -0.60505152 0.0023651258
-0.0024482284 -0.046102483 -0.02546443 0.42425844 -0.6981979 -0.57664937 0.002963711
-0.00031724869 -0.044861015 -0.024926778 0.52741832 -0.69659299 -0.48640326 0.00066491391
-0.022673009 -0.042776097 -0.025214028 -0.88723087 -0.1564873 -0.43397358 0.00033665024
0.00081073272 -0.043527745 -0.025430202 0.52327645 -0.70262581 -0.48218122 0.00059206027
0.0030489308 -0.042295486 -0.024890877 0.45520389 -0.71965933 -0.52428997 0.00063077058
0.0049772779 -0.041730784 -0.024138253 0.44266284 -0.72248185 -0.53110236 0.00048579997
-0.023128327 -0.039788123 -0.025244944 -0.87756443 -0.10638305 -0.46750766 0.00072199659
0.0041376711 -0.040715437 -0.026014995 0.48215178 -0.70711333 -0.51722366 0.0014445332
0.0063137216 -0.039961644 -0.025402259 0.41752201 -0.71367186 -0.56244808 1.4898278e-05
0.0088194935 -0.039174613 -0.024540234 0.4325833 -0.72142214 -0.5407604 0.00029312778
-0.023443924 -0.036820024 -0.025222357 -0.86457908 -0.076527029 -0.49663523 0.00034035914
0.0078360448 -0.038070582 -0.026614558 0.44340852 -0.71285844 -0.54334325 0.00083359011
0.0098263072 -0.037602108 -0.025831264 0.4325273 -0.7075848 -0.55878788 0.00039820737
0.012294785 -0.036520869 -0.025164835 0.43813354 -0.71980268 -0.538445 0.00030216246
0.014706377 -0.03563882 -0.024232026 0.43259576 -0.7249462 -0.53601664 0.00028048406
-0.023655776 -0.033701539 -0.025117744 -0.85086542 -0.016995586 -0.52510875 8.6528693e-05
0.013494605 -0.035048254 -0.026189152 0.42315 -0.72716069 -0.54053807 0.00057214138
0.015565837 -0.034311838 -0.025432367 0.43090901 -0.72621995 -0.53565109 0.00022302654
