# .PCD v0.7 - Point Cloud Data file format
VERSION 0.7
FIELDS x y z normal_x normal_y normal_z curvature
SIZE 4 4 4 4 4 4 4
TYPE F F F F F F F
COUNT 1 1 1 1 1 1 1
WIDTH 548
HEIGHT 1
VIEWPOINT 0 0 0 1 0 0 0
POINTS 548
DATA ascii
-0.026061183 -0.016628496 -0.0093600284 -0.52686423 -0.37485862 -0.7628206 0.00039731382
-0.02376627 -0.0171469 -0.010539481 -0.4835619 -0.37706515 -0.78993022 0.00025974185
-0.021419397 -0.017827028 -0.011545136 -0.42839277 -0.41236934 -0.80400944 0.00041506893
0.031164406 -0.018172093 -0.011258282 0.42079711 -0.7209838 -0.55055618 0.00014585127
0.033575166 -0.017290093 -0.01045583 0.4762454 -0.70960188 -0.51928365 0.00041203509
0.035779253 -0.016321005 -0.0097249374 0.5210042 -0.69047022 -0.50180209 0.00035776087
-0.028344743 -0.013377441 -0.0091213882 -0.56740463 -0.3298403 -0.75449139 8.9488247e-05
-0.026534449 -0.014021962 -0.0101569 -0.53982812 -0.32740465 -0.77549464 0.00013074758
-0.02440539 -0.014416409 -0.011380933 -0.51558137 -0.34715575 -0.7833637 0.00018252373
0.036807723 -0.014603969 -0.010831371 0.52752322 -0.67815298 -0.51169109 0.00034143863
0.038941562 -0.01343902 -0.010000614 0.55403203 -0.67941964 -0.48107949 0.00044523357
-0.029128397 -0.010875428 -0.0095582977 -0.58419937 -0.29747432 -0.75512922 0.00027954939
-0.026988534 -0.011267728 -0.010969963 -0.55371475 -0.31789592 -0.76963776 0.00014435303
0.03993446 -0.011949504 -0.010949187 0.53784949 -0.70389456 -0.46395096 0.00065430399
0.042005494 -0.010835622 -0.010193562 0.57444048 -0.70232999 -0.42041728 0.00069539883
-0.031112017 -0.0073242271 -0.0092141107 -0.63836402 -0.23995261 -0.73137826 0.00047012753
-0.029521754 -0.0080661718 -0.010372406 -0.60575241 -0.25605604 -0.75332552 0.00057541829
-0.02762611 -0.0087403171 -0.01150791 -0.58767825 -0.26905245 -0.7630499 0.0003128013
0.043551207 -0.0090590548 -0.0111553 0.59735394 -0.69945121 -0.39234725 0.00011751306
0.045229603 -0.0080159632 -0.010382947 0.60825473 -0.69278628 -0.38739312 0.00020275707
0.046989702 -0.0068152379 -0.0096815601 0.64026064 -0.67217761 -0.37181106 0.00027534578
-0.031654909 -0.0050316276 -0.0093145939 -0.66990477 -0.20163396 -0.71454281 0.00011205352
-0.029993858 -0.0050461544 -0.010814024 -0.63710904 -0.20474079 -0.7430836 0.00033592706
0.046543926 -0.0062974822 -0.011312746 0.62236857 -0.68224752 -0.38366085 8.4754523e-05
0.048417278 -0.0050490927 -0.010357147 0.66542917 -0.661448 -0.34596327 0.00022912577
0.050007913 -0.0037931786 -0.0097113624 0.67564684 -0.65885079 -0.3307822 0.00030362667
-0.032150701 -0.002219521 -0.0096636284 -0.68247545 -0.16075785 -0.71301061 0.00041987747
-0.03043402 -0.002315857 -0.011243394 -0.66031253 -0.16881092 -0.73177201 0.00033992334
0.049840271 -0.0032878951 -0.011030115 0.66924238 -0.66053236 -0.34031108 0.00018854247
0.051357377 -0.0021709702 -0.010094002 0.69385195 -0.65115494 -0.30751684 0.00018457563
-0.03232022 0.00048578682 -0.0099262632 -0.69388604 -0.107344 -0.71203893 0.00012170182
-0.030726209 0.00058782392 -0.011421279 -0.68945909 -0.13891374 -0.71087915 0.0011748543
0.052650094 -0.0005248473 -0.010665916 0.70043707 -0.64876229 -0.29748207 0.0002190785
0.054043431 0.0008173004 -0.010271369 0.71041811 -0.64298427 -0.28614223 0.00016498928
-0.032523997 0.0035464682 -0.010109361 -0.72709996 -0.11357604 -0.67707175 0.0010306954
-0.030943505 0.0029791684 -0.011568218 -0.7215637 -0.14599262 -0.67678064 0.001346817
0.055371795 0.0026111321 -0.010963261 0.73033631 -0.63270223 -0.25748122 0.00023701253
0.056753915 0.0038806216 -0.010078125 0.74232268 -0.62564719 -0.23983884 0.00019607726
-0.032697599 0.0064400388 -0.010320144 -0.77296358 -0.096561007 -0.62705916 0.0010925712
0.058087125 0.0057541495 -0.010706472 0.75685459 -0.61844373 -0.21142043 0.00020102246
0.059234254 0.0070204902 -0.01031851 0.75711 -0.61891633 -0.20910977 0.00025907235
-0.034154352 0.010331193 -0.0090004485 -0.81066924 -0.073187202 -0.58091223 0.00041826948
-0.032884922 0.0094202254 -0.010539693 -0.79765761 -0.089288563 -0.59646451 3.9722599e-05
0.060678814 0.0090201963 -0.010737784 0.78297085 -0.59405953 -0.18452606 0.00046453698
-0.034127347 0.012588462 -0.0093422662 -0.82099521 -0.029626638 -0.57016581 0.00059306982
-0.033005543 0.012532301 -0.01083534 -0.80724567 -0.042613484 -0.58867526 0.00031215636
-0.034135234 0.015617985 -0.0092424676 -0.83315969 0.03654445 -0.55182374 0.00033189292
-0.032997992 0.015541552 -0.010934649 -0.8262043 0.0086934734 -0.56330353 0.00041050123
-0.03415915 0.017649667 -0.0089396909 -0.85149938 0.066444263 -0.52012891 0.00013673877
-0.033019915 0.018569319 -0.010649601 -0.83980292 0.04149618 -0.5413031 0.00025365813
0.067107767 0.019787211 -0.011335507 0.47009757 0.64878219 -0.59840614 0.025854507
0.068438783 0.018806804 -0.010888636 0.55244529 0.59551787 -0.58323467 0.024387227
-0.033045117 0.021603849 -0.010320723 -0.85308802 0.085099742 -0.51478052 0.00015253871
0.057878867 0.022505438 -0.010986511 0.34999192 0.75434345 -0.55540234 0.004693843
0.060383692 0.022349605 -0.010469705 0.17997515 0.82354361 -0.53794509 0.001344883
0.06347318 0.022076666 -0.010239708 0.21837196 0.79459912 -0.56650323 0.00304567
0.066106483 0.021037353 -0.009984958 0.4198572 0.73658168 -0.53025222 0.013727576
0.068538412 0.020682359 -0.0097303884 0.47608766 0.71034497 -0.51841152 0.01380025
-0.032621108 0.024616634 -0.010387023 -0.84755653 0.14042212 -0.51179051 0.00030393101
0.052793443 0.025797429 -0.011467494 0.4600302 0.69299316 -0.55509698 0.00034273544
0.0546831 0.025065361 -0.01072645 0.47734228 0.68728715 -0.54752231 0.00034907326
0.057112325 0.024001272 -0.0098080393 0.39407426 0.72110033 -0.56984192 0.0033488784
0.060178213 0.023444111 -0.0090679666 0.19284531 0.80692422 -0.55828667 0.0034262447
-0.032035995 0.027442604 -0.01036706 -0.8634268 0.15433916 -0.48028496 0.0011530358
0.049043637 0.028440103 -0.011158424 0.41589642 0.66719627 -0.61796379 0.0024553703
0.051400229 0.027513187 -0.010413924 0.44322354 0.69821143 -0.56218648 0.00033029367
0.053655248 0.026780657 -0.0094329994 0.46553811 0.70005172 -0.5414812 4.8016769e-05
-0.031730033 0.030433204 -0.0099602155 -0.88851875 0.14684188 -0.43470892 0.0013892989
-0.030936288 0.031296767 -0.011669038 -0.89379597 0.11634244 -0.43312019 0.00044450819
0.043384008 0.031628095 -0.011306955 0.34410155 0.68222469 -0.64510733 0.0031468957
0.045582458 0.0309103 -0.010611569 0.41981193 0.66878033 -0.61358845 0.0019641439
0.048037697 0.029928332 -0.0099862646 0.43262774 0.71317852 -0.55155206 0.00033179938
-0.031601787 0.033250369 -0.0094128773 -0.9050827 0.17749792 -0.38641924 0.00029442116
-0.030827161 0.03387602 -0.010858553 -0.90087563 0.16339129 -0.40215209 0.00030436338
0.037111383 0.034383178 -0.010804333 0.43796971 0.62319779 -0.64792514 0.0043870453
0.039558142 0.033761624 -0.010698155 0.34904993 0.64811957 -0.67683464 0.003961151
0.04210965 0.033172023 -0.010306925 0.32526022 0.6623435 -0.67491257 0.0027110893
0.044385504 0.032627195 -0.0093299821 0.39973691 0.70286953 -0.58837473 0.0013875305
-0.031109896 0.035786007 -0.0092437342 -0.90470392 0.21575312 -0.3673709 0.00016000624
-0.030311661 0.036867384 -0.010570925 -0.90420526 0.21697389 -0.36787933 0.00011358103
0.033905089 0.037253946 -0.010840164 0.46469057 0.63901502 -0.61296207 0.001943695
0.036366772 0.036373284 -0.0099590793 0.39808273 0.6322189 -0.66470248 0.0030356625
0.03888388 0.03580397 -0.0094349552 0.36064711 0.66046196 -0.65857691 0.0041413149
-0.029666936 0.03974431 -0.010446733 -0.90514338 0.23094067 -0.35690603 0.00033902514
0.028346501 0.040675651 -0.011141887 0.42120057 0.68942928 -0.58930242 0.00044423534
0.030646494 0.039824311 -0.01041249 0.43332285 0.67301309 -0.59940356 8.0849866e-05
0.033163887 0.038883209 -0.009662699 0.42470294 0.66621572 -0.61301225 0.00029213654
-0.028908469 0.04269414 -0.010343288 -0.90831137 0.26275066 -0.32547286 0.00052607962
0.022458211 0.043855995 -0.011415727 0.4093644 0.70578218 -0.57818019 0.00079596293
0.024712419 0.043195892 -0.010606445 0.40372756 0.72927433 -0.55241567 0.00027987128
0.027405165 0.04208215 -0.010114373 0.40144694 0.71549237 -0.57176131 0.00056066195
0.02965357 0.041593336 -0.0091601387 0.41556033 0.69652945 -0.58494139 0.00022686453
-0.028411629 0.045433819 -0.0093833189 -0.9106915 0.29151312 -0.29267925 0.00039384735
-0.027800934 0.045654379 -0.011058497 -0.91653013 0.26868841 -0.29627541 0.00031606088
0.016439117 0.046863042 -0.011432953 0.33344632 0.728284 -0.59867847 0.00043852578
0.018708447 0.04640178 -0.010644237 0.354022 0.73189223 -0.58223891 0.00022464916
0.021373525 0.045254335 -0.010307796 0.39143932 0.71863335 -0.57475328 0.00025814152
0.023513004 0.0447786 -0.0092360852 0.415618 0.71300161 -0.5647037 0.0002797957
-0.026989572 0.048607908 -0.010658463 -0.91344923 0.30800828 -0.26597261 0.00040978182
0.010509234 0.04972484 -0.011279601 0.43973541 0.70905048 -0.55125344 0.0010285296
0.012545276 0.049193777 -0.010681372 0.38094717 0.71183825 -0.5900557 0.00030205189
0.015310583 0.048240814 -0.010249456 0.33978316 0.73488855 -0.5869295 0.0002553798
0.017890157 0.047712166 -0.0094335154 0.35923165 0.73629731 -0.5734272 0.00010332056
-0.025907747 0.051747143 -0.010537498 -0.91294444 0.33219573 -0.23701999 0.00024529896
0.0068223132 0.052533701 -0.010565616 0.42779431 0.72179312 -0.544065 0.00088170916
0.0093635553 0.051416084 -0.010113558 0.40438551 0.70582563 -0.58162057 0.0010174447
0.01164106 0.050838415 -0.0094218515 0.38682601 0.70438385 -0.59515458 0.00037845728
-0.024823047 0.054690778 -0.01045654 -0.91569877 0.33950812 -0.21501155 0.00034388134
0.0010624918 0.055771872 -0.011093947 0.44057843 0.72688001 -0.52681702 3.3109856e-05
0.0034137038 0.054784212 -0.010391332 0.44648275 0.71527916 -0.53761417 0.00019702614
0.0059173363 0.053933281 -0.009475762 0.41856638 0.70426148 -0.57342643 0.00081781164
-0.023823127 0.057220191 -0.010352252 -0.91719013 0.33902735 -0.20933898 0.0003615866
-0.0046248194 0.058915969 -0.011322208 0.37260178 0.73288321 -0.56925392 0.00018621878
-0.0024270928 0.058228552 -0.010596676 0.41291657 0.72869271 -0.54635781 0.00017830917
0.00014797517 0.057107411 -0.0099765584 0.43530002 0.72141486 -0.53858572 0.00014775094
0.0026737037 0.056229159 -0.0090851262 0.42504904 0.71783996 -0.55139738 0.00059627974
-0.010977722 0.061751772 -0.011365486 0.51381969 0.62427658 -0.58844548 0.0065464689
-0.00858289 0.061212998 -0.010654856 0.37526065 0.72280598 -0.58028519 0.0028285144
-0.0058138669 0.060313188 -0.010241567 0.35817832 0.74369889 -0.56446463 0.00023099571
-0.0033780341 0.059721574 -0.00933633 0.41873321 0.73097903 -0.53882474 5.2731084e-05
-0.013566865 0.064745814 -0.011459289 0.59606826 0.57889277 -0.55640435 0.0031651263
-0.011989842 0.063614585 -0.010658944 0.602781 0.56809646 -0.560287 0.0057666623
-0.0089258784 0.062519826 -0.0091748759 0.3807945 0.73783928 -0.5573048 0.0023909027
-0.019902825 0.067858651 -0.011821397 0.17406993 0.84261531 -0.50960672 0.019690096
-0.0165396 0.06757322 -0.011300728 0.42754334 0.70389503 -0.56721997 0.024750788
-0.014690028 0.066618554 -0.010280918 0.56788617 0.59855044 -0.56501561 0.0018585542
-0.012618613 0.066015959 -0.0093765631 0.60321623 0.57781351 -0.54978335 0.0045609111
-0.019434163 0.068742178 -0.011072211 0.3712337 0.65022856 -0.66286373 0.028092133
-0.017659901 0.069389209 -0.010479038 0.41942415 0.67905569 -0.60246724 0.026020439
-0.015815502 0.068475381 -0.009243397 0.56572574 0.6089772 -0.55596864 0.0016990971
-0.0046611214 -0.033787206 -0.0059935232 -0.05505766 -0.60368073 -0.79532278 0.0014884174
-0.0033905292 -0.03378585 -0.006011345 -0.015110319 -0.62684631 -0.77899635 0.0011917023
0.00092877832 -0.033781387 -0.0060708155 0.022678699 -0.65846771 -0.75226724 0.0010981658
0.0029620244 -0.033786099 -0.0060081561 0.078940108 -0.68115425 -0.72787184 0.00038299442
-0.016350145 -0.031246049 -0.0059944917 -0.26186344 -0.47754726 -0.8386752 0.00061892357
-0.014436854 -0.031609952 -0.0062427996 -0.1988326 -0.48028749 -0.85427719 0.00060082343
-0.01170976 -0.0319422 -0.0064661196 -0.14750329 -0.52632767 -0.83739001 0.00081439235
-0.0087158214 -0.032214869 -0.0066706846 -0.11755175 -0.57552296 -0.80929279 0.0016427237
-0.0056672445 -0.032181688 -0.0071395775 -0.079214074 -0.61202347 -0.78686237 0.0016170196
-0.0025565331 -0.03230055 -0.0074137268 -0.026767144 -0.64191341 -0.76630974 0.00057800917
0.00034884224 -0.032246154 -0.0075689186 0.0039190566 -0.6598466 -0.7513901 0.00021217433
0.0034512365 -0.032157052 -0.0074836481 0.079576999 -0.67791551 -0.73082012 0.00024796647
0.0064242682 -0.032109879 -0.0071300594 0.1260574 -0.68258148 -0.71985561 0.00020082452
0.0094466545 -0.031802747 -0.0067555895 0.18164299 -0.68475395 -0.70577461 0.00027233793
0.01235462 -0.031395558 -0.006281672 0.22668743 -0.68909603 -0.68830186 0.00016950809
-0.019847773 -0.028539404 -0.006205033 -0.31765482 -0.43573788 -0.84215665 0.00029084153
-0.01744752 -0.029306889 -0.0065948148 -0.26834196 -0.46167627 -0.84548658 0.00046451346
-0.014747035 -0.029344477 -0.0073482748 -0.21886535 -0.50528038 -0.83473927 0.0013114854
-0.011858493 -0.029656122 -0.0078354198 -0.19447653 -0.54373145 -0.81641591 0.0020124335
-0.0088415379 -0.030181862 -0.0082321502 -0.15939985 -0.60740709 -0.77823406 0.00075173378
-0.0056530717 -0.030555861 -0.0086751012 -0.11314155 -0.62923902 -0.76893258 0.0003890901
0.0041912338 -0.030547649 -0.0087961629 0.06017603 -0.65758669 -0.75097179 0.00019296749
0.0067197033 -0.030436415 -0.0085758828 0.11121748 -0.66980243 -0.73416305 0.00026458997
0.0096574221 -0.030178981 -0.0082755163 0.15523317 -0.68857813 -0.70835215 0.00057240383
0.012700149 -0.029872037 -0.0077410964 0.21449077 -0.69697708 -0.68426365 0.00050427637
0.015517243 -0.02925094 -0.0074003343 0.26085129 -0.69828647 -0.66659778 0.00013117789
0.018197868 -0.028745588 -0.006869013 0.30988154 -0.68582219 -0.6584993 0.00036569356
0.020352609 -0.028305357 -0.0062925597 0.36027968 -0.66446835 -0.65473682 0.00026308102
-0.022999087 -0.025865879 -0.0062777363 -0.37198845 -0.4056606 -0.83490366 0.00065361033
-0.020485753 -0.026429616 -0.0070125023 -0.33143064 -0.45115995 -0.82861835 0.0005948302
-0.017805256 -0.026461123 -0.0080289915 -0.3349641 -0.48548168 -0.80753112 0.0008460278
-0.015278498 -0.027253602 -0.0085475091 -0.27092424 -0.54837078 -0.79113179 0.0010304608
0.01655806 -0.027519403 -0.008791171 0.27294621 -0.67429984 -0.68616325 0.0001711019
0.018857194 -0.02704696 -0.0082493313 0.30566797 -0.661587 -0.68474066 0.00042807771
0.021424904 -0.026377864 -0.0075320392 0.33979031 -0.66409117 -0.66597706 0.00064740528
0.0239718 -0.025681311 -0.0067565423 0.37882876 -0.69321781 -0.61313778 0.0015492879
-0.025734574 -0.022826279 -0.0062997765 -0.44201359 -0.36038312 -0.82143044 0.0011891614
-0.023475781 -0.02336769 -0.007226313 -0.40682101 -0.43251434 -0.80462903 0.0011530336
-0.020975418 -0.023759123 -0.0083009209 -0.38227436 -0.46561995 -0.79816306 0.0010593833
-0.019028138 -0.024491085 -0.0087862089 -0.34364533 -0.5110724 -0.7878533 0.00032437828
0.022862626 -0.02448645 -0.0088729039 0.32463846 -0.72294545 -0.60988492 0.00095124717
0.024708541 -0.024247708 -0.0080838716 0.34150016 -0.72647202 -0.59633547 0.00068875245
0.027289052 -0.023405144 -0.0074561546 0.40691471 -0.73111385 -0.54762483 0.00018067966
0.029776378 -0.022410145 -0.0069159409 0.44889081 -0.7182157 -0.53166085 0.00033169761
-0.028408973 -0.019423051 -0.0061694686 -0.50041866 -0.33708435 -0.79746807 0.0015281959
-0.026412008 -0.020236136 -0.0071210125 -0.50564551 -0.35961404 -0.78421956 0.00075852749
-0.02414785 -0.020841405 -0.0083090179 -0.46148723 -0.43589628 -0.77267325 0.00063848525
0.030655047 -0.021033777 -0.0078956475 0.4553206 -0.71168995 -0.53495854 0.00035851658
0.033117279 -0.019824613 -0.0072980793 0.48751578 -0.70776767 -0.51126635 0.00025859295
0.035206784 -0.019036962 -0.0062955101 0.52286571 -0.70563638 -0.478214 0.00036999525
-0.029040881 -0.017071001 -0.0068653678 -0.55480605 -0.35068148 -0.75446188 0.00081442087
-0.027022829 -0.017594691 -0.0081885625 -0.53239697 -0.38332954 -0.75472641 0.00043738048
0.034357879 -0.01828647 -0.0082380846 0.49900594 -0.7101593 -0.49665567 0.00066336116
0.036459804 -0.017334625 -0.007381558 0.53742397 -0.70249689 -0.46655512 0.00036919001
0.038593303 -0.016103113 -0.0067209085 0.57577068 -0.68421429 -0.44759241 0.00029571811
-0.031665806 -0.013650139 -0.0064445874 -0.60707217 -0.32833755 -0.72364211 0.00025005863
-0.029617259 -0.014310896 -0.007763511 -0.57094193 -0.33537048 -0.74936771 7.5341297e-05
-0.027609875 -0.015405489 -0.0087762251 -0.53950089 -0.34480071 -0.76814806 0.00030089144
0.039634131 -0.014575413 -0.0077168457 0.58001715 -0.67389619 -0.45765039 0.00037868929
0.04156201 -0.013262942 -0.0070309816 0.60747159 -0.66375887 -0.4363513 0.00038541347
-0.032270968 -0.011038528 -0.0069603762 -0.63910592 -0.26464775 -0.72215313 0.00071068876
-0.030327361 -0.011459428 -0.0084140226 -0.60023481 -0.28290194 -0.74812073 0.00040988842
0.042895619 -0.011603654 -0.0075851139 0.62747544 -0.67362458 -0.39051816 0.00048119732
0.044574048 -0.010216746 -0.0072929841 0.62331277 -0.68725622 -0.37304169 0.00040191278
-0.034380585 -0.0073584104 -0.0061362563 -0.69365937 -0.20541938 -0.69039088 0.00019667741
-0.032612164 -0.008171184 -0.007567198 -0.66466367 -0.22240093 -0.71327418 0.00029435288
0.046059642 -0.0087137334 -0.007789637 0.63817537 -0.68690366 -0.34770033 0.0003395261
0.047635999 -0.0072402367 -0.007667263 0.65766317 -0.67325038 -0.33795422 0.00024781228
-0.034581196 -0.0049549043 -0.006519339 -0.70170498 -0.16656734 -0.69272316 0.00033688237
-0.033081055 -0.0051706405 -0.0079599135 -0.68900985 -0.18424392 -0.70094204 0.00018674112
0.04909835 -0.0056776302 -0.0077701802 0.68430036 -0.6579591 -0.31436098 0.00013950461
0.050735727 -0.004204975 -0.0071776947 0.70477653 -0.64314747 -0.2994186 0.00022411501
-0.034832805 -0.0022790059 -0.0068383953 -0.72603631 -0.13618433 -0.67403644 0.0002035639
-0.033480778 -0.0023930124 -0.0082880668 -0.70131361 -0.15178977 -0.69650495 0.00030727455
0.052027043 -0.0026848302 -0.007375719 0.71991712 -0.63558334 -0.27884239 0.0001696119
0.053386625 -0.0012651966 -0.0070580323 0.72917134 -0.63230634 -0.26172087 0.00018509055
-0.035064742 0.00050817523 -0.0071119 -0.73820496 -0.092469208 -0.66820872 0.00026130208
-0.033679016 0.00049609097 -0.0086252419 -0.71352857 -0.096484661 -0.69395077 0.00045699655
0.054617986 0.00039604667 -0.0075828983 0.746355 -0.62147856 -0.23815668 0.00027474359
-0.035150867 0.003625578 -0.0072545144 -0.75190347 -0.0323865 -0.65847731 0.00018427199
-0.033660688 0.0022608801 -0.0088609532 -0.70943141 -0.091490097 -0.69881094 0.00034113679
0.05715362 0.0034194791 -0.0072987159 0.76639563 -0.60754919 -0.20861863 0.00011285669
-0.035147745 0.0065082079 -0.0072933044 -0.77568305 -0.02074399 -0.63078171 0.0011890599
0.058774628 0.0058048386 -0.0083270743 0.78406018 -0.59644544 -0.17176305 0.00023902488
0.059916876 0.0070879329 -0.0074468036 0.79039919 -0.58944273 -0.1668122 0.00012139173
-0.03514519 0.0095126377 -0.0074598626 -0.82471621 -0.013806 -0.56537825 0.0013198573
0.061970703 0.0098800678 -0.0072720726 0.78878689 -0.58997071 -0.17248139 0.00018138239
-0.035278942 0.012654448 -0.0075918501 -0.84709758 -0.0070297341 -0.53139085 0.00039684813
-0.035296831 0.015702248 -0.0073715923 -0.85458654 0.047143128 -0.51716465 0.0002470747
-0.034950662 0.018734964 -0.0074795401 -0.85767305 0.088643976 -0.50649703 0.00015453289
0.069466919 0.019726785 -0.0078662112 0.44874167 0.69070411 -0.56706148 0.014442206
-0.034726884 0.02165346 -0.0073727746 -0.87005162 0.10773897 -0.4810431 0.00031021284
0.064780131 0.02296369 -0.0086864904 0.25139126 0.76777774 -0.58933842 0.003077426
0.066763647 0.022426957 -0.0080412999 0.37860978 0.69444484 -0.61188316 0.01386874
0.069077887 0.022015434 -0.0071917064 0.41348156 0.68946141 -0.59470659 0.012645053
-0.034550417 0.024735577 -0.006908373 -0.87326145 0.13957311 -0.4668338 0.00033727841
-0.033697031 0.025003666 -0.0083935875 -0.86294377 0.13837057 -0.48598522 0.00033769466
0.05570649 0.0260003 -0.0085836723 0.45922938 0.68831801 -0.56153959 0.00041888101
0.057737309 0.025364703 -0.0078986874 0.39760053 0.71617776 -0.57358807 0.0010648762
0.060216226 0.024665046 -0.0072445543 0.25275955 0.77254689 -0.58248085 0.0049319118
0.063395508 0.024150068 -0.0075494279 0.16576575 0.79832137 -0.5789687 0.0029597974
0.065894119 0.023991363 -0.006693752 0.30869719 0.75180703 -0.58265966 0.0013249405
-0.034349538 0.027414074 -0.0065293093 -0.86904991 0.20354903 -0.45091021 0.00060846173
-0.033389471 0.02807592 -0.0078503247 -0.86410826 0.19607052 -0.46354422 0.00065921672
0.052177623 0.028755348 -0.0080606826 0.44151476 0.71028602 -0.54823226 0.00017469979
0.054596808 0.027814811 -0.0072892774 0.43862244 0.68626088 -0.58022112 0.00020643312
0.0568836 0.027033171 -0.0065312502 0.41075733 0.69547749 -0.58956718 0.0002158831
-0.032877002 0.030717073 -0.0074273404 -0.88028598 0.21022448 -0.42532611 0.0016511352
0.046380259 0.032072462 -0.0084437653 0.43628517 0.71612698 -0.54480952 5.3067826e-05
0.048585746 0.031249279 -0.0077150636 0.43794075 0.71219677 -0.54861981 0.00012131194
0.051082261 0.03016079 -0.0070916447 0.43193582 0.70992786 -0.5562678 0.0004300733
0.053515088 0.029477259 -0.0061036428 0.42508096 0.69464976 -0.58031708 0.00025955739
-0.032311302 0.033635546 -0.0073298626 -0.90544933 0.18736964 -0.38085964 0.00056322903
0.042668793 0.034586009 -0.0081209866 0.40967417 0.70688468 -0.57661182 0.0015033183
0.045402288 0.033587761 -0.0071877404 0.43801367 0.7093668 -0.55221623 4.8676571e-05
0.048150565 0.032504629 -0.0063495045 0.42575198 0.70051467 -0.57272547 0.00025157171
-0.031716011 0.036641449 -0.007156827 -0.9154461 0.22687949 -0.3323915 0.00020685821
0.036959495 0.037808262 -0.0083420407 0.40237293 0.63155192 -0.66275054 0.0034810973
0.039536394 0.036938097 -0.0076287719 0.40464625 0.69074237 -0.59928 0.00078261434
0.04216399 0.03591723 -0.0067788651 0.43960789 0.70269585 -0.55943137 7.5816031e-05
-0.031282928 0.038804118 -0.0068264683 -0.91240674 0.2517412 -0.32270786 0.00029675997
-0.030625291 0.039889898 -0.007768455 -0.9122349 0.25139573 -0.32346195 0.00029232065
0.031219488 0.041159403 -0.008504726 0.41800857 0.69282025 -0.58759588 0.00030765304
0.033622723 0.040258724 -0.0077860453 0.42145601 0.69077581 -0.58754033 6.8013745e-05
0.036175802 0.039282382 -0.007110544 0.41109079 0.6816532 -0.60527128 0.00055349269
0.038621329 0.038462754 -0.0064334427 0.42427903 0.7009539 -0.57328081 0.00013288722
-0.029836155 0.042712841 -0.0075930287 -0.91064197 0.29113251 -0.29321161 0.00035457415
0.025405355 0.044181287 -0.0085817054 0.40859428 0.71925992 -0.56188613 0.00040876423
0.027746677 0.043458741 -0.0080253202 0.39650851 0.72516209 -0.56295741 0.0002735756
0.030278487 0.042733382 -0.007299826 0.40236008 0.70918286 -0.57893527 0.00037979052
0.032842264 0.041715223 -0.0066386661 0.43070996 0.68801439 -0.58405918 5.2527663e-05
-0.028937144 0.0458817 -0.0070208926 -0.9105106 0.31581995 -0.26688614 0.00025314689
0.021880802 0.046503376 -0.0084043657 0.40208885 0.71909654 -0.56676692 0.00037188336
0.024387963 0.04583101 -0.0074520959 0.40803754 0.71172541 -0.57179731 0.00031125796
0.026888026 0.044811506 -0.0068328595 0.3848457 0.71842527 -0.57944703 0.00022727907
-0.028194407 0.047593024 -0.0075336178 -0.90908033 0.33957651 -0.24137256 0.00040981569
-0.027508005 0.049340505 -0.0077213524 -0.91474718 0.33080351 -0.23196264 0.00039937955
0.016109623 0.049510896 -0.0081534497 0.35451573 0.73344588 -0.57997912 0.00020423191
0.018566169 0.048915535 -0.0074902987 0.35534433 0.73849738 -0.57302004 0.00010880475
0.021244051 0.048034113 -0.0068919654 0.3821061 0.72059095 -0.57857031 4.2628286e-05
0.023282425 0.047510512 -0.0061338176 0.4034138 0.71061438 -0.57644129 0.00012514886
-0.026678277 0.051649615 -0.0074871038 -0.91112614 0.35685381 -0.20616622 0.00023460975
0.010179317 0.052637734 -0.0082912622 0.40267098 0.68674791 -0.60517216 0.00013718236
0.012656369 0.051851116 -0.0075348206 0.40617976 0.69424957 -0.59416801 0.00015341856
0.015180721 0.050927788 -0.0069026612 0.37087113 0.72832888 -0.57618707 0.00019032355
0.017184621 0.050555244 -0.0061611165 0.35635555 0.73560798 -0.57610047 0.00016331743
-0.025396833 0.054652423 -0.0077486117 -0.91080153 0.3628791 -0.19687392 0.0001100287
0.0043223379 0.055684749 -0.0084828511 0.41766801 0.69310892 -0.58749759 0.00063561648
0.0066651544 0.055208091 -0.007571538 0.38226017 0.69461924 -0.60941058 1.082012e-07
0.0093092956 0.05417382 -0.0071118651 0.39434931 0.69064611 -0.60621506 6.9421323e-05
0.011594407 0.053594459 -0.0062256982 0.42239168 0.68916088 -0.58876359 5.5989145e-05
-0.024622338 0.056380786 -0.0080350712 -0.91264307 0.36012578 -0.19337022 0.00010099107
0.00073356472 0.058503184 -0.0075969994 0.41012126 0.71585029 -0.56511849 0.0005474785
0.0033634165 0.057380922 -0.0071762786 0.39228806 0.69714534 -0.60008198 0.00023765769
0.0056493473 0.056827262 -0.0063504954 0.39287147 0.68739188 -0.61085546 0.0001005538
-0.005125022 0.061676886 -0.0079453038 0.37742704 0.73392773 -0.56471139 0.00047793912
-0.0025321515 0.060610514 -0.0073650572 0.41334966 0.71668041 -0.56170386 0.00050929829
-0.00027946953 0.05996361 -0.0065124002 0.3946363 0.71242732 -0.58026671 0.00059228751
-0.010859365 0.064442873 -0.0078730565 0.54567635 0.62781388 -0.55505598 0.0066507021
-0.0086425431 0.063753597 -0.0074218744 0.34770569 0.73245656 -0.58532745 1.9222656e-05
-0.0060070259 0.062977657 -0.0068408777 0.37278336 0.72830772 -0.57497877 0.00043027414
-0.0038973973 0.062221456 -0.0062752743 0.39928403 0.72230268 -0.56466901 0.00045060355
-0.013863721 0.067813121 -0.0084547624 0.55756855 0.61412287 -0.55854321 0.0017657523
-0.011923372 0.066764086 -0.0071325176 0.62741369 0.56106466 -0.53996158 0.0040915259
-0.0097397221 0.065285303 -0.0061747809 0.50489408 0.68575072 -0.52424043 0.0092055397
-0.017117431 0.070847504 -0.0085761324 0.46907258 0.65661991 -0.5906108 0.010239176
-0.014893743 0.069595315 -0.0072517814 0.57899356 0.58197886 -0.57102281 0.0011691689
-0.012697072 0.068632483 -0.0064025698 0.58971798 0.59916967 -0.54150569 0.0037100632
-0.016698178 0.071884654 -0.0068993573 0.56135851 0.61631852 -0.55229336 0.0020268797
-0.015820296 0.071300305 -0.0066239317 0.55782461 0.61952281 -0.55228907 0.0022318186
-0.011334395 -0.03707663 -0.0030895998 -0.12924559 -0.58186018 -0.80295348 0.00013740681
-0.0087723136 -0.037317034 -0.0032772576 -0.072127521 -0.59465426 -0.80073965 0.00023780172
-0.0057010083 -0.037301891 -0.0034588927 -0.018459991 -0.59536725 -0.80324161 0.00013488217
-0.0026329947 -0.037305593 -0.00341447 0.02903189 -0.60562974 -0.7952168 0.00025776436
0.00032027287 -0.037297029 -0.0032378379 0.086053602 -0.61741686 -0.78191513 0.00052020082
0.0024850853 -0.037081674 -0.0030286242 0.14191848 -0.64527804 -0.75065005 0.00085253443
-0.019652087 -0.034135517 -0.0030670245 -0.30343914 -0.5054512 -0.80773991 0.0002917666
-0.017280374 -0.034611501 -0.0035382693 -0.24379419 -0.53500503 -0.80890918 0.00027792173
-0.014348439 -0.035142269 -0.0039104768 -0.17435659 -0.56057382 -0.80954111 0.00014104253
-0.011607778 -0.035138912 -0.0044508725 -0.13650669 -0.56421024 -0.81426823 0.00018047751
-0.0087461267 -0.035148844 -0.0048474586 -0.075038716 -0.565516 -0.82131648 0.00022134605
-0.005747213 -0.035217147 -0.004931265 -0.033704761 -0.57727635 -0.81585294 0.00054283487
-0.0026304564 -0.035407383 -0.0047969916 0.015519989 -0.61840552 -0.7857058 0.0006466842
0.00042914855 -0.035425115 -0.0045736232 0.065439872 -0.64643115 -0.76016074 0.0010987609
0.0035557314 -0.035349511 -0.0043267687 0.11845275 -0.67121583 -0.73173642 0.0010719087
0.0065096952 -0.034898669 -0.0043362542 0.13934982 -0.70004666 -0.70036864 0.00033369957
0.0094466889 -0.034579005 -0.0039651291 0.19074231 -0.70775968 -0.68021584 0.00013574677
0.012127813 -0.034353282 -0.0034179117 0.23504186 -0.70156312 -0.67272919 0.00020313372
0.013999819 -0.034005582 -0.0030927141 0.24755928 -0.69795001 -0.67199707 0.00020164931
-0.023074074 -0.031430498 -0.0033283222 -0.35088855 -0.46244195 -0.81426322 0.00032976974
-0.020442413 -0.032069881 -0.0040843775 -0.3074196 -0.49765494 -0.81106895 0.00021897214
-0.017480481 -0.032413326 -0.0049138395 -0.24764553 -0.51361215 -0.82150728 0.00062262628
-0.014707799 -0.032893699 -0.0053836508 -0.18317601 -0.52450228 -0.83147097 0.00054951938
-0.011964894 -0.033227511 -0.0057076593 -0.12687528 -0.53961027 -0.83230007 0.0002813426
0.0075411433 -0.033295155 -0.0057750721 0.13426431 -0.69144392 -0.70984387 0.00020079853
0.0097902687 -0.033121862 -0.0053675133 0.18743081 -0.69435823 -0.69479233 0.00014736477
0.012571451 -0.032680016 -0.004915704 0.22990665 -0.69134796 -0.68496788 0.00014050739
0.015252392 -0.032370538 -0.0042262534 0.27742061 -0.69071013 -0.66780037 0.00023386476
0.01808157 -0.03144436 -0.0039537894 0.32363799 -0.70523566 -0.63079405 0.00042948843
0.020646323 -0.030925879 -0.0032240429 0.38707963 -0.70255721 -0.5971455 0.00077568652
-0.026121302 -0.028543254 -0.0034914617 -0.41564435 -0.42276198 -0.8053025 0.00037843312
-0.023554424 -0.029322086 -0.0043095369 -0.36305553 -0.44239193 -0.82004887 0.00025629273
-0.020722065 -0.029581282 -0.0054179928 -0.31847775 -0.44818863 -0.8352837 0.00032684527
-0.018266475 -0.030628594 -0.0057310094 -0.26148221 -0.4629266 -0.84695101 0.00046617226
0.015937291 -0.030762076 -0.0056373258 0.26012626 -0.69933575 -0.6657806 0.00010812814
0.018541932 -0.029996024 -0.0053359889 0.30188096 -0.69922978 -0.64803213 0.000164078
0.021403855 -0.02937107 -0.004540747 0.37440053 -0.68215537 -0.62808299 0.00055384077
0.024152009 -0.028377771 -0.0037536402 0.44500959 -0.67440587 -0.58918858 0.00021165593
-0.029069947 -0.025711538 -0.0033149014 -0.4730446 -0.37258765 -0.79837787 0.00038540765
-0.026607547 -0.026251916 -0.0044559874 -0.42716667 -0.38218305 -0.81942958 0.00032425902
-0.023947909 -0.026988393 -0.005421211 -0.36826643 -0.40406084 -0.83732587 0.00037789051
0.022292819 -0.027707433 -0.0056818803 0.38703629 -0.66747785 -0.63614172 0.00034880132
0.024593495 -0.026888929 -0.0050057773 0.42660248 -0.67718852 -0.59952152 0.00060190423
0.027130052 -0.025950545 -0.0040838639 0.46321994 -0.68984008 -0.55637032 0.00086190039
0.029609507 -0.025049223 -0.0030931314 0.48048237 -0.69974667 -0.52866936 0.0015486336
-0.031547081 -0.022488123 -0.0031362255 -0.52713585 -0.31950277 -0.78742987 0.00023113946
-0.029581415 -0.023321003 -0.0040857927 -0.49928933 -0.32233545 -0.804245 0.00026663416
-0.02698268 -0.023698049 -0.005387546 -0.43980289 -0.34741646 -0.82817584 0.00036612374
0.028096914 -0.024515154 -0.0051360158 0.43875423 -0.72093397 -0.53642231 0.00071586639
0.030570375 -0.023494937 -0.0046186876 0.47413662 -0.72816736 -0.49494112 0.00037361615
0.032760024 -0.022654682 -0.0036733565 0.51400018 -0.71566498 -0.47289261 0.00041021095
-0.032209307 -0.02014323 -0.0035332893 -0.54432386 -0.2744813 -0.79269892 0.00014681196
-0.029774962 -0.020473702 -0.0049972082 -0.49819434 -0.31138489 -0.80922294 0.00036249126
-0.027802536 -0.021602659 -0.0057153483 -0.47828016 -0.35629389 -0.80268478 0.00087609305
0.033850826 -0.021056114 -0.0048157815 0.53291029 -0.70401144 -0.46944076 0.00018017631
0.036119256 -0.019795083 -0.0040206346 0.5668745 -0.69561064 -0.44133776 0.00010410511
-0.034313131 -0.016808793 -0.0031035086 -0.59639782 -0.22663909 -0.77002883 0.00063523283
-0.032542329 -0.017292628 -0.0041978727 -0.57857049 -0.27083394 -0.76935381 0.0012070325
-0.030530315 -0.017627167 -0.005495159 -0.56226027 -0.31242153 -0.7656737 0.001035327
0.037152499 -0.018271102 -0.005055239 0.56528419 -0.69551349 -0.44352546 0.00044097897
0.039206017 -0.017112173 -0.0042112432 0.59150374 -0.69226718 -0.41338778 0.00038376157
0.04112713 -0.016093282 -0.0030732234 0.6337623 -0.6678102 -0.39035228 0.00039849256
-0.034766052 -0.014036971 -0.0034154798 -0.64441305 -0.22889847 -0.72961444 0.0016204804
-0.033057161 -0.014470365 -0.0047844294 -0.63201749 -0.28529361 -0.7205286 0.0014672151
0.040644683 -0.01525913 -0.0052711 0.62080967 -0.67386729 -0.40062222 0.00019679641
0.04236234 -0.014217797 -0.0042870264 0.65506423 -0.65207696 -0.38168892 0.0001301231
0.044194873 -0.013021646 -0.003101923 0.66224432 -0.64393187 -0.38312438 0.00018669253
-0.035204891 -0.011102757 -0.0040220455 -0.68530011 -0.23361954 -0.68977219 0.00054257445
-0.03378306 -0.011656128 -0.0054178233 -0.6772539 -0.25171047 -0.69135308 0.00038338266
0.043431181 -0.012456087 -0.005395331 0.65694195 -0.65329659 -0.37633878 0.00024573845
0.045160189 -0.011204971 -0.0043661697 0.68151248 -0.63745141 -0.35943887 0.0006395473
-0.037174713 -0.0073915701 -0.0031544745 -0.72912663 -0.1848572 -0.65894014 0.0006118411
-0.035636395 -0.0082256123 -0.0045993165 -0.70767659 -0.20297463 -0.67675346 0.00019986116
0.046489079 -0.009402914 -0.0053598066 0.6739822 -0.66787022 -0.31574884 0.00060458644
0.048246328 -0.0080245603 -0.0046079373 0.6870892 -0.66910166 -0.2832163 0.00013955947
-0.037371848 -0.004970381 -0.0035704426 -0.74812496 -0.14257097 -0.64806056 0.00030996889
-0.035938796 -0.0051451903 -0.0050822734 -0.72179848 -0.14787485 -0.67612129 0.00021475759
0.049542319 -0.0063488614 -0.0053659161 0.69911635 -0.6602118 -0.27451193 0.00020484932
0.050978445 -0.0051915413 -0.0043703867 0.72028148 -0.63958633 -0.26855892 0.00018208071
-0.037744205 -0.0023210088 -0.0035658558 -0.76258355 -0.10173213 -0.63884026 0.00033621522
-0.036421787 -0.0021590942 -0.0050999876 -0.74014997 -0.11613794 -0.66233677 0.00019239663
0.052687146 -0.0030415491 -0.0046777953 0.74444473 -0.62239057 -0.24172696 0.00019929392
0.053690374 -0.0017660941 -0.0048033772 0.7569465 -0.61505145 -0.22078003 0.0002028025
-0.037888642 0.00053511455 -0.003773717 -0.78841525 -0.057458509 -0.61245406 0.00037723695
-0.036747668 0.00052372389 -0.0051818397 -0.76416266 -0.076245166 -0.64050138 0.00038318636
0.055218443 0.00010124483 -0.0048030596 0.76993579 -0.60343891 -0.20750968 0.0001346933
0.056385465 0.0013019009 -0.003757902 0.7687543 -0.60623604 -0.20370245 0.00014801454
-0.037938204 0.0036976377 -0.0038831702 -0.79318917 -0.024002939 -0.60850215 0.00040298211
-0.036777608 0.0033720497 -0.0054296781 -0.77603608 -0.031726111 -0.62989002 0.00042134279
0.057949718 0.0036712007 -0.0047170697 0.78207177 -0.59541476 -0.18397021 0.00017257723
-0.038107947 0.0065899044 -0.0038476542 -0.81180304 0.044208944 -0.58225536 0.00086879602
-0.036776181 0.0068321107 -0.0054461588 -0.7881946 0.023991821 -0.61495823 0.0010809444
0.060436379 0.0069169123 -0.0040029367 0.79453075 -0.58566761 -0.16035673 3.5107535e-06
-0.037744388 0.0096334741 -0.003669532 -0.81942916 0.090570673 -0.56597948 0.0006652468
-0.036736131 0.0095784729 -0.0050447905 -0.82350868 0.03752197 -0.56606144 0.002322671
0.06121286 0.0084054936 -0.0056029935 0.79042268 -0.58941364 -0.16680382 9.5573349e-05
-0.037412744 0.012687514 -0.0036369967 -0.85749424 0.057875443 -0.51122814 0.0012415076
-0.036559075 0.0129245 -0.0052613779 -0.85659724 0.014996084 -0.51576769 0.00062909827
-0.037428044 0.015907023 -0.0036133735 -0.87826532 0.065539427 -0.47366104 0.00085419853
-0.036675792 0.015552476 -0.005028693 -0.87357903 0.046039589 -0.48449984 0.00030530852
-0.037127066 0.018677792 -0.0037140329 -0.88515592 0.108173 -0.45254564 0.00052173302
-0.036290955 0.019060705 -0.0051636449 -0.87626588 0.094637595 -0.47244245 0.00040148626
-0.037180021 0.020500993 -0.0030921628 -0.89979494 0.14060874 -0.41303536 0.0003264042
-0.036156904 0.021901248 -0.0046360921 -0.88151705 0.13805902 -0.45151681 0.00051759375
0.069856152 0.022986468 -0.0056302627 0.3846361 0.67721337 -0.62724566 0.0092435954
-0.035818145 0.024649808 -0.0043434948 -0.89508754 0.16394557 -0.41465658 0.00056029251
0.060954221 0.025643012 -0.0053945901 0.2560479 0.7591598 -0.59842777 0.0061771288
0.06343171 0.025511593 -0.0054044235 0.1547415 0.80457985 -0.57332915 0.0025325401
0.066704035 0.025057655 -0.0045985878 0.30366996 0.75545216 -0.58058292 0.0018060195
0.069494195 0.024244009 -0.0041258764 0.31321645 0.75185609 -0.58017921 0.0017315742
-0.035174534 0.027614539 -0.0044861129 -0.89306635 0.20996407 -0.39792919 0.00044241236
0.055639908 0.028765956 -0.0054399152 0.43465045 0.67505682 -0.59613526 6.8126181e-05
0.057693839 0.028084883 -0.0047269231 0.42573348 0.68803775 -0.58766919 0.00018394832
0.06036327 0.027052816 -0.0040646722 0.28331074 0.75762135 -0.58800083 0.004738539
0.063412182 0.026661966 -0.0040226807 0.15735097 0.80025679 -0.57864469 0.0023148314
0.065473363 0.026475368 -0.0036481698 0.28428411 0.7791034 -0.55873108 0.0029391916
-0.034675106 0.030406909 -0.0040262048 -0.88602889 0.25761715 -0.38546893 0.00032078513
-0.0338386 0.031223496 -0.0052647195 -0.88413244 0.24497117 -0.39786789 0.00046889647
0.051772967 0.031419195 -0.0050769001 0.41345233 0.691248 -0.5926494 0.00023003334
0.054387122 0.030550273 -0.0043631028 0.41720226 0.67837042 -0.60477751 6.543623e-05
0.056816056 0.029815253 -0.0034250994 0.43041277 0.6722908 -0.60230386 4.2827771e-05
-0.034081396 0.033009075 -0.0034501334 -0.89130938 0.29333302 -0.34572154 0.00045597085
-0.033373479 0.033651639 -0.0045420444 -0.90001464 0.24930748 -0.35751849 0.0011443797
0.046094023 0.034685977 -0.0052570123 0.41486695 0.702483 -0.57827592 0.00027126144
0.048444208 0.033921916 -0.0044588749 0.41069037 0.69029295 -0.59567523 0.00024465856
0.051203489 0.03294564 -0.0037944734 0.40516937 0.68605518 -0.60428965 7.555748e-05
-0.032670479 0.036783289 -0.0040887226 -0.91714603 0.27064064 -0.29256931 0.00046089682
0.040619805 0.037918787 -0.0055146744 0.4495275 0.69139123 -0.56559992 3.8730963e-05
0.042657632 0.03727622 -0.0046062176 0.43412447 0.69300073 -0.5755744 0.0001575471
0.045134202 0.036233388 -0.0040846579 0.4236348 0.69511086 -0.58082223 0.00012635255
0.047508009 0.035587508 -0.0032160957 0.39961466 0.68893522 -0.60471183 3.9913062e-05
-0.031742197 0.039842676 -0.0044849636 -0.92250061 0.27674362 -0.26908305 0.00031634656
0.036843564 0.040553961 -0.0050907186 0.4168286 0.69924307 -0.58078653 1.804304e-05
0.039309751 0.039742738 -0.0043629948 0.43473178 0.69594938 -0.57154417 0.00022896801
0.041595541 0.038922392 -0.0034901195 0.44816568 0.68690711 -0.57210678 3.6357163e-05
-0.031557612 0.041751623 -0.0029891809 -0.91347635 0.31637591 -0.25586575 0.00048013005
-0.030703789 0.042560026 -0.0049536964 -0.91351074 0.30293486 -0.27153036 0.00023292503
0.031133899 0.043871574 -0.0053681959 0.39362487 0.71172315 -0.58181578 0.00016052842
0.033670928 0.042950533 -0.0045782453 0.43010885 0.70098466 -0.56888211 0.00021820809
0.036041535 0.042136364 -0.0037363982 0.42577681 0.70665073 -0.56511843 0.0002029816
0.038565923 0.041228503 -0.0030947407 0.42434746 0.70486641 -0.5684123 0.00013385482
-0.029854927 0.045450017 -0.0041987328 -0.909693 0.34239873 -0.23499317 0.00027860681
0.025230207 0.046953626 -0.0054866453 0.40340465 0.70210135 -0.58678645 7.3927869e-05
0.027673636 0.046153713 -0.0047263419 0.38879278 0.71256268 -0.58403301 0.00012548611
0.030280342 0.045395285 -0.0040182238 0.40409744 0.72254556 -0.56092161 0.00028700501
0.032916427 0.044528276 -0.003330939 0.43056414 0.7089197 -0.55861205 0.00018663422
-0.028545108 0.048533827 -0.0047164736 -0.91119218 0.34498674 -0.22519527 0.00022795518
0.019249855 0.050130442 -0.0055127819 0.35004994 0.73970008 -0.57472497 7.1534821e-05
0.021531751 0.049416497 -0.0049700197 0.37944776 0.72821218 -0.57072455 0.00012342253
0.024273202 0.048525069 -0.0042115767 0.39547858 0.71889603 -0.57165122 7.0256297e-05
0.027093345 0.047652699 -0.0034013209 0.39944401 0.72266912 -0.56408668 0.00020346956
-0.027375646 0.051468171 -0.0043808101 -0.9102636 0.36020184 -0.20414393 0.00012598684
0.013396572 0.053006683 -0.0055647669 0.41650593 0.69521737 -0.58582908 9.701922e-05
0.015677601 0.052349865 -0.0047720429 0.38812444 0.71581048 -0.5804953 0.00021463548
0.018146096 0.05158275 -0.0042499839 0.35528755 0.73964179 -0.57157743 0.00017332916
0.02093599 0.050673582 -0.0037706462 0.37356395 0.73556095 -0.56515485 6.9281901e-05
-0.026067689 0.054277513 -0.0049527963 -0.90998602 0.36724192 -0.19250663 8.1672093e-05
0.0077958191 0.05620154 -0.0057548364 0.3924351 0.69217008 -0.60571885 2.0652373e-05
0.01013446 0.055515502 -0.0050128046 0.41508508 0.68883067 -0.59432042 7.0315429e-05
0.012338085 0.05476677 -0.004296877 0.42180267 0.68815291 -0.59036267 6.8476882e-05
0.014692002 0.053785786 -0.0037121375 0.40211496 0.70554072 -0.5835374 0.00023937764
0.0041581257 0.058639042 -0.0053226231 0.38544571 0.68898886 -0.61378008 3.5749695e-06
0.0065967431 0.057981476 -0.0045022462 0.39429441 0.69560236 -0.60055751 9.8874116e-05
0.0091887582 0.05697253 -0.0039406009 0.41019243 0.69042265 -0.59586799 1.5002073e-05
0.010924038 0.056559481 -0.0032546003 0.4120259 0.69130903 -0.59357101 1.4709113e-05
-0.0017385404 0.061711024 -0.0054804687 0.4010978 0.69916719 -0.59184957 0.00016814857
0.00060705212 0.06112263 -0.0046833074 0.38691649 0.70174283 -0.59820789 0.00010343699
0.0032141269 0.060185764 -0.0041401656 0.38301694 0.70257711 -0.59973621 0.00016531652
0.0055509694 0.059617199 -0.003333353 0.3923851 0.69846207 -0.59848529 0.00011588005
-0.0077175335 0.064890452 -0.0054854383 0.37651131 0.71757114 -0.58594441 0.0015553123
-0.005559966 0.064352036 -0.0048876018 0.3687762 0.72927338 -0.5763371 0.00025780572
-0.0028165774 0.063371338 -0.0042888098 0.38502285 0.71596396 -0.58236855 9.9415229e-05
-0.00012660469 0.06267827 -0.0033833105 0.38885051 0.71043336 -0.5865832 0.00020582267
-0.010933574 0.06736429 -0.0050038388 0.58268082 0.57747704 -0.57184201 0.0058403946
-0.0089328652 0.066433817 -0.0043259193 0.40797517 0.676732 -0.61285406 0.0030125512
-0.0058837105 0.065673366 -0.0033861222 0.3642036 0.74694175 -0.5562678 7.2558636e-05
-0.013797537 0.070697501 -0.0051251729 0.55002373 0.62272042 -0.55650085 0.0013991692
-0.011731896 0.06961447 -0.0042473185 0.59846324 0.5497247 -0.58279037 0.0026909334
-0.010054472 0.068608113 -0.0031034579 0.60563272 0.52327985 -0.59948915 0.003095198
-0.016553426 0.072862387 -0.0050259759 0.57605642 0.58154786 -0.57442242 0.0029862579
-0.014809974 0.072539248 -0.0040849508 0.55698568 0.58633292 -0.58820122 0.0025949706
-0.01261471 0.071431942 -0.0030527194 0.55846196 0.55692303 -0.61478198 0.0024224198
-0.016816795 -0.039905101 -5.7158992e-05 -0.2093869 -0.57540512 -0.79061121 0.00030807732
-0.014230343 -0.04023559 -0.00035376847 -0.14459525 -0.59887546 -0.78768045 0.00024060938
-0.011322807 -0.040423971 -0.00062648579 -0.096663095 -0.60359013 -0.79141337 0.00023427677
-0.0085578691 -0.040621318 -0.00069414871 -0.052051138 -0.62110001 -0.7820009 0.0001824339
-0.0057275454 -0.040887922 -0.00058987876 0.00010979401 -0.63545489 -0.77213806 0.00032471595
-0.0026381533 -0.040621527 -0.00069189724 0.056035999 -0.65420753 -0.75423634 0.0003611678
0.00037530286 -0.040339168 -0.00062992889 0.1128899 -0.66621554 -0.73716527 0.00033081218
0.0033378471 -0.040086705 -0.0003340859 0.16218135 -0.66218889 -0.73157579 0.00033386692
0.0056107915 -0.039911434 1.4088582e-05 0.20097268 -0.65932655 -0.72449887 0.00021135938
-0.022868594 -0.036931258 -0.00017331587 -0.32833502 -0.51696408 -0.7905342 0.00023884616
-0.020437082 -0.037867479 -0.00044978457 -0.27198946 -0.5439139 -0.79383844 0.00034467666
-0.017552873 -0.038274359 -0.0010557682 -0.21749844 -0.55487639 -0.80299848 0.00041493861
-0.014446668 -0.038217325 -0.0017258963 -0.15407257 -0.5705623 -0.80667239 0.00020595915
-0.011590706 -0.038420748 -0.0020726877 -0.11568437 -0.59091377 -0.79839718 0.00030428852
-0.0087141441 -0.038656112 -0.0022340585 -0.063402824 -0.60971463 -0.79008114 0.00020540273
-0.005712878 -0.038947746 -0.0021803335 -0.011955702 -0.62400943 -0.78132534 0.00020820907
-0.0027025733 -0.038732439 -0.0023261795 0.03768488 -0.62789494 -0.77738529 0.00028039067
0.00050991517 -0.038637988 -0.0021697551 0.09902896 -0.63462365 -0.76645035 0.0004824003
0.0035981382 -0.038282052 -0.0018265368 0.16048573 -0.64095074 -0.75061733 0.0001951673
0.0065278285 -0.038215872 -0.0010965001 0.18763962 -0.65087372 -0.7356323 0.0003033441
0.0092187757 -0.037948169 -0.00061352737 0.2419768 -0.66861635 -0.70313543 0.0013312295
0.012136567 -0.037147589 -0.00015429454 0.28143281 -0.701648 -0.65458822 0.0010378803
-0.026149379 -0.034541018 -0.00025961595 -0.38771883 -0.4818787 -0.78579074 0.00040786323
-0.023685776 -0.035160631 -0.00095514767 -0.33298305 -0.49443629 -0.80290407 0.00030109283
-0.020717153 -0.035531089 -0.0018081539 -0.27603325 -0.51639277 -0.81064433 8.65814e-05
-0.017726066 -0.03613985 -0.0024094698 -0.22350366 -0.54135627 -0.81054276 0.00034935816
-0.015184497 -0.036594387 -0.0027268012 -0.16700569 -0.56124836 -0.81062281 0.00017538881
0.0067729643 -0.03653514 -0.0025558381 0.16568315 -0.66687477 -0.72651708 0.00072403252
0.0095470287 -0.036255226 -0.0021717527 0.20629027 -0.69313842 -0.69065434 0.0010225911
0.012304867 -0.035800464 -0.0017676642 0.24209386 -0.71449256 -0.65642279 0.00031591131
0.015258293 -0.035061505 -0.0013698395 0.28051877 -0.71802324 -0.63698649 0.00022719342
0.017978832 -0.034565385 -0.00063458877 0.37948325 -0.71509856 -0.58704895 0.00072148029
-0.028823568 -0.031803954 -0.0004103682 -0.44334608 -0.4338232 -0.7843734 0.00026100394
-0.026540706 -0.032344587 -0.0012716372 -0.39187998 -0.4385381 -0.8087734 0.00020927419
-0.023964062 -0.03271085 -0.0022290298 -0.35097706 -0.46195379 -0.81450218 0.00038277864
-0.021586532 -0.033519238 -0.0027490337 -0.2956962 -0.49508044 -0.81698173 0.0003184634
0.016326755 -0.033533961 -0.0025502522 0.29156134 -0.70303166 -0.64864343 0.00011580503
0.018632239 -0.033005431 -0.0019950003 0.35176656 -0.70715678 -0.613343 0.0010085483
0.021381533 -0.032061607 -0.0013058577 0.42852041 -0.71210974 -0.55612051 0.00017588775
0.02376247 -0.031247335 -0.00038649188 0.46304238 -0.70742184 -0.53399086 5.0817405e-05
-0.031703532 -0.028688915 -0.00029922882 -0.49953371 -0.38729805 -0.77489763 0.0003319502
-0.02962539 -0.029260475 -0.0012679915 -0.46072784 -0.39116308 -0.79669392 0.00022082023
-0.027166596 -0.029650247 -0.0023851623 -0.41295287 -0.41892263 -0.80868649 0.00033066227
0.022478826 -0.030461861 -0.0025095274 0.44285369 -0.69433808 -0.56725234 0.00041106253
0.024634836 -0.029658103 -0.0017409436 0.45799285 -0.69249856 -0.55739427 0.00026358335
0.027007984 -0.02867702 -0.0010023951 0.47498444 -0.68665677 -0.55035645 0.00024040426
0.029069515 -0.028049855 -1.9737054e-05 0.52812797 -0.67833966 -0.51081908 0.0003861805
-0.034340359 -0.024950994 -0.00011957483 -0.54455847 -0.33377019 -0.76945013 5.0269577e-05
-0.03232336 -0.026074793 -0.0010625268 -0.53073126 -0.33893058 -0.77682072 0.00014076883
-0.029936176 -0.026594376 -0.0023676348 -0.48221821 -0.37169376 -0.79329014 0.00044975089
0.028109798 -0.026891964 -0.0022083963 0.46934494 -0.67853379 -0.56507272 0.00021170848
0.030224765 -0.026056657 -0.001227363 0.53329247 -0.68856829 -0.49139887 0.0010180227
0.032110859 -0.024922295 -0.00066057639 0.53571612 -0.70738095 -0.461108 0.0011025041
-0.034875415 -0.022895085 -0.00059988908 -0.56208718 -0.31165212 -0.76611429 0.00012155122
-0.032750335 -0.023382854 -0.0019245381 -0.5473758 -0.31112984 -0.77690279 0.00013588845
-0.031066623 -0.024302213 -0.0026915451 -0.52718532 -0.32960376 -0.7832222 0.00022148277
0.031443436 -0.024308888 -0.0025631567 0.51121664 -0.71819216 -0.47207788 0.0017170163
0.033423312 -0.023493795 -0.0015277872 0.54641604 -0.71435857 -0.43717429 0.00012374808
0.03559345 -0.022236273 -0.00086168246 0.56625342 -0.71121597 -0.4165681 0.00022616181
-0.035453152 -0.020212665 -0.0011763256 -0.59354508 -0.25356784 -0.76381123 0.00017314164
-0.033285666 -0.021033047 -0.0024796864 -0.55369431 -0.27400914 -0.78634697 0.00030666508
0.036582284 -0.020803278 -0.001861285 0.57913208 -0.69600058 -0.42448694 0.00023450352
0.03860968 -0.019593883 -0.00089021306 0.61614478 -0.68399364 -0.39053601 0.00024575132
-0.037699372 -0.017166281 -0.00029541133 -0.6362074 -0.19604334 -0.74619508 0.00049123162
-0.035720412 -0.017556209 -0.0017558127 -0.61352801 -0.20029542 -0.76384896 0.00034633235
0.039849475 -0.018095057 -0.0015296 0.63282824 -0.68078536 -0.36886266 0.00022465758
