# .PCD v0.7 - Point Cloud Data file format
VERSION 0.7
FIELDS x y z normal_x normal_y normal_z curvature
SIZE 4 4 4 4 4 4 4
TYPE F F F F F F F
COUNT 1 1 1 1 1 1 1
WIDTH 540
HEIGHT 1
VIEWPOINT 0 0 0 1 0 0 0
POINTS 540
DATA ascii
0.030819921 0.010168214 -0.0037130145 0.60959375 0.005937716 -0.79269177 0.00020555803
-0.031056276 0.01321702 -0.0035279908 -0.61518025 0.038266912 -0.78745723 0.0001570114
-0.029071024 0.013266478 -0.005043162 -0.57033783 0.040878981 -0.82039231 0.00041593937
0.028896132 0.01323103 -0.0050720735 0.57009232 0.038740333 -0.82066679 0.00020903333
0.030825697 0.013213368 -0.0036357522 0.60916317 0.036188927 -0.7922188 0.00021380372
-0.030909136 0.016263459 -0.0034593982 -0.59919643 -0.0041969912 -0.80059099 0.0011612633
-0.028924443 0.016200898 -0.0049731587 -0.55774409 0.0025824665 -0.83000892 0.0012820973
0.028703466 0.016200699 -0.0049768095 0.56348181 0.01063625 -0.82606006 0.00096756633
0.030839751 0.016263923 -0.0034480782 0.63280195 0.016103163 -0.77414626 0.00074859185
-0.031050786 0.019300558 -0.0035996132 -0.60506731 -0.051923621 -0.79447943 0.00035036285
-0.028989071 0.019138943 -0.0050331336 -0.5660224 -0.052962851 -0.82268685 0.00016739409
0.028851822 0.019130373 -0.0050219516 0.57596463 -0.034786366 -0.81673419 0.00019556102
0.030835209 0.019305125 -0.0035088104 0.61141288 -0.031764392 -0.79067403 0.0001433671
-0.031104192 0.022272993 -0.0037345854 -0.60922372 -0.024952052 -0.7926057 0.00030561601
-0.029165354 0.02225771 -0.0051353658 -0.57133418 -0.028938064 -0.82020724 0.00021156523
0.028949827 0.02226169 -0.0050643436 0.5759896 -0.014956314 -0.81732017 0.00029083309
0.03077627 0.022223998 -0.0036803384 0.61210662 -0.023027612 -0.7904399 0.00016428293
-0.03115743 0.024966562 -0.0036676689 -0.60987288 -0.011105195 -0.79242152 0.00029037322
-0.029162649 0.025287099 -0.0051732627 -0.56982231 -0.0085505098 -0.82172346 0.00022253052
0.028949628 0.025293877 -0.0050668153 0.56861848 -0.0058919284 -0.82258022 0.00029006758
0.030833809 0.025062386 -0.0036753623 0.60344249 -0.0084073702 -0.79736215 0.00015542115
-0.031303257 0.028012211 -0.0036191249 -0.61171764 -0.0011436061 -0.79107535 0.0002138611
-0.02915935 0.028315341 -0.0052193254 -0.57526886 -0.0047776322 -0.81795043 0.00018114269
0.028915238 0.028247071 -0.0051332689 0.57036459 -0.003614953 -0.8213836 0.00021775109
0.030959312 0.028054031 -0.0036143265 0.60620713 -6.8637237e-05 -0.7953068 0.00014687107
-0.0311861 0.030875904 -0.0036763013 -0.6171819 0.039368287 -0.78583509 0.00022065865
-0.029129179 0.031190218 -0.0051998836 -0.57926351 0.034517698 -0.81440914 0.00043924624
0.028948249 0.031104153 -0.005086984 0.57345462 0.029921543 -0.81869078 0.00029174137
0.030875843 0.030912073 -0.0036446867 0.61146235 0.031289913 -0.79065466 0.00017605181
-0.031059718 0.034019332 -0.0034829271 -0.61105639 0.0035768237 -0.79157901 0.0011450163
-0.02914891 0.034005515 -0.0049741799 -0.57194078 3.1072977e-05 -0.82029486 0.0013426086
0.028785095 0.0340463 -0.0050137187 0.56480056 0.015140605 -0.82508856 0.00083575875
0.030836558 0.034018811 -0.0034905006 0.59900266 0.016349485 -0.80058008 0.00058630627
-0.031188093 0.037132479 -0.0036509472 -0.61731046 -0.042887904 -0.7855497 0.00018884464
-0.029161688 0.036906563 -0.0051865824 -0.58264941 -0.038756292 -0.81179899 0.000271097
0.028853212 0.036822621 -0.0050024879 0.57489997 -0.023506291 -0.81788594 0.00020420519
0.03083157 0.037056465 -0.0035566208 0.60707653 -0.022674127 -0.79431981 9.8788303e-05
-0.031301346 0.040091291 -0.0036451605 -0.61340696 -0.010752551 -0.78969383 0.00019935846
-0.029157231 0.039931953 -0.0052490551 -0.57882333 -0.0074807666 -0.81541866 0.0002228806
0.028951397 0.039952502 -0.0050420198 0.57811868 -0.0123552 -0.8158592 0.00020616456
0.030824989 0.040091336 -0.0036449065 0.60725921 -0.01203955 -0.79441249 7.6266311e-05
-0.031302694 0.043135989 -0.0036278693 -0.61220556 0.0024001237 -0.79069507 0.00014337969
-0.029156731 0.042962156 -0.0052559394 -0.57817852 0.00043804117 -0.81591016 0.0002387061
0.028949998 0.042982876 -0.00506185 0.57415658 -0.00054395606 -0.81874537 0.00024806245
0.030824265 0.043133076 -0.0036548579 0.60794115 -0.00066273776 -0.79398179 0.00010742714
-0.031303067 0.046179466 -0.0036232469 -0.61353105 -0.0025131549 -0.78966659 0.00015236609
-0.029155649 0.045991335 -0.0052711354 -0.57778347 -0.00047675549 -0.81618989 0.00030093658
0.028949009 0.046013646 -0.0050758454 0.57308227 0.0017223613 -0.81949604 0.00024699565
0.030823814 0.04617516 -0.0036611201 0.61069512 0.0016718418 -0.79186404 0.00015081528
-0.031301945 0.049220711 -0.0036376673 -0.61285096 -0.0038637046 -0.79018909 0.0001439937
-0.029155096 0.049021207 -0.0052788439 -0.57689816 -0.00033162077 -0.81681597 0.00031743091
0.028949477 0.049046695 -0.0050691962 0.57393008 -0.00069150387 -0.81890398 0.00023198947
0.030825039 0.049219821 -0.0036450927 0.61139333 0.00041169897 -0.79132676 0.00019514626
-0.031264357 0.052215476 -0.0036711993 -0.61064976 -0.0016809765 -0.79189897 0.00012702131
-0.029155642 0.052052934 -0.0052712956 -0.57591718 0.0009393951 -0.81750751 0.00029145766
0.028949618 0.052079227 -0.0050673271 0.5756982 -0.0020423038 -0.81765968 0.00024624358
0.030788112 0.052200884 -0.0036959117 0.61426908 -0.00086399948 -0.78909612 0.00015665157
-0.031282503 0.055154126 -0.0036630819 -0.60680729 -0.0037078022 -0.79484034 0.00011184569
-0.02915591 0.055084221 -0.0052675754 -0.57361495 0.0018446665 -0.81912291 0.00028435994
0.028950244 0.055112746 -0.0050585102 0.57780206 -0.0026203834 -0.81617272 0.0002240851
0.030823968 0.055176657 -0.0036587955 0.61315864 -0.0031760891 -0.78995347 0.00013745186
-0.031299993 0.058142696 -0.0036622104 -0.60448658 -0.039186973 -0.79565084 0.00067911175
-0.029156407 0.058116052 -0.0052606463 -0.56575316 -0.043682601 -0.82341683 0.0010287132
0.028948715 0.058141928 -0.0050801551 0.57417387 -0.045512713 -0.81746739 0.00072670402
0.030810485 0.058153898 -0.0036918444 0.61439919 -0.042614419 -0.7878437 0.00063082005
-0.031327829 0.061173853 -0.0039427117 -0.59822208 -0.14922956 -0.78731239 0.0014723719
-0.029485038 0.060877688 -0.0053692842 -0.55585992 -0.14870062 -0.81786788 0.0014333174
0.029085446 0.060881782 -0.0053432402 0.57804489 -0.16860679 -0.79839581 0.0016448069
0.031117026 0.061149426 -0.0037726103 0.58709627 -0.17525421 -0.79031885 0.0024959701
-0.033569131 0.064467102 -0.0030345065 -0.65576088 -0.13976264 -0.74191916 0.0020591186
-0.031712916 0.064062901 -0.0044812765 -0.62000757 -0.14938335 -0.77024359 0.0011979047
-0.030143375 0.063371383 -0.0055713472 -0.58646983 -0.12940834 -0.79956657 0.0012953752
0.029415399 0.06285964 -0.0056162295 0.55037206 -0.1696036 -0.81751156 0.0022920221
0.031399366 0.064032733 -0.0045758109 0.59693849 -0.14478299 -0.78911483 0.0029849827
0.033350218 0.064209193 -0.00313943 0.63191241 -0.14726907 -0.76091957 0.0054803919
-0.033617862 0.066786774 -0.0032153009 -0.62515914 0.21443614 -0.750462 0.0141502
-0.031715635 0.067065582 -0.0045994716 -0.62153673 0.19282945 -0.75928187 0.015982028
-0.02964275 0.068428613 -0.0055145142 -0.56755412 0.29924849 -0.76702845 0.014686933
0.029438321 0.068465568 -0.0052960035 0.55904698 0.32874185 -0.76118016 0.005735409
0.031445608 0.067112103 -0.0045373756 0.59638065 0.20980608 -0.7747978 0.0094191758
0.033398844 0.066794768 -0.0031669256 0.62578112 0.1835289 -0.75809968 0.0078658639
-0.031310525 0.068766005 -0.0035190897 -0.59467018 0.29056296 -0.74962687 0.011307231
-0.029163711 0.068994813 -0.0051541743 -0.56755149 0.29925588 -0.7670275 0.014683808
0.028945198 0.06899894 -0.0051299748 0.55906487 0.32867095 -0.76119775 0.0057430076
0.030988574 0.068901092 -0.0037191426 0.54467392 0.45559976 -0.70410174 0.0013153836
-0.03411052 -0.069747269 -0.0013637459 -0.6898275 0.052628696 -0.72205836 0.00045809502
-0.032936029 -0.069943659 -0.0022201058 -0.65863395 0.067283005 -0.74944943 0.0016443759
0.032773402 -0.069564529 -0.0014413414 0.66879678 0.033771701 -0.74267775 0.0059161223
0.034327824 -0.069611683 -0.0011583325 0.67208719 0.049551886 -0.73881215 0.0065688584
-0.034313295 -0.067856133 -0.00097084232 -0.69238514 0.055912625 -0.71935838 0.00044818464
-0.03281904 -0.067367904 -0.0024110016 -0.67795581 0.068665385 -0.73188859 0.00075454055
0.032591507 -0.066903867 -0.0021342677 0.66848439 0.048277404 -0.7421577 0.006964013
0.03429433 -0.067873113 -0.001134587 0.67942375 0.039912477 -0.73265976 0.0068443492
-0.034340616 -0.064844742 -0.00064127054 -0.7021929 0.034031082 -0.71117306 0.00043349213
-0.032662328 -0.065000713 -0.0021732296 -0.67646778 0.045132495 -0.73508805 0.00084365305
0.032438908 -0.065002427 -0.0021631944 0.66865712 0.04275921 -0.74234039 0.0022487936
0.034109935 -0.064836368 -0.00069672801 0.68696481 0.0178016 -0.72647256 0.0020945286
-0.034376539 -0.061839789 -0.00060986029 -0.69409615 -0.0048200507 -0.71986616 8.9148096e-05
-0.032683562 -0.062059212 -0.0021969916 -0.66809589 -0.0063696094 -0.744048 0.00020595781
0.032448951 -0.062039386 -0.0023303048 0.65829235 -0.019905563 -0.75249916 0.00016590167
0.034135439 -0.061812889 -0.00079189287 0.68301827 -0.017518714 -0.73019117 0.00013119099
-0.034348123 -0.058897 -0.00068493513 -0.69562101 -0.0040906877 -0.71839726 7.372578e-05
-0.032682005 -0.059002858 -0.0022165072 -0.66722572 -0.0034632853 -0.74484742 0.00017693007
0.032446411 -0.058982205 -0.002362787 0.66014695 -0.0019694124 -0.75113392 0.00014998628
0.034110375 -0.058876973 -0.0008273758 0.68807667 -0.0041695978 -0.72562605 8.9420224e-05
-0.034335371 -0.055896211 -0.00070437696 -0.69654429 0.0010989928 -0.71751285 0.00010185059
-0.032682393 -0.055950079 -0.0022116792 -0.66758603 -2.4218616e-05 -0.7445327 0.00018426764
0.032445617 -0.055928506 -0.0023729198 0.65825528 0.00035815939 -0.75279474 0.00016701058
0.034085263 -0.055941738 -0.00086282007 0.68706059 -0.0016765452 -0.7265982 0.00012945062
-0.034323938 -0.052897695 -0.00070875091 -0.69767559 -0.0023932254 -0.7164098 0.00012405665
-0.032683078 -0.052897725 -0.0022031434 -0.66893309 -0.0016879024 -0.74332064 0.00021750462
0.032447703 -0.052879613 -0.0023462565 0.65592688 0.00097521802 -0.7548238 0.00016330161
0.034060292 -0.053007506 -0.0008957698 0.68656135 -0.00073922682 -0.72707152 0.00011575026
-0.034298621 -0.049962193 -0.0007453924 -0.69764996 -0.006740863 -0.71640712 0.00012026899
-0.032679711 -0.04983918 -0.0022454553 -0.6674934 -0.0041710138 -0.74460405 0.00020455231
0.032446649 -0.049825571 -0.002359675 0.65435648 -0.0013982173 -0.75618488 0.00017628541
0.034095675 -0.050002895 -0.00087063434 0.68618572 -0.0015387429 -0.72742468 0.00012609319
-0.03433346 -0.046955537 -0.00072723906 -0.6974135 -0.0066217398 -0.71663839 0.00013831463
-0.032677837 -0.046783339 -0.0022690115 -0.66496617 -0.0056251762 -0.74685228 0.00019068617
0.032445896 -0.046772134 -0.0023692267 0.65262115 -0.0025179109 -0.75768024 0.00022170415
0.03409363 -0.046936724 -0.00089579728 0.68662971 -0.0018413711 -0.72700495 0.00015702905
-0.034330271 -0.04388715 -0.0007651737 -0.69462663 -0.0019258101 -0.71936786 0.00012013579
-0.032675594 -0.043727361 -0.0022972838 -0.66380078 -0.002402368 -0.74790561 0.00017196899
0.03244644 -0.043720569 -0.0023622357 0.65223569 -0.0040373942 -0.75800544 0.0002258818
0.034091722 -0.043871101 -0.00091892015 0.68734181 -0.0016965383 -0.72633219 0.00015328007
-0.034332015 -0.040824872 -0.00074418075 -0.68954813 0.029796023 -0.72362661 0.00016012449
-0.032702655 -0.040794786 -0.0022479249 -0.66208899 0.023943838 -0.74904269 0.00020294409
0.032468244 -0.040782157 -0.0023791066 0.65362149 0.0078688124 -0.7567808 0.00021479242
0.034092579 -0.040809035 -0.00090853777 0.68551677 0.0092843017 -0.72799766 0.00012642134
-0.034232158 -0.037807614 -0.00062736031 -0.69709384 0.025185298 -0.71653736 0.00047979146
-0.032694954 -0.037897736 -0.0020541542 -0.67107308 0.027263718 -0.74088979 0.00038294142
0.032426365 -0.038012315 -0.0023234712 0.65521169 0.012531179 -0.75534135 0.00024069539
0.034102447 -0.037756644 -0.00078819133 0.69030988 0.0083217276 -0.72346604 0.00032789868
-0.034385186 -0.034771487 -0.00050531002 -0.69613367 -0.038615894 -0.71687281 0.00044569231
-0.032607824 -0.035010617 -0.0020836906 -0.67038399 -0.030177344 -0.74140042 0.00050583098
0.032451928 -0.035078261 -0.00229223 0.6575681 -0.018480344 -0.7531684 0.00026281187
0.034150269 -0.034810163 -0.00077125663 0.68871719 -0.017139658 -0.72482735 0.00029335017
-0.034326203 -0.031882036 -0.00081428979 -0.68131131 -0.037527416 -0.73103112 0.0002668346
-0.032672759 -0.032022294 -0.0023328827 -0.65548092 -0.037967607 -0.75425678 0.0002732111
0.032577362 -0.031769358 -0.0023142253 0.65227783 -0.0095211277 -0.75792015 0.00029024121
0.034133401 -0.031915486 -0.00093123596 0.68518478 -0.0047143553 -0.72835404 0.00024526831
-0.03428556 -0.029011941 -0.00090215402 -0.68849719 0.0019549348 -0.72523636 0.00013047674
-0.032671902 -0.028968837 -0.0023434751 -0.66107017 0.0015704103 -0.75032246 0.00016592667
0.032446895 -0.028967947 -0.0023564813 0.65954596 0.012764762 -0.75155592 0.00020721769
0.034059655 -0.029011834 -0.00090382807 0.68859303 0.012218847 -0.72504497 0.00019253061
-0.034325931 -0.026009623 -0.00081737898 -0.68746585 0.014928066 -0.72606325 9.8606215e-05
-0.032672998 -0.02591726 -0.0023297907 -0.65968233 0.016268553 -0.7513684 0.00013993155
0.032447986 -0.025916461 -0.0023425587 0.65665805 0.0024824371 -0.75418448 0.00015200491
0.034095846 -0.02600651 -0.00086880289 0.68768364 0.0014469308 -0.72600907 0.00015149974
-0.034335822 -0.022952054 -0.00069852453 -0.67832077 0.048826702 -0.73314172 0.00018335234
-0.032682385 -0.022870775 -0.0022119028 -0.65461373 0.053603433 -0.75406069 0.00024136812
0.03244929 -0.022864807 -0.0023259984 0.65340602 0.031995527 -0.75633109 0.00023384861
0.034095984 -0.022943124 -0.00086684339 0.68362629 0.035193831 -0.72898328 0.00031753752
-0.034241308 -0.020005601 -0.00051693991 -0.68789887 0.033634786 -0.72502685 0.00069623574
-0.032472707 -0.019751161 -0.0020266064 -0.66160768 0.032771755 -0.74913377 0.00065425783
0.032356713 -0.019676503 -0.0021168941 0.66730016 0.026212478 -0.74432749 0.00058898638
0.034118611 -0.019892398 -0.00059110951 0.69926631 0.032863401 -0.71410549 0.0006154431
-0.034138996 -0.016758023 -0.00063753687 -0.68058586 -0.031603586 -0.7319864 0.00027307347
-0.032502308 -0.016896613 -0.0020779376 -0.66185319 -0.03602697 -0.74876726 0.00025871323
0.032465611 -0.016767973 -0.0021178641 0.66975802 -0.030347329 -0.7419591 0.00045595149
0.034044106 -0.016778432 -0.00064960215 0.69919091 -0.030609837 -0.71427947 0.00056906109
-0.034343179 -0.013761139 -0.00061027892 -0.67220217 -0.036490977 -0.73946786 7.3984986e-05
-0.032686576 -0.013712349 -0.0021594383 -0.65822995 -0.035219155 -0.75199276 0.00017284547
0.032449193 -0.01370702 -0.0023272575 0.65760839 -0.028998759 -0.7528016 0.00020806958
0.03410003 -0.013754605 -0.00081772264 0.69186604 -0.03264052 -0.72128773 0.00023551562
-0.034333024 -0.010692851 -0.00073209964 -0.67740285 -0.014484177 -0.73546964 3.3280365e-05
-0.03268123 -0.010911286 -0.0022263406 -0.66016859 -0.010117265 -0.75104922 0.00011314658
0.032447644 -0.010908306 -0.0023470102 0.66088074 -0.0045393454 -0.75047719 0.00021448462
0.034095798 -0.010689493 -0.00086936168 0.69270021 -0.003770835 -0.72121584 0.00017903317
-0.034329168 -0.0078829499 -0.00077824853 -0.68120956 0.0012990497 -0.73208737 7.5339798e-05
-0.032679901 -0.0081121027 -0.0022430138 -0.65553063 -0.00064456585 -0.75516832 0.00011162665
0.032446284 -0.0081099188 -0.0023642399 0.65802991 0.0035933389 -0.75298315 0.00020236986
0.034095943 -0.0078814076 -0.0008676718 0.69110596 0.0016128691 -0.72275168 0.00019160264
-0.034334835 -0.005074854 -0.00071058469 -0.67945546 0.040731721 -0.73258531 0.00023834719
-0.032678951 -0.0050586555 -0.0022549895 -0.65120417 0.04012179 -0.75784129 0.00035962014
0.032451008 -0.0050580967 -0.0023039745 0.65400892 0.036993008 -0.7555818 0.00018496461
0.034097288 -0.0050734142 -0.00085083814 0.68519294 0.037547611 -0.72739309 0.0002977777
-0.034187399 -0.002112858 -0.00063838204 -0.69047743 0.028063592 -0.72280931 0.00059657096
-0.032504052 -0.0018789122 -0.0020557777 -0.66134399 0.026392424 -0.74961829 0.00080696453
0.032358721 -0.0018606577 -0.0020911873 0.6637482 0.020771181 -0.74766761 0.00070964504
0.034044407 -0.0021034274 -0.00064527243 0.69361836 0.022065705 -0.72000462 0.00080060837
-0.034274943 0.001147582 -0.00059175305 -0.68430036 -0.039299626 -0.72814053 0.00024642315
-0.032536998 0.00089529331 -0.0021215614 -0.65912449 -0.041308016 -0.75089854 0.00036458741
0.032401908 0.00094979838 -0.0021818487 0.66402364 -0.033810209 -0.74694675 0.00026020283
0.034111295 0.0010540957 -0.00068090158 0.69279438 -0.034711111 -0.7202993 0.0003609813
-0.034330424 0.0041180854 -0.00076328125 -0.67888987 -0.033939656 -0.7334553 0.00020947219
-0.032677308 0.00410042 -0.0022756052 -0.65400779 -0.031024421 -0.75585133 0.00026149617
0.032448586 0.0040997183 -0.002335021 0.65826207 -0.02311907 -0.75243378 0.00017791672
0.034099802 0.0041174949 -0.00082034292 0.68511546 -0.023172293 -0.72806585 0.00018423662
-0.034326289 0.0071813706 -0.00081304507 -0.67905867 -0.0056927125 -0.73406184 3.2032403e-05
-0.032678913 0.0071538086 -0.0022553497 -0.65729797 -0.0056777815 -0.75360936 0.00012032395
0.032449227 0.007152434 -0.002326838 0.66273481 -0.0034478388 -0.74884629 8.0006052e-05
0.03409851 0.0071809189 -0.0008361903 0.68792105 -0.0037293788 -0.72577596 0.00017046601
-0.034324668 0.010244666 -0.0008323323 -0.67461222 0.011600836 -0.73808122 9.8107193e-05
-0.032675102 0.010205586 -0.0023033635 -0.655442 0.010896072 -0.75516695 0.00016123445
0.032447424 0.010204369 -0.0023498826 0.66050249 0.0047426317 -0.75080889 9.8793687e-05
0.034094356 0.010243214 -0.00088647567 0.68665397 0.00443062 -0.72697091 0.00014267472
-0.034301169 0.013256918 -0.00071395747 -0.67176002 0.037091553 -0.73983967 6.0690458e-05
-0.032687079 0.013263726 -0.0021529512 -0.65638542 0.040768977 -0.75332338 5.0982118e-05
0.03245125 0.013258665 -0.0023009942 0.65996295 0.032906614 -0.75057715 0.00011551313
0.034065526 0.013252884 -0.00083202403 0.68523294 0.033318222 -0.72756141 0.00013501433
-0.034392651 0.016059006 -0.00045438763 -0.68091154 -0.010318062 -0.73229295 0.00087970641
-0.032500226 0.016319383 -0.002104538 -0.66129822 -0.010975369 -0.7500428 0.00080292678
0.032444224 0.016204147 -0.0020952749 0.66779447 0.017602628 -0.74413759 0.00038723811
0.034159057 0.016055454 -0.00054365862 0.69553959 0.018327611 -0.71825403 0.00061573827
-0.034328427 0.018927019 -0.00078675803 -0.67737806 -0.045188777 -0.73424584 0.00037232725
-0.032678761 0.019111669 -0.002257332 -0.65445709 -0.052635107 -0.75426483 0.00010489848
0.032490529 0.018980531 -0.0020950662 0.66192734 -0.029313721 -0.74899453 0.0002426979
0.034112673 0.018932857 -0.00066343136 0.68992901 -0.032286782 -0.72315663 0.00035059659
-0.034319051 0.021985017 -0.00089919986 -0.67848915 -0.018294426 -0.73438263 0.00015383361
-0.032726679 0.021704959 -0.0022945311 -0.65768135 -0.018159674 -0.75307733 8.8408837e-05
0.032448456 0.021906057 -0.0023364865 0.65392572 -0.024425287 -0.75616437 0.00015095016
0.034095202 0.021986295 -0.00087678991 0.68479079 -0.024896435 -0.72831428 0.00022860475
-0.034553275 0.02510258 -0.00073530572 -0.67084271 -0.014511276 -0.74145764 0.00021981409
-0.032722298 0.025161235 -0.002349433 -0.65915877 -0.014684213 -0.75186044 5.6450386e-05
0.032446709 0.024957303 -0.0023588405 0.65859997 -0.008419266 -0.75244617 0.00019297619
0.034095515 0.025049888 -0.00087287463 0.68951845 -0.0072684968 -0.7242316 0.00023928519
-0.034582742 0.028117903 -0.00080505293 -0.67956215 0.0060405601 -0.73359311 0.00022083525
-0.032855548 0.027830802 -0.0023180405 -0.64290482 -0.00096028781 -0.76594549 0.00024025232
0.032497145 0.027805835 -0.0023642418 0.65609795 -0.00064273411 -0.75467551 0.00011295437
0.034090575 0.028109003 -0.00093306508 0.68646693 -0.0012161712 -0.72715998 0.00017218613
-0.03431632 0.031172303 -0.0009330688 -0.68028331 0.03780596 -0.73197359 0.00022298998
-0.032757431 0.031318378 -0.0023336858 -0.66062492 0.040567558 -0.74961925 0.00028345702
0.032472368 0.031180186 -0.0023265299 0.65499437 0.030709483 -0.75500953 0.00013514182
0.034093101 0.031174494 -0.00090190955 0.68389118 0.030312303 -0.72895402 0.00021400959
-0.034335528 0.03425438 -0.00070137437 -0.70100373 -0.0014212471 -0.71315616 0.0011452684
-0.032688577 0.034133416 -0.002133992 -0.66752881 0.00097590999 -0.74458337 0.0010418872
0.032465562 0.034134764 -0.0021184203 0.6629687 0.0119935 -0.74855107 0.00057047245
0.0341122 0.0342573 -0.00066902675 0.69563037 0.011820504 -0.71830255 0.00068022375
-0.034390852 0.037290715 -0.00089816796 -0.6783374 -0.040971484 -0.73360735 0.00021681329
-0.032761291 0.036919065 -0.002285406 -0.65910244 -0.043637689 -0.75078607 0.00016438744
0.032453608 0.037174661 -0.0022709412 0.65865022 -0.022729447 -0.75210589 0.0001809684
0.034066509 0.037252497 -0.00081992289 0.68914437 -0.022428231 -0.72427678 0.00017246298
-0.03458748 0.040123243 -0.00074953819 -0.68942958 -0.0053774128 -0.72433269 0.00026314182
-0.032929052 0.040224247 -0.0023070541 -0.64580566 -0.0093417782 -0.76344472 0.00027377022
0.032447048 0.04021953 -0.0023546012 0.65675336 -0.008523888 -0.75405735 0.00017964809
0.03409778 0.040113848 -0.00084586814 0.68847013 -0.0066564223 -0.72523415 0.0001150614
-0.03464812 0.043031096 -0.00067824125 -0.69187742 0.0041416492 -0.72200316 0.00027237981
-0.032931615 0.043280419 -0.0022751507 -0.6465987 0.0029536474 -0.76282465 0.00031823223
0.03244913 0.043274734 -0.0023280226 0.66065687 0.00084984099 -0.75068754 0.00016942409
0.034134336 0.042982057 -0.00080537423 0.69072878 0.0039007321 -0.72310346 0.00011960987
-0.034588497 0.045998268 -0.00073670736 -0.69243836 -0.0013479645 -0.72147566 0.00029381239
-0.032933772 0.046082001 -0.002248263 -0.64697027 -0.0027459599 -0.76251024 0.00027760566
0.032424979 0.046210174 -0.0023410788 0.66115969 0.0022458637 -0.75024188 0.00014887088
0.034098614 0.04598714 -0.0008352478 0.69083613 0.002425957 -0.72300732 0.00019624725
-0.034586813 0.049060173 -0.00075716153 -0.69322968 -0.0028295261 -0.72071123 0.00031209423
-0.032930218 0.048875399 -0.0022925504 -0.64593166 -0.0044946899 -0.76338202 0.00025229747
0.032477334 0.048994564 -0.0022631837 0.66141117 0.0014531958 -0.75002211 0.00012070237
0.034098629 0.049050834 -0.00083496328 0.69013059 0.0011340908 -0.72368389 0.00017780774
-0.034585245 0.052122004 -0.00077603152 -0.69414461 -0.0018533368 -0.7198332 0.00033977896
-0.032929 0.051926352 -0.0023077296 -0.64413655 -0.0024157669 -0.76490664 0.00028927327
0.032451481 0.051927574 -0.0022980613 0.66201043 0.00095312175 -0.74949408 0.00012311313
0.034099311 0.052115556 -0.00082656043 0.68906432 0.00055401487 -0.72469997 0.00016535612
-0.034546085 0.055135682 -0.00082241604 -0.69547248 -0.0051498436 -0.71853429 0.00040352962
-0.032928158 0.054977633 -0.0023182051 -0.64166754 -0.0056723626 -0.76696181 0.00032915585
0.032452535 0.054982208 -0.0022846328 0.66235441 -0.0035416931 -0.74918234 0.00014023237
0.034100413 0.055181134 -0.0008127559 0.69206887 -0.002704405 -0.72182643 0.00019359856
-0.034580182 0.05813906 -0.00083649112 -0.68378174 -0.04881154 -0.72805214 0.00094736664
-0.032923449 0.058021914 -0.0023769555 -0.63748366 -0.033064883 -0.76975411 0.00065915217
0.032448545 0.058027785 -0.0023355328 0.66751921 -0.042610534 -0.74337232 0.00055097556
0.034059741 0.058176469 -0.00090250373 0.70116174 -0.031608421 -0.71230119 0.00072868069
-0.036203269 0.062231548 0.00022037653 -0.68288577 -0.15487513 -0.71391928 0.002211828
-0.03455982 0.061166156 -0.001079144 -0.67832154 -0.15862158 -0.71743923 0.003167398
-0.03291174 0.06079796 -0.0025228737 -0.63208687 -0.14681101 -0.76086313 0.0017539775
0.032705814 0.060831591 -0.0022970615 0.66634095 -0.19039389 -0.72092992 0.0033418492
0.034284059 0.061282434 -0.0010432266 0.66951811 -0.19721451 -0.71613681 0.0032166967
0.035958372 0.061944429 1.4934223e-05 0.67829543 -0.19616467 -0.70812058 0.0037199319
-0.036866959 0.06398993 7.3495321e-06 -0.70250708 -0.12687756 -0.70027554 0.003815579
-0.035066079 0.064019553 -0.0015499028 -0.67356062 -0.14607547 -0.72455359 0.0021920442
0.03467498 0.064103097 -0.0018761752 0.66848069 -0.14200461 -0.73004675 0.0051870393
0.036380108 0.064071879 -0.00028606923 0.70490158 -0.13265917 -0.69678932 0.0061690374
-0.036792032 0.066382699 -6.7066867e-05 -0.68735898 0.069137409 -0.72301978 0.011481748
-0.035185315 0.067127526 -0.001543636 -0.65055805 0.21251322 -0.72911745 0.011556913
0.034642316 0.067215987 -0.0016976325 0.70432895 0.22100827 -0.67459327 0.0085985241
0.036362968 0.066551298 -0.00023770519 0.72720093 0.21407042 -0.65219063 0.0091714365
-0.035128552 0.068785116 -0.0003828723 -0.63773549 0.2303818 -0.73499495 0.010552556
-0.032431372 0.068994716 -0.0021663723 -0.60862696 0.25587183 -0.75106782 0.012045513
0.032693893 0.068947107 -0.0024480042 0.63017678 0.32083288 -0.70706689 0.0082602864
0.034077808 0.06892103 -0.0010911566 0.61945951 0.46738827 -0.6307283 0.0012439461
-0.037046455 -0.069665127 0.0016289656 -0.72203648 0.057509623 -0.68946058 0.00019010068
0.037116069 -0.069544911 0.0015229862 0.75642014 0.053404465 -0.65190226 0.0017425767
-0.037415981 -0.068027698 0.0021050437 -0.72200006 0.057650048 -0.68948704 0.00020039693
-0.035715964 -0.068095759 0.0005051475 -0.69955534 0.052805882 -0.71262461 0.00037531351
0.035499349 -0.06683562 0.00063301949 0.65621287 0.056301337 -0.75247246 0.0064955084
0.037117958 -0.067866795 0.0019063735 0.74923998 0.052257426 -0.6602338 0.0018273105
-0.037144918 -0.064762995 0.0021527954 -0.71630412 0.02343259 -0.69739467 0.00043953976
-0.035732541 -0.065051988 0.0006970698 -0.69391078 0.032310102 -0.71933585 0.00036963343
0.035493705 -0.065031998 0.00056674425 0.68845046 0.028007343 -0.72474235 0.0018042453
0.036990535 -0.06485194 0.0020324136 0.73375738 0.0071423915 -0.67937404 0.0017381378
-0.037157562 -0.06186955 0.0021686 -0.71697855 -0.0034846512 -0.69708651 6.1719795e-05
-0.035735663 -0.061982434 0.00073320512 -0.70158368 -0.002576011 -0.71258241 7.255844e-05
0.035486843 -0.061945997 0.00048612896 0.69380951 -0.0094148228 -0.72009706 0.00011100397
0.036908552 -0.061837107 0.0019475897 0.72699732 -0.0050741462 -0.68662155 0.00025169892
-0.037131928 -0.058912676 0.0021318169 -0.71835321 0.002171491 -0.69567531 3.8233316e-05
-0.035731994 -0.058901217 0.00069073169 -0.70396483 -0.0031488833 -0.71022785 7.3403149e-05
0.035484668 -0.058868978 0.00046063308 0.69706577 -0.0029627334 -0.71700108 0.00010938969
0.036883883 -0.058883201 0.0019209241 0.72829592 -0.0013078402 -0.68526149 0.00020237722
-0.037109416 -0.055961266 0.0021307338 -0.72193599 0.005409007 -0.6919387 3.0805928e-05
-0.035732631 -0.055827223 0.00069807796 -0.70521557 0.0018303927 -0.70899069 9.1534006e-05
0.035483375 -0.055793725 0.00044540875 0.69747436 -0.002842431 -0.71660411 0.00012953868
0.036858626 -0.055929173 0.0018885601 0.72970325 -0.0017637305 -0.68376166 0.0002352295
-0.037147213 -0.052937578 0.0021777921 -0.73588967 0.0038597905 -0.67709047 9.9507837e-05
-0.035733949 -0.052754145 0.00071333162 -0.70579797 -0.00095031445 -0.70841259 0.00013106765
0.035481665 -0.052718062 0.00042537693 0.69625688 -0.0016492084 -0.71779084 0.0001668671
0.036895007 -0.052905384 0.001920593 0.73029619 -0.0013105484 -0.68312943 0.00022072968
-0.037146691 -0.049850903 0.0021715839 -0.74273223 -0.0017085564 -0.66958642 0.0001067074
-0.035730433 -0.049930498 0.00067266868 -0.70732427 -0.0051437914 -0.7068705 0.00011149707
0.035482313 -0.049902055 0.00043295044 0.6972996 -0.0011013485 -0.71677893 0.00016761394
0.036894519 -0.049820688 0.001915216 0.73063934 -0.00078971073 -0.68276316 0.0002445071
-0.037181754 -0.046822689 0.0021888656 -0.74557632 -0.0087922513 -0.66636223 6.9368019e-05
-0.035725828 -0.047105949 0.00061931554 -0.70699418 -0.0070121582 -0.70718455 0.00015031299
0.03548253 -0.047085401 0.00043548457 0.69816959 -0.0022648766 -0.71592879 0.00016815407
0.036930706 -0.046795826 0.0019460591 0.74901789 -0.003613764 -0.66253996 0.00022482888
-0.037153125 -0.043863319 0.0021182676 -0.73302007 -0.0086556422 -0.680152 0.00014622473
-0.035722662 -0.044027708 0.00058266846 -0.70434606 -0.0059930566 -0.70983148 0.00013886692
0.035481174 -0.04401068 0.00041957526 0.69795918 -0.00084596936 -0.71613699 0.00016771622
0.036905374 -0.043841891 0.001911547 0.72897708 -0.002800114 -0.68453246 0.00015080677
-0.0370824 -0.040971495 0.0019757538 -0.73169243 0.030172829 -0.68096668 0.00030314754
-0.03572214 -0.040952891 0.00057668332 -0.70676821 0.029598696 -0.70682567 0.00027740787
0.035481595 -0.040938217 0.00042454712 0.7020762 0.012027107 -0.71200025 0.00019260324
0.036841713 -0.040959001 0.0018466772 0.73105651 0.012636233 -0.6821999 0.00016535704
-0.03704121 -0.038136743 0.0022269101 -0.72308457 0.023584565 -0.69035673 0.00053417659
-0.035563916 -0.037806299 0.00072110211 -0.69910532 0.024855219 -0.71458656 0.0004514032
0.035486203 -0.037870042 0.00047861366 0.69835883 0.0076238131 -0.71570712 0.00031445085
0.036905728 -0.03800983 0.0020413492 0.73324072 0.013976512 -0.67982548 0.00041392318
-0.037158567 -0.03494681 0.0023046737 -0.72310627 -0.044346269 -0.68931174 0.00036885648
-0.035741586 -0.034823436 0.00080178026 -0.71788329 -0.042126205 -0.69488764 0.00035698729
0.035485107 -0.034795742 0.00046577398 0.69848609 -0.017865943 -0.71540058 0.00033321008
0.036901627 -0.034921352 0.0019953009 0.73578346 -0.015177214 -0.67704672 0.00038344454
-0.037123065 -0.031830113 0.0019074809 -0.73125851 -0.02919583 -0.68147534 0.00041024404
-0.035711836 -0.031721856 0.00045738928 -0.70326281 -0.03561455 -0.71003741 0.00033093075
0.035475828 -0.031765416 0.00035678782 0.70380068 -0.0043306798 -0.71038431 0.00023840212
0.036891155 -0.03182777 0.0018774923 0.73829228 -0.010000057 -0.67440683 0.00027657807
-0.037128232 -0.028749928 0.0019653412 -0.73032808 0.003580563 -0.68308717 0.00017778207
-0.035715293 -0.02890731 0.00049741287 -0.69735509 0.0044094557 -0.7167123 0.00012873298
0.035485197 -0.028905254 0.00046682963 0.69837594 0.010393046 -0.71565557 0.00021379873
0.036895271 -0.028747154 0.0019238191 0.72854728 0.00710356 -0.6849587 0.00023335243
-0.03718042 -0.025785876 0.0020264108 -0.72769588 0.0034969836 -0.68589097 0.00017282751
-0.035715815 -0.026090335 0.00050341431 -0.69824499 0.012064202 -0.71575719 0.00010284134
0.035484277 -0.026087446 0.00045601837 0.69885117 0.0016454651 -0.71526521 0.00017545452
0.036948118 -0.025783889 0.0019932813 0.74850756 0.0029764706 -0.66311961 0.00023902595
-0.037081853 -0.022978388 0.0019697202 -0.72870684 0.049524602 -0.68303275 0.00040961456
-0.03572315 -0.023021152 0.00058833091 -0.69809341 0.044749435 -0.71460688 0.00021251669
0.035484582 -0.023014355 0.00045960955 0.70584506 0.036066834 -0.70744753 0.00031845624
0.036847632 -0.022975359 0.001913433 0.7371555 0.042389881 -0.67439228 0.00036609246
-0.036996551 -0.020125533 0.0022214656 -0.72296625 0.034703974 -0.6900112 0.0010027608
-0.035564616 -0.019697508 0.00072909566 -0.68294889 0.030494688 -0.72982937 0.00067232759
0.03551371 -0.019956816 0.00080159632 0.7334106 0.038097274 -0.67871755 0.00050352287
0.036808718 -0.020131737 0.0021939562 0.73547578 0.044479325 -0.67608953 0.00049346313
-0.037079252 -0.016842367 0.0022037444 -0.72367889 -0.04168614 -0.68887675 0.00073321769
-0.035496943 -0.016992424 0.00066446373 -0.68109626 -0.03493908 -0.73135972 0.00031950616
0.035379972 -0.017006816 0.00073450385 0.70494199 -0.028308764 -0.70869982 0.00052615703
0.036812294 -0.016826725 0.0022349195 0.73604721 -0.031209996 -0.67621034 0.00061306526
-0.037124075 -0.013840665 0.0019187378 -0.7222634 -0.039663993 -0.69047987 0.00054969155
-0.035725605 -0.013799733 0.00061674742 -0.68461537 -0.036802098 -0.72797483 0.00015659069
0.03548773 -0.013795887 0.00049656956 0.70932019 -0.035317402 -0.70400113 0.00029745777
0.036904912 -0.013844247 0.0020326162 0.73924804 -0.03723681 -0.67240298 0.0003131835
-0.037123609 -0.010756467 0.0019142115 -0.7219491 -0.010429393 -0.69186759 0.00043069728
-0.035719834 -0.010723705 0.00054996554 -0.68336785 -0.010087302 -0.73000449 8.6157561e-05
0.035488546 -0.0107226 0.000506151 0.70435047 -0.0039971815 -0.70984113 0.00019255502
0.036902823 -0.010758788 0.0020093652 0.73668152 -0.0046519376 -0.67622387 0.00016343986
-0.037165768 -0.0078568943 0.0019742646 -0.72434944 0.012357303 -0.68932223 0.00029855565
-0.035715614 -0.0079050679 0.00050112046 -0.68926382 0.0070646429 -0.72447598 0.00011035483
0.035487104 -0.0079048621 0.00048921723 0.70513427 -3.9865674e-05 -0.70907378 0.00018116839
0.036941133 -0.0078578321 0.0020269197 0.74862766 -0.0022074899 -0.66298699 0.00011135498
-0.037097659 -0.0050472193 0.0019987044 -0.72751993 0.048405007 -0.68437684 0.00025156914
-0.035723608 -0.0050884737 0.00059363572 -0.6980353 0.041559946 -0.71485627 0.0001140982
0.035487104 -0.0050874902 0.00048920326 0.70548987 0.033983245 -0.70790488 0.00026998195
0.036866568 -0.0050470363 0.001978904 0.73443186 0.033498075 -0.67785519 0.00023720425
-0.03712368 -0.0020755038 0.0022904021 -0.74788553 0.012246724 -0.66371477 0.0014783335
-0.035528071 -0.0018097451 0.00070150523 -0.68484896 0.022485901 -0.72833806 0.00060325238
0.035375606 -0.0017583905 0.00068333326 0.69608366 0.023152066 -0.71758735 0.00080766191
0.036849171 -0.0021128957 0.0021973248 0.72928107 0.027519606 -0.68366051 0.00056063739
-0.0371111 0.0011222456 0.0021502762 -0.7143153 -0.045781087 -0.69832492 0.00032160594
-0.035606973 0.00080405793 0.00072573451 -0.68787581 -0.037585806 -0.72485459 0.0002512733
0.035507869 0.0010601903 0.00073307101 0.72705251 -0.032597013 -0.68580765 0.00039145982
0.036846213 0.0011600984 0.0021638549 0.73364788 -0.03494237 -0.67863077 0.00031083517
-0.037126161 0.0041498234 0.0019429545 -0.71470344 -0.032013547 -0.69869471 0.00017269311
-0.035719644 0.0041334871 0.00054774527 -0.69207519 -0.03550256 -0.72095168 9.593166e-05
0.035485648 0.0041326056 0.00047209673 0.70443696 -0.024756731 -0.70933461 0.00026465397
0.036897846 0.0041499664 0.0019530612 0.73655444 -0.028727036 -0.67576796 0.00034575775
-0.037117075 0.0072321272 0.0018419968 -0.71707803 -0.0069069029 -0.69695872 0.00026092658
-0.035715856 0.0072065662 0.00050392561 -0.68463117 -0.0092583094 -0.72883081 4.9538135e-05
0.035484448 0.0072056847 0.00045805518 0.69813448 -0.0033755677 -0.71595877 0.00020134174
0.036899183 0.0072346046 0.0019678967 0.73225826 -0.0014368453 -0.68102556 0.00023793345
-0.03724473 0.010179427 0.0019391305 -0.72049129 0.011582632 -0.69336724 0.00035229645
-0.035714656 0.010279768 0.00049006287 -0.68484688 0.010843991 -0.7286064 6.5881752e-05
0.035483826 0.010278707 0.00045070378 0.69963562 0.0036926593 -0.71449035 0.00016571008
0.036846336 0.010200104 0.0018990086 0.73274237 0.00051589462 -0.68050593 0.00018128031
-0.037164524 0.013072787 0.0019615274 -0.72353804 0.036430482 -0.68932253 0.00051460293
-0.035722338 0.013100179 0.00057897018 -0.68248701 0.035208371 -0.73004919 8.9652262e-05
0.035489373 0.013098072 0.00051591406 0.7036249 0.035538908 -0.70968235 0.00025991755
0.036950812 0.013008007 0.0020240457 0.74628526 0.037849374 -0.66454935 0.00026032477
-0.037145671 0.015981385 0.0021598828 -0.73997253 0.0097847683 -0.67256594 0.0015292959
-0.035733592 0.015923269 0.00070922915 -0.71889263 -0.001743174 -0.6951189 0.0011470617
0.035508323 0.015924551 0.00073835067 0.72969931 0.018625531 -0.68351448 0.00082384382
0.036758877 0.015877111 0.0021287878 0.72867709 0.019735932 -0.68457299 0.00079185702
-0.037135225 0.019061577 0.0020431662 -0.73469353 -0.033913285 -0.67755097 0.00027146112
-0.035716701 0.018988799 0.00051373057 -0.69361758 -0.037956335 -0.71934277 0.00020621921
0.035503916 0.018996991 0.00068664365 0.6989271 -0.033806458 -0.71439344 0.00037457867
0.036917854 0.019067965 0.0021799686 0.73526007 -0.034735713 -0.67689443 0.00030442845
-0.037117474 0.022135701 0.0018451619 -0.73326492 -0.026496364 -0.67942661 0.00030196965
-0.035704415 0.022054855 0.00037150923 -0.69376558 -0.024470894 -0.71978492 0.00024678142
0.0354825 0.022058364 0.00043513207 0.7040596 -0.023082841 -0.70976555 0.00027704486
0.036897223 0.022141315 0.0019454951 0.73621374 -0.020178951 -0.67644817 0.00020525373
-0.037108075 0.025212707 0.0017401846 -0.74037433 -0.014935137 -0.6720289 0.0005065201
-0.03570164 0.023845296 0.0003393474 -0.70091057 -0.012136061 -0.71314591 0.0006672428
0.035484422 0.025132814 0.00045771711 0.69984549 -0.0061947247 -0.71426743 0.0002451599
0.036898863 0.025226722 0.001964354 0.73492062 -0.0065299859 -0.67812163 0.00026785067
-0.037236858 0.028283369 0.0018500341 -0.73272562 0.0052556237 -0.6805039 0.00044767477
0.035477433 0.028200263 0.00037561171 0.70264912 -0.0033276628 -0.71152878 0.00017029747
0.036841109 0.028185306 0.0018393202 0.73520499 -0.0037111249 -0.67783463 0.00018916122
-0.037277188 0.030962354 0.00200393 -0.74057007 0.049490921 -0.67015421 0.00039374139
-0.035715487 0.031282663 0.000499669 -0.71202129 0.04285866 -0.70084858 0.00030108358
0.035483386 0.031278495 0.00044559781 0.70332223 0.030698678 -0.710208 0.00026683268
0.036946859 0.030999316 0.0019788099 0.74799114 0.02668871 -0.66317177 0.00015919798
-0.037151206 0.03398722 0.0022218148 -0.75006837 -7.0500362e-05 -0.66136026 0.0011938051
-0.035726242 0.034110278 0.00062417425 -0.6945172 -0.0021993381 -0.71947271 0.0011912063
0.035501767 0.034113526 0.00066136755 0.69712758 0.013983521 -0.71681064 0.00069690967
0.036918994 0.033984885 0.0021929261 0.72561693 0.011261683 -0.68800676 0.00052389514
-0.037120122 0.037041884 0.0018751109 -0.74004352 -0.04208846 -0.67124075 0.00019512349
-0.03571146 0.036400765 0.00045304326 -0.69696325 -0.042311758 -0.71585751 0.00038504536
0.035494801 0.03692437 0.00057960395 0.71687591 -0.020986747 -0.69688481 0.00010567244
0.036908049 0.037059505 0.0020690891 0.74354213 -0.020000957 -0.66838986 0.00010678932
-0.037112486 0.040117439 0.0017898278 -0.73338068 -0.0025133083 -0.67981356 0.00019697084
0.035486098 0.039988659 0.00047740666 0.70289731 -0.0072054146 -0.71125484 0.00013790019
0.03689776 0.040133353 0.0019519213 0.73081106 -0.0034508146 -0.68257099 0.00015913301
-0.037116885 0.043205645 0.0018385607 -0.73394525 0.003030434 -0.67920184 0.0003215872
0.035488505 0.043065019 0.00050563924 0.70107603 0.0049761627 -0.71306914 0.00015512329
0.036864508 0.043161985 0.0019554109 0.73265934 0.0057278476 -0.68057144 0.00018122615
-0.037064321 0.046164725 0.0017731222 -0.73519075 -0.00071655965 -0.6778599 0.00029865513
0.035489783 0.046140272 0.00052069966 0.70231235 0.0017633573 -0.71186674 0.00017393552
0.036891785 0.046118144 0.0020105271 0.73338372 0.00098387909 -0.67981416 0.00015779793
-0.037128121 0.049048238 0.0018388303 -0.73609364 -0.00027174057 -0.67687976 0.00028528052
0.035489641 0.049213745 0.0005189809 0.70169556 -0.00015873599 -0.71247691 0.00018802835
0.03691563 0.049070761 0.0020273589 0.73324031 -3.8338727e-05 -0.67996955 0.00015445492
-0.037152912 0.052001387 0.0018668538 -0.73889256 0.00030709995 -0.67382324 0.00033638251
0.035490513 0.052288737 0.0005292478 0.70193183 0.00096359424 -0.7122435 0.00016945592
0.036939736 0.052024335 0.0020480053 0.73369032 0.0017494333 -0.67948186 0.00017166494
-0.037115335 0.055023156 0.0018210281 -0.74069673 -0.0025388112 -0.67183477 0.00031967284
0.035489865 0.055105329 0.0005216659 0.70339459 0.00067708478 -0.71079922 0.00022511806
0.036904797 0.055051375 0.0020315396 0.73178715 0.001310994 -0.68153197 0.00014334399
-0.037171215 0.058164954 0.0018698862 -0.74565238 -0.059110969 -0.66370815 0.00093471253
0.035492424 0.057927113 0.00055167917 0.70991379 -0.067224853 -0.70107299 0.0025601326
0.03690723 0.058140226 0.0020595873 0.74523664 -0.040103879 -0.66559303 0.0012661825
-0.037464354 0.061182432 0.0018878672 -0.72065288 -0.17163907 -0.67171383 0.0024462105
0.035486173 0.060221698 0.00047826581 0.69493258 -0.17947085 -0.69631815 0.0045290808
0.037182089 0.061161842 0.001828183 0.75481385 -0.18253057 -0.63003069 0.0029504097
-0.039551225 0.064477287 0.0031298581 -0.75538039 -0.077932768 -0.65063578 0.0074681351
-0.038359884 0.064094521 0.0016672197 -0.73303866 -0.13407841 -0.66684127 0.0029466576
0.038054436 0.063992321 0.0016713711 0.74662465 -0.12802674 -0.65280992 0.0031078234
0.039313316 0.064723104 0.0030534347 0.72670108 -0.068581112 -0.68352181 0.014199689
-0.039523263 0.066492222 0.0028355825 -0.76895547 0.15620531 -0.61992526 0.0064945244
-0.037939508 0.067215949 0.0013357112 -0.72018367 0.185206 -0.6686061 0.0069171628
0.037823975 0.067243226 0.0015036077 0.7109372 0.21128035 -0.67076737 0.0087223891
0.03930955 0.066778451 0.0030132835 0.72463697 0.19673088 -0.66045302 0.009250083
-0.037367694 0.068939827 0.0017655971 -0.71877646 0.23724979 -0.65350825 0.0050785122
0.035518609 0.068993606 0.00085918931 0.68429381 0.30608639 -0.6618557 0.0063435757
0.037457615 0.068749823 0.0024732384 0.70555139 0.24333647 -0.66557086 0.0077980603
0.038327172 -0.069878899 0.0035425308 0.76171106 0.056853555 -0.64541763 0.0016422881
0.03977567 -0.069636986 0.0052124071 0.77883339 0.051343594 -0.62512589 0.00072645658
-0.040078934 -0.067796372 0.0050442503 -0.78301197 -0.018009325 -0.62174582 0.00095888926
-0.038752671 -0.06742271 0.0037805871 -0.74323153 0.045633875 -0.66747618 0.00083602592
0.039699759 -0.067908645 0.0051541389 0.7743445 0.050511304 -0.63074493 0.00069923245
-0.040145714 -0.064757735 0.0053804382 -0.75748724 -0.0030721137 -0.65284276 0.00062071928
-0.03873102 -0.06495855 0.0038831797 -0.74387825 0.021533456 -0.66796815 0.00059141393
0.038334485 -0.064731114 0.003622592 0.77365071 0.013520609 -0.63346815 0.0012235899
0.039549809 -0.064878836 0.0052232794 0.79682225 0.028859558 -0.60352415 0.0012639237
-0.040291633 -0.061901748 0.0054603242 -0.74903071 -0.0080096563 -0.66248679 0.0001513976
-0.038851306 -0.06193519 0.0039148764 -0.73137265 -0.004490742 -0.68196332 3.5662943e-05
0.038329456 -0.061884377 0.0035675499 0.76069242 -0.0053307563 -0.64909059 0.00029634184
0.039501872 -0.061929271 0.0050570038 0.79377472 -0.0069678128 -0.608172 0.00021045902
-0.040263075 -0.058977332 0.0054805721 -0.75530195 0.016935531 -0.6551581 0.00011020699
-0.038852844 -0.05883861 0.0039314064 -0.73612869 0.0086107403 -0.67678684 0.00010655441
0.038329933 -0.058788858 0.003572755 0.75848097 1.3980046e-05 -0.65169513 0.00018990919
0.039468106 -0.058913797 0.0050220895 0.79129767 -0.002029252 -0.61142772 0.00022413231
-0.040190358 -0.056099847 0.0054863836 -0.76162505 0.021577328 -0.64765853 7.7675955e-05
-0.03885904 -0.055748422 0.0039978107 -0.74397695 0.012711015 -0.66808432 0.00011429792
0.038329918 -0.055692557 0.0035725967 0.7592321 -0.00073735288 -0.65081948 0.00018128306
0.039502397 -0.055888414 0.005062683 0.78966916 -0.0023356082 -0.61352855 0.00021961296
-0.039772641 -0.052713756 0.0051334458 -0.75656092 0.019119449 -0.65364361 5.0542134e-05
-0.038671464 -0.053059023 0.0038328846 -0.74041939 0.011269374 -0.67205077 8.2666687e-05
0.038329761 -0.052854076 0.0035708784 0.76102597 0.00063772179 -0.64872116 0.00018753298
0.039501917 -0.052780442 0.0050575654 0.7897191 0.001580452 -0.61346662 0.00015320555
-0.03978207 -0.049852971 0.0052123661 -0.76145548 0.0092320153 -0.6481514 5.192979e-05
-0.038583722 -0.050044689 0.0038158777 -0.74753803 0.0034547856 -0.66421002 8.7365101e-05
0.038329773 -0.050015841 0.0035710321 0.76140982 -0.00029027628 -0.64827079 0.00022138382
0.039541781 -0.049844138 0.0051371208 0.80384201 -0.00018623059 -0.59484267 0.00011843863
-0.039710656 -0.04701462 0.005122296 -0.76611763 -0.0032483372 -0.64269209 7.7168123e-05
-0.038581695 -0.04694422 0.0037939833 -0.75093615 -0.0080455812 -0.66032588 5.8964997e-05
0.038329124 -0.046918783 0.003563914 0.76071703 -0.0052299239 -0.64906263 0.00024661451
0.039469279 -0.047004934 0.0050345124 0.7898891 -0.006099931 -0.61321932 0.0001472891
-0.039812397 -0.044119544 0.0051909979 -0.77191299 -0.0018176518 -0.63572568 9.4906085e-05
-0.03871844 -0.043596163 0.0038749608 -0.75319147 -0.0080877142 -0.6577515 7.3387018e-05
0.038324255 -0.043817122 0.0035105874 0.7573247 -0.0072290529 -0.65299851 0.00019909639
0.039499 -0.043973334 0.0050263586 0.78685164 -0.010570915 -0.61705166 0.00019923598
-0.039777018 -0.040804718 0.0051790872 -0.78276789 0.032615338 -0.62145841 0.00034898412
-0.038654238 -0.040931556 0.0037797741 -0.75358546 0.024031598 -0.65691048 0.00022848975
0.038322669 -0.040719535 0.0034932331 0.75699413 0.013275656 -0.65328681 0.00023716205
0.039490353 -0.040857404 0.0049340907 0.78814989 0.01322777 -0.61534119 0.00031972246
-0.039757922 -0.037783094 0.0052982536 -0.78143269 0.0235113 -0.62354636 0.00090907642
-0.038383767 -0.037710786 0.0037454697 -0.74261159 0.021502001 -0.66937715 0.00051597081
0.038338881 -0.037897494 0.003670746 0.76097727 0.024303162 -0.6483233 0.00025345306
0.039509699 -0.037768997 0.0051403376 0.78803372 0.032282159 -0.61478508 0.00029641704
-0.039795708 -0.034840461 0.0053545902 -0.78568965 -0.038394071 -0.61742836 0.00073545804
-0.038587183 -0.035073783 0.0038532796 -0.74761772 -0.037846327 -0.66305 0.00039321245
0.038347516 -0.035066646 0.0037653134 0.76407355 -0.014692444 -0.64496171 0.00037980767
0.039562453 -0.034840856 0.005357563 0.8078959 -0.019530237 -0.5890016 0.00070867979
-0.039927695 -0.032080941 0.0052703028 -0.79122442 -0.031730581 -0.61070216 0.000392758
-0.038822018 -0.031857885 0.0038522989 -0.77037704 -0.027178705 -0.63700902 0.00040000369
0.038324416 -0.031949878 0.0035123159 0.76594514 -0.017650647 -0.64266366 0.00027504473
0.039528698 -0.032006063 0.005035399 0.78973079 -0.024650013 -0.61295819 0.00039533319
-0.040023293 -0.028978748 0.0053681196 -0.78356087 -0.0047784219 -0.62129653 0.00029031839
-0.038854811 -0.028883528 0.0039521907 -0.77201003 -0.0009219434 -0.63560963 0.00026959085
0.038328029 -0.02885665 0.0035519139 0.75757855 0.0063339835 -0.65271318 0.00024370934
0.039498612 -0.02895551 0.005022299 0.78508419 0.011871505 -0.61927515 0.00018327605
-0.040016811 -0.025865346 0.0053004758 -0.78283322 -0.00095985085 -0.62223083 0.00029114744
-0.038848598 -0.02578057 0.0038854736 -0.76793742 0.00033385277 -0.6405248 0.00029202006
0.038329553 -0.025761535 0.0035685883 0.76030874 0.0075404751 -0.64951813 0.0002415051
0.039505634 -0.025852997 0.0050970218 0.79010463 0.0093338452 -0.61290097 0.00016273365
-0.039964069 -0.02270386 0.0052877427 -0.78478986 0.064243443 -0.61642331 0.00071920652
-0.038818806 -0.0230543 0.0038739159 -0.76419067 0.059034329 -0.64228314 0.00056082761
0.038333304 -0.022925396 0.0036096512 0.76520574 0.042828482 -0.64235961 0.00032906709
0.039511308 -0.022748545 0.0051575075 0.79387051 0.045086846 -0.60641301 0.00035871379
-0.039644472 -0.020043438 0.0054703015 -0.77856416 0.045209378 -0.62593448 0.0015048431
-0.038385235 -0.019893752 0.0039013536 -0.75090724 0.037170339 -0.65936095 0.0013007716
0.038182903 -0.019839745 0.0038458291 0.75966007 0.04219158 -0.64895028 0.00047944512
0.039395843 -0.020036176 0.0053098011 0.78763127 0.04424743 -0.61455601 0.00062515517
-0.039697848 -0.016928524 0.0053488608 -0.78253216 -0.050890602 -0.62052679 0.00026536701
-0.038457677 -0.017257834 0.0038474533 -0.75528288 -0.045671601 -0.65380555 0.00055680756
0.038184971 -0.017258709 0.0038686641 0.75682813 -0.030156601 -0.65291786 0.00059320504
0.039381858 -0.016910251 0.0053579477 0.78736609 -0.035857037 -0.61544204 0.0006527403
-0.039743435 -0.013942292 0.0051467088 -0.78808254 -0.0396473 -0.61429149 0.0002132785
-0.038575724 -0.013897711 0.0037294808 -0.76019853 -0.037853722 -0.64858723 0.00035129016
0.038343642 -0.013897439 0.00372286 0.76599914 -0.036660515 -0.64179534 0.00022551043
0.039514337 -0.01394369 0.0051898775 0.79095054 -0.03887568 -0.61064386 0.00027102022
-0.039962336 -0.010938805 0.0053545716 -0.78389347 -0.018501023 -0.62061965 0.00021310158
-0.038820263 -0.010685346 0.0038332795 -0.77636772 -0.017214652 -0.63004512 0.00030833232
0.038339768 -0.010799013 0.0036804606 0.76051301 -0.0073762434 -0.64928067 0.00012799015
0.039510753 -0.010834377 0.0051515815 0.78806102 -0.0058237985 -0.61556959 0.00017360519
