# .PCD v0.7 - Point Cloud Data file format
VERSION 0.7
FIELDS x y z normal_x normal_y normal_z curvature
SIZE 4 4 4 4 4 4 4
TYPE F F F F F F F
COUNT 1 1 1 1 1 1 1
WIDTH 553
HEIGHT 1
VIEWPOINT 0 0 0 1 0 0 0
POINTS 553
DATA ascii
-0.022834856 -0.015931698 -0.022526426 -0.7203539 0.15342295 -0.6764257 0.0012425182
-0.021416325 -0.014964041 -0.023852084 -0.70410764 0.19138677 -0.68381542 0.00023553058
0.049362548 -0.017159179 -0.023718888 0.34561417 -0.76028955 -0.55000973 0.012107544
0.051903903 -0.016954502 -0.022917444 0.15133493 -0.84743416 -0.50887436 0.0058960086
0.055088025 -0.01668386 -0.023487214 0.18209831 -0.8307026 -0.52609247 0.0073356214
0.057760887 -0.015943598 -0.022796296 0.2832146 -0.80486679 -0.52151603 0.0024583007
0.060832873 -0.015183465 -0.022322925 0.5986765 -0.61148208 -0.51737416 0.075590968
0.062844172 -0.014817537 -0.021586614 0.86512834 0.051762722 -0.49887225 0.083557785
-0.022735246 -0.012847279 -0.021944564 -0.67671824 0.13793914 -0.72320479 0.00096649403
-0.021047788 -0.012644643 -0.023443695 -0.66842413 0.18849966 -0.71949786 0.0011906913
0.061275017 -0.012880914 -0.022887899 0.77589482 0.34880316 -0.52566499 0.028837863
0.062578887 -0.013833878 -0.021713445 0.86514926 0.0517607 -0.49883616 0.083491832
-0.022580693 -0.010089843 -0.021702766 -0.65048826 0.16470934 -0.74144179 0.00043592599
-0.020582829 -0.009795283 -0.023225619 -0.62891203 0.19089063 -0.75367796 0.00079050165
0.058039654 -0.009288596 -0.023093294 0.62164587 0.70893198 -0.33312425 0.014801814
0.059985306 -0.010515037 -0.022279082 0.76110524 0.38738957 -0.52023852 0.024225852
-0.022127187 -0.0076314597 -0.021409381 -0.63419211 0.22635576 -0.7392993 0.00021204732
-0.020252261 -0.006963301 -0.022793185 -0.59784466 0.23081672 -0.76766235 0.00031441878
-0.018495908 -0.0062088743 -0.023907915 -0.57596749 0.2391569 -0.78170681 0.00039253081
0.05276927 -0.0060626739 -0.02312075 0.58923596 0.72451437 -0.3576031 0.0012275517
0.05480602 -0.0073023555 -0.022219989 0.55544221 0.77938831 -0.28989276 0.0036504911
-0.019970655 -0.0042212033 -0.022041621 -0.5920552 0.27516931 -0.75746447 0.0003413368
-0.017842865 -0.0038069678 -0.023473756 -0.55540788 0.28464341 -0.78134513 0.00030818133
0.049391873 -0.0032995581 -0.023283156 0.55499899 0.70302922 -0.44466394 0.0006921477
0.051320519 -0.004321496 -0.022292137 0.58537948 0.70445424 -0.40134165 0.00076768559
-0.019360345 -0.0016385948 -0.021515727 -0.56177121 0.30837792 -0.76766938 0.00011675501
-0.017363606 -0.0010771882 -0.022728039 -0.54912913 0.3183558 -0.77272695 0.00015541585
-0.015389252 -0.00027735846 -0.023755807 -0.51895261 0.33273241 -0.78738636 0.00029360387
0.044219691 0.00011298346 -0.024016494 0.48857272 0.70942032 -0.50795633 0.00068541814
0.046188891 -0.00063870655 -0.023008268 0.52646297 0.70129502 -0.48064744 0.00045833594
0.048171565 -0.001644833 -0.022224188 0.560045 0.69655156 -0.44851488 0.00036224711
-0.016940111 0.0017502101 -0.021791682 -0.5150286 0.35195956 -0.7815817 0.00047383388
-0.01453877 0.0022477368 -0.023099072 -0.4790563 0.38241342 -0.79010445 9.2960836e-05
-0.012502326 0.0033546712 -0.023777708 -0.4561058 0.40103838 -0.79444045 0.00020880708
0.040180791 0.0032478601 -0.023394609 0.43389484 0.70624709 -0.55941963 0.00015192894
0.042668756 0.0021398899 -0.022670168 0.47223204 0.70458239 -0.52967972 0.0001620407
0.044993047 0.00089753332 -0.022091961 0.51692021 0.69991076 -0.4928675 0.00029093283
-0.016161961 0.0040155528 -0.021277839 -0.48090702 0.3919467 -0.7842871 0.00023909623
-0.014070228 0.0051207268 -0.02190865 -0.44378498 0.41810039 -0.79262024 0.00021682295
-0.011355225 0.0053911749 -0.023272673 -0.39149711 0.44976637 -0.80277044 0.00032437526
-0.008892525 0.0063124774 -0.02389502 -0.34599599 0.4803597 -0.80594134 0.00018624758
0.034625635 0.0062419861 -0.023675645 0.35466701 0.70962524 -0.60880476 0.00021004127
0.036914378 0.0056408765 -0.022855399 0.41043261 0.70505047 -0.5783155 2.2155582e-05
0.039437611 0.0046356744 -0.022210527 0.44858289 0.70359719 -0.55111194 0.00033797789
0.041614398 0.0040161787 -0.021148408 0.49102011 0.70505917 -0.51165503 0.00018471474
-0.013059094 0.0072778044 -0.021371648 -0.42136303 0.44220254 -0.79177666 0.00024984867
-0.010897969 0.0080282725 -0.02201944 -0.37099984 0.464349 -0.80420095 0.00018404538
-0.008151737 0.0082456414 -0.023066126 -0.32357711 0.48674136 -0.81140661 0.00013885595
-0.0055080783 0.0089038163 -0.023695676 -0.28617594 0.50409818 -0.8148548 0.00054655905
0.028303782 0.0091134077 -0.023633976 0.26526251 0.70324695 -0.65960562 7.1508592e-05
0.031101765 0.0085983817 -0.022947164 0.31713754 0.70469588 -0.63468707 0.00029786452
0.03370462 0.007778916 -0.02243753 0.36372533 0.70894229 -0.60423893 0.00036940997
0.036085125 0.0071441019 -0.021624554 0.41862705 0.70618576 -0.57101059 0.00017194718
-0.0099614626 0.010052855 -0.021280006 -0.36981222 0.47924086 -0.79596931 0.00025772038
-0.0078123696 0.010715829 -0.021763682 -0.31446981 0.49823883 -0.80800176 0.00034196419
-0.0051374836 0.011087297 -0.022473734 -0.25349325 0.52915132 -0.80977786 0.00011369849
-0.0023097461 0.011251696 -0.023177963 -0.21772048 0.5464983 -0.8086639 0.00034361341
0.00054698595 0.011715676 -0.023527581 -0.17764491 0.56888378 -0.80300283 0.00011768137
0.0033867101 0.012149311 -0.023838917 -0.12759015 0.58677363 -0.79963583 0.00037616622
0.0055717002 0.012265454 -0.024047488 -0.069723435 0.5995127 -0.79732251 0.00010199473
0.013834751 0.012265078 -0.024061808 0.055520501 0.64281285 -0.76400864 0.00022086887
0.015960777 0.012200359 -0.023879936 0.10479955 0.64694297 -0.75530249 0.00014239812
0.018856503 0.011928738 -0.023636494 0.13654056 0.65990937 -0.73883444 0.00033997421
0.021765394 0.011660964 -0.023227958 0.1803776 0.6804961 -0.71020347 0.00071558746
0.024778347 0.011155915 -0.022815427 0.24077412 0.69178379 -0.68078125 0.00039795955
0.027622059 0.0106862 -0.022204066 0.27351451 0.70570761 -0.65357983 0.0002816717
0.030368151 0.010177718 -0.021560069 0.32967862 0.70997888 -0.62228775 0.00029399563
-0.0047191982 0.013008139 -0.021358488 -0.25235555 0.54719603 -0.79805583 0.00019730561
-0.0020546936 0.013504236 -0.021718642 -0.20788702 0.56000453 -0.80198377 0.00018518436
0.00078807032 0.013916117 -0.022085099 -0.16095802 0.57325685 -0.80341095 0.00032607693
0.003647119 0.014014762 -0.022505501 -0.11643135 0.59649915 -0.79412383 0.00039202318
0.0067764292 0.013975029 -0.022836413 -0.041953173 0.61314195 -0.78885788 0.00038749957
0.0099357292 0.014038128 -0.022828355 0.022454875 0.63726228 -0.77031976 0.00011107402
0.012911782 0.014008655 -0.022714917 0.073678143 0.65342772 -0.75339484 0.00012545747
0.015793703 0.013945746 -0.022417968 0.11042584 0.65449679 -0.74795729 0.0001657635
0.018711613 0.013671966 -0.022161501 0.15887693 0.65730208 -0.73669004 0.00025398441
0.021558361 0.013302096 -0.021790078 0.21051183 0.67266703 -0.70936859 0.00037864683
0.023970529 0.012823537 -0.021396194 0.25938305 0.67841297 -0.68736911 0.00026368091
0.0041534919 0.015765816 -0.021219933 -0.096707955 0.6019631 -0.79264617 0.00020986806
0.0065971813 0.015758682 -0.021426404 -0.026038222 0.62192678 -0.78264242 0.00034912492
0.0097794114 0.015760323 -0.021378819 0.031275839 0.64264339 -0.76552683 0.00026458033
0.012478081 0.01576733 -0.021176087 0.078458272 0.65730435 -0.74953014 0.0001684275
-0.019600719 -0.063469253 -0.019212494 0.22515939 -0.6950025 -0.68284309 0.025063215
-0.017875023 -0.063293457 -0.019282453 0.25380933 -0.70913112 -0.65780991 0.036051899
-0.020884501 -0.061320622 -0.019819729 -0.46220824 -0.59146917 -0.66070253 0.051181179
-0.016739093 -0.061485533 -0.019818291 0.27108666 -0.75284994 -0.59977406 0.034872122
-0.014586609 -0.060577337 -0.019200716 0.66203356 -0.59579688 -0.45468417 0.010556954
-0.022069929 -0.057270799 -0.020625079 -0.94984305 -0.23783638 -0.20305654 0.0096108671
-0.021596786 -0.05903931 -0.020285765 -0.83420151 -0.32363895 -0.44650397 0.050164111
-0.013497092 -0.058488563 -0.020353884 0.68817741 -0.57305205 -0.44499797 0.0073228222
-0.011090383 -0.05661457 -0.018416287 0.40867874 -0.70869815 -0.57509005 0.02349638
-0.022242522 -0.054531839 -0.019197667 -0.97111195 -0.12539507 -0.20302141 0.0040293662
-0.010878704 -0.055169214 -0.019678915 0.51961756 -0.6535055 -0.55038905 0.031275682
-0.0081753945 -0.054917082 -0.0195195 0.29735878 -0.7281518 -0.61755377 0.0036027252
-0.0054987702 -0.054053009 -0.01881117 0.41242111 -0.69945008 -0.5836767 9.6968193e-05
-0.022871237 -0.051797155 -0.019405017 -0.93982512 -0.15921155 -0.30229202 0.004317522
-0.0071128509 -0.053325672 -0.020787219 0.26493943 -0.71688896 -0.64488548 0.0042926497
-0.0048772683 -0.052572146 -0.020158596 0.39528343 -0.70352572 -0.59059507 0.00038697119
-0.0022810756 -0.051662616 -0.019413574 0.41919762 -0.70731235 -0.56919473 4.8061014e-05
-9.7255106e-05 -0.050843675 -0.018806767 0.42148355 -0.7077021 -0.56701797 2.4806119e-05
-0.023520136 -0.04882979 -0.019533321 -0.91439593 -0.19147444 -0.35667583 0.0011673338
-0.0014765828 -0.050054561 -0.020815287 0.41403952 -0.70556122 -0.57511276 0
0.00095358951 -0.049304467 -0.019970994 0.41360837 -0.70508975 -0.57600051 6.6483939e-05
0.0035164447 -0.048336696 -0.019355994 0.38473418 -0.72154373 -0.57563365 9.9721481e-05
0.0057934592 -0.047846306 -0.018550994 0.38555014 -0.71560436 -0.58246154 8.8141387e-05
-0.024124293 -0.045882933 -0.019662693 -0.89577031 -0.18713468 -0.40320745 0.00024520321
0.0045310291 -0.046861235 -0.020547466 0.38210818 -0.72113144 -0.57789516 6.1954248e-05
0.0068308637 -0.046311852 -0.019741978 0.39107764 -0.7153669 -0.57905829 0.00011260777
0.00928827 -0.045224726 -0.019330602 0.41494161 -0.70319104 -0.57736117 2.0109435e-05
0.011343274 -0.044784453 -0.018391484 0.4241004 -0.7035405 -0.5702365 0.00017729055
-0.025203031 -0.042604014 -0.018785456 -0.88754028 -0.1811163 -0.42363808 0.0001674361
-0.024376554 -0.043087743 -0.020308578 -0.88787609 -0.16191009 -0.43065205 0.00038633318
0.010350888 -0.043671273 -0.020450126 0.418412 -0.69844931 -0.580603 2.3700086e-05
0.012836994 -0.042922892 -0.01952224 0.46812195 -0.67287207 -0.57280445 0.00054801785
0.014944443 -0.041950669 -0.018752113 0.50934744 -0.6526804 -0.5608685 0.00016604185
-0.025389804 -0.039903551 -0.019362416 -0.87601089 -0.1391535 -0.46178052 0.00042022608
-0.024508918 -0.040576868 -0.020842258 -0.87302381 -0.12150573 -0.47229835 0.0002342092
0.013964531 -0.041079205 -0.020727852 0.48857296 -0.6724813 -0.5559364 0.00036044826
0.016169127 -0.040180676 -0.019755132 0.43485591 -0.6860463 -0.58330154 0.0015376443
0.018728012 -0.039335348 -0.019168718 0.38173816 -0.71725786 -0.58293831 0.00020540942
0.020709556 -0.03886367 -0.018429542 0.40087506 -0.70922774 -0.57990962 0.00024841973
-0.025658596 -0.036867645 -0.019681733 -0.86899918 -0.1152683 -0.48120025 0.00019764526
0.019308373 -0.037978832 -0.020484848 0.37983286 -0.71854836 -0.58259362 4.8409438e-05
0.021923305 -0.03719946 -0.019666243 0.40333283 -0.71897674 -0.56603462 0.00010146161
0.024530742 -0.03617321 -0.019068414 0.40554816 -0.71929413 -0.56404495 0.00011948852
-0.026027737 -0.034001894 -0.019596711 -0.85393143 -0.089193307 -0.51268476 0.00031414116
0.025325203 -0.034905232 -0.020178009 0.40596649 -0.72650266 -0.55442315 5.7123685e-05
0.02773531 -0.033966534 -0.019630931 0.41394591 -0.7246213 -0.55097431 5.666467e-05
0.030434137 -0.033027474 -0.018765768 0.40105376 -0.72648573 -0.55800933 0.00017560652
-0.026316449 -0.030942373 -0.019537915 -0.8415848 -0.053017184 -0.53751665 0.00029413722
0.028887339 -0.032224398 -0.021091187 0.41481477 -0.7205838 -0.55559671 0.00017461776
0.030891938 -0.031783797 -0.020073408 0.41771492 -0.72457796 -0.54817969 6.0102189e-05
0.033591636 -0.030753896 -0.019495863 0.38151065 -0.73130339 -0.56537157 0.00015553003
0.036507629 -0.029905975 -0.018785501 0.3810873 -0.72036028 -0.57952857 0.00018367528
-0.026291098 -0.027914638 -0.019786049 -0.82725161 -0.017228859 -0.56156743 0.00023804966
0.034792677 -0.029147243 -0.020779554 0.38423315 -0.72792763 -0.56787872 0.00017261019
0.036966488 -0.028562346 -0.020158475 0.3950052 -0.70966387 -0.58339363 0.00024428059
0.03965183 -0.027618589 -0.019379389 0.41583341 -0.69126046 -0.5909667 7.3912932e-05
0.041969992 -0.026852269 -0.018631149 0.43868625 -0.67836112 -0.58939004 0.00018157013
-0.026250143 -0.024849767 -0.019835997 -0.81689823 0.031460933 -0.57592314 0.00015126492
0.04052382 -0.025970018 -0.020657972 0.42553851 -0.67980826 -0.5973087 3.5258836e-05
0.04305907 -0.025136299 -0.019836508 0.46044794 -0.67350614 -0.57825363 0.00027819109
0.045251697 -0.024185009 -0.019040473 0.45468315 -0.67535818 -0.58065009 0.00036016564
-0.026186293 -0.02181747 -0.019580893 -0.79845697 0.08136601 -0.59652835 0.00073714746
0.046343081 -0.02244566 -0.020173717 0.44273561 -0.67420578 -0.59112751 0.00029811001
0.048796687 -0.021624792 -0.019489486 0.40471026 -0.68374455 -0.60720915 0.00039937545
0.051306345 -0.020915804 -0.018677356 0.43030524 -0.67986566 -0.59381819 0.00078018411
-0.025813509 -0.018836817 -0.019557428 -0.76612163 0.070903279 -0.63877255 0.0017125304
-0.024501922 -0.018028276 -0.020962838 -0.76323318 0.10941865 -0.63679099 0.00070839404
0.049820941 -0.019833924 -0.020797346 0.40625429 -0.67289919 -0.61819428 0.0013068478
0.051979583 -0.019302018 -0.019848185 0.34818509 -0.76174647 -0.54636014 0.011854594
0.054612808 -0.01823513 -0.019485071 0.22769172 -0.8609004 -0.45498016 0.0099876858
0.057864983 -0.018180257 -0.019359741 0.19471297 -0.87662786 -0.4400118 0.0054989667
0.060225785 -0.017754212 -0.01859045 0.28170988 -0.81597483 -0.50480151 0.0024997254
-0.025923952 -0.015936622 -0.019298961 -0.72654152 0.053229891 -0.6850577 0.00036843246
-0.024390304 -0.015587215 -0.020776073 -0.72381431 0.1005533 -0.68262863 0.0011267707
0.058815874 -0.016896259 -0.020733748 0.26968807 -0.83471823 -0.48011863 0.0065021883
0.060950235 -0.016634405 -0.020017007 0.46817419 -0.70963103 -0.52653283 0.038680896
0.063631862 -0.016012715 -0.019366354 0.64538646 -0.4840695 -0.59089172 0.077804647
-0.025809584 -0.01300818 -0.019092828 -0.71874106 0.10050962 -0.68797457 0.00019516978
-0.024276884 -0.012897292 -0.020618372 -0.68661726 0.10928767 -0.71875787 0.00040300292
0.062040176 -0.012165946 -0.020493457 0.8189162 0.31620035 -0.47895047 0.028535727
0.063211605 -0.013185066 -0.019490015 0.87244976 0.05371993 -0.48574227 0.086980611
-0.02554754 -0.010131462 -0.018862698 -0.70496178 0.15130074 -0.69291919 0.00033566807
-0.024048695 -0.0097765373 -0.020324126 -0.68116343 0.15449327 -0.71564531 0.00046475022
0.061425466 -0.010842306 -0.01973095 0.69949085 0.67566288 -0.23279214 0.014410837
-0.025264321 -0.0073093609 -0.018444395 -0.68340665 0.19785647 -0.70271492 0.00022471778
-0.023515573 -0.0069252597 -0.019962225 -0.6599158 0.21612583 -0.71958375 0.00026237741
0.055152588 -0.0063521517 -0.019690126 0.66276342 0.66211849 -0.34977657 0.00046406273
0.056859341 -0.0077877794 -0.019029157 0.62460816 0.74850416 -0.22272405 0.0069698426
-0.023256883 -0.0041582794 -0.019320767 -0.6390813 0.22905494 -0.73424029 0.00016931261
-0.021299753 -0.0035516093 -0.020777293 -0.60323244 0.2564235 -0.75522017 0.00026390486
0.05231002 -0.0036359774 -0.019606287 0.62788934 0.67857003 -0.38117921 0.00018321845
0.053954765 -0.00499395 -0.019268075 0.64393944 0.67403549 -0.36196423 0.00040671049
-0.022748077 -0.0011438867 -0.018780837 -0.60799295 0.27584502 -0.74448246 0.00036620969
-0.020715093 -0.00076025078 -0.020202583 -0.56653893 0.30258271 -0.76647073 0.0001331073
0.047080126 0.00034112768 -0.020498985 0.55873382 0.6949228 -0.45265755 0.00040738701
0.048965733 -0.00074547221 -0.019732866 0.59025824 0.68184453 -0.43206859 0.00031826863
0.051105838 -0.0021764608 -0.018985087 0.60786307 0.68102795 -0.40829337 0.00012257365
-0.022028647 0.0017287908 -0.01824905 -0.58406657 0.32756755 -0.74267471 0.00022911504
-0.02025394 0.0021426922 -0.019349504 -0.55320901 0.33172822 -0.76414412 0.00021824375
-0.018181875 0.0026136241 -0.020587042 -0.52061516 0.34633532 -0.78039193 0.00030280251
0.043514971 0.0031789104 -0.020428274 0.50580567 0.70036489 -0.50363654 0.00023948537
0.045694191 0.0020584904 -0.019570757 0.55966645 0.69307208 -0.45433959 0.00018141647
0.0475902 0.0013178317 -0.018342013 0.57650042 0.68473685 -0.44585064 0.00017369469
-0.019479137 0.0049814819 -0.018641725 -0.5351944 0.36342916 -0.76255238 0.00026697086
-0.017312849 0.0052579087 -0.019961331 -0.50628495 0.37592155 -0.77611756 0.0003480672
-0.015338433 0.0058381329 -0.020830669 -0.4732177 0.39195436 -0.78894663 0.00025916702
0.038213078 0.0064674644 -0.020884598 0.44447502 0.70378554 -0.55419117 6.5771601e-05
0.040199101 0.0058230716 -0.020014603 0.47668663 0.70335644 -0.52731341 6.0247006e-05
0.042405661 0.0047802613 -0.0192998 0.51259255 0.69866097 -0.49912095 0.00041562208
0.044402566 0.0040307967 -0.018187786 0.54506558 0.68847167 -0.47844559 0.00014205338
-0.016703611 0.0079287738 -0.018942967 -0.46946046 0.41381329 -0.7799778 0.00038197709
-0.014174392 0.0083739832 -0.020177394 -0.42245859 0.44163233 -0.791511 0.0002449461
-0.011890127 0.0092856092 -0.020849051 -0.37358028 0.46872368 -0.8004598 0.00023451677
0.034265645 0.0091080582 -0.020511666 0.37866798 0.71559453 -0.58697104 0.00018716615
0.036756206 0.0082701733 -0.01972843 0.42021012 0.70961642 -0.56556863 0.00014710081
0.039179426 0.0073653175 -0.018885074 0.47508204 0.70033628 -0.53275335 0.00034936704
-0.0160277 0.0099495603 -0.018245364 -0.43643019 0.4333612 -0.78849649 0.00089882704
-0.013750128 0.010884156 -0.018905688 -0.39430645 0.46326229 -0.79366904 0.00070499274
-0.011150155 0.011240259 -0.020003157 -0.37530708 0.48309276 -0.79105371 0.00021820028
-0.0086250044 0.011901779 -0.020750768 -0.31459305 0.51555818 -0.79701382 0.00047076654
0.025948824 0.012342053 -0.021092111 0.26616377 0.68863386 -0.6744926 0.00020266105
0.02799641 0.012089958 -0.020502891 0.29177755 0.70351171 -0.64802563 0.00033747789
0.030762238 0.011501345 -0.019768063 0.33939657 0.70823205 -0.6190455 0.00031750233
0.033479426 0.010475788 -0.019306976 0.39292443 0.72405118 -0.56688648 0.00029436327
0.035756882 0.0099480255 -0.018323356 0.43231452 0.7191245 -0.54402578 0.00016263047
-0.012823964 0.012911486 -0.018157328 -0.37944818 0.44521621 -0.81104964 0.0010304466
-0.010735487 0.013572652 -0.018653447 -0.32999107 0.48021838 -0.81270921 0.0012121903
-0.0081165284 0.014107667 -0.019430388 -0.28261116 0.53358567 -0.79713058 0.00057851989
-0.0052809999 0.014382167 -0.020192634 -0.2411598 0.56066054 -0.79215002 0.00028790734
-0.0024574844 0.014910991 -0.020625755 -0.20316406 0.57892615 -0.78966367 0.00014167024
-7.0912065e-06 0.015284236 -0.020979747 -0.15211123 0.58778113 -0.79459143 0.00030016023
0.016890632 0.015281915 -0.021049405 0.11686084 0.67356235 -0.72983378 0.00020237798
0.019112175 0.015129701 -0.02071628 0.17196806 0.67529404 -0.71722025 0.00027208068
0.022002306 0.014740122 -0.020271182 0.22157975 0.67916286 -0.69974309 0.0001887164
0.024845744 0.014175589 -0.019726735 0.27082428 0.67382115 -0.68747306 0.00017244036
0.02758796 0.013566638 -0.019086082 0.32734647 0.68654525 -0.64923012 0.00046309215
0.029953124 0.013027121 -0.018440062 0.3775351 0.69510919 -0.6117928 0.00074240752
-0.0072950716 0.016061062 -0.01838569 -0.25969428 0.49737221 -0.82775587 0.0011126669
-0.0050665843 0.016486928 -0.018695761 -0.22021595 0.54617083 -0.80820936 0.00043866923
-0.0021480429 0.016957827 -0.019127728 -0.19075972 0.58220029 -0.7903502 0.00042126884
0.00073426036 0.017046746 -0.019745335 -0.1459987 0.60107946 -0.78574032 0.00019897723
0.0036175714 0.017187776 -0.02006615 -0.087783962 0.61679888 -0.78221041 0.00030952401
0.0066220621 0.017274322 -0.020207131 -0.0088977544 0.63331139 -0.77384591 0.00030901679
0.0097252233 0.017232344 -0.020138323 0.046833053 0.64793044 -0.76025838 0.0001784685
0.012973609 0.017246135 -0.019818684 0.085095264 0.66101813 -0.74552929 0.00011761666
0.01594015 0.017017733 -0.019588063 0.13413639 0.67873782 -0.72202659 0.00040349198
0.018861912 0.016710831 -0.019216737 0.19080143 0.68896526 -0.69922936 0.00017320331
0.021772163 0.016243288 -0.018814094 0.23345736 0.69189286 -0.68321449 0.00017096984
0.024164222 0.015864013 -0.018378103 0.27980509 0.68447477 -0.67320383 0.00024181145
0.0011533354 0.01890696 -0.018326242 -0.13763264 0.58921945 -0.79616439 0.000359575
0.003697294 0.019058174 -0.018637786 -0.072389893 0.62844479 -0.77447844 0.00046049268
0.0067036664 0.019206706 -0.018625323 0.0057759248 0.64400268 -0.76500148 0.00039988532
0.0096121635 0.019060193 -0.018590484 0.059753153 0.66568905 -0.74383301 0.00025368907
0.012329364 0.018945226 -0.018394159 0.099502392 0.66884452 -0.73671317 0.00020905811
0.01455691 0.018831026 -0.018176371 0.14590429 0.68078709 -0.71780288 0.00020248425
-0.01941983 -0.06599313 -0.015926167 0.10083462 -0.77570313 -0.62299037 0.04779499
-0.018014744 -0.066245951 -0.015899399 0.060106326 -0.71411353 -0.6974448 0.046818927
-0.019891053 -0.064492628 -0.017366121 -0.6112802 -0.62142599 -0.49006769 0.068120129
-0.016767398 -0.064114213 -0.016791835 0.42125234 -0.705311 -0.57016039 0.013333729
-0.014671379 -0.063223325 -0.015977386 0.63579589 -0.59885979 -0.4869605 0.0083119255
-0.015789697 -0.062104519 -0.018001998 0.50403422 -0.6948846 -0.51291806 0.0054196725
-0.013668687 -0.061345667 -0.017001264 0.66462153 -0.52541387 -0.53124237 0.0096532898
-0.012403435 -0.060026869 -0.01547488 0.74989903 -0.48238426 -0.45272142 0.0032503083
-0.022842765 -0.05657516 -0.01530155 -0.94066554 -0.24959688 -0.2298906 0.0016462054
-0.012849046 -0.058760658 -0.017273778 0.7149328 -0.55761039 -0.42183143 0.0076649748
-0.01120265 -0.057900995 -0.016563389 0.45110196 -0.66235369 -0.59815943 0.028891431
-0.0083374083 -0.057515528 -0.016503714 0.26042366 -0.77703917 -0.573053 0.0044643148
-0.0058609797 -0.056843206 -0.015734065 0.42035341 -0.70830399 -0.56710541 0.00011037831
-0.022925612 -0.054781642 -0.016854191 -0.962017 -0.19686458 -0.1891236 0.0047189458
-0.0072812554 -0.056113772 -0.017622063 0.28478175 -0.72507262 -0.62703192 0.0027177613
-0.004968184 -0.055358242 -0.016864125 0.4146753 -0.70296454 -0.57782805 0.00016311309
-0.0024365438 -0.054374401 -0.016158756 0.42857143 -0.7023443 -0.56836534 0
-0.00023481704 -0.05356941 -0.015478129 0.40669736 -0.71137732 -0.5731836 0.00012969437
-0.023813112 -0.051875968 -0.016622402 -0.91725129 -0.2547617 -0.30618039 0.00034767963
-0.0017852006 -0.052998099 -0.01737679 0.42386794 -0.70508546 -0.56849855 9.5297582e-07
0.00079706352 -0.05198513 -0.016687807 0.40609515 -0.70694822 -0.57906038 0.00017118866
0.0035220508 -0.051055826 -0.015998304 0.37476993 -0.71610993 -0.58884138 0.00011426702
0.0054780659 -0.050599497 -0.01540103 0.37404421 -0.71852237 -0.58635873 6.1429208e-05
-0.024928393 -0.048672274 -0.016055927 -0.90546751 -0.24864118 -0.34395665 0.00037913176
-0.024207424 -0.049334239 -0.017520988 -0.91173226 -0.23779668 -0.33495817 0.00041628323
0.0019786337 -0.050265085 -0.017957205 0.3955088 -0.71747339 -0.57341498 0.00024148122
0.0039618229 -0.049716771 -0.017340008 0.38022029 -0.71829689 -0.58265102 0.00017130941
0.0066971029 -0.048964866 -0.016543185 0.38826585 -0.71180886 -0.58530152 0.00013920291
0.0094387801 -0.047916394 -0.015915263 0.40395629 -0.70843351 -0.57874113 0
-0.025575543 -0.045643982 -0.016440704 -0.90280712 -0.22372699 -0.3672677 0.00033598885
-0.024688059 -0.04708169 -0.017753938 -0.9066295 -0.21003151 -0.36593667 0.00047671102
0.0079074483 -0.047332387 -0.017722512 0.40164474 -0.70844746 -0.58033079 5.0295475e-05
0.0099318428 -0.046541281 -0.017267138 0.40948901 -0.70705062 -0.57653981 1.3754284e-05
0.012538076 -0.045671798 -0.016463831 0.44923937 -0.68448317 -0.57416612 0.00087321346
0.014566651 -0.044749122 -0.015872691 0.48419118 -0.65386331 -0.58139628 0.00036368796
-0.026132425 -0.042865623 -0.016650967 -0.8941201 -0.20277528 -0.39928851 0.00033307509
0.01334198 -0.044209357 -0.017679468 0.46252245 -0.67250234 -0.57776606 0.00071650301
0.015770376 -0.043108128 -0.01656427 0.44594193 -0.66260952 -0.60173446 0.0017617828
0.018388893 -0.042136181 -0.016074084 0.36872348 -0.68997961 -0.62287325 0.00033547325
0.020381041 -0.041657832 -0.015400046 0.37321407 -0.68425179 -0.62650692 0.00024322195
-0.026727861 -0.039778996 -0.016742662 -0.88914996 -0.16940632 -0.4251045 0.00040991968
0.016543215 -0.041387368 -0.017890373 0.44386649 -0.6845057 -0.57830298 0.0016347714
0.019188998 -0.040608045 -0.017329264 0.36995366 -0.71346593 -0.59506363 0.00025608239
0.021745974 -0.039831586 -0.016536135 0.39245433 -0.69514853 -0.60228574 0.00023128673
0.024250325 -0.039097019 -0.01575014 0.39215758 -0.66939253 -0.63097239 3.1489741e-05
-0.02778214 -0.036656775 -0.015752386 -0.87936962 -0.15982474 -0.44851431 0.00027234128
-0.026996326 -0.036963683 -0.017185086 -0.87840432 -0.14170626 -0.45642647 0.00034405504
0.023220377 -0.037951645 -0.017689103 0.39200929 -0.70065963 -0.59615827 0.00042512055
0.025082804 -0.037425958 -0.017076092 0.39854485 -0.70081604 -0.59162402 0.00045230149
0.027634038 -0.03655643 -0.016352877 0.40737429 -0.69801491 -0.58891547 0.00034263602
0.030011633 -0.035887104 -0.015487755 0.40664133 -0.68596262 -0.60340542 0.00041872953
-0.02803201 -0.034010828 -0.016072566 -0.87165409 -0.12674785 -0.47344929 0.00015335152
-0.027238356 -0.033585377 -0.017593246 -0.86272001 -0.10684574 -0.49426532 0.00019029036
0.028786754 -0.034876 -0.017565558 0.42407179 -0.70569426 -0.5675903 0.00040079141
0.031050893 -0.034208719 -0.016757587 0.3961007 -0.71045363 -0.58168703 0.00034147085
0.033667255 -0.03326945 -0.016251821 0.36000782 -0.72880709 -0.58243853 0.00013497265
0.036271792 -0.032710519 -0.015464241 0.36151245 -0.72203928 -0.5898881 0.00017288046
-0.028515842 -0.030935355 -0.015917528 -0.86719006 -0.088050969 -0.49013099 0.00023177889
-0.02767441 -0.030813683 -0.017399374 -0.85593569 -0.076119982 -0.5114488 0.0003074854
0.034516599 -0.03187643 -0.017493084 0.35369805 -0.73001987 -0.58478093 0
0.036975402 -0.03124268 -0.01683902 0.36552259 -0.72470856 -0.58411533 0.00012074551
0.039600145 -0.030215098 -0.016347943 0.4053269 -0.70259601 -0.58486658 4.3335647e-05
0.041745264 -0.029737916 -0.015369171 0.42294705 -0.69415724 -0.58246166 0
-0.028479405 -0.027917782 -0.016459122 -0.86243922 -0.037775632 -0.50474906 0.00037573618
-0.027647721 -0.027817164 -0.017807443 -0.85185492 -0.026906868 -0.52308619 0.00049006491
0.040472597 -0.028771188 -0.017443223 0.40841123 -0.6982106 -0.58796453 5.5847122e-05
0.042917669 -0.027995385 -0.016628735 0.44297412 -0.67499131 -0.59005141 0.0004463128
0.045212563 -0.027102575 -0.015936948 0.46761581 -0.65977365 -0.58824676 0.00028015353
-0.028485198 -0.024950748 -0.016372852 -0.84560555 -0.009168121 -0.53372955 0.001005383
-0.027650684 -0.024857214 -0.017762128 -0.83706933 0.022937337 -0.54661572 0.00033612229
0.046118431 -0.025374431 -0.016861305 0.45659018 -0.67439157 -0.58027703 0.00061815971
0.048654914 -0.024286637 -0.016368266 0.39696771 -0.70749277 -0.58469701 0.0002413844
0.050836753 -0.023933774 -0.015496706 0.40081349 -0.69786996 -0.59357053 0.0005251214
-0.028727842 -0.021925231 -0.016023031 -0.80222857 -0.023416217 -0.59655756 0.0015305181
-0.027535822 -0.021654993 -0.017631983 -0.80379725 0.033636555 -0.59395164 0.0011908233
0.049331538 -0.022975976 -0.017575929 0.40011233 -0.703722 -0.58709925 0.00017280654
0.051892698 -0.022270398 -0.016706698 0.42666942 -0.67232496 -0.60492343 0.00087147299
0.054322492 -0.021262197 -0.015892763 0.40343946 -0.70452857 -0.58384591 0.0037614745
-0.028798241 -0.018974762 -0.016184911 -0.77988917 -0.016384814 -0.62570304 0.00040951118
-0.027406845 -0.018933572 -0.017717207 -0.7662589 0.015076078 -0.64235508 0.0009109134
0.054998614 -0.019716404 -0.0169529 0.33174998 -0.76820564 -0.54754186 0.0088496925
0.057831302 -0.019426841 -0.016672188 0.1827137 -0.841102 -0.50908065 0.0042686816
0.060872149 -0.018913636 -0.016824078 0.18938418 -0.84089267 -0.50698435 0.0025009171
0.063596264 -0.018301565 -0.016188107 0.33090466 -0.74958962 -0.57325161 0.01028093
0.065908059 -0.017989382 -0.015854109 0.51495934 -0.67007703 -0.5346154 0.016678182
-0.028745476 -0.016038511 -0.016192658 -0.77286345 0.042811044 -0.63312662 0.00032575932
-0.02745582 -0.015871 -0.017723389 -0.74955201 0.043534689 -0.66051227 0.00038266249
0.064799502 -0.016787814 -0.017583147 0.59280121 -0.39790291 -0.70018572 0.057800338
0.065887555 -0.016100498 -0.01619981 0.70817047 -0.31328121 -0.63273174 0.048777364
-0.028603988 -0.013133736 -0.015993152 -0.75719482 0.08979883 -0.64698702 0.00025768543
-0.02733806 -0.013014419 -0.01750847 -0.74396348 0.09853521 -0.66091537 0.00028885534
0.063948117 -0.013103467 -0.017319892 0.91744351 0.2133058 -0.33585414 0.045406315
-0.028267391 -0.010097012 -0.015926166 -0.74093109 0.11621553 -0.66144925 0.00031832993
-0.026823159 -0.0099094389 -0.017465163 -0.72346336 0.13298567 -0.67743307 0.00023381849
0.058658559 -0.0088310735 -0.016882921 0.61469597 0.77023137 -0.16997775 0.00402987
-0.028014235 -0.0072393478 -0.015656346 -0.72136241 0.15964645 -0.67390603 0.00035627224
-0.026524859 -0.0070034396 -0.017109916 -0.6935671 0.1782386 -0.69799393 0.00034890781
0.055899538 -0.0058564516 -0.017136509 0.69313639 0.65264815 -0.30596122 0.00015587609
0.057373714 -0.007135259 -0.016450662 0.71813726 0.63307279 -0.28895968 0.00026949044
-0.027808886 -0.0051465528 -0.015343541 -0.69850308 0.20372854 -0.68599427 0.00016101956
-0.026243031 -0.004133204 -0.01658484 -0.68470168 0.20903976 -0.69820195 0.00021533018
-0.024684623 -0.0033740178 -0.017813131 -0.66552091 0.22044155 -0.71308309 0.00014130218
0.052909981 -0.0028867247 -0.017297292 0.65968668 0.66663527 -0.34700269 0.00017056374
0.054634191 -0.0042469418 -0.016540635 0.67700446 0.65893966 -0.32781643 0.00030235044
-0.025582086 -0.0010446699 -0.016279444 -0.65892571 0.25413522 -0.70797753 0.000389238
-0.023955744 -0.00062409817 -0.017605502 -0.63081509 0.26039281 -0.73093629 0.00041937132
0.049639352 0.0002440938 -0.01709936 0.6165145 0.67953438 -0.39767179 0.00034777811
0.051502571 -0.0012558394 -0.016726222 0.63941473 0.67423987 -0.36952594 0.00032102116
-0.02501652 0.0021075921 -0.015517497 -0.62526757 0.27501604 -0.73034686 0.0010804641
-0.023218622 0.002437372 -0.016942883 -0.59369934 0.31103542 -0.74214429 0.00052262389
0.046476573 0.0031577596 -0.016892342 0.58929312 0.68828511 -0.42308056 0.00021718432
0.048374407 0.0018515491 -0.016330171 0.6052627 0.68318462 -0.40855342 0.00028726872
-0.022839975 0.0051499098 -0.01599481 -0.55704278 0.30866373 -0.77099288 0.0010810677
-0.020615565 0.0056275274 -0.017435892 -0.53577852 0.3527672 -0.76713538 0.00078287639
0.043157533 0.0058625992 -0.016914507 0.54388976 0.69247317 -0.47398823 0.00036740678
0.045159969 0.0045907623 -0.016387522 0.57437193 0.69042659 -0.4397817 0.000263344
-0.022169398 0.0079344893 -0.015514855 -0.51367229 0.30063698 -0.80359071 0.00051091658
-0.02004784 0.0082482575 -0.016665077 -0.47873008 0.35774556 -0.80177027 0.00073021121
-0.017778469 0.0089734374 -0.017650966 -0.47213429 0.39590743 -0.78762078 0.0010067337
0.037674461 0.0093443198 -0.017626734 0.45720834 0.71969408 -0.52249491 0.00027157395
0.039926872 0.0084243417 -0.016717499 0.50836098 0.7055977 -0.4936609 0.00030569016
0.041998178 0.0073475391 -0.016094316 0.53987467 0.69446033 -0.4756681 0.00035940192
-0.019743074 0.010972484 -0.015729278 -0.44989309 0.34506562 -0.82372683 0.00029927783
-0.017124893 0.011286509 -0.01691559 -0.41383821 0.39978087 -0.81787115 0.00053156808
-0.01481034 0.011934374 -0.017773725 -0.41176838 0.41894591 -0.80927813 0.0010014912
0.03184839 0.012425243 -0.01788179 0.39891803 0.69939435 -0.59305304 0.0002442149
0.034060661 0.011866219 -0.017010974 0.4289757 0.70894337 -0.55980271 0.00079501886
0.036785513 0.010743375 -0.016385004 0.45782962 0.72400582 -0.51595318 0.00033833639
0.039001334 0.010004061 -0.015485326 0.49208426 0.71824014 -0.49191886 0.00025001401
-0.018870907 0.013239606 -0.015226627 -0.42542186 0.38816771 -0.81752193 0.00035676081
-0.016926451 0.014033696 -0.015834697 -0.38851976 0.40052867 -0.82983685 0.00022304188
-0.014130495 0.01421668 -0.016978458 -0.36258024 0.41335499 -0.83526832 0.00052935537
-0.011500319 0.01478313 -0.017714478 -0.32498524 0.46062288 -0.8259607 0.0010219435
0.026161734 0.015383149 -0.018011535 0.3253803 0.68085432 -0.6561746 0.00026463723
0.028248481 0.014942894 -0.017387819 0.33842745 0.68316698 -0.64710879 0.00038517706
0.030887293 0.014154542 -0.016614318 0.39254197 0.68586183 -0.61278409 0.00054648338
0.033210311 0.013417941 -0.015766237 0.45797345 0.66766804 -0.5869239 0.00053691067
-0.016137509 0.015972838 -0.015229026 -0.38996461 0.42042267 -0.81925118 0.00019381999
-0.013865096 0.016848315 -0.015761688 -0.33842561 0.44894394 -0.82699305 0.00025501318
-0.011135126 0.017164439 -0.016607244 -0.28920561 0.46510154 -0.83668435 0.00027728008
-0.0082860645 0.017303362 -0.017356899 -0.23041327 0.50005043 -0.83478099 0.00081727805
-0.0053301775 0.017964812 -0.017632276 -0.18562917 0.54081756 -0.82040125 0.00057453534
-0.0029575506 0.018346418 -0.017961934 -0.16588897 0.5776388 -0.79925859 0.00061209314
0.017277483 0.018343981 -0.018022025 0.18818577 0.69124162 -0.69768977 0.00020263123
0.019272268 0.018195402 -0.017628681 0.19948608 0.6879487 -0.69780505 0.00016232717
0.022064233 0.017710607 -0.017194554 0.2378487 0.69994193 -0.67343092 0.00014166435
0.024872551 0.01717175 -0.016649988 0.29210308 0.70277643 -0.6486764 0.00044155258
0.027437259 0.016646434 -0.01602114 0.34681326 0.6976254 -0.62692851 0.00047992161
0.0295661 0.01596459 -0.015467579 0.39155787 0.68981439 -0.60896516 0.00030424603
-0.010830295 0.019274283 -0.015505035 -0.28207985 0.49201342 -0.82362229 0.00025173771
-0.0080628823 0.019900391 -0.015947068 -0.20724544 0.51402956 -0.83235979 0.0003736889
-0.0051939837 0.020148197 -0.016340336 -0.17105685 0.52676624 -0.8326205 0.00020443834
-0.0022193119 0.020123769 -0.016884398 -0.14241432 0.55289704 -0.82098901 0.00045727653
0.00066653971 0.020342179 -0.017152498 -0.11312561 0.58856994 -0.80049229 0.00073238229
0.0037136583 0.020595327 -0.017377067 -0.042830985 0.62638164 -0.77833897 0.0010546038
0.0066460446 0.020704735 -0.017302215 0.036367062 0.65196329 -0.75737792 0.00070320995
0.0096517587 0.020605272 -0.017165832 0.072153054 0.67894697 -0.7306332 0.00011206974
0.012696443 0.020437511 -0.016978502 0.10189531 0.68430126 -0.72204512 0.00018493085
0.01566932 0.020210035 -0.016596206 0.15958978 0.69164604 -0.70438415 0.0001913031
0.018516835 0.019793507 -0.016264921 0.21547273 0.69375205 -0.687226 0.0001419325
0.021353427 0.019321905 -0.015778068 0.25457606 0.69652122 -0.67085707 0.00010827744
0.023619782 0.018954054 -0.015244508 0.29424018 0.70667732 -0.64345163 0.00028368691
-0.0047066142 0.021933459 -0.015291849 -0.16224186 0.55091685 -0.81863803 6.7950001e-05
-0.0020727259 0.022319226 -0.015528884 -0.12428392 0.56043291 -0.81882143 0.00024506901
0.00085636316 0.022508886 -0.015709886 -0.078954004 0.58297521 -0.80864459 0.00047877908
0.0037344776 0.022654349 -0.015781365 -0.011271164 0.61015218 -0.79220402 0.0010228175
0.0067124078 0.022405874 -0.015782682 0.066268981 0.65553564 -0.75225091 0.00066780043
0.0096953223 0.022166831 -0.015596672 0.091819651 0.67989111 -0.72754186 0.00029083641
0.012431461 0.022050438 -0.015439538 0.11834267 0.6941269 -0.71005833 0.00031967132
0.01442806 0.021938365 -0.015192324 0.17191526 0.70198208 -0.69113404 0.00023955786
-0.018984595 -0.068474591 -0.012594724 0.11762978 -0.71710163 -0.68697053 0.048085857
-0.017657418 -0.06867025 -0.01242955 0.43516737 -0.71179932 -0.55133575 0.011141895
-0.019426502 -0.067332149 -0.013909031 0.12922543 -0.73338127 -0.66742241 0.05080305
-0.017067559 -0.067019835 -0.013645365 0.41894749 -0.70569623 -0.57138073 0.011467854
-0.014551968 -0.065892689 -0.01265051 0.53958917 -0.5976764 -0.59298098 0.0037739598
-0.020874349 -0.06459108 -0.014904076 -0.4470008 -0.74956024 -0.48821071 0.13059665
-0.016157562 -0.065127037 -0.014672467 0.43158033 -0.7038669 -0.56418949 0.0080832886
-0.013964466 -0.064259462 -0.014065373 0.57858074 -0.62619656 -0.52261102 0.0035435809
-0.012479539 -0.063209817 -0.012672016 0.73019451 -0.46452814 -0.50102854 0.003629572
-0.021873955 -0.061621945 -0.014808202 -0.89172161 -0.41799337 -0.17353418 0.051720079
-0.012919253 -0.062120672 -0.014800454 0.7460165 -0.46153674 -0.48004493 0.0022568
-0.011356831 -0.060720809 -0.013362899 0.4240675 -0.65163612 -0.6289174 0.024831822
-0.0084714824 -0.060246982 -0.013052105 0.25784659 -0.73399186 -0.62830812 0.0051836893
-0.0062323301 -0.059765499 -0.012300694 0.41218379 -0.72384804 -0.55330682 0.00019249573
-0.022947147 -0.05752515 -0.013342991 -0.93733442 -0.27299327 -0.2165152 0.001754326
-0.010811758 -0.059057031 -0.014499078 0.37662259 -0.72497588 -0.57668495 0.025420297
-0.0078493841 -0.058935758 -0.014478591 0.24587114 -0.76306653 -0.59772646 0.0046821455
-0.0051818569 -0.057990242 -0.013745805 0.41704851 -0.71517855 -0.56088346 0.00025952791
-0.0025759153 -0.057083536 -0.012841097 0.42746601 -0.71088117 -0.55849868 5.4078646e-05
-0.023703367 -0.054754946 -0.014113206 -0.92077613 -0.31069955 -0.23587517 0.00064959057
-0.0020127296 -0.055706419 -0.01416184 0.4328112 -0.70735931 -0.55885351 4.217591e-05
0.00066320744 -0.054683805 -0.013441119 0.40189669 -0.71925682 -0.56669986 0.00019835758
0.00358156 -0.053912219 -0.012596264 0.37492919 -0.70871389 -0.59762263 0.0001623542
-0.025121586 -0.0513101 -0.013154481 -0.91360444 -0.30277798 -0.27138963 0.00046886131
-0.024414126 -0.052793708 -0.013880029 -0.92067778 -0.29729408 -0.25292042 0.00027519863
0.0018410459 -0.053015925 -0.014683013 0.37598059 -0.71794778 -0.58582383 0.00013617854
0.0038951251 -0.052461196 -0.014085269 0.37257203 -0.71104538 -0.59632587 8.2765284e-05
0.0065857372 -0.051580492 -0.013440687 0.39219782 -0.71036774 -0.58443004 6.6117456e-05
0.0091308001 -0.050879586 -0.012495798 0.39802638 -0.70670825 -0.58492589 2.4317138e-05
-0.025807327 -0.048723798 -0.01352377 -0.90997821 -0.27763164 -0.30799392 0.0002686214
0.0076093166 -0.050092328 -0.014521303 0.39744025 -0.71135521 -0.57966799 4.9038979e-05
0.0098435907 -0.049355049 -0.013864345 0.40187103 -0.7082662 -0.58039522 1.7574745e-05
0.012413302 -0.048413087 -0.013270138 0.42333019 -0.6927343 -0.58387572 0.00037183339
0.014706735 -0.047660317 -0.012362614 0.41207334 -0.69012415 -0.59491533 0.00081810285
-0.026651278 -0.045794189 -0.013555359 -0.90815461 -0.25398287 -0.33278817 0.00028336415
0.013241273 -0.046963561 -0.014435818 0.43172389 -0.69393861 -0.57624966 0.00040190126
0.015780406 -0.04582493 -0.013603671 0.40727082 -0.68379992 -0.60543227 0.0013106497
0.0184348 -0.045220912 -0.012894493 0.36418429 -0.6901477 -0.62535262 0.00033538023
0.020547375 -0.044493239 -0.012337053 0.37911704 -0.67444873 -0.63355279 0.00020903548
-0.027985852 -0.042208057 -0.012638131 -0.90340531 -0.24739435 -0.35022131 0.0002310789
-0.027216552 -0.043189775 -0.013922038 -0.90482962 -0.22780617 -0.35970497 0.00049153599
0.016683633 -0.044213649 -0.014772812 0.40736711 -0.66599864 -0.62489825 0.0011874835
0.018863481 -0.043692347 -0.014211141 0.36569163 -0.67608488 -0.63967091 0.00011725988
0.021642495 -0.04276308 -0.01350433 0.38906878 -0.67311007 -0.62892628 8.6932283e-05
0.024587842 -0.041901115 -0.012648117 0.39700016 -0.67414558 -0.62283117 9.0764086e-05
-0.028202044 -0.039776832 -0.013502798 -0.89694232 -0.20959349 -0.38931349 0.00041684299
-0.027341316 -0.040967513 -0.014887536 -0.89502329 -0.18689123 -0.40497524 0.00019157126
0.022535408 -0.041114181 -0.014678674 0.38768172 -0.67234659 -0.63059723 1.9775985e-05
0.024843203 -0.040413219 -0.014014164 0.39151609 -0.6736294 -0.6268481 6.0812727e-05
0.027461715 -0.039564606 -0.01329992 0.40188512 -0.67005825 -0.6241076 7.4895055e-05
0.030047055 -0.038723152 -0.012475045 0.42311206 -0.66823566 -0.61191279 0.00011634197
-0.028747272 -0.03685135 -0.013721105 -0.88856459 -0.18324003 -0.42056635 0.00033970099
0.028174762 -0.037993558 -0.014504467 0.40173972 -0.66684407 -0.62763387 2.625514e-05
0.030756423 -0.037075266 -0.013783149 0.40715566 -0.67422622 -0.61615205 0.0001776779
0.033558622 -0.036207829 -0.012822565 0.37618685 -0.7008642 -0.6060304 0.00028551882
0.035813551 -0.035482835 -0.012343312 0.36329105 -0.71645749 -0.5955739 6.7881047e-05
-0.029349094 -0.033763044 -0.013673016 -0.88575071 -0.1489758 -0.43960428 0.00033445613
0.031842533 -0.03524008 -0.014966005 0.40311855 -0.68661946 -0.60501987 0.00026298774
0.033895928 -0.034809809 -0.014236123 0.36904341 -0.70724589 -0.603001 0.00038533431
0.036748726 -0.033977229 -0.013619727 0.36362723 -0.7169978 -0.5947178 8.3930601e-05
0.039471164 -0.033141673 -0.012887098 0.3970201 -0.7065869 -0.58575594 6.1053921e-05
0.041585173 -0.032492083 -0.012196774 0.41184843 -0.70004272 -0.58337045 5.930679e-06
-0.029860651 -0.03078403 -0.013493443 -0.88328797 -0.095378913 -0.45902634 0.00029192917
0.037797503 -0.03224523 -0.015095675 0.36616474 -0.71733642 -0.5927493 0.00014056709
0.039934788 -0.031669632 -0.014339824 0.39691889 -0.70842588 -0.58359933 8.9568181e-05
0.042661831 -0.030767452 -0.013478111 0.42416295 -0.69332719 -0.58256608 9.605947e-05
0.045209493 -0.029872416 -0.012611732 0.45587131 -0.67495459 -0.58018756 0.00025406716
-0.031023033 -0.026487317 -0.012141818 -0.85083085 -0.11482795 -0.51273912 0.0011644613
-0.029910512 -0.027954733 -0.013732106 -0.86649126 -0.067589685 -0.49459544 0.00063697196
0.043571714 -0.029302027 -0.014585698 0.42827669 -0.69151157 -0.58171368 9.8423858e-05
0.045892376 -0.028358515 -0.013902063 0.46510321 -0.66926849 -0.57944685 0.0003377035
0.048476048 -0.027292879 -0.012877056 0.43087509 -0.68077606 -0.59236026 0.00076019426
0.050824665 -0.026470397 -0.012382472 0.3899695 -0.71353573 -0.58205712 9.7726028e-05
-0.031071594 -0.024535259 -0.012457442 -0.83371848 -0.10921437 -0.54128152 0.00063404982
-0.02985489 -0.025030283 -0.014102668 -0.83684981 -0.054138884 -0.54474896 0.0013191542
0.047265533 -0.026292529 -0.014910841 0.43370241 -0.67845392 -0.59296083 0.0010925538
0.048980895 -0.025795992 -0.014350427 0.40897006 -0.69410127 -0.59242457 0.0008673257
0.05175516 -0.024908401 -0.013677944 0.39773586 -0.70937365 -0.58188939 0.00017115191
0.054525889 -0.024079975 -0.012763998 0.42822361 -0.6811415 -0.59386081 0.00039527359
-0.031247716 -0.021804729 -0.012804408 -0.81705302 -0.07835535 -0.57121342 0.00033028593
-0.03006644 -0.022201547 -0.014230789 -0.80460072 -0.061003085 -0.59067446 0.00065163098
0.053007673 -0.023318689 -0.014746109 0.41674444 -0.69124329 -0.59034467 0.00038074062
0.055046547 -0.02248314 -0.014176873 0.42974171 -0.66736305 -0.60823411 0.00062875083
0.057440888 -0.021683395 -0.013168164 0.3212246 -0.7741251 -0.54547685 0.009622314
0.060961667 -0.021086488 -0.01317874 0.11051641 -0.8542164 -0.50803596 0.0027273514
0.063204274 -0.021127693 -0.012822034 0.20478408 -0.79162544 -0.5756672 0.0068973429
-0.031209044 -0.018929681 -0.013022052 -0.81501997 -0.026028885 -0.57884806 0.00037293055
-0.030121785 -0.01916606 -0.014578475 -0.78625751 -0.019767368 -0.61758274 0.0004190274
0.058007143 -0.02034213 -0.014586249 0.22471453 -0.82953787 -0.51124394 0.0075731878
0.061033241 -0.020273495 -0.014328887 0.15281622 -0.84325397 -0.51533473 0.0035400565
0.063838623 -0.019736839 -0.014127438 0.37358141 -0.7382825 -0.56158328 0.02164506
0.066900656 -0.019133955 -0.013226116 0.48675662 -0.61216372 -0.62315619 0.022128157
-0.031191742 -0.015817307 -0.012995567 -0.80248982 0.021520441 -0.59627753 0.00042671812
-0.030107941 -0.016116766 -0.014454687 -0.7871269 0.041082803 -0.61542141 0.00020793073
0.067083113 -0.016703941 -0.013607437 0.57175642 -0.59299213 -0.56696993 0.014731203
-0.031231949 -0.01269487 -0.012709506 -0.7818833 0.05385042 -0.62109464 0.00017220902
-0.029998986 -0.012888409 -0.014237955 -0.77167332 0.071674034 -0.63196766 0.00013414193
-0.031160975 -0.0099496683 -0.012539772 -0.7741766 0.087283321 -0.62692285 0.00021028338
-0.029888894 -0.0099879056 -0.014033976 -0.75716889 0.09360484 -0.64647764 0.0001931663
0.060158245 -0.0091714757 -0.013533959 0.76211172 0.60438353 -0.23217724 0.00076320785
-0.031007878 -0.0072020781 -0.012349958 -0.76174194 0.14324452 -0.63184661 0.00069610449
-0.02960724 -0.00688121 -0.013843798 -0.74611533 0.14999019 -0.64870256 0.00036530843
0.058089845 -0.0067773662 -0.013782062 0.73268867 0.62724489 -0.26406679 0.00024445998
0.059486043 -0.008185667 -0.013026977 0.74484164 0.61786056 -0.25191116 0.00012495356
-0.028951131 -0.0038326033 -0.013649106 -0.70296693 0.20408031 -0.68131399 0.0003570572
-0.027340256 -0.0024189027 -0.014904076 -0.69576931 0.22706814 -0.68142879 0.00024237632
0.054994818 -0.0033180304 -0.013782198 0.70069754 0.64921677 -0.29587266 0.00025140579
0.056463365 -0.0046849297 -0.013198221 0.71457952 0.64112133 -0.27989203 8.3481835e-05
-0.028641568 -0.00078124582 -0.013040639 -0.67078388 0.17912669 -0.71969616 0.00085262203
-0.027020833 -0.00043149461 -0.01451439 -0.67655551 0.22451288 -0.70133203 0.00057091616
0.052090853 -0.00048350851 -0.014155394 0.66969347 0.66327786 -0.33402568 0.00037993281
0.05370513 -0.0016878666 -0.013279462 0.68843353 0.65422148 -0.31313509 0.00023024225
-0.028389398 0.0021576793 -0.012590555 -0.63951492 0.17977795 -0.74746269 0.00043251214
-0.026550183 0.0023837213 -0.014085473 -0.6285463 0.23204124 -0.74235189 0.0014709659
0.049224362 0.0026340722 -0.013630426 0.63832319 0.67150152 -0.37633654 0.00034334513
0.050687332 0.0013087271 -0.013446236 0.6543467 0.6661585 -0.3578594 0.0001841129
-0.028108176 0.0046606958 -0.012299299 -0.61883056 0.20996901 -0.75694239 0.00016830231
-0.026178727 0.005301544 -0.013585099 -0.58432567 0.22886905 -0.77857727 0.00059167261
-0.024199048 0.0059552714 -0.014747912 -0.56750232 0.26203683 -0.78056258 0.0008677576
0.045850344 0.0055146711 -0.013971653 0.60393292 0.68083644 -0.41439912 0.00031391555
0.047849122 0.0041803671 -0.013188312 0.62351662 0.67530173 -0.39394736 0.00026849838
-0.025828782 0.0081697237 -0.013010656 -0.56889731 0.26057497 -0.78003633 0.00036217555
-0.02359448 0.0084481351 -0.014439396 -0.5244931 0.27839437 -0.80461395 0.00039115144
0.040656991 0.0093563823 -0.01469096 0.5230307 0.71309704 -0.46683142 0.00050186377
0.042797182 0.0083343312 -0.013645401 0.56475234 0.69595939 -0.44350344 0.00023024797
0.044681132 0.0072233109 -0.012858108 0.59907115 0.68187183 -0.41971955 0.00033868017
-0.025308179 0.010626954 -0.012457283 -0.54567057 0.3193188 -0.77477682 0.00023435656
-0.02318226 0.011288916 -0.01362857 -0.51157558 0.32285529 -0.79627562 0.0002542689
-0.020927036 0.011873304 -0.014752296 -0.46546918 0.34196734 -0.81633127 0.00031050353
0.036990631 0.012193548 -0.014008598 0.48325825 0.71016651 -0.51198143 0.0010090643
0.039576575 0.010855079 -0.013490718 0.50172448 0.72205168 -0.47635487 0.00036591245
0.041543249 0.010061207 -0.012591774 0.54989761 0.70844579 -0.44239923 0.00028448945
-0.022662392 0.013953273 -0.012756207 -0.48497286 0.36829337 -0.79319692 0.00042777855
-0.020244138 0.014329907 -0.014003308 -0.44116455 0.38490894 -0.81069046 0.00014767368
-0.018061973 0.015159974 -0.014757583 -0.40173811 0.40180743 -0.82289565 0.0004004245
0.031698085 0.015327494 -0.014707281 0.41957045 0.68698984 -0.59330058 0.0001766252
0.033915464 0.014636293 -0.013768643 0.46583742 0.67756289 -0.56912571 0.00027589806
0.036127105 0.01350233 -0.013135677 0.50028253 0.69163442 -0.52092153 0.00063402881
-0.022007486 0.01607858 -0.012169296 -0.44897577 0.39792565 -0.80004746 0.00023865193
-0.019938545 0.017019406 -0.012781972 -0.41990596 0.42254779 -0.80320138 0.00023086293
-0.017239494 0.017336613 -0.013975846 -0.38359985 0.43463039 -0.81482977 7.7010933e-05
-0.014776189 0.018025974 -0.014727267 -0.33829227 0.46235245 -0.81962711 0.00029745439
0.025630707 0.01847107 -0.014901126 0.30300638 0.70854944 -0.63729483 0.00032583982
0.028020641 0.017974449 -0.014106421 0.36110809 0.70573246 -0.60954291 0.00027371527
0.030568177 0.017009864 -0.013532367 0.41542521 0.69983006 -0.58108503 0.00016497231
0.032928932 0.016259864 -0.012715739 0.47595078 0.68485081 -0.55177009 0.00028221816
