# .PCD v0.7 - Point Cloud Data file format
VERSION 0.7
FIELDS x y z normal_x normal_y normal_z curvature
SIZE 4 4 4 4 4 4 4
TYPE F F F F F F F
COUNT 1 1 1 1 1 1 1
WIDTH 552
HEIGHT 1
VIEWPOINT 0 0 0 1 0 0 0
POINTS 552
DATA ascii
0.042374786 0.023191996 0.0085748639 0.84070265 -0.053189386 -0.53887832 0.00063457817
-0.041988358 0.02609035 0.008987179 -0.83983433 -0.02223222 -0.54238725 0.00015677878
-0.040960539 0.026123742 0.0073868888 -0.8367371 -0.013698024 -0.5474335 0.00022001711
0.04121184 0.026219361 0.0068171551 0.82675534 -0.0046749455 -0.56254214 0.00034421051
0.042123213 0.026039576 0.0081464369 0.83914417 -0.0046506543 -0.54388916 0.00035794411
-0.041963089 0.028949426 0.0087344423 -0.83611506 -0.039594922 -0.54712325 0.00021537859
-0.041067794 0.028974948 0.0073553617 -0.82740682 -0.033346776 -0.56061202 0.0002551323
0.041208796 0.029078629 0.0067858505 0.82614827 -0.013676226 -0.56328678 0.00030827333
0.042213812 0.02910772 0.0083071496 0.83473927 -0.018577587 -0.55033189 0.00035300181
-0.041928817 0.032059688 0.0083916076 -0.84145743 -0.0015423005 -0.54032117 0.0005873472
-0.04101593 0.031960968 0.0070685255 -0.82362652 -0.0078776395 -0.56707782 0.00037209134
0.041223239 0.031861931 0.0066909487 0.81945103 0.047731303 -0.57115823 0.0010396148
0.04241246 0.032062534 0.0084281899 0.84384561 0.054270629 -0.53383452 0.0013966348
-0.041958269 0.035217669 0.0086862277 -0.8446902 0.024689874 -0.53468573 0.00042445317
-0.041024614 0.035091914 0.0071568149 -0.83380502 0.015198872 -0.55184972 0.00059905805
0.041093536 0.035252035 0.0072054802 0.84062606 0.051437702 -0.53916782 0.001327052
0.042194173 0.035232473 0.0088650268 0.83679163 0.059610803 -0.5442667 0.0014684404
-0.041967914 0.038099915 0.0087826755 -0.84583676 -0.0086874012 -0.53337097 0.0004800121
-0.041035123 0.038225416 0.0072638472 -0.83898056 -0.0063244859 -0.5441246 0.00048622742
0.041128162 0.038062036 0.0071032955 0.83954716 -0.064204268 -0.53947979 0.0011736566
0.042179931 0.038094092 0.0087208115 0.83554804 -0.073223896 -0.54451609 0.0010567929
-0.041947782 0.040955555 0.0085812695 -0.84734911 -0.016192162 -0.53078932 0.00026901328
-0.041022684 0.041077752 0.0071369014 -0.8323946 -0.015023678 -0.55397969 0.0002042089
0.041488871 0.041064166 0.0069904025 0.82272309 -0.072059944 -0.56385654 0.00060157123
0.042407777 0.040936567 0.0083813295 0.84644979 -0.075311162 -0.52711576 0.00072003843
-0.041941568 0.044083849 0.0085191559 -0.84638077 0.00073112274 -0.53257781 0.00033010766
-0.041019496 0.043938067 0.007104387 -0.83472621 -0.0017613559 -0.55066234 0.00031994059
0.041774448 0.043952834 0.007248499 0.82694983 -0.023548516 -0.56178242 0.00047363204
0.042699222 0.044101164 0.0086875744 0.87059188 -0.025149914 -0.49136251 0.00030921548
-0.041945193 0.047222126 0.0085554644 -0.84925973 0.00018270921 -0.5279752 0.00042713797
-0.041014753 0.047056481 0.0070563708 -0.83602297 -0.0010471506 -0.54869342 0.0004819468
0.041756362 0.047057271 0.0070641595 0.82739383 -0.024486503 -0.56108809 0.00082216633
0.042683437 0.047219187 0.0085296612 0.87561613 -0.02092173 -0.48255429 0.0003095998
-0.041946743 0.050097175 0.008570876 -0.85196298 -0.0020499865 -0.52359796 0.00054538599
-0.041009519 0.050173596 0.0070031439 -0.83659559 -0.004042007 -0.54780602 0.0005754173
0.041737135 0.050157618 0.0068683033 0.82313126 -0.025529757 -0.5672769 0.0010426345
0.042665917 0.050071716 0.0083543919 0.87749267 -0.023756929 -0.47900137 0.00034546459
-0.041942224 0.052964989 0.0085257422 -0.85214835 0.006203251 -0.52326351 0.00046190358
-0.040978115 0.053168323 0.0069241277 -0.81937045 0.0046102288 -0.57324588 0.00038667311
0.041694701 0.053137366 0.0066769202 0.82588893 -0.022335391 -0.56339014 0.0013838906
0.04273222 0.053119965 0.0082700383 0.87720424 -0.028125366 -0.47929284 0.00039370987
-0.0419572 0.05611898 0.0086754747 -0.85169816 0.01025106 -0.5239324 0.0003219553
-0.041049451 0.056039188 0.0071685449 -0.83992195 0.010476318 -0.54260606 0.00036677421
0.0418653 0.055749021 0.0068496396 0.79055417 -0.015912339 -0.61218536 0.00041845394
0.042939886 0.056093041 0.0084793717 0.85049397 -0.02502008 -0.52538943 0.0013473633
-0.041961521 0.059260339 0.0087187365 -0.85116017 0.0082203001 -0.52484179 0.00023682132
-0.04102809 0.059048325 0.0071918569 -0.84146941 0.005959793 -0.54027188 0.00017432685
0.041804437 0.059062645 0.0066716648 0.785631 -0.021568032 -0.61831933 0.00041605326
0.042918745 0.05919781 0.0082692504 0.84412253 -0.033157732 -0.53512412 0.0013261113
-0.041966993 0.062142693 0.0087734535 -0.85102725 -0.0049300524 -0.52509832 0.00026097588
-0.041030314 0.062176023 0.0072144377 -0.84409881 -0.0054063397 -0.53616047 0.00036742821
0.041989297 0.062113937 0.0067900452 0.80565035 0.027364371 -0.59175903 0.0010601026
0.042876691 0.062184773 0.0080870446 0.84334582 0.027631998 -0.53666037 0.0016691383
-0.041952487 0.064995043 0.0086283311 -0.83783978 -0.089610301 -0.53851134 0.0014072245
-0.040991161 0.065157652 0.007056735 -0.84289473 -0.081624374 -0.53185135 0.0013732312
0.041587919 0.065326482 0.0068201269 0.78443879 0.046223171 -0.61848134 0.00066708302
0.042820014 0.06500192 0.0083271321 0.82923037 0.052406583 -0.55644464 0.0014768573
-0.042559944 0.068258382 0.0087293088 -0.83274478 -0.11176665 -0.5422585 0.0020076782
-0.041544523 0.06789346 0.0071487925 -0.83365834 -0.1033654 -0.5425213 0.0015618722
0.041661888 0.067896761 0.0069865598 0.82823861 0.0067276708 -0.56033522 0.00088236708
0.04271194 0.068107463 0.0083384048 0.82481545 0.0086831525 -0.56533539 0.00096009416
-0.042211972 0.06995593 0.0086089 -0.83172864 -0.097904913 -0.54648155 0.0014598537
0.041774932 0.069733605 0.0072544743 0.82821077 0.006663477 -0.56037712 0.000923277
0.042678952 0.06993556 0.0084847882 0.82636172 0.015582744 -0.56292409 0.00073425745
-0.043079901 -0.06863571 0.0094328299 -0.81358474 -0.15082961 -0.56154275 0.0072261854
0.04340272 -0.068803675 0.010463772 0.83240622 -0.26905808 -0.4844664 0.0093846964
-0.044454802 -0.067033194 0.01088435 -0.86181885 -0.073656328 -0.5018397 0.0039696256
0.044613209 -0.066763543 0.010505484 0.86494964 -0.13952987 -0.48207209 0.010579202
0.045676466 -0.066439427 0.012120364 0.87945974 -0.13755457 -0.45566362 0.011446502
-0.044922817 -0.0637872 0.011999466 -0.8893981 0.11445028 -0.44257444 0.0011173484
-0.044176117 -0.063915573 0.010610364 -0.87285906 0.12599248 -0.47142655 0.0013386115
0.044409193 -0.063859858 0.010391062 0.85745043 0.1426882 -0.49438745 0.0017132788
0.045123994 -0.06324207 0.011875786 0.88423842 0.14713079 -0.44325507 0.002530985
-0.043538373 -0.060877722 0.01060647 -0.86323094 0.11223603 -0.49217418 0.0018556862
0.043863472 -0.060878333 0.010698399 0.88332784 0.13275982 -0.44956297 0.0019974932
-0.043138716 -0.057946034 0.010300267 -0.86658925 0.038546741 -0.49753112 0.000512022
0.043668006 -0.057963625 0.010734329 0.89272499 0.030788243 -0.44954899 0.00058257655
-0.043178778 -0.054887556 0.010389434 -0.86390924 0.007304227 -0.5035944 7.7694654e-05
0.04362458 -0.054823 0.010666557 0.88564032 0.010806717 -0.46424609 0.00030347222
-0.043219578 -0.051828384 0.010486299 -0.87122095 0.0029132236 -0.49088246 8.3503408e-05
0.043428339 -0.051903911 0.010395104 0.87153637 0.0054024672 -0.49030107 0.00036380699
-0.043143727 -0.04894929 0.010366771 -0.86412215 1.5392614e-05 -0.50328213 6.0972168e-05
0.043353904 -0.049027007 0.010288818 0.86888146 0.00090269925 -0.49501938 0.00025998539
-0.043184631 -0.045974247 0.010446107 -0.87098491 -0.00014605823 -0.49130973 0.00014774771
0.043393165 -0.045966111 0.010371622 0.86576909 0.0015216797 -0.50044143 0.00024926083
-0.04322188 -0.042909116 0.010508617 -0.872473 -0.0051764133 -0.48863479 0.00019216564
0.043431465 -0.042902645 0.010445483 0.86581999 0.0015299417 -0.50035328 0.00019197329
-0.043176312 -0.039931465 0.010364624 -0.86922508 0.0024781208 -0.49441034 0.00016078318
0.04339629 -0.039934993 0.010402251 0.86928183 0.019578941 -0.49392894 0.0002064533
-0.043188475 -0.036925361 0.010484096 -0.87129945 0.023123199 -0.49020669 0.0001708675
0.043349739 -0.037065942 0.010591781 0.87074679 0.051461268 -0.48903137 0.00024936438
-0.043213431 -0.033927836 0.010727622 -0.87690872 -0.012524356 -0.48049378 0.00043539339
0.043225925 -0.033825889 0.010718852 0.86652809 -0.016949516 -0.49884039 0.0013363286
-0.043371487 -0.031037096 0.010695295 -0.87021023 -0.030592384 -0.49172986 0.00012069846
0.043452676 -0.030849215 0.010654744 0.86708331 -0.050218202 -0.49562547 0.00024448062
-0.043256123 -0.027868444 0.010414399 -0.8649959 0.0089019518 -0.50169998 0.00010443039
0.04335859 -0.027962325 0.010353696 0.86789083 -0.0035422053 -0.49674231 0.00020773501
-0.043181695 -0.024982644 0.010417918 -0.87027258 0.010737419 -0.49245334 0.00018482139
0.04340839 -0.024988849 0.010521507 0.86712855 0.0070793182 -0.49803412 0.00023109862
-0.043182693 -0.021834796 0.01042727 -0.86867046 0.021427779 -0.49492678 0.00015209379
0.043406807 -0.021838967 0.010506125 0.8686794 0.01767507 -0.49505919 0.00035909607
-0.043256644 -0.018868214 0.010828562 -0.87108976 0.036366172 -0.48977557 8.1930659e-05
0.043334261 -0.019077457 0.010588355 0.86408454 0.047967091 -0.50105596 0.00054478506
-0.043199889 -0.016003711 0.010897245 -0.86156392 -0.011162388 -0.5075264 0.0005549647
0.042989057 -0.016119098 0.010529334 0.85936224 -0.01795808 -0.51105183 0.001616135
-0.043194938 -0.012918651 0.010547493 -0.86265308 -0.032199219 -0.50477016 0.00012903858
0.043387912 -0.012843845 0.010625415 0.85803163 -0.058239985 -0.51028413 0.00028868529
-0.043180663 -0.0097656306 0.01040794 -0.86254543 -0.0097142374 -0.50588626 0.0001263467
0.043397378 -0.0097657582 0.010413514 0.86247075 -0.0048237196 -0.50608397 0.00024076534
-0.043181267 -0.0068800063 0.010413909 -0.86076528 -0.0037596768 -0.5089882 0.00012867971
0.043408312 -0.0068818061 0.010521598 0.85972214 0.0035939964 -0.51074946 0.00020674233
-0.043209776 -0.0040707239 0.010390816 -0.86759955 0.018604998 -0.49691549 0.0003164892
0.043400917 -0.0039944239 0.01044894 0.86437356 0.019066272 -0.50248861 0.00024666716
-0.043217152 -0.00084647315 0.01076342 -0.87088203 0.049314708 -0.48901182 4.9298753e-05
0.04332028 -0.0010039798 0.010691833 0.8639648 0.050606079 -0.50100285 0.00028286842
-0.042937666 0.002040725 0.010603221 -0.86448312 -0.0099143032 -0.50256401 0.00076394394
0.043245666 0.0021369522 0.010805512 0.85835457 -0.030236838 -0.51216513 0.001463152
-0.043194652 0.0049270578 0.010544147 -0.86921823 -0.031686947 -0.49341223 0.00027969319
0.043405574 0.0049265102 0.010495484 0.86064774 -0.05222331 -0.50651574 0.00019590254
-0.043195069 0.0080767311 0.010548012 -0.86916357 0.0036193118 -0.49451143 0.00017618293
0.043389343 0.0080729807 0.010334447 0.86616725 -0.010499619 -0.49964401 0.00017164998
-0.043200355 0.011227205 0.010599809 -0.86846924 0.0057337377 -0.49570993 0.00019156616
0.043394476 0.011221642 0.01038494 0.85981703 0.00080098183 -0.5106017 0.00017966676
-0.04320316 0.014115294 0.010627385 -0.87087667 0.034138814 -0.49031466 0.00028525072
0.043546826 0.014114354 0.010595439 0.8611787 0.032402519 -0.50726855 0.00054477574
-0.042880215 0.017051766 0.010550097 -0.86973971 0.046845932 -0.49128243 0.00035883862
0.043361954 0.016874688 0.010713015 0.8630681 0.046518084 -0.50294083 0.00082453637
-0.042702783 0.020072339 0.010565612 -0.86593759 -0.0029429058 -0.50014335 0.00074249087
0.043243241 0.020152243 0.010618463 0.86379534 -0.041283645 -0.50214863 0.0012021766
-0.043203987 0.023134883 0.011002643 -0.85908037 -0.039196745 -0.51033765 0.00022057307
0.043547194 0.023081793 0.010598695 0.87399095 -0.049401019 -0.4834246 0.00037398998
-0.043240666 0.025948999 0.010994131 -0.8654446 -0.01658212 -0.50073022 0.00027398125
0.043424558 0.025989082 0.010377383 0.87571704 -0.0062740906 -0.48278385 0.00015049525
-0.043213475 0.029083572 0.010728277 -0.86288017 -0.022173373 -0.50492191 0.00038863393
0.043415476 0.028977081 0.010288179 0.86217797 -0.022147974 -0.5061211 0.0003162802
-0.043155245 0.032136872 0.010460608 -0.87123138 0.0072094137 -0.49081963 0.00039145106
0.043713495 0.032087177 0.010515593 0.8698355 0.057820015 -0.4899419 0.001808426
-0.043133203 0.034880083 0.01073424 -0.87286055 0.026604628 -0.48724395 0.00018847674
0.043300092 0.034905471 0.010752453 0.86274922 0.069429755 -0.50084245 0.0020825213
-0.043112364 0.038171735 0.010767832 -0.87005866 -0.012656908 -0.49278557 0.00028840729
0.043322552 0.038166437 0.010714363 0.86664575 -0.072738707 -0.49359319 0.00097899151
-0.043170609 0.041072309 0.010611195 -0.87094814 -0.018024756 -0.49104425 0.00016738602
0.043604694 0.041035648 0.010471594 0.87396979 -0.065076344 -0.48160329 0.00054274249
-0.043215331 0.044050258 0.010745056 -0.8704344 0.004240436 -0.49226609 0.00015391964
0.043632708 0.044156924 0.010387404 0.88508809 -0.014042253 -0.46521166 0.0003347735
-0.043257661 0.04702815 0.010857588 -0.87838751 0.0022862514 -0.47794372 9.4799499e-05
0.043685079 0.047023807 0.010433394 0.89434117 -0.01528922 -0.4471243 6.5390064e-05
-0.043221928 0.050097194 0.010810349 -0.8781594 -0.00036744322 -0.47836801 9.1912807e-05
0.043638542 0.050027072 0.010210328 0.88675082 -0.023860766 -0.46163148 0.00029391277
-0.043188229 0.053167515 0.010782942 -0.87660199 0.0035569551 -0.48120293 9.3467192e-05
0.043946072 0.053063765 0.010646135 0.8899222 -0.029821718 -0.45513636 0.00046859117
-0.043224972 0.056140233 0.010839544 -0.87505531 0.0038816435 -0.48400739 0.00012645332
0.044277892 0.056030188 0.011092996 0.90450352 -0.024594426 -0.42575634 0.00019603223
-0.043262236 0.05911538 0.010902904 -0.87265956 0.007136724 -0.48827687 0.000106905
0.04421626 0.059013858 0.010726975 0.89653951 -0.02879517 -0.44202688 0.0010071511
-0.043202966 0.062116213 0.010927133 -0.87513596 0.003159791 -0.48386681 0.0001384377
0.04417586 0.062107593 0.010335391 0.89553851 0.034107227 -0.44367492 0.00088288571
-0.043144323 0.065178037 0.010693852 -0.86497045 -0.08326225 -0.49486724 0.0016347507
0.044046167 0.065191433 0.010696603 0.8896749 0.0022545303 -0.45658892 0.0036367311
-0.044934686 0.069213837 0.012111299 -0.89404744 -0.027444419 -0.44713083 0.010636733
-0.043684345 0.068173438 0.01054463 -0.87323958 -0.056378156 -0.48401877 0.0087609095
0.044009127 0.067759193 0.010534536 0.88932937 0.057149369 -0.45368186 0.0076639554
0.045118995 0.068641648 0.011828102 0.8979966 0.042132568 -0.43798047 0.008636469
-0.043367565 0.06987007 0.0096824989 -0.88836873 -0.040397238 -0.45734996 0.0092058051
0.044658065 -0.06860169 0.012460209 0.84222299 -0.20624562 -0.49811968 0.012068675
0.045320932 -0.068810724 0.013753064 0.87412208 -0.24940112 -0.41678485 0.0068365564
-0.045850832 -0.06675034 0.013763903 -0.89282191 0.019856388 -0.44997197 0.0029080308
0.046289284 -0.066982493 0.013901396 0.90734243 -0.13790621 -0.39712912 0.0088644074
-0.045713738 -0.063857049 0.013634579 -0.90387851 0.10566028 -0.41453546 0.0012045364
0.046002008 -0.063808985 0.013404254 0.89386487 0.15982524 -0.41888124 0.0033448811
-0.045270476 -0.061313931 0.014025968 -0.89846724 0.11692607 -0.42318431 0.0016045668
-0.044432104 -0.060412709 0.012342207 -0.87211293 0.1167562 -0.47517061 0.0016210184
0.044680864 -0.060460694 0.012680106 0.90878701 0.1467551 -0.39060113 0.0028086198
0.045411583 -0.061275456 0.013895847 0.89553094 0.16583091 -0.41294611 0.003055803
-0.04513815 -0.058007229 0.014028294 -0.90324205 0.025949366 -0.4283461 0.00069441076
-0.044450819 -0.057801429 0.012520574 -0.89854258 0.02754524 -0.43802118 0.00076195039
0.044690549 -0.057836112 0.012773512 0.91352975 0.029190244 -0.40572318 0.00043953143
0.045391854 -0.058061961 0.014429174 0.91491616 0.02576617 -0.40282077 0.00039595892
-0.045145422 -0.054840971 0.014096798 -0.90612441 0.0051428736 -0.42298001 0.00052609463
-0.044472776 -0.054928504 0.012729909 -0.89355272 0.0073172073 -0.44889867 0.0005386378
0.044701837 -0.054948233 0.01288243 0.90927649 0.0067483899 -0.4161379 0.0002286438
0.045393292 -0.054885712 0.014442889 0.91643488 0.0011977701 -0.40018207 0.00013560436
-0.045149073 -0.051934343 0.014131172 -0.9046554 0.0016481542 -0.4261407 0.00037412249
-0.044476911 -0.0520318 0.012769343 -0.89311635 0.0027484631 -0.44981748 0.0003948496
0.044706553 -0.052051287 0.012927892 0.9053787 0.0019016983 -0.4246009 0.00026279705
0.045388628 -0.051967032 0.014398409 0.9132787 -0.0030838263 -0.40732366 0.00028613914
-0.045152888 -0.049027357 0.014167132 -0.9040997 0.0013156687 -0.42731956 0.00038581307
-0.044473637 -0.048862476 0.012738107 -0.89363366 0.0011813947 -0.44879559 0.00044321251
0.04469524 -0.048871826 0.012818722 0.90339983 -0.0032524171 -0.4287869 0.00038216906
0.0453832 -0.0490481 0.014346661 0.91208911 -0.0044954377 -0.40996745 0.00036880973
-0.045154497 -0.045852959 0.014182307 -0.90477276 0.0011340815 -0.4258931 0.00037684821
-0.044473231 -0.045960389 0.012734247 -0.8940801 0.00075041299 -0.44790643 0.00039223107
0.044693507 -0.045967743 0.012802023 0.90124005 -0.0044541894 -0.43329728 0.00050771493
0.045376819 -0.045864243 0.01428578 0.91228414 -0.0057757869 -0.40951714 0.00048339809
-0.045159318 -0.042946104 0.014227672 -0.90493143 -0.0035739685 -0.42554247 0.00036430423
-0.044473767 -0.043059263 0.012739373 -0.89443851 -0.0038772379 -0.44717419 0.00041734494
0.04469401 -0.043066129 0.01280692 0.89959055 -0.00045009702 -0.43673399 0.00050203549
0.045361102 -0.042936865 0.014136005 0.9117977 -0.0018767436 -0.41063553 0.00050532835
-0.04514667 -0.040023118 0.014108486 -0.90477949 0.0039516864 -0.42586201 0.00030467584
-0.044468347 -0.039888885 0.012687655 -0.89391214 0.0050924667 -0.44821343 0.00031040798
0.044698078 -0.039903864 0.01284614 0.89802021 0.033128057 -0.43870521 0.00041984607
0.045365658 -0.040029608 0.014179386 0.90893435 0.026614575 -0.416089 0.00044682829
-0.045167465 -0.036864255 0.014304442 -0.90423375 0.017134104 -0.42669404 0.0003018961
-0.044486914 -0.03673904 0.012864692 -0.89210927 0.018884616 -0.45142481 0.00032431789
0.044668894 -0.036662906 0.013290983 0.89517403 0.05209383 -0.44266203 0.00014993209
0.045430135 -0.036906693 0.014794039 0.90386277 0.045573868 -0.42538816 0.00029068644
-0.045173995 -0.033957317 0.01436593 -0.89932001 -0.015807433 -0.43700543 0.0008049286
-0.044504993 -0.033850588 0.013037039 -0.89702088 -0.013874874 -0.44177034 0.00078345073
0.044456922 -0.034116279 0.013062261 0.90064198 -0.019932501 -0.4341045 0.0010313061
0.045464732 -0.034017861 0.015123852 0.91861278 -0.025233733 -0.39435244 0.0016138735
-0.045131162 -0.031015065 0.013962425 -0.90383893 -0.029164219 -0.42687792 0.00033438261
-0.044471722 -0.030923884 0.012719853 -0.88723266 -0.030317232 -0.46032485 0.00027217052
0.044714425 -0.030944917 0.013003824 0.88689423 -0.051990375 -0.45903784 0.00018127948
0.045391466 -0.031049494 0.014425425 0.89776289 -0.056322247 -0.43686336 0.0002964474
-0.045120329 -0.027833229 0.013860382 -0.9034912 0.0059787203 -0.42856488 0.00038468125
-0.04445133 -0.027745215 0.012525462 -0.8901903 0.0030945395 -0.45557836 0.000417723
0.044698026 -0.027766334 0.012845613 0.88828123 -0.0043398347 -0.45927942 8.9348403e-05
0.045362219 -0.027852217 0.014146684 0.89671707 -0.00069604139 -0.44260371 0.00019653775
-0.04514607 -0.024938617 0.014102889 -0.90262496 0.012268633 -0.43025306 0.00054419204
-0.04446476 -0.024852687 0.012653453 -0.89334434 0.013190923 -0.44917905 0.00057769805
0.044712555 -0.024872411 0.012985779 0.89231473 0.0074717626 -0.45135191 0.00013944149
0.045379117 -0.024950724 0.014307745 0.89759099 0.01421927 -0.4405998 0.00021250329
-0.045148198 -0.022028646 0.01412292 -0.90400296 0.015464718 -0.42724645 0.00037592187
-0.044471025 -0.021954691 0.012713246 -0.89000493 0.019058274 -0.45555249 0.00041293426
0.044713002 -0.021969201 0.01299003 0.89394909 0.026255248 -0.4473989 0.00021702953
0.045378268 -0.022037944 0.014299663 0.90103817 0.029213974 -0.43275481 0.00018185501
-0.045175444 -0.018864216 0.014379648 -0.90088052 0.03353291 -0.43277001 0.00035323232
-0.044501364 -0.018802285 0.013002412 -0.89055842 0.035750195 -0.4534618 0.00029633506
0.044548396 -0.018542916 0.013097029 0.89189404 0.049838606 -0.44948977 0.00038279998
0.045431469 -0.01914845 0.014806785 0.90075594 0.038597159 -0.43260723 0.00013810131
-0.045214497 -0.015965978 0.014747549 -0.89894271 -0.011460818 -0.43791619 0.001099969
-0.044536941 -0.015911976 0.013341572 -0.89498681 -0.012414447 -0.44591981 0.0011115365
0.044448428 -0.015898231 0.012980763 0.89392138 -0.021419493 -0.44771165 0.0016013149
0.045457385 -0.01518191 0.015053816 0.92024988 -0.02072469 -0.39078203 0.0014970191
-0.045153398 -0.013032603 0.014171911 -0.90309709 -0.037171971 -0.42782447 0.00042671178
-0.044477701 -0.01298881 0.012776844 -0.88796765 -0.03993661 -0.45816875 0.00038751325
0.044622533 -0.01317929 0.012843696 0.88527477 -0.063396417 -0.46072701 0.00054042571
0.045376208 -0.013036445 0.014279984 0.90111756 -0.057537641 -0.42974016 0.00046473937
-0.045133501 -0.0098517314 0.013984485 -0.90398526 -0.0023340585 -0.42755723 0.00044287348
-0.044463489 -0.0098193614 0.012641378 -0.89032996 -0.0052629099 -0.45528546 0.00045832814
0.044679407 -0.0098198364 0.012666078 0.88807648 -0.0090994434 -0.45960557 0.0004074194
0.045347814 -0.0098521141 0.014009334 0.90245825 -0.0087035466 -0.43068939 0.00038319756
-0.045146279 -0.0069436771 0.014104862 -0.90361369 0.0049472302 -0.42831981 0.00044519553
-0.044470899 -0.006919689 0.012712033 -0.89389914 0.0034351223 -0.44825491 0.0005043734
0.044703152 -0.006922842 0.012895066 0.89086276 0.0043989238 -0.45425117 0.00047351958
0.045361605 -0.0069443625 0.014140828 0.90055627 0.0041446001 -0.43471971 0.00046813171
-0.045155469 -0.0040336302 0.014191441 -0.90538716 0.016904388 -0.4242503 0.00026079832
-0.044469506 -0.0040179095 0.012698712 -0.89101839 0.020865683 -0.45348737 0.00031239903
0.044687506 -0.0040186225 0.012744106 0.88765413 0.029006202 -0.4595964 0.00043458061
0.045358095 -0.0040328205 0.014107389 0.90285426 0.029777966 -0.42891434 0.00045209029
-0.045176163 -0.00085782004 0.014386388 -0.90170324 0.036148146 -0.43084177 0.00050208933
-0.044514205 -0.00085387123 0.013124801 -0.88879693 0.04048986 -0.45650911 0.00047188491
0.044539541 -0.00058962894 0.013011957 0.88978404 0.047372762 -0.45391652 0.00049738848
0.045407347 -0.0011229048 0.014576841 0.90086073 0.051756341 -0.431012 0.00085552601
-0.045197971 0.002055632 0.014591886 -0.89397436 -0.0022366594 -0.44811261 0.0012335483
-0.044214062 0.0020488999 0.012775417 -0.87189215 -0.0046742754 -0.4896757 0.00066253688
0.044491634 0.0019325664 0.013115106 0.89849228 -0.034997053 -0.43759218 0.0023190978
0.045432959 0.0025863447 0.014821 0.89697099 -0.036712099 -0.44056252 0.0023429987
-0.045185093 0.0049683424 0.014470549 -0.90291917 -0.024896586 -0.42908853 0.00031693996
-0.044506937 0.0049534142 0.013055541 -0.88797969 -0.025797218 -0.45915857 0.00035480308
0.044685695 0.0049496689 0.012726666 0.88498127 -0.05866548 -0.46191606 0.00062071276
0.045349535 0.0049633482 0.014025711 0.90385914 -0.064879902 -0.42288214 0.00088631728
-0.045175657 0.0081453323 0.014381601 -0.90043026 0.0040283757 -0.43498167 0.00012110069
-0.04450367 0.0081211049 0.013024392 -0.89351994 0.0031596133 -0.44901249 7.9176272e-05
0.044674352 0.008114025 0.012617303 0.88631576 -0.0042354469 -0.46306202 0.00028545197
0.045342643 0.0081379088 0.013960021 0.90128249 -0.0032506986 -0.43321973 0.00039048039
-0.045192655 0.011062054 0.014541794 -0.90116543 0.0098539665 -0.43336335 0.00014559321
-0.044510446 0.011026164 0.013088949 -0.89563167 0.0063349106 -0.44475147 0.00015726322
0.044679616 0.011015631 0.012668051 0.89218593 0.0013988729 -0.45166612 0.00040248645
0.045343902 0.011047907 0.013972046 0.9014461 0.0081377923 -0.43281487 0.00043058247
-0.045190688 0.013975357 0.014523236 -0.90367573 0.031829853 -0.42703274 0.0002718016
-0.044512305 0.01393081 0.013106741 -0.89138496 0.035263624 -0.45187309 0.00033042257
0.044671606 0.013914801 0.012590788 0.89314425 0.045947965 -0.4474172 0.00064019783
0.045356598 0.013962287 0.014093069 0.90845156 0.051311571 -0.41482869 0.00049250899
-0.045231208 0.01663889 0.014905021 -0.89328402 0.03344854 -0.44824627 0.00056911976
-0.044272035 0.017218977 0.013100905 -0.888385 0.057769377 -0.45545021 0.00032611671
0.0445977 0.017364571 0.01314871 0.90007436 0.044664342 -0.43344107 0.0009605083
0.045443881 0.016374433 0.0149251 0.9244296 0.043541864 -0.37885883 0.00082615484
-0.045246415 0.021152664 0.015048273 -0.92121774 -0.018269375 -0.38861838 0.0012273234
-0.044239614 0.020153251 0.013250258 -0.8833462 -0.014152618 -0.4685075 0.00093146373
0.044581901 0.019780157 0.013178194 0.90184391 -0.035303842 -0.43061727 0.00092047028
0.045429844 0.020609993 0.014791267 0.9006983 -0.038873725 -0.43270236 0.00097417081
-0.045209017 0.022990502 0.014695941 -0.90005267 -0.035597906 -0.43432483 0.00056645548
-0.044438977 0.022795143 0.013125371 -0.87981254 -0.049564507 -0.47272971 0.00046348324
0.044698685 0.022893766 0.012851967 0.89226788 -0.047583129 -0.4489921 0.0003622454
0.045372173 0.022966726 0.014241515 0.90894824 -0.048049834 -0.41413072 0.00036416753
-0.045201372 0.026166333 0.014623927 -0.9032039 -0.0042791544 -0.42919046 0.00046556961
-0.044508073 0.026073059 0.013066368 -0.89234906 -0.011335663 -0.45120358 0.00051363261
0.044677187 0.026047854 0.012644636 0.89660162 -0.010256574 -0.44271913 0.00028931702
0.045354884 0.026133522 0.014076697 0.90376288 -0.012623158 -0.42784736 0.00027446949
-0.045203201 0.02908198 0.014641108 -0.90527469 -0.0026477026 -0.42481831 0.00028829434
-0.04451941 0.029248366 0.013174402 -0.89731979 -0.0073521431 -0.44131973 0.00043644384
0.044674311 0.029210629 0.01261689 0.89710438 -0.022960348 -0.44122159 0.00030493308
0.045346316 0.029038858 0.013995064 0.90488875 -0.015659329 -0.42535987 0.00037454208
-0.045202192 0.031995811 0.014631622 -0.90617591 0.010460521 -0.42277151 0.00013664154
-0.04451777 0.032151747 0.013158794 -0.89573538 0.012866104 -0.44440135 0.00014263045
0.044646714 0.032092061 0.012350671 0.8879835 0.053724971 -0.45672628 0.0016241116
0.04554696 0.032054201 0.014221953 0.91371679 0.057907399 -0.40220442 0.0013340474
-0.045224562 0.035192721 0.014842393 -0.89991707 0.019797126 -0.43561146 0.00016258332
-0.044324063 0.035306051 0.012986753 -0.89727896 0.023017921 -0.44086355 0.00015105763
0.044522494 0.035270024 0.01318674 0.900527 0.059532981 -0.4307051 0.0023785555
0.045409858 0.034113225 0.014600776 0.89805752 0.054126929 -0.43653518 0.0022541624
-0.045236629 0.038118046 0.014956106 -0.90031558 -0.01258405 -0.43505579 0.00037638165
-0.044335935 0.037955929 0.013100022 -0.8971228 -0.01543469 -0.44151148 0.00032189797
0.04454264 0.037950207 0.013042014 0.89738578 -0.052070346 -0.43816358 0.0013788394
0.045412008 0.038618624 0.014621316 0.90168798 -0.050489135 -0.42942947 0.0015996437
-0.045200247 0.041002665 0.014613302 -0.90505481 -0.017537292 -0.42493325 0.00018119277
-0.044515185 0.041127041 0.013134124 -0.89560843 -0.01884429 -0.44444397 0.00024540853
0.044662174 0.041066762 0.012499793 0.8961525 -0.056903455 -0.44008264 0.00068885181
0.045338426 0.040937133 0.013919847 0.91272533 -0.047524527 -0.40580031 0.0005853711
-0.045201372 0.044183094 0.014623927 -0.90389746 0.0016091429 -0.42774609 0.00019976703
-0.044521619 0.044037741 0.013195513 -0.89634138 0.004031348 -0.44334614 0.00022183069
0.044662502 0.043967109 0.012502985 0.89481974 -0.0075273751 -0.44636422 7.7051685e-05
0.045340553 0.044113439 0.013940103 0.91342515 -0.0021395818 -0.40700123 0.00016420672
-0.04520268 0.047098905 0.01463628 -0.90309656 -0.00044868409 -0.42943731 0.00021987525
-0.044527173 0.047212183 0.013248442 -0.89500231 0.0011135673 -0.44606009 0.00023005334
0.044652764 0.047120526 0.012409063 0.899001 -0.0097231101 -0.43783852 7.0182738e-05
0.045333996 0.047016501 0.013877638 0.91471964 -0.0056802058 -0.40404928 0.00012222034
-0.045202751 0.050013542 0.014636941 -0.90349859 0.0013081389 -0.42858914 0.00028922956
-0.04451967 0.050109111 0.013176901 -0.89398098 0.00075135886 -0.44810438 0.00026590141
0.044641968 0.050007913 0.01230491 0.91209602 -0.016662603 -0.40963793 0.00013783628
0.045333218 0.049925029 0.013870196 0.9155823 -0.012600486 -0.40193304 0.0001194596
-0.045202676 0.053192973 0.014636202 -0.90329242 0.00083519431 -0.42902458 0.00031726598
-0.04452185 0.053016368 0.013197683 -0.89527494 0.00084148004 -0.44551319 0.00037371877
0.044632707 0.051578384 0.012215562 0.89952797 -0.026691439 -0.43604699 0.00014389354
0.045309588 0.053071078 0.013644956 0.9197166 -0.01951929 -0.39209735 9.6618911e-05
-0.045201074 0.056105562 0.014621105 -0.90446353 -0.00090804719 -0.42655 0.00037631829
-0.044522401 0.056185823 0.013202967 -0.89352196 -0.0013201246 -0.44901747 0.00029281125
0.045636654 0.056054804 0.01423423 0.92265528 -0.021294398 -0.38503748 0.0001089328
-0.045199703 0.059018269 0.014608176 -0.90535337 0.0046135676 -0.42463389 0.00032154346
-0.044521824 0.059089951 0.013197429 -0.89349467 0.0045224559 -0.44905093 0.00043120494
0.045648959 0.059071902 0.014122808 0.93258882 -0.014226892 -0.36066005 0.00026618427
-0.045202192 0.06220099 0.014631622 -0.89977062 0.00037705008 -0.43636298 0.00050316914
-0.044529464 0.062005341 0.013270291 -0.89502865 0.006849166 -0.44595599 0.00040953961
0.045559306 0.061950516 0.013728276 0.92860049 0.022954745 -0.37037036 0.00033563303
-0.04520642 0.065121427 0.014671477 -0.88967639 -0.075311229 -0.4503378 0.0017310628
-0.044382431 0.065152518 0.013124458 -0.89347595 -0.078867234 -0.44213206 0.0020786826
0.044633724 0.066334009 0.012225337 0.91629183 -0.0056893299 -0.40047103 0.0078069381
0.045400206 0.064987682 0.013786267 0.91185349 -0.055284198 -0.40677622 0.0025061946
-0.045415025 0.067796245 0.01391501 -0.90923142 -0.053563833 -0.41283074 0.008506231
-0.044456877 0.067179404 0.012578316 -0.91016775 -0.0773388 -0.40695617 0.0092574535
0.045805324 0.067919806 0.013781989 0.91488552 0.0012199774 -0.40371147 0.0093560126
-0.045157429 0.070345901 0.014209904 -0.91289937 -0.023926688 -0.40748289 0.0066827689
-0.044532862 0.070198111 0.013302691 -0.90962398 -0.041167416 -0.41338784 0.0075225034
0.044767156 0.069703758 0.01351247 0.89727837 0.040506348 -0.43960291 0.007802851
0.045346085 0.069781423 0.013992853 0.9123764 0.0017864074 -0.40934834 0.0079671303
0.046772156 -0.068869971 0.017418481 0.90587705 -0.1447199 -0.39804885 0.0050516617
-0.04721719 -0.067016609 0.016733564 -0.91871727 0.092710719 -0.3838793 0.00063802343
0.047510531 -0.066914812 0.016852044 0.92230773 -0.088079162 -0.37628517 0.0070182909
-0.047002692 -0.063939184 0.016545244 -0.90947431 0.12003328 -0.39805585 0.00082281732
0.047384012 -0.064007021 0.016356463 0.92221105 0.11176239 -0.37018365 0.0035173155
-0.0463797 -0.060920566 0.016525887 -0.91866887 0.12700568 -0.37405488 0.00076662737
0.046446338 -0.060902819 0.016634131 0.9208656 0.17266455 -0.3495619 0.0031923142
-0.04625022 -0.057966135 0.016746569 -0.92469579 0.035533205 -0.37904483 0.0004275282
0.04646739 -0.057887122 0.017056109 0.93447417 0.0274106 -0.35497421 0.00037201977
-0.046183251 -0.05503938 0.016574707 -0.92787278 -5.3613054e-05 -0.37289697 0.00019218877
0.046497695 -0.05481793 0.017112771 0.9349888 -0.0031359943 -0.35466346 0.00022952832
-0.046212185 -0.051972106 0.016618602 -0.92711884 0.0017708393 -0.37476343 0.00015931125
0.04642738 -0.051885907 0.016908189 0.9350943 -0.00017835655 -0.35439891 0.00028798921
-0.046246905 -0.048909739 0.016716022 -0.92765635 0.0041744881 -0.37341169 0.00017589283
0.046493858 -0.048951153 0.017077489 0.93655235 -2.94446e-05 -0.35052773 0.00028437088
-0.04618733 -0.04599414 0.016612675 -0.92759359 0.00088674336 -0.37358987 0.00019859416
0.046426475 -0.046025101 0.016899813 0.93699455 -0.0070064622 -0.34927371 0.00027994448
-0.046215951 -0.042925473 0.016653767 -0.92749757 -0.0049253651 -0.37379676 0.00019517096
0.046451416 -0.042950895 0.016906565 0.93640226 -0.0065449676 -0.35086748 0.00028265451
-0.046241101 -0.039852522 0.016662329 -0.92787611 0.0042503211 -0.37286445 0.00021854482
0.046483845 -0.039882384 0.016983315 0.9346717 0.014293701 -0.35522449 0.00033413401
-0.046185803 -0.036942653 0.016598692 -0.92954379 0.018822087 -0.36823103 0.00029078827
0.046348877 -0.037168518 0.016778009 0.92965257 0.032889139 -0.36696631 0.00050275627
-0.046245564 -0.033896387 0.016927414 -0.92912257 -0.015330129 -0.36945394 0.00068480254
0.046167675 -0.033881783 0.016748382 0.92536175 -0.019153016 -0.3786011 0.0014869337
-0.046181962 -0.030923508 0.016338382 -0.92397279 -0.025276136 -0.3816222 0.00037501767
0.046367392 -0.030809537 0.016397385 0.92774498 -0.051850803 -0.36959535 0.00053824985
-0.046183642 -0.027997954 0.016354391 -0.92705101 0.0054758 -0.37489527 0.00021331353
0.046385825 -0.027993945 0.016293196 0.92141873 -0.00027122378 -0.38857105 0.00063954428
-0.046210062 -0.024820223 0.016598694 -0.92618227 0.01028874 -0.37693566 0.00019055053
0.046416346 -0.024818981 0.01657865 0.92602444 0.014432954 -0.37718758 0.00047728285
-0.0462064 -0.021890657 0.016564634 -0.92737752 0.017637251 -0.37371099 0.0002287595
0.046431184 -0.021898497 0.016717 0.92715347 0.023692122 -0.37393194 0.00038068276
-0.046199404 -0.019091006 0.016724242 -0.92831987 0.032687619 -0.37034279 0.00029184559
0.046307568 -0.019041747 0.016692169 0.92488503 0.038503159 -0.37829253 0.00045346009
-0.046036888 -0.015771417 0.016641231 -0.92866546 -0.0088761486 -0.37081224 0.00082550675
0.045941308 -0.01602415 0.016282272 0.92108721 -0.021968197 -0.38873613 0.0013530728
-0.04618137 -0.012986418 0.016557582 -0.92930317 -0.035484657 -0.36760914 0.00022482316
0.046434648 -0.012847679 0.016750295 0.92578453 -0.053820994 -0.37420097 0.00044077815
-0.046204243 -0.0099133132 0.016545251 -0.92821074 -0.006042541 -0.37200585 0.00021009325
0.046407774 -0.0099120745 0.016497875 0.92773759 -0.0041304682 -0.37321028 0.00022478035
-0.046212293 -0.0069872076 0.01661966 -0.92525905 0.0011538558 -0.37933406 0.00016560909
0.046414908 -0.0069862213 0.016564351 0.92711413 0.0027362157 -0.37476909 0.00037899773
-0.046203822 -0.004058328 0.016541636 -0.92636681 0.017734662 -0.37620485 0.00022322417
0.046411742 -0.0040583168 0.016535372 0.92906719 0.027938237 -0.36885455 0.00031834096
-0.046169877 -0.0010781983 0.016720735 -0.9267121 0.036221746 -0.37402228 0.00031788912
0.046267949 -0.00097190682 0.016684566 0.92641574 0.048385642 -0.37338024 0.0005170572
-0.046059642 0.0022419146 0.016852977 -0.92390889 -0.008481482 -0.38251859 0.00099934626
0.046004485 0.0018349808 0.016640764 0.92687911 -0.028672002 -0.37426332 0.0016198769
-0.046221148 0.004991577 0.016702019 -0.92455316 -0.030115264 -0.37986127 0.00038746977
0.046380427 0.0051101912 0.016468026 0.92873687 -0.059055768 -0.36600593 0.00039159748
-0.046213135 0.0081856139 0.016627828 -0.92131597 0.0047016386 -0.38878649 0.00023041459
0.046383664 0.0081792027 0.016272249 0.92750561 -0.0083369352 -0.37371626 0.00031532944
-0.046233714 0.011118217 0.01681806 -0.92111778 0.0083641242 -0.3891941 0.00023110531
0.04640381 0.011109444 0.016460817 0.92348945 0.0029356396 -0.38361251 0.00021965786
-0.046241824 0.014050179 0.016893679 -0.9241488 0.031288262 -0.3807494 0.00030743837
0.046413019 0.014039275 0.016547546 0.9247027 0.051082794 -0.37724707 0.00049615285
-0.045881189 0.017321242 0.016566185 -0.921848 0.040024519 -0.38547933 0.00081135659
0.046010911 0.017195782 0.016379446 0.92115712 0.047689047 -0.38625801 0.00087186944
-0.045657042 0.0200231 0.016129583 -0.92122513 -0.018283868 -0.38860011 0.0012072338
0.046098273 0.019928679 0.016646568 0.92569447 -0.038036022 -0.37635499 0.00081191648
-0.046232093 0.023234285 0.017027423 -0.92872745 -0.029630437 -0.36957729 0.00038436259
0.046419185 0.023090554 0.016605372 0.92697603 -0.04962435 -0.37182376 0.0003761031
-0.046179414 0.025837814 0.016931791 -0.92740101 -0.0048514525 -0.37403718 0.00013667763
0.046382088 0.02615645 0.016484452 0.92530179 -0.010706302 -0.37908047 0.00016436652
-0.046232197 0.029095791 0.017028363 -0.92312807 -0.014006854 -0.38423735 0.00024669181
0.046427608 0.02905754 0.016457666 0.92574972 -0.012792676 -0.37792027 0.000220409
-0.046241224 0.032161608 0.016887618 -0.922544 0.0098089362 -0.38576734 0.00027974087
0.046506654 0.032051697 0.016593788 0.92960799 0.05333275 -0.3646706 0.00083443464
-0.046040803 0.034896661 0.016677491 -0.91981888 0.023405895 -0.39164451 0.00030776719
0.045877997 0.03539395 0.016242102 0.9250803 0.049878214 -0.37648189 0.0018075386
-0.046033252 0.038197584 0.016725505 -0.92146301 -0.012153139 -0.38827589 0.00040390893
0.046153355 0.038103823 0.016607035 0.92732555 -0.044296928 -0.37162498 0.00094765268
-0.046226341 0.041104108 0.016973808 -0.92428511 -0.015345213 -0.38139418 0.00015374787
0.046376068 0.041052546 0.016427774 0.92997044 -0.04273805 -0.36514172 0.00037015515
-0.046286259 0.044021115 0.017080555 -0.92429978 0.0022435063 -0.38166058 0.00019994144
0.046438627 0.043968763 0.01656067 0.92741901 -0.0015625205 -0.37402076 0.00011571974
-0.046252817 0.047088727 0.01699541 -0.92562824 0.0051004142 -0.37839967 0.00028525575
0.046407994 0.047035214 0.016500318 0.92877686 0.00013747813 -0.37063923 0.00012473905
-0.04622259 0.050157938 0.01693964 -0.92730534 0.0032046046 -0.37429217 0.0002582884
0.046367817 0.050090037 0.01635058 0.92994988 -0.0077285217 -0.36760497 0.00015030247
-0.046297412 0.053093635 0.017183324 -0.92765731 -0.00082936796 -0.37343177 0.00025611359
0.046409804 0.052984677 0.016290635 0.93186867 -0.019938475 -0.36224762 0.00018567451
-0.046225745 0.056021992 0.016968563 -0.92724931 -0.0012612335 -0.37444249 0.00022230102
0.046726506 0.056146536 0.016993316 0.94312674 -0.013134733 -0.33217371 0.00038306564
-0.046295911 0.058955505 0.017169697 -0.92674577 0.0014672498 -0.37568614 0.00018352833
0.046725042 0.059075315 0.016979678 0.94829535 0.00012026754 -0.31738934 0.0003388077
-0.046276849 0.062039688 0.017217465 -0.9224003 -0.014149238 -0.38597617 0.00029625747
0.046740171 0.062025994 0.017120562 0.94260448 0.012989925 -0.33365864 0.00013481536
-0.046231687 0.065174937 0.016799977 -0.90846622 -0.075558901 -0.41107181 0.00169564
0.046419084 0.065232702 0.016377468 0.92895621 -0.053672168 -0.36627814 0.0022029041
-0.046747703 0.068241976 0.01691759 -0.904329 -0.041664355 -0.4247978 0.0033881455
0.047006328 0.068023309 0.016761638 0.92246157 -0.019135065 -0.3856144 0.0069495421
-0.046493735 0.069872625 0.016755817 -0.91454124 -0.034714226 -0.40300032 0.0057666451
-0.048387244 -0.066240683 0.019399546 -0.94505161 0.096702434 -0.31229174 0.0015685501
0.047966808 -0.067720018 0.01858332 0.93759829 -0.049997922 -0.344107 0.006247093
0.048623011 -0.066551745 0.019676365 0.93599385 0.0033537215 -0.35200033 0.01106977
-0.048489422 -0.064232565 0.020309329 -0.93779302 0.12596525 -0.32353812 0.0016722765
-0.047775317 -0.06346038 0.018714145 -0.92655432 0.12245648 -0.35567045 0.00079729379
0.048024829 -0.063251726 0.019111492 0.92887616 0.18069044 -0.32332659 0.0028894823
0.048550982 -0.06391722 0.019993456 0.94333684 0.14165531 -0.30008239 0.0046967645
-0.047983505 -0.060513183 0.020588465 -0.93772495 0.13556644 -0.31983364 0.0011971939
-0.047467828 -0.060849052 0.019158162 -0.93840903 0.13220994 -0.31923196 0.0011865844
0.047557931 -0.060930192 0.019742625 0.937361 0.17716904 -0.29994226 0.0025334992
0.048207752 -0.062152363 0.020776831 0.92914462 0.16453338 -0.33108768 0.0018924421
-0.047353934 -0.05798297 0.019748118 -0.94388717 0.047352914 -0.32685572 0.00058703317
0.047644049 -0.057820376 0.020535557 0.94968206 0.046142887 -0.309798 0.00076324807
-0.047345087 -0.055023402 0.019667558 -0.94494599 0.025437878 -0.32623604 0.00064992241
0.047630269 -0.054849572 0.020408697 0.95417231 -0.002285918 -0.29924884 0.00014986172
-0.047345597 -0.051807154 0.019672243 -0.94847286 -0.0030754909 -0.31684333 0.00016668795
0.047630843 -0.051896378 0.020413993 0.95471716 -0.0031831684 -0.29749787 0.0001150358
-0.047353242 -0.048866294 0.019741805 -0.94806552 -0.0037762574 -0.31805277 0.00014434812
0.047646135 -0.048958588 0.020554788 0.95421994 0.0039825337 -0.29907918 0.00012034344
-0.047359716 -0.04592343 0.019800695 -0.94711596 0.0036343148 -0.32087085 0.00015133184
0.04764327 -0.046001207 0.020528398 0.95406586 0.0017194739 -0.29959205 9.9658588e-05
-0.047350798 -0.042965729 0.01971953 -0.94663787 0.00050853542 -0.32229882 0.00010797003
0.047623456 -0.043028373 0.020345958 0.95414096 -0.0010474257 -0.2993558 0.00012320851
-0.047347393 -0.040013727 0.019688554 -0.94702953 0.0057791597 -0.32109469 0.00012217389
0.047618121 -0.0400704 0.020296834 0.95389557 0.0068595293 -0.30006042 0.00010259874
-0.047370121 -0.036814254 0.019895496 -0.95071822 0.005906071 -0.30999994 0.00045033495
0.047450729 -0.03668835 0.019985896 0.94732696 0.026737591 -0.31915012 0.00043923702
-0.047418717 -0.033899441 0.020337906 -0.95163411 -0.015245399 -0.30685508 0.00040102395
0.047028981 -0.034183849 0.019094782 0.94331861 -0.023986034 -0.33102071 0.0010659762
-0.047331814 -0.030889038 0.01954671 -0.95003831 -0.029364388 -0.31074899 0.00023076969
0.047507808 -0.031112187 0.019983964 0.94994116 -0.036343563 -0.31030789 0.0005129425
-0.047321673 -0.027934939 0.019454416 -0.94208938 -0.0018318562 -0.33535683 0.00036066395
0.04753837 -0.027941898 0.019562544 0.9462384 -0.013636811 -0.3231824 0.00056548353
-0.047325183 -0.024989491 0.019486366 -0.94058061 0.014331364 -0.33926797 0.00037416207
0.047562342 -0.02500681 0.019783257 0.9423123 0.010247394 -0.3345781 0.00041734599
-0.047342286 -0.021781981 0.019642072 -0.94753528 0.022009484 -0.31889284 0.00014731816
0.047576483 -0.021795975 0.019913457 0.94820166 0.031424679 -0.31611085 0.00021909604
-0.047274474 -0.0186636 0.019835658 -0.95049834 0.013301996 -0.31044498 0.00052312884
0.047374889 -0.018747305 0.019698335 0.9467923 0.052334446 -0.31756181 0.00023674918
-0.047098514 -0.016006464 0.019634983 -0.95521337 -0.0013151957 -0.29591495 0.00069790665
0.047034349 -0.015675087 0.019145381 0.94301432 -0.020306177 -0.33213189 0.0015964406
-0.047370978 -0.012944813 0.01990328 -0.95201999 -0.04339793 -0.30294308 0.00042766545
0.047549669 -0.012937631 0.019666584 0.94530636 -0.051769536 -0.32204929 0.00046717079
-0.047335949 -0.0099865943 0.019584341 -0.94471914 -0.013971246 -0.32758281 0.00045869662
0.047548398 -0.0099879205 0.019654883 0.94767642 -0.022138793 -0.31846389 0.00037109861
-0.047333952 -0.0067701191 0.019566171 -0.9411096 -0.0018692391 -0.33809653 0.00038214432
0.047554236 -0.0067725405 0.019708617 0.94148844 -0.00012586443 -0.33704519 0.00029955176
-0.047320068 -0.0038208612 0.019439813 -0.94779921 0.028320041 -0.31760776 0.00040322525
0.047549777 -0.0038230219 0.019667562 0.94666868 0.030080367 -0.32080129 0.00022898016
-0.047211368 -0.00060635677 0.019666579 -0.94693702 0.044241801 -0.31836003 0.00021696236
0.047385078 -0.00060679682 0.019792803 0.95140749 0.024705801 -0.30694199 0.0017384661
-0.04707012 0.0020744684 0.019598119 -0.94857532 -0.019746145 -0.31593513 0.0008543976
0.047291156 0.0020742393 0.019750353 0.9433791 -0.021868978 -0.33099496 0.001000233
-0.047341224 0.005022312 0.019632421 -0.94584757 -0.043360066 -0.32170221 0.00040952885
0.047460988 0.0048305867 0.01955295 0.94687432 -0.042463265 -0.31878805 0.00078962895
-0.047335036 0.0079702633 0.019576026 -0.93914241 0.0049183113 -0.3434929 0.00042650019
0.047519643 0.0082349973 0.019390114 0.9434213 -0.013974886 -0.33130193 0.00039930295
-0.047355756 0.010922824 0.019764679 -0.93810415 0.0049593877 -0.34631777 0.00047432998
0.047523677 0.011182438 0.019427253 0.94407338 0.010941352 -0.32955405 0.00067438046
-0.047350094 0.014138766 0.019713135 -0.9441486 0.047200505 -0.32612196 0.00049493473
0.047494855 0.014121436 0.019161833 0.94263965 0.058412604 -0.3286615 0.0011578733
-0.047030009 0.017005712 0.019582381 -0.94540244 0.060178824 -0.320301 0.00042630284
0.047150165 0.01698125 0.019272385 0.94347674 0.074097857 -0.32304978 0.00098878948
-0.04693583 0.020299805 0.019597989 -0.94841111 -0.027819974 -0.31582016 0.00061196566
0.047207214 0.020165756 0.01959407 0.94700587 -0.056446187 -0.31621772 0.00091492065
-0.047287073 0.022819826 0.019950263 -0.94711941 -0.039693378 -0.31841668 0.00033493273
0.04754528 0.022981107 0.019626189 0.94438756 -0.059524052 -0.3234024 0.00063610944
-0.047226653 0.026207374 0.019805569 -0.94305933 -0.0081420364 -0.3325251 0.00034411321
0.04752709 0.025919855 0.019458635 0.94526225 -0.01847988 -0.32578775 0.00042859357
-0.047275648 0.028961971 0.019730341 -0.94125718 -0.018973766 -0.33715704 0.00048899453
0.047522616 0.029132271 0.019417452 0.94799972 0.01261773 -0.318021 0.00051183742
-0.047335479 0.032091178 0.019580085 -0.94085413 0.010769186 -0.33864072 0.00054966763
0.047512136 0.032072388 0.019320954 0.94645035 0.065925464 -0.31604651 0.0008889006
-0.047118638 0.035251312 0.019552264 -0.94230795 0.032094948 -0.33320525 0.00056985224
0.047189977 0.03489339 0.019434333 0.9489224 0.061273243 -0.30950263 0.0012786717
-0.047047682 0.037971146 0.019393135 -0.94276899 -0.011464204 -0.33324942 0.00064126827
0.047280669 0.037993841 0.019652627 0.94571495 -0.068469159 -0.31770295 0.00075850706
-0.0473735 0.040967602 0.019926248 -0.94926846 -0.011995815 -0.31423783 0.00037130434
0.047526952 0.040923882 0.019457402 0.94802076 -0.046445634 -0.31480062 0.00073046639
-0.047377352 0.044190187 0.019961335 -0.94372761 0.0033069819 -0.33070725 0.0005777714
0.047529202 0.044141304 0.019478125 0.94928515 0.0015410418 -0.31441274 0.00034976777
-0.047393367 0.047156423 0.020107104 -0.94354725 0.00024074971 -0.33123782 0.00051976548
0.047521044 0.047080927 0.019402964 0.94609767 -0.0013061161 -0.32387885 0.00053596782
-0.047407251 0.0501226 0.020233499 -0.94618577 -0.0057543209 -0.32357293 0.00011780596
0.04754116 0.050048824 0.019588275 0.95021713 -0.0019186393 -0.31158254 0.00027947905
-0.047405008 0.053072572 0.020213075 -0.9424125 -0.0063136979 -0.3343932 7.0144037e-05
0.047520604 0.05324192 0.019398911 0.9508931 -0.011442319 -0.30930775 0.00012420239
-0.047401324 0.056020722 0.020179547 -0.93928987 -0.0092554083 -0.34299982 0.00011339116
0.047510378 0.056176823 0.01930479 0.95039237 -0.00037107768 -0.3110534 0.00033906885
-0.047398619 0.058969576 0.020154901 -0.93582505 -0.012987492 -0.35222557 0.00016188627
0.047521576 0.059137154 0.019407896 0.95401996 0.011790734 -0.29951105 0.00032928557
-0.047392141 0.061913181 0.020095961 -0.92861444 -0.027599338 -0.37001818 0.00011219824
0.047545232 0.062114984 0.01962572 0.96007246 0.01854785 -0.27913594 0.00021156415
-0.048048958 0.066101119 0.021177746 -0.94239676 -0.048322417 -0.33098841 0.0014690422
-0.047325563 0.065042436 0.019489782 -0.92713213 -0.081270732 -0.36581555 0.00057491113
0.047539685 0.06505543 0.019574644 0.95579886 -0.081269771 -0.2825664 0.0019926112
-0.047973841 0.067610383 0.020501442 -0.94251233 -0.046284102 -0.33095062 0.001619518
-0.047585253 0.068225071 0.018928273 -0.93329936 -0.06250985 -0.3536168 0.0012230548
0.047776159 0.06820371 0.01879585 0.94105798 -0.056991223 -0.33340937 0.004547731
0.048346426 0.068133511 0.020407297 0.96392441 -0.070035994 -0.25679693 0.0025462359
-0.049222652 -0.066107549 0.022038259 -0.94888127 0.10162054 -0.2988269 0.0018761195
0.049406029 -0.066621065 0.021874577 0.94993186 0.088120118 -0.29977384 0.0023227946
-0.049134586 -0.063920662 0.022619357 -0.95204067 0.13762565 -0.27327219 0.0010291431
0.049293797 -0.064015411 0.022475777 0.94257969 0.19551647 -0.27077082 0.0015062994
-0.04885808 -0.061745394 0.023591844 -0.95864123 0.15005918 -0.24184538 0.0014578523
0.048509534 -0.060809877 0.022703363 0.95118105 0.1631538 -0.2619839 0.0022855503
-0.048156586 -0.058035318 0.022146689 -0.96501929 0.057267308 -0.25584817 0.0021018495
0.048499316 -0.057937365 0.023431243 0.95316458 0.050434213 -0.29821736 0.0011856073
-0.048205968 -0.054856975 0.02259125 -0.96493703 0.010217632 -0.26228252 0.001544454
0.048522439 -0.054990023 0.023641758 0.95967448 0.012701492 -0.28082657 0.00014913555
-0.048212908 -0.051896077 0.022653731 -0.95099956 0.0026494551 -0.30918092 0.00013170087
0.048524715 -0.052016817 0.023662467 0.96178246 0.00038910899 -0.27381462 0
