# .PCD v0.7 - Point Cloud Data file format
VERSION 0.7
FIELDS x y z normal_x normal_y normal_z curvature
SIZE 4 4 4 4 4 4 4
TYPE F F F F F F F
COUNT 1 1 1 1 1 1 1
WIDTH 548
HEIGHT 1
VIEWPOINT 0 0 0 1 0 0 0
POINTS 548
DATA ascii
0.0095722992 0.033940572 -0.0079096723 0.25079867 0.68800193 -0.68099445 0.00027717825
0.012126962 0.033567294 -0.0073420512 0.26223075 0.67525476 -0.68939537 0.00016283026
-0.05109971 0.037866835 -0.0085671255 -0.93586946 -0.075460836 -0.34417149 0.0027533141
-0.0080336723 0.038653541 -0.0094533619 0.23641321 0.75729018 -0.60878599 0.0002843042
-0.0053789215 0.03824294 -0.0088982768 0.25181678 0.77029794 -0.58585793 0.00027709978
-0.0024348535 0.037486162 -0.0085254861 0.29085156 0.74521106 -0.60005486 0.00033891934
0.00043990975 0.036814433 -0.0078546535 0.25867957 0.74802065 -0.61118734 0.0011049244
0.0031301691 0.036460076 -0.0072597796 0.20245525 0.73944581 -0.64205295 0.00026659554
-0.050993774 0.040589716 -0.0084171128 -0.93459213 0.046158664 -0.35271373 0.003561636
-0.020238906 0.041751102 -0.009476712 0.22119188 0.84061766 -0.49440476 0.00046068704
-0.017582908 0.041278236 -0.0089084916 0.22981092 0.82188725 -0.52123713 0.00081893249
-0.014521522 0.040800672 -0.0086867176 0.17218259 0.81793344 -0.54894263 0.00047963148
-0.011629986 0.040245764 -0.0086532189 0.19795725 0.81100929 -0.55052418 0.00038730737
-0.0087000635 0.039802905 -0.0080553172 0.22317484 0.79682308 -0.56148553 0.00037191692
-0.0060309228 0.039495409 -0.0074734921 0.24464554 0.78497988 -0.56917059 0.00045236727
-0.050806154 0.042278614 -0.007632182 -0.93441868 0.020311797 -0.35559687 0.0031523393
-0.035364836 0.044889316 -0.0093459692 0.15449268 0.90264684 -0.40169728 0.00037455271
-0.032431412 0.044464055 -0.0091172438 0.16786681 0.89042801 -0.42303514 0.00030439656
-0.029201534 0.044098165 -0.0086318925 0.17076007 0.87559325 -0.45186004 0.00031476037
-0.026253872 0.043552469 -0.0085817147 0.16994163 0.87160611 -0.45980722 0.00031287508
-0.023442701 0.042966023 -0.0086667808 0.18142174 0.86558032 -0.4667514 0.00020160037
-0.02064611 0.042631429 -0.0081580142 0.20480274 0.85564321 -0.47532135 0.00028603917
-0.017090395 0.042165671 -0.0072478363 0.1950016 0.84638315 -0.49559057 0.00088301359
-0.052689347 0.047457963 -0.0090464484 0.4874227 0.85410917 -0.18142918 0.1965639
-0.050618552 0.047465775 -0.0089743892 0.10833686 0.96257019 -0.24843848 0.009897789
-0.047279257 0.04681791 -0.0085993577 0.14826174 0.93952763 -0.30871734 0.0019399177
-0.044499528 0.046479341 -0.0087350244 0.11001604 0.93456781 -0.33834809 0.00011625654
-0.041757047 0.046209965 -0.0084238835 0.127878 0.92959523 -0.34568751 0.00015241907
-0.038608033 0.04571585 -0.0085492283 0.13996828 0.91767019 -0.37187403 0.00039636326
-0.035522241 0.045567837 -0.007799522 0.13724473 0.91319567 -0.38371554 0.00023340968
-0.031977206 0.045076877 -0.0076384032 0.15678999 0.89646357 -0.41445145 0.00060622953
-0.053084169 0.048290916 -0.0077128918 0.077234492 0.96603251 -0.24660891 0.012370858
-0.054064713 -0.048206165 -0.006229178 -0.22779544 0.97277719 0.042588953 0.05465905
-0.050888304 -0.048327144 -0.0051864036 -0.023492532 0.99943036 0.024229789 0.051633086
-0.053894635 -0.047592465 -0.0056441338 -0.79906535 0.45184481 -0.39664939 0.08907903
-0.047168329 -0.047693714 -0.0062454054 0.12412734 -0.95690864 -0.26252294 0.0007317657
-0.044366106 -0.047551081 -0.0055127386 0.10747356 -0.95322621 -0.28250527 0.00055338629
-0.041112378 -0.047124986 -0.0056348862 0.12602037 -0.93917066 -0.31949541 0.00015909076
-0.038599607 -0.046914835 -0.0052305879 0.12812936 -0.9368313 -0.32546893 0.00022933117
-0.035652917 -0.046397027 -0.0055148285 0.14068417 -0.92340851 -0.35710606 0.00016709483
-0.032558709 -0.045858137 -0.0056390688 0.13967682 -0.91924244 -0.36808121 0.00021896299
-0.029736079 -0.045455899 -0.0054892204 0.1452152 -0.9109419 -0.38613135 0.00015385465
-0.026613731 -0.045309313 -0.0046945224 0.14548121 -0.90516591 -0.39938688 0.00014958961
-0.052046642 -0.043306626 -0.004238815 -0.92633307 0.14705741 -0.34681559 0.027585501
-0.051486898 -0.042944856 -0.0056222305 -0.9263351 0.14705163 -0.3468127 0.027587447
-0.028221522 -0.044557877 -0.006919981 0.16141495 -0.88751513 -0.43158108 0.00021191295
-0.026311301 -0.044561461 -0.0062082717 0.16225879 -0.89611852 -0.41309026 0.00018123258
-0.023331262 -0.044340018 -0.0055530868 0.19469978 -0.88556379 -0.42174497 0.00013591605
-0.020340344 -0.043579917 -0.0054850886 0.20419194 -0.87403232 -0.44087785 0.00050967064
-0.017290177 -0.042864963 -0.0055463342 0.16695 -0.86074382 -0.4808822 0.00067260524
-0.014428673 -0.042535126 -0.0053401515 0.1558921 -0.85648662 -0.49206531 9.6995122e-05
-0.011422409 -0.042307209 -0.0046993289 0.17764932 -0.85375899 -0.48942453 0.0002521319
-0.052467972 -0.040422812 -0.0048849992 -0.92703742 -0.011854671 -0.37478146 0.0073326789
-0.051726121 -0.041029904 -0.0065169344 -0.91687119 -0.078448638 -0.39139888 0.00561332
-0.013694409 -0.041500375 -0.0069108168 0.16141483 -0.83535945 -0.52547109 0.00021926303
-0.011427689 -0.041393772 -0.0062764264 0.18569125 -0.83532399 -0.51744801 0.00033329791
-0.0084998999 -0.041085798 -0.0056674853 0.20043354 -0.82391876 -0.53007948 0.00037128251
-0.0055623082 -0.04039184 -0.0056249695 0.24366079 -0.80827218 -0.53602749 0.00038503119
-0.0026015704 -0.039691456 -0.0052128304 0.26620501 -0.79324663 -0.54762644 0.00027710831
0.00028629694 -0.039190467 -0.0043644793 0.21143129 -0.79756594 -0.56496495 0.0016213156
-0.051569924 -0.037010185 -0.005810895 -0.93353212 0.082425587 -0.34888932 0.0026430814
-0.0022314331 -0.038556568 -0.0065898756 0.2769292 -0.76786476 -0.57766241 0.0001325991
0.00079200417 -0.037963606 -0.0059527564 0.24619538 -0.77039593 -0.5881139 0.0015189315
0.0036673704 -0.037621494 -0.0055886437 0.18313721 -0.76610661 -0.61606938 0.00036239368
0.0065216729 -0.037139602 -0.0052739107 0.22038394 -0.74268389 -0.63233823 0.00025142095
0.0093956534 -0.036496207 -0.0049516112 0.24003144 -0.73726612 -0.63152474 0.00032215109
0.011671492 -0.036210749 -0.0044225045 0.25932285 -0.73206335 -0.62994838 0.00029237679
-0.052011158 -0.033538528 -0.0044910023 -0.92846161 -0.0060870787 -0.37137848 0.0011404052
-0.051360082 -0.034189761 -0.0054853866 -0.92846817 -0.0060617528 -0.37136251 0.0011170387
0.0071696336 -0.035773553 -0.0066088405 0.21522799 -0.72968096 -0.64903206 0.00025969741
0.0097071677 -0.03512039 -0.0064060311 0.24601364 -0.70264131 -0.66766196 0.00024741216
0.012450715 -0.034635179 -0.0058674584 0.26846254 -0.69447511 -0.66755694 0.00034462556
0.015165913 -0.03418513 -0.0052506635 0.31376329 -0.68867987 -0.65366089 0.00064795947
0.018236142 -0.033317354 -0.0044075493 0.28299621 -0.6860888 -0.67022043 0.0023688904
-0.052016892 -0.031234128 -0.0044502476 -0.93713659 0.073248886 -0.34118849 0.0025376941
-0.051432889 -0.032126218 -0.0061841467 -0.9304511 -0.0022460867 -0.36640924 0.0019461351
0.015908543 -0.03258213 -0.0065207724 0.31902808 -0.663894 -0.67636222 0.00063231133
0.018624317 -0.031610467 -0.0058571994 0.32042027 -0.63055742 -0.7069146 0.0015115868
0.02149713 -0.031400897 -0.0051860684 0.21421446 -0.62625235 -0.74961329 0.00068076205
0.024437193 -0.030958356 -0.0047179526 0.26107588 -0.61224687 -0.74631983 0.00082858891
0.026708722 -0.030484615 -0.0041821012 0.28618819 -0.61122298 -0.73790431 0.00017694234
-0.051156562 -0.028498717 -0.0057223151 -0.94241077 0.1013457 -0.31873342 0.0017461369
0.019692067 -0.029771795 -0.006971837 0.30418295 -0.60572612 -0.73523372 0.0016604436
0.02174473 -0.029445419 -0.0066001792 0.23430496 -0.60081238 -0.76428121 0.00077851408
0.024741394 -0.029024126 -0.006129703 0.25835624 -0.58762378 -0.76677924 0.00055890292
0.027613409 -0.028532045 -0.0053901114 0.29471034 -0.57358944 -0.76429111 0.00025057502
0.030365622 -0.027979309 -0.0047253063 0.31123009 -0.56424862 -0.76469558 0.00018831952
0.032476664 -0.027529376 -0.0042559812 0.33999053 -0.55356598 -0.76024413 0.000214641
-0.050790455 -0.025504822 -0.0059034536 -0.94776845 0.060245145 -0.31321782 0.0012668812
0.028311094 -0.026417073 -0.0066289688 0.29807702 -0.52759182 -0.79548538 0.00021820555
0.030748216 -0.025649611 -0.0062332558 0.31037673 -0.5159592 -0.79840618 0.00039514707
0.033366635 -0.025496569 -0.0053335018 0.33760872 -0.52500921 -0.78127176 0.00037955132
0.03601924 -0.024741126 -0.0045277555 0.32589054 -0.51511824 -0.7927475 0.0018047886
-0.050793368 -0.022439983 -0.0058823335 -0.94022971 0.023249416 -0.33974627 3.9111201e-05
0.033893466 -0.022912959 -0.0065817563 0.3577877 -0.45980334 -0.81275386 0.00027228094
0.03643623 -0.022519905 -0.0055331509 0.34494886 -0.45480561 -0.82107377 0.0010732001
0.039320406 -0.022175336 -0.0046341815 0.28334585 -0.44087264 -0.85167271 0.00058907451
0.041729454 -0.021445654 -0.0043421099 0.2773602 -0.42918789 -0.85957497 0.00044190645
-0.050860245 -0.019395914 -0.0053985128 -0.9412905 0.028219335 -0.33641627 6.1447121e-05
0.037048526 -0.020105952 -0.0066019245 0.37865683 -0.40764427 -0.83093029 0.00041014695
0.039398506 -0.019372949 -0.0059221545 0.29560885 -0.38778818 -0.87306112 0.0022406755
0.042493165 -0.019371066 -0.0051715458 0.261536 -0.40552691 -0.87586915 0.00048128248
0.045263786 -0.018792845 -0.0044280966 0.31776857 -0.39740345 -0.86086798 0.00035217998
-0.05066463 -0.016064502 -0.0055845622 -0.93572581 0.013796914 -0.35245836 0.00012317978
0.03986207 -0.017039312 -0.006746206 0.3085613 -0.33713722 -0.88945401 0.0027110579
0.042533945 -0.016431667 -0.006404072 0.28082368 -0.33432144 -0.89964831 0.00082588888
0.045586146 -0.016330032 -0.0053320164 0.32374716 -0.33845595 -0.88353574 0.00036503293
0.048230454 -0.015978394 -0.0044728853 0.32704601 -0.32664108 -0.88676178 0.00035558722
0.050059192 -0.015092439 -0.0041461 0.34448469 -0.30629665 -0.88741916 0.00078328402
-0.050725635 -0.013510171 -0.0054506296 -0.93368965 0.0015679885 -0.35807988 9.3510003e-05
0.04345122 -0.014077059 -0.0068784724 0.31879032 -0.26565745 -0.90983456 0.00016431574
0.045543689 -0.01352106 -0.0062463796 0.33100006 -0.26722994 -0.90500116 0.00012006095
0.048655592 -0.013366839 -0.005169149 0.33553401 -0.27078238 -0.90227151 0.00022416071
0.051061783 -0.013033083 -0.0043688454 0.36325279 -0.26436538 -0.89339715 0.00037366163
-0.050906651 -0.010451418 -0.0050628134 -0.93216658 -0.0059962422 -0.36197996 2.7788963e-05
0.046097577 -0.011070077 -0.0067397682 0.33525297 -0.21946689 -0.91620946 0.00022246604
0.048533645 -0.010610241 -0.0059452741 0.34104463 -0.20694044 -0.91698653 0.00024899698
0.051521629 -0.010456675 -0.0048601162 0.3652173 -0.20878248 -0.90720791 0.00036010824
0.053300362 -0.010044593 -0.0042250119 0.38838026 -0.21105343 -0.89700454 0.00056273857
-0.050886136 -0.0076326416 -0.005211235 -0.93056983 -0.0097812936 -0.3659839 0
0.048656572 -0.0076798163 -0.0064668097 0.3462362 -0.15305461 -0.92557806 0.0002474272
0.051457182 -0.0076285042 -0.0054534404 0.37160119 -0.14634475 -0.91678554 0.00038662856
0.05369227 -0.0074699679 -0.0045007505 0.39837721 -0.14670314 -0.90541363 0.00048426559
-0.050862029 -0.0045597241 -0.0053856182 -0.92899561 -0.0062226276 -0.37003848 2.8862896e-06
0.049138512 -0.004655553 -0.0066735386 0.34578159 -0.10337598 -0.932603 0.00011541008
0.051596865 -0.0044949963 -0.0058293897 0.37315813 -0.10112088 -0.92224056 0.00037335098
0.054270703 -0.0046468098 -0.0045992201 0.40385979 -0.10802347 -0.90842074 0.00024026071
-0.050846156 -0.0014894988 -0.0055004866 -0.93033206 -0.0010411118 -0.36671671 5.3728882e-06
0.049521986 -0.0014855004 -0.0068374979 0.34922397 -0.040808395 -0.93615019 0.00051881181
0.051641677 -0.0014877534 -0.0061076162 0.38517508 -0.038499095 -0.92204005 0.00067983387
0.05461612 -0.0014921126 -0.0046829777 0.40774253 -0.025958793 -0.91272795 0.00099936302
-0.050857123 0.0015798399 -0.005421123 -0.93162173 -0.0029795042 -0.36341748 2.7384271e-05
0.049522068 0.001573769 -0.0068367333 0.34807622 0.034960579 -0.93681413 0.00020512895
0.051648475 0.0015772069 -0.0060461089 0.38970536 0.038300324 -0.92014289 0.00042458216
0.054582246 0.0015388891 -0.0046696644 0.40745944 0.051632516 -0.91176254 0.00049850869
-0.050853938 0.0046489825 -0.0054441602 -0.9298656 0.00050933333 -0.367899 6.6997498e-05
0.049223602 0.0047010421 -0.0067402367 0.35954526 0.088914961 -0.92888176 0.00015984847
0.051596161 0.0045843944 -0.0058366805 0.38318515 0.08818575 -0.91945219 0.00026837393
0.054236609 0.0046897419 -0.004593757 0.40332136 0.09006834 -0.91061491 0.00056879839
-0.050869282 0.0077207424 -0.0053331712 -0.92828602 0.010955195 -0.3717055 6.7123168e-05
0.048757143 0.0078342082 -0.0065107467 0.36108699 0.15468088 -0.91961408 0.0003286498
0.051453728 0.0077179326 -0.0054854024 0.3804681 0.14722447 -0.91299999 0.00041207238
0.053740479 0.007479195 -0.0045519806 0.39043671 0.13439366 -0.91076756 0.00073812838
-0.050890349 0.010538735 -0.0051807594 -0.93022978 0.0047870278 -0.36694625 8.1104918e-05
0.046440046 0.010780719 -0.0067814928 0.35036132 0.2141863 -0.91179562 0.00016468174
0.048587281 0.010517585 -0.006009791 0.3514632 0.21300711 -0.91164768 0.00014461551
0.051523268 0.010547767 -0.0048454353 0.36203468 0.2094201 -0.90833586 0.00010551779
0.053451482 0.0098584881 -0.0042118551 0.37561291 0.20399909 -0.90404606 0.00056162808
-0.050882753 0.01335234 -0.0052356678 -0.93463457 -0.0033966538 -0.35559356 7.7836215e-05
0.043486435 0.014403651 -0.0068647075 0.31389469 0.27714092 -0.90810961 0.00028020097
0.045589034 0.013416383 -0.0063642561 0.34523225 0.27025095 -0.89876539 0.00011438086
0.048586585 0.013291297 -0.0052760802 0.33978656 0.27245104 -0.90017527 0.00035829921
0.05108612 0.01314969 -0.0043810643 0.35794991 0.25653002 -0.89781082 0.00035909293
-0.050889794 0.016425205 -0.0051847459 -0.93829936 -0.017615838 -0.34537524 0.00013875656
0.04025567 0.01729155 -0.0068892846 0.31132251 0.33649415 -0.88873506 0.0012179781
0.042607497 0.016563047 -0.0064263036 0.30108672 0.33944988 -0.8911345 0.00016431656
0.045582071 0.016418373 -0.0053747389 0.33327329 0.33275673 -0.88215756 0.00022121608
0.048228804 0.016068924 -0.0044896002 0.33064705 0.32311937 -0.8867166 0.00023780666
0.050059624 0.015184187 -0.0041419575 0.34041032 0.30133095 -0.89068544 0.00082491513
-0.050800413 0.019465193 -0.0058313669 -0.94161576 -0.036232144 -0.33473435 8.4791813e-05
0.037213221 0.020361012 -0.0066723437 0.36635065 0.3987734 -0.84069437 0.00025826058
0.039476268 0.019549256 -0.0062074354 0.30933633 0.37852353 -0.87237084 0.00084288663
0.042522475 0.019494027 -0.0052563823 0.29988471 0.38888642 -0.87111223 0.00026573532
0.045294642 0.01890295 -0.0044927625 0.32643726 0.37915313 -0.86584157 0.00018658544
-0.051051274 0.022755606 -0.0055012414 -0.9431302 -0.036628328 -0.33039939 4.2159263e-05
0.034135807 0.023251133 -0.0066751014 0.34388554 0.46083781 -0.81815112 0.00054787128
0.036527343 0.022639107 -0.0058532464 0.36412436 0.44714102 -0.81699347 0.0008916278
0.039374143 0.022444556 -0.0048191752 0.29153734 0.44393423 -0.84730655 0.00043970023
0.042032085 0.021687692 -0.0044034966 0.29898679 0.43510064 -0.84929049 0.00034857637
-0.051263861 0.025398381 -0.0049533062 -0.94472241 -0.065346852 -0.32129329 0.00048325676
0.028284254 0.026647408 -0.0067352611 0.30025366 0.55314136 -0.77709872 0.00026283867
0.030864041 0.025887659 -0.006285076 0.29722545 0.51355559 -0.80493337 0.00025562968
0.033465266 0.025621139 -0.0054910164 0.32410246 0.52515692 -0.78687215 0.00024466598
0.036143791 0.025040982 -0.0046144575 0.33731005 0.51025164 -0.79111642 0.00094540918
0.038255561 0.024420189 -0.0041584382 0.30359045 0.50646693 -0.80704653 0.00076984067
-0.052042585 0.029543819 -0.0042676339 -0.94102007 -0.084109068 -0.32772985 0.001041336
-0.051515765 0.02856149 -0.0051006265 -0.93871778 -0.099336214 -0.33006245 0.00059053436
0.021956626 0.02972829 -0.0067792544 0.26420295 0.61006021 -0.74700963 0.00049869396
0.024798293 0.029210264 -0.0062177884 0.26411107 0.59659183 -0.75784141 0.00023371876
0.027659709 0.028507745 -0.0056604426 0.29584923 0.55779982 -0.77545631 0.00019679203
0.030383384 0.028208122 -0.0048554423 0.28942713 0.57003736 -0.76895338 0.00018960639
0.032678902 0.027651293 -0.0044397824 0.32716271 0.55190903 -0.76704687 0.00035987078
-0.051664971 0.031833995 -0.0059162006 -0.9299947 0.0085553741 -0.36747316 0.0020739685
0.016049955 0.032783367 -0.0065303007 0.2998248 0.66236919 -0.68656552 0.00033316255
0.018672811 0.031767778 -0.0061598257 0.29132846 0.6280483 -0.72158366 0.00067098363
0.02153126 0.03150513 -0.0054680766 0.24441649 0.62384784 -0.74234396 0.0004722178
0.024401063 0.031098917 -0.0048158094 0.26617548 0.62493408 -0.73389918 0.00016876742
0.027278639 0.030373076 -0.0043286504 0.27868322 0.60072923 -0.74930638 6.7876579e-05
-0.051990032 0.033617474 -0.0046411464 -0.92633522 -0.019012155 -0.37622005 0.0023707093
-0.051445659 0.034316752 -0.0054812538 -0.93434674 -0.048942134 -0.35298845 0.0039605438
0.0071203941 0.035820719 -0.006804368 0.21164057 0.71509314 -0.66622072 0.00019512109
0.009694363 0.035323042 -0.0064163478 0.23874258 0.7006526 -0.67237478 0.00020185696
0.012479233 0.034835719 -0.0059468523 0.25705415 0.69615257 -0.67029452 0.0003761847
0.015225025 0.034371678 -0.0053394907 0.2867173 0.69314981 -0.66131431 0.00029841965
0.018329252 0.033506919 -0.0047438731 0.272699 0.66581899 -0.69449288 0.00085520104
0.020805776 0.033136681 -0.0042452822 0.23744205 0.65537333 -0.71701264 0.00029594271
-0.052293029 0.037509173 -0.0046722479 -0.93548739 -0.093198068 -0.34084809 0.0016816324
-0.051625744 0.036910634 -0.0060201692 -0.92900014 -0.10685747 -0.35431647 0.001612472
-0.0014667325 0.038561158 -0.0065794894 0.25902399 0.77528036 -0.57606149 0.0011385562
0.00072008371 0.038201932 -0.0060571479 0.24687584 0.78018367 -0.57477444 0.0010534077
0.0037069093 0.03778917 -0.0055973381 0.19550599 0.76148444 -0.61799574 0.00020841573
0.0066854176 0.037178468 -0.005443377 0.21016937 0.74783278 -0.62974191 0.00026494035
0.0093768733 0.03669586 -0.004997191 0.2277613 0.73297381 -0.64099467 0.00019411411
0.01208121 0.036322523 -0.0044807317 0.2526893 0.72577852 -0.63983887 0.00028204551
-0.052405283 0.040469937 -0.0053266594 -0.92169499 -0.0016092128 -0.38791198 0.0047227992
-0.051728982 0.041630484 -0.0064966092 -0.92005485 0.067755491 -0.38588634 0.0033358061
-0.011200447 0.041487031 -0.0064748959 0.19404218 0.83649874 -0.5124622 0.00029353509
-0.0085117333 0.041261464 -0.0057294155 0.21032965 0.83279085 -0.51207507 8.4366104e-05
-0.0056018829 0.040621981 -0.0056092674 0.22778863 0.82059354 -0.52415514 0.00024173068
-0.0026246952 0.03980447 -0.0054517714 0.26100928 0.7990272 -0.54169142 0.00018975139
0.00028880127 0.039393969 -0.0045340816 0.20985875 0.78575993 -0.58184254 0.001263953
0.0023350092 0.039305307 -0.0041172216 0.20558561 0.78787184 -0.58051056 0.0011109862
-0.052265838 0.043114111 -0.0045028487 -0.93226629 -0.1553269 -0.32673103 0.023188442
-0.051619127 0.042822737 -0.0058267601 -0.89177907 0.02057015 -0.45200321 0.057927262
-0.026480846 0.04470649 -0.0063634971 0.16703546 0.891864 -0.42033058 0.00043321747
-0.023370795 0.044468347 -0.0056644827 0.17462507 0.88913798 -0.42301279 0.00011078306
-0.020337123 0.043847378 -0.0055349711 0.19226098 0.87353975 -0.44717339 0.00032598776
-0.01727722 0.043313384 -0.005340619 0.17239155 0.86416173 -0.47276384 0.00055112439
-0.01443308 0.042753171 -0.0055193203 0.16114974 0.85585445 -0.49147114 0.00013929517
-0.011818882 0.042453133 -0.0051155696 0.18157339 0.85048664 -0.49366352 0.00017770572
-0.0094616245 0.042366654 -0.0042912075 0.20040344 0.8409968 -0.50255632 0.00017657752
-0.053837266 0.047466349 -0.0060376436 -0.20841143 -0.97774154 0.024210963 0.070891649
-0.050022855 0.047821537 -0.0059109489 0.10734965 0.96733767 -0.22963861 0.011837923
-0.047526028 0.047873866 -0.0054598809 0.078830533 0.95723879 -0.27835158 0.00031521393
-0.044385377 0.047380015 -0.0060502202 0.10886189 0.94822222 -0.29836854 0.00014368937
-0.041254602 0.047164761 -0.0055144364 0.11397514 0.94544554 -0.30519241 0.00023900739
-0.038193498 0.046761714 -0.0056030247 0.13063627 0.93469107 -0.33058533 0.00017188504
-0.035671081 0.046448279 -0.0055042049 0.12554508 0.93322897 -0.33663353 0.00020203013
-0.032756891 0.045975085 -0.0056716907 0.12649913 0.92716235 -0.3526583 0.00023594066
-0.029615019 0.045563564 -0.0055403146 0.13485856 0.91789049 -0.37321603 0.00020932316
-0.02659978 0.045381047 -0.0048693027 0.15312837 0.90276855 -0.40194601 0.00031704287
-0.05382847 0.048925702 -0.0052184546 -0.058549866 -0.99453926 0.086391859 0.082780585
-0.051535893 0.048530504 -0.0042223344 0.0096447617 -0.99864995 0.051042069 0.077602848
-0.045383468 0.048021503 -0.0041872868 0.077142447 0.96265018 -0.25952569 0.00067830354
-0.055536851 -0.049054686 -0.0026189149 -0.60538948 0.736552 -0.30165327 0.047663879
-0.0540189 -0.049355548 -0.0032213207 -0.23030528 0.9545328 -0.18927914 0.084372893
-0.049275123 -0.048480682 -0.003862978 0.05631486 0.99341762 0.0997499 0.037154317
-0.047381882 -0.048626333 -0.0026074904 -0.070884414 -0.98961967 -0.12501372 0.022149645
-0.045754809 -0.048788659 -0.0012082467 0.090231299 -0.96859789 -0.23168187 9.8505203e-05
-0.041462377 -0.048115253 -0.002572814 0.092835695 -0.96214914 -0.25622368 0.00045650406
-0.039541099 -0.048259042 -0.001320065 0.095631689 -0.9636991 -0.24927633 0.00047402753
-0.053223684 -0.046473239 -0.0022880295 -0.84297323 0.30036208 -0.44629452 0.061472688
-0.043379422 -0.047976337 -0.0037830481 0.10064094 -0.96121359 -0.25678748 0.00032711437
-0.038042411 -0.047522712 -0.0032548094 0.12241234 -0.94861621 -0.29179209 0.00011571548
-0.035426196 -0.04742362 -0.0024303729 0.11606426 -0.94946182 -0.29163545 0.00013658755
-0.032182064 -0.046944644 -0.0026794234 0.12683295 -0.93610764 -0.32804865 0.00027527908
-0.029514402 -0.046643246 -0.0024331487 0.12778232 -0.93306565 -0.33624426 0.00024591718
-0.026690707 -0.046224799 -0.0024364539 0.14218952 -0.92385632 -0.35534725 0.00021136888
-0.023695931 -0.045751952 -0.0025208276 0.16484009 -0.91395414 -0.37083086 0.00018460011
-0.020680349 -0.045314278 -0.0019360618 0.15664482 -0.90321851 -0.39957327 0.00079851266
-0.017576119 -0.045146052 -0.0014421255 0.13025685 -0.89096683 -0.43498415 0.00048925169
-0.052754078 -0.043447178 -0.0028739553 -0.92412674 -0.070603997 -0.37550613 0.0028153656
-0.020495329 -0.044624649 -0.0034253965 0.18236952 -0.88863838 -0.42078862 0.00079745095
-0.017358797 -0.044209849 -0.0031967687 0.14879943 -0.87752199 -0.45586607 0.0004167952
-0.014363108 -0.044016179 -0.0026995568 0.15542994 -0.87509328 -0.4583157 0.00018014305
-0.01138038 -0.043442227 -0.002606554 0.1755119 -0.87276751 -0.45549148 0.00027996494
-0.0084986053 -0.042895928 -0.0025282851 0.18625566 -0.86201566 -0.47142106 0.00022125317
-0.0058100242 -0.042638782 -0.0019749971 0.22184008 -0.85545915 -0.46794927 0.00045606575
-0.0031124838 -0.04203824 -0.0015302906 0.23054832 -0.84046614 -0.49037141 0.0006967049
-0.053352609 -0.040416628 -0.0022838661 -0.93648803 0.023415944 -0.34991679 0.0067911879
-0.0053826468 -0.041722901 -0.003400174 0.23070692 -0.83693498 -0.49630046 0.00038951813
-0.0024214955 -0.041103508 -0.0027929787 0.25311255 -0.83180481 -0.49399877 0.00069835945
0.00058704242 -0.040321775 -0.0027139527 0.18356968 -0.81594765 -0.5482077 0.0016889799
0.0034967796 -0.040027883 -0.0025089746 0.15380187 -0.80698413 -0.5701943 0.00046733257
0.0064409114 -0.039781298 -0.0018777559 0.21106611 -0.78893268 -0.57709306 0.0002171989
0.0090241423 -0.039478511 -0.0012935209 0.22513592 -0.78613633 -0.57558972 0.00042112826
-0.052562758 -0.037363172 -0.0026647332 -0.9338547 0.084058836 -0.34763405 0.0028405171
0.0049002478 -0.038718976 -0.0039171884 0.18799448 -0.77296484 -0.60595655 0.00041652305
0.0070017586 -0.038489439 -0.003370137 0.21960135 -0.7664659 -0.60357702 0.00021155864
0.0096214637 -0.038197313 -0.0026896675 0.23257405 -0.76839757 -0.59621686 2.3085391e-05
0.012395596 -0.037508752 -0.0025359914 0.2616607 -0.75699151 -0.59874672 0.0003011573
0.01513702 -0.036782365 -0.0021940954 0.29717425 -0.74901885 -0.59216398 0.0002389899
0.017808788 -0.036381885 -0.0012534768 0.21818881 -0.72303402 -0.65545064 0.0018833684
-0.052528653 -0.03463541 -0.0030098655 -0.937024 -0.018248167 -0.34878793 0.0011106977
0.015979901 -0.035396256 -0.0034082078 0.30663472 -0.72377849 -0.61815828 0.00049736147
0.018682025 -0.034855712 -0.0026539732 0.2562246 -0.70175874 -0.6647433 0.0028511537
0.021595124 -0.034259662 -0.0025635841 0.20664687 -0.6943602 -0.68931913 0.00057531951
0.024401486 -0.033857118 -0.0020403136 0.25606075 -0.68210071 -0.68496102 0.0004382437
0.027098682 -0.033435293 -0.0014869515 0.26046154 -0.67449731 -0.69080615 0.00055907387
-0.052664347 -0.031114873 -0.0025962787 -0.93739563 0.10062569 -0.33341259 0.0014156781
0.022866506 -0.032549314 -0.0040244469 0.22644073 -0.6320197 -0.74113131 0.00088686351
0.024949823 -0.032245327 -0.0033588074 0.25566408 -0.63970047 -0.72485805 0.0007115234
0.027652455 -0.031632654 -0.0028636106 0.27550575 -0.62279558 -0.73227197 0.00026264318
0.030269636 -0.031170376 -0.0023302515 0.29288128 -0.61618763 -0.73111784 0.00038682256
0.032970585 -0.030508436 -0.0017309436 0.34114295 -0.61279428 -0.71281457 0.00061654515
-0.052372769 -0.028326975 -0.00192083 -0.93349886 0.10045442 -0.34422198 0.0012848163
-0.051584441 -0.027939521 -0.0038742134 -0.94042069 0.10418798 -0.32365695 0.0008438059
0.030875789 -0.029213158 -0.003611665 0.30358484 -0.57983279 -0.75606227 0.00031737256
0.033604413 -0.028661521 -0.0028551575 0.34180826 -0.56992823 -0.74722749 0.00018509479
0.036472052 -0.028050013 -0.0019038008 0.29563588 -0.55002177 -0.78107333 0.0009845387
0.039363131 -0.0274527 -0.0014962214 0.2476285 -0.55783278 -0.79215068 0.00042730369
0.041328661 -0.027087471 -0.001148642 0.26786658 -0.5404098 -0.79762447 0.00025903858
-0.05240529 -0.02550412 -0.0016896855 -0.93470353 0.015504653 -0.35509005 9.6158578e-07
-0.051595047 -0.02563338 -0.0037981777 -0.93836874 0.02614007 -0.34464595 0.00037749574
0.034516349 -0.026745852 -0.0038053303 0.3478303 -0.55912346 -0.75259227 0.00019016303
0.036692016 -0.025970716 -0.0033770322 0.31047782 -0.52281255 -0.79389584 0.0015681608
0.039600957 -0.025401061 -0.0028214147 0.27024686 -0.51053965 -0.81628174 0.0009706436
0.042368412 -0.025374968 -0.0019000671 0.27432123 -0.51557815 -0.81174326 0.00017036482
0.045076296 -0.024693692 -0.0014268141 0.29060256 -0.50153488 -0.81486988 0.00042186608
0.047283184 -0.023992544 -0.0010389099 0.31037426 -0.49346244 -0.81250399 0.00029076388
-0.052441593 -0.022678562 -0.0014316747 -0.93685323 0.02982256 -0.34844878 6.6376968e-05
-0.051611919 -0.022558276 -0.0036771903 -0.93682671 0.021654647 -0.34912288 4.5721372e-05
0.040111862 -0.023552334 -0.0037677197 0.28400046 -0.4817307 -0.82902306 0.00036657412
0.042705946 -0.022686485 -0.0033537808 0.28684947 -0.45615435 -0.84240162 0.00018319342
0.045431588 -0.022662144 -0.002359665 0.29467297 -0.46389082 -0.83544785 0.00018847006
0.04828262 -0.022187062 -0.001612212 0.30876482 -0.45137724 -0.83721137 0.00019606463
0.050544482 -0.02157365 -0.0011625797 0.3516649 -0.43837979 -0.82713664 0.00071253546
-0.051690433 -0.019501621 -0.0031141946 -0.93567538 0.021116331 -0.35222951 0.00014802896
0.043918733 -0.020746758 -0.0039522657 0.30300349 -0.44434682 -0.8430568 4.3399461e-05
0.045870755 -0.020080276 -0.0035804459 0.31407151 -0.41364616 -0.85455018 0.00029531994
0.048465889 -0.019573914 -0.00288811 0.3273896 -0.3971436 -0.85737562 0.00033937057
0.051399115 -0.019370971 -0.00187138 0.3577964 -0.39700612 -0.8452028 0.00051931589
0.053647552 -0.018473338 -0.0011448176 0.37018928 -0.37355179 -0.85054046 0.00056384952
-0.052491706 -0.01520232 -0.0010754773 -0.93223828 -0.0070931241 -0.36177546 0.00010246824
-0.051716432 -0.016422838 -0.0029277713 -0.93319905 0.0013745594 -0.35935739 0.00016840872
0.049077205 -0.017162789 -0.0037143924 0.32625186 -0.35019207 -0.87802345 0.00032843745
0.051500063 -0.016456071 -0.0030312845 0.37089226 -0.34126833 -0.8636983 0.0003834044
0.05438244 -0.016211519 -0.0017320397 0.36156845 -0.34885401 -0.8646208 0.00093395659
0.056463845 -0.015610559 -0.0012218067 0.31217068 -0.33592758 -0.88865179 0.00038495462
-0.052484974 -0.013908337 -0.001123325 -0.92992431 -0.0067780213 -0.36768851 4.2009018e-05
-0.051703762 -0.013331783 -0.0030186335 -0.92839575 -0.0038209246 -0.37157336 0
0.052164469 -0.013845114 -0.0036684354 0.39471662 -0.27138487 -0.87780923 0.00037370509
0.054593645 -0.013343896 -0.002658831 0.37798804 -0.27131289 -0.88516349 0.00060262496
0.057520874 -0.013332883 -0.0015863404 0.30225477 -0.27435657 -0.91289127 0.0006971198
0.05947458 -0.012678089 -0.001217735 0.30176485 -0.26412562 -0.91606528 0.00037670502
-0.052491292 -0.010291292 -0.0010784427 -0.92860228 -0.0067040585 -0.37101611 2.6408678e-05
-0.051699027 -0.010501024 -0.0030525811 -0.92862159 -0.0065210513 -0.37097093 2.6351083e-05
0.054796677 -0.010601847 -0.0033097712 0.3851513 -0.20769589 -0.89917791 0.00054539338
0.057467971 -0.010519541 -0.0023114025 0.30561778 -0.20331636 -0.93019366 0.00037915036
0.06028486 -0.010217621 -0.0015536896 0.30740127 -0.19745386 -0.93086863 0.00035265685
0.062271301 -0.0089989221 -0.0010744343 0.33788675 -0.16649424 -0.9263435 0.0005469544
-0.052473463 -0.0074459082 -0.0012051053 -0.9288224 -0.012487852 -0.37031478 0
-0.05167897 -0.0076687052 -0.0031964143 -0.92925566 -0.013158431 -0.36920288 1.212847e-05
0.055248968 -0.007857101 -0.0036514166 0.3988052 -0.14294849 -0.90582567 0.00046394949
0.057629768 -0.0076392465 -0.0027944539 0.32912052 -0.14338705 -0.93333805 0.0010618794
0.060507003 -0.007547101 -0.0019879988 0.31015214 -0.15123092 -0.93858129 0.00035812115
0.062621891 -0.0072100214 -0.001264248 0.34060144 -0.14913616 -0.92830437 0.00032735869
-0.052449171 -0.0046017626 -0.0013778317 -0.92988271 -0.0051209512 -0.36782053 4.8241152e-05
-0.051652059 -0.0045806849 -0.0033893893 -0.92997152 -0.0075365757 -0.36755431 5.4962486e-05
0.05573317 -0.0045753601 -0.0038994809 0.36916509 -0.10477972 -0.92343837 0.0012211377
0.057620589 -0.0045830631 -0.0031694002 0.33309707 -0.10154609 -0.93740845 0.0006728748
0.060561251 -0.0045920978 -0.0023060283 0.31311145 -0.08737763 -0.94568831 0.00024982964
0.063071474 -0.0044669346 -0.0014290391 0.34373721 -0.079560235 -0.93568957 0.00019651954
-0.052457884 -0.0015023089 -0.0013158629 -0.93095815 0.0059091374 -0.36507797 0
-0.051653739 -0.0014959386 -0.0033773193 -0.93134809 0.0036549738 -0.3641116 1.2609462e-05
0.057583254 -0.0014958521 -0.0034734069 0.34186387 -0.037339736 -0.9390074 0.00063297065
0.060534474 -0.0014987595 -0.0025130617 0.32395548 -0.028336478 -0.9456479 0.00032710627
0.063246876 -0.0015018237 -0.001507937 0.34925732 -0.019325282 -0.93682754 0.0002280442
-0.052474722 0.0015980046 -0.0011962363 -0.93098968 -0.0015839223 -0.36504212 5.0224062e-05
-0.051671967 0.0015891605 -0.0032466163 -0.93248779 -0.001315064 -0.36119896 0
0.055719223 0.002869138 -0.0040172348 0.39854997 0.065790109 -0.9147839 0.00098973536
0.057583965 0.0015882673 -0.0034674283 0.33688447 0.047031939 -0.94037056 0.0004767192
0.060539618 0.0015925798 -0.0024736673 0.33263266 0.036736742 -0.94234067 0.00016814902
0.06317468 0.001522976 -0.0014957902 0.35103655 0.040548865 -0.9354834 0.00017484653
-0.052447651 0.0046964255 -0.0013886155 -0.93181813 -0.0081879431 -0.36283323 0
-0.051641364 0.004672037 -0.0034660557 -0.9308449 -0.0061315936 -0.36536303 4.7226884e-05
0.055665147 0.004851169 -0.0038546759 0.39380771 0.085161142 -0.91523939 0.00070711353
0.057609443 0.0046748109 -0.0032598865 0.33456558 0.088905498 -0.93816936 0.00040756914
0.060569428 0.0046867398 -0.0022436809 0.33480847 0.086422622 -0.93831468 0.00011609628
0.0628957 0.004586143 -0.0013747453 0.35273707 0.089606673 -0.93142223 9.8934288e-05
-0.052438818 0.0075365719 -0.0014514099 -0.93126363 0.0080181044 -0.3642579 3.1018164e-05
-0.051628791 0.0074976799 -0.0035562166 -0.92961842 0.0096192975 -0.36839789 2.666661e-05
0.055373862 0.0076237489 -0.0036812657 0.38762596 0.12535264 -0.91325396 0.00063778192
0.057653036 0.0075098281 -0.0029047369 0.34492919 0.12910771 -0.92970699 0.00065778731
0.060615234 0.0075285891 -0.0018902109 0.34284142 0.14962691 -0.92740041 0.00016875098
0.062446304 0.0073471884 -0.0012156712 0.34720945 0.14568095 -0.92640311 0.00020513716
-0.052469257 0.010382877 -0.0012350488 -0.93068278 0.014673078 -0.36553299 3.6275072e-05
-0.051679235 0.010333256 -0.003194507 -0.93043637 0.012454185 -0.36624178 6.2096617e-05
0.054829732 0.010506437 -0.0034952902 0.37675616 0.20211585 -0.90399331 0.00051220192
0.057444967 0.010351024 -0.0025006342 0.34338248 0.19913881 -0.91784108 0.00072004151
0.060158946 0.010187588 -0.0015639793 0.33047584 0.19913575 -0.92256743 0.00033313766
-0.052493915 0.013230461 -0.0010598013 -0.93159831 0.009693603 -0.36336026 3.4287148e-06
-0.051686808 0.013420841 -0.0031401624 -0.9317801 0.005819866 -0.36297658 0
0.052201521 0.01395855 -0.0037205552 0.37707415 0.25983062 -0.88898993 0.00027820183
0.054580968 0.013433682 -0.0027681501 0.36975196 0.2608383 -0.89176613 0.00030753951
0.05751425 0.013425882 -0.0016410751 0.32582533 0.26623327 -0.90717012 0.00040057962
0.059473712 0.01277307 -0.0012247795 0.32833144 0.26290372 -0.90723759 0.00033215078
-0.052498035 0.015299388 -0.0010305056 -0.93358624 0.0038979801 -0.3583315 0
-0.051709328 0.016513938 -0.0029787282 -0.93753123 -0.0053363075 -0.34786025 0.00011490391
0.049077354 0.017254988 -0.003712947 0.32962906 0.34053606 -0.88055658 0.00023615135
0.051491812 0.01654605 -0.0031063585 0.35004941 0.33674338 -0.87411052 0.00023139357
0.054443847 0.01637185 -0.0018714182 0.36047408 0.33440474 -0.87076515 0.00074926921
0.056790445 0.015735839 -0.0012076125 0.32247055 0.31204182 -0.89366806 0.00026193424
-0.05167767 0.019590069 -0.0032057622 -0.93925411 -0.024382144 -0.34235549 0.00017788356
0.045852259 0.020229099 -0.0036730606 0.32517219 0.39283526 -0.86019963 0.00017182296
0.048460081 0.019664207 -0.0029462744 0.32457691 0.38219398 -0.86520374 0.00021684893
0.051441878 0.019541232 -0.0018833755 0.34515855 0.38483411 -0.85601884 0.00025597756
0.053626627 0.018560339 -0.001330446 0.35944012 0.37188873 -0.85586303 0.0002408118
-0.052432254 0.022511698 -0.0014980384 -0.93716538 -0.042332668 -0.34630769 4.0761657e-05
-0.0516022 0.021619411 -0.0037468979 -0.94096988 -0.033393614 -0.33683905 3.9886545e-05
0.04046768 0.023800785 -0.0037770653 0.29271582 0.48904076 -0.82167906 0.00027516016
0.042807475 0.022963233 -0.0034522647 0.29894182 0.4528119 -0.83999711 0.00024939215
0.045466177 0.022545064 -0.0026596431 0.32181561 0.44302306 -0.83675891 0.00031698396
0.048333336 0.022335976 -0.0017078458 0.30835962 0.44691998 -0.83974808 0.00025717122
0.050535593 0.021664534 -0.0012468905 0.34120268 0.43088859 -0.83541352 0.00060887792
-0.052350532 0.025316842 -0.0020788969 -0.94060534 -0.043695774 -0.33667848 0.00013391915
0.034674741 0.026996689 -0.0039935419 0.34679517 0.55910474 -0.75308371 0.00027518196
0.036847204 0.026212914 -0.0035383014 0.31865209 0.515338 -0.79554236 0.00086665549
0.039675318 0.02555404 -0.0030031037 0.29002896 0.50002515 -0.8160013 0.00036609898
0.042502843 0.025536222 -0.0020204666 0.28454554 0.52027762 -0.80519879 0.0001828721
0.045165505 0.024670044 -0.0015784847 0.30622125 0.50210243 -0.80877787 0.0003104615
0.047274414 0.024082782 -0.0011287937 0.31115326 0.49210197 -0.81303096 0.00018193766
-0.052402783 0.028394796 -0.0023193718 -0.93608648 -0.10665542 -0.33521143 0.00061119802
0.031012109 0.029411901 -0.0037192611 0.2833358 0.58442378 -0.76037467 0.00023187557
0.033618577 0.02881065 -0.0031409347 0.33232343 0.56894457 -0.75223881 0.00024657519
0.036533285 0.028249925 -0.0021902076 0.29808128 0.55574441 -0.77607709 0.00082281703
0.039319765 0.027764164 -0.0016386705 0.26640305 0.5478434 -0.79303026 0.00021635581
0.041452236 0.027307602 -0.0012162859 0.28520438 0.54431069 -0.78891343 0.00039729476
-0.052926891 0.031726275 -0.0025618793 -0.93675745 -0.050830871 -0.34626827 0.0028510194
0.02502788 0.032338023 -0.0035260553 0.2596657 0.64963788 -0.71452385 0.00030171906
0.027664756 0.031871144 -0.0029235776 0.27606079 0.63614094 -0.72049654 0.00033680268
0.03028827 0.031334769 -0.0024368167 0.28227389 0.62036639 -0.73175603 0.00027215233
0.03320688 0.030718205 -0.0018034191 0.3225024 0.60494947 -0.72803038 0.00016279887
0.035389408 0.030288899 -0.0010807225 0.29548797 0.60832632 -0.73663145 0.00092777563
-0.052712284 0.034446653 -0.002508346 -0.93573147 -0.014350455 -0.35242113 0.0014683651
0.016119897 0.035593212 -0.0035210857 0.28690141 0.72099745 -0.6307537 0.00047094171
0.018647617 0.035159457 -0.0028714375 0.24527483 0.71928811 -0.64997292 0.00089507236
0.021645226 0.03460364 -0.0025499538 0.22825527 0.70099455 -0.67565238 0.00024304431
0.024351696 0.03406509 -0.0021549691 0.25405899 0.67792296 -0.68983644 0.00034664295
0.027050076 0.033637207 -0.0015192204 0.2638886 0.66657007 -0.69717091 0.00037222734
-0.053094201 0.037932612 -0.0022893557 -0.9323414 -0.11201899 -0.34378946 0.00048185722
0.0069550551 0.038685005 -0.0034335761 0.21132314 0.77528 -0.59521723 0.00041344523
0.0096019469 0.038314879 -0.0029414413 0.21811695 0.77560663 -0.59233379 0.00027554203
0.012456272 0.037707321 -0.0027164174 0.25436884 0.7593224 -0.59893733 0.0003768304
0.015231745 0.036957178 -0.0023179231 0.27818596 0.75214142 -0.59740752 0.00037261937
0.018096786 0.036601547 -0.0015179906 0.23021573 0.73855948 -0.63366443 0.00092889968
-0.053591032 0.040653154 -0.0022592796 -0.93519294 -0.019769181 -0.35358647 0.0029362962
-0.0052107275 0.041855119 -0.0034312864 0.22496219 0.84065723 -0.49263313 0.00021777752
-0.0022599753 0.041190274 -0.0029911869 0.23643859 0.83295017 -0.50029063 0.00078554446
0.00050265761 0.040702701 -0.0025466597 0.17649662 0.81250554 -0.55559313 0.00083368714
0.0035711536 0.040184163 -0.0026226523 0.17055452 0.8061986 -0.56652886 0.0004192226
0.006551615 0.039876278 -0.0019901064 0.2060249 0.80184215 -0.56089467 0.00042891415
0.0094100535 0.039425399 -0.0014953846 0.20786734 0.78761995 -0.58003956 0.00030873856
0.011607696 0.039058205 -0.0012803087 0.24893282 0.77888775 -0.57564425 0.00040048102
-0.053117029 0.043374125 -0.0024964493 -0.92798322 0.076708488 -0.36464104 0.0019516358
-0.020778397 0.044811867 -0.0038170724 0.16350687 0.89591229 -0.41304564 0.0006976212
-0.017475672 0.044536814 -0.0031900266 0.15523893 0.88844222 -0.43193901 0.00040227172
-0.014318256 0.044279952 -0.0026356657 0.16208403 0.8818385 -0.44282013 0.00016270115
-0.011176273 0.043678395 -0.0025560129 0.17486875 0.87600142 -0.44949123 0.0003501194
-0.0083825774 0.04315022 -0.0024526841 0.18805213 0.86488992 -0.46540496 0.00019218212
-0.0058845459 0.042800121 -0.0020757536 0.22086628 0.85452831 -0.47010589 0.00027907136
-0.0030215112 0.04219934 -0.0017265142 0.21766622 0.84170586 -0.49411801 0.00062683033
-0.053360905 0.04653015 -0.0022193897 -0.74813098 -0.45748565 -0.48063189 0.19056343
-0.040276915 0.047533467 -0.0039687762 0.10557523 0.95308685 -0.28368875 0.00025012624
-0.038601305 0.047663525 -0.002835677 0.10614015 0.95837939 -0.26503426 0.00027544497
-0.03557758 0.047399241 -0.0025792387 0.12266847 0.94797742 -0.29375395 0.00011471983
-0.032191452 0.047006726 -0.0025787 0.11432905 0.94622743 -0.30262578 0.00030447915
-0.02935303 0.046656989 -0.0026307711 0.1207137 0.93758047 -0.3261458 0.0005771087
-0.02668009 0.046303559 -0.0025711041 0.13692467 0.92716026 -0.34874848 0.00032251878
-0.023764938 0.045785252 -0.0027559539 0.14253743 0.923401 -0.35638964 0.0001843932
-0.020614471 0.045396075 -0.0023904191 0.14019898 0.912709 -0.38380525 0.00045958121
-0.017552445 0.045196977 -0.0018473426 0.13843958 0.90188527 -0.40919131 0.00069849193
-0.01579082 0.045286037 -0.0010273764 0.13768825 0.9176451 -0.37278605 0.00020535172
-0.055282123 0.048910972 -0.0031773457 -0.1444031 -0.97595519 -0.16327648 0.09416315
-0.053701505 0.049342319 -0.0034372041 -0.10277349 -0.99348694 0.0492079 0.07496462
-0.050171092 0.048681606 -0.0029335748 -0.03485997 0.99206406 -0.12080414 0.054640744
-0.048528053 0.048822418 -0.0017325738 -0.097662963 0.98458403 -0.14510827 0.023592459
-0.043959435 0.048132852 -0.0032274912 0.085920021 0.96861231 -0.23325509 0.0003216365
-0.042056974 0.048287086 -0.0018980214 0.082232669 0.97084713 -0.22515243 0.00042856621
-0.056699187 -0.049179256 0.0008773962 -0.72809023 0.60790235 -0.31676391 0.0064258049
-0.044345625 -0.048924949 -3.3415388e-05 0.0851385 -0.96974868 -0.22877696 9.3756069e-05
-0.042450607 -0.049102291 0.001495162 0.076489419 -0.98050755 -0.18098132 0.00044492059
-0.0381069 -0.04838527 -0.00022031181 0.090594992 -0.96623892 -0.24119504 0.00024593232
-0.035942405 -0.048574802 0.0014309874 0.10636468 -0.95962137 -0.26040983 8.2248225e-05
-0.031229317 -0.048012659 0.0010603061 0.098090574 -0.95433998 -0.28215855 0.00032984043
-0.030241765 -0.048080049 0.0016538044 0.098222941 -0.96414638 -0.24652405 0.00032332883
-0.05516921 -0.047841869 -0.00044396613 -0.81605327 0.45891327 -0.35136262 0.025056709
-0.053759806 -0.0461936 3.954256e-05 -0.87940615 0.3773829 -0.29021883 0.025574444
-0.034428459 -0.047805093 -0.00076782797 0.10544618 -0.95558953 -0.27519047 0.00011499641
-0.032966953 -0.047915511 0.00020462181 0.097559571 -0.95794857 -0.26984569 0.00014451129
-0.029028747 -0.047331244 -0.0003807405 0.11969559 -0.9432478 -0.30976832 0.00011488314
-0.026372455 -0.047225431 0.00040504988 0.13309467 -0.94177002 -0.30879605 0.00018173206
-0.023277927 -0.046752702 0.00040410599 0.15916441 -0.92360586 -0.34873894 0.00050482154
-0.020190889 -0.046211503 0.00042445026 0.12523927 -0.92304367 -0.36373824 0.00076538557
-0.017774884 -0.046047967 0.00051040668 0.12487001 -0.91400903 -0.38599858 0.00027451519
-0.014695577 -0.045598764 0.00057291612 0.15187591 -0.91184306 -0.38141322 0.00013634036
-0.012017161 -0.045446377 0.0013549617 0.16221915 -0.9047789 -0.39377683 0.00026919614
-0.05415732 -0.043511793 0.0005156952 -0.93291581 0.030000078 -0.35884273 0.012834079
-0.013210289 -0.044683777 -0.00093111489 0.16320954 -0.89260268 -0.42026538 0.0006235271
-0.011174399 -0.044637993 -0.00014406163 0.17661907 -0.89629954 -0.40675896 0.00029999629
-0.0083253104 -0.044348594 0.00041575963 0.18459566 -0.89368057 -0.40897366 0.00021391672
-0.0054893438 -0.043729302 0.0003327271 0.22040318 -0.87995195 -0.4208408 0.00033301604
-0.0024825698 -0.042859197 0.00044723041 0.19764958 -0.86864793 -0.45429671 0.0014187876
0.00036930619 -0.042590108 0.00078927446 0.13415088 -0.86334634 -0.48645321 0.0010644308
0.0033227699 -0.042436309 0.0011505475 0.144857 -0.85539919 -0.49730131 0.00050509145
0.0053995703 -0.042371474 0.0018031886 0.18393724 -0.85177279 -0.49056098 0.00044414756
-0.054402519 -0.040489584 0.00043335184 -0.92860037 0.081740253 -0.36196661 0.0031959089
0.00049139187 -0.041598611 -0.00075292168 0.15477805 -0.8281101 -0.53877383 0.0012569424
0.0038515683 -0.04146621 -0.00034756539 0.14663565 -0.84105831 -0.52069074 0.0006261135
0.0068984991 -0.041192457 0.0003786115 0.19458008 -0.83045608 -0.52199739 0.00035159299
0.0095849168 -0.040504579 0.00030462537 0.22322655 -0.80963719 -0.54282367 0.00050926686
0.012355932 -0.039825596 0.00046189176 0.25826743 -0.7975111 -0.54522836 0.00047679231
0.015056469 -0.039351605 0.0013115648 0.2591559 -0.79410142 -0.54976457 0.0010617507
-0.053600755 -0.037272539 0.00048220484 -0.93832797 0.052942567 -0.34166908 0.0039607864
0.013684312 -0.038499095 -0.0007028887 0.27269673 -0.7743243 -0.57101518 0.00041587307
0.015838463 -0.038077582 -2.78363e-05 0.28579119 -0.77001977 -0.57043225 0.00077446958
0.018674042 -0.037651241 0.00048786867 0.17772239 -0.75036079 -0.63668948 0.000882658
0.021438628 -0.037282638 0.00062424177 0.19888528 -0.74750227 -0.63378626 0.00054044463
0.024276817 -0.036645513 0.00099111069 0.24168468 -0.7311905 -0.63792557 8.5989202e-05
0.027027691 -0.03625641 0.0015943851 0.24078479 -0.73373795 -0.63533562 0.00015802942
-0.053972084 -0.034105416 0.00042832457 -0.93386352 -0.019517154 -0.35709661 0.0012770903
0.02196149 -0.03590804 -0.00074991072 0.19405256 -0.72721785 -0.65840548 0.00038165104
0.024620311 -0.035304368 -0.00040931581 0.24309584 -0.70630777 -0.66485614 0.00018285959
0.027550183 -0.034800831 0.00015586242 0.25331745 -0.71527696 -0.65131342 8.8235705e-05
0.030403197 -0.034252055 0.00061638933 0.29865885 -0.69391948 -0.65519357 0.00071010273
0.033049509 -0.033666637 0.0014269147 0.31650904 -0.6875 -0.65357924 0.0011230594
0.035330918 -0.033005111 0.0018376848 0.23495297 -0.66156876 -0.71212631 0.0012389782
-0.053805664 -0.031703848 0.00036140345 -0.92872405 0.084475972 -0.36102009 0.0011312028
0.031193703 -0.032639671 -0.00064498279 0.29934052 -0.66470134 -0.68451983 0.00050292828
0.033784166 -0.031874832 6.6182576e-05 0.33466914 -0.63623321 -0.69512862 0.00040058556
0.036496006 -0.03140533 0.0007668715 0.22653952 -0.62276155 -0.74889779 0.0014292569
0.039345969 -0.031061325 0.0011349758 0.2250108 -0.6119206 -0.758237 0.00059377559
0.041904274 -0.030558603 0.0015961863 0.27390599 -0.61385012 -0.74038064 0.00021074658
-0.053326223 -0.028684946 0.00063807098 -0.93089503 0.088143103 -0.35449296 0.0010844806
0.03720076 -0.029303635 -0.00066245347 0.28121844 -0.58298582 -0.76226217 0.0020091645
0.03958502 -0.02907634 -0.00032081502 0.22132547 -0.59024924 -0.7762866 0.00028513852
0.042545341 -0.02855234 0.00026647467 0.27387765 -0.56959856 -0.77495068 0.00042746984
0.045472089 -0.02807229 0.0010309508 0.28232655 -0.55236173 -0.78433937 0.00013170121
0.048006773 -0.027671158 0.001638365 0.32585672 -0.55372548 -0.76629335 0.00038149761
-0.05322497 -0.025374174 0.00044862321 -0.93510216 0.019818407 -0.35382351 2.8055814e-05
0.043296136 -0.026462285 -0.00081593636 0.27477154 -0.53910935 -0.79615426 5.2312716e-05
0.045772966 -0.025906516 -0.00034507783 0.28576654 -0.51701552 -0.80686581 0.00029568913
0.048585515 -0.02534136 0.00030299276 0.31509957 -0.50786877 -0.80173659 0.00033761834
0.051190689 -0.02503645 0.001210236 0.35447928 -0.51806194 -0.77843189 0.00035105005
0.053281456 -0.024151674 0.0017639389 0.31719905 -0.5123136 -0.79807246 0.0015254408
-0.053279374 -0.022280321 0.00083191134 -0.93594432 0.036886867 -0.35021082 2.6555996e-05
0.049390014 -0.023200948 -0.00066099083 0.32231373 -0.45742953 -0.82877749 0.00035721448
0.051643267 -0.0226123 -5.2251387e-05 0.36356312 -0.46863434 -0.80511105 0.00042967929
0.054432381 -0.022238059 0.0011441568 0.31499505 -0.47329479 -0.82266051 0.0020059326
0.057354487 -0.021505933 0.0015870761 0.26044822 -0.43902516 -0.85989749 0.000465035
0.059549466 -0.021037793 0.0019431701 0.30190378 -0.41864514 -0.8564989 0.00047635977
-0.052918386 -0.019540623 0.00027659722 -0.93566525 0.012362272 -0.35267237 0.000183128
0.052583925 -0.020489039 -0.00079038832 0.40321702 -0.43486139 -0.80517799 0.00061530981
0.054606114 -0.019720519 -0.000128082 0.34723306 -0.38455707 -0.855304 0.0017848291
0.057578411 -0.019420302 0.00071627507 0.27408817 -0.38699755 -0.88040245 0.00036004497
0.060305152 -0.019233333 0.0014215326 0.29141337 -0.38328865 -0.87645197 0.00048408861
0.062403262 -0.018431155 0.0018678745 0.3425152 -0.3803336 -0.85908651 0.00023396184
-0.052969776 -0.016666144 0.00030699559 -0.93442446 -0.013700189 -0.35589778 2.0872617e-06
0.055167463 -0.01759105 -0.00081675127 0.35885891 -0.36151779 -0.86053765 0.0008548327
0.057635661 -0.01671244 -0.00037323125 0.28408337 -0.34723535 -0.89371383 0.00041819192
0.06053438 -0.016481848 0.00039711874 0.3077561 -0.34064999 -0.88839394 0.00038733953
0.063320793 -0.016468054 0.0014499538 0.3276825 -0.33240393 -0.88438213 0.000190697
0.065440744 -0.015481429 0.0018735519 0.32645768 -0.3265225 -0.8870222 0.00022020281
-0.053108353 -0.01318536 0.00053767022 -0.93187046 -0.0080486126 -0.36270186 1.6267984e-06
0.058676638 -0.014692075 -0.00088194106 0.27624694 -0.28289127 -0.91850978 0.00064550532
0.060817938 -0.013615908 -0.00046775909 0.33098063 -0.26998881 -0.90418911 0.00032084025
0.063518003 -0.013442848 0.0004892014 0.33634749 -0.2673189 -0.90300107 0.00021504931
0.066210523 -0.013232077 0.0014526322 0.33677083 -0.26425689 -0.90374428 0.00030405106
