# .PCD v0.7 - Point Cloud Data file format
VERSION 0.7
FIELDS x y z normal_x normal_y normal_z curvature
SIZE 4 4 4 4 4 4 4
TYPE F F F F F F F
COUNT 1 1 1 1 1 1 1
WIDTH 558
HEIGHT 1
VIEWPOINT 0 0 0 1 0 0 0
POINTS 558
DATA ascii
-0.0584419 0.050720546 0.020749655 -0.15636747 0.72046024 -0.6756376 0.016482919
-0.054067194 0.05068047 0.020418283 -0.36476386 0.73845077 -0.56713122 0.01746708
-0.051244773 0.052077115 0.019169345 -0.47607717 0.73409873 -0.48419991 0.0010938259
-0.049085483 0.052932467 0.018544193 -0.43933347 0.72277904 -0.53345716 0.00015312435
-0.048111927 0.054304983 0.019532902 -0.4442443 0.72172064 -0.53081673 0.00021918672
-0.045545716 0.055510547 0.01902231 -0.44772932 0.72031778 -0.52979314 0.00020168924
-0.043305863 0.056362081 0.018406551 -0.41571784 0.72406065 -0.55037701 8.9848298e-05
-0.044862427 0.056895711 0.020362731 -0.44586816 0.72607738 -0.52346277 0.00020100105
-0.04229201 0.057814203 0.019560114 -0.41888261 0.73064935 -0.53915572 0.00011571407
-0.039837908 0.058614079 0.018750632 -0.39532268 0.73297083 -0.55360067 0.00014009037
-0.036809519 0.059541937 0.018040653 -0.37092379 0.7250092 -0.58032519 0.00012440755
-0.038965184 0.059997018 0.019976597 -0.40205386 0.73550463 -0.54533082 0.0002922148
-0.036377538 0.060850605 0.019424194 -0.3802706 0.73002428 -0.56785458 0.00012418772
-0.033789802 0.061768077 0.018819187 -0.41697279 0.7092666 -0.56839633 0.00015333682
-0.032937795 0.063386254 0.020089801 -0.41982764 0.71506178 -0.55895555 8.0140744e-05
-0.030562785 0.064154178 0.019266132 -0.41106921 0.72064644 -0.55829275 0.00021391724
-0.027594099 0.065065876 0.018379997 -0.37634951 0.74059194 -0.55667293 8.2329774e-05
-0.029184375 0.065849811 0.020535167 -0.38153663 0.74501848 -0.54715383 0.00013165467
-0.027390903 0.066216297 0.019801557 -0.3744019 0.74871016 -0.5470432 0.00010125266
-0.02451483 0.067294627 0.019405842 -0.38113719 0.74703956 -0.54467082 0.00018243825
-0.022154661 0.068045355 0.018708404 -0.42100596 0.73285288 -0.53449094 0.00011703072
-0.02112959 0.06939365 0.019697949 -0.42705455 0.73554838 -0.52592117 0.00012272966
-0.018746123 0.070349544 0.019048775 -0.42385837 0.74219751 -0.51912135 8.2659513e-05
-0.016240429 0.071312062 0.018423345 -0.40030801 0.74180746 -0.53802896 0.00040512937
-0.017447473 0.071947686 0.020319389 -0.4120692 0.72466707 -0.55231929 0.00066448696
-0.015162703 0.072745703 0.01971362 -0.42927349 0.64634591 -0.63084161 0.0071438709
-0.012643768 0.073636368 0.019035881 -0.45599684 0.59236622 -0.66420573 0.0050370856
-0.010708803 0.074078999 0.018076267 -0.44887096 0.63272226 -0.63101298 0.0052953865
-0.012032188 0.075972721 0.020138713 -0.45634481 0.52054381 -0.72165334 0.00072922907
-0.0097844116 0.076235779 0.018695053 -0.49379441 0.5233869 -0.69443005 0.0012879927
-0.008896485 0.078739271 0.020183397 -0.5195511 0.49525529 -0.69626772 0.0013357199
-0.0066304887 0.079383083 0.018935759 -0.53175598 0.48953635 -0.69107872 0.0012809136
-0.0047878134 0.080262154 0.018042292 -0.53447926 0.47617891 -0.6982733 0.0023652976
-0.0063089994 0.081279032 0.019571954 -0.54575491 0.43364179 -0.71701211 0.0010197114
-0.004322608 0.081745349 0.018406834 -0.54248357 0.45348662 -0.70715028 0.0018469162
0.014746625 -0.0698094 0.023679759 -0.15009341 -0.67452872 -0.72282982 0.00019332305
0.01769622 -0.070058532 0.023399349 -0.10295179 -0.66193861 -0.74245417 0.0002476146
0.020450355 -0.07014367 0.023193305 -0.04855521 -0.64977014 -0.75857848 0.00027289355
0.02339343 -0.07020995 0.023140892 0.0055838255 -0.63330019 -0.77388608 0.00035859461
0.0264428 -0.07014972 0.02323282 0.058885895 -0.61089885 -0.78951561 0.0001756813
0.029247941 -0.070117421 0.023466125 0.10947932 -0.58990347 -0.8000176 0.00025590195
0.03246551 -0.069676802 0.023704175 0.16132846 -0.56882727 -0.80647922 0.00019961548
0.0059305136 -0.066805743 0.023330983 -0.2889125 -0.69470304 -0.65872395 0.00023793166
0.0085453633 -0.067254208 0.022819644 -0.2303334 -0.69755387 -0.6785022 0.00032511141
0.011509372 -0.067829005 0.022559272 -0.18780375 -0.68786651 -0.70112014 0.00010391798
0.014401928 -0.068126157 0.022169326 -0.13309216 -0.67160803 -0.72885466 0.00015140846
0.017485609 -0.068267167 0.021827158 -0.083957911 -0.66088378 -0.74577725 0.00028724805
0.020350436 -0.068517178 0.021809451 -0.031498443 -0.64364499 -0.76467574 0.0002554401
0.02368018 -0.068315074 0.021631368 0.024641184 -0.62663031 -0.77892697 0.00035414565
0.026561409 -0.068350151 0.021864593 0.067232952 -0.60738784 -0.79155523 9.7209078e-05
0.029534178 -0.067996673 0.021962611 0.12512241 -0.58438694 -0.80177069 0.00027075576
0.032467242 -0.068131007 0.022619024 0.16819738 -0.56929684 -0.80474269 9.6032105e-05
0.035332557 -0.067555934 0.022900512 0.22406627 -0.53342229 -0.81563163 0.00040264006
0.03807167 -0.066992484 0.023366215 0.28581324 -0.50375396 -0.8151949 0.00017155173
0.00016613794 -0.06402465 0.023244273 -0.36350816 -0.69266021 -0.62296355 0.00024241699
0.0027257265 -0.064524285 0.022415098 -0.3264564 -0.68975973 -0.64626437 0.00012694893
0.0053697359 -0.065197788 0.021865211 -0.28312233 -0.68591946 -0.67034036 0.00035023276
0.0084196441 -0.06574285 0.021340827 -0.21220699 -0.68964475 -0.692357 0.00015194975
0.011152038 -0.06630978 0.021172959 -0.16464019 -0.68347943 -0.71116072 0.00012151749
0.03065028 -0.066274703 0.020932179 0.13754046 -0.58270854 -0.8009578 0.00019794985
0.032868624 -0.066017948 0.021236114 0.19180857 -0.55301821 -0.81078994 0.00023357345
0.035811927 -0.065215297 0.021518974 0.25912842 -0.51338226 -0.81810212 0.00027276971
0.038614415 -0.064836167 0.022241296 0.30687815 -0.48629478 -0.81813395 9.8611672e-05
0.041199882 -0.064662121 0.023149315 0.34113806 -0.46664968 -0.81600422 0.00028718094
0.043637641 -0.063674264 0.023663487 0.39008865 -0.43699044 -0.81047529 0.00019726757
-0.0058250451 -0.060760826 0.02327257 -0.43639442 -0.72536695 -0.53235573 0.00030630763
-0.0032894895 -0.061524741 0.022535414 -0.37834662 -0.7134949 -0.58972782 0.00027080229
-0.00067757571 -0.062541269 0.022099406 -0.35422641 -0.7000255 -0.62007099 0.00073447218
0.0017564918 -0.062887289 0.021248108 -0.31663463 -0.70225912 -0.63763201 0.00026162478
0.039068528 -0.062749289 0.021183142 0.3196426 -0.47591588 -0.81934893 0.0003295551
0.041603513 -0.062114034 0.021884879 0.35235178 -0.46117359 -0.81435078 0.0001170821
0.044380087 -0.061741468 0.022988008 0.41354266 -0.41750211 -0.80911952 0.00021739812
0.046543065 -0.060855597 0.023645854 0.44891497 -0.40252417 -0.79777795 0.00045105012
-0.011421515 -0.057413962 0.023731496 -0.51269573 -0.69589484 -0.5028652 7.8513549e-05
-0.0088930409 -0.05830681 0.02252988 -0.47038752 -0.70989174 -0.52420354 0.00021344445
-0.0066773742 -0.059385441 0.022111706 -0.42578226 -0.71848023 -0.54999596 0.00036925761
-0.0040240088 -0.060066212 0.0210963 -0.37038526 -0.72002155 -0.58684224 0.00015535943
0.042493492 -0.059975971 0.021096032 0.38600397 -0.43266642 -0.81473964 0.00038281866
0.044660378 -0.058909636 0.021676429 0.43066731 -0.40296721 -0.80755377 0.00015557976
0.047155872 -0.058725767 0.022991778 0.46986556 -0.37658146 -0.79838139 0.00035104147
-0.014308373 -0.054803293 0.0231716 -0.53733331 -0.69464248 -0.47827262 6.0331931e-05
-0.012338817 -0.055688579 0.022293318 -0.50408018 -0.70036954 -0.50535703 0.00019600187
-0.010207638 -0.056828469 0.021753553 -0.48965141 -0.7062937 -0.51126379 0.00025029702
0.045381583 -0.056901943 0.021072781 0.45063961 -0.39637679 -0.79988086 0.00017133282
0.047639936 -0.055944331 0.022003671 0.49866199 -0.36262536 -0.78729856 0.00031851872
0.049848806 -0.055729389 0.023323685 0.52396673 -0.34298638 -0.77962762 0.0002028586
-0.01756735 -0.052060321 0.022990441 -0.58755368 -0.66029257 -0.46775463 0.00036161378
-0.01568418 -0.053055458 0.022177095 -0.55595559 -0.67765158 -0.48135394 0.00028138413
-0.01296491 -0.0543718 0.021063145 -0.51397198 -0.6983391 -0.49815178 0.00011029955
0.048339516 -0.053210877 0.021246698 0.52748358 -0.32668823 -0.78424221 0.00023134363
0.050513867 -0.052852307 0.022603005 0.56030566 -0.29279244 -0.77480978 0.00015121294
0.052356798 -0.051951747 0.023640778 0.58716387 -0.28936574 -0.75598013 0.00023391144
-0.020453108 -0.048940506 0.022652375 -0.62258035 -0.66800117 -0.40763733 0.0016176498
-0.018662576 -0.050383344 0.02216919 -0.59527677 -0.66464496 -0.45154476 0.0011090029
0.050748445 -0.050085723 0.021730686 0.58265513 -0.28003946 -0.76294881 0.00037411996
0.052730337 -0.049720176 0.02316042 0.6045996 -0.2581155 -0.7535488 0.00017051154
-0.023902323 -0.046047051 0.022729909 -0.62055349 -0.70543116 -0.34246188 0.00031993299
-0.022086976 -0.047292478 0.022234777 -0.60907269 -0.70101368 -0.37095863 0.0011079429
0.051222585 -0.047413491 0.021151625 0.61501068 -0.24639361 -0.74903405 0.00019912249
0.05318404 -0.046871174 0.022643955 0.63638282 -0.22713314 -0.73717529 0.00034482201
-0.026772009 -0.043293986 0.02264802 -0.67014146 -0.66442561 -0.33083102 0.00038541883
-0.025076129 -0.044851743 0.022365376 -0.63728511 -0.69330132 -0.33645359 0.00035395595
0.053458747 -0.044039059 0.022048144 0.66195768 -0.20126468 -0.72201419 0.00034938956
0.055156931 -0.043581303 0.023505511 0.6823535 -0.17946951 -0.70864975 0.00027175189
-0.029563384 -0.040094603 0.022035744 -0.70573819 -0.6485973 -0.28505298 0.00032222038
-0.028347256 -0.04160329 0.022507437 -0.68197846 -0.65726089 -0.32080117 0.00037618855
0.054149043 -0.040986806 0.021885775 0.6945039 -0.16555423 -0.70018291 0.00016551976
0.05575835 -0.040642895 0.023436202 0.71146113 -0.15244077 -0.68599194 0.00029387677
-0.032434303 -0.037173375 0.022862839 -0.74422824 -0.60896045 -0.27439281 0.00012636765
-0.031204339 -0.038343143 0.022194277 -0.72692084 -0.62779289 -0.27832049 0.00015075633
0.054443307 -0.038037114 0.021537751 0.70784682 -0.12972291 -0.69435215 0.00015113602
0.055864695 -0.037771504 0.022975782 0.73444593 -0.12274121 -0.66747576 0.00021571918
-0.035382878 -0.03340235 0.023408409 -0.79328179 -0.5637632 -0.22994591 0.0002743876
-0.033937104 -0.034961242 0.022385802 -0.77619255 -0.57871306 -0.25023255 0.00017567562
0.054711655 -0.035061244 0.021299299 0.70467114 -0.07164602 -0.70590746 0.0004562246
0.056057919 -0.034984455 0.022698989 0.7327469 -0.066263147 -0.67726743 0.00046479312
-0.035822414 -0.032230031 0.022189911 -0.75864464 -0.61506331 -0.21483836 0.0018111307
0.054807208 -0.03190143 0.021343332 0.75197065 -0.052442651 -0.65710729 0.0024702006
0.056169383 -0.032048441 0.022719778 0.74666953 0.00050791324 -0.66519487 0.00038957014
0.054794658 -0.029725973 0.021238502 0.79754251 -0.084698908 -0.59728718 0.0016803944
0.05610225 -0.028903896 0.022782093 0.80602884 -0.034035761 -0.59089684 0.0035171635
-0.040584218 -0.026182514 0.020878222 -0.76658785 -0.61216748 -0.19389182 0.00024162195
0.056104254 -0.026073055 0.022440577 0.83675319 -0.067111216 -0.54345208 0.0016940001
0.056492575 -0.02275639 0.022489868 0.85728204 -0.025673835 -0.51420653 0.0011268739
0.055976722 -0.019999148 0.022032265 0.84091467 0.051839743 -0.53867906 0.00064215541
0.055945132 -0.017024944 0.022409892 0.84756869 0.095106535 -0.52209395 0.00057802204
0.05477285 -0.013457316 0.021056298 0.84502286 0.11246589 -0.52276939 0.00024129008
0.055729304 -0.014042136 0.02268187 0.86349446 0.11524603 -0.4910149 0.00039405518
0.054666694 -0.010488267 0.021678958 0.8553533 0.167133 -0.49034411 0.00052843097
0.055575117 -0.010788446 0.023208993 0.86526543 0.17317724 -0.47045234 0.00051639596
0.05416134 -0.0078789899 0.02213238 0.87062079 0.19771834 -0.45047405 0.0013951287
0.05506758 -0.0080703003 0.023518246 0.86095381 0.24322602 -0.44676581 0.00057991379
0.05363252 -0.005012508 0.022423282 0.89874381 0.19427341 -0.39308706 0.0022625613
0.05301993 -0.0018059593 0.022296613 0.92455715 0.18533763 -0.33293262 0.00045608653
0.052473199 0.0011835869 0.02227046 0.92102259 0.2341736 -0.31125566 0.00077371305
0.051479388 0.0040313425 0.021889884 0.91621941 0.28208163 -0.28455552 0.00061495253
0.05062668 0.007170205 0.02277131 0.9141854 0.31148589 -0.2593098 0.00014421366
0.048842695 0.011207868 0.021345999 0.87948209 0.38493741 -0.27988291 0.00033352312
0.049672771 0.0099700643 0.022337602 0.90386724 0.33595419 -0.2648752 0.00067102729
0.04809051 0.013125834 0.021928813 0.86414099 0.41190684 -0.28912473 0.00022040962
0.049088605 0.012369593 0.023662861 0.88339204 0.40211859 -0.24066395 0.00055324909
0.047118571 0.015888575 0.023055445 0.91175938 0.3622615 -0.1935496 0.0015076324
0.045552257 0.019865084 0.020972367 0.92007846 0.34795734 -0.17994799 0.00057184062
0.046181384 0.018280674 0.021845963 0.92158973 0.34351262 -0.18075246 0.00058086059
-0.065462016 0.048812501 0.021629436 -0.24598578 0.69022578 -0.68049926 0.0014621863
-0.063552395 0.049552139 0.021951349 -0.23593344 0.68989176 -0.68438631 0.001812618
-0.061416265 0.050093003 0.02184337 -0.22160392 0.6793586 -0.69954538 0.0066627637
-0.056754943 0.050003324 0.021091975 -0.13819197 0.71954942 -0.68055236 0.016936041
-0.055759307 0.050201703 0.020939078 -0.28634626 0.66979527 -0.68511319 0.029674293
-0.063042574 0.05128077 0.023378802 -0.17064962 0.65738857 -0.73397481 0.00039389182
-0.060280114 0.051473919 0.022797311 -0.20424145 0.66227311 -0.7208882 0.0082651079
-0.057373639 0.052007422 0.022026347 -0.1527447 0.63762856 -0.75504893 0.012157471
-0.054662496 0.052089337 0.022178758 -0.14960325 0.57658523 -0.80322361 0.0036767202
-0.052244879 0.053055447 0.022089269 -0.3114607 0.69201529 -0.65123498 0.017190451
-0.056650341 0.053785238 0.023558652 -0.22594032 0.63404125 -0.73955578 0.0038057398
-0.054220527 0.054216996 0.023382429 -0.15386081 0.6119625 -0.77577627 0.0046471274
-0.051527414 0.054380849 0.023105036 -0.23932087 0.58657992 -0.77372444 0.014175817
-0.048556708 0.055584136 0.021902245 -0.46297887 0.73229551 -0.4993934 0.0022970955
-0.047271684 0.056918938 0.02254593 -0.46962142 0.72783631 -0.49971005 0.0024194357
-0.045351837 0.057876259 0.022199618 -0.43829876 0.73692203 -0.5146262 0.0008144381
-0.042825058 0.058962055 0.021599894 -0.42848048 0.74224859 -0.51523924 0.00011871718
-0.042185679 0.060238298 0.022946192 -0.44798979 0.72802812 -0.51892227 0.000953204
-0.039491765 0.06137995 0.022306534 -0.41578755 0.74181598 -0.52614617 0.00034105693
-0.037158936 0.061962232 0.021338955 -0.39778507 0.7309044 -0.55456805 0.00026272389
-0.038113367 0.063038282 0.02347922 -0.41367564 0.72792143 -0.54681146 0.0008924643
-0.036075715 0.063391618 0.022495562 -0.41602615 0.7265411 -0.54686409 0.00022033264
-0.033725511 0.064505503 0.022097562 -0.42058107 0.73033059 -0.53826457 0.00017704912
-0.031408992 0.065247945 0.021313544 -0.39940304 0.73728758 -0.54487079 0.0001106096
-0.032635123 0.065886937 0.023107504 -0.41093302 0.73804158 -0.53519034 0.00014930248
-0.030295238 0.066758342 0.022607345 -0.39510766 0.74831831 -0.53283179 0.00010285915
-0.027665287 0.067718782 0.022071581 -0.37549976 0.74892861 -0.54599082 0.00042291498
-0.025436331 0.068118721 0.021182682 -0.37922168 0.75264978 -0.53824639 0.00013730107
-0.026530255 0.069157541 0.023411985 -0.36172378 0.71312469 -0.60050738 0.0044786893
-0.024357043 0.06961938 0.022542952 -0.38561013 0.73930264 -0.55202949 0.00026274941
-0.021650515 0.070778839 0.022043595 -0.43288773 0.69585186 -0.57306057 0.00097598491
-0.019469686 0.071357362 0.021101084 -0.42240807 0.67815071 -0.60140091 0.0028105488
-0.02066336 0.072491013 0.023218492 -0.47856516 0.5436855 -0.68947917 0.0027898632
-0.018535148 0.07332243 0.022619689 -0.44707879 0.55643499 -0.7003575 0.0044596647
-0.015994716 0.073838018 0.021515021 -0.44345352 0.57859272 -0.68452859 0.0057621701
-0.017826492 0.075612053 0.023369657 -0.44294572 0.48582184 -0.75350928 0.00096941018
-0.015360348 0.075910188 0.022219112 -0.46358171 0.50267875 -0.72966158 0.0017189407
-0.013356615 0.076483861 0.021192338 -0.48230797 0.52053702 -0.70457089 0.001031774
-0.014682615 0.07802029 0.023465175 -0.44446385 0.52692431 -0.72443265 0.0010077483
-0.012259344 0.079072058 0.022665204 -0.49283946 0.50173157 -0.71089715 0.0011668556
-0.010034053 0.07951095 0.021438491 -0.4905031 0.49616414 -0.71639919 0.00094046205
-0.01159418 0.081193648 0.023438659 -0.49299136 0.44466913 -0.74781603 0.00055890949
-0.0095217582 0.081311487 0.021957027 -0.5159052 0.4670423 -0.7181319 0.0011022821
0.014824361 -0.072742693 0.026424024 -0.18641575 -0.68248993 -0.70672256 0.00024380929
0.01767935 -0.072958589 0.02601102 -0.1302377 -0.67337763 -0.72773677 0.00025685353
0.020709671 -0.073544122 0.026146356 -0.079208992 -0.65686089 -0.74983972 0.00023089221
0.023577437 -0.073579028 0.025936447 -0.03092717 -0.64299732 -0.76524365 0.00025594249
0.026591146 -0.073578872 0.025935747 0.027313989 -0.62245363 -0.78217989 0.00028557589
0.029618915 -0.073615611 0.026164837 0.079494327 -0.59903812 -0.79676467 0.00024167176
0.032390691 -0.073096283 0.026143458 0.13144079 -0.58494478 -0.80035174 0.00021469948
0.035307977 -0.07281407 0.026490014 0.18382643 -0.56401587 -0.8050428 0.0001817165
0.0063221655 -0.069813773 0.026401903 -0.30714783 -0.69907945 -0.64571518 0.00019241076
0.0087182876 -0.070286907 0.025906101 -0.26301906 -0.69925839 -0.66472459 0.00019326672
0.011580592 -0.070644215 0.025282178 -0.21255997 -0.69320279 -0.68868583 0.00018014752
0.014392061 -0.071078204 0.024951341 -0.17349 -0.67832428 -0.71398687 0.00030488669
0.017375037 -0.071249507 0.024510182 -0.11504863 -0.66937912 -0.73395878 0.00018421382
0.020507019 -0.071720243 0.024564553 -0.065662891 -0.65252095 -0.75492036 0.00017465241
0.023541799 -0.071731001 0.024384784 -0.012838813 -0.63689172 -0.77084643 0.00031333597
0.026509712 -0.07170254 0.024451993 0.04154674 -0.61806983 -0.78502452 0.00018305305
0.029620923 -0.071603209 0.024637461 0.095168941 -0.5956521 -0.79758477 0.00026309691
0.032630295 -0.070990041 0.024658397 0.14930688 -0.57726324 -0.80279177 0.00026387768
0.035568602 -0.070709698 0.025091588 0.19583474 -0.55509257 -0.80840641 0.00028418875
0.038363203 -0.070686691 0.025831755 0.248761 -0.5313099 -0.80983198 0.00039645992
0.040987894 -0.070253357 0.026406381 0.3049832 -0.49473834 -0.81376851 0.00019753886
0.00015270873 -0.066621676 0.026137095 -0.39289778 -0.69829273 -0.59834647 0.00016128922
0.0027251763 -0.067586534 0.025756922 -0.34084138 -0.70031929 -0.62720019 0.00018142938
0.0053462838 -0.068277858 0.025190804 -0.30195653 -0.69705641 -0.65033412 0.00026899294
0.0081651565 -0.06866996 0.024424966 -0.2427544 -0.69836551 -0.67331719 0.00023305662
0.010389682 -0.068888597 0.023900207 -0.19260158 -0.69399893 -0.69373631 0.00015179763
0.036307048 -0.068908766 0.024034139 0.20709962 -0.54532599 -0.8122372 0.00022715348
0.038766969 -0.068365812 0.024455868 0.2705256 -0.51284015 -0.81474584 0.00036527344
0.041599669 -0.068000369 0.025261998 0.30829978 -0.49559161 -0.81199765 0.00013200917
0.044266623 -0.067613222 0.02614719 0.36211184 -0.46350524 -0.80872613 0.0002967178
0.046292964 -0.066737458 0.026621398 0.40596271 -0.44653341 -0.79737198 0.00017792126
-0.0031646821 -0.064252838 0.025607925 -0.43109721 -0.68957388 -0.5819304 0.00042334912
-0.0006964507 -0.065119535 0.024961185 -0.38022485 -0.68984056 -0.61607563 0.00021727393
0.0019048729 -0.065922663 0.024344904 -0.33217826 -0.69655997 -0.63597304 9.7508928e-05
0.042050913 -0.065893494 0.024203038 0.32780036 -0.47624663 -0.81592649 0.00016541262
0.044562846 -0.064923435 0.024783833 0.3870416 -0.43790856 -0.81143999 0.0002288719
0.047396071 -0.064662792 0.026043061 0.43248016 -0.41356057 -0.80120444 0.00023846696
0.049414832 -0.063826524 0.026736464 0.45520484 -0.40523055 -0.79282826 0.00028451919
-0.0088679306 -0.060910825 0.026269741 -0.48700908 -0.71597689 -0.5001992 0.00074486586
-0.0064409273 -0.061983366 0.025540844 -0.47230154 -0.71166337 -0.520064 0.00040317897
-0.0042792605 -0.062647939 0.024630349 -0.43016273 -0.70131779 -0.56843072 0.00092577032
0.045684315 -0.062741704 0.024151837 0.42326847 -0.40823185 -0.80882049 0.00017791869
0.047703672 -0.062055957 0.024888529 0.45643428 -0.38464567 -0.80231881 0.00022921087
0.050144892 -0.061644644 0.026151575 0.48716423 -0.36866939 -0.79167789 0.00024761324
-0.012087204 -0.058253936 0.025585864 -0.52337766 -0.69997627 -0.48591065 0.00036133052
-0.0098167453 -0.059361923 0.024852274 -0.47428209 -0.72138023 -0.50464553 0.0001391281
0.048229236 -0.059828848 0.024133679 0.45904252 -0.38373995 -0.80126381 0.00023567415
0.050301779 -0.05883202 0.024981141 0.5029099 -0.35262603 -0.78913659 0.00010943791
0.05251034 -0.058583066 0.026308741 0.54206961 -0.32889631 -0.77329671 0.00025629741
-0.015225945 -0.055662658 0.02555576 -0.57237452 -0.68922859 -0.44424233 0.00037557961
-0.013271181 -0.056618292 0.02464989 -0.5369727 -0.69354546 -0.48026553 0.00022387689
0.051360093 -0.056064226 0.024479637 0.55734289 -0.30770609 -0.77115881 0.00017691661
0.053534057 -0.055760946 0.025959514 0.57920384 -0.28141952 -0.76506603 0.00020590221
-0.020290356 -0.051736381 0.026609119 -0.65823472 -0.64135975 -0.39418888 0.00041255218
-0.018633202 -0.052536953 0.025305931 -0.61532909 -0.67218614 -0.41174743 0.00048975676
-0.016361697 -0.05405286 0.024518456 -0.58793449 -0.68828708 -0.42496344 0.00026839093
0.051849481 -0.053898875 0.023977067 0.56428158 -0.2927008 -0.77195376 0.00016938953
0.053626817 -0.052904002 0.025001315 0.6016562 -0.27029026 -0.75163352 0.00027272475
0.055596713 -0.052354369 0.026410259 0.62304032 -0.24678466 -0.74223864 0.00014384545
-0.021228608 -0.049997821 0.025320474 -0.65763032 -0.64087903 -0.39597538 0.00066796911
-0.019615054 -0.050906058 0.024045762 -0.63351107 -0.65212518 -0.41640905 0.00059384276
0.054226968 -0.049998105 0.02447762 0.63278699 -0.23364668 -0.73823428 0.00020534292
0.056012221 -0.049781617 0.02596857 0.64926845 -0.22037798 -0.72793126 0.00027073463
-0.024194246 -0.046947181 0.025362294 -0.65743887 -0.67855161 -0.32763064 0.00089525676
-0.022652753 -0.047972921 0.024702545 -0.66521728 -0.65294033 -0.36215311 0.0011740036
0.054587036 -0.047634304 0.024061745 0.65643102 -0.20338085 -0.72645342 0.00021691287
0.05623753 -0.046800148 0.025369696 0.67213005 -0.18130915 -0.7178914 0.00031151623
-0.027323481 -0.043911234 0.025092967 -0.68561536 -0.6743331 -0.27423808 0.00045537853
0.056669772 -0.043971177 0.025112167 0.70609224 -0.15669568 -0.69056511 0.0003459607
0.058177967 -0.043502674 0.02658207 0.7195552 -0.13369349 -0.68144429 0.00018905992
-0.029974978 -0.040938977 0.025037831 -0.73067784 -0.63780975 -0.24353345 0.00017905666
0.056924045 -0.041011304 0.024756853 0.72587186 -0.12993468 -0.67544585 0.00022570745
0.05832329 -0.040733177 0.026283212 0.7432242 -0.10794991 -0.66027617 0.00019951168
-0.032797333 -0.037630755 0.025175747 -0.75579 -0.61334538 -0.22932273 0.00019402332
-0.031716179 -0.03900915 0.025328454 -0.74440718 -0.62527424 -0.23428641 0.00023246248
0.057117794 -0.0379637 0.024424201 0.74942386 -0.10659537 -0.65345329 0.00017879298
0.05836856 -0.037962332 0.025917966 0.76358604 -0.086161241 -0.63993174 0.00023176885
-0.035570048 -0.034104478 0.025606301 -0.80454588 -0.55786067 -0.2037089 0.00055180106
-0.034424022 -0.035518933 0.024991857 -0.78504401 -0.57814097 -0.2223935 0.00043704241
0.057652194 -0.034850296 0.024572989 0.7690174 -0.06731005 -0.63567412 0.00026768865
0.058958694 -0.034973115 0.0262485 0.78628141 -0.055813123 -0.6153425 0.0003628266
-0.036616191 -0.032150272 0.025044765 -0.81972331 -0.52963674 -0.21803321 0.00032986957
0.057703216 -0.031631753 0.02443587 0.76381689 0.0044205356 -0.64541793 0.00051498279
0.058926795 -0.031940628 0.025998648 0.79988188 0.0060167653 -0.60012734 0.00039266396
0.057669774 -0.028849388 0.024713593 0.79158551 0.040765405 -0.6096971 0.0012419027
0.058928166 -0.029063383 0.026204817 0.79893845 0.066569842 -0.59771717 0.00020692727
0.057389103 -0.025841197 0.024655582 0.82937509 -0.0018423281 -0.55868918 0.0028914271
0.058347359 -0.026033781 0.025991026 0.82671881 0.073453531 -0.55779982 0.0020420314
0.057504673 -0.023100734 0.024485309 0.86952585 -0.021663973 -0.49341211 0.00089874858
0.058076881 -0.023162544 0.025779072 0.87526888 0.016513119 -0.4833546 0.0032318386
0.057650093 -0.019827407 0.024555784 0.8761158 0.042215284 -0.48024884 0.0017223383
0.058727283 -0.019084748 0.026586752 0.89738011 0.031539932 -0.44012964 0.0013596913
0.057210691 -0.01655411 0.024683284 0.85947424 0.13373929 -0.49337399 0.00065011281
0.058214072 -0.017331688 0.026142281 0.88202447 0.12963894 -0.45301947 0.0015162064
0.057079937 -0.013837126 0.025242645 0.87912476 0.15053457 -0.4521935 0.00062019506
0.056588437 -0.011046695 0.025251437 0.88707536 0.17869896 -0.42563364 0.00040433355
0.055881914 -0.0078199524 0.025288258 0.87530762 0.24720012 -0.41560647 0.00054714776
0.054556027 -0.0043010819 0.025116995 0.89536613 0.27156156 -0.35295004 0.0014701476
0.055467423 -0.005525996 0.025942121 0.8747142 0.29678038 -0.3831403 0.00072084216
0.054012522 -0.0017103781 0.025367361 0.92383009 0.23785463 -0.2999385 0.0018763277
0.053399455 0.0012109957 0.025591474 0.92970163 0.25579926 -0.26499367 0.0004466144
0.051936503 0.0050288858 0.024751928 0.91650337 0.30590308 -0.25776893 0.00015779911
0.052539818 0.0036702002 0.025252625 0.91701019 0.30080986 -0.26192704 0.00010424689
0.051216345 0.0074972082 0.025157068 0.91670817 0.3200506 -0.23919393 0.00035091021
0.05206449 0.0058694379 0.025891539 0.91002715 0.32845357 -0.25292081 0.00024090326
0.0501213 0.010403767 0.024808949 0.91248053 0.34039161 -0.22696419 0.00045419679
0.048424382 0.014027123 0.024260756 0.88339728 0.40209836 -0.24067868 0.00052178319
0.049273718 0.012974967 0.025406923 0.88339579 0.40210405 -0.24067442 0.00056182616
0.047756821 0.015688835 0.024847236 0.89669698 0.39327973 -0.20313951 0.0014370612
-0.062561356 0.052597027 0.024227949 -0.21697791 0.66743314 -0.71235776 0.0011494037
-0.060678564 0.052994326 0.024363155 -0.23161532 0.66475111 -0.7102536 0.0012929876
-0.05891652 0.053318877 0.02418327 -0.24386258 0.69643688 -0.67491233 0.0022336186
-0.060084809 0.054880176 0.025704239 -0.20394725 0.64177388 -0.7392779 0.00083415338
-0.057519656 0.055265825 0.02541234 -0.24394922 0.63429624 -0.73359191 0.0011216002
-0.054787628 0.055571578 0.024392128 -0.19435181 0.60310841 -0.77361989 0.0042662909
-0.051841851 0.055640943 0.024349974 -0.21639733 0.61477417 -0.75843585 0.014291542
-0.049657203 0.056068618 0.024341848 -0.30865961 0.57558423 -0.75725299 0.015915073
-0.056777325 0.056911606 0.026570272 -0.25103402 0.64429468 -0.72240317 0.002120611
-0.05402033 0.05728196 0.025532465 -0.24618451 0.62716454 -0.73895735 0.0044567515
-0.0513121 0.05792873 0.025353331 -0.23874375 0.54158598 -0.80603111 0.007007326
-0.048606828 0.058374207 0.025362112 -0.25396088 0.5695852 -0.78171384 0.012079333
-0.046088681 0.059071321 0.024994081 -0.34794319 0.69238561 -0.63208997 0.0091771167
-0.051012147 0.059924882 0.026537891 -0.27603331 0.61962223 -0.73476112 0.0055977451
-0.048295334 0.060704146 0.026469458 -0.23123169 0.61092108 -0.75717068 0.0056126486
-0.045494001 0.060980871 0.026243068 -0.24060516 0.55425799 -0.79681069 0.0035261936
-0.042707857 0.061492398 0.02535291 -0.37559101 0.65053564 -0.66010207 0.0072734868
-0.040662225 0.06209372 0.024476346 -0.41327533 0.69590575 -0.58729774 0.0057016104
-0.041583739 0.063300699 0.026307348 -0.30605531 0.5980987 -0.74068075 0.0054288437
-0.039546963 0.063592874 0.025680028 -0.40261236 0.65686768 -0.63751709 0.0069017657
-0.036831543 0.064741179 0.025006272 -0.41825774 0.71740252 -0.55713028 0.0010174627
-0.034895383 0.065311506 0.02409121 -0.4241223 0.72877985 -0.53758746 0.00021280856
-0.035935525 0.066184558 0.026213553 -0.36646035 0.6255275 -0.68878311 0.0057702223
-0.033362091 0.067042314 0.025382265 -0.42094937 0.68036085 -0.59992558 0.0050607501
-0.031056739 0.068008795 0.025040757 -0.38481644 0.67924482 -0.62493426 0.0054892241
-0.030036341 0.069644779 0.026207488 -0.37526634 0.55149627 -0.74500144 0.0027431573
-0.027519934 0.070301466 0.025309779 -0.35548979 0.62631011 -0.69380313 0.0067862072
-0.024876218 0.07113158 0.024820004 -0.39899182 0.56809348 -0.71977443 0.0049135927
-0.029083099 0.07176318 0.026789512 -0.40800333 0.56301028 -0.71871603 0.0023373908
-0.027412249 0.072251827 0.026428968 -0.34944627 0.50460821 -0.7894668 0.0013880025
-0.024551708 0.073213115 0.026049957 -0.37055418 0.50105506 -0.78206992 0.0018647481
-0.021974303 0.073340982 0.024777563 -0.43667918 0.51757985 -0.73581409 0.003222924
-0.019616608 0.074585043 0.024077203 -0.44569105 0.51809353 -0.73002636 0.0037088818
-0.023421893 0.075090498 0.026193801 -0.40116617 0.5050444 -0.76419628 0.0021843812
-0.021180417 0.075759783 0.025787607 -0.44838721 0.50799543 -0.73545194 0.002254932
-0.018866524 0.076487713 0.02469141 -0.46456665 0.51860487 -0.71779311 0.00094554597
-0.016892392 0.077329569 0.0241681 -0.44846249 0.52409244 -0.72402245 0.00093472656
-0.018236862 0.078844868 0.026272334 -0.46204135 0.52556396 -0.71435308 0.0007575202
-0.015747324 0.079291664 0.024981085 -0.44195774 0.50341773 -0.74245805 0.00077475898
-0.013341032 0.08003673 0.024052214 -0.47707477 0.47701311 -0.73814511 0.0012537432
-0.015031053 0.080836535 0.025407623 -0.46033406 0.4771657 -0.74860227 0.00073398644
-0.01297109 0.081190884 0.024386765 -0.47708192 0.47725362 -0.7379849 0.0012295081
0.015146505 -0.075954624 0.029435899 -0.21534155 -0.68395203 -0.69702053 0.00020565535
0.017783765 -0.076193996 0.029009398 -0.16320537 -0.6750294 -0.71951324 0.00027510253
0.020540664 -0.076423317 0.028713066 -0.10726535 -0.66819686 -0.73621142 0.00023734223
0.023572685 -0.076628305 0.028585408 -0.059824575 -0.65971911 -0.74912733 0.00014081475
0.026456818 -0.076748148 0.028509159 -0.010768586 -0.64722234 -0.76222521 0.00024196507
0.029491968 -0.076758713 0.028573133 0.059847381 -0.61347044 -0.78744668 0.00020098657
0.032529861 -0.076498285 0.028667144 0.11025628 -0.58645725 -0.80244094 0.00032526776
0.035404149 -0.076378137 0.029082261 0.12202305 -0.54256511 -0.83110386 0.0014469435
0.038648512 -0.076056331 0.029334802 0.13348892 -0.47645745 -0.86900467 0.0025319273
0.041225817 -0.076032519 0.029609662 0.19686744 -0.4258047 -0.88313854 0.0015542874
0.0062126662 -0.072629884 0.029489521 -0.33564016 -0.7005083 -0.62978864 0.00021118476
0.008920731 -0.073336855 0.029013108 -0.2845352 -0.69858754 -0.65651745 0.00016421147
0.01168431 -0.07372272 0.028373335 -0.24251486 -0.69486821 -0.67701161 0.00015157962
0.014476685 -0.074309021 0.028033584 -0.20167454 -0.68105704 -0.70390958 0.00023237511
0.017466696 -0.074516527 0.027496561 -0.14260472 -0.67578393 -0.7231735 0.00026718073
0.020343212 -0.074749954 0.02724278 -0.091491126 -0.66514283 -0.74109006 0.00019381607
0.023630135 -0.074852914 0.027032126 -0.047136255 -0.65166831 -0.757038 0.00023278057
0.026371442 -0.07483723 0.02693579 0.0065090172 -0.63329858 -0.77388018 0.00025799414
0.029402016 -0.074864022 0.027100295 0.062487625 -0.61201811 -0.78837115 0.00030656249
0.03255881 -0.074651614 0.027295098 0.11785148 -0.59477931 -0.79520351 0.00014488224
0.035591364 -0.074283816 0.027586881 0.16443038 -0.5635283 -0.80956686 0.00047786604
0.038543891 -0.073918387 0.028047938 0.18815659 -0.5177139 -0.83460724 0.0018930223
0.041369118 -0.074050978 0.028876703 0.22308348 -0.44200286 -0.86883098 0.0021630917
0.044209763 -0.073490158 0.029482175 0.28630644 -0.38853946 -0.87582278 0.0017750431
0.046425428 -0.072542883 0.029816058 0.32256946 -0.36369687 -0.87388414 0.0010977841
0.00055118965 -0.069747142 0.029602166 -0.41627046 -0.70368642 -0.57579881 0.00033902947
0.002759594 -0.070277758 0.028773669 -0.36615428 -0.70450193 -0.60795403 0.00036881884
0.0054198746 -0.070991471 0.028109055 -0.31620517 -0.69681317 -0.64379019 0.00015476787
0.0082592107 -0.071831442 0.027704887 -0.26882291 -0.69604576 -0.66577375 0.00013567053
0.010722646 -0.072109953 0.027053859 -0.22738011 -0.69053054 -0.68663365 0.0001374453
0.039284866 -0.07210689 0.027034368 0.22699773 -0.53778344 -0.81194896 0.00029448554
0.041828237 -0.071487427 0.027510848 0.28440431 -0.49980462 -0.81811339 0.00050613825
0.04463863 -0.070854612 0.028206084 0.32668495 -0.4391849 -0.83689517 0.0015199458
0.047238484 -0.070561506 0.029219516 0.36418825 -0.38407135 -0.84844339 0.0015533626
-0.0027557919 -0.067195185 0.028873995 -0.45210567 -0.70139295 -0.55104291 0.00041961169
-0.00054501521 -0.067943536 0.02818225 -0.41012433 -0.70189244 -0.58236164 0.00044733903
0.0020508356 -0.068806015 0.027525518 -0.35620973 -0.70290005 -0.61566728 0.00016413539
0.044902764 -0.068822682 0.027110793 0.34912065 -0.47407898 -0.80830932 0.00025806736
0.047528192 -0.067911245 0.027893409 0.40925261 -0.44588324 -0.79605305 0.00024428128
0.050030828 -0.067607231 0.02907043 0.40933371 -0.37619969 -0.8312158 0.00284759
-0.0082831234 -0.063641913 0.029395636 -0.54837322 -0.68180609 -0.48417693 0.0003205644
-0.0064550485 -0.064447366 0.028660178 -0.51887482 -0.68302017 -0.51405472 0.00022372717
-0.0039301948 -0.065634683 0.027871292 -0.46122137 -0.69317245 -0.55388343 0.00041489466
0.048547789 -0.065721534 0.027194515 0.44548914 -0.40913346 -0.79633486 0.00032010811
0.050706521 -0.065046944 0.02809291 0.48195091 -0.39663011 -0.781286 0.00030858465
0.052939907 -0.064394422 0.029178832 0.49904183 -0.35419235 -0.79088879 0.00084675779
-0.011220772 -0.0610325 0.029146031 -0.55240911 -0.70054287 -0.45175642 0.00065329374
-0.0093122367 -0.061926942 0.028263997 -0.51217186 -0.70013428 -0.49748564 0.00083371799
-0.0072746403 -0.062820844 0.027414147 -0.5093531 -0.68088508 -0.52626508 0.00072076829
0.051233668 -0.062485389 0.027191006 0.49408248 -0.35869083 -0.79197437 0.00027193659
0.053393457 -0.061795961 0.02831487 0.53761619 -0.33480838 -0.77386832 0.00023699703
0.05536795 -0.061307281 0.029487055 0.56693512 -0.32930508 -0.75507796 0.00018607579
-0.015001353 -0.057947733 0.028899554 -0.58902413 -0.69066715 -0.41955864 0.0002595571
-0.012908576 -0.059212912 0.028119069 -0.57361627 -0.69992065 -0.42552969 0.0002182824
-0.010969721 -0.060003426 0.026885059 -0.52287692 -0.71326363 -0.46674907 0.00030432825
0.053901188 -0.059186883 0.027553089 0.55125666 -0.31896576 -0.77095836 0.00027933947
0.05596533 -0.058697678 0.028939135 0.59069198 -0.28650701 -0.75431871 0.00029820553
-0.017697943 -0.055329897 0.028628018 -0.62226903 -0.67354357 -0.39889869 0.00010541313
-0.015961446 -0.056621496 0.02809887 -0.60332119 -0.68250793 -0.41253668 0.00031317322
0.054781862 -0.056662265 0.027251638 0.59277087 -0.27036092 -0.75863546 0.00016459056
0.056661256 -0.055722505 0.028416846 0.61747235 -0.25234166 -0.74501783 0.00010718533
0.058306307 -0.055682968 0.029796895 0.63845503 -0.23956764 -0.73142505 0.00024962099
-0.021047624 -0.052261095 0.02885063 -0.65983039 -0.65730941 -0.36409912 0.00016356881
-0.019108832 -0.053712796 0.028114624 -0.63800085 -0.66887122 -0.3815313 0.00026818903
0.056975149 -0.05311789 0.027833659 0.64346194 -0.23006162 -0.73008794 0.00036973678
0.058734104 -0.052636728 0.029244903 0.67094737 -0.20335314 -0.71307576 0.00029025381
-0.023497473 -0.04926252 0.028300904 -0.69404334 -0.62798131 -0.35205591 0.00032273057
-0.022234222 -0.050573703 0.02803193 -0.68651891 -0.63273692 -0.35823965 0.0002933715
0.057429396 -0.050223324 0.027382605 0.66673601 -0.1926811 -0.71995628 0.00029000276
0.059081253 -0.049707711 0.028823886 0.68844718 -0.17314646 -0.7043159 0.00035137936
-0.026392967 -0.045800861 0.027642604 -0.71036667 -0.64768487 -0.27546966 0.00079636567
-0.025183044 -0.047371034 0.028406955 -0.6974954 -0.63334996 -0.33521333 0.00074186391
0.057672381 -0.047653262 0.026928153 0.69226182 -0.15964375 -0.70376664 0.00027775252
0.05930711 -0.046903495 0.028455127 0.71168268 -0.14595552 -0.68717152 0.00019366499
-0.02952682 -0.042914126 0.029171135 -0.73820084 -0.63646418 -0.22354612 0.00020235832
-0.02779714 -0.04446581 0.028070223 -0.70658618 -0.65768963 -0.26111361 0.0004851837
0.059623107 -0.043965414 0.028251085 0.73601758 -0.11432955 -0.66723824 0.00019051819
-0.031985451 -0.039851647 0.028847452 -0.77567172 -0.6047979 -0.18042395 0.00062941894
-0.031071901 -0.040579345 0.027689081 -0.74838012 -0.62910658 -0.21012421 8.6311164e-05
0.059890598 -0.040986136 0.028087828 0.75711769 -0.089447096 -0.64712596 0.00011777203
0.061338477 -0.040479135 0.029739156 0.7707817 -0.066156641 -0.63365519 0.00029476994
-0.033263639 -0.037819985 0.027578931 -0.77284753 -0.60154712 -0.20210825 0.00011484532
0.060028762 -0.037927493 0.027906567 0.77719128 -0.063128896 -0.62608981 0.000278372
0.061310429 -0.037975628 0.029526755 0.7929588 -0.036164511 -0.60820091 0.00033752105
-0.035727732 -0.034512307 0.027459811 -0.80454391 -0.55786324 -0.2037099 0.00058151496
0.060277805 -0.034823164 0.02795713 0.80150348 -0.034239668 -0.59700912 0.00051066594
0.061287478 -0.034924783 0.029352937 0.81117636 -0.0068205097 -0.58476198 0.00032166025
-0.037711818 -0.031532045 0.028127413 -0.80777466 -0.55251944 -0.20548099 0.00054385368
0.060304426 -0.031921599 0.027969182 0.81806624 0.0092573818 -0.57504946 0.00020234002
0.06130055 -0.031894527 0.029451929 0.82785648 0.020189073 -0.56057656 6.5228065e-05
0.060177818 -0.028810628 0.027892418 0.81216449 0.062140472 -0.58010972 0.00045039784
0.061322656 -0.028866921 0.029619373 0.8311168 0.055774979 -0.55329376 0.00016475545
0.059995711 -0.025780687 0.028135799 0.81750005 0.11770566 -0.56377208 0.00070667948
0.059412856 -0.022999205 0.028182827 0.86433047 0.068347722 -0.49825835 0.0033007246
0.059296805 -0.020183505 0.02835368 0.89713359 0.036434587 -0.4402543 0.0016132384
0.059173498 -0.016715851 0.028286427 0.9070223 0.12458675 -0.4022297 0.0011274728
0.057660688 -0.01278017 0.026834335 0.88836253 0.17121933 -0.42602339 0.00028276767
0.058641288 -0.014038564 0.028314598 0.88699955 0.18733214 -0.42206445 0.00052421261
0.057649504 -0.010602105 0.027846396 0.89677042 0.19843721 -0.39550659 0.00026581355
0.058504529 -0.01173081 0.02917622 0.89728963 0.22613132 -0.37912521 0.00040475235
0.05707632 -0.0077620079 0.028032135 0.89781922 0.23879084 -0.36999947 0.00029584832
0.058019403 -0.0089795692 0.029712077 0.90042526 0.24228354 -0.36129367 0.00054932589
0.056249693 -0.0047169719 0.028327692 0.87692475 0.31644908 -0.36174995 0.0002912092
0.054727886 -0.0017978654 0.027572986 0.90374804 0.30368933 -0.30168262 0.0024678262
0.05538715 -0.0021275387 0.028951511 0.87800336 0.35082626 -0.32562396 0.0012351299
0.054188579 0.001098518 0.028843064 0.91534072 0.30472022 -0.26324332 0.0020025149
0.0531408 0.0042588012 0.028119687 0.92903048 0.29359111 -0.22518136 0.00025649427
0.051732436 0.0081064748 0.027834471 0.91249472 0.33317035 -0.23738347 0.00036879317
0.052311208 0.0067364471 0.028088268 0.91343403 0.32434255 -0.245846 0.00026683835
0.051275548 0.0096428255 0.028683741 0.91438782 0.36775789 -0.16926019 0.000659135
0.050013039 0.011937832 0.027195569 0.90433848 0.3876605 -0.17858128 0.00063434534
0.047924876 0.016746042 0.028267041 0.89088303 0.42603928 -0.15753725 0.0005831102
-0.059335191 0.056997154 0.02721208 -0.23121731 0.63221735 -0.73948622 0.0014551221
-0.057312239 0.058116302 0.027740553 -0.24406005 0.63255078 -0.73506069 0.0018498899
-0.05477732 0.058763832 0.027736694 -0.27863905 0.64127189 -0.71493399 0.0032380666
-0.05271076 0.059161026 0.026965316 -0.23833455 0.60715926 -0.75799358 0.0059566069
-0.056450024 0.060171623 0.02895464 -0.24520396 0.6717236 -0.69904399 0.0021832583
-0.054260131 0.06090695 0.029014964 -0.27445707 0.68126029 -0.67864412 0.0034003716
-0.051683892 0.061231006 0.028641187 -0.3210797 0.68142837 -0.65769541 0.0026641823
-0.048617218 0.061910216 0.027530424 -0.27861485 0.65937889 -0.6982789 0.0049530142
-0.045589607 0.06248109 0.027136274 -0.25093567 0.58822542 -0.76877964 0.0049974332
-0.043739446 0.06227152 0.026953921 -0.3333559 0.57638776 -0.74609047 0.0040547564
-0.050298754 0.062871002 0.029813644 -0.35562813 0.64364654 -0.67767829 0.0035003757
-0.048397381 0.063212901 0.029127724 -0.3271296 0.62042296 -0.71278435 0.0024897982
-0.045351725 0.064209677 0.028406423 -0.28212458 0.58406919 -0.76109707 0.0036317832
-0.042654283 0.064395964 0.027561553 -0.29311961 0.55953276 -0.77524447 0.0030423554
-0.039672043 0.064989872 0.02717514 -0.30779067 0.62460637 -0.71772683 0.0032432459
-0.042133983 0.066425681 0.028847761 -0.29850349 0.59070039 -0.74964571 0.0015042241
-0.039475724 0.067062408 0.028190874 -0.31653708 0.56818587 -0.75958478 0.0024195428
-0.036764339 0.067282937 0.027783331 -0.34102669 0.57806635 -0.74130964 0.0046046372
-0.033841614 0.068322651 0.02724864 -0.37059611 0.61630523 -0.69485706 0.0055903997
-0.038504407 0.069002368 0.029270288 -0.3047457 0.58562994 -0.75111091 0.0017107161
-0.036251523 0.069607988 0.028833319 -0.32819453 0.5549956 -0.76437443 0.0024537905
-0.033540949 0.070135459 0.027889527 -0.37671044 0.55886525 -0.73875499 0.0024094784
-0.031052116 0.070723362 0.027142514 -0.38577402 0.53271699 -0.75325358 0.0022273846
-0.03290876 0.072302945 0.029366229 -0.35828009 0.5905087 -0.72314233 0.00134228
-0.030299582 0.072846614 0.028413214 -0.40388229 0.55364531 -0.72825557 0.0019399212
-0.02759761 0.073765211 0.027698066 -0.38925347 0.57051975 -0.7231797 0.0024934239
-0.025803356 0.07427229 0.027013745 -0.36474094 0.53631783 -0.76113558 0.0035631468
-0.027230348 0.075663686 0.029215802 -0.42637578 0.50129753 -0.75293064 0.0021637348
-0.024571309 0.076362714 0.028104722 -0.38799849 0.51334006 -0.76546663 0.0032554218
-0.022094784 0.077159204 0.027494147 -0.41443071 0.5214864 -0.74585462 0.00212194
-0.024416627 0.078168727 0.029080935 -0.39336067 0.52782625 -0.75277281 0.0027402334
-0.021283833 0.078652397 0.027880806 -0.42445168 0.53328985 -0.73173946 0.0018525857
-0.019355435 0.079508394 0.02744275 -0.46511155 0.51687729 -0.71868569 0.00073187146
-0.018119533 0.080611899 0.027138855 -0.45925871 0.50891006 -0.72807419 0.00084138272
0.027077384 -0.082119741 0.032621074 -0.11015765 -0.56601346 -0.81700313 0.0031850913
0.029660344 -0.082063459 0.03247124 -0.026740013 -0.56588548 -0.82405013 0.0057154484
0.031525802 -0.081963472 0.032298964 0.013058814 -0.56417066 -0.82555497 0.0022076627
0.014530387 -0.078689687 0.03238485 -0.24699494 -0.69406998 -0.67621028 0.00013498456
0.017761404 -0.079387903 0.032049067 -0.19454454 -0.68683499 -0.70029283 0.00030107331
0.020620236 -0.079619855 0.031641249 -0.12349154 -0.68165553 -0.72117656 0.00046998498
0.023561416 -0.079719961 0.03136785 -0.082684681 -0.6650461 -0.74221081 0.0012500472
0.026609557 -0.079990134 0.031324074 -0.11276799 -0.61183321 -0.78290713 0.0035297384
0.029541595 -0.079876713 0.031012882 0.026192071 -0.58917385 -0.80758166 0.002710372
0.032529153 -0.079984516 0.031171236 0.061849315 -0.58405882 -0.80935156 0.0018057156
0.035397962 -0.079607241 0.030969407 0.051264007 -0.56833559 -0.82119834 0.0027322068
0.038114451 -0.07914491 0.030712534 0.066635095 -0.47900513 -0.87527937 0.0010207928
0.0066595674 -0.075790666 0.032788303 -0.35383913 -0.70476151 -0.61490577 0.00024571019
0.008963801 -0.076014183 0.031886321 -0.31132951 -0.70419461 -0.63810962 0.00024962856
0.011669932 -0.076815926 0.031547081 -0.27000099 -0.69593638 -0.665411 0.00022317015
0.014329346 -0.07718721 0.030940328 -0.23248023 -0.69133705 -0.68410969 0.00028119094
0.017268682 -0.077761807 0.030610837 -0.17772186 -0.6799674 -0.71137846 0.00028580058
0.020280447 -0.078048281 0.030232511 -0.11839216 -0.67437124 -0.72883928 0.0001986673
0.022939609 -0.078086436 0.029913198 -0.070292816 -0.67091811 -0.7381922 0.00014626201
0.032619476 -0.078099318 0.029989436 0.076869607 -0.57019335 -0.8179062 0.0011910906
0.035602242 -0.077916659 0.030135475 0.071458824 -0.53355992 -0.84273803 0.0019146447
0.038430367 -0.077557065 0.030052308 0.10175303 -0.46060777 -0.88175213 0.0015904082
0.04140858 -0.077301562 0.030304175 0.19686759 -0.42577782 -0.88315141 0.0015810025
0.044267662 -0.076102674 0.030379776 0.22540969 -0.38116524 -0.89660668 0.0016293476
0.0030719084 -0.07318604 0.031949624 -0.40032494 -0.69955164 -0.59191841 0.00047461913
0.005535949 -0.073950924 0.031323131 -0.34909815 -0.70046145 -0.6224823 0.00033823875
0.0082062017 -0.074510932 0.030595548 -0.29112718 -0.70168388 -0.65029585 0.00014846974
0.011332262 -0.075200573 0.03001434 -0.25518149 -0.69614822 -0.67101419 0.00018612941
0.044992357 -0.07469403 0.03006801 0.27497092 -0.38164607 -0.88246089 0.0015695287
0.04725362 -0.073392972 0.030197788 0.32263595 -0.36380064 -0.87381649 0.0010821448
0.049582023 -0.07271608 0.030920964 0.32916987 -0.32747713 -0.88566691 0.0014349566
-0.0024195637 -0.069732957 0.031965718 -0.47632679 -0.70389545 -0.52691931 0.00032657859
-0.000407252 -0.07070484 0.031484641 -0.44422415 -0.70362973 -0.55458999 0.00063251698
0.0020375093 -0.071684279 0.030860502 -0.41415328 -0.70159423 -0.57986432 0.00029454441
0.048300512 -0.071670882 0.030133501 0.37056643 -0.36579105 -0.8537432 0.002463328
0.050237805 -0.070857257 0.030456971 0.34973884 -0.31671837 -0.88168716 0.0017750171
0.052782126 -0.069895282 0.031046536 0.36779863 -0.31472501 -0.87502706 0.0017721746
-0.0057015242 -0.067223117 0.031730045 -0.5110901 -0.69987488 -0.49896103 0.00010388606
-0.0036739055 -0.068119735 0.030961804 -0.48117429 -0.70088506 -0.5265277 0.00035888911
-0.0014802369 -0.069115274 0.03030419 -0.45949233 -0.70647931 -0.53828782 0.00033792216
0.051081926 -0.068512112 0.030278731 0.38843748 -0.36818716 -0.8447215 0.0024942239
0.053511478 -0.067810945 0.030915596 0.43209308 -0.32589114 -0.84088671 0.0039849486
0.056091625 -0.06714347 0.03155468 0.47933027 -0.26418248 -0.83692896 0.0018857933
-0.011144649 -0.063550644 0.032790717 -0.58176517 -0.68058622 -0.44536704 0.00020716659
-0.0091090556 -0.064427413 0.031482011 -0.56171972 -0.68161863 -0.46889979 0.00017215693
-0.0071465229 -0.065751158 0.031133186 -0.53780508 -0.69524837 -0.47685987 0.00026511215
0.054237314 -0.065191783 0.030451152 0.49036363 -0.2865707 -0.82305574 0.0031578834
0.056663994 -0.064943701 0.031695217 0.50111175 -0.25144613 -0.82804704 0.0040483568
0.058474246 -0.064453952 0.032616995 0.50794941 -0.16673353 -0.84509605 0.0023227877
-0.012332786 -0.061622884 0.031428266 -0.59089226 -0.68608475 -0.42442206 0.00056893902
-0.010075578 -0.062773056 0.030322228 -0.55309671 -0.67642593 -0.48634562 0.00031349491
0.054724507 -0.063156553 0.029887792 0.52233869 -0.28519711 -0.80363238 0.0032060156
0.056664836 -0.061965581 0.030756127 0.54334098 -0.29058895 -0.78761578 0.0016602658
0.058696188 -0.061716445 0.032302599 0.54510176 -0.2025034 -0.81354564 0.0039219079
-0.017246142 -0.057933357 0.03235751 -0.62913293 -0.69099045 -0.35598314 0.00032620228
-0.015539886 -0.058865152 0.031366728 -0.6131078 -0.69461095 -0.37631702 0.00036549612
-0.013856631 -0.059961569 0.030836876 -0.59689057 -0.69681233 -0.39771113 0.00081757642
0.057345796 -0.059237808 0.030225001 0.61008114 -0.2725957 -0.74397087 0.00010732219
0.05918055 -0.0588178 0.031599954 0.61734432 -0.24719065 -0.74684858 0.00060742587
-0.020310039 -0.054891836 0.03249174 -0.68495303 -0.65585411 -0.31732443 0.00013061297
-0.01859705 -0.056110568 0.031520668 -0.65595466 -0.66528195 -0.35654375 0.00017968408
0.05959681 -0.056058157 0.031042278 0.65575701 -0.22122803 -0.72183156 0.00036236376
0.061229412 -0.055532381 0.032420918 0.67902756 -0.19353464 -0.70814258 0.00049479463
-0.021547737 -0.053004596 0.031365674 -0.68815202 -0.64761633 -0.32716954 0.00020607187
0.060066883 -0.052810948 0.030587841 0.68499464 -0.18080528 -0.70575625 0.0003791592
0.061606478 -0.052911475 0.032187074 0.70882857 -0.16185535 -0.68656015 0.00017430491
-0.024407905 -0.049827185 0.031262051 -0.72029549 -0.6248132 -0.30130184 0.00018549198
0.06064105 -0.050078765 0.030511413 0.71859574 -0.15009043 -0.67903835 0.00015802796
0.062061887 -0.049769543 0.031979315 0.73537421 -0.13557398 -0.66396123 0.00017174927
-0.026894705 -0.04669714 0.031143527 -0.74484235 -0.61688602 -0.25428623 0.0004950568
-0.025487725 -0.048324358 0.030799624 -0.73591197 -0.61744368 -0.27784318 0.00052311248
0.060837712 -0.047150426 0.030135509 0.73182911 -0.12161814 -0.67054838 0.00015216385
0.062090546 -0.046835028 0.03149106 0.75116819 -0.10155831 -0.65225166 0.00016843449
-0.028563458 -0.044763241 0.031220313 -0.76091188 -0.61296833 -0.21279791 0.0012230516
