# .PCD v0.7 - Point Cloud Data file format
VERSION 0.7
FIELDS x y z normal_x normal_y normal_z curvature
SIZE 4 4 4 4 4 4 4
TYPE F F F F F F F
COUNT 1 1 1 1 1 1 1
WIDTH 565
HEIGHT 1
VIEWPOINT 0 0 0 1 0 0 0
POINTS 565
DATA ascii
-0.019087486 0.032511696 0.025620604 -0.38844749 0.86095589 -0.32842579 0.00028702131
-0.016144451 0.033670966 0.025475925 -0.34110123 0.87915343 -0.33277497 0.00026265951
-0.013921194 0.034115758 0.024537383 -0.27561638 0.90096301 -0.33511373 0.00080565654
0.015066476 0.034107536 0.024462489 0.2758649 0.90353996 -0.32789341 0.0003962341
0.01709516 0.033745307 0.025439342 0.33539322 0.88352674 -0.32694328 0.00028350903
0.019660799 0.032650355 0.025327878 0.3887738 0.86312383 -0.32229206 0.00018156585
0.022274237 0.0318566 0.026476635 0.44173738 0.84069133 -0.31321919 0.00038814297
-0.012897865 0.03493296 0.025557516 -0.26934716 0.90918916 -0.31753308 0.00070615101
-0.0099793607 0.035529468 0.025550285 -0.20314126 0.92116094 -0.33195785 0.00029641448
-0.007019659 0.036086317 0.025368353 -0.16092485 0.93118984 -0.3270914 0.00030145369
-0.0038097929 0.036535021 0.025355292 -0.10256555 0.94301724 -0.31654212 0.00026118202
-0.0010750494 0.037091915 0.026617145 -0.032273166 0.94744807 -0.31827766 0.00048292411
0.0020689757 0.036716383 0.02552242 0.036779854 0.94655097 -0.32045045 0.00018961211
0.0047747367 0.036489677 0.025359226 0.086126134 0.93836778 -0.33473602 0.00027669774
0.0079714609 0.036124185 0.025357524 0.14856514 0.93000233 -0.3361904 0.00025788357
0.010986675 0.035582546 0.025414107 0.2055655 0.9216612 -0.32906464 0.00046898465
0.013639025 0.034953874 0.025511274 0.26886025 0.90870428 -0.31932846 0.00032518513
-0.047392678 0.00032107905 0.028073249 -0.91414785 0.36337212 -0.1797065 0.00025292259
-0.046508227 0.0027815215 0.027530489 -0.9092927 0.36391678 -0.20186971 0.00039375396
-0.04528109 0.0064287521 0.028988687 -0.90320855 0.38995677 -0.17929916 0.00011667773
0.046443999 0.0053303875 0.029136805 0.90852857 0.3860057 -0.15992345 0.00015210205
-0.044311088 0.0080147572 0.027582644 -0.88788724 0.41937152 -0.18916608 0.00025524292
0.044488233 0.0097399689 0.02891886 0.88476998 0.43052861 -0.17840195 0.00026225566
0.045387615 0.0081184246 0.029626159 0.89373749 0.41439071 -0.1717955 0.0002563317
-0.042468283 0.011924464 0.02847269 -0.85721898 0.47692865 -0.1942026 0.00024773655
0.043067168 0.012197535 0.028482703 0.8558355 0.47930887 -0.19444419 0.00039942932
-0.040556621 0.015112281 0.028690001 -0.81577456 0.53713042 -0.21448268 0.00065850973
0.041138694 0.015374016 0.028519353 0.81825703 0.53357732 -0.2138942 0.00017389152
-0.038892258 0.017450806 0.028592763 -0.77489609 0.58706087 -0.23429793 0.00051682541
-0.037788283 0.018829003 0.028584881 -0.75918996 0.60373008 -0.24318852 0.00048940256
0.038934391 0.018553365 0.02857372 0.78053349 0.57956696 -0.23424268 0.00023898827
0.040107299 0.017226867 0.029345674 0.79842544 0.56130463 -0.21783939 9.8948847e-05
-0.036437556 0.020606812 0.028948234 -0.73614061 0.63133681 -0.24394843 0.00012457094
-0.035052907 0.022166185 0.028893171 -0.72200513 0.64510089 -0.2501072 0.00023734881
0.036075484 0.021486755 0.027321024 0.71793979 0.65008897 -0.24889114 0.00042567356
0.037248537 0.020785008 0.028878955 0.74547374 0.62104404 -0.24201891 0.00034197266
-0.033619028 0.023488037 0.028200218 -0.68557781 0.67493087 -0.27285787 0.00063516415
-0.032235857 0.024861742 0.028141661 -0.66890359 0.69016165 -0.27612504 0.00030339815
0.032913487 0.024940815 0.027992753 0.65316546 0.71082366 -0.26096845 0.0004795019
0.034842197 0.023572259 0.029187737 0.6857866 0.68598092 -0.24316029 0.00025397915
-0.030451745 0.026619133 0.028657345 -0.61144966 0.74322319 -0.27156696 0.0006982226
-0.02845717 0.027878594 0.027974473 -0.56836402 0.77267379 -0.2827321 0.0006120436
0.029554335 0.027938541 0.028604446 0.58898127 0.76411659 -0.26311001 0.00024325724
0.031469505 0.026371494 0.028369015 0.62030005 0.73725832 -0.26772761 0.0003625254
-0.027609428 0.028906535 0.029099194 -0.54990804 0.79101944 -0.26812211 0.00046454233
-0.025078272 0.03030365 0.028333792 -0.51177692 0.81095105 -0.28362417 0.00031248541
-0.023082338 0.031096879 0.027104734 -0.45109907 0.83383054 -0.31817654 0.00053155667
0.0242412 0.031118382 0.027314452 0.4689945 0.83518761 -0.28723812 0.00060458662
0.025953 0.030456875 0.028391587 0.50556892 0.8194077 -0.27013171 0.00049022224
0.028467273 0.028794743 0.028892471 0.56612581 0.78251469 -0.25917637 0.00029722758
-0.022039853 0.032040771 0.028243465 -0.44636828 0.85128635 -0.27580234 0.00043611001
-0.019145008 0.033423379 0.028274244 -0.38999018 0.87286723 -0.29327551 0.00040046079
-0.016770821 0.034163568 0.02748066 -0.3466019 0.8873077 -0.30422384 0.00027959843
0.017082756 0.034411293 0.027227936 0.32919142 0.8910656 -0.31246611 0.00028989927
0.020069143 0.033528935 0.028401284 0.38661346 0.87473273 -0.29218605 0.00020504366
0.022645066 0.032336202 0.028429994 0.44187763 0.85342818 -0.27641353 0.00041087641
-0.015997497 0.034870505 0.028895332 -0.34763119 0.8868621 -0.30434871 0.00027184212
-0.012961076 0.035985727 0.028984291 -0.28412658 0.89825112 -0.33528656 0.0010673708
-0.010234621 0.036560062 0.028830664 -0.18474719 0.92045826 -0.34441984 0.00095972256
-0.0073277056 0.036896698 0.028099028 -0.15836348 0.93101054 -0.32884693 0.00049357169
-0.0046655987 0.037272107 0.028170345 -0.099651068 0.94117224 -0.32290006 0.00078262499
0.0052552321 0.037200533 0.027553393 0.080378152 0.94073117 -0.32949081 0.00088241114
0.0076081995 0.037164506 0.028428717 0.13025388 0.93389732 -0.33297098 0.001004893
0.010782408 0.036570374 0.02846113 0.20009607 0.92590821 -0.32039893 0.00049436896
0.013829436 0.035973128 0.028872246 0.26869503 0.90694845 -0.32441875 0.00068120408
0.01658649 0.035035487 0.028720407 0.33607167 0.89245683 -0.30095956 0.00036810295
-0.0066190022 0.037444886 0.029659716 -0.14212462 0.93344438 -0.32936609 0.00096529495
-0.0027482626 0.038035292 0.029976157 -0.069192141 0.9429363 -0.32570457 0.001920414
-0.0010848539 0.03795927 0.029327886 -0.0078501487 0.93739152 -0.34818873 0.0013819664
0.0019573192 0.037994303 0.029626617 0.013786015 0.94012976 -0.34053779 0.0011764402
0.0038965994 0.038044851 0.030057756 0.060813531 0.93751597 -0.34258658 0.0013691534
0.0085985921 0.037456647 0.029761015 0.14622465 0.93256742 -0.33005512 0.0015000241
-0.046675608 0.0043347217 0.03174904 -0.91113579 0.37321717 -0.17475851 0.00034681318
-0.045971535 0.0053829588 0.03031954 -0.90418726 0.38905385 -0.17630212 0.00012922364
0.046268567 0.0071677603 0.032864213 0.90713114 0.39117482 -0.15522687 0.00015513538
-0.045054894 0.0082492866 0.032212645 -0.89064121 0.42474127 -0.16233638 0.00022972209
-0.044117969 0.0098630451 0.031184552 -0.88323903 0.43900663 -0.1648089 0.00033166111
-0.043036409 0.012101095 0.031480789 -0.86535013 0.46588096 -0.18472707 0.00040044246
0.043833956 0.012280326 0.032167338 0.86955738 0.4600217 -0.17958285 0.0006224158
-0.042271387 0.013812948 0.032199293 -0.83682323 0.50837427 -0.20318072 0.00062512024
-0.041310221 0.014837723 0.030844433 -0.82077396 0.53177911 -0.20866507 0.00033080817
0.042033847 0.01548731 0.032265931 0.82513487 0.5267306 -0.20422389 0.00028330574
0.042743359 0.013732869 0.03092712 0.84741938 0.49214584 -0.19918028 0.00067086093
-0.039668187 0.017489512 0.031087315 -0.79664165 0.57252061 -0.19386147 0.00051848305
-0.038276348 0.019290116 0.03104159 -0.75482625 0.62331772 -0.20423588 0.00056159182
0.039354019 0.018675055 0.03023064 0.7850334 0.57680589 -0.22587053 0.00014913648
0.040608611 0.017500065 0.031880423 0.81037933 0.54782552 -0.20778008 0.00018821603
-0.036984254 0.020776112 0.031092951 -0.74522454 0.62811631 -0.22385328 0.00020410279
0.038338311 0.020421427 0.031323373 0.7596581 0.61559141 -0.2096827 0.00033683763
-0.034089945 0.023978982 0.030719133 -0.70155478 0.67271316 -0.23511231 0.00045442744
0.035690628 0.02389615 0.032991037 0.70373207 0.67391598 -0.22494093 0.00034488243
-0.032168683 0.025946882 0.03100544 -0.64585954 0.72848183 -0.22842878 0.00047733524
-0.029443447 0.028237391 0.03174904 -0.57901925 0.77231145 -0.26128832 0.0011729711
0.031396169 0.027366951 0.031344295 0.614012 0.74901289 -0.24893573 0.00027818073
-0.027830172 0.029711418 0.032609463 -0.54744017 0.77786195 -0.30860972 0.0015555409
-0.025804419 0.030696146 0.031318739 -0.52816707 0.7999509 -0.28481209 0.0018859947
0.026991405 0.030762777 0.031983823 0.51555693 0.80376387 -0.29692531 0.0010434258
0.02891342 0.029331915 0.031574659 0.56326562 0.77859288 -0.27663139 0.0010192936
-0.024455683 0.031785648 0.032017596 -0.5163784 0.79820955 -0.31018507 0.0014967741
-0.022209717 0.032946974 0.031599604 -0.4589974 0.82500851 -0.32967016 0.001471217
-0.019745797 0.034068361 0.031180372 -0.38812882 0.85864848 -0.33478186 0.00095238845
0.020275502 0.034271814 0.031010536 0.38560528 0.86227244 -0.32832137 0.00071957841
0.02280367 0.033228446 0.031635776 0.44772255 0.83467132 -0.32073098 0.0011219828
0.025327481 0.031881366 0.032048814 0.51837349 0.80088896 -0.2997762 0.001068168
-0.018452009 0.035056286 0.032086112 -0.38608694 0.85496503 -0.34636936 0.0008746371
-0.015983025 0.035971541 0.031865843 -0.354967 0.85747671 -0.37246764 0.0003229219
-0.01352237 0.036750872 0.031454399 -0.2829186 0.88587224 -0.36767831 0.0007620182
-0.01134387 0.036985412 0.030477149 -0.20733404 0.90696973 -0.36663124 0.00047551937
0.011936943 0.036983892 0.030463858 0.21825142 0.90238935 -0.37156391 0.00051516801
0.013999772 0.036916025 0.031484075 0.26846999 0.89272773 -0.36188543 0.00058101083
0.016833711 0.036021587 0.031761773 0.3424668 0.86735302 -0.36113042 0.00047771016
0.0194891 0.035039537 0.032103233 0.39102048 0.85690522 -0.33588162 0.00068620616
-0.011956552 0.03778369 0.032580137 -0.26230565 0.89184588 -0.36851957 0.0009246972
-0.0097812656 0.037905242 0.031827725 -0.18829276 0.90489531 -0.38172022 0.00057466276
-0.0072061862 0.038231783 0.031645223 -0.15882182 0.91281402 -0.37622631 0.00033971292
-0.0040695788 0.038699947 0.031575717 -0.1013873 0.91579843 -0.38863069 0.000423766
-0.0010946784 0.039104525 0.031976588 -0.012246465 0.91615248 -0.40064284 0.00060804136
0.0019645833 0.039111856 0.032038331 0.019366024 0.91523421 -0.40245667 0.00039537647
0.0049664234 0.038659111 0.031413086 0.078172289 0.92166436 -0.38003144 0.00078466348
0.0076749232 0.038474359 0.031610496 0.14100234 0.91020066 -0.38942674 0.0010293182
0.010634221 0.037900869 0.031670891 0.20910025 0.90290672 -0.37554836 0.00030255283
0.012828869 0.037797209 0.032696575 0.27077162 0.89033765 -0.36603501 0.00056298537
-0.046075162 0.0066639967 0.03401196 -0.9014191 0.40509322 -0.15278466 0.00017268807
0.047144037 0.0061951168 0.035970658 0.90483081 0.40138507 -0.14202516 8.5022541e-05
0.045205593 0.0099823661 0.033386111 0.89282691 0.42404112 -0.15181993 0.00054012705
0.045936313 0.0089561976 0.035114884 0.8961032 0.41748583 -0.15068084 0.00043563914
-0.041833017 0.015008133 0.033457994 -0.82880288 0.52881509 -0.18286721 0.00037438827
0.042976521 0.014447261 0.033412904 0.84727561 0.49889073 -0.1822968 0.00065558689
-0.03980444 0.018522698 0.035746574 -0.79645604 0.57060248 -0.20017678 0.00063537864
-0.037444055 0.021214936 0.034341142 -0.76020306 0.61297214 -0.21530537 0.0010423968
0.037784383 0.022085331 0.034727842 0.74060196 0.63765031 -0.21192162 0.00040121871
0.039652318 0.019488994 0.033683509 0.78925067 0.58336782 -0.19174299 0.0005233339
-0.036154445 0.023284342 0.035685852 -0.72960937 0.61556137 -0.29791674 0.00074035302
-0.034693718 0.024621077 0.034930468 -0.7040152 0.66132778 -0.25885943 0.0016905462
0.034980804 0.025155757 0.034643486 0.69940645 0.66440576 -0.26343066 0.00062415644
0.036855426 0.022832837 0.03361401 0.72720897 0.64926094 -0.22277169 0.00046370502
-0.033291258 0.026017167 0.03489165 -0.68175328 0.68829459 -0.24791749 0.0014044738
-0.031360906 0.02750814 0.034157306 -0.61493552 0.73126221 -0.29514396 0.0013842016
0.03258485 0.027519464 0.034790233 0.6657415 0.6890679 -0.28631032 0.00048980245
0.034047902 0.026185915 0.034897082 0.66846669 0.68706489 -0.2847704 0.00053226645
-0.030236203 0.029129218 0.035238877 -0.61624038 0.7149632 -0.33026567 0.00072078913
-0.02818929 0.030350573 0.034370065 -0.55359238 0.75774336 -0.34548584 0.00019120633
-0.026197379 0.031169128 0.033254594 -0.52706611 0.77244049 -0.35431206 0.00034541936
0.028847169 0.030484557 0.034473017 0.56207097 0.75566763 -0.33621821 0.00069055869
0.031069424 0.028800424 0.034728691 0.61873406 0.72505677 -0.30242488 0.00080122205
-0.026916165 0.031999674 0.035917729 -0.54827499 0.76415133 -0.33980471 0.00031829521
-0.025019098 0.032582987 0.034332246 -0.50019616 0.78882843 -0.35714623 0.00033125721
-0.022816878 0.033892415 0.034379616 -0.46711582 0.80508107 -0.36557806 0.00039824864
0.023628436 0.03391866 0.034190021 0.45977575 0.81537479 -0.35180986 0.00021934243
0.025677003 0.032782353 0.034457333 0.50997639 0.78537887 -0.35086203 0.00032132899
0.028046498 0.031688657 0.035620898 0.5636391 0.74949253 -0.34723473 0.00039369316
-0.021483175 0.034922395 0.034938373 -0.43767148 0.82503265 -0.35744208 0.00028059568
-0.019110415 0.035878316 0.034465268 -0.3900708 0.84544241 -0.3647902 0.00028548486
-0.016530655 0.036859766 0.034250781 -0.34553427 0.86480433 -0.36430672 0.00027436024
-0.014489951 0.0373214 0.03340438 -0.32377529 0.86580646 -0.38150835 0.00038313013
0.015074723 0.037303355 0.033247322 0.27633935 0.8890357 -0.36503699 0.00047744406
0.016914008 0.036967758 0.033973761 0.32544205 0.86650562 -0.3784911 0.00021477383
0.019919964 0.035924695 0.034385115 0.38366637 0.84910357 -0.36307463 0.00028555832
0.02228421 0.034898214 0.034714207 0.4435069 0.82421523 -0.35209513 0.00033692218
-0.015954621 0.037540879 0.035316616 -0.33003426 0.87911516 -0.34385139 0.00044620369
-0.013094359 0.038268786 0.034692116 -0.26844677 0.9017905 -0.33868891 0.00041569921
-0.010050746 0.038897142 0.034461774 -0.19732015 0.91360515 -0.35551408 0.00031293195
-0.0073490753 0.039499465 0.034510612 -0.15926749 0.91548401 -0.36948994 0.00023392506
-0.0043226844 0.040073112 0.034822173 -0.10735235 0.92207861 -0.37181526 0.00038321695
-0.0011051192 0.040277153 0.034778133 -0.036347494 0.92471993 -0.37890875 0.00028985049
0.0016934888 0.04029052 0.034888692 0.032828528 0.92566353 -0.37692094 0.00015092606
0.0050509963 0.040097982 0.034834825 0.074716471 0.92446071 -0.37388483 0.00021017413
0.0080311578 0.039591972 0.034505978 0.14379196 0.92056155 -0.36316708 0.00024947766
0.010850349 0.039056372 0.03450726 0.20988762 0.90568644 -0.36834666 0.00016429681
0.013918517 0.038253307 0.034559011 0.27344179 0.89358824 -0.3559911 0.00015140318
0.01654201 0.037681274 0.03531833 0.3274698 0.87555951 -0.35518897 0.00019722569
-0.041540936 0.016319107 0.0363307 -0.81815732 0.54229784 -0.19113253 0.00067904469
0.042834103 0.01586229 0.037901908 0.84712237 0.50574517 -0.16311175 0.00081396307
-0.040561803 0.018305667 0.037926324 -0.81723672 0.51956695 -0.24934803 0.00088006386
0.041420188 0.018110849 0.037837051 0.82713777 0.52934331 -0.18878244 0.0008691352
-0.039123654 0.020346135 0.037587047 -0.78278959 0.56024724 -0.2708571 0.00046192805
-0.03810253 0.021858133 0.037718475 -0.76935846 0.57398111 -0.28041631 0.00064556964
0.038851082 0.021742664 0.037440374 0.7730875 0.58887357 -0.23571953 0.0012350504
0.039909028 0.020681441 0.038285151 0.79952633 0.55935907 -0.21880363 0.00082436361
-0.036917873 0.023263887 0.037466995 -0.73829854 0.60768735 -0.29262847 0.0004701303
-0.035117596 0.025060583 0.036766142 -0.70163995 0.64139158 -0.31035188 0.00025119827
0.035946462 0.024737801 0.036281347 0.72883183 0.63586718 -0.2539233 0.00064841012
0.037355177 0.023825515 0.037832133 0.74162817 0.6136803 -0.27089512 0.00039847489
-0.033970177 0.026736837 0.037690178 -0.66776496 0.67364776 -0.31668383 0.00018518265
-0.032300647 0.027862903 0.036677733 -0.65978158 0.67765725 -0.32475972 6.6241599e-05
0.033239737 0.028238464 0.037687033 0.65292281 0.69358212 -0.30436105 0.00016738294
0.034926016 0.0265444 0.037639923 0.69590288 0.65666181 -0.29071349 0.00030745784
-0.030990601 0.029680897 0.038041614 -0.62545758 0.71388501 -0.31491426 0.00026344156
-0.028947143 0.030980863 0.036950469 -0.58934152 0.74460799 -0.31342542 0.00048194092
0.030078495 0.030675713 0.036707461 0.60579914 0.73011249 -0.31613791 0.00031560057
0.031535182 0.029697049 0.037472799 0.61404437 0.72275281 -0.31714037 0.00035865034
-0.027942836 0.032098483 0.037980922 -0.57070142 0.760818 -0.30895954 0.00023267159
-0.025503034 0.033554487 0.037360132 -0.5206399 0.78957379 -0.32481912 0.00021283822
0.02612187 0.033716213 0.037293561 0.51182228 0.79597366 -0.32320869 0.00026543968
0.028390914 0.032284491 0.037596971 0.55452573 0.76751953 -0.32158187 0.00045490437
-0.024255417 0.034810454 0.038569599 -0.50344014 0.79918766 -0.32840076 0.0002909544
-0.021760847 0.035830595 0.037580386 -0.42780638 0.83947968 -0.33504567 0.00019567311
-0.019415323 0.036955856 0.037577778 -0.39177018 0.85685414 -0.33513752 0.0001814015
0.02003504 0.036955878 0.037078351 0.38316619 0.85628384 -0.3463546 0.00017917497
0.022935759 0.035709996 0.037582584 0.45419091 0.82719767 -0.33083937 0.00018341375
0.025121486 0.034813162 0.038590431 0.50652671 0.80113208 -0.31877601 0.00028760592
-0.018040748 0.037894282 0.038395643 -0.37988615 0.85915852 -0.34283108 7.601775e-05
-0.016036952 0.038364876 0.037586585 -0.32981175 0.88147992 -0.3379606 0.00038538166
-0.012864993 0.039434098 0.037783906 -0.25304791 0.8981337 -0.3596147 0.00030489615
-0.010357341 0.039847836 0.037206806 -0.2121987 0.90933043 -0.3578966 0.00017098764
-0.0084067527 0.039879922 0.036134601 -0.18367398 0.91443896 -0.36064556 0.00047017177
0.011255747 0.0398557 0.036869913 0.20951667 0.91076785 -0.35581544 0.00016421528
0.013807489 0.039498702 0.037649415 0.2616353 0.89862037 -0.35217667 0.00030086545
0.016986776 0.038455218 0.037671477 0.32767558 0.87923533 -0.34579444 0.00019145561
0.018896222 0.037864141 0.03813304 0.3792375 0.85948431 -0.34273255 0.00017776484
-0.0093057333 0.040760063 0.03877081 -0.21430944 0.9074927 -0.36128727 0.00017069496
-0.0070721046 0.040806636 0.037821896 -0.16066155 0.91908425 -0.35982224 0.00022656869
-0.0044134152 0.041098297 0.037575051 -0.10562632 0.92440736 -0.3664889 0.00033450546
-0.00087338261 0.041338995 0.037567794 -0.011157529 0.93040764 -0.36635667 0.00058712321
0.0014888407 0.041416757 0.037791461 0.0061872848 0.93019801 -0.36700594 0.00059145282
0.0047988943 0.041197315 0.037729017 0.097028136 0.92689627 -0.36255878 0.00050833408
0.0076833051 0.040832125 0.037616275 0.14805132 0.92169261 -0.35855746 0.00020343908
0.010167562 0.040737569 0.038584873 0.20610711 0.91321009 -0.3515214 0.00016203496
-0.045600493 0.0097963922 0.040401101 -0.89004302 0.42399648 -0.16748281 0.00048878498
-0.044789325 0.01180264 0.040794566 -0.892331 0.40791056 -0.19327258 0.00052681816
-0.044187244 0.01291525 0.040435165 -0.88328654 0.418118 -0.21208999 0.00011390298
0.044846792 0.013247389 0.041249692 0.89339042 0.41296452 -0.17695689 0.0003490824
0.045455117 0.012136418 0.041667372 0.90400285 0.38424823 -0.18743587 0.00073742436
-0.043115843 0.014862999 0.039892003 -0.86712539 0.44231036 -0.22903074 0.0006680201
0.043925077 0.014902014 0.040503412 0.87389511 0.43720728 -0.21250197 0.00063392177
-0.042120665 0.017172601 0.04055205 -0.85368621 0.46889585 -0.22661991 0.00073921925
-0.041165367 0.018674891 0.040429279 -0.82496631 0.51009762 -0.24337418 0.0005440457
0.041745126 0.018863183 0.040417939 0.8265546 0.51009792 -0.23792341 0.00050300878
0.042796008 0.017173111 0.040554643 0.85288382 0.47777182 -0.21053068 0.00058733328
-0.039855354 0.020857774 0.040570118 -0.79884934 0.54487294 -0.25485921 0.0001959746
0.040272802 0.021353651 0.040867724 0.79265815 0.55739367 -0.24699251 0.00025319849
-0.03725962 0.024116658 0.040015556 -0.74845165 0.60275888 -0.27658963 0.00021239047
0.038265899 0.023978714 0.040605262 0.76021862 0.59920782 -0.25103325 0.00021333988
-0.036003117 0.025981363 0.040830284 -0.72000962 0.63613594 -0.27733946 0.00022263126
-0.034546494 0.027352396 0.040320411 -0.70173436 0.65212631 -0.28688002 0.00031381822
0.035383575 0.027036626 0.039960496 0.71178436 0.64732629 -0.27263841 0.00022073975
0.036844987 0.025673192 0.040548563 0.72575712 0.63628221 -0.26157507 0.00030856201
-0.033130873 0.028769739 0.040330634 -0.66594309 0.68475586 -0.29602239 0.00024590318
-0.031177208 0.030679516 0.04074306 -0.61075389 0.73518729 -0.29407361 0.0001929291
0.032012571 0.030470084 0.040335342 0.63141394 0.72216231 -0.28248525 0.00025032146
0.033682652 0.02873097 0.039920986 0.67713588 0.68161643 -0.27728325 0.00014618192
-0.030121047 0.032045711 0.041916341 -0.58957171 0.74859619 -0.30332953 0.0001091971
-0.028019432 0.033145294 0.04077103 -0.56067991 0.7685231 -0.30823725 0.00020824956
-0.026007809 0.034073729 0.039601594 -0.5237385 0.79177976 -0.31429732 0.00034890638
0.027179815 0.034118142 0.040020019 0.54688472 0.77983254 -0.30459526 0.00018704173
0.028914005 0.033047419 0.040606409 0.57352328 0.76162523 -0.30165878 0.00025208612
0.030658154 0.031980421 0.04127112 0.6055882 0.7380228 -0.29763296 0.00026919524
-0.024854539 0.035345398 0.040895566 -0.49931198 0.80504811 -0.32028896 0.00063185609
-0.022460861 0.036507972 0.040296674 -0.43872154 0.83067667 -0.34278229 0.00030392429
-0.01976712 0.037417438 0.039163917 -0.38818991 0.85562193 -0.34237361 0.00023162457
0.023234036 0.03660873 0.040354744 0.45778871 0.82713336 -0.326006 0.00033862336
0.025860356 0.035214793 0.040733404 0.50817138 0.80195457 -0.31405535 0.00025844108
-0.020995704 0.037655983 0.041264802 -0.40712443 0.84836179 -0.33842552 6.8649781e-05
-0.019167567 0.038236331 0.040550426 -0.39575171 0.85334939 -0.33937514 0.00016986052
-0.016303992 0.039468087 0.040582538 -0.33227685 0.87686563 -0.34741718 0.00043990317
-0.013290232 0.040184483 0.039858669 -0.2571477 0.89120293 -0.37367427 0.00019684502
0.014437847 0.040183432 0.039850235 0.26098183 0.8977958 -0.35475528 0.00028049169
0.017008374 0.039554588 0.040516384 0.32367611 0.88122708 -0.34448877 0.00025801797
0.019848062 0.038440451 0.04067906 0.39272019 0.85447133 -0.34007293 0.00023865464
0.021849304 0.037629865 0.041034833 0.42553616 0.84302175 -0.32898811 0.00015104147
-0.014768663 0.040554382 0.041768432 -0.27819666 0.89172006 -0.35699016 0.00022698051
-0.012911779 0.040938593 0.04142002 -0.25504878 0.89961958 -0.35444993 0.00037097067
-0.010276494 0.041306548 0.040608175 -0.21610467 0.90612441 -0.3636446 0.00014598237
-0.0073633958 0.041938804 0.040701479 -0.16304573 0.92103785 -0.35370252 0.00026455711
-0.0038344469 0.042363562 0.040569104 -0.091603138 0.92853284 -0.35977158 0.00031093106
-0.0013374605 0.042437211 0.040338486 -0.036260005 0.93395412 -0.35554865 0.00025353496
0.0019494053 0.042509265 0.04051175 0.015377751 0.93417245 -0.35649046 0.00041394512
0.0048255608 0.04240039 0.040612146 0.097595826 0.92788577 -0.35986558 0.00038173687
0.0081855888 0.041955963 0.0406214 0.14122781 0.92405558 -0.35521281 0.0002711534
0.011021201 0.041395701 0.040675528 0.21095593 0.9131037 -0.34891132 0.00018385236
0.013625191 0.040899761 0.041099519 0.26201609 0.90049809 -0.34706002 0.00036898744
-0.046612766 0.0091715641 0.044781402 -0.90829331 0.37985119 -0.17526078 0.00027226252
0.046920829 0.010038856 0.044963181 0.91559398 0.36800739 -0.16204421 0.00021281467
-0.045269828 0.011917409 0.04278101 -0.8976953 0.39830616 -0.18840222 0.00038122918
0.045935176 0.011969116 0.043670997 0.91223705 0.37173018 -0.17216359 0.00034840204
-0.04393778 0.015108589 0.043726571 -0.88413465 0.42325181 -0.1978986 0.00012569633
0.044413608 0.015040603 0.042662703 0.87910038 0.43481705 -0.19523484 0.00032610164
-0.04244728 0.01791523 0.043047339 -0.85409194 0.47726104 -0.20675793 0.00055667537
0.043073814 0.017952111 0.043574914 0.85201865 0.48446181 -0.19839613 0.00029235284
-0.041755874 0.019756328 0.044832557 -0.82651532 0.52098459 -0.21318389 0.00034327287
-0.040526737 0.021207873 0.043875098 -0.80432248 0.54542816 -0.23574042 0.00014322648
0.041375861 0.020814274 0.043717578 0.82572031 0.52491105 -0.20652954 0.0002061272
-0.039133005 0.023427092 0.044259772 -0.79059166 0.56716424 -0.2308452 0.00029373492
-0.037853386 0.024430968 0.042616889 -0.76511443 0.59367067 -0.24930927 0.00059888081
0.039037857 0.023898352 0.043057501 0.77941442 0.58230036 -0.23116988 0.00018081194
0.040024195 0.023170006 0.04460603 0.78816551 0.57490319 -0.2197303 0.00016748543
-0.036830608 0.02626444 0.044044659 -0.74165863 0.61908579 -0.2582157 0.00023143842
-0.035040934 0.027887568 0.043059647 -0.69890314 0.66446042 -0.26462555 0.0002273415
0.03558616 0.027848102 0.042629883 0.69712555 0.67037088 -0.25420234 0.00030181257
0.037377372 0.026231036 0.043667451 0.74941158 0.61647224 -0.24154525 0.00022479835
-0.033662554 0.029657669 0.043684937 -0.6560176 0.70248866 -0.27595407 0.0002930999
-0.032193776 0.030739993 0.043090791 -0.63789248 0.71757084 -0.27961615 0.00053142797
0.032887042 0.030863445 0.043377765 0.65016389 0.70692748 -0.27846065 0.00028679692
0.034415979 0.029551875 0.043861412 0.68691278 0.67501426 -0.26927045 0.0002510593
-0.030555084 0.032558367 0.044153512 -0.60271609 0.74258143 -0.29207221 0.0002852777
-0.028626408 0.033579994 0.043000408 -0.57460696 0.76062661 -0.30211589 0.0002288127
0.02966297 0.033631109 0.043490566 0.58184946 0.75922877 -0.29158682 0.00037479482
0.0316815 0.032095302 0.043818332 0.61884403 0.73378259 -0.28034854 0.00043330548
-0.027413886 0.034936223 0.044140689 -0.55329973 0.77676231 -0.30083188 0.00019444682
-0.025027741 0.036424153 0.04360231 -0.51663703 0.79938555 -0.3067064 0.00038698706
-0.02306048 0.037258971 0.042783916 -0.43700641 0.83855724 -0.32534161 0.00042297848
0.023934223 0.037283514 0.043002397 0.48058981 0.82227004 -0.304804 0.00022088949
0.025903277 0.036175668 0.043286428 0.49995708 0.81041312 -0.30540723 9.7981618e-05
0.027989896 0.035128053 0.044148363 0.54873705 0.78388399 -0.29054007 0.00019079349
-0.021899905 0.038139287 0.043510601 -0.43065202 0.84864467 -0.30715013 0.00030782531
-0.019317567 0.039334398 0.043485448 -0.38635948 0.86389142 -0.3231377 0.00018910537
-0.017082186 0.040111728 0.042828411 -0.33839422 0.8834005 -0.32418042 0.00051086943
0.017940111 0.040094949 0.042686805 0.33520883 0.88769335 -0.315651 0.00033411538
0.019966699 0.039508026 0.043507122 0.38619611 0.86873597 -0.31008142 0.00038234729
0.022517895 0.038156297 0.043161988 0.44351947 0.84078515 -0.31043646 0.00035843457
0.024579423 0.037446957 0.044457704 0.48918703 0.81693006 -0.30548534 0.00028583067
-0.015695026 0.040948257 0.043864615 -0.32633397 0.89350986 -0.30845788 0.00041691674
-0.013115929 0.041678227 0.043530278 -0.25800297 0.91081434 -0.32226044 0.00025800068
-0.010263165 0.042356901 0.043483116 -0.21316579 0.91945904 -0.33038673 0.00018057977
-0.0068403101 0.043027177 0.043371566 -0.15225218 0.93338829 -0.32497016 0.00040461929
-0.0051131719 0.042874008 0.042142719 -0.10887418 0.93499988 -0.33752283 0.00043569267
0.0079908287 0.043048419 0.04354196 0.14831597 0.93380719 -0.32558629 0.00018434211
0.01083617 0.042439811 0.043232642 0.20824111 0.92065048 -0.33020967 0.00019943678
0.013781748 0.041686386 0.043284632 0.26309752 0.91271096 -0.31263128 0.00034933083
0.016203543 0.040994927 0.043539159 0.31600541 0.896321 -0.31104544 0.0002750128
-0.0037137177 0.043738678 0.044493832 -0.097055189 0.94123811 -0.3234984 0.00048126126
-0.0011374224 0.043607473 0.043451615 -0.031791203 0.94389921 -0.32869989 0.00019531819
0.0017148149 0.043611757 0.043485671 0.0099194963 0.94566709 -0.32498509 0.00039317878
0.0045746635 0.043723762 0.044375375 0.086137734 0.93496418 -0.34412539 0.00043935762
0.04760322 0.0083760507 0.046052128 0.91560024 0.36800241 -0.16201988 0.00019103241
-0.045827333 0.011786226 0.045505762 -0.90707541 0.38273621 -0.17529164 0.0002877095
0.046576571 0.011886481 0.047271699 0.91560262 0.3680039 -0.16200243 0.00019471211
-0.044881832 0.014779735 0.047559142 -0.8950538 0.41208798 -0.17047608 0.00031143363
-0.044299833 0.015926007 0.047490478 -0.88195533 0.43250018 -0.18734539 0.00017368053
0.044836719 0.015901539 0.047116488 0.89696205 0.40819186 -0.16981889 0.00022401466
0.045478258 0.014795486 0.047809303 0.90170074 0.40050194 -0.16289246 0.00010308933
-0.043156762 0.018233351 0.047572643 -0.87171197 0.45565969 -0.18025659 0.0003071778
0.043665618 0.018185236 0.04688745 0.86642277 0.46268722 -0.187702 0.0003243892
-0.04107954 0.021631524 0.046868101 -0.82327127 0.52429312 -0.21758029 0.00047260392
0.041648429 0.021627624 0.046818852 0.82289636 0.52464539 -0.21814871 0.00034019921
-0.039628692 0.023723491 0.046696275 -0.79505968 0.56247747 -0.22693421 0.00020341821
-0.038354382 0.024935637 0.045197755 -0.77677274 0.58340693 -0.23719282 0.00052969693
0.038952876 0.024959583 0.045478791 0.77566046 0.5858047 -0.23491228 0.00042793763
0.040199444 0.023721356 0.046667278 0.80273718 0.5563761 -0.21461287 0.00041105633
-0.037008394 0.027031939 0.046241917 -0.74258602 0.62490684 -0.24095137 0.00047248451
-0.035506573 0.028387826 0.045385092 -0.70903361 0.65089738 -0.27130058 0.00036927694
0.036070406 0.028374288 0.045238823 0.70654517 0.65803677 -0.26034889 0.00020470959
0.037909199 0.026787985 0.046732143 0.75190914 0.61233288 -0.24429704 0.00051277189
-0.034020144 0.030364055 0.046570361 -0.68276769 0.68245131 -0.26093796 0.00041274857
0.035116971 0.030340556 0.047824077 0.69678408 0.6759938 -0.23984221 0.00041336915
-0.033106819 0.031782068 0.047843724 -0.66045594 0.70304209 -0.26368484 0.00044814113
-0.031282879 0.032792162 0.046445735 -0.61346084 0.74185646 -0.27076676 0.00024314347
-0.029205661 0.034112994 0.045367122 -0.58182228 0.76640338 -0.27222919 0.00025929412
0.03124864 0.0333126 0.045928121 0.60966903 0.74497885 -0.27075857 0.0001570742
0.033655006 0.031748686 0.047508001 0.67536008 0.6953088 -0.24583437 0.00021918031
-0.027851924 0.035539087 0.046642095 -0.56044942 0.77941507 -0.28001544 0.00035973676
-0.026172791 0.036915854 0.0474087 -0.53838241 0.79181558 -0.28839657 0.00020820892
0.02668814 0.03680357 0.046391577 0.50767589 0.81115782 -0.29032442 0.00020475035
0.028715901 0.035517246 0.046703279 0.56413919 0.77722967 -0.27867758 0.00013161692
-0.024452105 0.038076662 0.04750067 -0.50353724 0.81482524 -0.28724581 0.00058302406
-0.022128483 0.039174799 0.047044754 -0.45242405 0.83555955 -0.3116934 0.00073021644
-0.019201666 0.040172599 0.045764074 -0.38805538 0.86771691 -0.3106128 0.00047879168
0.020451846 0.040097043 0.045932293 0.39351055 0.86895961 -0.3000977 0.00045009513
0.022948023 0.038903378 0.046185844 0.45893839 0.83737797 -0.29694077 0.00031366211
0.024989329 0.038001388 0.046832696 0.48900402 0.82350284 -0.28760761 0.00010020406
-0.018691691 0.040930569 0.047312111 -0.38803411 0.86304742 -0.32338634 0.00046086192
-0.015989807 0.041830048 0.046821542 -0.32486346 0.88631904 -0.33000323 0.0005135439
-0.013308708 0.042687833 0.046791904 -0.26344451 0.90157479 -0.34316182 0.00076795038
-0.010177214 0.043205015 0.045947067 -0.20845696 0.9134528 -0.34949914 0.00056483108
-0.0085839238 0.043243468 0.045106739 -0.16682327 0.93249518 -0.32034791 0.00018656001
0.010319601 0.043332957 0.045824587 0.20696542 0.91719705 -0.34046283 0.000612773
0.013774781 0.042712525 0.046371244 0.25607708 0.90996712 -0.32616621 0.00066980458
0.016851386 0.041833177 0.046847239 0.33617523 0.88455272 -0.32334617 0.00074223429
0.019158175 0.040996246 0.047059178 0.3833757 0.87044638 -0.30878189 0.00045670962
-0.01209764 0.043608665 0.048036367 -0.26605979 0.88268304 -0.38740528 0.00027011125
-0.010358533 0.043838516 0.047571301 -0.21900636 0.89993042 -0.37704304 0.00037350622
-0.0068952013 0.044227883 0.046855837 -0.15321624 0.9196744 -0.36155754 0.00061272079
-0.0042121299 0.044498108 0.046722196 -0.098921813 0.92628407 -0.36361024 0.0005925225
-0.0011481999 0.04455249 0.046399221 -0.052498303 0.93244219 -0.35748494 0.00093502307
0.0017218813 0.0445536 0.046407931 0.012372543 0.93286014 -0.36002633 0.00069664756
0.0050864895 0.044508629 0.046697631 0.082911655 0.92775214 -0.36387035 0.00046396811
0.0077971173 0.044204466 0.046887197 0.16368496 0.9201023 -0.35583562 0.00077035383
0.010929969 0.043833792 0.047533438 0.22180328 0.9141314 -0.33936259 0.0008255142
0.012668621 0.043604933 0.048006505 0.26108924 0.8887372 -0.37680042 0.00031377544
-0.0466263 0.011786733 0.050603569 -0.91502237 0.37848336 -0.13958631 0.00064333732
-0.045359064 0.014615562 0.049499676 -0.90827549 0.39595544 -0.13511135 0.00087787985
0.046337437 0.013819922 0.050716817 0.89908004 0.40382576 -0.16905595 0.00018724661
-0.043973632 0.017832782 0.050110571 -0.86917633 0.46314621 -0.17328624 0.000406398
0.044284288 0.018434931 0.050441936 0.88423836 0.43730479 -0.16397296 0.00046470173
-0.042435199 0.020360824 0.049104735 -0.84877092 0.49351504 -0.18981792 0.00063970959
-0.041589662 0.021822628 0.049336851 -0.83415073 0.51782614 -0.18986508 0.00059753377
0.042155407 0.021818761 0.04928726 0.83899879 0.50506836 -0.20245264 0.00026111185
0.042676561 0.02061661 0.048661619 0.85101283 0.48957634 -0.18997934 0.00051233498
-0.039888419 0.024549071 0.049703561 -0.79219157 0.57975692 -0.19056334 0.00037738218
0.040723018 0.024139334 0.049416997 0.80118287 0.56226283 -0.20485757 0.00031266388
-0.038636453 0.025798488 0.048558831 -0.76546496 0.60729468 -0.21273594 0.00026916989
-0.037097413 0.028322224 0.050937563 -0.75329381 0.61385614 -0.23607005 0.0011906011
0.037776712 0.027828574 0.04869169 0.75467032 0.61797494 -0.22040801 0.00044278408
-0.036034796 0.028961591 0.048470408 -0.73336869 0.64728868 -0.20781665 0.00033754972
-0.035149265 0.029800732 0.048199981 -0.71874231 0.65780085 -0.22518326 0.00030291642
0.036295407 0.029222611 0.048179239 0.72275662 0.65273172 -0.22707756 0.0006154307
0.03688328 0.028660405 0.048329949 0.72657114 0.65191936 -0.21701533 0.00044213622
-0.03303881 0.032956284 0.0509139 -0.66045803 0.70480067 -0.25894272 0.0008538093
-0.031315822 0.033629354 0.049011394 -0.60258222 0.74776375 -0.27882624 0.00023318722
0.032304309 0.033320107 0.048803963 0.63125408 0.72795141 -0.26759115 0.00058867247
-0.030412395 0.034955304 0.050634861 -0.5952431 0.7464661 -0.29744583 0.00023717638
-0.028300414 0.036139201 0.049263611 -0.57283068 0.76031381 -0.30624801 0.00066147541
-0.026571607 0.037415612 0.049321204 -0.53755534 0.78271681 -0.31366974 0.00029948037
0.027116457 0.037366059 0.048875183 0.54231024 0.78338248 -0.30366346 0.00030938323
0.029261004 0.036215726 0.049972378 0.57726979 0.75882465 -0.30157039 0.00060921413
0.030921113 0.034857821 0.049711227 0.58999485 0.75837642 -0.27707604 0.00048229154
-0.027241031 0.037587855 0.050871879 -0.55912834 0.76360863 -0.32292002 0.00045904607
-0.024960419 0.038622893 0.049779147 -0.48698893 0.80975157 -0.32732886 0.00030211365
-0.022244245 0.040024243 0.049403675 -0.43859422 0.82856637 -0.34801272 0.00026076724
0.023286412 0.039808799 0.049206294 0.44894332 0.83187318 -0.32624674 0.00035996255
0.025936078 0.038554575 0.049903996 0.52133369 0.79436338 -0.31176606 0.00067859644
0.027790474 0.037551831 0.05054751 0.56159925 0.77170849 -0.29844967 0.00036759558
-0.021616681 0.040812947 0.050377063 -0.44000944 0.82699364 -0.34996188 0.00026724025
-0.019082431 0.041803509 0.049783587 -0.38903579 0.85186946 -0.35067025 0.00038342649
-0.016344219 0.04279197 0.049426287 -0.3352125 0.86628455 -0.37038299 0.00022145578
-0.014415644 0.043086879 0.048475593 -0.27261144 0.88748723 -0.37155005 0.00038417187
0.014984288 0.043076612 0.048392355 0.27847621 0.88026422 -0.38416913 0.00061021035
0.016838044 0.042977251 0.049592122 0.32989612 0.87279546 -0.35971746 0.00023219266
0.019639609 0.041766979 0.049479559 0.39041033 0.85399973 -0.34389564 0.00046642474
0.022172919 0.040780731 0.050104052 0.43736079 0.83516574 -0.33348727 0.00045621899
-0.015075998 0.043977015 0.050991446 -0.32009706 0.87231928 -0.36959025 0.00038220812
-0.013200601 0.044000074 0.0496291 -0.25931329 0.89137322 -0.37176642 0.00032155353
-0.010262762 0.04474631 0.049626194 -0.21657419 0.90068531 -0.37664509 0.00030883495
-0.0071865399 0.045372061 0.049596123 -0.15421756 0.91084468 -0.38285628 0.00019846112
-0.0038310927 0.045736052 0.049456269 -0.080313131 0.91962689 -0.38449466 0.00015390747
-0.0011586668 0.04578197 0.049251817 -0.030416917 0.92442882 -0.38013971 0.00019007907
0.0017290253 0.045788474 0.04930234 0.02998336 0.92452949 -0.37992933 0.00013422525
0.0046767616 0.045767903 0.049591348 0.077554695 0.91962272 -0.38507047 0.00021284378
0.0083038229 0.045322582 0.04961247 0.15635647 0.91088748 -0.38188565 0.00019094507
0.011055781 0.044695176 0.049466714 0.22513255 0.89832693 -0.37725848 0.00037156185
0.013790708 0.044083975 0.049858913 0.25761533 0.89375424 -0.36720261 0.00031314883
0.015638961 0.043957032 0.050831139 0.31124899 0.87846303 -0.36252841 0.00044249112
-0.047730912 0.0092963018 0.052904159 -0.9207437 0.3644689 -0.13926032 0.00020167556
0.045999233 0.015718494 0.053221166 0.89050418 0.42885584 -0.15193754 0.00022108307
0.045242224 0.01676077 0.051383555 0.88426006 0.43729645 -0.16387783 0.00043707812
0.043511763 0.020249445 0.051491559 0.85800129 0.48475417 -0.16984443 0.00025322687
-0.041274615 0.023214791 0.052291304 -0.8238945 0.5353803 -0.18591881 0.00065592292
-0.039047793 0.026804585 0.053460151 -0.78568369 0.55619228 -0.27083436 0.00030751451
-0.038054645 0.027548112 0.052005067 -0.76845354 0.59708524 -0.23014824 0.00075967936
0.038878202 0.027221452 0.051594347 0.77047062 0.59936476 -0.21711035 0.0002994019
0.039905548 0.026514035 0.053472683 0.79914451 0.56336564 -0.20973104 0.00099210057
-0.036805473 0.029684931 0.05310522 -0.73732591 0.6057772 -0.2989724 0.0006830112
-0.035163585 0.031050794 0.052182987 -0.70202798 0.6611163 -0.26472992 0.0011307718
0.035690647 0.03099956 0.051653668 0.70772725 0.66896081 -0.22718617 0.00013382868
0.037537377 0.029381525 0.052986756 0.74933487 0.6288662 -0.20742351 0.00068586122
-0.03406981 0.032742638 0.053113818 -0.6858263 0.66506809 -0.29551104 0.00069766608
-0.032217454 0.033896841 0.05160372 -0.64460921 0.71308386 -0.27566347 0.0012904664
0.032906793 0.034030955 0.05196476 0.64712894 0.70482314 -0.29060036 0.00068010623
0.03468008 0.032556798 0.052717216 0.70079368 0.65652514 -0.2790395 0.00035363311
-0.03095682 0.035592418 0.05299595 -0.62598187 0.72097993 -0.29721135 0.00025290097
-0.029054035 0.036703974 0.052060641 -0.58982676 0.74131751 -0.32023862 9.2163362e-05
0.029642956 0.03698311 0.052407034 0.58195478 0.7555598 -0.30076224 0.00024678753
0.031676076 0.035284314 0.052378841 0.62664092 0.72429913 -0.28759673 0.00040099767
-0.027196713 0.038359147 0.052577026 -0.55068487 0.77040738 -0.32127646 0.00017515275
-0.024993552 0.039668333 0.052162744 -0.48910221 0.80229557 -0.34219992 0.00018570696
0.026158355 0.039510801 0.052478611 0.51286829 0.79872888 -0.31463984 0.00021278148
0.028495679 0.037981126 0.052667789 0.55585003 0.77099764 -0.3107948 0.00013160537
-0.023888353 0.040766142 0.053267628 -0.48031035 0.80904967 -0.33873376 0.00020776273
-0.021947155 0.041613907 0.052696548 -0.43658221 0.83305085 -0.33973858 0.00013146386
-0.019479146 0.042687386 0.052302226 -0.38721955 0.85498023 -0.34506497 0.00018140097
0.020107191 0.042755239 0.052380949 0.38510132 0.85600507 -0.34489453 0.00012103644
0.022670148 0.041547626 0.052490279 0.43963563 0.83217502 -0.33794272 0.00016582283
0.024431707 0.040715285 0.052833945 0.46766087 0.82211787 -0.32467762 0.00018420776
-0.018066429 0.043685839 0.053328663 -0.37135631 0.86419034 -0.33951372 0.00013359013
-0.016389122 0.044080138 0.052592538 -0.32839781 0.8805989 -0.34161443 0.00022597439
-0.01313429 0.045172811 0.052581497 -0.25997302 0.90127367 -0.34658295 0.00027821158
-0.010175381 0.045762084 0.052105002 -0.20715314 0.9105171 -0.35783562 0.00022285146
-0.0061036982 0.046403207 0.051822513 -0.14156993 0.92258966 -0.35886812 0.00019079572
-0.0049358862 0.046331227 0.051267087 -0.10103064 0.92611521 -0.36346012 0.00044386167
0.0057934392 0.046329938 0.051257163 0.097486481 0.92655551 -0.36330599 0.00052494043
0.0066692149 0.046387471 0.051701173 0.14004458 0.92370945 -0.35657871 0.00027153015
0.011231163 0.045789815 0.052320622 0.2095218 0.90947151 -0.35911298 0.00032136729
0.014051694 0.045162901 0.052724615 0.26381683 0.89926493 -0.34888855 0.00019580981
0.016768059 0.044298492 0.052788273 0.32551926 0.88168401 -0.34157065 0.0002382735
0.018929899 0.04370705 0.053500563 0.37521487 0.86097586 -0.34341577 0.0001524926
-0.009046888 0.046656869 0.053780034 -0.20419018 0.91381162 -0.35107654 0.00022495717
-0.0071377456 0.046697453 0.052967735 -0.14922689 0.92450237 -0.35075173 0.00015626408
-0.0040850923 0.047158152 0.053154804 -0.089812212 0.93012428 -0.35609341 0.00012853828
-0.0011705605 0.047066219 0.052452132 -0.030622326 0.92984426 -0.3666766 0.00015667682
0.0017369131 0.047071867 0.052495249 0.031349584 0.92995358 -0.36633804 7.1229639e-05
0.0046500219 0.047151856 0.053106695 0.084511735 0.93193561 -0.35263821 0.00017176355
0.0080237407 0.046666123 0.052951366 0.14780805 0.92594469 -0.34753323 0.00018510199
0.009903593 0.046661265 0.053813815 0.20412487 0.91138285 -0.35737145 0.00025789248
-0.042740423 0.021725271 0.055612832 -0.86300492 0.46920973 -0.18725626 0.00081863586
0.043246616 0.021677513 0.054988921 0.85944772 0.48611075 -0.15825933 0.0003514608
-0.042205941 0.023233991 0.056177214 -0.83697021 0.50115985 -0.21981753 0.00076580985
-0.041174881 0.024647739 0.055559255 -0.8247872 0.51752949 -0.22779223 0.00066609867
0.041746955 0.024657223 0.055670448 0.83293515 0.50299877 -0.23067561 0.00049659924
0.042678937 0.022861648 0.055178881 0.85046995 0.50052875 -0.16177732 0.00077858754
-0.039926756 0.026637316 0.055559814 -0.80478597 0.53809208 -0.25055224 0.00023435822
-0.038522221 0.028032135 0.054150671 -0.78860533 0.55327666 -0.26830325 0.00028051308
0.0391213 0.028070729 0.054578781 0.78493655 0.57394999 -0.2333581 0.00029447119
0.040383853 0.026806094 0.055703454 0.80626887 0.543832 -0.23276004 0.00060640794
-0.03870853 0.028821442 0.056403816 -0.78045976 0.57138288 -0.25377977 0.00037328058
-0.037291966 0.030172892 0.055186823 -0.73961115 0.60629553 -0.29220057 0.00059905672
0.038020838 0.029900227 0.05541797 0.75992286 0.59817421 -0.25437149 0.00028950057
-0.036029201 0.031993952 0.055872411 -0.70928103 0.64930511 -0.27445072 0.00046883331
-0.034563422 0.033455927 0.055850714 -0.6831826 0.67455858 -0.27970031 0.00050201279
0.035433613 0.033183143 0.056053519 0.70215261 0.66131234 -0.26390857 0.00047583159
0.036973391 0.031814944 0.057039559 0.72181368 0.64229786 -0.25775671 0.000190254
-0.033120938 0.034951758 0.0561551 -0.65230036 0.70239067 -0.28487134 0.00014514761
-0.031334516 0.03636907 0.055715837 -0.62653792 0.72167611 -0.29433608 0.00026473141
0.031932328 0.036215566 0.05537264 0.62496066 0.72987169 -0.27696848 0.00013496926
0.033684414 0.034954455 0.056180671 0.65759432 0.70308203 -0.27063864 0.0001359009
-0.029847294 0.037501913 0.055364966 -0.60254955 0.73997951 -0.29893881 0.0001763498
-0.028194215 0.038778279 0.055439927 -0.57001024 0.76386768 -0.30264583 0.00027021702
-0.026006192 0.040056236 0.054684609 -0.51788747 0.79819489 -0.307697 0.00027115174
0.026566042 0.040048599 0.054617956 0.5297513 0.7938391 -0.29863539 0.00039034462
0.028678175 0.039008755 0.055755049 0.55991429 0.77629554 -0.28958809 0.00021833666
0.030403767 0.03749102 0.055265874 0.61461318 0.73689055 -0.28150138 8.228275e-05
-0.025046755 0.041065373 0.055823192 -0.500808 0.80588138 -0.31582692 0.00030152846
-0.022720933 0.042326361 0.055588536 -0.45892623 0.82778651 -0.32273239 0.0001266254
-0.02016655 0.043273374 0.054720372 -0.39250633 0.85725045 -0.33325738 0.00022020408
0.021031208 0.043299973 0.054938108 0.39731455 0.85831845 -0.32470086 0.00015009381
0.023112265 0.042511053 0.055668615 0.45202762 0.83676147 -0.3090328 0.00032351757
0.025530534 0.041204654 0.05600933 0.49875122 0.81362772 -0.29875958 0.00026883729
-0.021123638 0.043490417 0.05649665 -0.41340309 0.84982878 -0.32693854 9.8512348e-05
-0.018982504 0.044220187 0.05575899 -0.3899146 0.85954201 -0.33038482 0.00021537795
-0.016486049 0.045227997 0.055657215 -0.33469361 0.87859756 -0.34065595 0.00034661207
-0.013455378 0.045994103 0.054979682 -0.27468124 0.89516747 -0.35103455 0.00021483735
0.014026045 0.046142526 0.055226013 0.26833507 0.89769226 -0.34949219 0.00028405228
0.017160079 0.045243718 0.05567129 0.33997756 0.87676543 -0.34014341 0.00030113439
0.019605875 0.044287138 0.055827834 0.39413133 0.86094612 -0.32160875 0.00013906778
0.021669118 0.043446861 0.056140333 0.41807809 0.84994686 -0.3206259 5.7991201e-05
-0.012719762 0.046818808 0.05653853 -0.26410148 0.89969558 -0.34756044 0.00032963845
-0.0099641159 0.047201976 0.0557243 -0.2091624 0.91271621 -0.35099888 0.0001620472
-0.0069512227 0.047729857 0.055603318 -0.14581506 0.92462099 -0.35187215 0.00014077376
-0.0041079498 0.048045255 0.055463061 -0.087817587 0.92813063 -0.3617481 0.00016414261
-0.0010521789 0.048341259 0.055728786 -0.025481593 0.93162882 -0.36251682 0.00020153321
0.0014924647 0.048205696 0.055407763 0.023041548 0.93272984 -0.35983914 0.00015539487
0.0046703299 0.048045166 0.05546236 0.08637429 0.92967635 -0.35810798 0.00014855019
0.0077420743 0.0476835 0.0554896 0.14404798 0.925879 -0.34928232 0.00018133235
0.011011042 0.047083311 0.055562459 0.21433255 0.91156602 -0.35086876 0.00023121353
0.012891561 0.047023401 0.056608379 0.26439771 0.90046299 -0.34534079 0.00028000865
-0.046680517 0.014968891 0.059948981 -0.89949858 0.39539438 -0.18591829 0.00024063642
-0.045052659 0.018402953 0.058365509 -0.89482957 0.4070217 -0.18333949 0.00044290136
0.045354266 0.019020218 0.058762789 0.88389283 0.43722534 -0.16603471 0.00020786491
-0.043901276 0.021074429 0.058647849 -0.88095999 0.42887881 -0.19993129 0.00045004822
0.044382308 0.020716552 0.05780293 0.87791222 0.44758633 -0.17010744 0.0004704443
-0.042599011 0.023505144 0.058357872 -0.84396958 0.48906314 -0.22030087 0.00031360745
0.042940907 0.023684926 0.058134675 0.85336161 0.48473278 -0.19185418 0.00027108705
-0.040283483 0.027468089 0.058807679 -0.81710476 0.53305352 -0.21953078 0.00013611026
0.040629547 0.027650885 0.058632702 0.80673176 0.54716527 -0.22314574 0.00026776464
-0.038978323 0.029709745 0.059666544 -0.77964723 0.58634037 -0.21989821 0.0003927474
-0.037952621 0.030430876 0.057928503 -0.77193564 0.59309447 -0.22881047 0.00027711585
0.038242303 0.030753333 0.05823078 0.75938934 0.60768127 -0.23248957 0.00024469936
-0.036319356 0.03295305 0.059632555 -0.73070443 0.64272928 -0.23015241 0.00035100122
-0.035071675 0.034042329 0.058734939 -0.69930363 0.67076957 -0.24706824 0.00050087145
0.035661321 0.034085225 0.059157208 0.70508128 0.66513377 -0.24588108 0.00036450097
0.036602147 0.03327575 0.059906691 0.73126924 0.6426242 -0.22864684 0.00015714312
-0.033611421 0.035534184 0.058914065 -0.66820347 0.69472986 -0.26618516 0.00033785609
-0.031820692 0.037068319 0.058569275 -0.63275868 0.7237649 -0.2752831 0.00029799639
0.032387659 0.037081562 0.058691792 0.64359546 0.71718454 -0.26726601 0.00030004382
0.034174692 0.035541717 0.058985241 0.67146713 0.69522983 -0.25649038 0.00025828631
-0.030632976 0.038033675 0.058421247 -0.61897498 0.73106492 -0.28707856 0.00023457011
-0.028521223 0.039737515 0.058558196 -0.57541531 0.76325381 -0.29383817 0.00034205115
0.029152663 0.039793123 0.058789022 0.5815255 0.7625941 -0.28333426 0.0003702277
0.031195791 0.038040169 0.058480375 0.6123966 0.73960608 -0.27920121 0.0003487161
-0.027110295 0.040803246 0.058607966 -0.55509728 0.77589512 -0.29975617 0.00018763421
-0.025236873 0.041962646 0.05844944 -0.50317425 0.80695736 -0.30924991 0.00038749157
-0.023275655 0.043143876 0.05847995 -0.47777894 0.81871039 -0.31849742 0.00017934186
0.023831299 0.043135829 0.05841355 0.46438795 0.82960129 -0.31000876 0.00020483219
0.02590715 0.041992538 0.058701813 0.51128095 0.80243295 -0.30772254 0.00028815513
0.027672779 0.040810965 0.058674455 0.55687433 0.77683705 -0.29396456 0.00020611177
-0.02182127 0.044075124 0.058867566 -0.4370535 0.83895946 -0.32423958 0.00024553289
