# .PCD v0.7 - Point Cloud Data file format
VERSION 0.7
FIELDS x y z normal_x normal_y normal_z curvature
SIZE 4 4 4 4 4 4 4
TYPE F F F F F F F
COUNT 1 1 1 1 1 1 1
WIDTH 547
HEIGHT 1
VIEWPOINT 0 0 0 1 0 0 0
POINTS 547
DATA ascii
0.022472085 0.079888269 -0.010652661 -0.30395779 0.91396087 -0.26885912 0.0015027251
0.025132151 0.080716729 -0.01084221 -0.25693113 0.9344191 -0.24667272 0.0026970899
0.034831651 0.080757588 -0.011127695 0.22757946 0.96181679 -0.15203938 0.0025498408
0.037321128 0.080029428 -0.010739839 0.31994647 0.93989307 -0.11931187 0.0027505704
0.039741069 0.07895007 -0.011282852 0.41861373 0.90207171 -0.10501979 0.0030128011
0.026372731 0.081192479 -0.010118622 -0.21508195 0.96054441 -0.17633547 0.0041758693
0.028553654 0.081407927 -0.010485966 -0.070177592 0.98460937 -0.16006096 0.0030219923
0.031424817 0.081374049 -0.010687579 0.046065904 0.97259194 -0.22790968 0.0029539485
0.033585206 0.081158735 -0.01015378 0.1546136 0.97332078 -0.16953287 0.0027923957
0.0084586469 -0.075135335 -0.0062235533 -0.47582361 -0.725151 -0.49774286 9.7424367e-05
0.010539295 -0.075495057 -0.0076505244 -0.4628596 -0.73694444 -0.49261937 9.5094962e-05
0.012323406 -0.076100796 -0.0083181523 -0.44972157 -0.7460497 -0.49108082 0.00017181452
0.0050775316 -0.072455287 -0.0069071678 -0.50393927 -0.69797438 -0.50879949 0.00049678411
0.0074409037 -0.073662452 -0.0075124335 -0.47682413 -0.72297591 -0.49994466 0.00013774114
0.0097040385 -0.074562319 -0.0083466191 -0.46834072 -0.72944683 -0.49856216 0.00019314431
0.0021211656 -0.069800898 -0.0072373673 -0.55408156 -0.63543934 -0.53778297 0.00021549821
0.0040662708 -0.070844598 -0.0079637151 -0.52967799 -0.66485655 -0.52669436 0.00027136639
0.0060722381 -0.071778931 -0.0087656947 -0.50100583 -0.69219148 -0.5194844 0.00014159128
-0.0010192472 -0.066966847 -0.007124261 -0.57809329 -0.59370494 -0.55975229 0.00027461513
0.0010955812 -0.068193555 -0.0080202809 -0.56559908 -0.62045479 -0.54326206 0.00010661657
-0.0039848057 -0.063996807 -0.0070400629 -0.56491983 -0.54503357 -0.61951917 0.0016895933
-0.0022377484 -0.065042071 -0.0078416504 -0.5957979 -0.56202608 -0.57371736 0.00065171672
-0.0092333071 -0.060366042 -0.0061516417 -0.34555092 -0.54901904 -0.76103395 0.0036552656
-0.007256398 -0.060925186 -0.0068486189 -0.43031895 -0.43850628 -0.78901064 0.0044685318
-0.0051144692 -0.061456919 -0.0080356859 -0.56834745 -0.37120324 -0.73429519 0.0061775432
0.048095856 -0.060506821 -0.008961549 0.94943088 0.28121087 0.13964751 0.0041115461
-0.041100293 -0.05709295 -0.0060229851 -0.33353901 -0.73833686 -0.58618301 0.010125994
-0.036785543 -0.057195984 -0.0066249995 -0.05120844 -0.75446278 -0.65434223 0.0070114164
-0.034959994 -0.057265665 -0.0066333804 0.024102885 -0.7515558 -0.65922904 0.0042605451
-0.030942457 -0.057275325 -0.00653903 0.043104284 -0.72040963 -0.69220805 0.0074082464
-0.028521726 -0.057374857 -0.0063567297 0.034875225 -0.67180556 -0.73990607 0.0060443459
-0.025323147 -0.057141047 -0.0062331608 0.070175499 -0.52126968 -0.85050178 0.0078434758
-0.022961076 -0.057246692 -0.0060593574 0.043876857 -0.56551081 -0.82357293 0.0040300642
-0.019618172 -0.057068657 -0.0060458528 -0.0015965167 -0.53485996 -0.84493923 0.0051720203
-0.015928783 -0.05734393 -0.0060588839 -0.12516357 -0.48744291 -0.86413741 0.0058585592
-0.013166763 -0.05757618 -0.0062638149 -0.16245048 -0.41437942 -0.89548844 0.0057974271
-0.010364118 -0.058282465 -0.0067034406 -0.29338461 -0.34731814 -0.89067143 0.0067209587
-0.0075739617 -0.058340836 -0.0078812763 -0.45223638 -0.27048448 -0.84989429 0.0056737312
-0.0057186126 -0.059106875 -0.0087698447 -0.57909673 -0.22489536 -0.7836256 0.0069191535
0.047109801 -0.057616368 -0.0081879115 0.9096902 0.36036223 0.20640436 0.0017049008
-0.051483974 -0.05485661 -0.0082142903 0.28790963 -0.75157392 -0.59350216 0.029608037
-0.048984185 -0.054541048 -0.008263546 0.25854144 -0.44878861 -0.85542101 0.035498302
-0.046619765 -0.054463565 -0.0071899509 0.12045971 -0.60962552 -0.78348339 0.034790184
-0.043532163 -0.054453351 -0.0075130053 -0.12405901 -0.63743967 -0.76044726 0.0090906899
-0.040569913 -0.055665802 -0.0070730629 -0.27604485 -0.63688356 -0.71984607 0.013337084
-0.037301082 -0.055798326 -0.0083660604 -0.098331824 -0.62786883 -0.77208257 0.016825678
-0.034419212 -0.05537951 -0.008414085 0.11388887 -0.49216154 -0.86302167 0.007640494
-0.031514701 -0.055421844 -0.0079662716 0.13724262 -0.4089992 -0.90215522 0.0080427006
-0.028474743 -0.05540752 -0.007551732 0.14034139 -0.40881273 -0.90176296 0.005091337
-0.025447065 -0.055412143 -0.0071262787 0.11806482 -0.36834893 -0.92216039 0.0085999994
-0.022439981 -0.055409562 -0.0068125338 0.089011848 -0.33067825 -0.93953651 0.0050215577
-0.019482749 -0.055382606 -0.006592209 0.049534105 -0.29209647 -0.95510519 0.0040444001
-0.016502662 -0.055455744 -0.0065480084 -0.034010451 -0.22697894 -0.97330564 0.0038357351
-0.013469059 -0.055440422 -0.0068002529 -0.1275208 -0.1954792 -0.97238177 0.0045651398
-0.010503396 -0.05541411 -0.0073843398 -0.27444997 -0.12878531 -0.95293838 0.0056963377
-0.007709749 -0.055453461 -0.0083612353 -0.40167573 -0.06411355 -0.91353494 0.0061092232
0.045937635 -0.055291742 -0.007647465 0.86417735 0.49018806 0.11363653 0.002068379
-0.048352137 -0.052644011 -0.0086182915 0.4035314 -0.24201843 -0.88237721 0.017801037
-0.046583191 -0.052394968 -0.0082790824 0.040285006 -0.21371613 -0.9760648 0.030311098
-0.043797482 -0.052732404 -0.0086674411 -0.14320171 -0.28576812 -0.94753885 0.0097379582
-0.04081687 -0.053396348 -0.008753567 -0.23868434 -0.36694989 -0.89909822 0.017309437
-0.033115488 -0.053911515 -0.008858351 0.17495877 -0.25528324 -0.95090479 0.0034025509
-0.030884363 -0.053117763 -0.0087898774 0.20486867 -0.22787316 -0.95189428 0.0058243345
-0.028470367 -0.052409153 -0.008472723 0.18723957 -0.16359061 -0.96859658 0.0043923291
-0.025544202 -0.052560162 -0.007911033 0.16312082 -0.16598433 -0.97254354 0.0047902223
-0.022583397 -0.052471634 -0.0074845441 0.13350634 -0.1036887 -0.98560888 0.006587761
-0.019617686 -0.052440878 -0.0071211667 0.086996794 -0.092068113 -0.99194509 0.0051538819
-0.01656072 -0.052487206 -0.006952533 0.017626811 0.0040413416 -0.99983644 0.0059101917
-0.013455193 -0.052446112 -0.0070405952 -0.082836449 0.082292512 -0.99315965 0.0059331846
-0.010508346 -0.052387077 -0.0074408161 -0.19926955 0.14285173 -0.9694767 0.0063946787
-0.007548498 -0.052458543 -0.0082517723 -0.33731535 0.17772631 -0.92446291 0.006613249
-0.0056739394 -0.051668692 -0.0088089928 -0.44291529 0.23322178 -0.8656984 0.0063836277
0.043935131 -0.052155267 -0.0079233386 0.77345198 0.6269691 0.09317553 0.0025220416
0.04514065 -0.053789966 -0.0079490803 0.81220549 0.57853872 0.074934795 0.0030080138
-0.04813781 -0.050076146 -0.008897841 0.36577171 -0.031787347 -0.93016165 0.033982933
-0.046642482 -0.049406052 -0.0087060519 0.064368881 0.013734935 -0.99783164 0.048535198
-0.044729609 -0.048725799 -0.0089284126 -0.13246082 0.13671581 -0.98171431 0.020564735
-0.030314544 -0.048681539 -0.0089096455 0.257056 0.1794717 -0.9495852 0.013570969
-0.028454883 -0.049370855 -0.0085846232 0.23625059 0.14969246 -0.9600926 0.0079860371
-0.025539748 -0.049510911 -0.0079579102 0.18745238 0.20317326 -0.96103185 0.0084873894
-0.022505835 -0.049449507 -0.0073934384 0.14738056 0.21868396 -0.96460158 0.0082178405
-0.019625448 -0.049430594 -0.0069209016 0.12166133 0.23067303 -0.96539551 0.0067339409
-0.016558172 -0.049466234 -0.0066237575 0.042268187 0.24636932 -0.96825385 0.0054813945
-0.013512317 -0.049497802 -0.006563995 -0.039326221 0.28478256 -0.95778507 0.0052731303
-0.010445893 -0.049512997 -0.0067902212 -0.12412995 0.33674496 -0.9333781 0.0060805841
-0.0074600107 -0.04953758 -0.0073822662 -0.24208616 0.40258649 -0.88279015 0.0060953256
-0.0046771052 -0.049271073 -0.008162898 -0.33494374 0.45231584 -0.82657307 0.0058118217
-0.0023583018 -0.048452448 -0.0086661633 -0.36885184 0.61820489 -0.69409734 0.0043960093
0.040699303 -0.048890293 -0.0078071994 0.6004492 0.79896039 -0.033512186 0.0029983527
0.042492375 -0.050559461 -0.0076802811 0.70021164 0.71197379 0.052886192 0.0028551826
-0.051443707 -0.045559917 -0.0079915682 0.11844431 0.78846633 -0.60356593 0.028199369
-0.049246162 -0.045849014 -0.007995002 0.20823067 0.74193174 -0.63732046 0.041343823
-0.04652831 -0.046394616 -0.0076859561 0.10588805 0.65154225 -0.75118601 0.048917819
-0.043535788 -0.046200354 -0.0078371009 -0.16388905 0.60058361 -0.78258532 0.018879199
-0.040720604 -0.046118796 -0.0081178695 -0.22821841 0.54846299 -0.80442816 0.010907583
-0.036936693 -0.045276482 -0.0087863319 -0.034610163 0.57521564 -0.81726933 0.018205293
-0.034311969 -0.045658197 -0.0084326742 0.18867314 0.55401212 -0.8108471 0.010318596
-0.031415131 -0.046347454 -0.0081598153 0.22629893 0.50115782 -0.83524227 0.0072861915
-0.028518952 -0.04642877 -0.0074746548 0.19986911 0.49874863 -0.84338725 0.0087008262
-0.025539732 -0.046655744 -0.0069294651 0.17018497 0.50182939 -0.84805918 0.0072403145
-0.022562919 -0.04703759 -0.0065690312 0.14820883 0.49306801 -0.85727358 0.0066608246
-0.019612961 -0.047455121 -0.0062699802 0.12904146 0.45629436 -0.88042247 0.0090735862
-0.017086349 -0.047594514 -0.0060941651 0.069352709 0.5007543 -0.86280662 0.0045818808
-0.013370221 -0.047873281 -0.0060353028 0.0070903352 0.51861876 -0.85497624 0.0041247113
-0.0099290833 -0.047881115 -0.0061361776 -0.089453422 0.55980271 -0.82378328 0.0032756582
-0.0072728191 -0.047530342 -0.0063322517 -0.16398232 0.58720756 -0.79265201 0.003384521
-0.004397193 -0.047150578 -0.0067813084 -0.2265998 0.6289053 -0.74372751 0.0038113333
-0.0015007587 -0.04670513 -0.0073836134 -0.27426362 0.69924223 -0.66018158 0.003060749
0.0013167938 -0.045952495 -0.0076925489 -0.25591096 0.773938 -0.57924908 0.00049297063
0.0042183516 -0.045487985 -0.0083512915 -0.23605406 0.79126143 -0.56407791 0.00022906916
0.0065969042 -0.045199543 -0.0088891229 -0.19229628 0.81427944 -0.54769617 0.00014694691
0.032555934 -0.045148339 -0.0075451955 0.28969038 0.95491952 -0.064870209 0.0021313725
0.034404535 -0.045736071 -0.0076919119 0.29404977 0.95365232 -0.063890785 0.0018076306
0.03741638 -0.046858948 -0.0077896677 0.42002797 0.90736359 -0.016364541 0.003777866
0.039184093 -0.047806174 -0.007808893 0.5569185 0.83055806 -0.0038915169 0.004832698
-0.051206559 -0.044891786 -0.006272058 0.092982396 0.87217653 -0.48027328 0.0034498658
-0.049462799 -0.044875175 -0.0061399131 0.014671936 0.91984528 -0.39200696 0.019846244
-0.046678014 -0.04493019 -0.0061899479 0.0045503802 0.86983019 -0.49333027 0.0037255327
-0.042755198 -0.044875029 -0.0060812859 -0.15847278 0.75010419 -0.64205146 0.013420599
-0.039825268 -0.043931376 -0.0072006709 -0.22007361 0.75359613 -0.61940324 0.015638309
-0.037581701 -0.044146474 -0.0074247741 -0.0057731424 0.81491095 -0.57955748 0.01470491
-0.034635704 -0.044283252 -0.0069467523 0.13709177 0.78715414 -0.60132712 0.0066189789
-0.031672865 -0.04459089 -0.0066404692 0.14586657 0.73231983 -0.66515458 0.0058078184
-0.029141277 -0.044745188 -0.0062016635 0.1483978 0.71333003 -0.68493676 0.0028550867
0.002251975 -0.044646621 -0.0063119791 -0.23758121 0.7826376 -0.57535511 0.00027866612
0.0045540072 -0.044415142 -0.0069471449 -0.21913213 0.80408925 -0.55264962 0.00017405422
0.0075575518 -0.044004172 -0.0074314228 -0.17596351 0.82146406 -0.54243314 0.00020114558
0.010490519 -0.043472689 -0.0074650836 -0.12975872 0.8389346 -0.52853698 6.5594621e-05
0.013470585 -0.043134805 -0.0075474847 -0.084984757 0.85448867 -0.5124712 0.00031757166
0.016518569 -0.04289363 -0.0075477255 -0.021243472 0.88229138 -0.47022405 0.001245124
0.019515758 -0.042822536 -0.0075073461 0.040168803 0.91328919 -0.40532634 0.0027106982
0.022522127 -0.043039173 -0.0075202393 0.10257644 0.93427747 -0.34147277 0.0031897908
0.025457932 -0.043479007 -0.0076236366 0.16999772 0.94654298 -0.27414805 0.0042712805
0.028431503 -0.044048201 -0.007495448 0.20314673 0.96195412 -0.18268993 0.0032901503
0.03097705 -0.044695664 -0.007545054 0.26080796 0.96055496 -0.096505545 0.0029177454
-0.036413621 -0.015382218 -0.0060544903 -0.34642157 -0.17578101 -0.92146248 0.029851878
-0.035165828 -0.015455293 -0.0061393282 -0.019176697 -0.2130352 -0.97685629 0.016003551
-0.036605615 -0.013246146 -0.0063083316 -0.32181537 -0.14816278 -0.93513775 0.018452797
-0.034518238 -0.013431825 -0.0064594354 -0.0081835398 -0.17926838 -0.98376614 0.0153902
-0.032243297 -0.012732615 -0.0061628097 0.19784193 -0.20520872 -0.95851338 0.00099044037
-0.036978137 -0.010417732 -0.0065802461 -0.35548899 -0.14140877 -0.92392159 0.010542897
-0.034501284 -0.010502608 -0.007038407 -0.053851981 -0.15628666 -0.98624253 0.013567007
-0.031554412 -0.010420152 -0.0065013762 0.21415119 -0.18766862 -0.95860296 0.00019746066
-0.029434755 -0.0096407114 -0.0061270688 0.24516806 -0.18440197 -0.95178175 8.6117325e-05
-0.036980107 -0.0073496946 -0.0069605452 -0.33634126 -0.096906975 -0.93674093 0.015976163
-0.034499444 -0.0074880365 -0.0075522051 -0.10439462 -0.14080323 -0.98451829 0.016667949
-0.031510323 -0.0075545218 -0.0070392117 0.20789011 -0.15206893 -0.96625912 0.0004392711
-0.028837642 -0.0072972365 -0.0063742679 0.25778598 -0.15153886 -0.95424438 0.00011600587
-0.026971873 -0.0065340493 -0.0060744286 0.26598382 -0.14564848 -0.9529109 0.00012245303
-0.03717529 -0.0044461093 -0.0070703737 -0.37002131 -0.043075152 -0.92802417 0.016480004
-0.03449576 -0.0044844514 -0.0079259211 -0.14943905 -0.099246718 -0.9837774 0.018263668
-0.031466659 -0.0045666727 -0.0074664354 0.21407661 -0.10674722 -0.97096664 0.00063838839
-0.028558113 -0.004480707 -0.006677805 0.26669216 -0.10739643 -0.95777935 0.00011352958
-0.026527824 -0.0040511228 -0.0061383019 0.2665866 -0.10634328 -0.95792627 9.522427e-05
-0.037280414 -0.0014339341 -0.0071031861 -0.37397775 -0.0052338759 -0.92742294 0.014402188
-0.034448002 -0.0014672996 -0.0081711141 -0.1169978 -0.049495231 -0.991898 0.010374759
-0.0315325 -0.0015704954 -0.0077445828 0.18442285 -0.047914937 -0.98167837 0.0038315223
-0.02855861 -0.0015106545 -0.0069305412 0.26023149 -0.046103939 -0.96444482 0.00020766405
-0.026102386 -0.0012640493 -0.00625691 0.26230064 -0.049028106 -0.96373993 0.00029813233
-0.037195202 0.0014637263 -0.0071576559 -0.43198496 0.0034396397 -0.90187424 0.018311925
-0.034428272 0.0014579952 -0.0081963995 -0.07081981 0.026938079 -0.99712533 0.010255911
-0.03154131 0.001505246 -0.0077663823 0.18492505 0.024760615 -0.98244071 0.0038769443
-0.028579146 0.0014971165 -0.006966047 0.25632161 0.025344044 -0.96625924 0.00020875911
-0.026033545 0.0013829622 -0.0062851408 0.25626886 0.01836439 -0.96643108 0.00029594489
-0.037125245 0.004535221 -0.0071125943 -0.41805181 0.026290229 -0.90804267 0.020728823
-0.034305643 0.0045292187 -0.0080369832 -0.17202121 0.098650746 -0.98014116 0.020372279
-0.031445201 0.0045065521 -0.0075355233 0.21754035 0.083233997 -0.97249591 0.00045409272
-0.028492881 0.004489426 -0.0067574331 0.25014028 0.08139734 -0.964782 0.00012149945
-0.026187008 0.0043232348 -0.006159185 0.24482015 0.075490758 -0.96662515 0.00013555591
-0.037026793 0.0075133783 -0.0069414801 -0.36831167 0.072923109 -0.92683798 0.017956408
-0.034366142 0.0075286496 -0.0077151954 -0.10950614 0.12275703 -0.98637676 0.015308793
-0.031465471 0.007482626 -0.0072021838 0.21355668 0.12171843 -0.96931839 0.00028179507
-0.02856495 0.0074826046 -0.0064473599 0.24214669 0.1150139 -0.96339858 8.424314e-05
-0.026640987 0.0068797404 -0.0061023799 0.23496673 0.10896536 -0.9658764 6.1493251e-05
-0.036902163 0.010424384 -0.0067292713 -0.42225516 0.11452647 -0.89921314 0.0087285908
-0.034473147 0.010455948 -0.007295555 -0.087120913 0.13994344 -0.9863193 0.014311093
-0.031499825 0.010420452 -0.0067753079 0.20275271 0.15504478 -0.96687764 0.00026233707
-0.029056445 0.010187282 -0.0062263529 0.2293071 0.14595141 -0.96234941 0.00014888246
-0.036687672 0.013391485 -0.0064003393 -0.42304662 0.13994454 -0.89523578 0.01192848
-0.034393694 0.013544132 -0.0067153177 0.02208093 0.16035073 -0.98681313 0.0073364438
-0.031785306 0.013193979 -0.0063367202 0.19413304 0.18074584 -0.96418011 0.00017571829
-0.029557195 0.012441876 -0.0060663484 0.21225278 0.17917792 -0.96064776 9.7778102e-05
-0.036414314 0.015640857 -0.0061333678 -0.38532043 0.17140299 -0.90672445 0.021497244
-0.034717929 0.016057542 -0.0062060561 -0.025986288 0.18446362 -0.98249573 0.0092842812
-0.032595687 0.01542354 -0.0060900021 0.13651772 0.19749635 -0.97075129 0.0020350597
-0.040000502 0.044484284 -0.0072782836 -0.2437038 -0.71938044 -0.65046161 0.016727878
-0.03785732 0.04458423 -0.0074333879 -0.081410386 -0.77190077 -0.63050896 0.017659543
-0.034539845 0.044601705 -0.006670827 0.13124317 -0.79973954 -0.5858258 0.005766809
-0.031987082 0.044832598 -0.0064156763 0.13745095 -0.76514983 -0.62900954 0.0026699272
0.0025106268 0.044848204 -0.0060276436 -0.23171069 -0.78655869 -0.57239461 0.00020255806
0.0049418258 0.044419058 -0.0063916389 -0.21229795 -0.80050427 -0.56046629 0.00022176653
0.0076712249 0.044310357 -0.0071549499 -0.17444597 -0.82282251 -0.54086202 9.3214403e-05
0.010583717 0.044007733 -0.007553461 -0.13683333 -0.83632213 -0.53088796 0.00016024323
0.013447478 0.043540224 -0.0074147759 -0.07883922 -0.85790467 -0.50772434 0.00024150399
0.016514398 0.043334905 -0.0074949097 -0.030395305 -0.87818635 -0.47735196 0.00071019103
0.019418657 0.043375399 -0.0076538823 0.032828387 -0.90348029 -0.42737061 0.0021465356
0.022437194 0.043617561 -0.0078156367 0.066063173 -0.92302692 -0.37902114 0.0023433066
0.024893891 0.043983757 -0.0079490673 0.10674186 -0.93095738 -0.34917697 0.00137242
0.028163247 0.04452078 -0.0075295926 0.19414374 -0.95668548 -0.21693563 0.003161262
-0.051392466 0.045834117 -0.00728158 0.18745354 -0.85243618 -0.48807141 0.02481338
-0.048864637 0.046403158 -0.007890705 0.26841897 -0.59440053 -0.75804967 0.026023142
-0.046589151 0.046874341 -0.0077055246 0.11512456 -0.5722388 -0.81196618 0.027307466
-0.043495923 0.046915352 -0.0080932043 -0.14954692 -0.58842176 -0.79460412 0.01652305
-0.04058395 0.046641786 -0.0082808854 -0.24689496 -0.54954213 -0.79815179 0.015250966
-0.037026666 0.045406252 -0.0084023997 -0.037075106 -0.58169401 -0.81256235 0.018258693
-0.034304399 0.0459795 -0.0082550338 0.18202892 -0.55327368 -0.81286752 0.0088728154
-0.031427141 0.046674863 -0.0080296006 0.22942288 -0.50410247 -0.83261383 0.0079911323
-0.028528469 0.046738576 -0.0073669381 0.1817942 -0.54221606 -0.82033688 0.0072099627
-0.025540374 0.047034319 -0.006867785 0.16756465 -0.5502156 -0.81803727 0.0072364341
-0.022638015 0.047322188 -0.0064742677 0.15308373 -0.53493404 -0.83090973 0.0056683463
-0.019629015 0.047673732 -0.0061332397 0.1280683 -0.52555227 -0.84106684 0.0043398798
-0.017598853 0.047884688 -0.0060620066 0.070981584 -0.53980005 -0.83879536 0.0038553288
-0.0066446024 0.047660228 -0.0062165707 -0.14912902 -0.63445151 -0.75844032 0.0035479805
-0.0043402272 0.047305316 -0.0065083746 -0.22183885 -0.66662538 -0.71161646 0.0033799175
-0.0017113067 0.047254011 -0.0073623415 -0.29172924 -0.6630879 -0.6893537 0.0045974334
0.0014288579 0.046258677 -0.007512481 -0.25335458 -0.77908844 -0.57343936 0.00063422706
0.0043595512 0.045591384 -0.0078733861 -0.22697127 -0.79748327 -0.55902094 0.00022133871
0.0072807036 0.045337297 -0.0085873604 -0.18730776 -0.81827122 -0.5434593 0.00014033131
0.02973167 0.045062363 -0.00873191 0.17903876 -0.96318901 -0.20052959 0.0032263678
0.031539746 0.045393214 -0.0076545384 0.2417767 -0.96317226 -0.11765762 0.0027243933
0.034392163 0.046233304 -0.0078489203 0.30264634 -0.9529525 -0.016934033 0.0019096669
0.037568051 0.04742315 -0.0083022583 0.41417584 -0.90963775 -0.031898614 0.0044895923
-0.048198428 0.048911404 -0.0088620698 0.30250978 -0.22620195 -0.92591602 0.036111187
-0.04662782 0.04948768 -0.0086725177 0.089285135 -0.063727461 -0.99396533 0.054182138
-0.044539232 0.048739612 -0.0089256288 -0.11175007 -0.21998605 -0.96908098 0.019672366
-0.030428002 0.048839081 -0.008867438 0.26670021 -0.17207879 -0.94829321 0.0093121035
-0.028448319 0.049491432 -0.008528538 0.22916208 -0.16865014 -0.95866674 0.0076740221
-0.025566736 0.049504887 -0.0078906408 0.18799599 -0.24062507 -0.9522379 0.0089895576
-0.022498405 0.04949281 -0.0073017483 0.15550385 -0.26015103 -0.95296383 0.0083905868
-0.019517487 0.049609836 -0.0068350467 0.11338155 -0.26007697 -0.95890802 0.0067057223
-0.016521329 0.049611706 -0.0065342248 0.048160359 -0.27705339 -0.95964682 0.005968058
-0.013523725 0.049709272 -0.0064865635 -0.022043688 -0.32303399 -0.94613063 0.0065737111
-0.010491624 0.04957122 -0.0066205501 -0.10176646 -0.38374853 -0.91781294 0.0063975211
-0.0075354315 0.049481932 -0.0071073161 -0.19787318 -0.43302971 -0.87939268 0.0065076225
-0.0046701701 0.049343895 -0.0079216743 -0.31485662 -0.49513492 -0.80975717 0.0056101121
-0.0018787406 0.048586965 -0.0086130723 -0.38929582 -0.59297937 -0.70485759 0.0034302948
0.040478189 0.049254511 -0.0077828448 0.57722425 -0.81621122 0.024727473 0.0037896545
0.042414609 0.050970212 -0.0074705752 0.67534608 -0.73739851 -0.012298226 0.0075728032
-0.048320234 0.052800883 -0.0086921342 0.43718418 0.27473742 -0.85638165 0.019903166
-0.046540022 0.052483719 -0.0084306886 0.11105513 0.24818009 -0.96232712 0.049940389
-0.043880608 0.053103801 -0.0087543279 -0.17063177 0.36521909 -0.91515017 0.013939712
-0.040642161 0.053741444 -0.0088650221 -0.21257037 0.37065542 -0.90411747 0.0095492331
-0.030640071 0.053191084 -0.0088531179 0.21444747 0.15786307 -0.96389395 0.0036018451
-0.028459357 0.052606996 -0.008531834 0.20103772 0.12859292 -0.97110641 0.0046511944
-0.025577275 0.052488912 -0.0079933526 0.18472393 0.096347421 -0.97805637 0.0033082149
-0.022506135 0.052483577 -0.0075266897 0.13472423 0.1053022 -0.98527193 0.0056291097
-0.019465612 0.052548006 -0.0071385056 0.090362765 0.060572904 -0.99406511 0.0053414754
-0.01653235 0.052553561 -0.0069678645 0.016160715 -0.062672868 -0.99790329 0.005551571
-0.013536596 0.052522708 -0.0070252679 -0.072058149 -0.11420052 -0.99084103 0.006053491
-0.010507714 0.052476246 -0.0073977001 -0.19983038 -0.16806586 -0.96530908 0.0064076111
-0.0075471965 0.05249238 -0.0081720622 -0.32317191 -0.20746888 -0.92331827 0.0066863238
-0.0055012256 0.05163921 -0.0087226601 -0.40322348 -0.27904758 -0.87151778 0.0066374228
0.043654203 0.0523615 -0.007745001 0.74198043 -0.66916209 -0.041074943 0.0024468934
-0.051231634 0.055483233 -0.0078038662 0.2356047 0.78230107 -0.57662416 0.032538749
-0.049237877 0.055255335 -0.0077198991 0.27207026 0.78124857 -0.56180817 0.030746371
-0.046584353 0.054936558 -0.0070951437 0.083381079 0.79401302 -0.60215515 0.033878312
-0.04349583 0.054906592 -0.0074961148 -0.16974673 0.67487675 -0.71814162 0.017569473
-0.040524568 0.055330228 -0.0078182667 -0.28627688 0.60225785 -0.74520546 0.016079048
-0.037459165 0.056285154 -0.0084820744 -0.10879187 0.60710752 -0.78713709 0.0118358
-0.034371313 0.055928979 -0.0083944369 0.10497063 0.5233323 -0.84563851 0.008359421
-0.031486623 0.05553757 -0.0081821065 0.12901144 0.4437342 -0.88682353 0.0062058107
-0.028515717 0.055551391 -0.0077301902 0.13896006 0.41912323 -0.89723235 0.0085906992
-0.025515407 0.055603907 -0.0072675324 0.11786643 0.37578064 -0.91918248 0.0082758926
-0.022553885 0.055482138 -0.0069769542 0.091997065 0.30882937 -0.94665778 0.0055304705
-0.019528801 0.055470582 -0.006721843 0.047847111 0.25177315 -0.9666028 0.0044424585
-0.016527439 0.055551481 -0.0066547152 -0.020839322 0.20486379 -0.97856867 0.0043341704
-0.013587855 0.055555671 -0.0068689305 -0.11569747 0.16783552 -0.97900218 0.0048015714
-0.010499381 0.055533517 -0.0074527171 -0.26842928 0.099878997 -0.95810741 0.0060823821
-0.0077272188 0.05551606 -0.0083848275 -0.39974743 0.031697869 -0.91607708 0.0070461449
0.045891736 0.055382852 -0.0084369555 0.82707137 -0.56206721 0.0057837535 0.0021302896
-0.039949615 0.057406142 -0.0067638401 -0.28829816 0.75362599 -0.59070486 0.013656698
-0.037489995 0.057444412 -0.0069862478 -0.12626298 0.7853806 -0.60599911 0.012810141
-0.034499619 0.057532638 -0.0069213253 0.023010286 0.75697225 -0.65304172 0.0091799842
-0.031485077 0.057593185 -0.0067415643 0.031969432 0.7054882 -0.70800018 0.0082221059
-0.028506994 0.057632428 -0.0065065045 0.046279028 0.67959672 -0.73212457 0.006509481
-0.025503313 0.057502791 -0.0063497201 0.055066541 0.62093115 -0.78192848 0.0064305738
-0.022558488 0.057344276 -0.0062219538 0.040944032 0.55473375 -0.83101988 0.0058028027
-0.019613877 0.057210516 -0.0061619882 0.0013550896 0.4900853 -0.87167346 0.0052787238
-0.016329385 0.057449203 -0.0061349249 -0.065148182 0.43991345 -0.89567399 0.006018097
-0.013224303 0.057903718 -0.0063380315 -0.15518658 0.3858813 -0.90940237 0.0062282849
-0.010430269 0.058456212 -0.0068125376 -0.28106597 0.33965728 -0.89757168 0.006450674
-0.0075688665 0.058552314 -0.0079970909 -0.45879334 0.24347667 -0.85453361 0.0062469877
-0.0057113767 0.059526805 -0.0088249566 -0.58137512 0.23610252 -0.77862608 0.0058624782
-0.0095649138 0.060496315 -0.0062072179 -0.33685485 0.51258075 -0.78980362 0.0042145704
-0.0072871554 0.061204936 -0.0069800466 -0.4510065 0.47130355 -0.7579354 0.0041779079
-0.0052055605 0.061701667 -0.0081652952 -0.57041979 0.39694297 -0.71906716 0.0044323541
-0.0061622816 0.063269667 -0.006214893 -0.50060195 0.55383056 -0.66533417 0.0018297447
-0.0041910955 0.064135648 -0.0071747475 -0.57868379 0.53347468 -0.61687094 0.0012247165
-0.0021434778 0.065186054 -0.0082739526 -0.6071381 0.53563625 -0.58692187 0.001097072
-0.0030255427 0.066015705 -0.0065776804 -0.5801149 0.57006472 -0.58180147 0.00027429641
-0.0012780786 0.067243524 -0.0071527637 -0.58533853 0.5853678 -0.56100208 0.00022071123
0.00083250087 0.068289831 -0.0082788179 -0.57968497 0.60371161 -0.54726386 0.00020324648
-0.00028310146 0.06907253 -0.0061658318 -0.56812495 0.61543888 -0.54632324 0.00018786997
0.0018037921 0.070038594 -0.0072284471 -0.55496556 0.6354534 -0.53685397 0.00019091264
0.003998471 0.07125482 -0.0080299024 -0.52900136 0.66532195 -0.52678674 0.0001890601
0.046411898 0.071482413 -0.0088488776 0.83027619 0.51285243 0.21822903 0.0025348233
0.0029155177 0.072038837 -0.0060412032 -0.51840413 0.67830747 -0.52072668 0.00036248969
0.0048969942 0.072781138 -0.0069500059 -0.50646633 0.68954182 -0.51771027 0.00039005527
0.0073509743 0.073951975 -0.007726796 -0.47701654 0.72673917 -0.49427268 0.00047172265
0.0095932372 0.074706234 -0.0087640658 -0.45177764 0.74462569 -0.49135485 0.00034272773
0.044740871 0.074413724 -0.0088551119 0.75499636 0.61851591 0.2177581 0.0049866559
0.008490447 0.075388595 -0.0066729547 -0.45441249 0.75979465 -0.46499601 0.0011720466
0.010687905 0.076108895 -0.007546565 -0.43143097 0.78476673 -0.44498146 0.001185801
0.013438143 0.077312179 -0.0079251872 -0.40265694 0.8257845 -0.39490181 0.0015103943
0.015299796 0.077814594 -0.0087161269 -0.3626405 0.86896002 -0.3367497 0.0046397923
0.041254491 0.077337064 -0.0073764184 0.56614095 0.80502373 0.17726049 0.0043108636
0.042993907 0.076117918 -0.0082547264 0.65454382 0.74207431 0.14456196 0.002348132
0.014280519 0.078114092 -0.0066953385 -0.35909954 0.88096839 -0.30812696 0.003527117
0.01653742 0.078672007 -0.007586333 -0.32516462 0.91116446 -0.25307542 0.0021363131
0.019420601 0.079620808 -0.0075825984 -0.28702593 0.94140196 -0.17713967 0.0033191859
0.022401733 0.080422387 -0.0078932056 -0.27595466 0.95515084 -0.10740556 0.002196345
0.024380397 0.080915064 -0.0069638831 -0.23066309 0.97105211 -0.062067971 0.0022785319
0.035070471 0.080706924 -0.0075684614 0.30744708 0.94346732 0.12387794 0.0025140983
0.037426576 0.079796828 -0.0076518855 0.40579048 0.90544307 0.12452715 0.0032985709
0.039661303 0.078586727 -0.0076160231 0.50709271 0.84809875 0.15357614 0.0024860159
0.025563324 0.081175804 -0.0080364011 -0.21224843 0.97454369 -0.072216086 0.0027389522
0.028081208 0.081579722 -0.0078632291 -0.069005169 0.99761122 -0.0031870489 0.0031297696
0.03181196 0.081517622 -0.0081630033 0.066701509 0.99573499 -0.063740209 0.0028184312
0.033516608 0.081164382 -0.007835065 0.23567209 0.96824467 0.083432116 0.0033075735
0.0078510335 -0.075268887 -0.0053189951 -0.46732691 -0.73495483 -0.49137262 7.2948387e-05
0.0020021831 -0.07259775 -0.0037112087 -0.51082921 -0.69399518 -0.50736988 0.00099575229
0.0043488941 -0.073498234 -0.0047321897 -0.49098378 -0.71250433 -0.50127095 0.00047252752
0.0065955822 -0.074788332 -0.0049350644 -0.48227811 -0.72517961 -0.49144921 0.00021162935
-0.00079102168 -0.069814883 -0.0042349584 -0.54867333 -0.62911701 -0.55060816 0.00018663073
0.0012817984 -0.070946798 -0.0050163884 -0.53788829 -0.6496858 -0.53720057 0.00028709523
-0.0063402136 -0.066091053 -0.0030992043 -0.45276901 -0.61462593 -0.6459375 0.00076882262
-0.0040630559 -0.066924065 -0.0042009708 -0.53295273 -0.59106535 -0.60547757 0.000721697
-0.0018704622 -0.068142965 -0.0050173267 -0.55749035 -0.60548389 -0.56797343 0.00025520276
-0.0096817371 -0.063492924 -0.0033482905 -0.33901912 -0.62336421 -0.70461559 0.0010193581
-0.007251218 -0.064282686 -0.0040975572 -0.44120145 -0.59673232 -0.67026258 0.0011563729
-0.0050652744 -0.064974993 -0.0051182024 -0.51796734 -0.58129007 -0.62754416 0.0011682427
-0.021523733 -0.06023667 -0.0031541944 -0.079349592 -0.74291527 -0.6646657 0.0016997234
-0.018609185 -0.060144525 -0.0037009092 -0.098673888 -0.6753844 -0.73083466 0.0025384151
-0.015812172 -0.060421169 -0.0038987037 -0.13333482 -0.5829103 -0.8015219 0.0027577428
-0.012986318 -0.060910523 -0.0042090532 -0.24350065 -0.52719015 -0.81411171 0.0039928816
-0.010550612 -0.061577395 -0.0046129338 -0.32743689 -0.56980997 -0.75372517 0.0031560792
-0.0078903353 -0.062327713 -0.0054030246 -0.44944337 -0.5861026 -0.67415458 0.0011104465
-0.042437412 -0.057513256 -0.003994572 -0.30923223 -0.84191298 -0.44221938 0.0081740115
-0.040447269 -0.05769071 -0.0046256422 -0.26957595 -0.83996993 -0.47093457 0.012589128
-0.037140429 -0.058294859 -0.004227797 -0.10744313 -0.88735801 -0.44838789 0.00069411617
-0.034166418 -0.058143441 -0.0050655631 -0.018462304 -0.81181204 -0.58362693 0.0016052233
-0.03138648 -0.058573596 -0.0046299486 0.0050078179 -0.78090656 -0.62462783 0.0033461349
-0.028453073 -0.058856636 -0.0044030845 -0.024974138 -0.78847623 -0.61455804 0.005344653
-0.025531212 -0.05848825 -0.004928208 0.038017742 -0.60385638 -0.79618597 0.0056501231
-0.022412628 -0.058305632 -0.0050944281 0.0097215269 -0.56025159 -0.82826543 0.0060997247
-0.019455874 -0.058356341 -0.0051318374 -0.017694222 -0.50719863 -0.86164749 0.0063415593
-0.016534291 -0.058415744 -0.0053373799 -0.091677278 -0.51068014 -0.85486907 0.0053895805
-0.013695575 -0.058833595 -0.0055473126 -0.18913306 -0.45211664 -0.87167609 0.0056378189
-0.011208051 -0.059639093 -0.005757052 -0.32334119 -0.46407363 -0.82467341 0.0027016997
0.046503332 -0.058304302 -0.0059112594 0.90969443 0.36035335 0.20640148 0.0016884526
-0.049728829 -0.05573513 -0.0048230737 0.13021471 -0.92390954 -0.35977128 0.016385136
-0.046516459 -0.055501901 -0.0056082634 0.0096459016 -0.87879241 -0.47710672 0.02866317
-0.04350277 -0.056005307 -0.0050133332 -0.22276616 -0.82650858 -0.51697075 0.015434063
-0.041714981 -0.056468338 -0.0051409667 -0.31847739 -0.78113431 -0.5370301 0.010929031
-0.019581644 -0.056851521 -0.0059600747 0.042856801 -0.26966476 -0.96200013 0.002556765
0.044886962 -0.054851737 -0.0051257443 0.82522434 0.49141017 0.27842575 0.0040458441
0.043176685 -0.052281395 -0.0049610399 0.73313969 0.6111362 0.29836032 0.0028084656
-0.05181133 -0.048597567 -0.0032616165 -0.95448613 0.27173334 -0.12295262 0.036913052
-0.014025903 -0.048096858 -0.0059251399 -0.007238986 0.42549598 -0.90493137 0.012133851
-0.011799657 -0.048147336 -0.0059757265 -0.10695929 0.44916633 -0.88702273 0.014134664
0.038533881 -0.048326142 -0.0039028535 0.52130193 0.79384488 0.31313682 0.0039358325
0.040116996 -0.049016424 -0.0052330974 0.62563109 0.76544356 0.15060514 0.0027582753
-0.051765613 -0.047455482 -0.0031112712 -0.9338212 0.30475113 -0.1873627 0.036697164
-0.025235243 -0.045219675 -0.0057831812 0.15046579 0.68302387 -0.71472961 0.0013001877
-0.022344217 -0.045578718 -0.0054934262 0.14241296 0.62583172 -0.7668463 0.0027804633
-0.019405758 -0.045958657 -0.0052705738 0.12394366 0.57020462 -0.81209892 0.0054673441
-0.016452154 -0.046297025 -0.0051382133 0.074152008 0.5649457 -0.82178944 0.0040553198
-0.013490696 -0.046360184 -0.0049967854 0.019495886 0.57059789 -0.82099813 0.0034295523
-0.01056274 -0.0463023 -0.0049934089 -0.054965537 0.58588743 -0.80852628 0.0034443147
-0.0075881123 -0.046031356 -0.0050814939 -0.11939233 0.61793071 -0.77711463 0.0033412855
-0.0046215984 -0.045651924 -0.005289685 -0.16154312 0.70564824 -0.68990177 0.0013215077
-0.0017646607 -0.045328822 -0.0056375465 -0.19960025 0.74603069 -0.63529354 0.0013429876
0.00038452772 -0.04515136 -0.0059962673 -0.24074499 0.77717131 -0.5814178 0.00025655571
0.032378674 -0.045198847 -0.004557543 0.32131347 0.94697106 0.0018675987 0.0018157297
0.034055099 -0.045796547 -0.0052406345 0.32412714 0.94599706 0.005577873 0.0017237387
0.037331808 -0.047415983 -0.0046683308 0.49806389 0.81206894 0.30409935 0.0030929488
-0.05125159 -0.044413153 -0.0047643217 -0.30383763 0.87870169 -0.36819288 0.020626163
-0.049453352 -0.044258893 -0.0043775607 -0.13516699 0.91386533 -0.38285777 0.027381202
-0.046474069 -0.044312567 -0.0045254254 -0.036266591 0.90177006 -0.43069184 0.0059657241
-0.043420907 -0.044055939 -0.0044425633 -0.23341651 0.82036299 -0.52203572 0.012554002
-0.040662162 -0.042925116 -0.0045810477 -0.21510583 0.80798262 -0.54853773 0.013528732
-0.037427906 -0.042741571 -0.0044860593 0.0057156957 0.82834661 -0.56018686 0.011408667
-0.034404799 -0.04294176 -0.0045228112 0.052625731 0.77951258 -0.62417197 0.0088610612
-0.031479184 -0.043176759 -0.0044591879 0.08169619 0.75823188 -0.64684623 0.0068773604
-0.028509587 -0.043485355 -0.0043526688 0.11562023 0.69551653 -0.70914644 0.0045877439
-0.02552259 -0.043766219 -0.0041899127 0.10561059 0.65050167 -0.75212628 0.0035229891
-0.022603279 -0.043951306 -0.003886237 0.11622097 0.63572311 -0.76311785 0.0026694897
-0.019637516 -0.044248391 -0.0037074017 0.099382542 0.61889362 -0.77916217 0.0015357444
-0.016585544 -0.044438358 -0.0035360034 0.069254875 0.60847497 -0.79054534 0.0012493213
-0.013463045 -0.044556271 -0.0034448337 0.025164984 0.6165781 -0.78689146 0.00072052766
-0.010336395 -0.044512708 -0.0034154572 -0.027758954 0.63354963 -0.77320397 0.00062735734
-0.0075203758 -0.044436511 -0.0035693396 -0.077625431 0.66382617 -0.74384743 0.00069488358
-0.0044667111 -0.044232789 -0.0038024001 -0.10846765 0.70639729 -0.69945532 0.00083526061
-0.0014312904 -0.044065129 -0.0041849078 -0.15167202 0.75421172 -0.63887423 0.0014506025
0.0015305645 -0.043540735 -0.0044256006 -0.20894934 0.77972198 -0.59023207 0.00064559228
0.0044196569 -0.042878862 -0.0046878248 -0.20014703 0.80405599 -0.55985278 0.0002589385
0.0074483627 -0.042550605 -0.0051913513 -0.15947896 0.82265574 -0.5457142 0.00018383923
0.010536776 -0.042247519 -0.0055132899 -0.12029509 0.84468591 -0.52156949 0.00020406071
0.013247899 -0.042080939 -0.0057987347 -0.065009192 0.86542952 -0.4967953 0.00062537397
0.015873902 -0.042048797 -0.0059084427 -0.0055927737 0.89901787 -0.43787631 0.0015810302
0.020142965 -0.042067818 -0.0055648503 0.090884805 0.94980001 -0.29936573 0.0037744401
0.022693282 -0.042318147 -0.004967446 0.19511378 0.9631511 -0.18512291 0.0031909365
0.025473634 -0.042915139 -0.00466451 0.26247817 0.95958942 -0.1014558 0.0036948088
0.028478688 -0.043800037 -0.0044363923 0.28037018 0.95902699 -0.040740192 0.0018962038
0.030981975 -0.044626191 -0.0049982723 0.29952887 0.9540835 0.0026493079 0.001604542
-0.039339676 -0.0419522 -0.0030267658 -0.11437726 0.72489166 -0.67930114 0.010622872
-0.037104748 -0.041794356 -0.0031136838 -0.023467561 0.58656228 -0.80956411 0.014235074
-0.034678195 -0.041850459 -0.0031377368 0.041360758 0.59549469 -0.80229378 0.025027385
-0.032715924 -0.041853972 -0.0031362765 0.020931777 0.53140002 -0.84686238 0.013200908
0.0051627737 -0.041754555 -0.0033185615 -0.17685169 0.80251139 -0.56982362 0.00070058781
0.0076497183 -0.041547179 -0.0036711467 -0.13259767 0.8326177 -0.5377413 0.00041452414
0.010500635 -0.041303009 -0.0039897002 -0.081898198 0.86324406 -0.49809873 0.0012017156
0.013509489 -0.041187454 -0.0042508156 -0.005856635 0.89638746 -0.4432326 0.0022718816
0.01645826 -0.041366603 -0.0045383596 0.056688488 0.92871279 -0.36644092 0.0035125443
0.019294767 -0.041597288 -0.0044003655 0.12588894 0.94550931 -0.30027324 0.0037408117
0.021806404 -0.041894298 -0.0038441664 0.23112562 0.95537758 -0.18394184 0.0029065025
-0.036667533 -0.03043703 -0.0030719533 -0.17714444 -0.14764598 -0.97304702 0.01688078
-0.035637416 -0.030421626 -0.003048223 -0.041107472 -0.091674 -0.99494022 0.0099412976
-0.037025381 -0.02828525 -0.0032809919 -0.1878106 -0.13935632 -0.972269 0.015553482
-0.034905422 -0.028187975 -0.0032469232 0.065953352 -0.14870188 -0.98668033 0.0042046816
-0.032775819 -0.02719482 -0.0031009265 0.14157408 -0.15598533 -0.97756094 0.00046488666
-0.037336614 -0.025538623 -0.0036391232 -0.248937 -0.14954038 -0.95690548 0.0097038159
-0.034535732 -0.02545285 -0.0037177519 0.081962727 -0.16316669 -0.98318803 0.0024040323
-0.031637985 -0.02509591 -0.0032366745 0.164368 -0.18175037 -0.9695102 0.00017820577
-0.029446732 -0.024502346 -0.0030676709 0.13092424 -0.15076479 -0.97986168 0.00033036323
-0.039028246 -0.023904543 -0.0030285271 -0.22215942 -0.18505792 -0.95728719 0.0063375584
-0.037573889 -0.022501707 -0.0040671602 -0.30058667 -0.16707349 -0.93900698 0.011712908
-0.034505155 -0.022518871 -0.004358917 0.022998767 -0.21572885 -0.97618246 0.0067449361
-0.031558376 -0.022542233 -0.0037413954 0.17791684 -0.19729282 -0.9640649 0.00010883911
-0.028622819 -0.02229183 -0.0032778829 0.14914906 -0.17263892 -0.97362739 0.00019435119
-0.0262754 -0.021686716 -0.0030931269 0.13732305 -0.1506415 -0.97900438 0.00025371628
-0.039289944 -0.019253884 -0.003291548 -0.70136553 -0.13786885 -0.6993416 0.018286174
-0.037377119 -0.019545518 -0.0047121556 -0.26836315 -0.2463637 -0.93128198 0.0092301825
-0.034476489 -0.019496214 -0.0050582066 0.045333225 -0.23702094 -0.97044629 0.0057001677
-0.031444792 -0.019501792 -0.0043956824 0.19802457 -0.21334179 -0.95669824 0.00011962472
-0.028469073 -0.019444281 -0.0038072325 0.17987247 -0.19178711 -0.9648127 0.00017504436
-0.025637558 -0.019366674 -0.0033184113 0.16426308 -0.16610995 -0.9723298 0.00034261122
-0.02327913 -0.018622881 -0.0031116002 0.16128437 -0.13901445 -0.97706819 0.00022257374
-0.039428018 -0.016482892 -0.0034108006 -0.91324443 0.053808931 -0.40384316 0.031710625
-0.037516229 -0.016575269 -0.0051766546 -0.3521927 -0.19396164 -0.9156087 0.015038175
-0.034315169 -0.016709419 -0.005684128 0.052034792 -0.24169073 -0.96895713 0.0075150561
-0.031417713 -0.016423425 -0.0051086084 0.2121546 -0.22055092 -0.95202291 4.161453e-05
-0.028498769 -0.016456468 -0.0044495328 0.20607857 -0.20112713 -0.95764267 0.00021616736
-0.025566621 -0.016507447 -0.003821874 0.19020684 -0.17397691 -0.96620566 0.00024844953
-0.022637209 -0.016252199 -0.0032924104 0.19362225 -0.14659184 -0.97006255 0.00018405011
-0.020562651 -0.015661813 -0.0030492689 0.17437263 -0.12390929 -0.97685248 0.00015881439
-0.039285585 -0.013770483 -0.0038254801 -0.72897857 -0.091157116 -0.67843986 0.025319971
-0.037935432 -0.013718139 -0.0053900876 -0.39318925 -0.17246607 -0.90313768 0.013821781
-0.033292942 -0.014563599 -0.0059797079 0.13049768 -0.19122609 -0.97283244 0.0028518746
-0.031288911 -0.013780792 -0.0056983507 0.21729507 -0.21404576 -0.95234823 5.1789841e-05
-0.028567603 -0.013504607 -0.0051085423 0.23051667 -0.20362017 -0.95152557 8.1257196e-05
-0.025555501 -0.013548399 -0.0043710298 0.22539328 -0.17699213 -0.95805615 0.00022167142
-0.022541262 -0.013467349 -0.0036980782 0.21082316 -0.1476794 -0.96630454 0.00018132156
-0.020000467 -0.013264653 -0.0031793367 0.20246117 -0.12968518 -0.97066534 0.00012481069
-0.038473722 -0.010654441 -0.0052588307 -0.52060753 -0.14153762 -0.84198272 0.027994111
-0.030283641 -0.011563396 -0.0059031006 0.22244541 -0.19567746 -0.9551065 0.00011756625
-0.028339019 -0.0107438 -0.0056195795 0.24349295 -0.18574154 -0.95195127 0.00010081669
-0.025514565 -0.010445334 -0.0049252263 0.25042066 -0.16095866 -0.95466316 0.00013307479
-0.022441333 -0.010495473 -0.0041269376 0.2357696 -0.14375445 -0.96111774 0.00015415098
-0.019552492 -0.010483991 -0.003434784 0.22668812 -0.12485654 -0.96593136 0.0001049144
-0.017634505 -0.0096474616 -0.0030891506 0.21565455 -0.10771835 -0.97051013 7.399849e-05
-0.038402081 -0.0077967583 -0.0056376443 -0.58660823 -0.1163098 -0.80147535 0.021503577
-0.027510466 -0.0081177438 -0.0058719628 0.26556084 -0.14508177 -0.95311528 9.3486509e-05
-0.025489697 -0.0074405908 -0.0054063513 0.26597273 -0.14194572 -0.95347255 0.00010557819
-0.022411058 -0.0075172782 -0.0045463536 0.2548458 -0.12791052 -0.95848447 9.1594608e-05
-0.019448161 -0.007470014 -0.0037772523 0.24174388 -0.11783483 -0.96315879 5.778683e-05
-0.017093515 -0.0072677159 -0.0032163977 0.23382002 -0.10556966 -0.96653152 4.2244385e-05
-0.039308436 -0.0040331814 -0.0043817437 -0.94563705 -0.0098594008 -0.32507446 0.015290914
-0.038650077 -0.0041650827 -0.0056298254 -0.69611263 -0.018633921 -0.71769071 0.0058778068
-0.025118409 -0.0046706018 -0.0056665144 0.2715134 -0.10759681 -0.95640135 7.9612502e-05
-0.022479722 -0.0046150172 -0.0049312641 0.26455703 -0.10710971 -0.95840335 4.5302175e-05
-0.019498168 -0.004524569 -0.0041359761 0.2512781 -0.10237025 -0.96248621 3.7891925e-05
-0.016636226 -0.0044406368 -0.003399438 0.24332179 -0.093564086 -0.96542233 4.1100371e-05
-0.014690385 -0.0036552055 -0.0030487264 0.24009614 -0.087723851 -0.96677732 3.7842488e-05
-0.039167788 -0.0014202449 -0.0036565741 -0.929995 0.051899202 -0.3638899 0.0089378953
-0.038622413 -0.0014531102 -0.0036566448 -0.92999494 0.051899865 -0.36388987 0.0089378394
-0.024600754 -0.001788691 -0.0058045224 0.2749663 -0.054878261 -0.95988637 0.0002929547
-0.022453986 -0.0015554657 -0.005229475 0.26497886 -0.058373112 -0.96248573 0.00026880807
-0.019476959 -0.001542196 -0.004425054 0.25549093 -0.061551243 -0.96485019 0.00016577069
-0.016510809 -0.0014831984 -0.0036392186 0.2487729 -0.060922999 -0.96664393 0.00014984618
-0.01452498 -0.0013234821 -0.003130351 0.24627791 -0.058278169 -0.96744549 0.00013584034
-0.039112799 0.0014248774 -0.0036561012 -0.93724972 -0.038690388 -0.34650549 0.0088168625
-0.038568459 0.001392765 -0.0036561526 -0.90875077 -0.078590661 -0.40987262 0.0050557135
-0.024552772 0.0017451289 -0.005858975 0.26690379 0.01173992 -0.96365172 0.00027914887
-0.022459216 0.0014668343 -0.0053127501 0.26018247 0.0054950346 -0.96554381 0.000231368
-0.019534471 0.0014739415 -0.0045359135 0.25663975 0.0013338635 -0.96650624 0.00015055225
-0.016535448 0.0014790971 -0.003746287 0.24934466 -0.00062988 -0.9684146 0.00017076411
-0.014356508 0.001330125 -0.0031776791 0.24762695 -0.0031765297 -0.96885026 0.00021363726
-0.03932377 0.0051208045 -0.0042922171 -0.79732418 0.065594383 -0.59997618 0.013742285
-0.038883351 0.0051609809 -0.005300967 -0.77787346 0.058475297 -0.62569451 0.013674376
-0.024783673 0.0047108619 -0.0057793935 0.25070548 0.067011431 -0.96574134 0.00014763864
-0.022431562 0.0044976934 -0.0051930915 0.24910553 0.057953451 -0.96674085 0.00010966859
-0.019486807 0.0044789012 -0.0044271685 0.24981202 0.050061796 -0.96699935 6.0325397e-05
-0.016574496 0.0045303092 -0.0036631571 0.2486496 0.044718444 -0.96756059 5.90046e-05
-0.014444913 0.0043971525 -0.0031190191 0.24668366 0.041239772 -0.96821815 5.18915e-05
-0.03846176 0.0078445803 -0.0056508044 -0.73775458 0.065221719 -0.67191094 0.016612247
-0.02728788 0.0083875526 -0.0058955457 0.24492927 0.10899142 -0.96339536 7.5886259e-05
-0.025433751 0.0075772032 -0.0056708916 0.23521893 0.10423157 -0.96633726 7.265836e-05
-0.022523554 0.0075103478 -0.00497348 0.23828284 0.092568398 -0.96677423 7.2871459e-05
-0.019488368 0.0075363158 -0.0042205798 0.24148469 0.082087561 -0.96692652 5.8393358e-05
-0.016626842 0.0075064003 -0.0034900655 0.24146909 0.073525578 -0.96761912 6.5133485e-05
-0.014630117 0.0071078129 -0.0030823639 0.23679839 0.06717445 -0.96923381 6.338759e-05
-0.039047349 0.010437469 -0.0045287167 -0.93088001 -0.028620286 -0.36420229 0.027990239
-0.038251203 0.010750122 -0.0056208209 -0.57517856 0.12330569 -0.80868125 0.025649821
-0.027759217 0.010914624 -0.0058057872 0.2321593 0.13836494 -0.96278614 0.0001138451
-0.025537858 0.010519721 -0.0053366232 0.22670738 0.13223979 -0.96494371 0.00010277602
-0.022498988 0.010513362 -0.0046360292 0.22666696 0.12150265 -0.96636397 7.5727694e-05
-0.019478811 0.010602906 -0.0039093061 0.22855149 0.10755496 -0.96757227 8.8384026e-05
-0.016762206 0.010269418 -0.0032829207 0.23240747 0.094781205 -0.96798927 7.1475675e-05
-0.039160408 0.013869063 -0.0041116495 -0.64535952 0.14328364 -0.75032049 0.01750203
-0.038174976 0.013659291 -0.0053267223 -0.48146898 0.16086295 -0.86157459 0.013183632
-0.030692555 0.014282194 -0.0058603291 0.19116877 0.19293945 -0.96240783 0.00013202855
-0.028468244 0.013611295 -0.0055135661 0.21541256 0.17557359 -0.96060997 0.0001279658
-0.025489748 0.013520288 -0.0048626121 0.21289384 0.15808114 -0.96420258 0.00012618523
-0.022563932 0.013535957 -0.0042212903 0.20997591 0.14128743 -0.96744406 9.4063922e-05
-0.0194725 0.013536017 -0.0035458049 0.21260528 0.12056709 -0.96967137 7.8917452e-05
-0.017325221 0.013124835 -0.0031173266 0.21567601 0.11286844 -0.9699198 5.1181396e-05
-0.039338589 0.016079202 -0.0036803756 -0.72969234 0.051917657 -0.6818018 0.024864499
-0.037641522 0.016612815 -0.0052729431 -0.41989377 0.18120874 -0.88929892 0.016640535
-0.034161005 0.01734403 -0.0058563426 -0.015843824 0.25648555 -0.96641821 0.0071047209
-0.031491656 0.016563332 -0.0055555105 0.18003933 0.20777516 -0.96146524 0.00011465009
-0.028480902 0.016490957 -0.0049541588 0.2005187 0.19160454 -0.96077055 6.6384448e-05
-0.025487116 0.01645425 -0.0043475246 0.19103454 0.16833375 -0.96704167 0.00011383969
-0.022506749 0.016533671 -0.0037628326 0.19028127 0.15070187 -0.97009385 9.7426928e-05
-0.019809285 0.016278541 -0.0032619827 0.19951615 0.13653301 -0.97033602 9.0449495e-05
-0.039148629 0.019796543 -0.0035804054 -0.6319086 0.10568583 -0.76780337 0.014039658
-0.037419092 0.019447545 -0.0049268655 -0.35884091 0.16996069 -0.91779441 0.011923167
-0.034463335 0.019406045 -0.0054195398 -0.0071890289 0.21090671 -0.97747976 0.0066199242
-0.031390939 0.019524107 -0.0049019889 0.16780262 0.21079573 -0.96301991 0.00010330365
-0.028564379 0.019512543 -0.0043787006 0.1770298 0.19245 -0.96520638 0.00012569518
-0.025494272 0.019507198 -0.0038057959 0.17301898 0.17174526 -0.96982878 8.6103413e-05
-0.022622615 0.019376637 -0.0033247571 0.17591874 0.15676254 -0.97184265 7.5907396e-05
-0.020485599 0.018688373 -0.0030906922 0.17953157 0.14529449 -0.97296345 6.2597894e-05
-0.039129943 0.022476349 -0.0032773013 -0.36660403 0.15623333 -0.91716558 0.010384149
-0.037355676 0.022541517 -0.0043814685 -0.2577996 0.19671956 -0.94596022 0.010001957
-0.034505073 0.022459494 -0.0047193798 -0.027012995 0.21484837 -0.97627378 0.0076650404
-0.031555805 0.022570847 -0.0042380462 0.14967604 0.20514211 -0.96721965 0.00010846621
-0.028500281 0.022534996 -0.0037566919 0.1583861 0.19036429 -0.96885252 0.00010680619
-0.025586702 0.022367522 -0.0033010161 0.15282382 0.1712395 -0.97330469 8.3209459e-05
-0.023291783 0.021457396 -0.0031015696 0.16132081 0.15071517 -0.97532588 9.9522127e-05
-0.039091945 0.024578704 -0.0030323963 -0.37793887 0.14594823 -0.91425461 0.0043471963
-0.037315916 0.025537634 -0.0038319966 -0.26349694 0.162294 -0.95091015 0.0096042706
-0.034427412 0.025566764 -0.0039994395 -0.0056577632 0.18643354 -0.98245126 0.0059592607
-0.031458262 0.025445199 -0.0036071807 0.13623033 0.19353454 -0.97158927 4.9494327e-05
-0.028602848 0.025238737 -0.0032354414 0.14123619 0.1825874 -0.9729923 6.6672437e-05
-0.02630889 0.024506114 -0.0030988748 0.13913701 0.16324373 -0.97672534 0.00010962058
-0.037124895 0.028372789 -0.0033810493 -0.22802724 0.12152875 -0.96604055 0.010849659
