# .PCD v0.7 - Point Cloud Data file format
VERSION 0.7
FIELDS x y z normal_x normal_y normal_z curvature
SIZE 4 4 4 4 4 4 4
TYPE F F F F F F F
COUNT 1 1 1 1 1 1 1
WIDTH 557
HEIGHT 1
VIEWPOINT 0 0 0 1 0 0 0
POINTS 557
DATA ascii
-0.0014154157 0.052161198 -0.052941278 0.72155243 0.43341964 -0.53991628 0.0055393735
0.00033892511 0.051597808 -0.051478971 0.73745126 0.31317261 -0.59840506 0.017568938
-0.009399455 0.054577488 -0.054041315 -0.62630826 0.24826562 -0.73898721 0.0024586061
-0.0040599001 0.044448383 -0.050109606 0.19003339 -0.919303 -0.34462923 0.0089893509
-0.0014300069 0.044329911 -0.049828567 0.29671437 -0.84012598 -0.45403624 0.020476401
0.0013430767 0.044593088 -0.049440898 0.34169522 -0.78098738 -0.52278399 0.024920005
0.0038525774 0.04486537 -0.048524465 0.39628512 -0.58909619 -0.70421863 0.018320309
0.0021328342 0.046596799 -0.05053404 0.62523884 -0.18640052 -0.75784647 0.014845928
0.0042836657 0.046932206 -0.04914204 0.61513227 -0.13593955 -0.77661616 0.025917854
0.0022450034 0.050216179 -0.050383113 0.6374625 0.2724756 -0.72069317 0.021026788
0.0040131952 0.049580641 -0.049102146 0.63590187 0.31513357 -0.70449954 0.02203024
-0.00070769968 0.052529607 -0.050751973 0.66152871 0.5099631 -0.54983395 0.0052245017
0.0012456537 0.051907439 -0.049652644 0.60328406 0.56222999 -0.56563753 0.0036592861
0.0030698481 0.051626939 -0.048054803 0.54399383 0.69879419 -0.46449694 0.0029949988
0.0047196224 0.042169977 -0.045336246 -0.11159109 -0.81376779 -0.57037652 0.018387023
0.0070893005 0.042141333 -0.045288816 0.15444477 -0.67893857 -0.71776676 0.019072412
-0.00079463923 0.04361276 -0.046905637 0.10652465 -0.92141241 -0.37370005 0.0038591572
0.0015526703 0.043250866 -0.046795383 -0.020976596 -0.90282655 -0.42949313 0.015253019
0.0045169401 0.043557346 -0.046995599 0.077890113 -0.77601886 -0.62588161 0.028691178
0.0072593624 0.043933704 -0.04642076 0.36192971 -0.44002452 -0.82181829 0.016907515
0.0096111568 0.044117771 -0.045443568 0.36983749 -0.30614778 -0.87720788 0.017781779
0.0073050964 0.046956778 -0.047100142 0.47555965 -0.014067959 -0.87957102 0.018077934
0.0096808048 0.046713181 -0.045587957 0.50632489 0.098035872 -0.85675204 0.010177392
0.0050413129 0.050584998 -0.047425453 0.61182636 0.48284438 -0.626522 0.023828527
0.0071915523 0.049691435 -0.046326403 0.5012185 0.55573446 -0.66327906 0.022326451
0.0091899512 0.048932243 -0.045310516 0.46422815 0.51179689 -0.72288042 0.012477352
0.0043499712 0.051761612 -0.046209652 0.49571437 0.71159899 -0.4978897 0.0045752926
0.0081426967 0.039051786 -0.042260695 -0.19588603 -0.71908849 -0.66673863 0.0095000891
0.010360661 0.03890793 -0.042422727 0.0016281982 -0.62328243 -0.78199512 0.0097223548
0.012767824 0.038976498 -0.042266093 0.18793571 -0.48141813 -0.85610557 0.0064539495
0.0023029093 0.042111468 -0.043579318 -0.25026044 -0.89270943 -0.37475285 0.016186599
0.0045049461 0.04118092 -0.0435431 -0.29826933 -0.83504575 -0.46231374 0.012202459
0.0074227015 0.04066186 -0.043791909 -0.073569201 -0.7096194 -0.70073378 0.0055369469
0.010328169 0.040900867 -0.043809563 0.14318545 -0.51500928 -0.84514099 0.0070199454
0.013269003 0.040957227 -0.042985283 0.2918807 -0.28821558 -0.91199642 0.0078576626
0.015320695 0.041443959 -0.042265102 0.39349899 -0.22687231 -0.89089143 0.0077160965
0.0009649964 0.042791005 -0.044053692 -0.18179585 -0.91345787 -0.36406738 0.009891659
0.011014544 0.043783482 -0.044703521 0.42079651 -0.14449553 -0.89557314 0.010456062
0.013315626 0.043999162 -0.043564733 0.47713482 -0.016460015 -0.87867594 0.0019934422
0.015466319 0.043760639 -0.042374987 0.49038494 -0.011669172 -0.87142789 0.006633909
0.011118805 0.047185138 -0.044581752 0.52069581 0.16381134 -0.83787936 0.0064498298
0.013289068 0.046937544 -0.043232337 0.52909672 0.28863153 -0.79796523 0.0071085719
0.015206643 0.046043973 -0.042267591 0.53144658 0.24731818 -0.81018406 0.0038986015
0.0081387088 0.051005792 -0.044262219 0.39761475 0.77091175 -0.49759179 0.008486432
0.010381962 0.049843598 -0.043731894 0.46529904 0.56806958 -0.67881799 0.013637083
0.012668879 0.049206886 -0.042606857 0.48638836 0.54587507 -0.68223661 0.010332149
0.0052192188 0.052156556 -0.043993033 0.46443427 0.75913531 -0.45608595 0.0063619916
0.006989338 0.051852915 -0.043522947 0.43227673 0.77190888 -0.46614754 0.0070867515
0.0092900898 0.051488835 -0.042565424 0.38135344 0.76301205 -0.52190226 0.0078218644
0.0083908122 0.036307521 -0.039255921 -0.37741503 -0.71482998 -0.58870697 0.0032388095
0.010593621 0.035852887 -0.03968551 -0.19280748 -0.68384683 -0.7036894 0.0051854369
0.013469602 0.03552952 -0.039820723 0.0062436843 -0.60364926 -0.79722553 0.0057621766
0.016286889 0.035672978 -0.039589863 0.20690124 -0.5067879 -0.83687395 0.004935706
0.018328128 0.036271308 -0.039259948 0.40835246 -0.38153997 -0.82926202 0.0032513579
0.0050776745 0.03886937 -0.039954431 -0.54639107 -0.70403188 -0.4536472 0.011610271
0.0073997886 0.037975047 -0.040628154 -0.31491667 -0.70653737 -0.63374472 0.0042677103
0.010389195 0.037524987 -0.041208182 -0.10947288 -0.65560275 -0.74712831 0.0040585697
0.013498862 0.037721008 -0.04134712 0.08328408 -0.54771012 -0.83251268 0.0048975265
0.016406495 0.037998781 -0.040724207 0.27505973 -0.4035641 -0.8726272 0.0044380873
0.018974345 0.038260665 -0.039655719 0.45231405 -0.26517859 -0.85152352 0.0031399657
0.0022521229 0.04145173 -0.040514901 -0.52283829 -0.79937238 -0.29604712 0.010331787
0.0040454767 0.040153652 -0.040895652 -0.54541337 -0.77342224 -0.32302046 0.0081874058
0.0060949372 0.039587531 -0.04202636 -0.26022959 -0.79191977 -0.55239791 0.0068742759
0.014644469 0.039585311 -0.04204886 0.26913539 -0.35388526 -0.89572954 0.011979875
0.016641229 0.040773347 -0.041462917 0.4795399 -0.12005933 -0.86926824 0.0027188654
0.019226974 0.041073255 -0.040018931 0.52371103 -0.084825739 -0.84766227 0.0033017688
0.016984371 0.043972466 -0.041425481 0.54402632 0.072565384 -0.83592439 0.0025405616
0.019126579 0.043982763 -0.0399886 0.57144022 0.12103049 -0.81166971 0.0037181058
0.014650391 0.048155669 -0.041877139 0.52076477 0.37857851 -0.76516825 0.0088346303
0.016528921 0.047057129 -0.040997166 0.54222274 0.31088865 -0.78060412 0.0055113891
0.018720454 0.046589676 -0.039587408 0.58292562 0.33085826 -0.74211216 0.0024404984
0.011340409 0.05106369 -0.041710597 0.41816664 0.74830878 -0.51494724 0.0093115885
0.01366065 0.05020849 -0.040910188 0.47618768 0.63175732 -0.61166 0.0098107681
0.016003961 0.049344242 -0.040024985 0.49222109 0.57651037 -0.65219182 0.0078406036
0.0077660307 0.052513171 -0.040789358 0.31621212 0.85633528 -0.4082889 0.0039274581
0.010483081 0.051976249 -0.040590886 0.33443424 0.81766534 -0.46859053 0.0072879125
0.012873628 0.051760893 -0.039324172 0.35934842 0.79657948 -0.48613766 0.0058268839
0.010876695 0.032803487 -0.036636788 -0.31576815 -0.70227134 -0.63804811 0.0019982888
0.013621003 0.032298204 -0.03701723 -0.13608207 -0.67593604 -0.72428733 0.0038221318
0.016551411 0.032072108 -0.036974482 0.071814232 -0.61043531 -0.78880388 0.0046664425
0.019431919 0.032462254 -0.036674604 0.27568549 -0.52826107 -0.80308014 0.0041451347
0.02149876 0.033075232 -0.036178946 0.47450867 -0.41341826 -0.77712727 0.0035064209
0.0055893171 0.036090855 -0.036418237 -0.64467221 -0.63390857 -0.4272677 0.0084092226
0.0076568355 0.035178602 -0.037351105 -0.45250115 -0.69654316 -0.5568397 0.0041049337
0.010346643 0.034325808 -0.038028378 -0.29662675 -0.69951677 -0.65014529 0.005189559
0.013414231 0.033934496 -0.038491778 -0.071763486 -0.65125608 -0.75545722 0.0031754449
0.016667807 0.034117993 -0.038502071 0.1264711 -0.57702833 -0.80687261 0.0031339058
0.019552516 0.034842327 -0.037999712 0.40154648 -0.37092194 -0.83736324 0.0035825234
0.022093004 0.035111558 -0.036711633 0.52623576 -0.3069323 -0.79301232 0.0040486264
0.0045472174 0.037857771 -0.037452906 -0.67581725 -0.63513172 -0.37400353 0.0044820532
0.0065107746 0.036795277 -0.038448997 -0.47058859 -0.68593293 -0.55501562 0.004932906
0.020389957 0.037581835 -0.038640764 0.54496932 -0.20616539 -0.81271416 0.0022240733
0.0223778 0.037883833 -0.037340164 0.61438113 -0.14713304 -0.77516943 0.0011801478
0.023958815 0.038645446 -0.036147643 0.65324277 -0.12301299 -0.74708885 0.0020284278
0.0023238335 0.0406509 -0.037475653 -0.74599373 -0.61164188 -0.26341504 0.0052871536
0.0032657792 0.039659161 -0.038361438 -0.70153284 -0.65898508 -0.27127531 0.0064100465
0.020782769 0.04075034 -0.038953733 0.60174161 -0.034602359 -0.79794097 0.0021862932
0.022361057 0.040880445 -0.037656873 0.64256835 -0.018269815 -0.76601052 0.0022171035
0.023954213 0.041023728 -0.036228269 0.69963843 0.054455232 -0.71241891 0.0020833812
0.020695142 0.044023596 -0.03878982 0.63752007 0.15676075 -0.75431699 0.0024006178
0.022292554 0.043869399 -0.037381697 0.66714865 0.1698948 -0.72529191 0.0018022173
0.020124475 0.04715855 -0.038050991 0.62701762 0.42090562 -0.65550536 0.0066318098
0.021806048 0.046544291 -0.036820762 0.65431923 0.39727685 -0.64345747 0.0025750012
0.016905576 0.050507862 -0.037974119 0.41775921 0.78669405 -0.45452145 0.0022006552
0.019021271 0.049337614 -0.037423726 0.55106014 0.62120605 -0.55716771 0.004885965
0.010472784 0.052911371 -0.03773161 0.28952461 0.88504499 -0.36451468 0.0028904926
0.013653945 0.052186195 -0.037742108 0.29951045 0.87449229 -0.38151908 0.0038170791
0.015583208 0.051902182 -0.036810186 0.36452508 0.82993501 -0.42229059 0.0071604885
0.011204516 0.030053921 -0.033606578 -0.40612304 -0.71518975 -0.56883013 0.0020682884
0.013676135 0.029526075 -0.034164041 -0.23650536 -0.72056699 -0.65180397 0.0026721568
0.016481565 0.029121596 -0.034323458 -0.018095398 -0.68197662 -0.73115009 0.0016151866
0.019277621 0.029063303 -0.034133565 0.11578189 -0.65145272 -0.74980265 0.0029595883
0.022073267 0.029617179 -0.033684704 0.37356058 -0.5221737 -0.76667279 0.002655793
0.024134697 0.030411094 -0.03306805 0.55994493 -0.41668522 -0.71612507 0.0025281752
0.0078876885 0.032618627 -0.034274898 -0.51415187 -0.68911904 -0.51064944 0.0024560662
0.010353921 0.031568386 -0.034898922 -0.37913677 -0.71281278 -0.59004515 0.0031108332
0.013331784 0.030949924 -0.035593849 -0.18204506 -0.70808095 -0.68226171 0.0022764558
0.016598195 0.03064771 -0.035765275 0.00562703 -0.66239214 -0.74913621 0.0030769852
0.019616138 0.031062931 -0.035655405 0.20289159 -0.58316362 -0.78660995 0.0033892496
0.022430023 0.031872753 -0.03493182 0.46844915 -0.40470603 -0.78534603 0.0038819772
0.024616953 0.0323992 -0.033726528 0.57157546 -0.35984373 -0.73743743 0.0025119041
0.0050315084 0.035336033 -0.034376349 -0.68960917 -0.61703575 -0.3790859 0.0039018835
0.0068179192 0.034166072 -0.035228532 -0.54566348 -0.69618189 -0.46645698 0.0050150859
0.023261463 0.034490254 -0.035684161 0.57671791 -0.2532911 -0.7766853 0.0026944987
0.025088301 0.035090569 -0.034324709 0.65358001 -0.23871164 -0.71822697 0.0024625168
0.0027073496 0.038801879 -0.034477975 -0.79445469 -0.5509392 -0.25555387 0.0033920684
0.0035771877 0.037406832 -0.034652479 -0.80632019 -0.52361256 -0.27509558 0.0035391287
0.025375502 0.037987534 -0.034619611 0.73693365 -0.053695288 -0.67382908 0.001430397
0.0021624095 0.040206626 -0.034597788 -0.79446912 -0.5509268 -0.2555356 0.0034014448
0.025429446 0.040898856 -0.034571867 0.76636434 0.084625043 -0.63680792 0.002127754
0.023545828 0.044977419 -0.035775341 0.74027938 0.27169499 -0.61495394 0.0043469211
0.024907628 0.043760456 -0.034546256 0.76505345 0.2547965 -0.59141523 0.0026579092
0.022923222 0.047278475 -0.035047844 0.69881374 0.44931212 -0.55657697 0.0065484694
0.024406375 0.046297487 -0.03387183 0.74205768 0.43963003 -0.50603926 0.0025663853
0.019876752 0.050429564 -0.034998175 0.54900676 0.69175971 -0.46910569 0.0050042542
0.021821273 0.049306337 -0.034341287 0.59427297 0.65779138 -0.4627637 0.0061645396
0.011834099 0.05329125 -0.035290528 0.2995466 0.87446958 -0.38154256 0.0038995629
0.014453166 0.052894849 -0.034993846 0.29814351 0.89749932 -0.32497004 0.0022007693
0.016819052 0.052163392 -0.034882616 0.36256766 0.84733313 -0.38803518 0.005444793
0.018633179 0.051724982 -0.033919651 0.45880458 0.79917192 -0.38835871 0.002419401
0.011530949 0.027099103 -0.030201098 -0.44269022 -0.71235329 -0.54458994 0.0012653149
0.01365005 0.026742313 -0.030981995 -0.31725159 -0.72918749 -0.60633081 0.0013519784
0.016386906 0.026259093 -0.031400513 -0.16595753 -0.72749138 -0.66574341 0.0017254128
0.019397747 0.026136819 -0.031482041 0.059722174 -0.69137454 -0.72002393 0.0037702154
0.022316694 0.026415467 -0.031104267 0.28777084 -0.62578839 -0.72496676 0.0041662822
0.024584511 0.026797194 -0.030330759 0.48159635 -0.51301444 -0.71054989 0.0023746232
0.0084383171 0.029699072 -0.030780831 -0.5611816 -0.66521811 -0.49250388 0.0029726198
0.010517617 0.028927471 -0.031680148 -0.42171884 -0.70308501 -0.57255977 0.0017900147
0.013012492 0.028041681 -0.032178927 -0.32015723 -0.72856182 -0.60555518 0.0018116466
0.015616156 0.027799863 -0.03289162 -0.11152358 -0.71010441 -0.69520807 0.0021293508
0.020207439 0.027798226 -0.032916259 0.112716 -0.66008657 -0.74268484 0.0028156952
0.022838876 0.028348781 -0.03241571 0.31222025 -0.57762277 -0.75423497 0.0031280874
0.025298111 0.028977714 -0.031278394 0.55386108 -0.4490743 -0.70112067 0.0054640872
0.027167637 0.029748999 -0.030083647 0.65139145 -0.3650597 -0.66514701 0.0024070083
0.0055227722 0.03270033 -0.031049145 -0.70871174 -0.60162365 -0.36847889 0.0035473977
0.0072974036 0.031439919 -0.031872679 -0.58578604 -0.67319703 -0.45128757 0.0036708273
0.026046667 0.031607453 -0.032085326 0.68346542 -0.29135817 -0.66931713 0.0016280154
0.027630141 0.032216694 -0.030710837 0.72152561 -0.25972641 -0.64182788 0.002429429
0.0042975508 0.034744184 -0.031702306 -0.80792689 -0.51167798 -0.29230085 0.0058624377
0.026655383 0.034558129 -0.032613292 0.74086601 -0.1744407 -0.64860469 0.0019224597
0.027926637 0.035026759 -0.031167774 0.79717416 -0.13604718 -0.58822155 0.0023434714
0.0025004304 0.038198281 -0.031577114 -0.86154056 -0.46778998 -0.19728248 0.0022110464
0.003155187 0.036825601 -0.032215882 -0.84628713 -0.48384383 -0.22291975 0.0018327474
0.026762869 0.036975835 -0.032986939 0.77311677 -0.031316787 -0.63349003 0.0014226324
0.02795909 0.037991583 -0.031445663 0.82351363 0.0066378675 -0.5672577 0.0018174921
0.026772078 0.041363195 -0.032842048 0.80065173 0.10253335 -0.59029108 0.0019420985
0.027766012 0.040947486 -0.031357799 0.84125578 0.1324511 -0.52416158 0.0025646421
0.026405616 0.044233426 -0.032180868 0.81827289 0.3241972 -0.47468477 0.0024916166
0.027470158 0.043582428 -0.030754911 0.83729088 0.32415375 -0.44030482 0.0028927461
0.023705887 0.048352543 -0.032918889 0.71305597 0.54444325 -0.44173843 0.0052679786
0.025442922 0.046772376 -0.031679925 0.78316945 0.42592436 -0.45302761 0.0023781525
0.026939102 0.045588423 -0.030215045 0.79976743 0.48088598 -0.35933381 0.0027818866
0.022622762 0.049917653 -0.031912297 0.62462628 0.67019516 -0.40084976 0.0058075078
0.024409363 0.048744876 -0.030827641 0.71929073 0.59207582 -0.36341038 0.0019853157
0.01902952 0.052030556 -0.032364134 0.47274381 0.80610496 -0.35596079 0.0029920137
0.013884258 0.023865368 -0.027687876 -0.36044657 -0.72598028 -0.58568847 0.0013035398
0.016532307 0.023329463 -0.028188916 -0.20372912 -0.73099184 -0.65126443 0.002093009
0.019540053 0.023016874 -0.028333759 -0.010280532 -0.71121109 -0.70290345 0.0029415227
0.022365343 0.023128804 -0.028130487 0.20931001 -0.66355115 -0.71825433 0.0039829388
0.024803976 0.023691623 -0.02765792 0.42052063 -0.59558052 -0.68443131 0.0026861068
0.00850021 0.027279332 -0.027413329 -0.6091249 -0.64710224 -0.45850369 0.0024703359
0.010533105 0.02630787 -0.028286688 -0.49582422 -0.68806314 -0.52983731 0.002498063
0.013121733 0.02530681 -0.028998442 -0.31841385 -0.72812277 -0.60700065 0.0012679856
0.016155604 0.024652634 -0.029602656 -0.16859297 -0.72403914 -0.66883761 0.0017971492
0.019470762 0.024476999 -0.029866941 0.02207985 -0.69949478 -0.71429664 0.0026301078
0.022881608 0.02488244 -0.029581923 0.22851767 -0.64663434 -0.72776622 0.0030152979
0.025620958 0.025694102 -0.028758576 0.42993265 -0.5617559 -0.70681554 0.0021538017
0.027507393 0.026498005 -0.027748618 0.62939781 -0.46885917 -0.61970115 0.0024320676
0.0058376612 0.030364066 -0.027664324 -0.72053653 -0.5990032 -0.3493169 0.0030129624
0.0075947591 0.02897349 -0.028549185 -0.63786429 -0.6467371 -0.41816303 0.0019926452
0.0097820573 0.02782882 -0.029628152 -0.46464473 -0.70171458 -0.54009438 0.0023602375
0.026419446 0.027901243 -0.029722875 0.52688116 -0.46046779 -0.7143988 0.0032964775
0.028198963 0.02901539 -0.028496906 0.67783266 -0.36539701 -0.63798743 0.0018016524
0.004992241 0.032045569 -0.028517025 -0.79323679 -0.52412742 -0.30994487 0.0044646864
0.006403273 0.030816427 -0.029541453 -0.65469909 -0.64516568 -0.39386582 0.0013775179
0.028985439 0.031890061 -0.028814089 0.80070597 -0.20792593 -0.56181562 0.00091268832
0.030234845 0.032614548 -0.027205467 0.83288485 -0.1736632 -0.52549404 0.0018664801
0.0035606381 0.034546044 -0.028653832 -0.85279357 -0.47752345 -0.2114581 0.0031251539
0.029332446 0.034877352 -0.029140988 0.84421235 -0.081405722 -0.52979094 0.0015453743
0.030204372 0.034796238 -0.027633917 0.87234128 -0.047320735 -0.48660189 0.0017025656
0.0025834467 0.037179772 -0.029062729 -0.91159028 -0.38936636 -0.13189803 0.0016608887
0.029459704 0.037872855 -0.029034585 0.86722273 0.035007734 -0.49668825 0.0012531012
0.030204581 0.037898336 -0.027630992 0.90246254 0.085554905 -0.42218694 0.0023292045
0.029246636 0.040896218 -0.02868207 0.88650811 0.21581171 -0.40930268 0.00148243
0.030245258 0.039724294 -0.027059039 0.91000164 0.21469916 -0.35468492 0.0023478679
0.02832751 0.043825749 -0.028737005 0.86429238 0.32353809 -0.38512567 0.0019512607
0.026003495 0.047410239 -0.029680923 0.76280838 0.55168378 -0.33729556 0.0042849695
0.027275644 0.046229944 -0.02840258 0.81489086 0.49380454 -0.30349633 0.002881025
0.023441346 0.050043974 -0.029774806 0.62911755 0.72607595 -0.27753338 0.0040255217
0.025539568 0.048725937 -0.027853986 0.73654926 0.60973525 -0.2927765 0.0012525733
0.014285055 0.021073604 -0.024411008 -0.38045201 -0.72981185 -0.5680061 0.0012429389
0.016675383 0.020602837 -0.025029335 -0.24971847 -0.75153154 -0.61060703 0.0015866321
0.019403255 0.020256693 -0.025317851 -0.071661167 -0.75429034 -0.65261847 0.0022257536
0.02235323 0.020288426 -0.025256792 0.14712401 -0.72561473 -0.67218882 0.0037331788
0.025105467 0.020734156 -0.024757376 0.36426818 -0.64796352 -0.66891849 0.0032407553
0.010865807 0.023700831 -0.025051434 -0.52619803 -0.68375647 -0.50556171 0.0018459371
0.013311108 0.022654973 -0.025760008 -0.35817114 -0.73153418 -0.58014756 0.001210888
0.016357709 0.021904832 -0.026458647 -0.21768089 -0.749713 -0.62493646 0.0017044762
0.019389337 0.021550154 -0.026757589 -0.043898426 -0.72807878 -0.68408638 0.002019637
0.022547027 0.021688351 -0.026658388 0.16411981 -0.6924299 -0.70257074 0.0031411748
0.025681425 0.022501508 -0.026052793 0.42806694 -0.59351891 -0.68153787 0.0059143323
0.02791187 0.023345226 -0.024983376 0.60031682 -0.50223017 -0.62240219 0.0028291862
0.0078344075 0.026592659 -0.025331106 -0.65857375 -0.63891023 -0.39758557 0.0021423181
0.0097601358 0.025267586 -0.026038917 -0.57953006 -0.67866254 -0.4511787 0.0018139185
0.028715804 0.025810208 -0.025927916 0.70944923 -0.38701159 -0.58898538 0.0021103858
0.030168261 0.026634939 -0.024556534 0.77170676 -0.34361506 -0.53516108 0.002087984
0.0055390876 0.029547239 -0.025508273 -0.80065787 -0.5283137 -0.28254497 0.0039917384
0.0067459331 0.028257295 -0.026040509 -0.72785413 -0.59416801 -0.34233442 0.0030877031
0.029620906 0.028584057 -0.026469752 0.79605681 -0.27707368 -0.5380742 0.001704802
0.030708652 0.029121079 -0.025026148 0.83117294 -0.23776431 -0.50261283 0.001953928
0.0043041115 0.031704158 -0.025543779 -0.86076504 -0.46319908 -0.21102171 0.0024233162
0.030952414 0.031828374 -0.025578052 0.88814318 -0.12166521 -0.44316965 0.0020309242
0.0027398113 0.036184806 -0.026946893 -0.90941578 -0.39204305 -0.13879889 0.0022361667
0.0033376601 0.034057032 -0.025823107 -0.89832133 -0.40897894 -0.16048338 0.0041418262
0.031248014 0.034973953 -0.025495118 0.91840804 0.000798708 -0.39563358 0.0011485183
0.030989902 0.037966833 -0.025740195 0.93042946 0.11437263 -0.34816667 0.0023040171
0.029830372 0.041983638 -0.026648482 0.9178738 0.25145474 -0.30704767 0.0019503814
0.030518815 0.040868349 -0.025563428 0.92465883 0.24018671 -0.29549319 0.0017449093
0.029298 0.043817457 -0.026093107 0.89146185 0.34220591 -0.29696941 0.0012891657
0.026524113 0.048023295 -0.026258862 0.78419876 0.55402011 -0.27945298 0.0031957526
0.028060149 0.045990665 -0.02655529 0.83232892 0.47464618 -0.2862508 0.0032570455
0.014912881 0.018231243 -0.021216711 -0.41256887 -0.71779788 -0.56085038 0.00084475492
0.016693631 0.017857052 -0.021713335 -0.29773483 -0.73469961 -0.60956585 0.0021978251
0.019448668 0.017445695 -0.022083376 -0.1134904 -0.76410371 -0.63503188 0.0019664154
0.0224324 0.017379753 -0.022092512 0.097952798 -0.72316414 -0.68369508 0.0030759317
0.025171196 0.017789455 -0.021743037 0.31831715 -0.69657707 -0.6430043 0.003404126
0.027069958 0.018237114 -0.021077415 0.53559762 -0.62700653 -0.56568372 0.0035499258
0.011250009 0.021004839 -0.021746596 -0.54590768 -0.67062902 -0.50223655 0.0017357648
0.013575191 0.020008689 -0.022504592 -0.38959312 -0.71718776 -0.57780534 0.001024748
0.016319733 0.019173529 -0.023142027 -0.25323415 -0.75002933 -0.61100608 0.001366368
0.019305265 0.01880064 -0.023631841 -0.09124852 -0.76054436 -0.64284211 0.0018841755
0.022436021 0.018799622 -0.023655193 0.11175948 -0.73960549 -0.66369689 0.0028234553
0.025661036 0.019457879 -0.02318999 0.31200024 -0.67545563 -0.66814333 0.0024528792
0.028025672 0.020235095 -0.022141198 0.57091868 -0.54197371 -0.61669791 0.0031522233
0.008318508 0.023924069 -0.021995453 -0.66788101 -0.61997062 -0.41179052 0.0018037626
0.010128487 0.022713862 -0.022780409 -0.61607665 -0.64576417 -0.45104143 0.0010456521
0.012367526 0.021700673 -0.023785612 -0.45736763 -0.7133469 -0.53099072 0.0037663286
0.029088305 0.022629907 -0.02311293 0.68560094 -0.45109725 -0.57136917 0.0028364952
0.030402178 0.023424227 -0.02198606 0.75717837 -0.40385529 -0.51340216 0.0019392659
0.0059060985 0.026962399 -0.021890735 -0.79630846 -0.52678859 -0.29729906 0.0022380184
0.007217369 0.025672806 -0.022693863 -0.71858382 -0.59407473 -0.36154169 0.0026377521
0.031033846 0.025798105 -0.022574533 0.81812781 -0.31190327 -0.48309746 0.0013218942
0.0050601778 0.028816672 -0.022591714 -0.86552894 -0.4385463 -0.24194393 0.0032948172
0.0063290503 0.027505085 -0.023921659 -0.74841827 -0.57169539 -0.33620587 0.001314305
0.031854462 0.028857512 -0.02265564 0.87866884 -0.19997962 -0.43353114 0.00082682108
0.0037280789 0.031903569 -0.022893444 -0.90318817 -0.38744205 -0.18476948 0.0030891874
0.032134756 0.03185321 -0.023065399 0.92945379 -0.071576387 -0.36192864 0.0014826581
0.0027527185 0.035995964 -0.023952415 -0.91811281 -0.3702482 -0.14136857 0.0020768249
0.0032015352 0.033788014 -0.023613712 -0.91863114 -0.37107599 -0.13571814 0.0019934434
0.032353736 0.034987595 -0.022632509 0.94533062 0.037439857 -0.32395732 0.0019167429
0.032057062 0.037754916 -0.022606952 0.94838148 0.12766062 -0.29030216 0.00073390739
0.031262398 0.040753409 -0.022837499 0.93060529 0.2361684 -0.27963951 0.0014694614
0.030308744 0.043242496 -0.023021361 0.91361904 0.29689571 -0.27776441 0.001880559
0.01698474 0.015005508 -0.018498728 -0.30462795 -0.7265138 -0.61593795 0.0018145506
0.019630235 0.014597493 -0.018840624 -0.12801638 -0.72947472 -0.67192155 0.0019282714
0.022371748 0.014543098 -0.018927954 0.077395216 -0.7583307 -0.64725924 0.0027472493
0.024958931 0.01485688 -0.018641563 0.30437422 -0.70980769 -0.6352396 0.003099978
0.011682186 0.018193787 -0.018514743 -0.54158652 -0.6502353 -0.53280193 0.0023222538
0.013620217 0.017438006 -0.01929982 -0.44598094 -0.6963985 -0.56225449 0.0018121705
0.016205499 0.016443893 -0.019774323 -0.29619741 -0.72418314 -0.62275666 0.002227668
0.019331755 0.015965583 -0.02034919 -0.11937868 -0.73524433 -0.66720641 0.0018354628
0.022506436 0.015881721 -0.020419696 0.076516464 -0.7294873 -0.67970097 0.002394303
0.025541997 0.016370483 -0.020021703 0.28302598 -0.70532119 -0.64993709 0.0024572916
0.028053701 0.017339284 -0.019254003 0.54098701 -0.61652213 -0.57204318 0.0041711307
0.029974086 0.018361181 -0.018125376 0.70473295 -0.5190708 -0.48364958 0.0036353944
0.0086662816 0.021070033 -0.01834779 -0.68998826 -0.57378298 -0.44123602 0.0025907177
0.010543196 0.020058978 -0.019590441 -0.59431577 -0.65463895 -0.46715811 0.0016099013
0.012739207 0.018993424 -0.020504976 -0.44024915 -0.70274621 -0.55886364 0.0018583002
0.029238921 0.019541822 -0.020205904 0.69808578 -0.49279612 -0.51944989 0.0021642318
0.030618971 0.020387387 -0.019082496 0.74595684 -0.44790998 -0.49287418 0.0027537413
0.007743103 0.022909414 -0.019377172 -0.71470594 -0.57051456 -0.40460917 0.0017907586
0.009192911 0.021873936 -0.020358382 -0.68610615 -0.59454489 -0.4192549 0.0018711338
0.03153399 0.022840619 -0.019537171 0.83747298 -0.34241268 -0.42590207 0.0020525856
0.0054368153 0.026524028 -0.019521231 -0.86015958 -0.45977023 -0.22076425 0.0041834
0.0064927069 0.024998317 -0.019939693 -0.77948862 -0.54351848 -0.31142449 0.0023128402
0.032311797 0.025677057 -0.019971361 0.8929767 -0.24493243 -0.37762508 0.0015933635
0.033114124 0.026719648 -0.018554924 0.9028759 -0.22030146 -0.36916447 0.00090005045
0.0044479636 0.028742824 -0.01973494 -0.90024799 -0.39539602 -0.18225107 0.0014098632
0.032489445 0.02792988 -0.020833394 0.90451849 -0.1619762 -0.3944743 0.0022960033
0.033138726 0.029293334 -0.019549606 0.93755686 -0.117468 -0.32739642 0.00046766459
0.0035604993 0.031489417 -0.019866986 -0.92080325 -0.35803965 -0.15468973 0.0011171395
0.032931671 0.032875646 -0.020939594 0.94756359 -0.042987216 -0.31666288 0.0018587925
0.033344388 0.031789169 -0.019312235 0.95496756 -0.042267926 -0.29368424 0.0014188929
0.03298378 0.034958869 -0.020258527 0.95977408 0.042204183 -0.27758318 0.0012810497
0.03253226 0.038113657 -0.020265779 0.95025688 0.17157179 -0.25995204 0.0022586619
0.017299064 0.011999048 -0.015342906 -0.25257114 -0.71411592 -0.65287548 0.0010624167
0.019567793 0.011717551 -0.015631251 -0.10964509 -0.72432083 -0.6806888 0.0019835536
0.022272196 0.011672929 -0.015683806 0.084686622 -0.73426205 -0.67356318 0.0027777872
0.024763154 0.011936402 -0.015409639 0.29990998 -0.72056019 -0.62517756 0.0029504399
0.011688841 0.015286759 -0.015269181 -0.52150369 -0.63870305 -0.56576693 0.0011165944
0.013737227 0.014480697 -0.016059762 -0.44273865 -0.62853992 -0.63946855 0.0011357745
0.01633664 0.013666831 -0.016706422 -0.29152808 -0.68234038 -0.67039019 0.0017634807
0.019355077 0.013127769 -0.01714153 -0.11545804 -0.72640282 -0.67750162 0.0016599502
0.022481741 0.013011068 -0.017174341 0.069395885 -0.73556817 -0.67388701 0.0022625849
0.025611307 0.013533891 -0.016817616 0.32434651 -0.70260733 -0.63335794 0.0046926504
0.028120281 0.014499077 -0.016079418 0.52121353 -0.64240003 -0.56183511 0.0035045361
0.01075024 0.017216081 -0.016363358 -0.58343858 -0.60165715 -0.54553473 0.001637042
0.013096319 0.016091757 -0.017318323 -0.42947781 -0.66229153 -0.61393708 0.0016354833
0.028980203 0.016280727 -0.017172977 0.58371782 -0.61146951 -0.53420836 0.0044406331
0.030554289 0.017493544 -0.016318187 0.72350174 -0.50797784 -0.46744385 0.0021053308
0.0080907531 0.020149605 -0.016183678 -0.71641737 -0.53756869 -0.44470888 0.0027648776
0.0095912684 0.019299142 -0.017408159 -0.61032885 -0.60379446 -0.51276803 0.0014487675
0.031728081 0.019843815 -0.016527362 0.83858162 -0.3743138 -0.39581555 0.00086770946
0.0055238102 0.024162576 -0.01568011 -0.87376559 -0.38645789 -0.29526916 0.003149963
0.0066623879 0.022726338 -0.016730947 -0.8074047 -0.49480838 -0.32134461 0.0016807974
0.032632023 0.022501318 -0.01693652 0.8805536 -0.30092084 -0.36615843 0.00095499138
0.033303816 0.023684736 -0.01607552 0.92195219 -0.23811726 -0.30545747 0.002208475
0.0049682935 0.025933253 -0.01655628 -0.89614987 -0.38324505 -0.22369301 0.0022088129
0.0059516309 0.024711326 -0.018049439 -0.80109376 -0.51334441 -0.30777636 0.0017962873
0.033576693 0.025710864 -0.016478313 0.94127995 -0.17446063 -0.2890597 0.0030552521
0.0039998484 0.028835189 -0.016253844 -0.92492253 -0.34553939 -0.15849549 0.0036447286
0.033640105 0.028366372 -0.01761172 0.95728523 -0.11671379 -0.26454267 0.00090519356
0.033643443 0.034043256 -0.017568713 0.97950292 0.044533134 -0.19644529 0.00078253302
0.016953945 0.0093214735 -0.012379201 -0.26426822 -0.70689481 -0.6560961 0.0018073556
0.019484673 0.0090249805 -0.012647988 -0.081391498 -0.74794132 -0.65875572 0.0018411917
0.022285063 0.0090622585 -0.012698203 0.10584859 -0.76275325 -0.6379683 0.0026285734
0.024628785 0.0092991116 -0.012349633 0.30437744 -0.74272698 -0.59641504 0.0024444745
0.011538544 0.012176872 -0.012131235 -0.53104961 -0.57128388 -0.62579626 0.0007709483
0.013715666 0.011465426 -0.012974061 -0.41076693 -0.63883096 -0.65051186 0.0018956609
0.016424343 0.010844784 -0.013751911 -0.28070456 -0.70615041 -0.65004355 0.0023162321
0.019396441 0.010421835 -0.014177473 -0.090006217 -0.74852288 -0.65697223 0.0015671694
0.022568999 0.010371191 -0.014156992 0.081928819 -0.76039743 -0.6442697 0.0022560596
0.02555809 0.010823003 -0.013681032 0.27339336 -0.73553425 -0.61987525 0.00218612
0.027771199 0.011628438 -0.013010625 0.49999344 -0.67532581 -0.54216391 0.0033270137
0.0087752771 0.015385778 -0.012397906 -0.64089322 -0.50978214 -0.57391459 0.0016799415
0.010593342 0.014252651 -0.013234612 -0.56936884 -0.57245207 -0.59001505 0.0018955272
0.012938396 0.013234263 -0.014212526 -0.44335443 -0.63272619 -0.63489717 0.0010115721
0.015122528 0.012557895 -0.014940819 -0.38764623 -0.66622502 -0.63708293 0.00092083734
0.02885277 0.013336509 -0.013877388 0.60738081 -0.59643686 -0.5247395 0.0044111512
0.030598827 0.014840957 -0.013225934 0.72057027 -0.53844035 -0.43687591 0.0021489295
0.0081277462 0.017172296 -0.013139069 -0.70059729 -0.48849514 -0.52013069 0.0020018795
0.0096169766 0.016425196 -0.014297405 -0.66536671 -0.52398199 -0.53172362 0.0019827196
0.031520061 0.016769171 -0.013692657 0.81170118 -0.43508059 -0.3896744 0.0020773648
0.0055590505 0.021357954 -0.012409827 -0.90754884 -0.28587139 -0.30762428 0.0034633877
0.0069003557 0.019752529 -0.013628844 -0.81732094 -0.4083589 -0.40648431 0.0017529993
0.032439992 0.019074138 -0.014212027 0.87555683 -0.34795272 -0.3351554 0.0012641319
0.033234626 0.020285591 -0.013236417 0.91514903 -0.29129121 -0.27866057 0.0020305379
0.0052426793 0.023143334 -0.013385756 -0.90195143 -0.34933656 -0.25386542 0.0027763301
0.0061075827 0.022055138 -0.014526462 -0.86290932 -0.38536707 -0.32692483 0.0047615985
0.033782553 0.022968424 -0.013811406 0.94731194 -0.21229397 -0.23985706 0.00096600928
0.0044346531 0.025889875 -0.013456492 -0.93977875 -0.2750704 -0.20286027 0.0023820712
0.034455821 0.026374536 -0.013011303 0.97933871 -0.08298409 -0.18441606 0.0009774653
0.0037143852 0.029554769 -0.013484081 -0.95149666 -0.28121614 -0.12478609 0.00095844379
0.034349084 0.029037401 -0.014368145 0.97564775 -0.068502635 -0.20837212 0.00091248646
0.034464143 0.030970722 -0.012905469 0.97887915 -0.036911864 -0.20107988 0.00058535248
0.017165257 0.0062380992 -0.0092136962 -0.21713789 -0.71304542 -0.66664642 0.0017331952
0.019665569 0.0060431045 -0.0093750982 -0.035663761 -0.74829066 -0.66241163 0.0018893697
0.022481611 0.0062362691 -0.0093556345 0.16885078 -0.76162046 -0.62563866 0.0030613558
0.011610689 0.0090152184 -0.0092203226 -0.49429631 -0.57465446 -0.65226018 0.00089779653
0.013719333 0.0085355146 -0.010093512 -0.36436 -0.66093314 -0.65605575 0.0015994917
0.016337719 0.0078886375 -0.010655049 -0.24834991 -0.70823407 -0.66085309 0.0020338637
0.019316835 0.0074792625 -0.01092249 -0.05472393 -0.74870098 -0.66064525 0.0016855621
0.022483939 0.0074970345 -0.010837497 0.14545284 -0.75108248 -0.64398634 0.0038650436
0.0253572 0.0081714429 -0.010511691 0.34081164 -0.73435664 -0.58699888 0.0040103672
0.02748253 0.0090913512 -0.010041913 0.53162789 -0.67081976 -0.5170809 0.0032637634
0.0086761927 0.012096589 -0.0093843741 -0.6332162 -0.49980456 -0.59095913 0.0025539594
0.010614892 0.011092931 -0.010319864 -0.52582693 -0.56354672 -0.63711941 0.0020692036
0.012866285 0.010379387 -0.011351401 -0.44783655 -0.61307371 -0.65083253 0.0017012958
0.026728505 0.0098849544 -0.011818519 0.52815133 -0.66947842 -0.52235502 0.0033741917
0.028614193 0.010653251 -0.010783927 0.62184137 -0.64016867 -0.45110694 0.0036235997
0.030258711 0.011864854 -0.009980537 0.7095198 -0.57039267 -0.41380411 0.0022693968
0.0080075739 0.014240066 -0.010401489 -0.67177683 -0.49519798 -0.55090356 0.0013614806
0.0097159008 0.013119626 -0.011323638 -0.559084 -0.55270535 -0.61801445 0.0011549774
0.031229567 0.013880679 -0.010705642 0.78430104 -0.4904108 -0.3799594 0.0025712084
0.005474682 0.017914239 -0.0094967019 -0.82653141 -0.34699857 -0.44321308 0.0033437358
0.0066805291 0.016729048 -0.010649007 -0.77632064 -0.38369557 -0.50010395 0.0011696838
0.032620694 0.016481686 -0.01068568 0.86885482 -0.38874143 -0.30654758 0.00097847474
0.033294618 0.017771717 -0.010159126 0.90083009 -0.34560946 -0.26279122 0.0019295044
0.0052044694 0.020066587 -0.010473955 -0.89631605 -0.2906186 -0.33490053 0.0033512926
0.0061433921 0.01898171 -0.011572896 -0.84270799 -0.34039918 -0.41709903 0.0037561131
0.0338508 0.01989584 -0.010438697 0.94763553 -0.2372786 -0.21374233 0.0011455227
0.0045027682 0.022837371 -0.010452187 -0.94682688 -0.21198818 -0.24203269 0.0052995337
0.034506064 0.023302268 -0.010421674 0.96047825 -0.19339798 -0.2001967 0.00032022837
0.0041895672 0.025329798 -0.011242403 -0.94773114 -0.23222722 -0.21880631 0.0029451596
0.034579869 0.024858661 -0.011434337 0.96647602 -0.15441285 -0.205136 0.00063028786
0.01130846 0.0060884431 -0.006369587 -0.4541221 -0.59918493 -0.65935618 0.0010873184
0.013693478 0.0054583577 -0.0071124732 -0.334492 -0.65049213 -0.68189073 0.0013269042
0.01648313 0.0048031607 -0.0075192456 -0.20997636 -0.69090408 -0.69178134 0.0016072484
0.019354619 0.004521532 -0.0076776901 -0.0017296111 -0.76046497 -0.64937663 0.0023640885
0.022379927 0.00467085 -0.0075146258 0.20966072 -0.75093883 -0.62620544 0.0034388267
0.025161615 0.0055342061 -0.0073081404 0.40342298 -0.72933972 -0.55255181 0.0034710609
0.027284432 0.0062736063 -0.0064681671 0.60129505 -0.65165615 -0.46237275 0.0024159225
0.0085727936 0.0087575279 -0.0064913183 -0.56900418 -0.51647764 -0.63991028 0.0011768218
0.010549917 0.0079447525 -0.0074553494 -0.47810525 -0.59926981 -0.64209896 0.0013482432
0.013049035 0.0071758386 -0.0084034391 -0.36187148 -0.63558507 -0.68196821 0.0024951331
0.026065627 0.006975248 -0.0085390415 0.41160065 -0.71792519 -0.56139863 0.0068259984
0.028268587 0.0079444889 -0.0074849292 0.62236029 -0.6382376 -0.45312315 0.0031496687
0.0076707792 0.011055952 -0.0073815351 -0.67140639 -0.43925908 -0.5968793 0.0012415682
0.0097718174 0.0099542178 -0.0085951891 -0.54619098 -0.54445392 -0.63658875 0.00074404443
0.029441332 0.0097735859 -0.0083697401 0.6685937 -0.61673599 -0.4154745 0.0044147968
0.030847549 0.011084691 -0.007535574 0.77718431 -0.52824146 -0.34197295 0.002414264
0.0053869784 0.014276249 -0.0067621968 -0.79684865 -0.33938095 -0.49985266 0.0027839569
0.0066615231 0.013573245 -0.0081336219 -0.75792104 -0.39728156 -0.51741964 0.0014676042
0.032217357 0.013555829 -0.0077293501 0.86795187 -0.41466826 -0.27333096 0.0016563119
0.033085402 0.014881537 -0.0067613027 0.88140488 -0.40318507 -0.24610409 0.0011703563
0.0049025435 0.016879907 -0.0075630178 -0.87414736 -0.24796914 -0.41758561 0.0034776367
0.006062042 0.015512095 -0.0087347832 -0.75298071 -0.41260493 -0.51261801 0.0013142277
0.033556331 0.016862961 -0.0077170534 0.93552881 -0.30061641 -0.18551446 0.00076777273
0.0041502174 0.019899925 -0.0075729624 -0.93436784 -0.15873359 -0.31899914 0.0037316484
0.03443693 0.019976228 -0.0073415688 0.95541656 -0.23615354 -0.17723025 0.00083717372
0.0038539525 0.022715978 -0.0078188516 -0.96921897 -0.1033071 -0.22347757 0.0045701005
0.034814786 0.023404866 -0.0084480252 0.96135598 -0.19923183 -0.19000374 0.00037071557
0.0037502246 0.025985045 -0.0079409685 -0.97602904 -0.14356175 -0.16357666 0.0022078236
0.011284604 0.002760903 -0.0034450749 -0.36182314 -0.58123809 -0.72886652 0.002905973
0.013506119 0.0022145999 -0.0039829491 -0.29723087 -0.62822157 -0.71902114 0.0013120552
0.016440632 0.0018805828 -0.0045150034 -0.1306438 -0.71120894 -0.69073439 0.0023496915
0.019439699 0.0018512796 -0.0047182683 0.025885781 -0.74581003 -0.66565543 0.0026524197
0.022264509 0.002146733 -0.0044966433 0.25016728 -0.74115562 -0.62298042 0.0041376287
0.024818838 0.0026625637 -0.0037657919 0.45469314 -0.71292597 -0.53384513 0.0024945776
0.0082108397 0.0058389483 -0.003821902 -0.56864887 -0.4975774 -0.6550231 0.0018027195
0.010395178 0.0047578509 -0.0045842682 -0.43837574 -0.58384717 -0.68333679 0.0019108342
0.013105148 0.0039794426 -0.0054304311 -0.30469513 -0.64169818 -0.70383543 0.0015107532
0.015424792 0.0034823427 -0.0058896146 -0.16751844 -0.70413572 -0.69002211 0.0018968821
0.023362981 0.0034833658 -0.0057316525 0.26486284 -0.74719822 -0.60954279 0.0064378856
0.025715239 0.0041112658 -0.0049472237 0.40778029 -0.72505301 -0.55498958 0.0024056046
0.027870676 0.0053644055 -0.0043052495 0.60090023 -0.66025698 -0.45053264 0.0027032765
0.0056553087 0.0088920081 -0.0034770719 -0.69129783 -0.39545065 -0.6047529 0.0023154949
0.007427529 0.0078701312 -0.0046578413 -0.63615537 -0.4456349 -0.6298539 0.0014726495
0.0095185451 0.0069045387 -0.0057812138 -0.55054712 -0.53490198 -0.64091939 0.00072077836
0.029276025 0.0072933771 -0.0050112894 0.73529994 -0.57092023 -0.36521783 0.0011603415
0.030399527 0.0083489576 -0.0043213903 0.76220095 -0.55075479 -0.34017494 0.0032668333
0.0050930874 0.011218009 -0.0042485865 -0.76447988 -0.34750989 -0.54296178 0.0026063106
0.0065257731 0.010150447 -0.0054013683 -0.68623096 -0.447088 -0.5737589 0.0025281601
0.031660672 0.010759339 -0.0047706594 0.85603225 -0.45339543 -0.24827671 0.0016012526
0.0043056803 0.013917401 -0.0045825699 -0.83275193 -0.29706529 -0.46720058 0.0020699282
0.03275799 0.013073274 -0.004876574 0.89270395 -0.39272866 -0.22100624 0.0012473511
0.033464801 0.014433713 -0.0037623646 0.92366236 -0.33821756 -0.18015735 0.0010945135
0.0036824825 0.016788432 -0.0047667394 -0.91619307 -0.16466871 -0.36534157 0.0042509921
0.033885553 0.01655928 -0.0054163835 0.93782353 -0.30112857 -0.17265186 0.0006294357
0.0033610368 0.019738154 -0.0048304214 -0.96893996 -0.046323057 -0.24291879 0.0048357057
0.0033029823 0.02289718 -0.0047851056 -0.98216856 -0.034129608 -0.18487865 0.0012661922
0.0033089747 0.024594679 -0.0036729774 -0.98270345 -0.019321699 -0.18417561 0.0010400077
0.016800705 -0.0026253974 -8.1507023e-05 -0.0075888378 -0.69512016 -0.71885347 0.0026317558
0.010771357 -0.00041115721 -0.00064483401 -0.34223819 -0.56942105 -0.74741739 0.0014822732
0.013514502 -0.00089841965 -0.0012161888 -0.18178803 -0.66051531 -0.72847283 0.0014800914
0.016434625 -0.00091899023 -0.001733455 -0.040253766 -0.70060867 -0.71240944 0.003435028
0.019427817 -0.00095357199 -0.0016116311 0.10345753 -0.72978956 -0.67579859 0.0045836568
0.022284161 -0.00048558711 -0.0012296172 0.34899092 -0.7413004 -0.57330543 0.0024292213
0.024459375 9.325624e-05 -0.00051295524 0.51518357 -0.70948005 -0.48085758 0.0030406427
0.007709505 0.0021186285 -0.00077841943 -0.48777777 -0.47690916 -0.7311843 0.002249212
0.010189468 0.0016780326 -0.001968591 -0.41103444 -0.54737246 -0.72899532 0.0019524683
0.01308889 0.00091848633 -0.0026600771 -0.24561892 -0.65402216 -0.71549022 0.0015504227
0.015050143 0.00068362162 -0.0030526421 -0.22563604 -0.67868644 -0.69890863 0.0013858241
0.022784317 0.00081782578 -0.0026438734 0.27365878 -0.75289118 -0.59855312 0.0027570007
0.025490077 0.0017001423 -0.0017588375 0.50730419 -0.73046786 -0.45722985 0.0025481503
0.027541375 0.0028851191 -0.0009557209 0.62491101 -0.66636354 -0.40675035 0.0026392913
0.0052403812 0.0053198878 -0.00073437369 -0.64791965 -0.38077563 -0.65970451 0.0020506501
0.0070972401 0.004624669 -0.001995251 -0.57430911 -0.46090323 -0.67656285 0.0012560503
0.0091067469 0.0036585391 -0.002848814 -0.5326553 -0.51813161 -0.66919214 0.0020740218
0.026791256 0.0035010437 -0.00299718 0.52111793 -0.70081973 -0.48712197 0.0027409925
0.028719202 0.0046703066 -0.001723393 0.73983043 -0.58569592 -0.33107591 0.0011963517
0.030228775 0.0061113103 -0.00074442243 0.7790091 -0.5550428 -0.29167148 0.0020372034
0.0046026204 0.0080264136 -0.0015561061 -0.75007218 -0.2939803 -0.59242505 0.0015390227
0.0062886751 0.0069471211 -0.0028193495 -0.6458469 -0.46148387 -0.60820591 0.0018110082
0.030922085 0.0078047439 -0.0018210276 0.80052447 -0.52646351 -0.28635091 0.0021351846
0.0028536948 0.011308611 -0.00052592671 -0.86780244 -0.18929809 -0.45944011 0.0033800241
0.0038117412 0.010779068 -0.0019797273 -0.83663303 -0.25430122 -0.48515564 0.0018855744
0.032412905 0.010757251 -0.0018730304 0.88252008 -0.42109144 -0.20938075 0.00071916421
0.033005636 0.011992172 -0.0014969311 0.9022333 -0.38076818 -0.2024616 0.0020594466
0.0026336971 0.014001014 -0.00098036975 -0.93782026 -0.087770008 -0.33584154 0.003688585
0.003314716 0.013843007 -0.0026073477 -0.89451236 -0.18336344 -0.40770754 0.0024945955
0.033483524 0.013408364 -0.0014068685 0.9175241 -0.36048841 -0.16792168 0.0014650713
0.0026135223 0.016940417 -0.0014741695 -0.95793873 -0.048074748 -0.28291729 0.0042420682
0.034301564 0.017117247 -0.0030345521 0.93772155 -0.30210382 -0.17149802 0.00063678285
0.0027422032 0.019716676 -0.0020287866 -0.97610343 0.0048960038 -0.21725129 0.0013037032
0.0028511097 0.022141188 -0.0011257133 -0.98076153 0.0046061389 -0.19515529 0.0014825797
0.0078777131 -0.0031206366 0.0025117355 -0.37587279 -0.48223335 -0.79130942 0.0019514832
0.010574216 -0.0037160842 0.0019176826 -0.26980704 -0.56332183 -0.78094339 0.001388744
0.013536919 -0.0040624538 0.0015099822 -0.10001706 -0.65355271 -0.7502436 0.0030077947
0.016298702 -0.004177148 0.0014579669 0.027435595 -0.70151597 -0.71212542 0.0031727562
0.019305231 -0.0036656777 0.0014067157 0.23033208 -0.74482918 -0.62624007 0.0033144525
0.022122676 -0.0031492198 0.002128432 0.40679494 -0.73426533 -0.54348171 0.0018129762
0.0051755002 -0.0004712512 0.002442074 -0.5150851 -0.39263815 -0.76192033 0.0024281219
0.0073669516 -0.00097737287 0.0013879542 -0.43977281 -0.46313643 -0.76948327 0.0012146746
0.010029659 -0.0015888783 0.00053330138 -0.31695729 -0.56522876 -0.76161313 0.0031881959
0.012550722 -0.0021537831 8.8910107e-05 -0.15889162 -0.65366644 -0.7399146 0.0017474111
0.020588106 -0.0021534851 4.4743065e-05 0.18979549 -0.73624212 -0.64955777 0.0041701491
0.022754619 -0.0018307444 0.00081315008 0.33751798 -0.74601752 -0.57405525 0.0022939465
0.025102532 -0.00074014685 0.0014644451 0.55425733 -0.69806731 -0.45332202 0.0035735453
0.0028678942 0.0028246054 0.0027683177 -0.66513628 -0.28112245 -0.69178313 0.0034741277
0.0045927512 0.0019252884 0.0016379277 -0.57818836 -0.34075248 -0.7413407 0.0022627434
0.006604509 0.001353804 0.00043962873 -0.5314464 -0.41666141 -0.73753512 0.001715449
0.02637268 0.00084130571 0.00058974815 0.64979833 -0.66149163 -0.37442091 0.0016652922
0.027851101 0.0019600356 0.0013390486 0.6571179 -0.6594364 -0.36515716 0.0017453481
0.0025023043 0.0051288828 0.0023383824 -0.75700986 -0.20866843 -0.61918777 0.004136133
0.0040150429 0.004681495 0.00086188456 -0.67587817 -0.32302704 -0.66245174 0.0036407209
0.029479219 0.00415859 0.0010402054 0.78317428 -0.56344354 -0.26300094 0.0022396117
0.030629992 0.0056667565 0.001710298 0.79842472 -0.54608053 -0.25360218 0.0013032756
0.0022928631 0.0081345253 0.0016597337 -0.84142333 -0.14867538 -0.5195213 0.0056964415
0.003424861 0.0074015991 0.00028345361 -0.77122647 -0.25267982 -0.58426255 0.0033527052
0.031693634 0.007890881 0.0013089338 0.8472175 -0.47862339 -0.23052569 0.0010554304
0.0020074483 0.010788382 0.0014825561 -0.91029239 -0.081751794 -0.40581325 0.0053468929
0.0017946362 0.013614281 0.0016035484 -0.95606571 0.00244421 -0.2931422 0.0028970977
0.0019142219 0.01706297 0.0017934144 -0.98363405 0.076530173 -0.16311672 0.0028741921
0.0023855395 0.01986441 0.00073633576 -0.98590451 0.059167113 -0.1564972 0.0018121211
0.01054517 -0.008896919 0.0057759439 -0.092419356 -0.59149259 -0.80099636 0.002041796
0.013417772 -0.008895536 0.0057120589 0.06161809 -0.66693819 -0.74256092 0.0029782618
0.015340677 -0.0089003434 0.0059345164 0.19641863 -0.69400269 -0.69266152 0.0031297766
0.0051438841 -0.0064125331 0.0056330278 -0.35536569 -0.44457945 -0.82223129 0.0020245318
0.0075267074 -0.0070752362 0.0051392182 -0.25970766 -0.50502247 -0.82310641 0.0021835372
0.010366101 -0.0071482207 0.0044813883 -0.14242838 -0.58562195 -0.7979731 0.0021455195
0.013448528 -0.0072424845 0.004263971 0.019768508 -0.64876872 -0.76072878 0.0033528488
0.016429456 -0.0071273246 0.0044163661 0.18328238 -0.72549117 -0.66337788 0.002523331
0.019152477 -0.0066694301 0.0048399228 0.35185334 -0.72530025 -0.59172523 0.0029243934
0.021556355 -0.0060205744 0.0056305625 0.50424004 -0.71680892 -0.48158801 0.003867002
0.0025315976 -0.0034081261 0.0055579781 -0.50709903 -0.34427741 -0.79014152 0.0022296619
0.0045952033 -0.0040234667 0.0046236524 -0.45969516 -0.39101851 -0.79736114 0.0012185682
0.0071787615 -0.0045119841 0.0036676829 -0.33404967 -0.49266079 -0.80355227 0.0029503328
0.01009969 -0.0052911052 0.0031910716 -0.19564074 -0.57984883 -0.79088557 0.0015957912
0.017624198 -0.0055041895 0.0029525557 0.095161207 -0.71449447 -0.69313937 0.0019597244
0.019549111 -0.0053522717 0.0034420653 0.27027336 -0.73005295 -0.62767422 0.0027015938
0.022425463 -0.0044642803 0.0042305817 0.4727366 -0.71208519 -0.51909041 0.0051921438
0.02458352 -0.0031395718 0.004671162 0.59710622 -0.68783224 -0.41273603 0.0019742998
0.0019368854 -0.00088323699 0.0050212075 -0.59767944 -0.27388191 -0.75350374 0.0029896728
0.0041277315 -0.0013099812 0.0035966365 -0.51597679 -0.36257741 -0.77608347 0.0037110588
0.025970457 -0.0014237417 0.0039421269 0.64858615 -0.66321939 -0.37346476 0.004132207
0.02743593 -0.00017699791 0.0046514133 0.72551304 -0.61987913 -0.29896602 0.0020995794
0.0016095319 0.0018210674 0.0044277678 -0.66329712 -0.24139635 -0.70835352 0.0024764393
0.0033456441 0.00092164532 0.0031329044 -0.60566759 -0.31347069 -0.73137063 0.001194054
0.028646132 0.0016377543 0.0041400478 0.77126729 -0.57816613 -0.26621541 0.0013657211
0.00087398366 0.0048928023 0.0044967462 -0.838956 -0.072644748 -0.53932881 0.004836021
0.030472852 0.0043872981 0.0046919831 0.80080014 -0.54562247 -0.24701266 0.0010670868
0.00069080043 0.0079387743 0.0044567967 -0.90477228 -0.035903666 -0.42437962 0.0047245007
0.00072549435 0.01095596 0.0046081617 -0.93529165 0.035515424 -0.35209122 0.0048525119
0.0011433663 0.014107103 0.0041779899 -0.96266216 0.12978248 -0.2375669 0.0049214642
0.001442145 0.016199075 0.0042603114 -0.97341913 0.11823937 -0.19614972 0.003103263
0.0019223726 0.0188784 0.0055753388 -0.97728044 0.13851582 -0.16042522 0.0014332816
0.0050031408 -0.01203475 0.0087312777 -0.21806154 -0.4642258 -0.85845417 0.001880519
0.0075419149 -0.012301028 0.0084932279 -0.090386555 -0.54689097 -0.83231044 0.0017874879
0.010361061 -0.012326857 0.0084044691 0.028675281 -0.60894638 -0.7926929 0.0020657058
0.013061466 -0.012039547 0.0084744133 0.15785988 -0.67484105 -0.72088122 0.0029647199
0.014950261 -0.011855124 0.0087755118 0.29979038 -0.68933511 -0.65950197 0.0041746725
0.0020891288 -0.009759468 0.0085124932 -0.359247 -0.36507422 -0.85887283 0.0024900506
0.004573415 -0.010144621 0.0078094699 -0.25097564 -0.47387996 -0.84406698 0.0010419323
0.007450168 -0.010126881 0.0070717693 -0.15839297 -0.52910638 -0.83364153 0.0025456324
0.01029007 -0.010315543 0.0068712668 -0.04793831 -0.60224265 -0.7968725 0.0027144123
0.013411561 -0.010337004 0.0070005455 0.089102365 -0.66442782 -0.74202186 0.0018258453
