# .PCD v0.7 - Point Cloud Data file format
VERSION 0.7
FIELDS x y z normal_x normal_y normal_z curvature
SIZE 4 4 4 4 4 4 4
TYPE F F F F F F F
COUNT 1 1 1 1 1 1 1
WIDTH 555
HEIGHT 1
VIEWPOINT 0 0 0 1 0 0 0
POINTS 555
DATA ascii
0.0023259048 -0.056023918 -0.001215782 0.17724781 -0.60229087 -0.77835011 0.0027110588
0.0050735953 -0.055677082 -0.00056352839 0.34879971 -0.59971142 -0.7201978 0.0024696153
0.0071426332 -0.055048 0.00011482928 0.51023251 -0.56708419 -0.64658976 0.0013193269
-0.008867803 -0.052494623 -0.00025319075 -0.58973169 -0.39226487 -0.70593542 0.0018483789
-0.0067819394 -0.053188976 -0.0013307347 -0.45684907 -0.43847358 -0.77397025 0.0020019463
-0.0040510292 -0.053730264 -0.0022723111 -0.27674907 -0.49567899 -0.82323283 0.0032262895
-0.00067233678 -0.054244842 -0.0026629607 -0.059252385 -0.5470618 -0.83499247 0.0023000024
0.0026513697 -0.054156397 -0.0025261366 0.14090626 -0.57615554 -0.80510259 0.0020678649
0.0056565693 -0.053515669 -0.0019755962 0.33991969 -0.55902833 -0.75626844 0.0019051693
0.0080361264 -0.052999955 -0.00089784665 0.50137162 -0.54706979 -0.67032909 0.0026960438
0.010141457 -0.051875949 1.2624077e-06 0.63139629 -0.51762205 -0.57741338 0.0015622099
-0.0094047552 -0.049945362 -0.00098243589 -0.64110279 -0.3111394 -0.70155501 0.0010602957
-0.0073961345 -0.050657265 -0.0022919676 -0.54476351 -0.35267496 -0.76082402 0.0027553635
0.008838051 -0.050865121 -0.0020008117 0.51316959 -0.51473105 -0.68681067 0.0035323557
0.010865973 -0.049777601 -0.00099418359 0.62824404 -0.49756894 -0.59810925 0.0017473063
-0.011466027 -0.046754673 -0.00022413395 -0.73531586 -0.23979488 -0.63388413 0.0015190892
-0.0098788068 -0.047220014 -0.0016501895 -0.65182871 -0.28246742 -0.70379788 0.00070478511
0.011966845 -0.047342319 -0.0017510047 0.69386446 -0.44966039 -0.56245673 0.00086198474
0.013353026 -0.046797369 -0.00047599757 0.71781474 -0.44786721 -0.53306383 0.0010897507
-0.011790003 -0.044143859 -0.00076669548 -0.78675377 -0.17236565 -0.59271288 0.0038774882
-0.010438071 -0.044400718 -0.0021973329 -0.68759167 -0.22801688 -0.68936634 0.0012162793
0.012755894 -0.045322191 -0.0024124077 0.71307731 -0.41801879 -0.56283313 0.0015039458
0.014269914 -0.044184372 -0.001239269 0.77396119 -0.40509847 -0.48670256 0.00074045471
-0.012004009 -0.041126758 -0.0012606923 -0.83965135 -0.11280751 -0.53128165 0.0041332408
-0.010798655 -0.042243991 -0.0025838306 -0.72650766 -0.1767337 -0.66404206 0.0020965552
0.015158694 -0.04146678 -0.0019728392 0.78040797 -0.3643328 -0.5081585 0.0014542298
0.016294578 -0.040583488 -0.00069523882 0.8270871 -0.34089053 -0.44690096 0.0013011576
-0.012193634 -0.038181718 -0.0014802334 -0.87752402 -0.074390657 -0.47372738 0.0031779772
0.016860886 -0.038163953 -0.001358253 0.85248619 -0.30088022 -0.42747909 0.0010841337
-0.012326256 -0.035274368 -0.0014916104 -0.90930915 -0.026522983 -0.41527504 0.002228311
0.017807275 -0.0352442 -0.0013174219 0.88838273 -0.25965711 -0.37862161 0.00074397016
-0.012465067 -0.032093491 -0.001332147 -0.93252581 -0.0046186792 -0.36107367 0.0023630632
0.018294226 -0.032497033 -0.001963061 0.90115827 -0.23882894 -0.36176577 0.0010326121
0.018948305 -0.031526286 -0.00085514691 0.92829216 -0.20222402 -0.31205621 0.0012906531
-0.012485493 -0.029137006 -0.0012557968 -0.94509006 0.0021426848 -0.32680297 0.0017584513
0.019204678 -0.029312249 -0.0014884076 0.92577058 -0.20657156 -0.31666562 0.0015486453
-0.012435159 -0.02648579 -0.0013672463 -0.93930733 -0.022187658 -0.34235862 0.0019272905
0.019759936 -0.026541352 -0.0012143319 0.94679397 -0.15656835 -0.28118953 0.0016144275
-0.01222764 -0.023195637 -0.0020123455 -0.93800062 -0.015584894 -0.34628317 0.0028968109
0.020143472 -0.023227673 -0.0013173595 0.95120311 -0.12987502 -0.27990198 0.00074188039
-0.012248129 -0.020632004 -0.0012811041 -0.94387966 -0.011694553 -0.33008248 0.0016533873
0.020310994 -0.020129202 -0.0020609836 0.95169336 -0.11663637 -0.28403467 0.00072151161
0.020277986 -0.018451953 -0.0027733436 0.933994 -0.11054336 -0.33975771 0.00085308996
-0.011736667 -0.010213899 -0.0027312478 -0.97008222 -1.0689548e-05 -0.24277674 0.0011646121
-0.011739953 -0.0083322674 -0.0026092569 -0.97121537 -0.012084915 -0.2378962 0.0011553643
0.020310558 0.0043928791 -0.0020704186 0.96111137 0.064116165 -0.26861495 0.00043010761
0.019822681 0.010747383 -0.0024312725 0.94511157 0.12555732 -0.3016609 0.0006289247
-0.013149542 0.013092731 -0.0027187457 -0.94736993 -0.075294435 -0.31116056 0.0013832743
0.019881899 0.012204856 -0.0011228216 0.96540117 0.12738042 -0.2275406 0.0004057356
-0.013640195 0.016651584 -0.002084895 -0.94931346 -0.073547207 -0.30560559 0.0012725213
0.019310704 0.015955811 -0.0018326375 0.95801342 0.1527244 -0.24266317 0.00065513869
-0.014136376 0.019991307 -0.0013223281 -0.95102441 -0.069824301 -0.30112657 0.0012229444
0.018404171 0.019928677 -0.0025513163 0.94545525 0.18847992 -0.26568717 0.0010301152
0.01900328 0.018819377 -0.0011506155 0.94545257 0.18849045 -0.2656894 0.0010312406
-0.014644885 0.023124745 -0.00023993757 -0.95545244 -0.049868613 -0.29090148 0.0010346984
-0.014103864 0.021117985 -0.0023279777 -0.94122148 -0.073030397 -0.32980081 0.0019229719
0.018295892 0.022113835 -0.0013887077 0.93819708 0.19787303 -0.28395858 0.0015193917
-0.014598997 0.024932122 -0.001613569 -0.93551046 -0.05062547 -0.34965289 0.0030660345
0.017588759 0.024894444 -0.0015395517 0.91264409 0.22148827 -0.34354582 0.0016698434
-0.014841942 0.028014021 -0.0014238101 -0.93937385 -0.037998065 -0.34078285 0.0019970709
0.016799079 0.027946085 -0.00143083 0.89647776 0.24428488 -0.36966556 0.0012244119
-0.014830632 0.030822795 -0.0017527854 -0.91698951 -0.00050339976 -0.398911 0.003636719
0.015460134 0.031236187 -0.0020807716 0.84454399 0.2994462 -0.44393405 0.00096681569
0.016269824 0.030657083 -0.00083102006 0.87110108 0.27463853 -0.40713203 0.0012444884
-0.014873378 0.033810791 -0.0014901385 -0.90023792 0.021767814 -0.43485379 0.0027011861
-0.014092098 0.034989383 -0.0026919832 -0.83969831 0.087320782 -0.53598666 0.0055919439
0.014761726 0.033888388 -0.0015027043 0.82407784 0.32621443 -0.46311966 0.00071644812
-0.014873657 0.036896542 -0.0010173265 -0.85623443 0.088149086 -0.50901121 0.0045983777
-0.01398629 0.037141878 -0.0023228033 -0.80551589 0.15609889 -0.57164431 0.0035492091
0.012602147 0.037536841 -0.0022996457 0.74884057 0.37324521 -0.54765481 0.0015425519
0.013791162 0.036750749 -0.0011368915 0.77625209 0.36070716 -0.51703298 0.0014715368
-0.014795713 0.039677668 -0.00045180228 -0.79937595 0.16960266 -0.57639658 0.0037252943
-0.013593283 0.039981902 -0.0019245618 -0.74926376 0.22036293 -0.62453508 0.0022172749
0.011817611 0.039944287 -0.0015267357 0.67979294 0.43360993 -0.59149313 0.0024461998
0.013135434 0.039384738 -0.00021561887 0.75159067 0.40686545 -0.51920325 0.0013773459
-0.014496359 0.042409953 4.2250846e-05 -0.73942882 0.23986606 -0.62905431 0.0022156397
-0.012805238 0.04291454 -0.0015663537 -0.67081183 0.29487959 -0.68048334 0.0030911865
-0.010797569 0.044178266 -0.0026276996 -0.48593003 0.35786358 -0.79737431 0.0017899961
0.008639399 0.043408412 -0.0021130389 0.49526471 0.52719074 -0.69049448 0.0011974635
0.010660027 0.042420022 -0.00096750306 0.63421762 0.47701484 -0.60846114 0.0011423044
-0.012280487 0.045766767 -0.00073536718 -0.60787976 0.34589607 -0.71472943 0.0023654562
-0.010039848 0.046208639 -0.0020826098 -0.42952028 0.42757949 -0.79541695 0.0010320756
0.0038049771 0.046811443 -0.0022470346 0.52543628 0.56760693 -0.63382894 0.0047104694
0.005659536 0.046238884 -0.0018576924 0.45312229 0.54794991 -0.7031579 0.00074940978
0.0079863966 0.045566533 -0.00090009021 0.51312977 0.54382956 -0.6640386 0.0020330618
0.0099833943 0.044458438 -1.5487894e-06 0.67138153 0.4891538 -0.55675435 0.0014748025
-0.011523133 0.048141465 -0.00011041667 -0.54434592 0.40925106 -0.73225754 0.001406468
-0.0095639154 0.048751116 -0.00099158986 -0.441609 0.43358824 -0.78548247 0.0017873871
-0.0069890013 0.048972141 -0.0020570564 -0.29957721 0.47894093 -0.82514793 0.0016203694
-0.0038360241 0.049784664 -0.0024415457 -0.15862861 0.52928013 -0.83348626 0.00088280265
-0.00084061944 0.050245482 -0.0025266358 0.088188812 0.53365391 -0.84109235 0.015407072
0.0028432244 0.049301919 -0.001332547 0.45859793 0.56633323 -0.68480253 0.0092764609
0.0051088538 0.048325598 -0.00047716079 0.46347842 0.55625612 -0.68975854 0.00091883546
-0.0088065704 0.050914537 -0.00015732553 -0.41738117 0.4662874 -0.77998012 0.00094213331
-0.0066999197 0.051519975 -0.00063064694 -0.28938395 0.49192655 -0.82113647 0.001031496
-0.0038185944 0.051745277 -0.0012042918 -0.12023439 0.54092586 -0.83243191 0.0007804315
-0.00067422283 0.051863413 -0.0014231922 0.11809777 0.5321067 -0.83840042 0.012060793
0.0014857147 0.051531449 -0.0011055055 0.43460712 0.58156252 -0.68767852 0.0087054018
-0.005178981 0.053477425 0.00013443921 -0.18700327 0.52769697 -0.82859266 0.0022575448
-0.0033292836 0.053641908 -6.2792562e-05 -0.12796429 0.55998152 -0.81856322 0.0022165689
-0.00078382087 0.053652465 -0.00018261699 0.24759273 0.63278317 -0.73367792 0.023509625
-0.0031002117 -0.061246924 0.0029501198 -0.18176201 -0.65206689 -0.7360512 0.0018427185
-0.00068107003 -0.061335962 0.0028506108 0.025042018 -0.6796965 -0.7330659 0.0023990034
0.0020379215 -0.061023995 0.0030167764 0.24819084 -0.67637193 -0.69348556 0.0028934935
-0.0087101385 -0.057931308 0.0029531727 -0.54480159 -0.49019215 -0.68036968 0.00084833842
-0.0064492966 -0.058917694 0.002279886 -0.3713024 -0.58440614 -0.72152889 0.0018113483
-0.0035873386 -0.059323147 0.0014807344 -0.17620699 -0.62265038 -0.76240253 0.0014529009
-0.00067844905 -0.059452966 0.0011889515 0.010034947 -0.65269732 -0.75755227 0.0014707327
0.002203085 -0.059324946 0.0014609825 0.2049814 -0.64735281 -0.7341097 0.0017632975
0.0049544615 -0.058784917 0.0021628253 0.38060844 -0.65172303 -0.65604448 0.0030455319
0.0071849953 -0.05774508 0.0027356455 0.52228087 -0.59824973 -0.60771692 0.001320561
-0.0094317757 -0.055847324 0.002176486 -0.59498125 -0.42059487 -0.68490666 0.0021818329
-0.0069885622 -0.05660649 0.000903673 -0.39953083 -0.52637893 -0.7505334 0.0020297498
-0.0047074347 -0.057447489 0.00035473797 -0.25900447 -0.55413741 -0.79110587 0.0050185537
0.0057029454 -0.056923907 0.00085498905 0.35702544 -0.62676698 -0.69260091 0.0022403286
0.0082421675 -0.055893019 0.0018714028 0.55892855 -0.58015984 -0.59246391 0.0029169284
0.010046761 -0.054892208 0.0027986476 0.62726539 -0.56077546 -0.54043412 0.0010442204
-0.011584036 -0.052790549 0.0026577646 -0.70951253 -0.32780102 -0.62380964 0.00067762524
-0.01001715 -0.053300846 0.0012412183 -0.65342474 -0.35803059 -0.66697097 0.0018853901
-0.0080249971 -0.054592561 0.00027051661 -0.54083568 -0.44549781 -0.71346229 0.0043996363
0.0090525132 -0.053977322 0.00079999305 0.5645467 -0.53511298 -0.62844342 0.0022629688
0.010908301 -0.052958522 0.0019384469 0.66814816 -0.52976596 -0.52242327 0.0022461871
-0.012143129 -0.050080102 0.002018393 -0.74311405 -0.27410674 -0.61044818 0.00081337715
-0.010742897 -0.050569113 0.00063388795 -0.68171573 -0.2934235 -0.67019874 0.00099197484
0.011953696 -0.050769996 0.0011724024 0.70130032 -0.48407462 -0.52330649 0.0021018439
0.013322239 -0.049666289 0.0021604551 0.74449718 -0.47579804 -0.46833777 0.0011507464
-0.012717607 -0.04719517 0.0016056453 -0.79857951 -0.21506932 -0.56215292 0.0027740621
0.014425384 -0.04714261 0.0016068448 0.7933507 -0.42544782 -0.43541804 0.0014208746
-0.013227772 -0.044130113 0.0015051295 -0.87405759 -0.095889807 -0.47626504 0.0042446046
0.015471555 -0.044601198 0.0011288049 0.82697076 -0.38523644 -0.40952703 0.00065076962
0.016358301 -0.043664161 0.0021735821 0.85880327 -0.36000353 -0.36449203 0.0012033364
-0.013519876 -0.041204002 0.0016626003 -0.91221756 -0.048993327 -0.40676636 0.0046608527
0.017018041 -0.041208755 0.0014730184 0.88826394 -0.30829397 -0.34050256 0.0012998559
-0.013540096 -0.038226951 0.0017222427 -0.93605447 -0.0050808988 -0.35181847 0.0025558858
0.018055212 -0.038153641 0.0015817084 0.91643286 -0.2714071 -0.29409009 0.00093931973
-0.013379388 -0.035397582 0.0013862229 -0.94832116 0.0032545223 -0.31729555 0.0014087937
0.018549494 -0.035678238 0.00090669701 0.9258908 -0.24512497 -0.2874715 0.00082610978
0.01907164 -0.034571782 0.0020061815 0.92588848 -0.24513297 -0.28747228 0.0008237494
-0.01327306 -0.032148395 0.0013750652 -0.94529855 0.0059499834 -0.32615227 0.0016073699
0.019357925 -0.032142963 0.0012920359 0.93243575 -0.20818491 -0.29533476 0.0017178793
-0.013294188 -0.030291768 0.0020752857 -0.95550573 0.0093540158 -0.294824 0.00085592218
0.019998631 -0.02858983 0.0014563906 0.95757711 -0.15761434 -0.24125493 0.00056685682
-0.012774806 -0.025453733 0.00058463309 -0.95215076 -0.003524499 -0.30560839 0.0011158981
0.020441879 -0.023802126 0.00076365564 0.95676428 -0.13248834 -0.25893828 0.00054313079
0.019508375 0.017979017 0.0011188695 0.95872116 0.1537538 -0.23919344 0.00056538533
0.019033859 0.021305069 0.001129658 0.94577765 0.18503959 -0.26695496 0.00079889561
0.018406656 0.02487549 0.0012702504 0.92675775 0.22112307 -0.3036851 0.00094455993
-0.015146472 0.026492884 0.00057414267 -0.95162189 -0.060517807 -0.30125296 0.0007856873
0.017731169 0.027899865 0.0012080232 0.91791338 0.24667919 -0.31078032 0.0010012029
-0.015639003 0.030799612 0.001084201 -0.9395963 -0.022752805 -0.3415277 0.0027387063
0.01710429 0.030885823 0.0015824535 0.92063051 0.24248907 -0.30600411 0.00092518231
-0.015884928 0.034001179 0.0013030451 -0.94121152 0.025328021 -0.336867 0.0032959366
0.015696246 0.034574647 0.00077357981 0.87679356 0.30351931 -0.37297332 0.00088830921
0.016450373 0.033574749 0.0018973984 0.90209109 0.27653557 -0.33130014 0.00083756604
-0.015878925 0.036742833 0.001141055 -0.93703204 0.0075545874 -0.34916171 0.0034577451
0.015143132 0.036837228 0.0014368901 0.85683137 0.338716 -0.38873059 0.00064460421
-0.015737489 0.0399376 0.001333273 -0.90369558 0.082730941 -0.42010701 0.0041339067
0.013899211 0.039873216 0.001590115 0.8139174 0.38936356 -0.43120113 0.00097135134
-0.015400391 0.042947095 0.0016393103 -0.8346169 0.18489851 -0.51887113 0.0041913381
0.01184549 0.043271642 0.0012774453 0.74860245 0.45106849 -0.48593372 0.0008701504
0.013169525 0.042268977 0.0024394616 0.77803338 0.43708712 -0.45124164 0.0014769089
-0.014853321 0.045750238 0.001908428 -0.77402657 0.25786719 -0.57826233 0.0034971132
-0.013454197 0.046492111 0.00063552707 -0.65573215 0.3032138 -0.69143093 0.0026836114
0.0089224176 0.046524286 0.00075823441 0.55930412 0.54686743 -0.62298864 0.0026373849
0.010669678 0.045553014 0.0018590768 0.67433184 0.50227815 -0.5412885 0.0014136788
-0.014443053 0.048374031 0.0026328908 -0.71274847 0.32422248 -0.62198824 0.0028852595
-0.012717757 0.049018908 0.0013184687 -0.5978049 0.37338251 -0.70937634 0.0016798169
-0.010713977 0.050030749 0.00037517259 -0.46027315 0.43278956 -0.77513993 0.0028808776
0.0055729188 0.049615014 0.00086853979 0.45213622 0.57732505 -0.67990345 0.0010518536
0.0081430562 0.048504487 0.0018691518 0.56802386 0.56774217 -0.59583366 0.0025779768
0.010054081 0.047654513 0.0031220624 0.66676128 0.52893698 -0.52502859 0.00077914662
-0.012221822 0.051578887 0.0024003927 -0.56831628 0.43451053 -0.69872534 0.0018446523
-0.009878628 0.052120235 0.0011610738 -0.43958032 0.46156791 -0.77053493 0.0014424805
-0.0074758912 0.052890662 0.00049316976 -0.29261345 0.49484926 -0.81823081 0.0020354649
0.0027443317 0.052207723 0.001545399 0.48858219 0.60703093 -0.62673831 0.0025240979
0.005007823 0.051554263 0.0022032624 0.47397143 0.58349067 -0.65946174 0.00098054821
0.0071865227 0.050482426 0.0028301189 0.52792341 0.5638895 -0.63507909 0.00099796744
-0.011419481 0.053868476 0.0032097409 -0.55641586 0.4613868 -0.69103086 0.0018189857
-0.0093748225 0.054483499 0.0024235453 -0.40374115 0.52559876 -0.74882507 0.0017069153
-0.0066576023 0.054876633 0.0015540509 -0.25906119 0.56970924 -0.77994782 0.001338366
-0.0036005871 0.055161644 0.0010219938 -0.093554862 0.58568972 -0.80511808 0.0012491011
-0.00063037511 0.055211462 0.0010673413 0.31648603 0.62290502 -0.71542013 0.015528803
0.0016798209 0.054120731 0.0021297289 0.50448465 0.59951091 -0.62135494 0.0026700052
0.0038505276 0.053369436 0.0030368278 0.46096405 0.58667278 -0.66582817 0.00096090307
-0.0060695009 0.056920089 0.0028333431 -0.26551047 0.58123952 -0.76919746 0.0012576191
-0.0034441808 0.057209913 0.002505186 -0.051924869 0.62620425 -0.77792799 0.006946648
-0.0011910193 0.057179131 0.0024786256 0.35940248 0.61172742 -0.70471233 0.012837489
-0.0052507287 -0.063941889 0.0061873505 -0.23268043 -0.72767276 -0.64525348 0.0036131216
-0.0033258265 -0.064042829 0.005758604 -0.13686168 -0.73257655 -0.66678369 0.0028179612
-0.00079470233 -0.06409052 0.0056824097 0.059063051 -0.75652492 -0.65129215 0.0029380638
0.0012344185 -0.063897043 0.0058623562 0.26613331 -0.75121135 -0.60403198 0.0024890027
-0.0089264372 -0.061328396 0.0057995031 -0.54025656 -0.55250478 -0.63471365 0.0016436663
-0.0065172287 -0.061925035 0.0048357854 -0.34582466 -0.62301421 -0.70161146 0.0026723112
-0.0036891387 -0.062495328 0.0042902473 -0.14329736 -0.6923787 -0.70716172 0.001664289
-0.00068323314 -0.062712856 0.0042092958 0.040678039 -0.71900767 -0.69381076 0.001749621
0.0022171792 -0.062393527 0.004533167 0.22747259 -0.72020239 -0.65541184 0.0015608479
0.0047190571 -0.061506994 0.0049321977 0.42040369 -0.69279999 -0.58590859 0.0016943314
-0.011649608 -0.058143076 0.0059190001 -0.66012079 -0.44442275 -0.60558158 0.0014785504
-0.0097433552 -0.059190251 0.004779188 -0.61552238 -0.47696942 -0.62740123 0.0013351205
-0.0076109413 -0.059986521 0.0037383698 -0.50268555 -0.53775352 -0.67685181 0.0011797276
0.0060514077 -0.059864178 0.0040658349 0.45646906 -0.66648573 -0.58943427 0.0021444415
0.0080599654 -0.058861591 0.0049544685 0.58805132 -0.63301337 -0.50347763 0.0019429136
-0.012123796 -0.055916995 0.0050596241 -0.70622033 -0.37568024 -0.60009772 0.00085393101
-0.010623619 -0.056737099 0.0038450547 -0.67203194 -0.39331606 -0.6274358 0.00075919559
0.0091799879 -0.057019383 0.0041002007 0.65457594 -0.59963137 -0.46040484 0.0014853601
0.010719817 -0.055797387 0.0048373854 0.68950927 -0.5668512 -0.45083997 0.00093436753
-0.014377231 -0.05192424 0.0061281035 -0.81968498 -0.2511982 -0.51479697 0.0024383622
-0.012870817 -0.053177506 0.0044835908 -0.78019166 -0.30218509 -0.54770905 0.0013934835
0.011897556 -0.053724501 0.004245583 0.76019681 -0.50372577 -0.41031834 0.0010277194
0.013166454 -0.052482471 0.0051085483 0.78919798 -0.47806236 -0.38551643 0.0016132205
-0.01442557 -0.050004505 0.0055002449 -0.88850886 -0.13901934 -0.4372935 0.0056633558
-0.01357182 -0.050304424 0.0040648999 -0.83623666 -0.21848945 -0.50296187 0.0026438066
0.014139065 -0.050355092 0.0046003265 0.82552975 -0.44702372 -0.34448579 0.0018674422
-0.014605942 -0.047138758 0.0052061984 -0.92930758 -0.045896869 -0.36644354 0.0026109701
-0.013815428 -0.047814582 0.003522546 -0.8699224 -0.13348266 -0.47478139 0.0024973417
0.015336737 -0.04768382 0.004110462 0.85382396 -0.41310209 -0.31675109 0.00084264774
0.016090911 -0.04678081 0.0051299939 0.88010997 -0.38237202 -0.28142175 0.0011586952
-0.014555945 -0.044253778 0.0049043195 -0.94899529 -0.029297406 -0.31392619 0.0038066234
0.016862394 -0.044316009 0.0044062249 0.88660109 -0.35609287 -0.29518884 0.0011642247
-0.014314462 -0.04118605 0.0041864654 -0.95224613 0.0070121512 -0.30525097 0.0026840151
0.017873503 -0.04119866 0.0043294691 0.91427094 -0.29352272 -0.27920103 0.0012046708
-0.014343772 -0.038868949 0.0050930986 -0.96609634 0.011824995 -0.25791106 0.00097385229
0.018679362 -0.038062628 0.0039968798 0.9164331 -0.27140456 -0.29409185 0.0009410762
-0.013817149 -0.034923885 0.003577631 -0.95450181 0.013912597 -0.29788044 0.0007896676
0.019162348 -0.035919543 0.0041105757 0.92525578 -0.25263608 -0.2829783 0.00075575296
0.018195689 0.028381987 0.0038603554 0.93915135 0.23037484 -0.25479814 0.00072031381
0.017724412 0.031023443 0.0040273182 0.93601596 0.24855919 -0.24918346 0.00091338082
-0.016205885 0.032900754 0.0035935352 -0.94774216 -0.0063127037 -0.31897482 0.0017828987
0.017065026 0.033912357 0.0042819511 0.93705684 0.25432193 -0.2392589 0.0007667013
-0.016714009 0.037271094 0.0044016009 -0.95182383 0.0064024315 -0.30657837 0.0020013631
0.015797909 0.037442099 0.0036324421 0.89691371 0.31790894 -0.30737558 0.00089810381
0.016377781 0.036708202 0.0047847116 0.92208707 0.28928313 -0.25704232 0.0007004161
-0.016692467 0.039849296 0.0038304189 -0.9309321 0.078552358 -0.35664397 0.0031632597
0.015046371 0.040079486 0.0043585012 0.87558264 0.36384678 -0.31775883 0.00078709214
0.015875239 0.039077904 0.0058071027 0.89190489 0.3444123 -0.2930629 0.0011126854
-0.01658123 0.043096963 0.0040456997 -0.91909933 0.10308215 -0.38030314 0.0035728971
0.012443579 0.044328842 0.003257663 0.74940795 0.48111847 -0.45487663 0.0010633732
0.013920522 0.042802949 0.004680411 0.83579504 0.41633809 -0.35792372 0.0011550533
-0.016341941 0.045997549 0.0044925688 -0.86577654 0.1769668 -0.4680959 0.0039835395
0.011789554 0.046248283 0.0042833146 0.77521783 0.47553131 -0.41582134 0.00090940692
0.013099091 0.044900071 0.0052591497 0.80775261 0.45279339 -0.37751001 0.0019978895
-0.015667861 0.048926681 0.0046701506 -0.83436465 0.26388863 -0.48394057 0.0034996839
0.0091191772 0.049672201 0.0040489919 0.64534646 0.54136604 -0.53893477 0.00089198619
0.010783629 0.048458111 0.0050800666 0.70874387 0.51608276 -0.48097882 0.0014255261
-0.014878025 0.051743157 0.0051289806 -0.73473024 0.35775006 -0.57635605 0.0027571814
-0.013387115 0.052314367 0.003826336 -0.62281775 0.39583021 -0.67484552 0.0026117521
0.0062487307 0.052528478 0.0039474024 0.49439719 0.56674677 -0.65906721 0.0014364849
0.0080472827 0.051683556 0.0048568621 0.60969442 0.56393582 -0.55700022 0.0029432438
0.010124089 0.050406922 0.0062157819 0.71761006 0.522003 -0.46102998 0.00092427776
-0.014372181 0.053979691 0.0059718797 -0.6743201 0.42630804 -0.60295427 0.0028513942
-0.012566657 0.054709729 0.004755605 -0.56245887 0.46788874 -0.68170387 0.001789466
-0.010144871 0.055577666 0.0036459668 -0.39026886 0.55151355 -0.7372402 0.0012418142
0.0024750838 0.0552506 0.0039837938 0.50020027 0.57810616 -0.64466494 0.0019275309
0.0050420566 0.054612577 0.0049232319 0.45763314 0.6023944 -0.65398234 0.00066529593
0.0072374381 0.053740505 0.0059801051 0.59275985 0.56342304 -0.57549137 0.001202203
-0.011806513 0.056917638 0.0057963394 -0.5380621 0.53777266 -0.64906842 0.0017099431
-0.0097202575 0.057636339 0.0049786484 -0.41711372 0.57656229 -0.70256102 0.0019214364
-0.0067631803 0.058217142 0.0040960545 -0.25739717 0.60640776 -0.75234061 0.0016242738
-0.0036695218 0.058784179 0.0038139997 -0.027246304 0.65772694 -0.75276363 0.0070098676
-0.00049992383 0.058316622 0.0043271985 0.39640102 0.63714063 -0.66099775 0.0089546749
0.0019758367 0.057212271 0.0054336879 0.46813107 0.63333791 -0.61622751 0.002576875
0.003874911 0.056606624 0.0058653066 0.41441399 0.62404203 -0.66244447 0.00075178989
-0.0088515617 0.059514109 0.0060588578 -0.40319794 0.60883051 -0.68319607 0.0019339263
-0.0065770084 0.060065892 0.0056159487 -0.24304752 0.64949542 -0.7204746 0.0015705142
-0.0035139518 0.060461268 0.0052805524 0.052111868 0.69325548 -0.71880543 0.015874892
-0.0014047425 0.060122859 0.005507445 0.36707908 0.71388799 -0.59633619 0.0047906679
-0.0031086002 -0.066748008 0.0090056965 -0.11489952 -0.80560869 -0.58119929 0.0030014121
-0.0011744977 -0.066752009 0.0090335989 0.13786507 -0.82282996 -0.55131119 0.0032019988
-0.0088673839 -0.064203635 0.0085838363 -0.49884942 -0.63979465 -0.58464694 0.0015227571
-0.0064366129 -0.064940311 0.007884277 -0.27791971 -0.72856128 -0.62606633 0.0011724789
-0.0036827931 -0.065425955 0.0074601369 -0.13015102 -0.77907991 -0.61326599 0.0019514649
-0.00062512013 -0.065518282 0.0074986853 0.11512899 -0.80050981 -0.58815759 0.0037647735
0.0021311187 -0.064890236 0.0076403804 0.26766974 -0.78989357 -0.55174381 0.0011582136
0.0045405906 -0.06416484 0.0083867023 0.45988002 -0.73376209 -0.50010347 0.0022859531
-0.011751291 -0.061275415 0.0085650096 -0.64445418 -0.51806295 -0.56239635 0.0016839292
-0.010000022 -0.062209036 0.0075982669 -0.59841245 -0.54623806 -0.58611131 0.0018383469
-0.007662843 -0.06326393 0.0067516705 -0.43705019 -0.64576519 -0.62607867 0.0010017854
0.0033994084 -0.063500695 0.0064742276 0.3567397 -0.74858546 -0.55888873 0.0046909973
0.0056722569 -0.062589094 0.0072625801 0.53356165 -0.70964944 -0.46011916 0.0025600167
0.0078092432 -0.061372966 0.008163115 0.60864729 -0.65975857 -0.44075751 0.0014563355
-0.012565644 -0.05904603 0.0077749044 -0.71412253 -0.42349032 -0.55739111 0.0021523545
-0.01086513 -0.06014742 0.0065660886 -0.60320032 -0.50294298 -0.6190297 0.00085627957
0.0090722386 -0.059745282 0.0076484317 0.67780811 -0.62220061 -0.39171737 0.001549847
0.010350593 -0.058269061 0.0076947939 0.73484945 -0.57406849 -0.36116713 0.0018345355
-0.014549595 -0.055661194 0.008469237 -0.84030789 -0.28735495 -0.45968443 0.0027568145
-0.013482585 -0.056446373 0.0072394535 -0.79919565 -0.32757059 -0.503968 0.00090804126
0.011731715 -0.056286991 0.0075428765 0.76479816 -0.54868311 -0.33768424 0.0013947631
-0.014882505 -0.053140357 0.0078179352 -0.87528837 -0.22071357 -0.43029737 0.0016567508
-0.013906614 -0.054122183 0.0064404914 -0.83285832 -0.25097728 -0.49331278 0.0021025999
0.012526755 -0.054337572 0.0062264511 0.77212507 -0.52086365 -0.36403841 0.0013460841
0.013694177 -0.053227663 0.0077336738 0.80965662 -0.49983609 -0.30760363 0.00089048018
-0.015164254 -0.050228935 0.0074296845 -0.93566495 -0.10816105 -0.33590516 0.002104884
0.015066275 -0.050434042 0.0074519403 0.84759015 -0.4433662 -0.29157728 0.0008240866
0.015960541 -0.048776519 0.0082059214 0.8809405 -0.40116531 -0.25101846 0.00094957318
-0.015404399 -0.047071829 0.0080540236 -0.96676469 0.0099550672 -0.25547418 0.0017467936
0.016389888 -0.047022332 0.0067502074 0.88011491 -0.38235548 -0.28142849 0.0011703419
-0.015147474 -0.044135887 0.0075718323 -0.97018969 0.012895623 -0.24200335 0.0014574488
0.017590418 -0.043568861 0.0066924701 0.89922637 -0.34840274 -0.26458928 0.00066928077
-0.01490861 -0.041970428 0.0076548168 -0.96805686 0.022364929 -0.24973117 0.001591313
0.017824622 0.032174129 0.0065406868 0.94562894 0.24140531 -0.2179663 0.00038186548
0.017356053 0.034604449 0.0068565914 0.94290298 0.25801811 -0.21061984 0.00037403542
0.01686978 0.036517296 0.0067211399 0.93836218 0.27417475 -0.21048675 0.00078196655
-0.017289937 0.041105513 0.0069125602 -0.93088651 0.077898137 -0.35690641 0.003310808
0.015422385 0.040834252 0.0065952847 0.89451015 0.35806504 -0.26765841 0.0009112847
0.016103759 0.039658438 0.0077186236 0.91705626 0.32056642 -0.23716019 0.0012208999
-0.017269306 0.042976379 0.0063807424 -0.93088418 0.077898942 -0.35691229 0.0033173391
0.014857879 0.042927492 0.0076814974 0.8795588 0.39038402 -0.27198663 0.00030739993
-0.017292706 0.045926075 0.0069839265 -0.93575138 0.11123549 -0.33465809 0.0037435682
0.012542446 0.04710694 0.0067864964 0.81481296 0.47088253 -0.33815619 0.0011438247
0.01358539 0.0457591 0.0076739863 0.84523988 0.43192539 -0.31465849 0.00050014246
-0.017343886 0.048965707 0.0083032856 -0.91162503 0.19745575 -0.36048725 0.0039214222
-0.016810667 0.049292866 0.0069644162 -0.9116202 0.19747943 -0.36048636 0.0039165434
0.0117215 0.049081374 0.0075690681 0.80029058 0.47767255 -0.36244151 0.0010258448
-0.016352288 0.051917359 0.00757269 -0.84779865 0.28764749 -0.44552943 0.0015936105
0.0091818143 0.052486755 0.0071073091 0.7211867 0.52064735 -0.45696402 0.00094979489
0.010540812 0.051374018 0.0080398135 0.74880111 0.51253927 -0.42023849 0.001369823
-0.015324278 0.054670192 0.0078066774 -0.73964345 0.41883743 -0.52678531 0.0025952698
-0.013722028 0.055849984 0.0066872369 -0.61633587 0.48455304 -0.62075639 0.0014423443
0.0062294588 0.055656888 0.0068671899 0.58012688 0.57815349 -0.57375199 0.00076346734
0.0080632856 0.054607034 0.0078993374 0.66243476 0.55786222 -0.49996987 0.00072642992
-0.014651142 0.056875296 0.0086196847 -0.68650556 0.48067108 -0.54558712 0.0029251834
-0.01277862 0.058021039 0.0075944513 -0.56729519 0.55926591 -0.6044814 0.002588649
-0.010641759 0.058916416 0.0066018952 -0.44979626 0.57762176 -0.68120217 0.0027073959
0.00027455413 0.059078168 0.0063805887 0.42253357 0.67321736 -0.60683101 0.0031601225
0.0025057481 0.058725327 0.0070777033 0.41865507 0.66233343 -0.62132311 0.0018589897
0.005116622 0.057569992 0.0078132143 0.52270925 0.62070918 -0.5843758 0.0029844018
0.0072861733 0.05653799 0.0089951763 0.62997192 0.59127146 -0.50352103 0.00060913351
-0.012107406 0.0600136 0.008782302 -0.56725955 0.56950116 -0.59488231 0.0012032167
-0.009734855 0.060810745 0.0078003574 -0.40915725 0.62116402 -0.66839027 0.0016756906
-0.0069358964 0.061542541 0.0071240189 -0.21883494 0.68163896 -0.69819742 0.0015301063
-0.0036691977 0.061813369 0.0066820569 0.084666148 0.75531119 -0.64987445 0.014427677
-0.00049382879 0.061049782 0.0078500714 0.38729265 0.70861715 -0.58980179 0.002620934
0.0019011109 0.060277868 0.0083097192 0.40515375 0.66667408 -0.62561661 0.0013023342
0.0041429065 0.059426013 0.0089023421 0.52686363 0.64063215 -0.55857426 0.0014964761
-0.0084273517 0.062828675 0.0090336213 -0.36533281 0.68197465 -0.63359487 0.00088305754
-0.0062442073 0.063130684 0.0084992079 -0.16103169 0.74140847 -0.65144622 0.0039668432
-0.0037939446 0.063115783 0.0081294272 0.15143234 0.78148955 -0.60526222 0.012579625
-0.0019002224 0.062839665 0.0091091702 0.34492663 0.74635226 -0.56919581 0.00071775139
-0.008722974 -0.066906728 0.011810676 -0.45650023 -0.72586948 -0.51451051 0.0023524091
-0.0062791272 -0.067412704 0.010978385 -0.28383598 -0.79542518 -0.53547728 0.0028687571
-0.003644418 -0.067847528 0.010788792 -0.088636547 -0.85307449 -0.51420563 0.0034132511
-0.00069419062 -0.067738555 0.010831132 0.17321588 -0.86519867 -0.47056091 0.0026917632
0.0018390241 -0.067119174 0.011111035 0.38745195 -0.82455385 -0.41230088 0.0036303522
-0.011883629 -0.064223044 0.011751384 -0.62008727 -0.60316414 -0.50168198 0.0013301487
-0.0097320275 -0.065244399 0.010643563 -0.50204378 -0.69247907 -0.51809716 0.0026068874
-0.0071506454 -0.06621819 0.0098140696 -0.29619309 -0.75190121 -0.5889942 0.0023075962
0.002526267 -0.066190436 0.0099439723 0.34506094 -0.82450306 -0.4484725 0.0034895618
0.004967378 -0.065083072 0.010645366 0.50465077 -0.77141118 -0.387624 0.0016921258
-0.012793447 -0.062048968 0.010727332 -0.72620273 -0.47168076 -0.50014687 0.0016339067
-0.010937599 -0.063273452 0.0095291343 -0.57762313 -0.59067351 -0.56343257 0.0011026976
0.0063234069 -0.063402615 0.0092929313 0.59080005 -0.71239626 -0.37874392 0.0031809658
0.0082251187 -0.062267616 0.010764611 0.66409743 -0.66775894 -0.33626258 0.0015455959
-0.014836149 -0.058864262 0.011297111 -0.84877872 -0.33291554 -0.41078213 0.0030190682
-0.013740635 -0.059689447 0.0099828718 -0.80152625 -0.38165042 -0.4603245 0.00091114867
0.009711979 -0.060028296 0.0093878219 0.75993192 -0.59595597 -0.25949937 0.00095160276
0.010864669 -0.058944631 0.010384685 0.76683223 -0.58909041 -0.25483504 0.0011082032
-0.01528017 -0.056250136 0.010458616 -0.87072527 -0.27751404 -0.40598449 0.0027834794
0.012410525 -0.056806181 0.010750861 0.79335296 -0.55369288 -0.25301263 0.00081276317
0.013106674 -0.055219468 0.0096440027 0.80622828 -0.51191473 -0.29654577 0.00083907932
-0.015857624 -0.053394739 0.010634967 -0.92304027 -0.17025724 -0.34497702 0.0030921772
-0.015985847 -0.05026174 0.010837833 -0.9627248 -0.056624155 -0.26448947 0.0028388307
-0.015464041 -0.045065176 0.0097835967 -0.97398371 0.011633019 -0.22631925 0.0010619607
0.014088031 0.046137087 0.010055811 0.84852278 0.4348999 -0.30144835 0.00071505329
-0.017956136 0.049094979 0.011551977 -0.95000529 0.16275965 -0.26645672 0.0011611714
0.012514907 0.04953751 0.010122486 0.84489185 0.44962204 -0.28982371 0.00045373099
0.013335044 0.048233479 0.010810685 0.84489983 0.44960505 -0.28982672 0.00046174321
-0.017507261 0.051632982 0.010423503 -0.92801166 0.21462463 -0.30451703 0.0045041055
-0.016909007 0.053225178 0.0095718214 -0.88848877 0.28693357 -0.35812944 0.0049628103
0.011322788 0.051922966 0.010450938 0.82077807 0.47117707 -0.32297912 0.0016002594
-0.017474182 0.053727504 0.011662007 -0.92570883 0.21057171 -0.31420183 0.0040346286
-0.016594004 0.055289097 0.010564572 -0.8377378 0.35519192 -0.41477001 0.0027142337
0.0091261817 0.055257216 0.010314935 0.75722218 0.52718693 -0.38560155 0.00064022245
0.010482086 0.053924218 0.011290834 0.78198183 0.5080238 -0.36113194 0.0014278801
-0.015342446 0.05793719 0.010639866 -0.71882433 0.48231855 -0.50066 0.0028760051
-0.014002969 0.058785815 0.0095238546 -0.61840945 0.54744631 -0.56380171 0.00081663235
0.0061268611 0.058619786 0.010082212 0.64070147 0.60856658 -0.46813285 0.0015569035
0.0076699648 0.057534397 0.010866447 0.68303096 0.58950263 -0.43122539 0.0022188919
-0.014719461 0.059973389 0.011695147 -0.69425619 0.51977479 -0.49783778 0.0029562167
-0.012959657 0.061066102 0.010712841 -0.63245696 0.56599057 -0.52882212 0.0014063609
-0.010938155 0.061774909 0.0095535228 -0.49510697 0.6250937 -0.60342938 0.0010269316
0.00051801722 0.061910011 0.0093710134 0.35540435 0.69175887 -0.62861544 0.00056527409
0.0025231338 0.061574053 0.010181111 0.4368777 0.70903552 -0.55353987 0.0025745514
0.0048596985 0.060397614 0.01088488 0.56597614 0.66119874 -0.49242991 0.0026823129
0.0068493425 0.059378419 0.012086601 0.65852404 0.6339314 -0.40555772 0.0022330019
-0.012002312 0.062841944 0.011631885 -0.5612247 0.62734658 -0.53987324 0.0013643822
-0.0096212551 0.063685067 0.010744202 -0.35511824 0.70312274 -0.61604345 0.0010243438
-0.0067220433 0.06447883 0.010169203 -0.18293028 0.76877725 -0.61279523 0.0048321439
-0.0034636064 0.064506538 0.010326679 0.18908888 0.79133713 -0.58140439 0.0069907829
-0.00065343303 0.063550636 0.010791608 0.34062824 0.74563777 -0.57271004 0.00061381509
0.0016869938 0.063022532 0.011366499 0.41521019 0.72490722 -0.54964542 0.0017441445
-0.0062881727 0.065801144 0.011636487 -0.093140416 0.79414922 -0.60054302 0.014254227
-0.0044639702 0.065756768 0.011610926 0.14945695 0.80954742 -0.56771094 0.0051973574
-0.0053574573 -0.07008525 0.015191318 -0.0866597 -0.93857884 -0.33400592 0.0066834874
-0.0036392007 -0.070034988 0.0148533 -0.029547768 -0.91531867 -0.40164477 0.0053802179
-0.0019265236 -0.070088185 0.015211047 0.19280596 -0.90925455 -0.36889291 0.0064190296
-0.011228914 -0.067085333 0.014776141 -0.57488132 -0.69419301 -0.43313694 0.0009971594
-0.0093721692 -0.067738302 0.013780613 -0.48457047 -0.74626756 -0.45637286 0.0026689719
-0.0066627758 -0.068821907 0.01349393 -0.24501078 -0.83880895 -0.48617816 0.0020001379
-0.0038003554 -0.06923829 0.013245617 -0.068887241 -0.88198858 -0.46620885 0.0027958886
-0.00069827109 -0.069097057 0.013469593 0.23598841 -0.89537758 -0.37763548 0.0034299707
0.002150578 -0.068053238 0.013566935 0.41914999 -0.83921641 -0.34645224 0.0022328321
0.004189536 -0.066967927 0.013950647 0.49767369 -0.80934954 -0.31188825 0.0014039346
-0.012536955 -0.065080509 0.013851016 -0.67687726 -0.59023863 -0.43983588 0.0034004324
-0.010445494 -0.066296659 0.012658105 -0.52860647 -0.68756062 -0.49783081 0.0017227279
0.0056450414 -0.065636955 0.013165169 0.56474531 -0.76159894 -0.31785187 0.0023297344
0.0070966785 -0.064060085 0.012340964 0.61138004 -0.71735042 -0.33410022 0.0011416288
-0.014937967 -0.061599091 0.014010434 -0.83618236 -0.40407059 -0.37084508 0.0033171414
-0.013789099 -0.062860161 0.013081904 -0.78666854 -0.45931447 -0.41253218 0.0011183075
0.0088076508 -0.062395006 0.01264309 0.7042762 -0.66231513 -0.25560436 0.0019031039
-0.015651656 -0.059324671 0.013637581 -0.90365094 -0.27910027 -0.32483536 0.0025909822
0.010784963 -0.060108658 0.013825417 0.75218147 -0.60875976 -0.25225902 0.00098484359
-0.016248934 -0.056257103 0.01364196 -0.94650769 -0.17881912 -0.26860178 0.0022780939
0.013210666 0.049772892 0.013218225 0.84596092 0.44657388 -0.29141364 0.00042522638
-0.018024785 0.051976379 0.013273739 -0.95008457 0.1737134 -0.25915834 0.0011895763
0.012143107 0.052144554 0.013453151 0.83361584 0.46507251 -0.29798013 0.00064962672
-0.017541397 0.055408552 0.013394677 -0.91261065 0.27671611 -0.30094847 0.0028486685
0.0097927395 0.056106377 0.013135106 0.79361242 0.53350484 -0.29249236 0.0011307533
0.010782038 0.054794762 0.013694123 0.80313051 0.52136105 -0.28838164 0.00086626923
-0.017610522 0.056860495 0.015176536 -0.88634831 0.34351173 -0.31046134 0.00077110087
-0.016661586 0.058039341 0.013357864 -0.86060774 0.37489298 -0.34468755 0.0015468569
0.0085771419 0.057936881 0.013325877 0.77798426 0.5545665 -0.29529059 0.00059934118
-0.015441295 0.060757577 0.013830748 -0.75529534 0.49539542 -0.42908326 0.0031683324
-0.014100285 0.061647348 0.012638004 -0.6336289 0.56677622 -0.52657306 0.0013533453
0.0053544133 0.061534021 0.013218905 0.61745805 0.67286384 -0.40743089 0.0028730796
0.0072720079 0.06005244 0.014152666 0.70323354 0.62130988 -0.3455961 0.0016200627
-0.014654493 0.062674455 0.014704735 -0.72191942 0.55297351 -0.41599584 0.0034190915
-0.012716179 0.063797884 0.013573811 -0.614483 0.61712188 -0.49149892 0.0019769808
-0.010199361 0.064899802 0.012551826 -0.40958494 0.71445471 -0.56726938 0.0028157274
-0.0024006101 0.065240957 0.012226523 0.26715598 0.79018861 -0.55157018 0.0020882043
-0.00069681264 0.065064818 0.012677641 0.32287607 0.77390581 -0.54481256 0.00067047332
0.0023542871 0.064157784 0.013550597 0.49236289 0.73285079 -0.46958336 0.0029660971
0.0043368423 0.06297458 0.014068336 0.58547461 0.68887669 -0.42739722 0.0014816457
-0.011388657 0.065765157 0.014635733 -0.50630778 0.69528335 -0.51013076 0.0029100194
-0.0093293274 0.066416159 0.013885225 -0.3855291 0.73044324 -0.56375521 0.0025082701
-0.0066114352 0.06726402 0.013818447 -0.11201723 0.81704628 -0.56558591 0.0096509168
-0.003548915 0.066746421 0.013754464 0.20837307 0.81905931 -0.53453022 0.0018436443
-0.00081350352 0.066186637 0.014183427 0.33420405 0.77664399 -0.53397739 0.0016995376
0.0012585307 0.065621965 0.014770181 0.44237924 0.75122619 -0.48985696 0.00084182154
-0.0088296197 -0.069903679 0.017281443 -0.40140435 -0.83189994 -0.38316733 0.0034849737
-0.0066329399 -0.07042852 0.016761959 -0.25246215 -0.89680278 -0.36332858 0.0036499519
-0.0036553862 -0.070829973 0.01689091 -0.00078695902 -0.95168871 -0.30706337 0.004947471
-0.00085145014 -0.070317023 0.016747754 0.19281071 -0.90916109 -0.3691209 0.0065102526
-0.012169872 -0.067497179 0.016978655 -0.64344382 -0.67111236 -0.36822307 0.001737365
-0.0099803479 -0.068857476 0.016435757 -0.46627188 -0.80057019 -0.37640136 0.0024667229
-0.0073184781 -0.069599114 0.015218467 -0.25086561 -0.86985201 -0.4247632 0.0048597842
3.4143566e-05 -0.06962698 0.015407235 0.28174233 -0.89457905 -0.34691441 0.007702671
0.0020006911 -0.06905137 0.016503677 0.35582295 -0.88906658 -0.28801173 0.0037031169
0.0039619422 -0.067744799 0.015960902 0.43701631 -0.84171408 -0.31707123 0.0013085669
-0.014584481 -0.064573251 0.016877029 -0.79420102 -0.49936256 -0.34623951 0.0023819595
-0.013329608 -0.065921769 0.01626686 -0.74120855 -0.56334335 -0.36504012 0.0027174284
-0.015588775 -0.062312491 0.016553398 -0.88231105 -0.37072325 -0.28998548 0.0031260359
-0.016486501 -0.059183612 0.016610917 -0.95031524 -0.18538511 -0.25006667 0.002061916
-0.016650874 -0.056671876 0.015739135 -0.95072025 -0.18491133 -0.2488749 0.0020928159
-0.016654423 -0.054474231 0.015835971 -0.96211672 -0.12994745 -0.2396771 0.0013793914
-0.01767312 0.057808977 0.016790181 -0.88882756 0.35350636 -0.29157993 0.0010009912
-0.017139947 0.058890853 0.015695006 -0.8888759 0.35340178 -0.29155928 0.001032923
0.0091190226 0.058450695 0.016068652 0.77824759 0.57220459 -0.2586748 0.00057178107
0.010111561 0.057039078 0.016540498 0.79741228 0.53640389 -0.27641368 0.00087993266
-0.017225392 0.060182277 0.017960519 -0.86689776 0.39739203 -0.30094495 0.0016263596
-0.016428625 0.061029319 0.016371056 -0.85464633 0.41811931 -0.30782419 0.0019668106
0.0061691022 0.062094033 0.015792072 0.70463806 0.64447641 -0.29687607 0.0011436454
0.007650781 0.060576677 0.016352639 0.75205392 0.59988272 -0.27304879 0.0011658354
-0.01500812 0.063623466 0.016751163 -0.73091865 0.56237042 -0.38664895 0.0019841341
-0.013312049 0.064874157 0.01567319 -0.60769576 0.6438818 -0.46488929 0.0014401519
0.0029796576 0.065132163 0.015870105 0.51973224 0.75469834 -0.40038589 0.0026637646
0.0050012534 0.063693248 0.016667668 0.67265373 0.67688173 -0.29894495 0.00079816452
-0.012184964 0.066594519 0.016713887 -0.56114715 0.69237286 -0.45357871 0.0026971169
-0.0098373946 0.067734659 0.016086411 -0.38733444 0.7752378 -0.49897739 0.0043954072
-0.0078112483 0.068163358 0.015368969 -0.12936927 0.80842215 -0.57420999 0.010935863
-0.0034009283 0.068101555 0.015760798 0.15476221 0.81622809 -0.556615 0.0018485941
-0.00045676099 0.067453049 0.016258687 0.32877204 0.79539567 -0.50917071 0.0017680813
0.0019579984 0.066389553 0.0169078 0.52737904 0.74478531 -0.40885964 0.0031608113
-0.0092550283 0.068910882 0.01746472 -0.38057113 0.79930818 -0.4650507 0.0041725673
-0.0066062748 0.069122761 0.016795143 -0.068802021 0.86480665 -0.49736881 0.0052517201
-0.003770222 0.069173329 0.017260879 0.20970279 0.84289992 -0.49552453 0.0031783637
-0.0013614406 0.068664484 0.01753924 0.37921017 0.80342609 -0.45902744 0.003403675
-0.0096702399 -0.070367329 0.019753303 -0.45253289 -0.84420747 -0.28727645 0.0027041712
-0.0073927166 -0.071259253 0.019756734 -0.27022892 -0.91281801 -0.30616924 0.0028637063
-0.01433741 -0.066869386 0.020225942 -0.78633475 -0.5498634 -0.28165203 0.0041928911
-0.01248121 -0.068484738 0.019643933 -0.60565263 -0.73540837 -0.30390686 0.0015688112
-0.010329041 -0.069559135 0.018290281 -0.4501994 -0.82991803 -0.32947931 0.002829568
-0.015166741 -0.065227993 0.019610703 -0.81663817 -0.50798428 -0.27396011 0.0036410666
-0.013785962 -0.066609956 0.018374026 -0.74635547 -0.59692192 -0.29434276 0.001374976
-0.016285952 -0.062533177 0.019277111 -0.88932502 -0.37252858 -0.26518586 0.0028874569
-0.0167774 -0.060049679 0.019192502 -0.92513603 -0.28578904 -0.24989571 0.0016531295
-0.017276622 0.060862768 0.019318849 -0.85451245 0.42361513 -0.30059719 0.0017261953
-0.016742649 0.061701361 0.018244028 -0.8544969 0.41587156 -0.31126499 0.001930063
0.0069474806 0.062243916 0.018591732 0.70631677 0.64874327 -0.28328225 0.00098478235
-0.015871642 0.064002298 0.019534897 -0.80696505 0.50088584 -0.31292304 0.0023652639
0.0049886755 0.064929172 0.020070493 0.65229046 0.70062494 -0.28920889 0.00094756245
-0.014620678 0.066075221 0.019777387 -0.70862776 0.60383523 -0.36500651 0.0012583716
-0.013046036 0.067404106 0.019163977 -0.61350751 0.69125408 -0.38180658 0.0055411891
0.00052764063 0.068124913 0.018301517 0.52936339 0.76210129 -0.37279487 0.0014074415
0.0022255825 0.067387871 0.019481663 0.56774038 0.73876667 -0.36317301 0.0031653575
0.0039919405 0.065826796 0.019440681 0.65187937 0.7043153 -0.28105736 0.0010502191
-0.011943442 0.069004565 0.02025732 -0.56320405 0.71844673 -0.40821001 0.0023429664
-0.0096503804 0.0699431 0.019545145 -0.34806383 0.80909568 -0.47351423 0.0045859059
-0.0066399616 0.070472322 0.019096535 -0.068829671 0.86341411 -0.49977851 0.0030838971
-0.0036755358 0.070435293 0.019381985 0.16586724 0.8563354 -0.48905799 0.0021713711
-0.00085707591 0.069589168 0.019768905 0.41699126 0.81375903 -0.40486357 0.0039012148
0.001523113 0.068529017 0.020924151 0.52110487 0.78170872 -0.34260952 0.0015230116
-0.0064184205 0.071509123 0.020937592 -0.061410904 0.89288211 -0.44608319 0.0082215015
-0.0046821926 0.071527697 0.021053165 0.21016301 0.88061506 -0.42467475 0.0055347094
-0.011911616 -0.06988465 0.022212058 -0.58416367 -0.76976436 -0.25732389 0.0020581617
-0.0096861254 -0.071226873 0.022870146 -0.48731124 -0.83964729 -0.23983367 0.0017176901
-0.014661418 -0.067453369 0.022617996 -0.72944492 -0.64206332 -0.23593386 0.0020523742
-0.013395908 -0.0686009 0.021933705 -0.72716659 -0.6437006 -0.23849158 0.0020779888
-0.01564467 -0.065658048 0.022238478 -0.81836504 -0.51892298 -0.24697684 0.0035466745
-0.016364373 -0.063566931 0.021482438 -0.88606846 -0.39532182 -0.24208103 0.0030701237
-0.015867317 0.065136023 0.021478623 -0.79991949 0.51550704 -0.30721527 0.0016995033
-0.015158156 0.066789545 0.022566881 -0.74233627 0.59013695 -0.31729344 0.00097055244
-0.013894758 0.068194248 0.021979839 -0.71600574 0.61755836 -0.32551107 0.001508767
-0.01445373 0.068495445 0.023948193 -0.71072721 0.62042755 -0.33156672 0.0014684651
-0.012561426 0.069864765 0.022828318 -0.60233253 0.70792067 -0.36884135 0.0047169346
-0.010211815 0.070965946 0.021890618 -0.3881515 0.80059499 -0.4564932 0.0064219576
-0.0024498384 0.071080692 0.021363348 0.30054778 0.88476044 -0.35618821 0.0073516411
-0.00071266841 0.070494302 0.022368804 0.41706923 0.83387786 -0.36152574 0.0027033868
0.001028712 0.069163747 0.021816045 0.48394892 0.791228 -0.37383384 0.003723949
-0.0092979092 0.071921848 0.023063701 -0.33538538 0.84624743 -0.41398296 0.0036135558
-0.0068654665 0.072170407 0.022397142 -0.095254689 0.91716301 -0.38696069 0.0038586271
-0.0039517414 0.072039165 0.022685312 0.18784787 0.90625077 -0.37871206 0.0049275104
-0.01274086 -0.070072398 0.025214776 -0.65330696 -0.72103965 -0.23085019 0.0056400304
-0.015022229 -0.067940153 0.02607879 -0.78077918 -0.59463263 -0.19182235 0.0051011643
-0.014002983 -0.069121517 0.025566727 -0.64866483 -0.72286093 -0.23813006 0.0055207256
-0.015254145 0.06797877 0.025488123 -0.74880081 0.58869821 -0.30451903 0.00085000705
-0.014771862 0.069073908 0.026090235 -0.71945912 0.62322962 -0.30653441 0.0012434764
-0.013419643 0.07050398 0.025606576 -0.71982801 0.62252492 -0.30709994 0.0011836363
-0.012095683 0.071919918 0.026100401 -0.58669215 0.72365826 -0.36347079 0.0060622767
-0.0098135779 0.072965495 0.025744885 -0.32824004 0.85868704 -0.39359233 0.011375246
-0.0069833375 0.073402345 0.025441896 -0.05416913 0.92876703 -0.36668441 0.0015715933
-0.0049831085 0.073315345 0.025937289 -0.052327234 0.92843759 -0.36778459 0.0017059826
-0.013084326 -0.070560299 0.028564662 -0.65590072 -0.73075253 -0.18919539 0.0030604312
-0.015007684 0.069935434 0.02874155 -0.75612408 0.57928711 -0.30447122 0.0034604091
-0.014084495 0.071173422 0.028268188 -0.75670505 0.56932479 -0.32135153 0.0041273218
-0.014647081 0.071467184 0.030135423 -0.74531376 0.58887905 -0.31261632 0.0045818933
-0.012722314 0.072807051 0.02873474 -0.58991641 0.6768375 -0.44032913 0.0094847763
-0.010130748 0.073999234 0.02807479 -0.22426607 0.85594636 -0.46589753 0.011402164
-0.0062600691 0.074094601 0.027631804 -0.035824116 0.91898322 -0.39266604 0.0027277849
-0.011604274 0.074469574 0.029921055 -0.55183399 0.70364964 -0.44761187 0.0073625743
-0.0098221973 0.074801862 0.029378187 -0.23130159 0.83977616 -0.491198 0.014104779
-0.0069423057 0.074808456 0.029520996 -0.072473846 0.90490735 -0.41939259 0.0035799497
-0.015459828 0.070451193 0.031753376 -0.74077183 0.58095223 -0.33727086 0.0049682711
-0.014612163 0.072820425 0.032270648 -0.74068123 0.58105004 -0.33730134 0.0049306583
-0.013397702 0.073499374 0.030701563 -0.66158563 0.64873117 -0.3761014 0.014762786
-0.012479999 0.075049609 0.031911038 -0.58541113 0.70914841 -0.39294067 0.0086534144
-0.0098604402 0.075864352 0.031205658 -0.24211948 0.83687979 -0.49092808 0.015133619
-0.0073748138 0.075707287 0.031280331 -0.11711407 0.90633333 -0.40601003 0.0042803832
-0.014785015 0.073694639 0.034549266 -0.6699639 0.65031403 -0.35810614 0.012855956
-0.011691296 0.076319151 0.033432066 -0.44395784 0.8213653 -0.35813475 0.026377931
-0.0148998 -0.070763595 0.03822143 -0.78244901 -0.56035775 -0.27161139 0.017924014
-0.013330149 -0.072089136 0.037310109 -0.78246456 -0.56033188 -0.27161983 0.017943693
-0.013102044 -0.073314227 0.041552752 -0.69069552 -0.64856201 -0.31985459 0.0066757891
-0.015288925 -0.071508385 0.041188639 -0.78246456 -0.56033188 -0.27161983 0.017943693
-0.013384096 -0.072632916 0.039264172 -0.78247488 -0.56031001 -0.27163556 0.01795109
-0.015226023 -0.073310852 0.043888059 -0.63186938 -0.67877394 -0.37417519 0.017381484
