# .PCD v0.7 - Point Cloud Data file format
VERSION 0.7
FIELDS x y z normal_x normal_y normal_z curvature
SIZE 4 4 4 4 4 4 4
TYPE F F F F F F F
COUNT 1 1 1 1 1 1 1
WIDTH 554
HEIGHT 1
VIEWPOINT 0 0 0 1 0 0 0
POINTS 554
DATA ascii
0.024368504 -0.040436976 -0.0054772631 0.93445003 -0.088013589 -0.34504616 0.0015433426
-0.004928913 -0.037658382 -0.0069692088 -0.87030816 0.44857639 -0.20332986 0.00077070895
0.023579283 -0.037722714 -0.0071223387 0.87451977 0.041637141 -0.48319936 0.00073480239
0.024356768 -0.037845463 -0.0056908233 0.89716315 0.0054927589 -0.44166514 0.0016739003
-0.0037302948 -0.034947045 -0.0063692089 -0.85117072 0.44851011 -0.27266657 0.003323369
-0.0027507704 -0.033751007 -0.0072555598 -0.79635024 0.4956634 -0.34661806 0.0028529165
0.023467112 -0.034627549 -0.0069163973 0.84354585 0.1007564 -0.52752113 0.0011871473
0.024378456 -0.035071097 -0.0052961712 0.89043736 0.073760964 -0.44908869 0.0014253446
-0.0016602923 -0.031702079 -0.0067340126 -0.78663445 0.46697602 -0.40390545 0.0027704143
4.5383444e-05 -0.030437632 -0.0080179228 -0.66062343 0.49550599 -0.5639596 0.0012707618
0.02312883 -0.031626392 -0.0068378197 0.81329328 0.16652852 -0.55751431 0.0027322767
-0.0007361488 -0.02926233 -0.0058483188 -0.73473245 0.41495916 -0.53663504 0.0035126223
0.00071252341 -0.028360631 -0.0069694901 -0.68877131 0.4594765 -0.560781 0.0027551763
0.020980254 -0.027888803 -0.0078735007 0.65172583 0.30823353 -0.69299752 0.00198466
0.022628939 -0.028757865 -0.0065315738 0.72983617 0.26112208 -0.6317867 0.0021517284
0.0018817495 -0.025908247 -0.006405957 -0.61905462 0.45782065 -0.63810003 0.0032491616
0.0039248778 -0.02504156 -0.0074872551 -0.43780452 0.48803443 -0.75508255 0.0020507185
0.020150272 -0.025556602 -0.0074494453 0.54248941 0.3305907 -0.77227914 0.0027143678
0.021963449 -0.025844038 -0.0060667424 0.64499128 0.29097974 -0.70662367 0.0021655129
0.0025218748 -0.023408176 -0.0054811076 -0.61888677 0.40244067 -0.6745522 0.0025580823
0.0044761789 -0.022838864 -0.006539613 -0.44674474 0.43235597 -0.78325444 0.0017485239
0.0071830358 -0.022282578 -0.0075657321 -0.3165004 0.46631294 -0.8260628 0.0019003861
0.0095810536 -0.021605549 -0.0079312576 -0.13678807 0.48282051 -0.86497015 0.0017203484
0.014927534 -0.021601347 -0.0080179228 0.19766927 0.43569472 -0.87812126 0.0073928088
0.016937202 -0.022191925 -0.0076922132 0.29980466 0.42004928 -0.85654879 0.0027193946
0.019403372 -0.022829944 -0.0067169825 0.47470772 0.35589352 -0.80497974 0.0017870691
0.021373084 -0.02331312 -0.0055101383 0.63639718 0.31513995 -0.70404935 0.0015749999
0.0050577787 -0.020422116 -0.0055346279 -0.44732845 0.42926756 -0.78461874 0.0016069657
0.0075129131 -0.01981432 -0.0063372217 -0.33615446 0.44243649 -0.83141452 0.001817118
0.010530279 -0.019780314 -0.0071071908 -0.12989099 0.45688081 -0.87999332 0.0017024212
0.013555813 -0.01977429 -0.0072440049 0.053688582 0.44242153 -0.8951987 0.0027567546
0.016605454 -0.01979921 -0.006680931 0.32778051 0.40662506 -0.85276961 0.0034122483
0.019079652 -0.020143425 -0.0057040835 0.47363809 0.36272442 -0.80255717 0.0024016057
0.0081303148 -0.01755101 -0.0053898073 -0.32303098 0.41435447 -0.85085917 0.0018411961
0.010666003 -0.016936341 -0.0056700706 -0.14086947 0.43488681 -0.88939828 0.0015801981
0.013565874 -0.016829384 -0.0057739075 0.044448413 0.44462419 -0.89461368 0.0023149964
0.016375966 -0.017181553 -0.0055050617 0.29400504 0.37810946 -0.87783504 0.0037018603
0.018298453 -0.01799324 -0.0051985634 0.47087586 0.34657481 -0.81127167 0.002751851
0.023769053 -0.04601581 -0.0035603896 0.93602628 -0.18942556 -0.29660201 0.0012843705
0.023944112 -0.044728603 -0.0046715392 0.93577456 -0.16186671 -0.3132495 0.0012055885
0.024459427 -0.043172035 -0.0038227991 0.94382364 -0.15285009 -0.29297397 0.0010854446
0.025001485 -0.040672395 -0.0034695256 0.94243765 -0.10631938 -0.31702933 0.00047875199
-0.0052809105 -0.03745544 -0.0038511907 -0.88152152 0.42356685 -0.20859265 0.0010606778
0.025148027 -0.037665159 -0.0037892968 0.93474966 -0.030599911 -0.35398698 0.0011049699
-0.0041858661 -0.034619376 -0.0038011414 -0.88029045 0.41369459 -0.23226175 0.0025172357
0.025115354 -0.034635492 -0.0037293849 0.9114641 0.054106437 -0.40780583 0.0014713166
-0.0033861687 -0.032381542 -0.0031979168 -0.89500827 0.36340553 -0.2586439 0.0031734889
-0.0026420909 -0.031122869 -0.0039056283 -0.8621915 0.39701104 -0.31465527 0.0019669465
0.024968663 -0.031755518 -0.0035489365 0.90162504 0.074871741 -0.42598882 0.00065483421
-0.0016035668 -0.028664188 -0.0037643551 -0.815759 0.3751485 -0.44022807 0.0024008695
0.023941541 -0.028321665 -0.0047192229 0.81896424 0.17148781 -0.54762173 0.005054085
0.024691323 -0.02875687 -0.0035544888 0.87687105 0.10836437 -0.46835274 0.0016477347
-0.00080661674 -0.025972873 -0.003195927 -0.79230052 0.34352183 -0.50423473 0.0039408552
0.00035400034 -0.025444385 -0.0044975709 -0.75110543 0.39156634 -0.53152275 0.0028305026
0.023527762 -0.025566563 -0.0042431587 0.77977103 0.24371625 -0.57667977 0.002495334
0.024708532 -0.026047926 -0.0027198568 0.82709777 0.1811575 -0.53206307 0.0040915636
-0.00043189668 -0.023760621 -0.0023511504 -0.76494485 0.31104293 -0.56401384 0.0028304623
0.0012328966 -0.022609418 -0.0037145931 -0.70358157 0.35837847 -0.61362684 0.0022016387
0.003321273 -0.021286024 -0.0048597706 -0.60943717 0.38238773 -0.69452566 0.0017314984
0.022618499 -0.022530669 -0.0039715292 0.68112463 0.29574329 -0.66978002 0.0027625742
0.024193214 -0.02348114 -0.0025474129 0.77037442 0.22860135 -0.59520137 0.002392001
0.0020904113 -0.019846559 -0.0030641595 -0.61157769 0.36358574 -0.70269346 0.0014328525
0.004098725 -0.019391043 -0.0043948544 -0.49297774 0.40759557 -0.76866037 0.0026603686
0.020231502 -0.019289048 -0.0046023577 0.52128083 0.3349919 -0.78488648 0.002226752
0.02217257 -0.019842001 -0.0032434161 0.64523482 0.28888395 -0.70726097 0.0021778988
0.0027089263 -0.017554589 -0.0024096225 -0.59730077 0.36877295 -0.7122066 0.0011427363
0.0045120874 -0.016834902 -0.0033168693 -0.48463097 0.37139753 -0.7919575 0.0032949313
0.0072414535 -0.016480045 -0.0045051989 -0.32352397 0.42685381 -0.84446913 0.0019555169
0.0097614778 -0.015779464 -0.0049177362 -0.15802112 0.44983524 -0.87902081 0.0015061822
0.01705474 -0.016063944 -0.0047681266 0.28155431 0.41442677 -0.86543494 0.0044480776
0.019591192 -0.016792012 -0.0039072111 0.46436638 0.37156937 -0.80392784 0.0032400938
0.021576647 -0.017029688 -0.0025814092 0.62970167 0.31432745 -0.7104041 0.0013509772
0.005220151 -0.014331425 -0.0025278435 -0.45109901 0.38979572 -0.80285048 0.00180759
0.0075614797 -0.013835661 -0.0033314736 -0.34069946 0.40414777 -0.84887481 0.0018179903
0.01059946 -0.01381186 -0.0041203653 -0.14822395 0.42660293 -0.89221048 0.0013870671
0.01340944 -0.013805875 -0.0043188757 0.034981824 0.41986126 -0.90691388 0.0019079234
0.016474789 -0.013819051 -0.0038825546 0.23623233 0.40258512 -0.88437521 0.0028929294
0.019322548 -0.014021982 -0.0028403087 0.44959104 0.3633413 -0.81599689 0.0034614434
0.0081868591 -0.011398226 -0.0023944965 -0.28717393 0.39127952 -0.87431771 0.0022616461
0.01066567 -0.010828109 -0.0027160889 -0.14658511 0.40236089 -0.90366954 0.0021238183
0.0134518 -0.010790425 -0.0028890518 0.031021146 0.41691822 -0.90841448 0.0036094547
0.016332855 -0.010978783 -0.0026075949 0.22457218 0.38912362 -0.8933925 0.0027853984
0.018575801 -0.011826677 -0.0022623395 0.44761199 0.37405857 -0.81223381 0.0036095188
0.011588855 -0.0091589075 -0.0021209524 -0.14529032 0.39101231 -0.90884548 0.0020562676
0.013473622 -0.0091582863 -0.002153273 0.036068816 0.39042881 -0.91992623 0.0034330473
0.025524499 -0.040318247 -0.0016184703 0.95234454 -0.10076667 -0.28789926 0.00062583707
0.026027637 -0.037532125 -0.0010827199 0.94573534 -0.030489596 -0.32350442 0.0010015542
-0.0043751472 -0.034084611 -0.0008331592 -0.92732006 0.32938555 -0.17771542 0.0012724863
0.026289133 -0.034728549 -0.00066148047 0.9471994 0.0095086265 -0.32050413 0.0011710692
-0.0035554385 -0.031402718 -0.0008789018 -0.91807443 0.3276068 -0.22318856 0.0025146997
0.026281528 -0.031794101 -0.00048010866 0.94180864 0.042134728 -0.33349842 0.0012103325
-0.0032810692 -0.029583283 0.00021599187 -0.94033587 0.26223767 -0.21679451 0.0032751663
-0.0026394173 -0.028547408 -0.0011627928 -0.91861898 0.30500695 -0.2512171 0.0032099101
0.025955701 -0.028955646 -0.00070687884 0.92858428 0.078376204 -0.36275119 0.00043837822
-0.0020046546 -0.025792241 -0.00065084384 -0.90355253 0.26029888 -0.34034869 0.0019573513
0.025695819 -0.025579724 -0.00057856203 0.89674878 0.12709524 -0.42389676 0.0014565933
-0.0010987706 -0.022766331 -0.00056993216 -0.85143518 0.28047353 -0.44316217 0.0036956072
3.868818e-05 -0.021666704 -0.001804705 -0.7069751 0.3476007 -0.61592203 0.0016335972
0.025078187 -0.022568429 -0.0007551536 0.8580963 0.17531684 -0.48263317 0.0038230433
-0.00069608371 -0.020146297 0.00018550758 -0.80954015 0.26606834 -0.52330899 0.0041492339
0.00051009574 -0.019622626 -0.001255443 -0.76107818 0.32893714 -0.55907094 0.0025709465
0.023479287 -0.019158334 -0.0016209489 0.70438999 0.26590145 -0.65812695 0.0017771457
0.024702009 -0.019906033 -0.00032681564 0.81422073 0.21295249 -0.54008865 0.002982002
-0.00043874877 -0.018233521 0.00082824077 -0.76525038 0.30658019 -0.56603926 0.003183611
0.0013723202 -0.016695486 -0.00066682999 -0.71485096 0.3138769 -0.62487549 0.0017577009
0.0033403572 -0.015530286 -0.0019080893 -0.61059082 0.36928701 -0.70057535 0.0016584825
0.022948466 -0.016547034 -0.0010738627 0.71624774 0.28604332 -0.63652843 0.0017160473
0.024389006 -0.017051507 0.00038414286 0.77005535 0.23602182 -0.59271276 0.0022939104
0.0021013643 -0.013821953 -3.5472214e-05 -0.6159786 0.31585145 -0.72167045 0.0017865421
0.0041234265 -0.013381407 -0.0013972309 -0.4970277 0.36516485 -0.78715831 0.0027509152
0.020507285 -0.01300157 -0.0016776279 0.56087321 0.35456219 -0.74813557 0.0025630505
0.022384385 -0.01379072 -0.0004296957 0.66000414 0.29268593 -0.69190276 0.0023293323
0.0026185077 -0.011372077 0.00058352388 -0.63337868 0.28265056 -0.72037494 0.0028618027
0.0045314711 -0.010845738 -0.00050476333 -0.44277564 0.33422354 -0.83201224 0.0024157674
0.0071745822 -0.010414921 -0.0015964726 -0.32217529 0.3771435 -0.86831212 0.0021360421
0.0094703361 -0.0096332114 -0.0019806281 -0.14529006 0.39101329 -0.90884513 0.0020560971
0.017493287 -0.0099059753 -0.0018228078 0.2615678 0.39315119 -0.88148427 0.0044520511
0.019739427 -0.010737982 -0.0011441618 0.464452 0.34625068 -0.81510419 0.0037390022
0.021892995 -0.011074461 0.00026224344 0.63841432 0.31650454 -0.70160681 0.0020063776
0.0048876582 -0.0080057541 0.00036930386 -0.45534807 0.29341224 -0.84057558 0.002210126
0.0075747347 -0.0077966545 -0.00068508578 -0.30179375 0.34598106 -0.88837928 0.0019040871
0.010577288 -0.007652692 -0.0013495079 -0.14072692 0.37460256 -0.91644359 0.0022762106
0.01349429 -0.0075187231 -0.0014562588 0.033215597 0.39310417 -0.91889381 0.0014767122
0.016545307 -0.0077890768 -0.0011491899 0.2282856 0.37609929 -0.89801729 0.0026169817
0.019544194 -0.0078511052 -4.8442744e-06 0.47475809 0.33298987 -0.81469166 0.0034611246
0.021387441 -0.0089766141 0.00071441079 0.6498313 0.30210662 -0.69746029 0.0024398139
0.0055723563 -0.0057352604 0.00078816665 -0.39717656 0.27522925 -0.87549967 0.0019433737
0.0074783871 -0.0047964468 0.0003925208 -0.26876968 0.29056558 -0.91833246 0.0022221215
0.010453201 -0.0046973499 -0.00021377404 -0.11231235 0.32064956 -0.9405157 0.0015207417
0.013527453 -0.0046961787 -0.00033812947 0.044086032 0.33963597 -0.93952316 0.001235542
0.016382633 -0.0046999161 7.3033385e-05 0.24716376 0.34370321 -0.90596813 0.002796605
0.018535368 -0.0051975599 0.00058463891 0.4170346 0.35269299 -0.83766931 0.0027718339
0.0082619684 -0.0027298208 0.00081438269 -0.23643675 0.26487172 -0.93484789 0.0015445852
0.010614173 -0.0022384638 0.00060405373 -0.092099801 0.29503134 -0.95103842 0.0019612901
0.013486969 -0.0021637916 0.00058336882 0.055261474 0.31806508 -0.94645697 0.0018089513
0.015953653 -0.0027007137 0.00074336375 0.25908962 0.32514572 -0.90947938 0.002957904
0.026637852 -0.036301624 0.0012402281 0.95841807 -0.041819863 -0.28228697 0.00052828726
0.027237479 -0.033604842 0.0033047542 0.96102828 0.01019689 -0.2762621 0.00059468945
-0.0039275512 -0.03158024 0.0016458079 -0.95000172 0.24935283 -0.18793572 0.0015535802
0.027180826 -0.031868242 0.0023659312 0.96177244 0.015596498 -0.2734054 0.00063650787
-0.0034572892 -0.02868421 0.0022148981 -0.95776737 0.21019632 -0.19621235 0.0016132619
0.026646217 -0.027996847 0.0013813793 0.94007128 0.085765563 -0.33001545 0.0010038398
0.027211444 -0.028804269 0.0028733143 0.96009612 0.037471492 -0.27714863 0.00064354675
-0.0033078489 -0.026685355 0.0033224567 -0.96162224 0.18188778 -0.20542502 0.0011213305
-0.0027408595 -0.025254969 0.0019261336 -0.94104511 0.21580309 -0.26050568 0.0017067379
0.026695101 -0.025667366 0.0022061712 0.95132107 0.075847417 -0.29872301 0.00041086593
0.027256263 -0.026463769 0.0036160492 0.95132202 0.075846218 -0.29872006 0.00040557346
-0.0023475825 -0.02281893 0.0023532903 -0.93716592 0.20697586 -0.28085762 0.0023084208
0.026476149 -0.02270034 0.0021558881 0.92948568 0.10102124 -0.35475489 0.0019058125
-0.0016866591 -0.019726425 0.0024323228 -0.8917861 0.2092703 -0.40115282 0.0024198699
0.026173348 -0.019808006 0.0023731894 0.90935999 0.131255 -0.39476129 0.002634556
-0.00096690649 -0.016773136 0.0024470834 -0.83162898 0.24945334 -0.49615145 0.0022338817
3.5391953e-05 -0.015875043 0.0012541856 -0.80998248 0.2735762 -0.5187335 0.0038523893
0.025536841 -0.016698042 0.0023357079 0.83703882 0.21222645 -0.50430739 0.0015819472
-0.00066097185 -0.013903664 0.0032190185 -0.80887347 0.20630234 -0.55060238 0.0040384163
0.00051007845 -0.013569909 0.0017481316 -0.76831675 0.27022934 -0.58022881 0.0031853274
0.023670813 -0.012906672 0.0012765347 0.71517462 0.26670888 -0.6460585 0.0019414112
0.024903806 -0.013869721 0.0025162993 0.81268948 0.22734456 -0.53651673 0.0022322859
-0.00044502615 -0.01166119 0.0037409312 -0.76062709 0.17034815 -0.62644064 0.0032746613
0.0011438786 -0.01077138 0.0021810199 -0.69200796 0.22660263 -0.68540221 0.0048408606
0.02329047 -0.010688653 0.001826799 0.74075449 0.28003213 -0.61062646 0.0015418434
0.024559692 -0.011122808 0.0032088144 0.78224856 0.24545632 -0.57257181 0.0022758842
0.0016245594 -0.0078750895 0.002621256 -0.61845011 0.23076721 -0.75117636 0.0042427895
0.003677787 -0.0072454736 0.0013033792 -0.49276972 0.25605217 -0.8316341 0.0031360763
0.020819211 -0.0067302259 0.0012536019 0.60498244 0.33464608 -0.72250134 0.0022060575
0.022627572 -0.0078302631 0.0024093345 0.68037021 0.29235703 -0.67202955 0.0031754982
0.024401935 -0.0092742573 0.0038256391 0.78836524 0.25843021 -0.55829573 0.0044558551
0.0020089163 -0.0047956482 0.0030462241 -0.58659792 0.18328965 -0.78886485 0.0031698181
0.0044578467 -0.0046210582 0.0016540198 -0.40846199 0.26281428 -0.87412101 0.0013602175
0.0063672182 -0.0036808525 0.0010838951 -0.27685013 0.24028844 -0.93038464 0.0023252633
0.019957233 -0.0044934088 0.0016599772 0.45696163 0.34317085 -0.82062167 0.0045116828
0.022053184 -0.0048910272 0.003097344 0.6642608 0.31606823 -0.67739093 0.0023658427
0.0023243686 -0.0019622168 0.003444107 -0.53893906 0.15774611 -0.82744235 0.0022512302
0.0045574512 -0.0018634851 0.0023085123 -0.37622601 0.20195836 -0.90424931 0.0017189464
0.0072265086 -0.0016868562 0.001394459 -0.25121993 0.24898662 -0.93535781 0.0020658686
0.010126576 -0.0009107365 0.0010833337 -0.070267834 0.3147237 -0.9465788 0.0017206677
0.013807451 -0.00079203141 0.0010977953 0.07488782 0.34402269 -0.93597019 0.0019109539
0.016629005 -0.0014903962 0.0013726517 0.25937897 0.35828981 -0.89685619 0.0018935335
0.019369489 -0.001895652 0.0023878722 0.48095393 0.346275 -0.80546689 0.0046311035
0.021344455 -0.002285016 0.003583309 0.64329594 0.30619237 -0.70172411 0.0018630465
0.0026602894 0.00087954605 0.0037557997 -0.49212211 0.14380974 -0.85856539 0.0016698006
0.0045635211 0.0012347085 0.0029634635 -0.36374012 0.17851858 -0.91423422 0.0021327904
0.007411473 0.0012310116 0.002087224 -0.20768613 0.24374557 -0.94734079 0.0018215948
0.010496037 0.0012292969 0.001673043 -0.051549569 0.27690738 -0.95951283 0.0017060462
0.01358917 0.0012296679 0.0017410419 0.098306902 0.30905092 -0.94595104 0.0018529656
0.016463917 0.001232247 0.0023219322 0.27837759 0.32111385 -0.90520269 0.0015566821
0.018986853 0.00092920905 0.0032783544 0.47561759 0.31292197 -0.82211179 0.0026994788
0.0047027613 0.0042357044 0.0034834535 -0.30980635 0.16534644 -0.9363122 0.0016092663
0.0074230097 0.0043328209 0.0028211668 -0.17774647 0.21161252 -0.9610548 0.0017734875
0.010515258 0.004329477 0.002518459 -0.017428072 0.25095746 -0.96784121 0.0012021534
0.013617943 0.004331707 0.0027095845 0.17004219 0.28817782 -0.94235831 0.0022141642
0.016365711 0.0042341696 0.0033224623 0.33163851 0.30836999 -0.89158499 0.0025324835
0.018349171 0.0033085472 0.0038182682 0.47444043 0.32084557 -0.81973433 0.0027692397
0.0052581034 0.0068813511 0.0037591986 -0.25842759 0.16725285 -0.95144188 0.0014384831
0.0074320543 0.0072035184 0.003395437 -0.12784274 0.17161709 -0.97683358 0.0018156944
0.010531127 0.0072003715 0.003215235 0.0057860017 0.21153197 -0.97735399 0.0010975656
0.013547312 0.0071113855 0.0035009745 0.18035059 0.26682425 -0.94671983 0.0016262317
0.015639013 0.0063336026 0.0037446313 0.27724865 0.28344443 -0.91803724 0.00057639496
0.0076549803 0.0095430641 0.003819477 -0.099545978 0.15521871 -0.98285186 0.0020954849
0.010378012 0.0095618311 0.0037583958 0.039618433 0.2004752 -0.97889739 0.0015972321
0.012615713 0.0090427464 0.003834272 0.20328426 0.2742078 -0.93993914 0.0025279874
-0.0037960263 -0.029383181 0.0044452893 -0.96746099 0.18253148 -0.17521851 0.00077304215
0.027857961 -0.028260762 0.0056363838 0.9685545 0.044732377 -0.24474722 0.00058108603
-0.0033207554 -0.025336137 0.004819599 -0.96551734 0.16410707 -0.20210187 0.0012442025
0.027695294 -0.025619207 0.0055835489 0.96141148 0.073967829 -0.2649844 0.00016044578
-0.0033321346 -0.023968851 0.006139596 -0.968301 0.15692967 -0.19433531 0.0011291789
-0.0028405613 -0.021975754 0.0046481462 -0.94910151 0.19278848 -0.24907613 0.0037989067
0.027358523 -0.022726353 0.005310595 0.96256953 0.082346879 -0.2582224 0.0004697589
-0.0026554121 -0.019425994 0.0054802699 -0.94324583 0.14647143 -0.29804921 0.0041442136
0.026813587 -0.018846262 0.0042053601 0.91492683 0.13669154 -0.37976879 0.0028253705
0.027407994 -0.019645311 0.0061304364 0.96850187 0.065821916 -0.24014921 0.0011923311
-0.0021475842 -0.016619129 0.0051528122 -0.90591574 0.18001609 -0.38328964 0.0017369138
0.026736546 -0.016480574 0.004922838 0.9147923 0.15057543 -0.37480941 0.0017151082
0.027446395 -0.017748749 0.0067667859 0.97036159 0.085329674 -0.22609116 0.001217525
-0.0017376787 -0.013918169 0.0053238804 -0.89712226 0.13663916 -0.42012066 0.0032812704
0.026396152 -0.013855642 0.0052398657 0.90108299 0.17431399 -0.39706942 0.0018545719
-0.0012547744 -0.010626306 0.0053175902 -0.86228621 0.10328667 -0.49577659 0.0045049307
0.025714725 -0.010740879 0.0052966774 0.85687846 0.22003058 -0.46620369 0.0019423547
-0.0011699528 -0.0076309755 0.0057011591 -0.81491292 0.085636415 -0.57322198 0.0048438953
3.2213928e-05 -0.0073684403 0.0042033959 -0.68660891 0.15444405 -0.71043307 0.0031827847
0.023948807 -0.0068914909 0.0042934762 0.73426288 0.2667056 -0.62428045 0.0019077456
0.024997797 -0.0077604852 0.0054764096 0.8262223 0.24439423 -0.50757086 0.0020164449
-0.00098054879 -0.0048163114 0.0058251666 -0.75573635 0.057824634 -0.65231818 0.0043438054
0.00037354676 -0.0046035368 0.0044258051 -0.71152103 0.12674245 -0.69113976 0.0033705169
0.02342852 -0.0046630423 0.0047106948 0.76830852 0.2827782 -0.57422858 0.0018758851
0.02457666 -0.0047787549 0.0062545342 0.80591297 0.25828743 -0.53272122 0.0020521285
-0.00093046128 -0.0018736903 0.0060154581 -0.68764853 0.052280348 -0.724159 0.0034945514
0.00068408798 -0.0017829045 0.0046043145 -0.64964837 0.11146866 -0.75201851 0.0027168861
0.02262987 -0.0017026362 0.0051804995 0.70586526 0.30096871 -0.64122695 0.0037691647
0.024067728 -0.0025961869 0.0065456675 0.77908415 0.2759712 -0.56291014 0.0014944284
-0.00093114679 0.0012484821 0.0062394701 -0.6686424 0.046014044 -0.74215895 0.0036229743
0.0010791242 0.0013586094 0.0047707083 -0.56175512 0.092329435 -0.82213527 0.0036665753
0.020161275 0.0018558686 0.004401424 0.51914245 0.32135713 -0.79197264 0.0025692885
0.021895895 0.0010749834 0.0056401826 0.69893569 0.30967027 -0.64466524 0.003237573
-0.00093147298 0.0043725953 0.0063568782 -0.60390288 0.031072438 -0.79645211 0.003082593
0.0014672721 0.0043559163 0.0048752483 -0.46025348 0.095965438 -0.88258559 0.0022594575
0.0034983153 0.0051829508 0.0040408345 -0.30453938 0.16053824 -0.93887335 0.0016100229
0.017605027 0.0051843366 0.0041411715 0.37443393 0.28550762 -0.88220441 0.0031985284
0.019531639 0.0044524027 0.0050382074 0.52716541 0.31272024 -0.79012823 0.0022117228
0.021419315 0.0040374841 0.0064530214 0.66329294 0.29340521 -0.68844444 0.0019644841
-0.0009317224 0.0072574052 0.0064433226 -0.54701042 0.019835766 -0.83689082 0.002620311
0.0014680417 0.007234748 0.0051623434 -0.39602694 0.075362958 -0.91514099 0.0021136648
0.0040253494 0.0074807159 0.0042058183 -0.2742798 0.13587119 -0.95200294 0.0024718479
0.014693634 0.0082509387 0.0040621301 0.22530957 0.27032098 -0.93603539 0.0026031611
0.016718835 0.0073990324 0.0045225844 0.37647361 0.31408161 -0.87156206 0.0023488966
0.019266032 0.0071201497 0.0059055462 0.58078951 0.30715466 -0.753883 0.0025493444
-0.00093178818 0.010142061 0.0064733261 -0.49164388 0.0083732354 -0.87075609 0.0024684775
0.0014686139 0.01011536 0.0053687422 -0.37275597 0.061647907 -0.9258793 0.002408012
0.0045767901 0.010091578 0.004384933 -0.24105376 0.13556574 -0.96099687 0.0019710078
0.0071399133 0.010832735 0.0040669087 -0.060263343 0.17213877 -0.98322767 0.0014721701
0.010819666 0.010920759 0.0040810117 0.075007997 0.23496684 -0.96910495 0.0019143162
0.013762088 0.010186172 0.0043933745 0.23466118 0.27785841 -0.93151957 0.0022099693
0.016574154 0.010115732 0.0053674132 0.40857559 0.28533834 -0.86697638 0.00093948131
0.018615408 0.0098213525 0.0064518796 0.59206033 0.28758585 -0.7528339 0.0025921222
-0.0011458825 0.013322934 0.0065701902 -0.43745047 -0.0023178423 -0.89923954 0.0024016863
0.0014691432 0.013237589 0.0055466453 -0.3202849 0.047950312 -0.94610691 0.0021311725
0.004580263 0.0132131 0.0047581764 -0.1854897 0.10718478 -0.97678298 0.0015857272
0.007448405 0.013203095 0.0044342726 -0.028605599 0.15875992 -0.98690271 0.0015850324
0.01056141 0.013206695 0.0045468174 0.11496406 0.21239085 -0.97039855 0.0020779306
0.01369127 0.013226514 0.0051774587 0.27203134 0.24470741 -0.93065423 0.0012596464
0.016349485 0.013054756 0.0062079402 0.46015137 0.26577032 -0.84712863 0.0032748515
-0.0011724305 0.016393177 0.0065337252 -0.37066078 -0.016154593 -0.92862779 0.0019261428
0.0014695504 0.016360659 0.005680671 -0.26432765 0.036441796 -0.96374422 0.0020056474
0.0045831841 0.016337197 0.0050653117 -0.12866491 0.082844891 -0.98822165 0.0015000127
0.0074559972 0.016331453 0.0049134353 0.014742208 0.15370347 -0.98800707 0.0013028913
0.010540349 0.016311817 0.0051626153 0.1950324 0.18453011 -0.96328133 0.0031045722
0.013670604 0.016405918 0.0060074842 0.32981876 0.22752015 -0.91621727 0.0027340553
0.015693694 0.015677836 0.0066884588 0.49727413 0.27263558 -0.82364339 0.0027755017
-0.001412869 0.019277541 0.0065311408 -0.30700511 -0.016835606 -0.95155895 0.0012921959
0.001469873 0.019243246 0.0057624709 -0.21100925 0.031157291 -0.97698736 0.0018406216
0.0045857434 0.019224271 0.0053361002 -0.033340421 0.086564384 -0.99568826 0.003209726
0.007462509 0.019223845 0.0053245844 0.10249444 0.15847497 -0.98202878 0.0033261857
0.010347596 0.01924053 0.0056956373 0.22625801 0.17996199 -0.95729882 0.0027495725
0.012936092 0.019104145 0.0064294022 0.37982747 0.23505364 -0.89469594 0.0035523777
-0.0033389339 0.023385318 0.0069282996 -0.37347609 -0.073889941 -0.92469233 0.0014778856
-0.001653222 0.022160819 0.0065082759 -0.29090634 -0.064834148 -0.95455229 0.0013829432
0.001470137 0.022126943 0.0058440305 -0.15308054 0.033644263 -0.9876408 0.0017314336
0.0045880061 0.022113347 0.0055768453 0.022609916 0.086952768 -0.99595582 0.003155055
0.0074688229 0.022121035 0.00572553 0.13940579 0.14446592 -0.97964054 0.0025037262
0.010326172 0.022114957 0.006275923 0.26027572 0.18666926 -0.9473179 0.003091882
0.012214733 0.021532821 0.0067651961 0.37909034 0.23611398 -0.89472938 0.0014346085
-0.0034986297 0.025305318 0.0068484591 -0.30050808 -0.07054431 -0.95116693 0.0015318088
-0.0016044461 0.025206266 0.0063855872 -0.22791986 -0.059053708 -0.97188747 0.0012262412
0.0014705036 0.025252476 0.0059383744 -0.1016591 0.037817128 -0.99410021 0.0023268573
0.004590916 0.025249258 0.0058805561 0.069798551 0.10597475 -0.99191606 0.0029367425
0.007420403 0.025155207 0.0061683506 0.17255729 0.15148334 -0.97328144 0.0019169952
0.0097808726 0.024706529 0.0066555552 0.31602502 0.21155313 -0.92486405 0.0038899172
-0.0040106489 0.028414758 0.0067255087 -0.22629929 -0.0581806 -0.97231865 0.001282773
-0.0017027253 0.028309871 0.0063273264 -0.12940717 -0.0076928739 -0.99156171 0.0016934148
0.0014709136 0.028382318 0.0060784174 0.014383348 0.066208482 -0.99770212 0.0033132897
0.0045941011 0.028391751 0.0062216045 0.13571642 0.13637172 -0.98131746 0.0010907995
0.0072590867 0.028061649 0.0066271061 0.23434724 0.15614803 -0.95953071 0.0021355352
0.0091709672 0.026751639 0.0068974243 0.37891388 0.24904741 -0.89129102 0.0027260734
-0.0063459072 0.032164939 0.0069042565 -0.24698372 -0.12966469 -0.96030515 0.0016213595
-0.0044680708 0.031360272 0.0066363383 -0.14225867 -0.056901325 -0.98819262 0.0012386448
-0.0016518462 0.031279251 0.006294121 -0.074268997 0.0068132528 -0.99721497 0.0020972067
0.0014714776 0.031277098 0.0062626507 0.057253983 0.068861097 -0.99598193 0.0022759226
0.0045026559 0.031204468 0.0065701613 0.1496678 0.13062288 -0.98006994 0.0020338979
0.0064039081 0.03047779 0.0068585174 0.26998043 0.19220288 -0.94348752 0.0015449907
-0.006888683 0.034420554 0.0068164328 -0.18284881 -0.075191572 -0.9802615 0.001360647
-0.0045371521 0.034178004 0.0064974967 -0.10932591 -0.019903189 -0.99380672 0.001322012
-0.0016519902 0.034165766 0.0063396078 -0.031324565 0.013273875 -0.99942112 0.0023502312
0.0014721368 0.034179844 0.0065182503 0.1038547 0.087863386 -0.99070388 0.001673669
0.0038377175 0.033681251 0.0068079606 0.22726375 0.16907972 -0.95904291 0.0029649641
-0.0092328005 0.037938777 0.00690486 -0.18115062 -0.099725045 -0.9783861 0.0010048156
-0.0073905094 0.03711281 0.0066894414 -0.11943841 -0.038802925 -0.99208313 0.0011779987
-0.0045364099 0.037057456 0.0064400844 -0.048856951 0.0013041781 -0.99880493 0.0016707197
-0.0016525431 0.037060779 0.0064781085 0.065340213 0.051827259 -0.99651623 0.0015920615
0.0009559234 0.036859583 0.0067320876 0.16899179 0.12155356 -0.97809333 0.0022158856
-0.0099346749 0.040522601 0.0067869239 -0.12989795 -0.063350298 -0.98950148 0.0012379437
-0.0074224593 0.040192652 0.0065605557 -0.055333573 -0.0056195129 -0.99845207 0.0013107952
-0.0045372043 0.040189233 0.0065213842 0.035119034 0.040472873 -0.99856329 0.0016615768
-0.0018006047 0.040019602 0.0067112064 0.11046459 0.10466804 -0.98835325 0.0018334391
0.00018972324 0.038938034 0.0068693012 0.23077789 0.17493537 -0.95715153 0.0017493441
-0.012347955 0.043806147 0.0068568196 -0.15404117 -0.076445855 -0.98510265 0.0013289298
-0.010310222 0.043330215 0.0066874465 -0.067727812 -0.020226553 -0.99749875 0.0011284472
-0.0074228011 0.04332038 0.0065865833 0.032003995 0.031717103 -0.9989844 0.0013430906
-0.0046343352 0.04324064 0.0067382399 0.095263042 0.078615762 -0.99234295 0.0016139032
-0.0027371442 0.042507719 0.006884058 0.17906079 0.15906692 -0.97089386 0.0020708584
-0.013119779 0.046368781 0.0068260441 -0.081333838 -0.024431437 -0.99638742 0.00095532479
-0.010310217 0.046216261 0.0066918535 -0.00084028218 0.047938932 -0.99884993 0.0010582965
-0.0076022441 0.046047188 0.0067609493 0.068370648 0.077430345 -0.99465066 0.0015926871
-0.0054233968 0.045354217 0.0068827718 0.16503033 0.16104561 -0.97305149 0.0023365575
-0.015464382 0.049753226 0.0069249859 -0.083405323 -0.010487696 -0.99646056 0.0018161511
-0.013441081 0.049119059 0.0068469085 -0.010173824 0.01655791 -0.99981117 0.0010778139
-0.010574221 0.048736751 0.0068337694 0.042116519 0.094255216 -0.99465686 0.0012779456
-0.00839076 0.047922563 0.0069045471 0.13418913 0.16665812 -0.97684103 0.0020790792
-0.015609132 0.050813068 0.0069360333 -0.077667035 0.03558236 -0.99634421 0.0016552098
-0.013764434 0.050972871 0.0069308393 0.015277559 0.076540299 -0.99694949 0.0016878514
-0.0033473433 -0.022855116 0.0079037994 -0.96651083 0.14334582 -0.21285868 0.001580762
0.027989944 -0.022848608 0.0077851033 0.97578335 0.068578161 -0.20771091 0.00020917766
0.028077807 -0.020502238 0.0092155784 0.9776262 0.077352136 -0.19561103 0.00077823701
-0.0028633615 -0.016818641 0.0076707546 -0.93524933 0.14729545 -0.32188937 0.0025856341
0.027486702 -0.016328881 0.0074347304 0.97035742 0.085333526 -0.2261077 0.0012345242
-0.0027063389 -0.013700129 0.008125538 -0.93270421 0.12133347 -0.33961895 0.0039987136
0.026985543 -0.012948072 0.0071066963 0.94186944 0.15734817 -0.2968559 0.001196231
0.027567301 -0.013959276 0.0087703709 0.9545086 0.13004504 -0.26833093 0.00044381907
-0.002626624 -0.010807209 0.0082242088 -0.93483698 0.020977652 -0.35445687 0.0043384652
0.026644686 -0.010428438 0.0074513601 0.91876125 0.18108241 -0.35083741 0.0016093634
0.027074855 -0.010573557 0.0086136404 0.94181091 0.15723437 -0.29710203 0.0014939741
-0.0026265127 -0.0076704845 0.0082187103 -0.90743363 -0.0019980695 -0.42019072 0.0029431114
0.026285004 -0.0074682599 0.0081691416 0.90048832 0.21946757 -0.37543932 0.00074027531
0.027146813 -0.0089063775 0.0098277675 0.94647825 0.17284724 -0.27258512 0.00074362475
-0.0033627399 -0.0047888705 0.0096898172 -0.91156304 -0.067931093 -0.40550977 0.0055260351
-0.002411546 -0.0047011189 0.0078607881 -0.84577191 0.008833671 -0.53347141 0.0051444578
0.025681078 -0.0047071804 0.0083584553 0.8832103 0.22396782 -0.41204119 0.0020327466
-0.0034288566 -0.0017098439 0.0093317758 -0.85099202 -0.07280948 -0.52010697 0.0029751931
-0.0023822864 -0.0018784512 0.0077353464 -0.82704687 -0.01621582 -0.56189907 0.0031364257
0.024843287 -0.0018655844 0.0083161024 0.85982907 0.25039884 -0.44496572 0.0020557556
-0.0036005615 0.0012608398 0.0092042368 -0.80508089 -0.072565891 -0.58870959 0.0030168009
-0.002381735 0.001254439 0.0076637538 -0.7781961 -0.018873733 -0.62773776 0.0029326291
0.023336466 0.0015994803 0.0076889014 0.78119624 0.29641357 -0.54942822 0.0037119829
0.024378084 0.00099779235 0.0090912515 0.84010786 0.26699895 -0.472155 0.0016613691
-0.0038128591 0.0044742743 0.0090730498 -0.75468022 -0.08628387 -0.65039438 0.0033779508
-0.0023810379 0.0043862024 0.0075677866 -0.72953147 -0.028916989 -0.68333566 0.0032509076
0.022737138 0.0044476874 0.0083558084 0.8020193 0.28980371 -0.52228224 0.00096543808
-0.0040504914 0.0073544071 0.0089484965 -0.69726199 -0.099611662 -0.70986134 0.0036673467
-0.0023802617 0.0072752908 0.0074535254 -0.5866304 -0.031929754 -0.80922514 0.0029097947
0.020578548 0.007915956 0.0073549394 0.72596174 0.29563028 -0.62095273 0.0030278829
0.021899872 0.0071927463 0.0085969297 0.76297295 0.29686901 -0.57423079 0.0023559162
-0.0042892164 0.01024049 0.008821317 -0.66382653 -0.082189791 -0.7433567 0.0032652419
-0.002379593 0.010163446 0.0073585687 -0.53381157 -0.040888172 -0.84461439 0.0025450117
0.020001147 0.010337875 0.0079055429 0.67569488 0.30949178 -0.66906744 0.0056842393
0.021449352 0.0097618932 0.0093062017 0.75669199 0.29732034 -0.58225244 0.002115642
-0.0062701413 0.014098646 0.0098560648 -0.71160781 -0.16268378 -0.68348253 0.0035582113
-0.004562777 0.013093512 0.0086734453 -0.61385703 -0.10838313 -0.78194165 0.0024733441
-0.0025644624 0.012959481 0.0073196432 -0.4762795 -0.052381631 -0.87773234 0.0025508991
0.017684881 0.013692302 0.0072546946 0.62032056 0.29778096 -0.72562313 0.0026187284
0.019375145 0.012959584 0.0084887575 0.68497622 0.31165141 -0.65854454 0.0033838802
-0.0064667533 0.016466752 0.0095171947 -0.62965328 -0.16260476 -0.75966865 0.0030133734
-0.0045577665 0.016217306 0.0082505653 -0.50581962 -0.10281662 -0.85649008 0.0015851904
-0.0026189433 0.016176805 0.0071723824 -0.41313174 -0.066485211 -0.90824115 0.0023952955
0.016932733 0.016441641 0.0077893846 0.55903077 0.3052457 -0.77091473 0.0020376451
0.018828882 0.015831489 0.009224155 0.70552462 0.31393495 -0.63535798 0.0040979278
-0.0069870763 0.019459791 0.0092588831 -0.56316388 -0.16312329 -0.81008464 0.0026509429
-0.0045532347 0.019337047 0.0078646746 -0.43841654 -0.099379115 -0.89326072 0.0020977813
-0.0028588029 0.019301411 0.0070664333 -0.34741357 -0.073906466 -0.93479496 0.0017178806
0.014508662 0.019617695 0.0073106093 0.43586019 0.27827087 -0.85591543 0.0031903957
0.016556742 0.019266589 0.0086397137 0.59703946 0.31666958 -0.7370646 0.0038650846
-0.009174047 0.023295755 0.0097603844 -0.57912892 -0.21701863 -0.78581971 0.0018274002
-0.0074308258 0.022319149 0.0089304252 -0.48447385 -0.18860687 -0.85423213 0.0024662751
-0.004583572 0.022178072 0.0075190049 -0.40116191 -0.1195254 -0.90817553 0.0015202338
0.011578846 0.023388388 0.0069854008 0.33646229 0.20789303 -0.91846263 0.003792397
0.013742488 0.022334138 0.007793487 0.4775967 0.27791631 -0.83346504 0.0023268622
0.015956465 0.021995746 0.0092614377 0.65985715 0.3172048 -0.68115324 0.0029952361
-0.009706052 0.02543178 0.0094860438 -0.51914412 -0.22000034 -0.82588691 0.0026337269
-0.0074551059 0.025151754 0.0083616683 -0.4380258 -0.16873688 -0.88298434 0.0015710265
-0.0048943483 0.025011312 0.0073143551 -0.33928096 -0.12767039 -0.93198103 0.0016822831
0.010971079 0.025437769 0.0072820941 0.38015774 0.26148108 -0.88719094 0.0029330854
0.013320836 0.025093298 0.0084983353 0.53913605 0.28811857 -0.79140377 0.0049833446
0.015196724 0.024503078 0.0097018629 0.65194654 0.32749555 -0.68389499 0.0016883354
-0.012079582 0.029106902 0.0097670006 -0.53335243 -0.27865797 -0.79867703 0.0022492548
-0.010265042 0.028197099 0.0090717617 -0.46711525 -0.24405152 -0.84984833 0.0013239633
-0.0074449382 0.028252926 0.0077976147 -0.36738044 -0.14811167 -0.9182018 0.0011433611
-0.0053229094 0.02787004 0.0071273251 -0.27040794 -0.11291397 -0.95610142 0.0015572609
0.008357347 0.028981099 0.0071400125 0.31299603 0.20811261 -0.92667282 0.0032171253
0.010369025 0.028177636 0.0077992221 0.43796253 0.26458177 -0.85917717 0.0016584105
0.01278498 0.027882125 0.0091763157 0.60294503 0.31240246 -0.73407221 0.0037450711
-0.012734569 0.031520993 0.0093911663 -0.46213526 -0.26531842 -0.84618974 0.0026648967
-0.010380935 0.031221347 0.0083686067 -0.38730827 -0.20570338 -0.8987093 0.001510827
-0.0075724507 0.031250425 0.0073642014 -0.2749626 -0.13099022 -0.95248991 0.00069883897
-0.0057455236 0.030365909 0.0069800215 -0.19450888 -0.094118699 -0.97637492 0.0014904299
0.0056440546 0.032374129 0.0070214616 0.22030893 0.1792746 -0.95881408 0.0030539751
0.0076323217 0.031471148 0.0074978229 0.37811729 0.24488881 -0.89278036 0.0021383595
0.010345065 0.031173406 0.0087794932 0.52433062 0.30999258 -0.79308379 0.0036519314
0.012252589 0.030195152 0.0097468989 0.59853882 0.34244367 -0.72421247 0.0019791226
-0.01551669 0.034867007 0.0097387722 -0.4873572 -0.30558416 -0.81798607 0.0022712471
-0.013396583 0.03432738 0.0088791419 -0.39181077 -0.24387798 -0.88713461 0.0019853183
-0.010335462 0.034272801 0.0077138394 -0.32202035 -0.17067839 -0.93122059 0.0011625293
-0.0081871124 0.03392398 0.0071491152 -0.23195358 -0.13933949 -0.96269524 0.0016520203
0.0049850619 0.034499928 0.0072766673 0.30482739 0.22453724 -0.92556107 0.0027370553
0.0075091603 0.034316767 0.0082664555 0.39400619 0.24831796 -0.88492793 0.0011017486
0.0097370325 0.03394191 0.0094595337 0.57081324 0.32454494 -0.75421673 0.003221282
-0.018379632 0.038559902 0.0098867761 -0.49696177 -0.33682638 -0.79973555 0.0018441667
-0.016437415 0.037474744 0.0093058273 -0.43803525 -0.31024554 -0.84372556 0.0012330596
-0.013482945 0.037202995 0.0081647336 -0.31150347 -0.20941775 -0.92688173 0.0013553766
-0.010460157 0.037022851 0.0072780959 -0.27445912 -0.14952439 -0.94990247 0.0014417288
-0.0086329337 0.035900194 0.0069818245 -0.16359599 -0.090120003 -0.98240256 0.0013397279
0.0024040607 0.037518341 0.0071446067 0.23891482 0.19942182 -0.95034236 0.0029004731
0.0046090866 0.037173536 0.0078073777 0.35561731 0.25035256 -0.90047759 0.0016797594
0.0072631552 0.037093759 0.0091113672 0.51282793 0.31833795 -0.79728818 0.0036704957
-0.019089531 0.040582661 0.0094992518 -0.42928988 -0.30953014 -0.84846997 0.0029019786
-0.016634939 0.040135708 0.0085793026 -0.36722019 -0.27036572 -0.88997281 0.0010613395
-0.013432628 0.040250499 0.0075245034 -0.26898572 -0.17877507 -0.9464069 0.0015908197
-0.011075488 0.039619379 0.0070581716 -0.19873072 -0.10870292 -0.97400707 0.001435244
-0.00077304721 0.041362524 0.007070601 0.20156576 0.16727906 -0.96508491 0.0029036796
0.0015097513 0.040193751 0.00746739 0.30987579 0.24761674 -0.91796678 0.0020560143
0.0045831893 0.040115707 0.0087283766 0.44490144 0.32457086 -0.8346954 0.0037125836
0.0065124785 0.039404389 0.009578811 0.57386094 0.35838234 -0.73637336 0.0045136809
-0.0217175 0.043661159 0.0096361581 -0.44656795 -0.32083973 -0.83524787 0.002828971
-0.019494571 0.043224517 0.0088069951 -0.34950647 -0.25617573 -0.90123206 0.0022745901
-0.01660612 0.043201435 0.0078302165 -0.265176 -0.19802833 -0.9436453 0.0015615955
-0.013873035 0.043168362 0.0071831504 -0.20748779 -0.13923164 -0.96827853 0.0016083333
-0.0035004711 0.044409599 0.0070575029 0.16195747 0.16602954 -0.97273022 0.0022929574
-0.0015211098 0.043500911 0.0073471135 0.28736597 0.22650816 -0.93065292 0.0022795754
0.0014653032 0.043179784 0.008287631 0.36338115 0.3046419 -0.88042456 0.0027369875
0.0039279005 0.042783819 0.0094230222 0.50244296 0.37532574 -0.77889776 0.0045615453
-0.024340808 0.047011748 0.00965779 -0.46573928 -0.33236229 -0.82013547 0.0035885782
-0.022393627 0.04628139 0.0090432791 -0.39067435 -0.29512063 -0.87193882 0.0011572777
-0.019559346 0.046268862 0.0080428338 -0.29617929 -0.20346451 -0.93320948 0.0024344046
-0.016586278 0.046281509 0.0073152008 -0.1601094 -0.090747491 -0.9829191 0.0012036194
-0.014623133 0.045743357 0.0070271241 -0.12668303 -0.07768029 -0.98889691 0.0014453728
-0.0065483316 0.047134027 0.0070291804 0.11975329 0.15363355 -0.9808445 0.0023157422
-0.0043690996 0.046455164 0.007283695 0.20353658 0.20122525 -0.95816559 0.00079680205
-0.0016597828 0.046361465 0.0080697052 0.32720673 0.26627761 -0.90665978 0.0018131594
0.0011447322 0.045954786 0.0092020091 0.46741921 0.36509365 -0.80512476 0.0044156248
-0.027256921 0.050502505 0.0098430663 -0.49180296 -0.33834812 -0.80227822 0.0035504662
-0.025210638 0.04938763 0.0092589054 -0.36957005 -0.2776939 -0.88673788 0.0033885618
-0.022413449 0.049275313 0.0082513336 -0.29940462 -0.19280593 -0.93444246 0.0025550076
-0.019485435 0.049194988 0.0075298054 -0.16339608 -0.084698357 -0.98291802 0.0010717198
-0.016756 0.049044918 0.0070878826 -0.13976778 -0.052409567 -0.98879635 0.0019970799
-0.0097975181 0.049904197 0.0070539564 0.097464696 0.16319998 -0.981767 0.0017563435
-0.0073784138 0.049239267 0.0072878916 0.17111462 0.20208286 -0.96430409 0.00065334141
-0.0045533464 0.049246758 0.0079878876 0.29219517 0.28334731 -0.91342008 0.0015163739
-0.0018420076 0.049191114 0.0090790102 0.43468446 0.35872996 -0.82605213 0.0046777702
0.00018762758 0.04823111 0.0097387377 0.53670865 0.4333103 -0.72400689 0.0042097196
-0.027828686 0.052532818 0.0094454493 -0.41958904 -0.24657738 -0.87358153 0.0036442191
-0.025328012 0.052209675 0.0085797487 -0.30824557 -0.16401404 -0.93706143 0.0025602742
-0.022389799 0.052116822 0.0077915955 -0.24737294 -0.1147746 -0.96209848 0.0039369045
-0.019475 0.052058827 0.0072992444 -0.12963399 -0.021964867 -0.99131858 0.0024604816
-0.016603325 0.052192066 0.0070677185 -0.070334464 0.024799295 -0.99721509 0.0016051171
-0.013361403 0.05232032 0.0071030529 0.065244406 0.1667005 -0.9838466 0.0023815203
-0.010326914 0.052069988 0.0073905271 0.13662729 0.24202354 -0.9606027 0.0038977154
-0.0074484539 0.052148473 0.0080538522 0.2572366 0.29004106 -0.92179471 0.0019288498
-0.004742492 0.052086674 0.0090329368 0.41561413 0.4263114 -0.8034448 0.0022625001
-0.0027167706 0.051285561 0.0096340822 0.45280758 0.44628772 -0.77187604 0.0027815367
-0.030156264 0.055898558 0.0097471569 -0.49850821 -0.2083448 -0.84147614 0.0033569436
-0.028256286 0.055166546 0.0090546189 -0.35183784 -0.13700129 -0.92598099 0.0032188254
-0.02524622 0.055181321 0.008129118 -0.24291252 -0.058778387 -0.96826577 0.0023946795
-0.02238173 0.055231299 0.0076367874 -0.11340038 0.0080737183 -0.99351656 0.0029259953
-0.019477917 0.055197742 0.0073669925 -0.061183356 0.086802185 -0.99434507 0.0029494311
-0.016612438 0.055271663 0.0073790979 0.051739868 0.16765118 -0.98448771 0.0033684783
-0.01352927 0.05510141 0.0076222951 0.14051564 0.24359085 -0.95964515 0.0033723405
-0.01034808 0.055070043 0.0082722902 0.25677454 0.3362155 -0.90610486 0.0037098189
-0.0076433807 0.054956146 0.009166901 0.3862645 0.46001932 -0.79948854 0.0022740378
-0.0056220237 0.054196492 0.0096862065 0.43242872 0.49597707 -0.75300211 0.0044217668
-0.030753264 0.058291763 0.0097101359 -0.40427145 -0.10719737 -0.90833545 0.0051685735
-0.028384851 0.058181189 0.0088322721 -0.27208263 -0.0072058081 -0.96224695 0.0029577652
-0.025357082 0.058298241 0.0081228781 -0.19879207 0.04545553 -0.97898704 0.0049405242
-0.022391638 0.058389992 0.0078328364 -0.047779851 0.17785598 -0.98289591 0.0043708845
-0.019499199 0.058391873 0.0078460779 0.064358883 0.26249722 -0.96278405 0.0058927527
-0.016650861 0.058393039 0.0081149321 0.13691594 0.32756424 -0.934856 0.0046617636
-0.013423735 0.058113039 0.0086876228 0.23542714 0.40195471 -0.88487649 0.0051006279
-0.010616597 0.057624739 0.0093648685 0.36095887 0.51688564 -0.77623314 0.0017947257
-0.0086909067 0.05695622 0.0098133432 0.41454199 0.54419881 -0.72938508 0.0046733296
-0.031322949 0.061323661 0.0096362559 -0.21634093 -0.037603352 -0.97559345 0.0071083722
-0.028558023 0.061298758 0.0090106074 -0.17701656 0.087828822 -0.98028123 0.0055618053
-0.025325824 0.061382096 0.0085484888 -0.08120992 0.21766827 -0.97263843 0.0043147122
-0.022426488 0.061377835 0.0085164541 0.030405054 0.3091329 -0.95053262 0.0040518185
-0.01959821 0.061344869 0.0087907715 0.12063248 0.39270321 -0.91171926 0.0049905037
-0.016619228 0.061058473 0.0092821466 0.23729771 0.45235148 -0.85969055 0.0058150436
-0.014008137 0.060086302 0.0095188804 0.30766594 0.54187179 -0.78212321 0.0039931615
-0.034115408 0.064603075 0.0098083336 -0.11249851 -0.037009213 -0.99296236 0.0083743781
-0.031570658 0.064324915 0.0096221818 -0.052343871 0.02429422 -0.99833357 0.0047789011
-0.028408164 0.064331703 0.0094942944 -0.00804698 0.17386445 -0.98473662 0.0067868698
-0.025443919 0.06409198 0.0093994383 0.010023828 0.3676585 -0.9299069 0.006921927
-0.022641107 0.063764364 0.0094752684 0.12668331 0.47629675 -0.87011075 0.0056552552
-0.019824423 0.063236572 0.0097055035 0.20821896 0.55857259 -0.80289572 0.0051250141
-0.017897392 0.062785268 0.0099385725 0.28213841 0.60768485 -0.74237257 0.002682595
-0.034361098 0.066648059 0.0098545179 -0.12344024 0.088075064 -0.98843575 0.0078534102
-0.031809095 0.066516556 0.0098387804 0.052700032 0.28665721 -0.95658267 0.0072145062
-0.029522914 0.066175118 0.0099313604 0.10126718 0.41591918 -0.90374565 0.009918238
0.028160639 -0.019106425 0.010564153 0.979352 0.067837894 -0.19044094 0.00069950544
0.028244549 -0.017946122 0.011930247 0.98542452 0.065361939 -0.15705538 8.9215137e-05
-0.0033810246 -0.013077816 0.011810836 -0.96920884 0.0043234397 -0.24620223 0.0015244302
0.027638596 -0.01229967 0.0099518346 0.95484447 0.13467345 -0.26483053 0.00047249571
-0.00337273 -0.010624561 0.010848616 -0.96144634 -0.037957132 -0.2723605 0.0029079933
0.027726701 -0.011121476 0.011411843 0.95842761 0.15870839 -0.23712467 0.00052133831
-0.0036192355 -0.0077176532 0.01120349 -0.96060503 -0.057373248 -0.27193096 0.0027350918
0.027225569 -0.0074724979 0.011156569 0.95095026 0.17724347 -0.25353166 0.00090448075
-0.0040597287 -0.004611257 0.011546184 -0.95015007 -0.12133847 -0.28721386 0.0034964059
0.026665926 -0.0046268548 0.011076574 0.92189938 0.21961488 -0.31917211 0.0019560638
-0.0042787283 -0.0018181404 0.011214877 -0.91881311 -0.12388097 -0.37474793 0.0029230202
0.026039951 -0.0018063957 0.011181491 0.92073238 0.21177238 -0.32772607 0.0021303215
-0.0047528883 0.0013233754 0.011211398 -0.88695049 -0.1409034 -0.43984663 0.0043657976
0.025331153 0.0010050831 0.011228346 0.90538466 0.24415553 -0.34737107 0.0013920425
-0.0063132462 0.0054191975 0.012713348 -0.87743324 -0.25758037 -0.40467671 0.0044015246
-0.0052716555 0.0042817076 0.011252095 -0.85818994 -0.1458247 -0.49218401 0.0030369074
0.023793977 0.0051478278 0.010547871 0.87429696 0.28228495 -0.39486709 0.0018129601
0.024617836 0.0039864779 0.011586318 0.89793473 0.25719345 -0.35716221 0.0016881655
-0.0064996267 0.0075532547 0.012149014 -0.83420402 -0.20646536 -0.511347 0.0025600602
-0.0054990393 0.0072392225 0.010681267 -0.81540012 -0.1519254 -0.55860656 0.0030736381
0.023378614 0.0073605753 0.011178547 0.86160511 0.28896964 -0.41729277 0.0013779262
0.024390202 0.0061494438 0.012652968 0.91502893 0.28355747 -0.2869097 0.001458965
-0.0069238828 0.010372579 0.011695853 -0.79637921 -0.2063797 -0.56849581 0.0031540405
-0.0057219691 0.010060001 0.010239644 -0.7027005 -0.15840057 -0.69362909 0.0027033952
0.022431223 0.010214935 0.011257988 0.83849406 0.2993418 -0.45532644 0.0021639362
-0.0073996158 0.013217416 0.011337365 -0.74775362 -0.20700271 -0.63088375 0.0036082156
0.020721875 0.013798164 0.010545989 0.81121981 0.32082406 -0.48887041 0.0018509571
0.021684321 0.012897673 0.011630943 0.83720028 0.29838431 -0.45832574 0.0022646047
-0.0093694665 0.016581353 0.012368245 -0.73586875 -0.27490762 -0.61880773 0.002082736
-0.0078929979 0.016000919 0.010930228 -0.72175699 -0.23478585 -0.65110862 0.0026816321
0.020175189 0.016229007 0.011263643 0.82410502 0.34449148 -0.44964045 0.0015163843
0.021469146 0.014923843 0.01271755 0.82893449 0.34005526 -0.44410577 0.0017288906
-0.0099100498 0.019342626 0.011763758 -0.69213432 -0.28045225 -0.66505384 0.002765974
-0.0083396174 0.018935515 0.0104111 -0.63315564 -0.23089132 -0.73878497 0.0013138567
0.01784591 0.020298949 0.01039238 0.73401684 0.34712383 -0.58371598 0.0076358048
0.019098992 0.018984025 0.011368607 0.79963511 0.3260195 -0.50427663 0.003205759
-0.012318186 0.023116168 0.012485156 -0.67862719 -0.33700633 -0.65260386 0.0029856483
-0.010514897 0.022251453 0.011190042 -0.62548763 -0.26450962 -0.73402989 0.0019285316
-0.0086957403 0.021130817 0.010049378 -0.62207192 -0.22166355 -0.75092733 0.0029835382
0.01720552 0.022521196 0.010909864 0.77227908 0.35712829 -0.52539927 0.0030253283
0.018534213 0.021873737 0.012453143 0.79495656 0.36165479 -0.48708299 0.0017234522
-0.012910092 0.025517475 0.011893888 -0.65984344 -0.3282519 -0.6759122 0.0025829331
-0.011077572 0.025061997 0.01054333 -0.54825979 -0.28342125 -0.78681862 0.0018436348
0.014562381 0.026461439 0.010061477 0.60859859 0.32378691 -0.72440988 0.0040375642
0.01617826 0.025334496 0.011353919 0.75533676 0.34578234 -0.55668747 0.0046055824
-0.01534728 0.028822675 0.012423576 -0.64496619 -0.38163605 -0.66209698 0.0027680807
-0.013403357 0.028165864 0.011093547 -0.55198598 -0.30387524 -0.77651232 0.00084543566
-0.011605978 0.027194398 0.010161524 -0.51469028 -0.27442369 -0.81227189 0.0017633337
0.014131119 0.0285089 0.010744413 0.67433417 0.3402729 -0.65535319 0.00082063605
0.0154372 0.027963424 0.01208885 0.759013 0.38746855 -0.52322793 0.0025422939
-0.018013084 0.032474045 0.012763892 -0.62698275 -0.39736289 -0.67007113 0.0038230924
-0.016105348 0.031316526 0.011747152 -0.59520227 -0.38274646 -0.70656872 0.0028228185
