# .PCD v0.7 - Point Cloud Data file format
VERSION 0.7
FIELDS x y z normal_x normal_y normal_z curvature
SIZE 4 4 4 4 4 4 4
TYPE F F F F F F F
COUNT 1 1 1 1 1 1 1
WIDTH 561
HEIGHT 1
VIEWPOINT 0 0 0 1 0 0 0
POINTS 561
DATA ascii
0.0030463375 -0.034973618 -0.015052727 0.72431564 -0.60947764 -0.3223412 0.00079746224
0.0044414876 -0.033149127 -0.015384899 0.73600596 -0.59615546 -0.3207705 0.00065545557
0.0058755809 -0.031591743 -0.014906112 0.73615736 -0.58245534 -0.34470016 0.0013528005
0.0071277395 -0.029539526 -0.0155099 0.75301319 -0.51365191 -0.41125759 0.0010968531
0.0082387729 -0.028532859 -0.014709243 0.75657445 -0.51117289 -0.40779558 0.00099649315
0.0096301967 -0.026253175 -0.015029885 0.76194334 -0.51538455 -0.39220053 0.00068596465
0.01117361 -0.024862727 -0.01389663 0.76450819 -0.49364567 -0.4145374 0.00065278052
0.010553131 -0.023950553 -0.015939556 0.76188833 -0.42491239 -0.48885125 0.0041998988
0.011900481 -0.022965027 -0.01469708 0.78065813 -0.42349961 -0.45958778 0.0030410364
0.012851208 -0.020187825 -0.015501038 0.7355063 -0.27026474 -0.62127894 0.006540203
0.014169272 -0.019558551 -0.014141737 0.75514048 -0.3816683 -0.53300291 0.0051140557
-0.024929455 -0.016562512 -0.01536958 -0.60296607 0.76140946 -0.2380913 0.0011893813
0.013025232 -0.017236106 -0.016010638 0.63552123 -0.15243363 -0.75688624 0.0015756352
0.014801444 -0.016853068 -0.014623571 0.71544528 -0.24254969 -0.6552158 0.0062661921
-0.02259057 -0.014703279 -0.016392037 -0.6220541 0.76603442 -0.16198741 0.00034512396
-0.021519987 -0.013602855 -0.015073539 -0.61512989 0.76175743 -0.20332448 0.0013351857
0.013301942 -0.014707729 -0.016256504 0.61630118 -0.092983164 -0.78200185 0.000781329
0.015037173 -0.014068175 -0.014835733 0.68931824 -0.159696 -0.70663822 0.0020903302
-0.019650187 -0.012209317 -0.015973613 -0.60988289 0.75998342 -0.22465082 0.0015702342
-0.017783538 -0.010529012 -0.015217277 -0.59943634 0.75556439 -0.26419395 0.0026890265
0.015258407 -0.011091589 -0.015058151 0.63517052 -0.045465864 -0.77103257 0.0016658792
0.017145367 -0.010211692 -0.013481096 0.68823779 -0.077160306 -0.72137034 0.0011954004
-0.016523343 -0.0092767831 -0.014393882 -0.56787747 0.76165545 -0.31208363 0.00096009654
-0.01459811 -0.0079881921 -0.01519797 -0.58722204 0.74506932 -0.31629395 0.00086642732
-0.012815883 -0.0069683772 -0.015856087 -0.55586028 0.74941987 -0.35970724 0.0025436166
0.01331638 -0.007721581 -0.016281243 0.51248491 0.11587747 -0.8508417 0.0022210027
0.015258279 -0.0081216553 -0.015054367 0.57162738 0.081362374 -0.81646943 0.0030134269
0.017141111 -0.0081462273 -0.013590803 0.66704243 0.0042419042 -0.74500763 0.0027080795
-0.013579024 -0.0065430459 -0.013482557 -0.57457435 0.760005 -0.30373785 0.0020126977
-0.011436975 -0.0055852174 -0.01498045 -0.4956032 0.76406825 -0.41300997 0.0021237088
-0.0090120826 -0.0042051198 -0.015372138 -0.50249565 0.75163466 -0.42725107 0.0024915591
-0.0071079 -0.0037735756 -0.016272768 -0.3475343 0.7080273 -0.61474979 0.0017165627
0.012569541 -0.0048287595 -0.015944475 0.40999675 0.25647709 -0.87528408 0.0028139201
0.015274379 -0.0051562451 -0.014581007 0.51521045 0.19259182 -0.8351447 0.0021890453
0.017144712 -0.0060842494 -0.013498005 0.61829573 0.095693611 -0.7800982 0.0017998891
-0.0081090825 -0.0029719984 -0.014370507 -0.47698545 0.73685783 -0.47908819 0.0037193985
-0.0057883933 -0.0021242853 -0.01506416 -0.33942601 0.72787583 -0.59580761 0.0023706765
-0.0027718851 -0.0014719442 -0.015838176 -0.23651928 0.65279138 -0.71966803 0.0022183605
0.00040871371 -0.0010401709 -0.016232049 -0.11214813 0.59821689 -0.79344779 0.0018587051
0.0036729965 -0.0010401765 -0.016387399 0.0024541926 0.53626198 -0.84404802 0.0017809472
0.0065598711 -0.0011920156 -0.016223103 0.11471571 0.47910216 -0.87023073 0.0012504482
0.0095886113 -0.0018909057 -0.01592266 0.24184927 0.40333706 -0.88251239 0.002093608
0.012285072 -0.0021815635 -0.01514995 0.34227335 0.3399857 -0.87593299 0.0020747404
0.014849681 -0.002350606 -0.014052895 0.45607978 0.27096832 -0.84768355 0.0021521207
-0.0047484958 -0.00046725385 -0.013732092 -0.41716838 0.72529429 -0.54764837 0.0028871598
-0.0023199976 0.00010424573 -0.014448743 -0.3137908 0.69143081 -0.65073711 0.003946919
0.00045364816 0.00072149094 -0.014780362 -0.14781103 0.63729298 -0.75631315 0.0013044901
0.0033773077 0.00078839902 -0.015140668 -0.026112465 0.57576972 -0.81719482 0.0011839648
0.0063472847 0.00078837201 -0.015094982 0.053643409 0.53578097 -0.84265125 0.00076644431
0.0093262661 0.0007902151 -0.014640525 0.19116399 0.46416593 -0.86487353 0.0012747267
0.012157697 0.00046308618 -0.014043974 0.2871533 0.41167665 -0.86490768 0.001654917
0.014238391 -0.00027599186 -0.013567012 0.38510421 0.37523913 -0.84314317 0.0010128914
0.0036617545 0.0027642241 -0.013684127 -0.11983082 0.61912531 -0.77609557 0.0021881983
0.0063651679 0.0028552413 -0.013759244 0.020769371 0.56907767 -0.82202148 0.0017271617
0.0088889897 0.00274208 -0.013594185 0.15118566 0.50768065 -0.84817648 0.001174327
-0.0076198899 -0.045075405 -0.013363765 0.58527052 -0.77219594 -0.24732952 0.0003813068
-0.0022759968 -0.04106139 -0.012138372 0.64681017 -0.72196811 -0.24576129 0.00044346042
0.00040718494 -0.038436946 -0.013220241 0.67622989 -0.69313771 -0.24954604 0.000862388
0.0020129918 -0.036823411 -0.01330869 0.70918208 -0.64545596 -0.2836324 0.00042284612
0.0036233994 -0.035265293 -0.012709683 0.72063488 -0.63439494 -0.27969357 0.00042796033
0.0052398667 -0.033722553 -0.011864827 0.74323928 -0.6229763 -0.24391775 0.00018072783
0.0065180808 -0.032184146 -0.011921736 0.75172067 -0.60521203 -0.26198184 0.00045944899
0.0075189266 -0.030404288 -0.013257907 0.74841565 -0.59975952 -0.28312999 0.00091147475
0.0090347873 -0.028994497 -0.012017338 0.76525402 -0.58084196 -0.27750474 0.0010293998
0.010575833 -0.026900053 -0.01203467 0.77374929 -0.56768143 -0.28115809 0.00087246462
0.011549389 -0.025560796 -0.012004348 0.77806216 -0.53461903 -0.32985109 0.00055290502
0.012950497 -0.023368202 -0.012164785 0.78803271 -0.52249938 -0.32557452 0.00058558566
0.014116483 -0.022124166 -0.011374013 0.78891039 -0.50815398 -0.34554297 0.0010159527
0.015079109 -0.020113515 -0.011886154 0.79283845 -0.47054103 -0.38729611 0.0012311077
0.016304584 -0.017474758 -0.012243493 0.81831181 -0.36455813 -0.44436836 0.0028432745
0.017386779 -0.016330574 -0.011222806 0.8085199 -0.37431878 -0.45407155 0.0027702809
0.016693862 -0.014115418 -0.013293714 0.72229791 -0.17988792 -0.66777694 0.0025533666
0.01788906 -0.014029043 -0.011873688 0.78313828 -0.25371522 -0.56773502 0.0063550966
-0.02046949 -0.012510946 -0.013242767 -0.61747068 0.75892556 -0.20678966 0.00095771067
0.018388219 -0.01117767 -0.011940005 0.77818531 -0.15126592 -0.60954583 0.0033916675
-0.016337862 -0.0088392999 -0.013296769 -0.58401394 0.76244867 -0.27856731 0.00077397906
-0.015218996 -0.0077039283 -0.012530812 -0.5963276 0.76058751 -0.25670987 0.00045011449
0.018575961 -0.0081695858 -0.012201172 0.71370959 -0.042172555 -0.69917095 0.001828253
0.020027218 -0.0079655405 -0.010599653 0.75326657 -0.092600517 -0.65116411 0.0013230074
-0.013650888 -0.0061098048 -0.011323785 -0.61077112 0.75141639 -0.24966393 0.0004245301
-0.011782605 -0.0047195344 -0.012192611 -0.58355922 0.75624138 -0.29590136 0.001540957
0.01843149 -0.0051082666 -0.01227296 0.6376273 0.084749341 -0.76566905 0.0032281403
0.020017175 -0.0051931259 -0.010821605 0.71995926 0.0075939614 -0.69397479 0.0022602396
-0.010417666 -0.0033431556 -0.011601494 -0.58959579 0.74572778 -0.31026897 0.0013532098
-0.0086736958 -0.0021762834 -0.012060775 -0.60430253 0.72675496 -0.32656658 0.00096896652
-0.006709259 -0.0011932263 -0.012976652 -0.55525416 0.72891724 -0.4004654 0.0034370471
0.01631403 -0.0018168329 -0.013070257 0.52726167 0.23216385 -0.81737077 0.0013434686
0.018361559 -0.0021906979 -0.011825725 0.57140338 0.1929076 -0.7976746 0.0022643683
0.020027043 -0.0026559141 -0.010603526 0.66755509 0.13615902 -0.73200464 0.0022184206
-0.00720246 -0.00057904981 -0.011110888 -0.55846828 0.74728888 -0.36010081 0.0017203722
-0.0054408107 0.00034170598 -0.011789258 -0.48508582 0.75770515 -0.43654844 0.0036470015
-0.0028622025 0.0015790034 -0.012384925 -0.41842899 0.72666132 -0.54486746 0.0062482702
-0.00051074196 0.0021725614 -0.01312168 -0.26369464 0.6860584 -0.67807752 0.0015697853
0.012844421 0.0018511731 -0.013149418 0.25699803 0.43987584 -0.86050051 0.0011430877
0.015496135 0.0009486815 -0.012474568 0.37962049 0.37184802 -0.84712291 0.0011104689
0.018145673 0.00060900394 -0.011123589 0.51487219 0.28411067 -0.8088187 0.0021618952
-0.001860698 0.0030707829 -0.011224859 -0.47899923 0.70999628 -0.51620245 0.0022096226
0.00050691282 0.0036637867 -0.011965769 -0.28192961 0.6774171 -0.67942762 0.0015345956
0.0033081332 0.0041028233 -0.012488724 -0.15947896 0.63778794 -0.75352037 0.0011090462
0.0063785957 0.0042428561 -0.012756985 -0.027944721 0.59797066 -0.80103081 0.0015309191
0.0094737941 0.0040274952 -0.012701305 0.11540794 0.53556085 -0.83657372 0.0018819292
0.012364203 0.0037894482 -0.012263797 0.22911766 0.47037515 -0.85220432 0.0019252615
0.015292531 0.0037233355 -0.011295788 0.33483389 0.43125144 -0.83779979 0.0010696814
0.017565008 0.0029610936 -0.010599763 0.43741584 0.37209749 -0.81866407 0.0014404762
0.0015600072 0.0054228846 -0.010628984 -0.33341753 0.68181682 -0.65112102 0.004818677
0.0037114043 0.0058529908 -0.011012123 -0.2233021 0.67191422 -0.70616394 0.0029397854
0.0064761378 0.0062341718 -0.011222765 -0.08291126 0.6290465 -0.77293354 0.002827514
0.009396839 0.0063373568 -0.011181399 0.058753721 0.57470578 -0.81624836 0.0017856775
0.012316409 0.0060475403 -0.010942281 0.20342104 0.5137977 -0.83344573 0.002066778
0.014393365 0.0056073451 -0.010644487 0.31995782 0.45267209 -0.83229494 0.0016213584
0.007573287 -0.03156108 -0.0098948339 0.76583153 -0.59287286 -0.24900559 0.00044522437
0.0080450289 -0.031136442 -0.0093551734 0.76590812 -0.59527433 -0.24296769 0.00043253755
0.0098932395 -0.028807748 -0.0095579186 0.77435309 -0.59511757 -0.21497056 0.00016855476
0.010852477 -0.027972627 -0.0081180194 0.77503955 -0.59520507 -0.21223721 0.00016352897
0.012279527 -0.025779974 -0.0093282703 0.7853269 -0.5727185 -0.23506412 0.00051271199
0.013601407 -0.023960313 -0.0093505243 0.79445529 -0.56265843 -0.22859642 0.00054199528
0.014537696 -0.022741687 -0.0090332143 0.80514258 -0.53397471 -0.25810146 0.00068406359
0.015919087 -0.02049078 -0.009280446 0.81529623 -0.52064073 -0.25342697 0.00082654244
0.017030451 -0.019135159 -0.008471773 0.82862788 -0.47211012 -0.3008121 0.0012411876
0.016818948 -0.01860944 -0.0099771181 0.82864928 -0.4720754 -0.30080757 0.0012531176
0.018017311 -0.017030388 -0.0089337686 0.83821779 -0.44968989 -0.30849606 0.00080539368
0.019251624 -0.014348853 -0.0091316532 0.85274357 -0.38402721 -0.35405022 0.001208164
0.020254409 -0.012996564 -0.0081478963 0.83625656 -0.36730725 -0.40713698 0.0048852717
0.019586578 -0.012363954 -0.010123507 0.86509985 -0.27046621 -0.42243382 0.005374386
0.020613855 -0.010796785 -0.0090310518 0.84850168 -0.26313028 -0.45913756 0.0045492449
0.02118253 -0.008223189 -0.008987233 0.83248013 -0.14736094 -0.53409886 0.0035476489
-0.011378199 -0.0038128402 -0.010197566 -0.61693358 0.74389285 -0.25693655 0.00041094152
0.02148677 -0.0052101193 -0.0090912115 0.78344381 -0.06566567 -0.61798364 0.0025176425
-0.010694612 -0.0031213816 -0.0098322043 -0.60465342 0.73628318 -0.30377835 0.0008818619
-0.0090860641 -0.0015958427 -0.009397028 -0.61671442 0.74639815 -0.25010604 0.0015570652
0.021396214 -0.0021403525 -0.0091653792 0.69478804 0.13691847 -0.70606154 0.0032082165
0.022960963 -0.0019703265 -0.0074353735 0.79136956 0.018526627 -0.61105728 0.0027555984
-0.0076090656 -0.00020607095 -0.0091505209 -0.61572611 0.74061829 -0.26900932 0.0017244499
-0.0056950883 0.0014694072 -0.0091193672 -0.60523307 0.7309314 -0.31532863 0.0046734172
0.01933351 0.0015282193 -0.010040273 0.54217041 0.27734312 -0.79317844 0.0015488768
0.021242129 0.00078092981 -0.0087707462 0.65727139 0.16935603 -0.73437923 0.0013911708
-0.0046258844 0.0028294511 -0.0081318375 -0.59797853 0.72391599 -0.34404549 0.0019883113
-0.0026913406 0.0039095841 -0.0090625808 -0.54857314 0.71773106 -0.42887011 0.00058685476
-0.00040354254 0.0048538912 -0.010046848 -0.40104666 0.72096211 -0.56513292 0.0019444985
0.016656712 0.0048133023 -0.010195331 0.35602078 0.37547666 -0.85572571 0.0026364983
0.018626509 0.0039897375 -0.0095183803 0.49135244 0.32343251 -0.80868053 0.0017262552
0.020873673 0.0036806827 -0.0081512872 0.5654372 0.30485699 -0.76638305 0.00166392
-0.0013763607 0.0056183822 -0.0079427622 -0.52697062 0.71466541 -0.45995152 0.0025747188
0.00056209182 0.0063221855 -0.0088458266 -0.43024698 0.73168796 -0.52869678 0.0039002108
0.0032355706 0.0073861564 -0.0092798453 -0.31924292 0.69606954 -0.6430949 0.0051895697
0.0062789461 0.0078398036 -0.0098491432 -0.13525276 0.64865398 -0.74896914 0.0019454192
0.0094208876 0.0079752309 -0.010001266 0.010044318 0.59681749 -0.80231416 0.0016760066
0.012521541 0.0076539358 -0.0098948758 0.13791506 0.54856247 -0.82465672 0.0012682047
0.015362062 0.0069505023 -0.0095379548 0.31217903 0.45355284 -0.83476585 0.001485409
0.018146412 0.0067263255 -0.0084809735 0.43850189 0.39766181 -0.80596596 0.0011713299
0.020345775 0.0058394531 -0.0076707583 0.51590645 0.3545551 -0.77982765 0.0024926814
0.0040993178 0.0090529164 -0.0079570329 -0.39003471 0.67615849 -0.62504619 0.0028456151
0.0065146862 0.0095310146 -0.0083824359 -0.19980714 0.66820854 -0.71664113 0.0030170106
0.0092622386 0.0098309601 -0.0085542481 -0.047997341 0.62243825 -0.78119576 0.0020510901
0.012271699 0.009893951 -0.0084134499 0.10202157 0.58366936 -0.80555671 0.0020654118
0.01514034 0.0095163295 -0.008080449 0.27921683 0.49192664 -0.82464904 0.0014701883
0.01727681 0.0089067081 -0.0076983012 0.35522652 0.4703722 -0.80781436 0.0014990258
0.01227654 -0.026412141 -0.0069980035 0.78828603 -0.57393765 -0.22181249 0.00048002045
0.015094334 -0.022805125 -0.0062364102 0.81122094 -0.56421131 -0.15357831 0.00038864781
0.016240595 -0.021069949 -0.006779016 0.8327747 -0.52198052 -0.18445219 0.00089379598
0.017423294 -0.019380739 -0.0063213068 0.83286786 -0.52142429 -0.18560149 0.00099540281
0.018913727 -0.016892992 -0.0063573816 0.85645276 -0.45623097 -0.24154094 0.00074812531
0.019746264 -0.015256135 -0.0065091709 0.86508542 -0.42624068 -0.26447314 0.0020391387
0.020649603 -0.013818391 -0.0058751414 0.87374723 -0.39931732 -0.2776894 0.0013334324
0.021805689 -0.011136519 -0.0059957202 0.88261414 -0.33840951 -0.32629964 0.0028477407
0.022465669 -0.008428107 -0.0067187748 0.88686889 -0.24640633 -0.39082932 0.0047595594
0.023214895 -0.0075806696 -0.0055393833 0.8753565 -0.26297736 -0.40570179 0.0043457858
0.023596244 -0.0049134721 -0.0059966543 0.85235286 -0.14942175 -0.50116634 0.004662245
0.024018567 -0.0021733404 -0.0059122234 0.83607996 -0.051802691 -0.54615647 0.0056256009
-0.0079951575 0.00012577511 -0.0060672173 -0.66557586 0.72084719 -0.19336025 0.00082748284
-0.0063538598 0.0017560516 -0.0065539936 -0.66637522 0.71392381 -0.21507411 0.0018235779
0.022502467 0.002216408 -0.0073051909 0.6924538 0.18033743 -0.69856012 0.0039448803
0.023973916 0.00082692783 -0.0059237466 0.76649851 0.092063867 -0.63561326 0.0019212508
-0.0051037297 0.0032983683 -0.005461304 -0.69986516 0.68592542 -0.19923639 0.0005236853
-0.0034281802 0.0046898136 -0.0062285266 -0.66095471 0.70056593 -0.26897278 0.0018807756
0.022210265 0.0041593909 -0.0069483751 0.65894228 0.23519249 -0.71447861 0.0018418725
0.02380738 0.003818321 -0.0055363216 0.72438031 0.15482929 -0.67178947 0.0018628541
-0.0019698807 0.0062347176 -0.0058375332 -0.63372922 0.69234037 -0.34503913 0.0030270617
0.0001386134 0.0077571748 -0.0063341856 -0.55359167 0.70217556 -0.44775638 0.0057029356
0.019406211 0.0079568075 -0.0071858326 0.41290864 0.40984887 -0.81334519 0.0019544114
0.021521445 0.0070266379 -0.0062856325 0.54119641 0.35439253 -0.76256961 0.0025522078
0.023430238 0.0065684495 -0.0049968045 0.6407609 0.28939679 -0.71110827 0.0016688267
0.0011038836 0.0092439381 -0.0052539655 -0.53502095 0.68373537 -0.4962444 0.002087716
0.0031839251 0.010083935 -0.0061634216 -0.41471204 0.6868574 -0.5968591 0.0020786598
0.0059703421 0.010898259 -0.0068852627 -0.25793898 0.68158877 -0.6847657 0.0021334542
0.015624126 0.010828634 -0.007107947 0.21583742 0.53785992 -0.8149361 0.0011456523
0.018487984 0.01004623 -0.0064908909 0.34437281 0.48661032 -0.80288088 0.00094808097
0.021191956 0.0097636292 -0.0051681059 0.49188781 0.40787825 -0.76920855 0.0019439997
0.0040284712 0.01170884 -0.0048702667 -0.46618474 0.6924656 -0.55060256 0.0024453506
0.0064594364 0.012397445 -0.005571438 -0.33209708 0.68967354 -0.64347643 0.002215001
0.00926656 0.012722678 -0.0061323037 -0.14734249 0.64081222 -0.75342536 0.0031893151
0.012294069 0.012716561 -0.0063197259 0.043506689 0.59239131 -0.80447489 0.0016603372
0.015339609 0.012729938 -0.0058957199 0.19830428 0.56068182 -0.80393493 0.001890309
0.018106883 0.012456209 -0.0051752618 0.33005312 0.50632465 -0.79668087 0.0015323738
0.020303506 0.011954005 -0.004495115 0.42543194 0.48028991 -0.76702636 0.00093217898
0.0096861264 0.014484498 -0.0046595344 -0.19223124 0.65018654 -0.73505414 0.0027214678
0.012334734 0.014635288 -0.004806526 -0.0065681222 0.62781715 -0.77833319 0.0017938287
0.015147543 0.01452371 -0.004653723 0.16217482 0.5900535 -0.79090846 0.0017471901
0.0175572 -0.019840708 -0.0028650025 0.83346903 -0.5274725 -0.16462724 0.00048180472
0.018927077 -0.017687647 -0.0038350234 0.84517956 -0.50500488 -0.1750471 0.00082507631
0.019847585 -0.016034028 -0.0042158524 0.84998053 -0.48737153 -0.20000497 0.001781442
0.021301122 -0.013721183 -0.0032016994 0.8734709 -0.44793275 -0.19080029 0.00033696147
0.022592731 -0.011138173 -0.0032063285 0.89232337 -0.37551236 -0.25049841 0.0011946461
0.023193197 -0.0099687632 -0.0029454688 0.89024341 -0.37907305 -0.25252795 0.0011870418
0.023986407 -0.0078519387 -0.0030615311 0.90403199 -0.31392032 -0.29013821 0.0015475628
0.024995627 -0.004928858 -0.0028088791 0.90953541 -0.24883939 -0.33290297 0.0024989895
0.025321653 -0.0024014618 -0.0035356828 0.88121152 -0.12056789 -0.4570882 0.0032345622
0.026061447 -0.0017468501 -0.0021087462 0.90478593 -0.21294147 -0.3688066 0.0024053974
-0.0066397069 0.0020106751 -0.003414751 -0.69874889 0.68919903 -0.19171488 0.00064772618
0.025491036 0.00083558075 -0.003852366 0.84786218 -0.0064313058 -0.53017759 0.0029133051
0.026274791 0.00084112398 -0.002489089 0.8770721 -0.081282094 -0.47343189 0.0039089308
-0.004773871 0.0043700058 -0.0024430314 -0.72059911 0.66260791 -0.2041758 0.00093796779
-0.0040606987 0.0050664637 -0.0031176964 -0.72357053 0.65544826 -0.21641015 0.00063390756
0.025278183 0.0039906008 -0.0038497606 0.7883479 0.11756946 -0.60389155 0.0023917637
0.026273336 0.003899171 -0.0025129132 0.82640725 0.058920402 -0.55998164 0.0034702548
-0.0024180557 0.006947712 -0.0029864344 -0.7251026 0.64928073 -0.22947945 0.00049905159
-0.00077009434 0.008338551 -0.0038651088 -0.66269088 0.6778028 -0.31847131 0.0010905319
0.024772208 0.0070832176 -0.0034903847 0.67557299 0.25388458 -0.69220209 0.0023539404
0.026256306 0.0065422626 -0.0019996623 0.7636323 0.17743228 -0.62079263 0.002899172
-0.0012493869 0.0088618351 -0.0014623562 -0.72037715 0.64084846 -0.26527336 0.0028558432
0.00040136185 0.01000592 -0.0028464394 -0.67599785 0.65500432 -0.33763337 0.0017219478
0.002199247 0.010991867 -0.0040130378 -0.5700894 0.69549382 -0.43736306 0.001389992
0.022379084 0.010622296 -0.0039576115 0.56558156 0.36928219 -0.73739278 0.00088801445
0.024286084 0.0098583708 -0.0027693957 0.63811922 0.30161637 -0.70840061 0.0013452853
0.026095843 0.0086249216 -0.0015176842 0.75043976 0.25099456 -0.61142606 0.0043494063
0.0015784735 0.011673595 -0.0020606974 -0.64457291 0.64352226 -0.41280138 0.0021134412
0.0033918894 0.012695485 -0.002935776 -0.5431428 0.67923158 -0.49359933 0.0050083268
0.0057169786 0.013655157 -0.0038099149 -0.3418538 0.69831729 -0.62887913 0.0025475528
0.018857388 0.013665252 -0.0040879371 0.30073661 0.53625083 -0.788665 0.0010543356
0.021486223 0.012959545 -0.0031731576 0.47088647 0.44291055 -0.76295227 0.0015745213
0.023682516 0.012484751 -0.0019448474 0.55059737 0.41873339 -0.72215289 0.0011716745
0.0044074478 0.014514099 -0.0016323188 -0.57697207 0.66173583 -0.47875774 0.0022876363
0.0066284304 0.015282526 -0.0025783917 -0.41353884 0.68419635 -0.60071713 0.0043295422
0.0092939185 0.016061235 -0.0030810907 -0.25936374 0.65347707 -0.71112454 0.0047056973
0.012372576 0.016329955 -0.0033980282 -0.035554796 0.63946271 -0.76799953 0.0014200498
0.015481042 0.016166355 -0.0033496269 0.13148212 0.60171872 -0.78781158 0.0024813144
0.018234795 0.015848037 -0.0028464138 0.26784232 0.56776333 -0.77839917 0.0012736579
0.020883627 0.015235127 -0.0020911135 0.43357754 0.49163663 -0.75518471 0.00084760919
0.010062458 0.017811555 -0.0016775094 -0.25821003 0.6668399 -0.69903648 0.0027672951
0.012302985 0.018017709 -0.0019409265 -0.098789513 0.65877646 -0.74582458 0.0033473063
0.01517933 0.018151239 -0.0018165288 0.085920155 0.62059247 -0.77941179 0.0017856674
0.017489247 0.017933674 -0.001579524 0.24358097 0.57795775 -0.77886659 0.0015290153
0.022337446 -0.012362307 -0.0012488225 0.88530684 -0.41850609 -0.20269305 0.00031874259
0.023284679 -0.010476833 -0.0011768499 0.89632905 -0.37902576 -0.23007341 0.00077157083
0.024507921 -0.0081287827 -0.00038927887 0.90996647 -0.36698416 -0.19308962 0.00055332814
0.025590468 -0.0055343714 -4.4354238e-05 0.92581058 -0.28196979 -0.25172952 0.00078116986
0.026220558 -0.0041199382 0.00062559452 0.92714316 -0.2761533 -0.2532683 0.00082694134
0.026662087 -0.0020915787 7.3635951e-05 0.93413597 -0.23973686 -0.26441666 0.0015358649
0.027376646 0.001142432 -0.00014685839 0.92121333 -0.16754471 -0.35113373 0.0040303534
0.027586279 0.0039239936 -0.00029153377 0.87964445 0.0015003671 -0.47562945 0.0015876964
-0.0030288277 0.0069993464 -0.00015833322 -0.73433846 0.64288098 -0.21783257 0.00072888203
0.027500542 0.0068579977 -0.00014825258 0.8564294 0.085584253 -0.50912082 0.0018622699
-0.0015701309 0.0088915182 -0.00017210469 -0.75135392 0.61942977 -0.22753899 0.0008710752
-0.00017460901 0.010649488 -9.723939e-05 -0.74485904 0.61740166 -0.25298268 0.0010967758
0.025525494 0.010873451 -0.0011847625 0.65846157 0.30298194 -0.68893409 0.00091404613
0.027075673 0.009829049 0.00015978143 0.76189983 0.23666587 -0.60290784 0.0028535298
0.0011687572 0.012327476 7.0969574e-05 -0.6959458 0.64620113 -0.31318295 0.0024519586
0.0025273133 0.013616133 -0.00030798092 -0.67094052 0.6439383 -0.3676714 0.002014688
0.024973501 0.013136697 -0.00051208306 0.6115644 0.361669 -0.70369345 0.0016908881
0.026606472 0.01270681 0.00085273292 0.69864583 0.32579666 -0.63698548 0.0021414023
0.0037473887 0.015260083 0.00031456072 -0.6265139 0.66343808 -0.40906003 0.0033659083
0.0058044922 0.016474009 -0.0005106451 -0.56452852 0.65535539 -0.50181359 0.0023080437
0.0081834747 0.017355066 -0.0013253549 -0.30687538 0.68677467 -0.65891427 0.0026056459
0.019503962 0.017355394 -0.0013173679 0.30617768 0.5598684 -0.76993686 0.0027589742
0.02164516 0.016338982 -0.00093445089 0.41511124 0.50356805 -0.75769514 0.001517277
0.024151379 0.015673857 0.00030697044 0.54434645 0.43175644 -0.71921712 0.0010624608
0.026270077 0.01462468 0.00147657 0.63252121 0.40168267 -0.66224462 0.0016936462
0.0068693766 0.018183012 0.00056477729 -0.49553984 0.66466844 -0.5591566 0.0047490587
0.0093583958 0.019140113 -3.5351142e-05 -0.33654836 0.68653935 -0.64451456 0.0057761436
0.012212001 0.019512933 -0.00058425311 -0.10206088 0.67749846 -0.72840887 0.0017440578
0.015372524 0.019564971 -0.00063460134 0.05535882 0.64215171 -0.76457608 0.0015431384
0.018469336 0.019186579 -0.00030493643 0.20684022 0.60910052 -0.76564592 0.0011817388
0.021121912 0.018701594 0.0004261462 0.36832073 0.55928856 -0.74265492 0.0016143488
0.023241643 0.01777095 0.0010453304 0.4821668 0.51230371 -0.71067584 0.0011668432
0.010245953 0.020907063 0.0013298159 -0.34077644 0.67803198 -0.65126348 0.0027847418
0.01237087 0.021184202 0.00094041694 -0.14337589 0.67370629 -0.72495741 0.0026591809
0.015329473 0.021236084 0.00079391245 0.040678553 0.66825104 -0.74282283 0.0020590303
0.018187266 0.021107744 0.0011446206 0.22115923 0.61729252 -0.755009 0.002202966
0.020101178 0.020798009 0.0015240153 0.35440475 0.57024944 -0.74108899 0.0011369991
0.02635069 -0.0048496481 0.002861931 0.93324727 -0.28835374 -0.21424656 0.00055248517
0.027317146 -0.0022301134 0.0030869013 0.94098377 -0.26184842 -0.214441 0.00046704171
0.028192097 0.00086476654 0.00293318 0.94059145 -0.23238915 -0.24755402 0.0019540724
0.028688772 0.003951462 0.0021880362 0.9372806 -0.13406043 -0.3217653 0.0064655622
0.029256461 0.0044448022 0.0036145812 0.92563915 -0.15877345 -0.34348673 0.0061518275
0.028663611 0.0067979777 0.0017923703 0.8925463 0.044673361 -0.44873756 0.0029575315
0.029469 0.0069374712 0.0035434235 0.91569358 -0.019268274 -0.40141502 0.0024952292
-0.0017404358 0.0092607895 0.0021555461 -0.77473253 0.60192055 -0.19360079 0.0020204654
-0.00055298675 0.01109271 0.002510949 -0.80724347 0.56639373 -0.16600013 0.0011012005
0.028521338 0.010157174 0.0022723135 0.84263384 0.16072071 -0.51394272 0.0023998714
0.029467175 0.009736496 0.0037945425 0.87756479 0.095603608 -0.46982974 0.0031582285
0.00074204989 0.012980086 0.0028429963 -0.7983371 0.56134295 -0.21806397 0.002330326
0.028059436 0.013158101 0.0028296402 0.76608485 0.27738887 -0.57980132 0.0024893996
0.029295845 0.012334243 0.0042236783 0.82088149 0.21952586 -0.52722102 0.0029466567
0.0015915423 0.01471449 0.0040031811 -0.79062897 0.56578839 -0.23407146 0.0037936007
0.0031189662 0.016101558 0.0028376635 -0.71276724 0.611018 -0.34441227 0.002936434
0.025434982 0.016442228 0.0018204236 0.61139905 0.42382216 -0.66825598 0.00091129501
0.027128475 0.015867617 0.0031703776 0.66975302 0.39479345 -0.62894279 0.0018843084
0.0041351411 0.017885212 0.0037167706 -0.68992019 0.60428107 -0.39856544 0.0025246111
0.0060146526 0.019117687 0.0026676524 -0.59584081 0.64152366 -0.48313671 0.0049977615
0.0082393894 0.020342331 0.001917704 -0.4487932 0.67280793 -0.58814472 0.0073078047
0.022179367 0.020027347 0.0019520214 0.37106532 0.56562006 -0.73646748 0.0017584512
0.024370696 0.018886313 0.0026292047 0.53596407 0.4784773 -0.69555873 0.0012353959
0.026369121 0.018249311 0.0038575176 0.61233777 0.45185229 -0.64874643 0.001392287
0.007038245 0.020949554 0.0037756823 -0.54725236 0.62582427 -0.55575073 0.0022736818
0.0094418712 0.022108112 0.0030762684 -0.35842201 0.67635322 -0.64349031 0.0021689094
0.012195779 0.022649739 0.0024046041 -0.16184078 0.68135554 -0.71383631 0.0021024044
0.015373699 0.022729397 0.0021194825 0.015349767 0.68018073 -0.73288375 0.0018338864
0.01861156 0.022519808 0.002448271 0.17336741 0.64902204 -0.74075246 0.001225355
0.021364611 0.022070717 0.0031454563 0.3488512 0.60646909 -0.71449149 0.0020521951
0.023699507 0.021068376 0.0037626522 0.47479644 0.53937286 -0.69544601 0.0017027087
0.010429775 0.023800965 0.0042812666 -0.40315932 0.67931163 -0.61318696 0.0026115985
0.012448831 0.02419569 0.0038678991 -0.23327681 0.6927563 -0.68240064 0.004167832
0.01518902 0.024486691 0.003735139 -0.0042034006 0.67594856 -0.73693681 0.0023192458
0.018123675 0.024322491 0.0039018532 0.17124173 0.665613 -0.7263853 0.0017178028
0.020582573 0.023921967 0.0043082228 0.3152431 0.62716746 -0.71223789 0.0010325531
0.028462177 -8.0695376e-05 0.0061699292 0.94531924 -0.26895034 -0.18449184 0.00082845363
0.028941112 0.0015978608 0.0061570397 0.95473027 -0.23828866 -0.17806958 0.0013990084
0.029691724 0.0043876562 0.005407854 0.95532131 -0.20831858 -0.20967719 0.0044176467
0.030284213 0.0068711592 0.0059116678 0.94354761 -0.062911071 -0.32520786 0.00078429247
-0.0012783511 0.010450224 0.0052573821 -0.83123714 0.53790516 -0.14036667 0.0005786671
0.030574122 0.009848929 0.0062861769 0.92681956 0.019552574 -0.37499768 0.0021886353
0.00015578698 0.012960861 0.0059880642 -0.82408506 0.53772002 -0.17815985 0.0015322499
0.030167183 0.012868072 0.0060308864 0.88116491 0.15932296 -0.44515684 0.0040912172
0.0014361273 0.015269156 0.0061071655 -0.83150202 0.51773906 -0.20137186 0.0014896431
0.0023937761 0.016613286 0.0057257758 -0.81454241 0.52401757 -0.24884985 0.0012805971
0.028269207 0.016783457 0.0049953228 0.74452937 0.31348664 -0.58940834 0.0019955758
0.029499995 0.015828278 0.0061980328 0.81399685 0.26281029 -0.51801538 0.0024403355
0.0037148735 0.018791713 0.0062224763 -0.77968889 0.5447697 -0.308725 0.0012272288
0.0051020058 0.019851625 0.0049512424 -0.6966548 0.59278446 -0.40407765 0.0055050938
0.027619021 0.019111421 0.0057662623 0.68195927 0.42120191 -0.59793013 0.0018958619
0.029159689 0.018269084 0.0070730792 0.74865174 0.35937428 -0.55710918 0.0020222147
0.0044847559 0.020605069 0.0073354384 -0.75699288 0.53424799 -0.37621939 0.0029459659
0.0063256035 0.0219374 0.0060368897 -0.68826848 0.58621621 -0.4273605 0.0020421257
0.0085295597 0.023116644 0.0048729917 -0.45721263 0.68103176 -0.57197243 0.0032378198
0.022640083 0.023354854 0.0048565408 0.43305644 0.58924907 -0.68209064 0.00049298676
0.024738455 0.022104014 0.0053205034 0.5241009 0.50847667 -0.68320554 0.0012160606
0.026739884 0.02142432 0.0065019587 0.61586082 0.4758423 -0.6279248 0.0017453068
0.0072047645 0.023630455 0.0069547826 -0.61019307 0.61538613 -0.49896342 0.003805598
0.0094107734 0.024804506 0.0061572781 -0.42296749 0.67933047 -0.59967381 0.0021894427
0.012276016 0.025688473 0.0054737804 -0.22297679 0.69488233 -0.68368113 0.002378643
0.015236937 0.026006408 0.0051943874 -0.026862849 0.68873727 -0.72451317 0.0020733515
0.018545585 0.025775254 0.0053268308 0.15231822 0.66879857 -0.72767276 0.0015584857
0.021538822 0.025151923 0.0058446648 0.34296334 0.62718046 -0.69930023 0.0015966644
0.024127379 0.0242461 0.0066263089 0.46462187 0.5823406 -0.66708755 0.0016024105
0.026141195 0.023501884 0.0075314781 0.58509964 0.4970381 -0.64078975 0.0021452405
0.010741455 0.026868176 0.0074958345 -0.44965816 0.67179018 -0.58864719 0.0025774322
0.012651024 0.027211465 0.0069430852 -0.26403877 0.69287461 -0.67097569 0.0031699368
0.015337855 0.027506609 0.0066745272 -0.046902072 0.69725114 -0.7152909 0.0023901591
0.018069182 0.02744237 0.0067916578 0.13173027 0.69518566 -0.70665687 0.0014403356
0.021025872 0.026898134 0.0072062491 0.31256086 0.64993709 -0.69273913 0.0014850924
0.029612983 0.0028233323 0.0091287633 0.95290816 -0.2404667 -0.18477523 0.0015848654
0.031028496 0.0076424582 0.0086382562 0.95845163 -0.15287776 -0.24082965 0.004441272
0.031555183 0.010070599 0.0092802783 0.94653416 0.010305608 -0.32243887 0.0017694433
0.00015514158 0.013406987 0.0078610023 -0.85244256 0.50004441 -0.1526347 0.00042631003
0.031396411 0.012952066 0.0087236417 0.92815745 0.076459676 -0.36424935 0.0036197845
0.0012402805 0.015726142 0.0086694276 -0.85486913 0.49375284 -0.15939562 0.00089239981
0.0020834939 0.017285731 0.0084999939 -0.85125017 0.49389559 -0.17731431 0.0013748915
0.031054916 0.016019445 0.0090170382 0.8850925 0.18398593 -0.42750493 0.0016132623
0.0030501643 0.019184638 0.0090312725 -0.85626632 0.47954884 -0.19193989 0.00135643
0.030115815 0.019035529 0.009032703 0.80087858 0.32841629 -0.5007357 0.0016299487
0.0041573979 0.02132877 0.0094414586 -0.80548024 0.50925213 -0.30309042 0.0027803304
0.0052554831 0.022606887 0.0087998817 -0.75322741 0.54771519 -0.36422065 0.0021199516
0.028011428 0.022249624 0.0084809894 0.70390034 0.43216839 -0.5636974 0.00058213196
0.029457537 0.021494582 0.0097129932 0.74840015 0.40778217 -0.5230782 0.0014648122
0.0065938877 0.02464287 0.0092387395 -0.69072992 0.58027482 -0.4314779 0.0037023486
0.0081882421 0.025631972 0.0082798945 -0.62021846 0.62420958 -0.47506991 0.002913964
0.024999628 0.025473233 0.008312189 0.48678693 0.55590594 -0.67380059 0.0021560933
0.027111972 0.024594553 0.0094342446 0.60589808 0.51715177 -0.60451758 0.0019970951
0.007417677 0.026568037 0.010443523 -0.65675199 0.59086341 -0.4685694 0.0065257177
0.0095204636 0.027511422 0.009220426 -0.46231157 0.66306454 -0.58873886 0.0022234416
0.012321888 0.028457336 0.0084114699 -0.26050207 0.71924937 -0.64406443 0.0027673903
0.015244437 0.029028259 0.0082411943 -0.060981095 0.71238118 -0.6991384 0.0020629095
0.018299384 0.028914351 0.0082795722 0.13056533 0.69473082 -0.70732015 0.0017747351
0.021415092 0.028097924 0.0085146995 0.32288954 0.66624993 -0.67220038 0.0020132384
0.024140872 0.027458504 0.0094835637 0.44629133 0.60472339 -0.65964675 0.0016188133
0.026301663 0.026561748 0.010341181 0.57149416 0.55793858 -0.60174656 0.00046379751
0.010806933 0.029470485 0.010389312 -0.46609062 0.65926552 -0.59002417 0.0020977918
0.012729254 0.029917225 0.0098399268 -0.29020691 0.72547203 -0.62407553 0.0029415968
0.015384667 0.030390672 0.0096923998 -0.082379229 0.72404504 -0.68481565 0.0030501033
0.018288052 0.030313469 0.0097404821 0.12588252 0.70426673 -0.69868594 0.0019765028
0.020876767 0.02976317 0.0099466955 0.30452886 0.68491423 -0.66193247 0.0014501861
0.032257184 0.010877985 0.012405529 0.95549446 -0.00075088494 -0.29500833 0.0014913664
0.032159813 0.012781258 0.011015301 0.94817531 0.0044684238 -0.31771624 0.0016111918
0.0011215094 0.015927684 0.010853334 -0.87164259 0.46651143 -0.1503537 0.00056716893
0.032404512 0.015491479 0.012188128 0.94934177 0.059886418 -0.30848625 0.0024893796
0.0016099201 0.017450761 0.0125304 -0.88641202 0.43352094 -0.16227518 0.00093082373
0.002483597 0.019376781 0.012087543 -0.89219946 0.41969311 -0.16684678 0.00077539298
0.031437993 0.019126486 0.011416794 0.87492394 0.23789527 -0.42179844 0.002456113
0.03229364 0.018441703 0.012925967 0.88493109 0.21683715 -0.41216317 0.0013684202
0.0037966724 0.022201736 0.012190322 -0.87713492 0.42768925 -0.21844035 0.0022429258
0.03061592 0.022083085 0.011968308 0.80271053 0.35375899 -0.48011491 0.0022039739
0.031833656 0.020895179 0.013318135 0.85117483 0.29227233 -0.43597963 0.0013306654
0.0045320913 0.02403656 0.012826337 -0.82783604 0.48038822 -0.28968027 0.0022569788
0.0056170318 0.025200255 0.011904924 -0.79403567 0.5052048 -0.33804658 0.001012653
0.028250096 0.025360186 0.011316183 0.6949445 0.47125912 -0.54310864 0.00104212
0.02955755 0.02485707 0.012569885 0.70628238 0.45163503 -0.54515219 0.001468257
0.0069604209 0.02744041 0.012398667 -0.70644081 0.55411404 -0.44033957 0.0024253442
0.0085383886 0.028626677 0.011612304 -0.59741169 0.64378655 -0.47816122 0.003491885
0.024833782 0.028735925 0.011179972 0.43186525 0.63081127 -0.64464682 0.0011038488
0.027010171 0.027820963 0.012255297 0.57935226 0.55645722 -0.59557217 0.0018171623
0.028910546 0.02674618 0.013343765 0.66899955 0.5063659 -0.54408938 0.0013606308
0.0097843269 0.030234378 0.012231308 -0.52294958 0.67817163 -0.51633996 0.0032120212
0.012081467 0.031314682 0.011783256 -0.33200186 0.71989143 -0.60953355 0.0058259335
0.015431454 0.031702891 0.011116781 -0.082739487 0.74604404 -0.66073626 0.0027997904
0.018438086 0.031651583 0.011180286 0.11255647 0.73104292 -0.67298388 0.0017494116
0.02144118 0.031219151 0.011691702 0.30838084 0.6783846 -0.66685492 0.0016642376
0.023964852 0.030479409 0.012340822 0.41915077 0.64451426 -0.63946384 0.0012164136
0.026226306 0.02966718 0.013286575 0.5690338 0.58786875 -0.57498765 0.00081757113
0.013084562 0.032840274 0.012988041 -0.31409177 0.71960157 -0.61928988 0.0026606012
0.015544504 0.03307936 0.012604154 -0.10235656 0.75510454 -0.64756483 0.0031546908
0.018401979 0.033030067 0.012631034 0.10981205 0.74481332 -0.65817499 0.0019437043
0.020914869 0.032756388 0.013043652 0.29646397 0.70715714 -0.64190179 0.0014978067
0.032864548 0.013608496 0.014105325 0.96024066 0.034198146 -0.27707118 0.0015076807
0.032842144 0.016526531 0.013790273 0.9502126 0.1052525 -0.29328814 0.0018853644
0.0021064444 0.019536059 0.015599354 -0.9131493 0.38083455 -0.14533907 0.00085497194
0.032840066 0.018938825 0.014741418 0.94012684 0.17687005 -0.29133934 0.0021692284
0.002984996 0.021759003 0.014984556 -0.90118468 0.3955507 -0.1772172 0.00053788634
0.031384841 0.022875037 0.013887241 0.84495705 0.31688708 -0.43084833 0.0018135302
0.032370746 0.021720134 0.015184612 0.90415204 0.25361341 -0.34378678 0.0027605486
0.0042028902 0.024693225 0.01520555 -0.87906533 0.42077106 -0.22404429 0.0015564328
0.0051969467 0.026159834 0.014404132 -0.8249262 0.47623411 -0.30446303 0.0026651453
0.030891126 0.024975877 0.014771265 0.80305034 0.39450902 -0.44662371 0.001185819
0.032019414 0.023968294 0.016011618 0.85357201 0.34270665 -0.39238641 0.0024181893
0.0062135141 0.028184418 0.014987572 -0.78525907 0.50428998 -0.35924917 0.0025291054
0.028213898 0.028771374 0.014483036 0.61569518 0.57209176 -0.54187673 0.00092808984
0.029772161 0.027543977 0.01536788 0.72131997 0.47867388 -0.50056857 0.0010272864
0.0072987359 0.030213561 0.015557702 -0.71828574 0.56180656 -0.41041312 0.0022679749
0.008826565 0.031355638 0.014739254 -0.61585557 0.6211707 -0.48463261 0.0046657012
0.024931669 0.031737927 0.014343969 0.42302215 0.66406232 -0.61650091 0.00095558667
0.027035529 0.030851349 0.015352751 0.59213972 0.59272701 -0.54593509 0.00165639
0.029087214 0.029372435 0.016170457 0.69539744 0.50723338 -0.50905466 0.0021728342
0.0099489037 0.033269305 0.015802611 -0.545578 0.63864493 -0.54265755 0.0038500146
0.012167867 0.03406192 0.01495202 -0.30074012 0.73222893 -0.61106151 0.0022193191
0.015297916 0.034688145 0.014493127 -0.094251305 0.75056481 -0.65404063 0.0024187036
0.018473294 0.03463285 0.014443978 0.092455566 0.7462588 -0.65920395 0.0016620369
0.021509338 0.034201182 0.014936679 0.28976661 0.71946323 -0.63119566 0.0019762965
0.024039181 0.033383127 0.015505704 0.44426504 0.66530561 -0.59999758 0.0013266897
0.013152929 0.035772447 0.01645723 -0.32565159 0.7396698 -0.58893096 0.0025695076
0.015459536 0.035961147 0.015989933 -0.11520849 0.75826687 -0.641684 0.0031128789
0.018422576 0.035957798 0.015990935 0.088994808 0.76209199 -0.64132333 0.0023726814
0.020509111 0.035760459 0.016308859 0.27018106 0.73798007 -0.61837488 0.00144087
0.033596925 0.01691569 0.017485976 0.95542002 0.10825601 -0.27468726 0.0015906849
0.033615492 0.01889538 0.017743059 0.94532973 0.16164005 -0.28323874 0.0012517304
0.0028512208 0.022335563 0.017653704 -0.91587234 0.36443666 -0.16841564 0.0012935572
0.033367999 0.02183583 0.018209692 0.9191559 0.23163718 -0.31858543 0.0010638566
0.0036732489 0.024813637 0.017960347 -0.9199577 0.35248655 -0.17155494 0.0014673176
0.031592757 0.025984939 0.016949907 0.79441226 0.42035067 -0.4384228 0.00072796614
0.032613404 0.02472819 0.018189188 0.89186537 0.30256689 -0.33619854 0.0015840912
0.004455734 0.026927289 0.018294744 -0.88973504 0.4001404 -0.21967952 0.001547339
0.0052327169 0.02842544 0.017955862 -0.8744157 0.41408998 -0.25283718 0.0024651669
0.031064479 0.028015569 0.017969236 0.79495579 0.43069074 -0.42725962 0.00092340942
0.0322368 0.026856948 0.019163743 0.8412112 0.39047313 -0.37402481 0.0022056948
0.0065135872 0.030744758 0.018035173 -0.78945851 0.49744719 -0.35958523 0.0020113338
0.0283996 0.031432167 0.017536938 0.68583047 0.54602069 -0.48114237 0.00068550423
0.029710559 0.030422159 0.018255394 0.71233696 0.53741717 -0.45139647 0.001471078
0.0073795188 0.032674741 0.018826906 -0.72916585 0.55754101 -0.39681885 0.0024162123
0.0089542465 0.033983584 0.018017411 -0.67669153 0.5869993 -0.44443271 0.0013282165
0.011121126 0.035163991 0.01703519 -0.44646707 0.70784599 -0.54737669 0.0082582133
0.022743128 0.035312589 0.016845807 0.33728936 0.72720122 -0.59784126 0.0024451173
0.024892202 0.034491278 0.017456394 0.45529574 0.69412851 -0.5575763 0.0019398934
0.027147857 0.033382669 0.018335253 0.57406896 0.62439549 -0.52969342 0.0013546714
0.010175439 0.035799861 0.018828474 -0.56159395 0.65194196 -0.50949383 0.0035949463
0.012306357 0.036770478 0.018265203 -0.35710451 0.74457788 -0.563986 0.0043998542
0.015091944 0.037301019 0.017733812 -0.1003015 0.78097808 -0.6164518 0.0023028017
0.018277364 0.037267927 0.017602026 0.066793047 0.78662503 -0.61380756 0.001806927
0.021325395 0.036890157 0.018084798 0.24997941 0.75737679 -0.60323352 0.0012564694
0.02400811 0.036065903 0.018675234 0.4481146 0.70217133 -0.553307 0.0012363085
0.025838358 0.035526928 0.01953356 0.48337153 0.68906516 -0.53994548 0.0010553587
0.015203908 0.038465112 0.019223861 -0.14658225 0.80034012 -0.58135134 0.0034589451
0.018163275 0.038455736 0.019114941 0.07534676 0.80081403 -0.59415466 0.0022566274
0.019908981 0.038492691 0.019543603 0.22363044 0.7817207 -0.58215308 0.00089098787
0.0026164674 0.022221934 0.020265475 -0.93691695 0.3272602 -0.1228307 0.00053256546
0.033814222 0.02272917 0.020495646 0.92495149 0.23565257 -0.29821572 0.0010782377
0.0034463066 0.025403239 0.02107266 -0.93352598 0.32746002 -0.14594246 0.00087879476
0.033439681 0.025172919 0.021189101 0.91296899 0.27827439 -0.29841411 0.00062823662
0.0043556457 0.028217319 0.021142423 -0.91917962 0.33753073 -0.2029331 0.0024326218
0.031805128 0.028644037 0.020078197 0.84616703 0.39569733 -0.3569665 0.0026280284
0.032500558 0.028096441 0.021189101 0.88702333 0.33888385 -0.31360391 0.0024380337
0.0056486968 0.031127576 0.021007884 -0.85058588 0.44618982 -0.2782416 0.0016015243
0.030749066 0.031092301 0.020798501 0.77410966 0.48325232 -0.40892717 0.0013577701
0.031932548 0.030007478 0.021955028 0.81528258 0.44729504 -0.36775181 0.0020772165
0.0070422264 0.033799734 0.02119058 -0.76959592 0.51544094 -0.37688571 0.0033374636
0.0082276659 0.034935072 0.020388655 -0.70755553 0.56609386 -0.42296925 0.0031805076
0.027886698 0.034632407 0.020736922 0.62572336 0.6126588 -0.48282439 0.0023808754
0.029416217 0.033468448 0.021430328 0.6990208 0.55897212 -0.44600454 0.0012752095
0.0094141383 0.03679952 0.021182947 -0.61279678 0.63443369 -0.47114116 0.0040661194
0.011606693 0.037892222 0.020231932 -0.36028734 0.75371617 -0.54964077 0.0034230459
0.022152936 0.038035113 0.019973338 0.27723849 0.7719605 -0.57202774 0.0017498239
0.024394494 0.037445549 0.020802267 0.41654485 0.72838944 -0.54400289 0.00099450001
0.026711671 0.03629677 0.02152276 0.54892874 0.66619074 -0.50484377 0.0014542927
0.010580074 0.038733255 0.022334352 -0.58380097 0.68203962 -0.44045252 0.0030901104
0.012516014 0.039203249 0.021384843 -0.37068272 0.76150143 -0.53170472 0.0038901032
0.01531643 0.039831825 0.021063082 -0.12118442 0.8146162 -0.56719911 0.0025316975
0.018237378 0.039863214 0.021051351 0.075903676 0.81663835 -0.5721367 0.0020520857
0.02117034 0.039307926 0.021224894 0.26052818 0.78643101 -0.56004578 0.0017149393
0.023389718 0.038901675 0.021980826 0.40611738 0.74107051 -0.53468031 0.0020196957
0.0031276769 0.024865847 0.023285314 -0.94736606 0.2959218 -0.12217949 0.00031770929
0.034042723 0.0251364 0.023660585 0.92265004 0.28609544 -0.25858504 0.0010137155
0.0037961435 0.027727719 0.023905233 -0.93995786 0.30589205 -0.15135802 0.001111706
0.03333874 0.02787324 0.023574516 0.92087978 0.2937263 -0.25633043 0.0010494789
0.0045317709 0.030421674 0.024391219 -0.93676668 0.30549049 -0.17071518 0.0019909937
0.0052869851 0.031845029 0.023349967 -0.89960426 0.36108816 -0.24561657 0.0015683707
0.031253435 0.032065447 0.022949368 0.79504627 0.48256785 -0.36746392 0.00061474735
0.032532349 0.030605562 0.024349861 0.86381847 0.40584055 -0.29851481 0.0012259615
0.0060790088 0.033975549 0.02397196 -0.85818863 0.41561964 -0.30128494 0.0016737125
0.030540833 0.033891682 0.024062455 0.76358247 0.52167302 -0.38052472 0.0014265518
0.0072381096 0.036351524 0.024303891 -0.77686489 0.51436329 -0.36319605 0.0023978369
0.0086733848 0.037712265 0.02349925 -0.67622757 0.59625405 -0.43266311 0.0022891765
0.02553037 0.038291823 0.022988692 0.47881886 0.71825421 -0.50482011 0.00074036868
0.027538901 0.037228018 0.023884524 0.60218978 0.66722125 -0.4383871 0.0012825029
0.029532807 0.035854533 0.024895564 0.70772207 0.58657032 -0.39378265 0.0026065852
0.0097207995 0.039482012 0.024497475 -0.58587748 0.65485322 -0.47740424 0.0036734247
0.01214065 0.040567901 0.023595493 -0.33962968 0.77480292 -0.5332281 0.002660448
0.015149234 0.041217495 0.023092821 -0.12216367 0.81420803 -0.56757498 0.0026512067
0.018316435 0.041290775 0.023116861 0.092980914 0.82306194 -0.56028885 0.0018558691
0.021342238 0.040778138 0.02345385 0.26208249 0.80287862 -0.53544241 0.001076213
0.024289064 0.039832037 0.024135809 0.44301391 0.75026697 -0.4907527 0.0015036451
0.026538353 0.038862534 0.024991527 0.58338612 0.68136799 -0.4420388 0.00088258763
0.012822064 0.041765273 0.024883766 -0.34549254 0.7880258 -0.50955892 0.0028854061
0.015371252 0.042165823 0.024487685 -0.11648419 0.84477484 -0.52228999 0.0028686833
0.018369362 0.042166904 0.024499249 0.10138898 0.84733599 -0.52128875 0.002000547
0.021249067 0.041795701 0.024988107 0.29808789 0.81428456 -0.49808067 0.0017988528
0.034207024 0.0260165 0.02593632 0.92762595 0.28112262 -0.24592723 0.00067760941
0.003650385 0.028343428 0.027077004 -0.95022821 0.26676252 -0.16094738 0.00065620948
0.03375563 0.028817553 0.02663447 0.91349989 0.31960663 -0.25173306 0.0015652077
0.0042529106 0.031105611 0.027069058 -0.94535977 0.25680116 -0.2008681 0.0018750472
0.033045188 0.031367976 0.027239241 0.87062627 0.40227258 -0.28317264 0.00094129902
0.0046612434 0.033168834 0.027807906 -0.93436629 0.26653746 -0.23646857 0.0025098592
0.0052981321 0.034317084 0.026834443 -0.89230734 0.35824221 -0.2746819 0.0013863208
0.03135363 0.034495044 0.026732698 0.80442971 0.5070622 -0.30948472 0.0015694974
0.032187 0.033528693 0.027558804 0.82181293 0.48148537 -0.30462331 0.00071813952
0.00650666 0.036963549 0.02689394 -0.82519609 0.45006964 -0.34130445 0.0028006202
0.028554907 0.03791149 0.02637497 0.69437498 0.60837495 -0.38434786 0.001410927
0.029946087 0.036810849 0.027229872 0.73069441 0.57366896 -0.37012109 0.0017708322
0.0074741933 0.039081119 0.027532075 -0.73949397 0.54512006 -0.3949593 0.0025085746
0.0089399582 0.040401068 0.026891474 -0.64719665 0.63268721 -0.42525664 0.0051870458
0.025225237 0.040824521 0.026632272 0.46358928 0.76695734 -0.44369066 0.0016426636
0.027270833 0.039665226 0.027308997 0.59796578 0.69297183 -0.4027741 0.0018149432
0.02883325 0.0387371 0.028219327 0.6509887 0.65477705 -0.38403207 0.0019703859
0.010189368 0.041984927 0.027556475 -0.54490173 0.69366199 -0.47107869 0.0023281127
0.012365596 0.042962693 0.02710133 -0.38329786 0.77609831 -0.50075358 0.0043019811
0.015446475 0.043641847 0.026852909 -0.10451531 0.85986555 -0.49970764 0.0018415537
0.01846361 0.043652233 0.02696076 0.11960223 0.8585813 -0.49853125 0.0013881434
0.021546703 0.042977791 0.027131751 0.3122873 0.81623876 -0.48603585 0.001788102
0.023958152 0.042033534 0.02738066 0.43974975 0.7771827 -0.45011905 0.0011740082
0.0036607441 0.029200118 0.028679177 -0.95661616 0.24505427 -0.15758766 0.00085859804
0.003770709 0.030908439 0.030082706 -0.96467131 0.21066856 -0.15820245 0.0015170369
0.0043442296 0.033930935 0.030164737 -0.9454304 0.24744338 -0.21197456 0.0010537367
0.032601491 0.03395725 0.02994819 0.82928813 0.48908353 -0.27033025 0.00093063858
0.0046884688 0.035932519 0.030966058 -0.94132161 0.25425628 -0.2219623 0.00073824241
0.005574706 0.037176047 0.029657729 -0.87206477 0.38270676 -0.30502233 0.0013360576
0.030799689 0.037060082 0.029709913 0.79938543 0.52609116 -0.29019144 0.0016169038
0.0068276813 0.039815389 0.03000157 -0.77358878 0.52565014 -0.35391012 0.0023286475
0.0082023423 0.041075397 0.029022738 -0.7428925 0.55071402 -0.38055852 0.0028917191
0.027750043 0.040639073 0.02979238 0.60795069 0.70749778 -0.36033714 0.0016985696
0.029469071 0.03917335 0.030370619 0.70861125 0.62774205 -0.32219568 0.0015110982
0.0075603519 0.041684877 0.03110614 -0.73100495 0.57917851 -0.3608104 0.0053232061
0.0094975978 0.042999756 0.030083306 -0.55954629 0.71134239 -0.42532343 0.0030784998
0.01223753 0.044103391 0.029044025 -0.33065537 0.81086761 -0.48286727 0.0030521313
0.021313397 0.044095136 0.028957814 0.28337517 0.84228045 -0.45854354 0.0011943616
0.024307739 0.043269418 0.029999528 0.42217034 0.8003453 -0.42569903 0.0007631238
