# .PCD v0.7 - Point Cloud Data file format
VERSION 0.7
FIELDS x y z normal_x normal_y normal_z curvature
SIZE 4 4 4 4 4 4 4
TYPE F F F F F F F
COUNT 1 1 1 1 1 1 1
WIDTH 555
HEIGHT 1
VIEWPOINT 0 0 0 1 0 0 0
POINTS 555
DATA ascii
-0.065165311 -0.031948291 -0.010559874 -0.41674751 -0.28921691 -0.86178595 0.019930916
-0.06314607 -0.032277241 -0.010979792 -0.28180707 -0.6456064 -0.70977259 0.015170472
-0.060314473 -0.032693848 -0.011743141 -0.33862263 -0.65547752 -0.67504364 0.0094100852
-0.057487857 -0.033453371 -0.012178111 -0.29984313 -0.71650136 -0.62985712 0.0079019303
-0.054584373 -0.034183647 -0.012464236 -0.22577083 -0.83327323 -0.5046615 0.0022885075
-0.052122537 -0.03445866 -0.013004297 -0.14308904 -0.86593366 -0.47925401 0.0033672545
-0.033151858 -0.034462739 -0.012957893 0.17391734 -0.89323598 -0.41458678 0.0016904463
-0.030337486 -0.034172144 -0.01222712 0.22643197 -0.88600242 -0.40463352 0.0012051645
-0.027374182 -0.033442434 -0.012020336 0.25889319 -0.87989527 -0.39844534 0.0017482174
-0.024407737 -0.032515056 -0.011942124 0.28551662 -0.86582059 -0.4108955 0.0013756986
-0.022111166 -0.032046814 -0.01120562 0.327995 -0.8774842 -0.34991544 0.00070954766
-0.065723196 -0.030069645 -0.010762549 -0.49202013 -0.1091353 -0.86371619 0.013600295
-0.063508712 -0.030206334 -0.011777746 -0.39430189 -0.20024072 -0.89690006 0.010948709
-0.061165925 -0.030340964 -0.012949038 -0.46028918 -0.29520795 -0.83724922 0.0085655879
-0.022960432 -0.03126543 -0.013386952 0.30021086 -0.79205948 -0.53152156 0.001169211
-0.020958453 -0.031063879 -0.012285786 0.34270865 -0.83709842 -0.42640007 0.0010238839
-0.018329658 -0.030055361 -0.012124292 0.35748178 -0.81478047 -0.45644227 0.0010836255
-0.015743803 -0.029282657 -0.011396198 0.38321865 -0.82834184 -0.40864819 0.0023931828
-0.065318614 -0.027343493 -0.010704687 -0.55564958 0.23118673 -0.79862773 0.0081923679
-0.063443504 -0.027305569 -0.011945509 -0.54378599 0.069552578 -0.83633691 0.0056568179
-0.061712354 -0.027220104 -0.013149629 -0.54477745 0.023790015 -0.83824307 0.0064471741
-0.015022891 -0.028150963 -0.01277623 0.39269733 -0.78091449 -0.48575863 0.0016996772
-0.01236859 -0.027167879 -0.012077536 0.42389873 -0.78020799 -0.45998397 0.00071981316
-0.010136832 -0.026313979 -0.011404444 0.46508935 -0.75141555 -0.46804544 0.00086342008
-0.062931918 -0.024368433 -0.011448547 -0.64377004 0.36465216 -0.67274725 0.0069964011
-0.061227817 -0.023897618 -0.012839843 -0.65139937 0.25298557 -0.71531612 0.003316452
-0.0089946501 -0.024914362 -0.012436423 0.46053147 -0.71970022 -0.51955968 0.0016487687
-0.0064640557 -0.023672853 -0.011808794 0.4947387 -0.69563264 -0.52089232 0.0010679403
-0.0042727469 -0.022846157 -0.010797026 0.50494242 -0.69743621 -0.5085429 0.00077915628
-0.062339734 -0.022245605 -0.010712432 -0.66828996 0.49287841 -0.55718887 0.0023157203
-0.060384866 -0.021180425 -0.012138749 -0.67132437 0.45498902 -0.58507138 0.0049448758
-0.058647189 -0.019993016 -0.013178753 -0.60630482 0.52922237 -0.59356391 0.0052108737
-0.0054316716 -0.02207374 -0.012900714 0.50318003 -0.63462979 -0.58656186 0.0013398089
-0.0033462001 -0.02118778 -0.012028057 0.50384611 -0.67544144 -0.53844017 0.00099527242
-0.0013175993 -0.020363571 -0.011116518 0.52741474 -0.66189086 -0.53266704 0.0003624456
-0.059578601 -0.019189613 -0.011246545 -0.66235524 0.53617859 -0.52325714 0.0022257648
-0.05767848 -0.018047331 -0.012409301 -0.616265 0.57538903 -0.53772205 0.0059858076
-0.0023521497 -0.019393725 -0.013126638 0.51665121 -0.62232172 -0.58803672 0.00099097367
-0.00023704674 -0.018484103 -0.012175648 0.53555888 -0.62309033 -0.57003087 0.00084770838
0.0020536762 -0.017442677 -0.011198114 0.54928267 -0.60557979 -0.57581395 0.0012220225
-0.056457233 -0.016148182 -0.011629056 -0.60598367 0.62304604 -0.49456784 0.0027334527
-0.054645531 -0.01488401 -0.012228076 -0.59715044 0.65517569 -0.46276999 0.0050534122
0.00095975772 -0.01638251 -0.013133751 0.52899426 -0.56254494 -0.63538045 0.0006999686
0.0028016595 -0.015549768 -0.012320342 0.53366417 -0.54684436 -0.64510757 0.002338239
0.0049207062 -0.014534442 -0.011390512 0.5594998 -0.53290468 -0.63480121 0.00061129499
-0.053158864 -0.013133857 -0.011436965 -0.56464314 0.7305699 -0.38398677 0.0032209186
-0.051471483 -0.012224104 -0.01221181 -0.569965 0.75145912 -0.33233863 0.0016808601
-0.04948641 -0.011117563 -0.013009556 -0.55788219 0.70205325 -0.44259322 0.007297093
0.0036695674 -0.013674656 -0.013085591 0.49708593 -0.49182415 -0.71485287 0.0015696507
0.0057147741 -0.012372178 -0.012391353 0.5332281 -0.432403 -0.72711444 0.0016784917
0.0079098297 -0.011634283 -0.011096256 0.57552177 -0.49299517 -0.65248019 0.00088434428
-0.048269346 -0.0098011922 -0.012051944 -0.52734792 0.76267886 -0.37446621 0.0035856334
-0.045683444 -0.0082722018 -0.012398062 -0.46586162 0.79272771 -0.39313582 0.0023541753
0.006572823 -0.010060018 -0.013132704 0.52399004 -0.24293564 -0.81634349 0.0060874028
0.0085748089 -0.0091086198 -0.012061824 0.56421739 -0.32360053 -0.75956666 0.0022897413
0.010746828 -0.0083149085 -0.010760763 0.58496374 -0.36714387 -0.72320318 0.0047125681
-0.044363823 -0.0071576145 -0.011690656 -0.47393486 0.78794312 -0.39310488 0.0024332611
-0.042287864 -0.006237335 -0.012332105 -0.46107551 0.79196227 -0.40025628 0.0029287417
-0.040273283 -0.0052807899 -0.012692373 -0.42400241 0.80858988 -0.40792701 0.0041866298
0.0086457198 -0.0062322766 -0.012603016 0.49313533 -0.10495996 -0.86359769 0.0010330178
0.011266713 -0.0061414517 -0.011111147 0.55023301 -0.18366301 -0.8145622 0.0050813407
-0.03888604 -0.004328825 -0.012096953 -0.3766678 0.8330546 -0.40514362 0.0030242084
-0.036329672 -0.003128204 -0.012189738 -0.39379451 0.82917941 -0.39672083 0.004292096
-0.033811457 -0.0022069784 -0.01265897 -0.36564484 0.8324644 -0.41630155 0.0043252488
0.0087647839 -0.0032717027 -0.012695825 0.43552163 0.031840295 -0.89961493 0.002242082
0.011494746 -0.0032410792 -0.011200073 0.50150597 -0.021422487 -0.86488891 0.001417304
-0.032873657 -0.0013239363 -0.01159103 -0.36618116 0.83248115 -0.41579616 0.0041957698
-0.030304532 -0.0004636487 -0.012131136 -0.34024462 0.83880466 -0.42501795 0.0037480283
-0.027481709 0.00057469914 -0.012233241 -0.33614153 0.84889334 -0.40790799 0.0019001528
-0.024795264 0.0011170744 -0.012945438 -0.28783211 0.83360535 -0.47143912 0.0029795326
0.006265888 0.00052534742 -0.013192093 0.30166769 0.22523692 -0.92642593 0.0018020679
0.0086475248 -0.00012824079 -0.01245939 0.38219252 0.16588868 -0.90907085 0.0029079474
0.011559143 -0.00019390183 -0.011114596 0.44439775 0.099233016 -0.89031649 0.002984609
-0.026292793 0.0016773399 -0.010879176 -0.3320367 0.85239714 -0.40394384 0.0019784649
-0.024166297 0.0020194063 -0.01174625 -0.2833063 0.83825153 -0.46590981 0.0030363966
-0.021302382 0.0027879588 -0.011977706 -0.24975885 0.8443802 -0.47396481 0.0023112553
-0.0184999 0.0033139852 -0.012344456 -0.2062933 0.82110929 -0.53218669 0.0040172455
-0.015472016 0.0035959645 -0.012812736 -0.14099476 0.71948797 -0.68004245 0.0016843245
-0.012590121 0.003827564 -0.013098063 -0.096272029 0.67450905 -0.73196256 0.0015538248
-0.0094223563 0.0039397101 -0.013313272 -0.049803127 0.62848431 -0.77622622 0.0014248771
-0.0062605431 0.0039394484 -0.01339321 -0.009996553 0.58173239 -0.81331885 0.0014897774
-0.0033270451 0.0039395052 -0.013374574 0.0371833 0.54146701 -0.83989936 0.0015676355
-0.00014837505 0.0037759901 -0.013177097 0.092885368 0.5014165 -0.86020565 0.001402474
0.0026842318 0.0033043702 -0.013029527 0.1520061 0.4615601 -0.87398887 0.0015504273
0.0055130795 0.0028397148 -0.012576478 0.22589576 0.40920568 -0.8840372 0.0016198063
0.0086592184 0.0028126021 -0.011616169 0.31698051 0.33600795 -0.88691717 0.0024495316
0.011108478 0.0024899938 -0.010781894 0.35649112 0.30951849 -0.88153976 0.001806734
-0.017756661 0.0044925059 -0.010882377 -0.24883929 0.82694042 -0.50423068 0.0019794237
-0.015222438 0.0047776322 -0.011398777 -0.19239068 0.79381567 -0.57692504 0.0022983856
-0.012346115 0.0051660477 -0.01167223 -0.14996731 0.75794441 -0.63484645 0.002481851
-0.0093944017 0.0054439646 -0.011876337 -0.073885486 0.71607739 -0.69409949 0.0019726784
-0.0062644044 0.0057294811 -0.011901889 -0.039238162 0.68678564 -0.7258001 0.0015653716
-0.0033475221 0.0057571246 -0.011971097 0.013518523 0.6273995 -0.77858019 0.0016367722
-0.00040450413 0.0057577607 -0.011869467 0.079301447 0.5929864 -0.80129802 0.0011159212
0.0025397679 0.0057598944 -0.011565485 0.11743561 0.54563951 -0.82975078 0.0014743817
0.0053863479 0.0054896469 -0.011238879 0.20221174 0.48476374 -0.85094917 0.0010968546
0.008335433 0.0048800712 -0.010812517 0.27905735 0.43657905 -0.85529268 0.0012864299
-0.0024608169 0.0075852037 -0.010435851 -0.061396774 0.71439457 -0.69704431 0.0017485808
-0.0010969597 0.0075848945 -0.01046315 0.026881587 0.64946246 -0.75991833 0.0018870507
-0.06245536 -0.03494557 -0.0074939597 -0.15970872 -0.84898508 -0.50370371 0.0040678442
-0.060508337 -0.034876268 -0.0082780886 -0.18863821 -0.84847057 -0.49448296 0.0046446035
-0.057550855 -0.035072844 -0.0091523305 -0.21138419 -0.86900854 -0.44737107 0.0025202103
-0.054448493 -0.035633538 -0.0091686668 -0.18592505 -0.90844774 -0.37437227 0.0010862841
-0.051197354 -0.036064614 -0.0092745535 -0.10485802 -0.93458396 -0.33993769 0.0015519268
-0.049319118 -0.036080491 -0.010094078 -0.095044181 -0.94127876 -0.32397684 0.00087925629
-0.044935919 -0.036671557 -0.0086246524 -0.03773655 -0.9466449 -0.32006142 0.00074847526
-0.042651247 -0.036670566 -0.0086353095 0.0086747371 -0.94745404 -0.3197743 0.00078344933
-0.036626503 -0.036124721 -0.0096111167 0.12063984 -0.91838413 -0.37685099 0.00099301839
-0.033440582 -0.03567167 -0.0095849279 0.17349906 -0.91894817 -0.35416424 0.0018346418
-0.030286524 -0.035020038 -0.0097439997 0.22910826 -0.90446341 -0.35979897 0.0010085398
-0.028697442 -0.03480617 -0.0090714563 0.24234946 -0.91653407 -0.31816977 0.00058978575
-0.068326592 -0.032428119 -0.0084196897 -0.60324818 -0.49885812 -0.62227994 0.050717335
-0.066247322 -0.033109449 -0.0090665873 -0.35540986 -0.6764155 -0.64509362 0.019759754
-0.063428953 -0.033743881 -0.0093809236 -0.20762275 -0.79577589 -0.56888795 0.0019215752
-0.060521036 -0.034180198 -0.0097157415 -0.18866721 -0.84846967 -0.49447334 0.0046389052
-0.026945692 -0.034184765 -0.0096630771 0.26371032 -0.89377463 -0.36279985 0.00052004011
-0.024358779 -0.033505131 -0.0091812676 0.30550778 -0.89293951 -0.33064178 0.00081680698
-0.021335863 -0.032456756 -0.0092245694 0.34301466 -0.88006324 -0.3283743 0.00085846416
-0.019648317 -0.032179974 -0.007730918 0.35304484 -0.88430268 -0.30556184 0.00055461319
-0.068865485 -0.030166304 -0.0085507724 -0.64723086 0.0039845482 -0.76228362 0.02098133
-0.067243159 -0.030282009 -0.0098852282 -0.56076789 -0.049268819 -0.82650584 0.012510976
-0.018307574 -0.031247569 -0.0093803797 0.36271438 -0.87820119 -0.31177071 0.00055915647
-0.01531431 -0.030005883 -0.0092358785 0.3820869 -0.86567301 -0.32345 0.0012288704
-0.013115297 -0.02902687 -0.0091189062 0.40839425 -0.84747934 -0.33910623 0.0012254962
-0.068398304 -0.027563354 -0.0083160102 -0.64779663 0.37261537 -0.66446769 0.013309048
-0.066696927 -0.026939908 -0.0094868932 -0.6352846 0.35117307 -0.68781602 0.010505668
-0.011746855 -0.028199369 -0.0094492268 0.4340544 -0.83303207 -0.3430078 0.00078920455
-0.0093814367 -0.027019447 -0.0091093564 0.46368259 -0.80395508 -0.37236357 0.00087228662
-0.007193421 -0.02610597 -0.008263086 0.49228972 -0.78840584 -0.36887267 0.0006641997
-0.065760545 -0.024723282 -0.008730921 -0.64795923 0.50587881 -0.56941676 0.002579527
-0.064205498 -0.023747372 -0.0096880486 -0.66287166 0.42569053 -0.6159454 0.0059918384
-0.0060428455 -0.024877062 -0.0093642119 0.49584046 -0.77675402 -0.38832393 0.00074220315
-0.0036197286 -0.023515018 -0.0088977301 0.52030969 -0.75620061 -0.3967852 0.0012754509
-0.06304656 -0.021600841 -0.0087403012 -0.66283363 0.49875274 -0.55847764 0.0021454378
-0.061461367 -0.020280609 -0.0095164999 -0.68484133 0.53969377 -0.4896152 0.0014366071
-0.002604444 -0.022266615 -0.0098432768 0.51841563 -0.73831952 -0.43142727 0.0014368908
-0.00042589661 -0.021129891 -0.0090211201 0.54316312 -0.71497995 -0.44020161 0.0019553725
0.0017613303 -0.01998511 -0.0082401559 0.54549152 -0.70458543 -0.45387042 0.00097068551
-0.059808537 -0.018576266 -0.0099129323 -0.66928101 0.59959239 -0.43880749 0.001444623
-0.05842283 -0.017204309 -0.010053234 -0.65113455 0.59892249 -0.46617129 0.0020372663
0.00094732549 -0.019241387 -0.010249661 0.55117482 -0.64074779 -0.53446102 0.0010445836
0.0027895262 -0.018474683 -0.0092205023 0.54884166 -0.68611091 -0.47751927 0.001113449
0.0047182003 -0.017469419 -0.0083902758 0.57487828 -0.64580083 -0.50245029 0.00077347469
-0.056897774 -0.015632167 -0.0095729278 -0.63918793 0.68299735 -0.35348746 0.00074661279
-0.054521557 -0.013782496 -0.010305928 -0.5789541 0.72650647 -0.37013584 0.0033969556
0.0059229592 -0.015609289 -0.0093523776 0.5702281 -0.62787598 -0.52972788 0.00084190856
0.0079418728 -0.014462844 -0.0084752711 0.59013832 -0.60727036 -0.53193933 0.0012926291
-0.053947572 -0.013130272 -0.0094991196 -0.57895333 0.72651017 -0.37012962 0.0033978086
-0.05228423 -0.011973346 -0.010029839 -0.56992376 0.75148791 -0.3323445 0.0017115643
0.0090775965 -0.012490132 -0.0092891958 0.59635502 -0.53894997 -0.59488952 0.0024340204
0.01099302 -0.011582599 -0.0081145279 0.62873679 -0.55256516 -0.5471397 0.0009321071
-0.050571222 -0.010634938 -0.0091824103 -0.56002915 0.75911224 -0.33183727 0.0015956594
0.0098914774 -0.010452161 -0.010181633 0.58926362 -0.49379373 -0.63948119 0.0012899279
0.011775586 -0.0093945069 -0.0091071725 0.6250872 -0.42400268 -0.65535319 0.0017836153
0.013566782 -0.0084438268 -0.0079898257 0.64315236 -0.45873004 -0.61312455 0.0012944065
-0.045455422 -0.0074228439 -0.010068106 -0.51257485 0.79264027 -0.330134 0.0020927158
-0.042732492 -0.0058319289 -0.010009991 -0.45270157 0.81754249 -0.35592896 0.003141169
0.012548077 -0.0066051064 -0.010027118 0.63122165 -0.2845853 -0.72150564 0.0070625208
0.014364849 -0.0058994442 -0.0086887078 0.64727902 -0.31575549 -0.69377828 0.0029633164
-0.038224541 -0.0033354256 -0.0095746089 -0.41582787 0.85804349 -0.30141085 0.0011175531
-0.036403 -0.0024245176 -0.0095699793 -0.3793937 0.8510896 -0.36291441 0.0028292933
0.012768242 -0.0040068571 -0.010331893 0.53465545 -0.090626329 -0.84019667 0.0017928412
0.014620974 -0.00311345 -0.0091638789 0.61250931 -0.16860925 -0.77227157 0.0026972864
0.016605359 -0.0029046254 -0.0076836031 0.63041389 -0.20068902 -0.74986815 0.0032440317
-0.033449318 -0.0010594819 -0.009515347 -0.38782161 0.86604786 -0.31552437 0.0011377822
-0.030119244 0.00042347051 -0.0098452885 -0.36589184 0.86671221 -0.33901778 0.00090377679
-0.028439648 0.0012187567 -0.0094790924 -0.33955649 0.86356753 -0.37276348 0.00078075012
0.012767649 0.00099433027 -0.01035683 0.45539525 0.091161378 -0.88560987 0.0036700915
0.01461554 -0.00014866935 -0.009351233 0.52263367 0.02848359 -0.85208142 0.0025025427
0.016866863 -5.9315935e-06 -0.007850212 0.58641815 -0.028249534 -0.80951566 0.0023542012
-0.026848622 0.0018564072 -0.0094375061 -0.32556254 0.88989699 -0.31951883 0.0011405826
-0.024230849 0.002927314 -0.0094009284 -0.3254346 0.88382441 -0.33607548 0.0015863167
-0.02191186 0.0038004569 -0.0094484007 -0.30437884 0.88302869 -0.35723078 0.0026622869
0.012212685 0.0031743017 -0.010069156 0.3974728 0.25649881 -0.88103563 0.0029275471
0.014626113 0.0028138258 -0.0089665642 0.48466396 0.16566984 -0.858868 0.0014858518
0.016806051 0.0025855051 -0.0077367891 0.52655303 0.1334531 -0.83960235 0.0027884252
-0.020599637 0.0045022457 -0.0087380819 -0.30200249 0.88814378 -0.34640309 0.0029418848
-0.018329676 0.0051701595 -0.0090909824 -0.27970797 0.88421148 -0.3740769 0.0024950365
-0.015339061 0.0060814605 -0.0091683092 -0.27296537 0.87419182 -0.40159497 0.0040246644
-0.012512065 0.0067671998 -0.0093849134 -0.21859936 0.84985095 -0.47954944 0.0047135069
-0.0096685495 0.0069831512 -0.010061583 -0.14837477 0.76337892 -0.62867928 0.0021476918
-0.0076901196 0.0071316869 -0.010344105 -0.12124329 0.75526416 -0.64410883 0.0038447289
0.0059499089 0.0069818129 -0.010187447 0.15019614 0.54961205 -0.82180768 0.0015651721
0.0088956216 0.0063330871 -0.0098733203 0.24052422 0.46221605 -0.85352474 0.0023504191
0.011655017 0.0057770484 -0.0092455847 0.32337603 0.40284756 -0.85623693 0.0023906904
0.014413428 0.0055502807 -0.0081762262 0.41510499 0.3278285 -0.84865564 0.0013593538
0.01649522 0.0044159801 -0.0075514782 0.4510752 0.23297843 -0.86154056 0.0043516634
-0.011665896 0.0077444515 -0.0080299759 -0.26340523 0.8884902 -0.3757695 0.0021152319
-0.009156188 0.0080638267 -0.008616643 -0.21608883 0.82881868 -0.51610577 0.0029715018
-0.006271319 0.0084309485 -0.0089329295 -0.11748571 0.79561877 -0.5942961 0.0021630104
-0.0034108041 0.0087778941 -0.0090399683 -0.12052152 0.75313646 -0.64673024 0.0020118002
-0.00035309652 0.0088607799 -0.0091959508 -0.051313192 0.72390229 -0.68799156 0.0021936377
0.0025384249 0.0087399185 -0.0092599094 0.050134946 0.66625375 -0.74403787 0.0014181882
0.0055031879 0.0087441616 -0.0089601055 0.11398593 0.61738777 -0.77835691 0.0013860482
0.0086465338 0.0086947232 -0.008419252 0.18713252 0.56567448 -0.80311513 0.0017953914
0.011474808 0.0082461685 -0.0079640271 0.27742478 0.500723 -0.81994629 0.0014949607
0.013443991 0.0077718361 -0.0075654355 0.33066851 0.4450759 -0.83220536 0.002881021
-0.00020829169 0.010364518 -0.007588746 -0.076491296 0.75966108 -0.645805 0.0013459257
0.002537502 0.010361675 -0.0077438224 -0.0047627953 0.74019486 -0.6723755 0.00169044
0.0055121146 0.010364862 -0.0075698877 0.076956011 0.66548645 -0.74243218 0.0012169357
-0.065479644 -0.035099044 -0.005756991 -0.22745675 -0.7987799 -0.55696875 0.0033655891
-0.063905269 -0.034988727 -0.0070053879 -0.17378025 -0.83933258 -0.51509345 0.0050811647
-0.059109781 -0.035456844 -0.0068947542 -0.16883443 -0.86789566 -0.46717447 0.0022294119
-0.066438623 -0.034537502 -0.006925262 -0.39148965 -0.69784969 -0.59978473 0.023178961
-0.018303987 -0.031768166 -0.0071662832 0.36271596 -0.87820047 -0.31177074 0.00055879675
-0.016013224 -0.03085115 -0.0071781445 0.37691689 -0.87771958 -0.29587501 0.00060030306
-0.012820881 -0.029505033 -0.0068097482 0.41745585 -0.84997737 -0.32135519 0.0010023204
-0.068979964 -0.026754217 -0.0067996006 -0.73090053 0.30084342 -0.61259913 0.018983623
-0.010976924 -0.028565699 -0.0071135033 0.44777995 -0.83615172 -0.31677032 0.00058489351
-0.009147617 -0.02765795 -0.0069927839 0.45882747 -0.83218348 -0.31136495 0.00063658983
-0.0064069978 -0.026219562 -0.0065804115 0.49669141 -0.81959802 -0.28558141 0.00048687455
-0.06821879 -0.025211254 -0.0058651138 -0.6761266 0.39781716 -0.62015676 0.0081613027
-0.066824749 -0.024280962 -0.0065640719 -0.64786571 0.50598764 -0.56942654 0.0026335497
-0.0050320108 -0.025396476 -0.006542908 0.51360607 -0.79332995 -0.32685837 0.00091199717
-0.0034315805 -0.024501655 -0.0061936905 0.52377295 -0.79311532 -0.31085369 0.00061601424
-0.0012158072 -0.023227038 -0.0057545225 0.52340257 -0.79026741 -0.3186332 0.0008167359
0.00012844242 -0.022074856 -0.0064744335 0.53987122 -0.77751118 -0.32251433 0.00054999499
0.002377823 -0.020662628 -0.0060046688 0.53948647 -0.76725537 -0.34680486 0.0015067459
0.0041488744 -0.0199978 -0.0045363773 0.56522083 -0.75497258 -0.33247831 0.0011496275
0.0034538312 -0.019411007 -0.0069703776 0.55273521 -0.73911601 -0.38495615 0.00136588
0.0055223247 -0.018276094 -0.0060200468 0.57503402 -0.74387437 -0.34056836 0.00097499019
0.0077112578 -0.01684816 -0.005386563 0.58808118 -0.70697773 -0.39286512 0.0013169129
0.0068916725 -0.01666663 -0.006855892 0.5968011 -0.68059742 -0.42498901 0.00091201352
0.008917504 -0.015248362 -0.0062566581 0.61485273 -0.65643525 -0.43709132 0.0021236197
0.01058692 -0.014321337 -0.0053153206 0.62243009 -0.64490408 -0.44348568 0.00087776734
0.010095092 -0.013446445 -0.0071609188 0.60176486 -0.60069591 -0.52634907 0.0014070494
0.011932961 -0.012437036 -0.0060367268 0.63954484 -0.6200074 -0.4545033 0.0008050453
0.013610252 -0.011216388 -0.0053125573 0.65011799 -0.5770613 -0.49431461 0.0011111154
0.012839102 -0.010234589 -0.007342862 0.63876933 -0.53362501 -0.55427259 0.00044121401
0.014741019 -0.0091336127 -0.006073304 0.67551649 -0.47769147 -0.56168342 0.0013977367
0.016357247 -0.0084719528 -0.0046905149 0.67850125 -0.5235604 -0.51528686 0.0010445453
0.015740916 -0.0068591777 -0.0067817708 0.68958664 -0.40767869 -0.59855533 0.0025147102
0.01734639 -0.0058541419 -0.005624447 0.69020581 -0.40647373 -0.59866101 0.0023126889
0.017977647 -0.0032172089 -0.0063402234 0.6619367 -0.24144828 -0.7096073 0.0017751921
0.019599538 -0.0026846768 -0.0049079824 0.69861466 -0.2962971 -0.65126455 0.002072023
0.018240776 -0.00028020283 -0.0067533846 0.63661665 -0.078218654 -0.76720351 0.0019462833
0.020011183 -3.8842205e-05 -0.005283189 0.66844821 -0.14043151 -0.73038059 0.0035445946
-0.023791347 0.0035012127 -0.0073137749 -0.3251864 0.89301378 -0.31109524 0.0011515329
0.01813389 0.0029442017 -0.0068155774 0.57502764 0.078248657 -0.81438339 0.0019283193
0.020249888 0.0028155441 -0.0052853981 0.60707182 0.036778744 -0.79379541 0.0034291572
-0.020590264 0.0048752935 -0.0072384346 -0.31992707 0.89366323 -0.31466272 0.0013327767
-0.018579189 0.0057986253 -0.0062525142 -0.30670881 0.90774006 -0.2862477 0.0010531017
-0.015589269 0.0069907005 -0.0063960957 -0.31468028 0.90442348 -0.28808773 0.0013901625
0.015592485 0.0067082248 -0.0071402299 0.3807646 0.33842519 -0.86051542 0.0020185227
0.017708749 0.0058318251 -0.0063898638 0.49998173 0.24468988 -0.83074975 0.0019331636
0.019994266 0.0056488249 -0.0050312635 0.54172802 0.21378243 -0.81291312 0.0025447325
-0.014233886 0.0076395334 -0.0058537591 -0.32690883 0.89780915 -0.2950753 0.0013057622
-0.012302344 0.008262815 -0.0061335517 -0.30381066 0.90011114 -0.31224832 0.0022720096
-0.0094022127 0.0092444103 -0.006104371 -0.26124534 0.90181208 -0.34421775 0.003698366
-0.0066810027 0.0097852144 -0.0066756355 -0.20175968 0.85214216 -0.48285276 0.0026283264
-0.004559536 0.0099112 -0.0073406566 -0.17625062 0.82844013 -0.53162265 0.005246371
0.0098643424 0.0099124815 -0.0072658677 0.18161203 0.58319002 -0.79177421 0.0011550577
0.01199191 0.0094894934 -0.0070048124 0.2206364 0.54808176 -0.80679977 0.0016587838
0.014791609 0.0088573974 -0.006402147 0.3533088 0.43611741 -0.82763183 0.0011256933
0.017591558 0.0086970925 -0.0052343104 0.42129475 0.39292476 -0.81738657 0.0015771528
0.019506533 0.0078071817 -0.0046671396 0.4583832 0.35943753 -0.81282812 0.001528669
-0.0059714713 0.010556331 -0.0054931641 -0.3001264 0.87466884 -0.38062915 0.0034279458
-0.003337122 0.010986285 -0.0059362478 -0.19412582 0.85143083 -0.48721734 0.0026270035
-0.00040149083 0.011519551 -0.0059837713 -0.15490206 0.81732899 -0.55495828 0.0026595483
0.0025736392 0.011816155 -0.0060561369 -0.059721701 0.78381711 -0.61811346 0.0028889296
0.0055225734 0.012004379 -0.0059275427 -0.018390685 0.75041342 -0.66071296 0.0021315033
0.0086153867 0.011713158 -0.0059536421 0.1284055 0.65013808 -0.74888754 0.0016937251
0.011575191 0.011576822 -0.0055407304 0.20289636 0.60520947 -0.76977569 0.0013429943
0.014372322 0.011090109 -0.0051417816 0.26986986 0.54959959 -0.79063928 0.0014902529
0.016496323 0.010602346 -0.0046692779 0.3703014 0.49246371 -0.7876271 0.0012350547
-0.0027695224 -0.024632001 -0.0041369665 0.51835167 -0.80515963 -0.28814846 0.00028010251
-4.3483451e-06 -0.023046972 -0.0036382694 0.53578854 -0.80773652 -0.24595217 0.00013381362
0.00092116185 -0.022322962 -0.0041795541 0.5378558 -0.79105836 -0.29144067 0.00074530736
0.0027662134 -0.021252126 -0.003531127 0.55550289 -0.78099012 -0.28543127 0.00033069265
0.0046191104 -0.020261712 -0.0024601887 0.57049847 -0.77235287 -0.27928931 0.00029681285
0.0061196545 -0.019035233 -0.0030616019 0.57891095 -0.75813627 -0.30015236 0.00061276817
0.008213236 -0.017453993 -0.0030865902 0.5998674 -0.73179591 -0.32347152 0.00079375244
0.0095413653 -0.016200043 -0.0035601922 0.60685796 -0.72895163 -0.31678531 0.00080838375
0.011236333 -0.014961548 -0.0030256975 0.62349737 -0.70848447 -0.33060655 0.0013526349
0.012780913 -0.013437985 -0.0033029187 0.64435804 -0.67850894 -0.35274386 0.0010269744
0.014470861 -0.011964955 -0.0029182006 0.6502794 -0.6608898 -0.37464845 0.00082317193
0.016216502 -0.010864848 -0.0018262435 0.65515554 -0.64891386 -0.38688752 0.0014324659
0.015535756 -0.01018405 -0.0039209789 0.66210091 -0.60238564 -0.44581822 0.00090757723
0.017154943 -0.0090710185 -0.0028388654 0.68403274 -0.58521444 -0.43545759 0.00068347779
0.018510424 -0.0067888917 -0.0034214193 0.70727682 -0.50894296 -0.4906491 0.0011991221
0.019929297 -0.0056637228 -0.0025025923 0.71656078 -0.46781027 -0.51739168 0.0016839788
0.020837795 -0.0033197789 -0.0030953777 0.71392697 -0.34711403 -0.60812843 0.0015334601
0.022366107 -0.0024016108 -0.0017349664 0.73892587 -0.3773182 -0.55822891 0.0012979634
0.021386068 -0.00043098908 -0.0038291444 0.69853282 -0.19437449 -0.68867308 0.0022385989
0.022837412 3.765896e-05 -0.0024154466 0.72650522 -0.25853878 -0.6366694 0.0025437593
0.021680463 0.0028160615 -0.0041274847 0.65040928 -0.017544104 -0.75938135 0.0028704235
0.023260146 0.0028800294 -0.0026887436 0.69697046 -0.080994748 -0.71251106 0.0045066955
0.02133948 0.0060753427 -0.0040152371 0.58488858 0.15911801 -0.79535317 0.001983746
0.023314416 0.0057689403 -0.0025412757 0.62922716 0.11566535 -0.76856661 0.0036304111
-0.014766064 0.0076605738 -0.0040779579 -0.3192226 0.90201944 -0.29061651 0.0012134118
-0.011535592 0.009044325 -0.0041030813 -0.29886511 0.90841979 -0.29232359 0.0018743855
-0.0098678693 0.0098269656 -0.0032950011 -0.32624915 0.91581124 -0.2342035 0.0012734933
0.018795025 0.0096197743 -0.0041854996 0.44533771 0.37705803 -0.81209695 0.0022676147
0.020645745 0.0089142155 -0.0034794868 0.51231629 0.30834389 -0.80153358 0.0018560276
0.022968616 0.0086887907 -0.0020846124 0.55185407 0.28401759 -0.78408617 0.0021501833
-0.0085814446 0.010458952 -0.0024331529 -0.32933155 0.91638982 -0.22753124 0.0016183684
-0.0062449235 0.011227738 -0.0033805151 -0.32922807 0.9074018 -0.2612105 0.002824476
-0.0033703269 0.012295054 -0.0031807967 -0.2987859 0.90319395 -0.30816817 0.0051149908
-0.00066671474 0.012948662 -0.0034615011 -0.22652398 0.87514704 -0.42755631 0.0044892919
0.0023046955 0.013195174 -0.0041552414 -0.1184161 0.82731164 -0.54912031 0.0024325293
0.0117033 0.013136702 -0.0041886363 0.13102742 0.6615417 -0.73837286 0.0013608298
0.014695694 0.012668543 -0.0038505411 0.21822912 0.61500615 -0.75772262 0.00098715012
0.017673694 0.011967666 -0.0032863007 0.33971825 0.52652818 -0.77933282 0.0022943725
0.020387542 0.011563115 -0.0022671251 0.4100377 0.46342012 -0.78556401 0.0019397634
0.02240916 0.010628225 -0.0016380516 0.49068451 0.38779247 -0.78028566 0.00044132638
0.0001833383 0.013842806 -0.002076183 -0.29106608 0.87874562 -0.37826812 0.0036070906
0.0026502972 0.014097739 -0.002769202 -0.17137307 0.83833253 -0.51752281 0.0047312765
0.0056190118 0.014460547 -0.0029206085 -0.082116932 0.80231398 -0.5912267 0.0042827069
0.0085484711 0.014613772 -0.0029600798 -0.017060271 0.76778662 -0.64047849 0.0018759182
0.011559251 0.014618732 -0.0027764835 0.075522408 0.70834941 -0.70181018 0.0016064013
0.014506831 0.014486855 -0.0023839949 0.18445319 0.65332478 -0.73426402 0.0016506942
0.017345037 0.014062837 -0.0018960945 0.28761509 0.58880079 -0.75537491 0.0011313308
0.0089661749 -0.017563511 -0.00073457463 0.59659541 -0.742571 -0.30440477 0.00084452942
0.01196289 -0.015400913 -0.00010646693 0.62782049 -0.73133314 -0.2664457 0.0004823753
0.013950451 -0.013879407 0.00020346371 0.6424405 -0.7188822 -0.26547796 0.00065182883
0.015206347 -0.012648912 -9.3659852e-05 0.63923192 -0.72071511 -0.26823932 0.00068963243
0.016642194 -0.011290571 -0.00012800563 0.66466784 -0.68274158 -0.30344799 0.0015658918
0.018322576 -0.0094802761 -0.000224791 0.69489819 -0.61927998 -0.36552534 0.0017299056
0.019701831 -0.0082906429 0.00031878846 0.69810581 -0.59639096 -0.39618954 0.0011871881
0.020972781 -0.0063783298 -0.0001320336 0.7192114 -0.55718392 -0.41506761 0.00099787978
0.022488892 -0.0052339118 0.00096258335 0.73255837 -0.50911313 -0.45184308 0.0010660699
0.021819476 -0.0043852571 -0.00098101981 0.73557884 -0.49237168 -0.46528912 0.0013804623
0.023312107 -0.0031545518 0.00018383656 0.75093782 -0.44919109 -0.48406598 0.00095012691
0.024245307 -0.0004275064 -0.00040806411 0.75183582 -0.29559165 -0.58937985 0.0015594331
0.025508571 0.00025152322 0.00088447798 0.76474297 -0.35202053 -0.53967565 0.00076591765
0.024918772 0.0025852853 -0.00095917797 0.72492427 -0.13886623 -0.67468578 0.0032454908
0.026213519 0.0029181992 0.00046246964 0.7502284 -0.20601839 -0.62826252 0.0043365266
0.024963189 0.0060956548 -0.0010987986 0.67286599 0.055518996 -0.73767811 0.002594955
0.026543975 0.0058489102 0.0004072478 0.70647258 0.00077322533 -0.70773995 0.0035096109
0.024534326 0.009011995 -0.00081593404 0.60425222 0.22502336 -0.76435846 0.0020583954
0.026366029 0.0088567827 0.00063313264 0.6346342 0.18920106 -0.74929458 0.0032406286
-0.0079321619 0.010958081 -0.00057821162 -0.34810162 0.91442972 -0.20650287 0.0008955588
-0.0060924031 0.011911919 0.00048942678 -0.36887306 0.90546942 -0.20989926 0.00077929965
-0.0035600672 0.012911316 -0.00059539545 -0.35802084 0.89152926 -0.27748272 0.0021881047
0.021352392 0.012807952 -0.0010383595 0.37161231 0.51266783 -0.77399993 0.0010687973
0.023512557 0.011841783 -0.00030014478 0.50835043 0.40615401 -0.75935411 0.0029439055
0.025695179 0.011400245 0.00096592866 0.56650531 0.34053507 -0.75040495 0.0012730899
-0.0025243247 0.013631638 0.0009073345 -0.36521062 0.89504266 -0.25596845 0.00092114316
-0.00023541972 0.014436733 -1.0844786e-05 -0.31316057 0.90219653 -0.29660058 0.0017571617
0.0026109656 0.015374426 -0.00016317051 -0.27208757 0.89146537 -0.36229536 0.0046215197
0.0053625191 0.015879529 -0.00062882574 -0.17833799 0.86877149 -0.46198663 0.0042466098
0.008572991 0.016057553 -0.0011274484 -0.069830261 0.81860536 -0.57009566 0.0019591053
0.011590711 0.016054222 -0.0012337561 0.031176068 0.7495392 -0.66122538 0.0015357967
0.014801075 0.015874855 -0.0010292041 0.13240729 0.70539957 -0.69633305 0.0013728897
0.017811056 0.015412137 -0.00061569596 0.22593592 0.63837188 -0.73582226 0.00097964541
0.02066911 0.014898453 8.1724022e-05 0.32299459 0.56877482 -0.75641906 0.00091435976
0.023348588 0.014192265 0.00096280966 0.43082672 0.49728864 -0.75305533 0.0017615126
0.0058450093 0.016722947 0.00075244159 -0.25160286 0.86249548 -0.43908727 0.0028545102
0.0086546717 0.017086828 0.00038257148 -0.13418452 0.8347047 -0.5340997 0.002396404
0.011621374 0.017267309 0.00027259672 -0.030007653 0.79572797 -0.60491037 0.0026268507
0.014654978 0.017272037 0.00041540898 0.083938457 0.73760158 -0.66999876 0.0021436187
0.017530024 0.017116023 0.00082802027 0.1949051 0.67670161 -0.7099908 0.0015478246
0.020145085 0.016693985 0.0012981901 0.30453619 0.62144142 -0.72185057 0.0015350287
0.013769238 -0.014504829 0.0022744369 0.64331907 -0.72330493 -0.25093904 0.00085127581
0.015664056 -0.013127046 0.0030169915 0.64691806 -0.72538275 -0.23519523 0.00064360036
0.017364163 -0.011543259 0.002405229 0.66550833 -0.70281386 -0.2512992 0.00090468262
0.018690232 -0.010294715 0.0023966562 0.6702106 -0.70094484 -0.24391405 0.00072598958
0.02051691 -0.008666534 0.0028592944 0.69824231 -0.65621388 -0.2860786 0.00084389799
0.021817561 -0.0070964191 0.0025068056 0.712695 -0.63396108 -0.30026537 0.001435356
0.023277596 -0.0056445487 0.0030558081 0.73623848 -0.58639574 -0.33777648 0.0021431255
0.024468631 -0.0037898887 0.0027443003 0.7613554 -0.52573758 -0.37939146 0.0012617949
0.025593143 -0.0026374662 0.0034072418 0.76115572 -0.50375628 -0.40849921 0.0025297028
0.026629068 -0.00028755842 0.0030271532 0.77353257 -0.38839915 -0.50079292 0.00073292339
0.028173048 0.0011739489 0.0043858718 0.79031271 -0.39665008 -0.46698454 0.0002551474
0.027620591 0.0028012651 0.0023164786 0.77758223 -0.25229082 -0.57594728 0.0026640429
0.028736986 0.0030551413 0.0037968829 0.79073006 -0.30738342 -0.52939725 0.0023023353
0.02803291 0.0058605834 0.0019776784 0.7443859 -0.056039173 -0.66539407 0.0032227363
0.029235348 0.0059615574 0.003392159 0.77975142 -0.12189301 -0.61410892 0.0045232289
0.027848411 0.0090900883 0.0020220112 0.68414897 0.13057181 -0.71755916 0.0022644857
0.029291756 0.0089234412 0.0034291837 0.72446984 0.08232028 -0.68437332 0.0030601753
0.027216796 0.011873858 0.0023624171 0.60866672 0.28571922 -0.74019551 0.0014696654
0.029029571 0.011644538 0.0038456516 0.65202409 0.2581377 -0.71290213 0.0024409515
0.00018705055 0.01525026 0.0030391496 -0.37009686 0.89824647 -0.23702668 0.00054845633
0.0020631151 0.016054755 0.0025286432 -0.33689037 0.89933771 -0.278741 0.002048803
0.02193284 0.016142314 0.0015848409 0.3276704 0.58446676 -0.74231446 0.00098073168
0.023937874 0.015564173 0.0022185827 0.38386285 0.55519527 -0.73783982 0.0010677353
0.026384067 0.014689693 0.003193479 0.52846068 0.40743861 -0.74479741 0.0010902592
0.02831883 0.013951058 0.0041965377 0.57924932 0.38294753 -0.71959805 0.0016879427
0.003352426 0.016777666 0.0031431448 -0.36400712 0.88056356 -0.30349076 0.0022901809
0.005767012 0.017653337 0.0029059919 -0.32594058 0.88002878 -0.34541577 0.0042779897
0.0086270506 0.018528441 0.0028992631 -0.24903175 0.87917203 -0.40625077 0.0025931257
0.011662654 0.018740317 0.0023023318 -0.081964314 0.82974648 -0.55208927 0.0018794928
0.014701639 0.018733421 0.002117808 0.028094383 0.77119094 -0.63598371 0.0015707539
0.017633539 0.018565044 0.00230808 0.14248611 0.71494871 -0.68450421 0.0015295621
0.020711027 0.018026592 0.0027150018 0.26881495 0.65538716 -0.70583725 0.002005754
0.023493916 0.017629746 0.0035560997 0.36051792 0.59096789 -0.72165346 0.0021001871
0.025656566 0.01700961 0.0042481897 0.46439326 0.51338965 -0.72164392 0.00099862006
0.0095871398 0.019520326 0.0043086838 -0.26578704 0.8838203 -0.38499197 0.003063828
0.011887901 0.019694177 0.0037397249 -0.15224873 0.84392178 -0.51440871 0.0026578431
0.014745806 0.019968159 0.003730108 -0.036004491 0.81015158 -0.5851137 0.0022570074
0.017499313 0.019944778 0.0038393214 0.088457033 0.76273143 -0.64063734 0.0025746492
0.020211905 0.019701779 0.0041354429 0.20881161 0.70337951 -0.679452 0.0013771311
0.017359219 -0.012007544 0.0046132337 0.65468729 -0.72085696 -0.22748587 0.00052880956
0.020315655 -0.009679392 0.0055392757 0.67647916 -0.70596153 -0.20974806 0.0011405942
0.0223906 -0.0080544669 0.0065969657 0.68022513 -0.70101821 -0.21416649 0.001158839
0.023873743 -0.0062518781 0.0056915823 0.73294586 -0.61561751 -0.28949171 0.0014605676
0.025484335 -0.0049872641 0.0069817137 0.72195452 -0.62385678 -0.29930648 0.0014756639
0.026474446 -0.0032392822 0.0060254904 0.76767266 -0.53849721 -0.34741813 0.0015902565
0.027606629 -0.0011096192 0.0054570464 0.79225528 -0.47495645 -0.38307694 0.00093332288
0.02875828 0.00022211252 0.0063143698 0.79344553 -0.45055211 -0.40920284 0.00091031811
0.029841632 0.0027519069 0.0058489153 0.80188769 -0.3426252 -0.48947322 0.0020872494
0.031183589 0.0037693442 0.0072868001 0.80174845 -0.39404625 -0.44936287 0.0011120143
0.030685 0.0058856965 0.0053014141 0.79311818 -0.16934228 -0.58505279 0.0030599278
0.031669401 0.0056820069 0.0068152221 0.80950004 -0.25925881 -0.52677751 0.0054649906
0.030807398 0.0089477673 0.0051105125 0.76264912 0.020969771 -0.64647233 0.0028922379
0.032065082 0.0088045802 0.0066497773 0.78899908 -0.033676971 -0.61347067 0.003540274
0.030479811 0.011884356 0.0053085135 0.69727099 0.19931793 -0.68853873 0.0020921715
0.03195354 0.011752611 0.0068409704 0.72881573 0.15705135 -0.66645521 0.0033278423
0.027570788 0.016086664 0.004826867 0.4783656 0.4949145 -0.7254144 0.0013057283
0.029558633 0.014926778 0.0057587987 0.61191219 0.37546572 -0.69612426 0.0030197001
0.031433769 0.01415777 0.0070862044 0.66476715 0.31247342 -0.67856097 0.0013008317
0.0027657701 0.016982934 0.0058335643 -0.37796324 0.88939476 -0.25713956 0.0012612513
0.0057158042 0.018514847 0.0057616923 -0.37507197 0.89059508 -0.25721872 0.0018721371
0.0074769696 0.019073015 0.0049217474 -0.36442849 0.88854754 -0.2787025 0.001936456
0.024438769 0.018806212 0.0049825609 0.35500062 0.60058779 -0.71642786 0.00151461
0.026775897 0.018099396 0.0057820817 0.45275807 0.54792619 -0.70341104 0.0023495483
0.029148903 0.017421275 0.00691636 0.53664011 0.47488263 -0.69749832 0.0019117987
0.0087775057 0.019976674 0.0061020739 -0.33470842 0.89133811 -0.30575582 0.0042205662
0.011514361 0.020804668 0.0058984291 -0.22139573 0.87336987 -0.43383056 0.003429747
0.014506028 0.021430325 0.0059462795 -0.11474947 0.84584492 -0.52094048 0.0035147863
0.017693289 0.021412572 0.0056935744 0.039089382 0.79436696 -0.60617924 0.0013567901
0.020700146 0.02102498 0.0057323379 0.1888411 0.73240936 -0.65415257 0.0019290317
0.023530271 0.020658286 0.0062981099 0.28601795 0.67136097 -0.68371654 0.0018466578
0.026156854 0.020059412 0.007014663 0.41046688 0.59924972 -0.68732572 0.00079591305
0.015556711 0.022481879 0.0073814522 -0.16188718 0.85442233 -0.49371547 0.0022283909
0.017679963 0.022470461 0.0071293144 -0.015029897 0.8177951 -0.57531333 0.0023596464
0.020292297 0.022479676 0.0073329462 0.12862447 0.77276474 -0.62152267 0.0016815659
0.021308132 -0.0093004052 0.0089671742 0.67141622 -0.71479481 -0.19562408 0.00053312618
0.024401501 -0.0066874307 0.0090380069 0.69218755 -0.69216537 -0.20441005 0.0015738605
0.025812168 -0.0052549485 0.0087265503 0.72013831 -0.65645677 -0.22464474 0.0005000112
0.027338032 -0.0035237083 0.0086970963 0.75822574 -0.59537011 -0.26575947 0.0018158806
0.028709814 -0.0021750461 0.0095181223 0.75667351 -0.59049827 -0.28063667 0.0024148927
0.029828101 -9.6567906e-05 0.0088916998 0.79868501 -0.49283454 -0.34527722 0.0012463131
0.030648869 0.0019919593 0.0081903171 0.81887603 -0.43748179 -0.37155324 0.00085229793
0.031788349 0.0031040357 0.0092772655 0.8118282 -0.4350746 -0.38941619 0.00088514085
0.032937158 0.0057448954 0.0088832323 0.82287729 -0.2715508 -0.49913231 0.0029690063
0.034246411 0.0068781883 0.010395391 0.82923329 -0.34299609 -0.44127741 0.0035648143
0.033346452 0.0086632743 0.0084200129 0.80967301 -0.070002623 -0.58269131 0.002270963
0.034411617 0.008977782 0.0099244025 0.83566558 -0.12145913 -0.53564048 0.0032691327
0.033248127 0.01198636 0.008370759 0.76729989 0.098962523 -0.63360661 0.002121256
0.034447253 0.011875527 0.0098674446 0.80200231 0.055641204 -0.5947237 0.0027874433
0.032777168 0.014871245 0.0087788105 0.70580852 0.27048042 -0.65473253 0.0010239689
0.03432896 0.014123525 0.010214366 0.74370259 0.23973195 -0.62404734 0.0020448351
0.0060875891 0.019192254 0.0080825221 -0.40467706 0.87941438 -0.25073227 0.00090051827
0.030092984 0.018438287 0.0083626825 0.52344596 0.50525481 -0.68609178 0.0012249204
0.032145407 0.017513327 0.0095301848 0.62327313 0.39987987 -0.67203182 0.0021810692
0.0068067955 0.019701323 0.008974297 -0.40851903 0.87492621 -0.2600314 0.0011816787
0.0090117184 0.02091513 0.0087577272 -0.40846419 0.87337673 -0.26527378 0.0015106528
0.011431052 0.021875141 0.0083988439 -0.3244639 0.88407767 -0.33634779 0.0041948333
0.024504475 0.021873156 0.0079026604 0.24327512 0.70753324 -0.66348624 0.0014847068
0.027012702 0.021250706 0.0085890181 0.38817945 0.63048196 -0.67216754 0.0019606482
0.029406708 0.020580949 0.0095427241 0.47485992 0.56517237 -0.67460221 0.0016184862
0.031380046 0.019753715 0.010325355 0.56285834 0.50080281 -0.65756142 0.00042447983
0.012405057 0.022696493 0.0094910618 -0.34429774 0.87309194 -0.34520948 0.003613286
0.014726047 0.023224533 0.0090637468 -0.22966936 0.87292171 -0.43041798 0.0030663407
0.017795678 0.023714613 0.0090161972 -0.055789243 0.84460258 -0.53247923 0.00095043448
0.020643879 0.023697298 0.0089999679 0.037531167 0.81547046 -0.57758051 0.0017406234
0.023442697 0.023381716 0.0092213005 0.20831783 0.74381638 -0.63509113 0.0018343437
0.026316699 0.022970691 0.0099074636 0.33308211 0.68585086 -0.64704323 0.0013435578
0.026683945 -0.0050682221 0.011677815 0.73078293 -0.64451933 -0.22483556 0.00058813824
0.027400341 -0.0043503735 0.011657251 0.74294263 -0.62762254 -0.23265041 0.001200019
0.029173143 -0.0025202972 0.011970643 0.75529099 -0.61317664 -0.23140883 0.00075320044
0.030589897 -0.00060401298 0.011666946 0.78298366 -0.54089868 -0.30718902 0.0021195826
0.031694125 0.00076509081 0.012215795 0.80221868 -0.5075289 -0.31441945 0.00068863685
0.032818098 0.0028433893 0.012050917 0.81665921 -0.47601351 -0.32631069 0.00072784128
0.033709545 0.0048550949 0.011244474 0.83991045 -0.39408094 -0.37316301 0.0035028763
0.034754142 0.0060807173 0.012143079 0.83936197 -0.3964217 -0.37191585 0.0037056038
0.035630204 0.0088324565 0.012006244 0.85849363 -0.19695081 -0.47349656 0.0049770358
0.036047228 0.011922995 0.012135467 0.85107023 -0.017212037 -0.52476966 0.0024718863
0.035587981 0.014837591 0.012038151 0.75738609 0.21960393 -0.61493134 0.0015584967
0.033390086 0.018266663 0.011177659 0.65995866 0.35970479 -0.65959603 0.0016126601
0.034991302 0.017512217 0.012439314 0.69651514 0.33697873 -0.63349175 0.0014639318
0.0091415932 0.021549391 0.011403106 -0.43919766 0.86763579 -0.2330526 0.00030484301
0.010403813 0.022156766 0.010744823 -0.4063665 0.87415171 -0.26594213 0.0015642713
0.030352846 0.021744048 0.011231447 0.48179647 0.58144957 -0.65558255 0.0004091913
0.032641251 0.020741235 0.0122275 0.58411759 0.49078143 -0.646483 0.0014449303
0.034606665 0.019545646 0.013209723 0.63142669 0.45417389 -0.62851131 0.0013552485
0.01198016 0.023286732 0.011930687 -0.3963896 0.87603563 -0.27465764 0.0016464292
0.014515671 0.024501167 0.012108101 -0.31775749 0.88361543 -0.34388071 0.0050539691
0.017315473 0.024940994 0.011263179 -0.15385675 0.87854558 -0.45220104 0.0036268043
0.02067234 0.025027703 0.010880359 0.0080886642 0.83333534 -0.55270863 0.0021503174
0.023789212 0.024882507 0.011155831 0.15949045 0.77384669 -0.61296338 0.0014807099
0.026718892 0.024306726 0.011582185 0.31129584 0.71051091 -0.63108557 0.0020213593
0.02942105 0.02365076 0.012408908 0.39197066 0.66224682 -0.638583 0.00078724494
0.031732667 0.022910019 0.013303561 0.50266325 0.58847314 -0.63326854 0.00031919396
0.017888818 0.025771478 0.012654912 -0.23494688 0.87509948 -0.42308497 0.0038779145
0.020806421 0.026038177 0.012454012 -0.050475344 0.85803741 -0.51110089 0.0024467276
0.023499608 0.026015732 0.012632133 0.10748431 0.81663173 -0.56706244 0.0022882503
0.026099861 0.02579901 0.013079459 0.26155892 0.75654924 -0.5993498 0.0016664824
0.032232828 0.00033820979 0.014807649 0.78546637 -0.58504432 -0.20190541 0.0018565081
0.033586819 0.0025051464 0.014660694 0.80957115 -0.52807623 -0.25637865 0.0013504263
0.034466643 0.0033893394 0.015757356 0.80623853 -0.52913827 -0.2645604 0.0012830691
0.035657391 0.0057387049 0.014833262 0.84108156 -0.44386154 -0.30914184 0.0018253495
0.036793999 0.0085525531 0.01440797 0.87246418 -0.29922307 -0.38635713 0.0059092282
0.037648126 0.0094096642 0.01557412 0.85918063 -0.31624046 -0.40224439 0.0056548384
0.037939779 0.011961123 0.015235141 0.85915184 -0.081412174 -0.50520313 0.0043261927
0.036897186 0.01532468 0.013870975 0.80866498 0.14435458 -0.57028306 0.0016759131
0.037977535 0.014885399 0.015374865 0.84013844 0.082495652 -0.53606153 0.0026177031
0.036490694 0.017958738 0.014451062 0.75286174 0.29566917 -0.58802962 0.00099423935
0.037726048 0.017603105 0.015867071 0.78041548 0.26859668 -0.56463039 0.0018825387
0.033660658 0.021819217 0.013989357 0.58391643 0.51801717 -0.62505978 0.00068958482
0.035674442 0.020637512 0.015146639 0.67776 0.4080348 -0.61167711 0.00098686607
0.011924562 0.023912525 0.015004305 -0.43523499 0.86736113 -0.24136101 0.00041594074
0.013847551 0.025069546 0.014875714 -0.37699208 0.8718887 -0.31254917 0.0025064636
0.030232359 0.024761613 0.014061665 0.37186041 0.68381768 -0.62778437 0.0013483041
0.032629635 0.023907444 0.014996478 0.47752267 0.62277645 -0.61977541 0.0010174243
0.034764752 0.022931704 0.015983814 0.59647214 0.52487963 -0.60722506 0.00049219647
0.015393804 0.025913529 0.015040847 -0.38451272 0.86663938 -0.31794053 0.0021863109
0.017642356 0.026780475 0.015025001 -0.30539647 0.87835187 -0.36773768 0.0048183911
0.020703617 0.027525913 0.01510804 -0.12806749 0.87842268 -0.4604046 0.0038177625
0.023825247 0.02754882 0.014970614 0.03530138 0.85530043 -0.51692837 0.0024552804
0.026672807 0.027110267 0.015051922 0.24330129 0.76957923 -0.59038317 0.0013293487
0.029318344 0.026404649 0.01537778 0.35418218 0.71368545 -0.60432434 0.0011373124
0.03176108 0.025781175 0.016215941 0.43812317 0.67105985 -0.59810257 0.00050318206
0.030905459 -0.001781011 0.017992659 0.7709024 -0.61063665 -0.18119703 0.00064596999
0.032359779 -0.00032417523 0.017958118 0.77493757 -0.6037671 -0.18691456 0.0010220825
0.033748902 0.0016172286 0.017013742 0.7864244 -0.58918107 -0.18547854 0.0013999118
0.035029516 0.0032322812 0.017991923 0.81011468 -0.54642749 -0.21244098 0.00052984868
0.036456529 0.0055740601 0.017617477 0.83414268 -0.4759514 -0.27870455 0.0015204933
0.037436828 0.0064734532 0.018806878 0.83137971 -0.48406765 -0.27292153 0.001363519
0.038436465 0.0086517688 0.018124996 0.85998762 -0.37937373 -0.34131646 0.0047335033
0.039275862 0.011736803 0.017904544 0.88265795 -0.13180342 -0.45115709 0.0024053648
0.040245131 0.013050279 0.019458754 0.91371864 -0.15552282 -0.37540764 0.0058961739
0.039368086 0.01494774 0.017649379 0.85924107 0.047933023 -0.50932038 0.0019207244
0.040225092 0.014990658 0.019217271 0.88546556 -0.0018047469 -0.4647015 0.0028365951
0.039053582 0.017963991 0.017951451 0.80443168 0.23351578 -0.54622352 0.0020201798
0.040246088 0.016944645 0.019470317 0.86147535 0.13345133 -0.48995003 0.0026385589
0.0368044 0.021298697 0.016876362 0.69891942 0.39466009 -0.596452 0.0016512837
0.038179543 0.020735234 0.01820825 0.72767633 0.38098952 -0.57038081 0.0011100216
0.033735137 0.024844339 0.016814126 0.51312488 0.60683298 -0.60700619 0.00042214998
0.03574999 0.023927907 0.01788534 0.60145378 0.52969676 -0.59805912 0.0026514432
0.037474688 0.02290508 0.018876232 0.6675809 0.47883171 -0.5701369 0.001111354
0.014649446 0.02619086 0.0178845 -0.47028112 0.85803235 -0.20643698 0.0011829865
0.017453875 0.027735617 0.017834984 -0.41319489 0.87371176 -0.2567054 0.0024053054
0.019707449 0.028239608 0.016954921 -0.19276224 0.89981848 -0.39136866 0.0049687061
0.027447313 0.028234251 0.016861074 0.17648062 0.81798315 -0.54750168 0.0014183824
0.029855032 0.027696274 0.017333154 0.31095621 0.75803399 -0.57331556 0.0011662499
0.032680374 0.026733983 0.018021705 0.44900879 0.67192328 -0.58899075 0.0024120219
0.034903165 0.025810394 0.018865172 0.5533734 0.58965492 -0.58828974 0.00098365266
0.018322803 0.028513104 0.018904243 -0.42420247 0.86330271 -0.27342409 0.0021483682
0.020770501 0.029063012 0.018230338 -0.21344291 0.88667011 -0.41019303 0.0049238629
0.023547322 0.02923581 0.017826656 -0.038700376 0.88462597 -0.46469253 0.0029848225
0.02670959 0.029314313 0.018312333 0.12447564 0.84106719 -0.52641398 0.002419017
0.029741932 0.028831977 0.01881345 0.27626264 0.78904319 -0.54871637 0.002068847
0.031719118 0.028375309 0.019331155 0.39490154 0.72265184 -0.56729805 0.0013203832
0.033962667 0.001123121 0.020113302 0.78207731 -0.5971989 -0.17806877 0.0011325289
0.035501055 0.0028784303 0.021165766 0.80349565 -0.56642413 -0.18318945 0.00020620527
0.036686152 0.00478196 0.02067749 0.80487061 -0.56120515 -0.19295603 0.00014552168
0.037952993 0.0063314657 0.02128817 0.81351751 -0.5409019 -0.21357529 0.00052339607
0.039474797 0.0087263249 0.021108154 0.84615582 -0.47581303 -0.24004641 0.00290601
0.040479932 0.0099322703 0.022288544 0.86470169 -0.41216224 -0.28707698 0.0056066974
0.039789636 0.010379827 0.019840313 0.89099842 -0.31491876 -0.32702902 0.0096559497
0.040672813 0.011817718 0.021075616 0.91514051 -0.22903325 -0.33175552 0.0039611803
0.041108739 0.014796006 0.021032812 0.91471732 -0.064425059 -0.39892554 0.0023945293
0.040927112 0.018093981 0.021047868 0.87884313 0.12953685 -0.45918956 0.0026827762
