# .PCD v0.7 - Point Cloud Data file format
VERSION 0.7
FIELDS x y z normal_x normal_y normal_z curvature
SIZE 4 4 4 4 4 4 4
TYPE F F F F F F F
COUNT 1 1 1 1 1 1 1
WIDTH 552
HEIGHT 1
VIEWPOINT 0 0 0 1 0 0 0
POINTS 552
DATA ascii
0.0084082745 0.035772633 -0.002883215 0.23467737 -0.2533702 -0.93847215 0.0016915381
0.011078765 0.035981052 -0.0020995676 0.36391571 -0.20049615 -0.90959692 0.0018840078
-0.008626054 0.039777339 -0.0019572582 -0.54255337 -0.47840163 -0.69048369 0.0023308189
-0.006556266 0.038938571 -0.0027070285 -0.42523903 -0.45481521 -0.78250557 0.002539556
-0.0036421234 0.038833577 -0.0038037687 -0.2519846 -0.4351964 -0.86435401 0.0016069541
-0.00062276836 0.038264409 -0.0041959342 -0.13239302 -0.39661554 -0.90838766 0.0013775432
0.0022887464 0.038001548 -0.0042988597 -0.001418932 -0.35135981 -0.93623942 0.0011571
0.0055718659 0.038518682 -0.0042189737 0.14154726 -0.28603154 -0.94770795 0.0020930185
0.0083634127 0.038804404 -0.0036754371 0.27347645 -0.2309079 -0.93375164 0.0021250886
0.011237139 0.038853854 -0.002621368 0.4262377 -0.16591823 -0.88926524 0.0025241086
0.013026068 0.039169859 -0.0017215702 0.55768734 -0.11308939 -0.82231116 0.002079518
-0.011257634 0.042918433 -0.0019727331 -0.61278462 -0.46510097 -0.63888663 0.0017960825
-0.0093567902 0.041997846 -0.002894232 -0.5135442 -0.49312389 -0.70221168 0.0040629786
-0.0068113352 0.041301381 -0.0039324113 -0.36325184 -0.46224445 -0.80893648 0.0014406968
-0.0048217289 0.04065147 -0.0043752594 -0.28440294 -0.46611378 -0.83776665 0.0035317419
0.0087550851 0.041479617 -0.0041756555 0.29908273 -0.22318234 -0.92776024 0.0016052495
0.011265107 0.041891813 -0.0030745396 0.46290141 -0.11628021 -0.87874979 0.00303139
0.013161085 0.041641682 -0.0018810562 0.62789083 -0.045975309 -0.77694231 0.0029384613
-0.012174357 0.045031652 -0.0026873066 -0.60344523 -0.49083447 -0.62843895 0.0018998996
-0.010218483 0.044496357 -0.0040123574 -0.4634113 -0.49078301 -0.73782253 0.0021360035
0.0094364369 0.044550758 -0.0044473875 0.4651995 -0.10319022 -0.87917072 0.0035146445
0.011491631 0.044872139 -0.0032294097 0.56139761 -0.051465381 -0.8259443 0.0043050586
0.013378522 0.044825412 -0.0017664891 0.70434022 0.031557385 -0.70916086 0.0046814051
-0.014654132 0.048415203 -0.0025603049 -0.73257732 -0.46569484 -0.49644601 0.0018938422
-0.013167659 0.047489792 -0.0036379201 -0.64261258 -0.48110333 -0.59631252 0.0047037019
0.011162415 0.047824364 -0.0035292036 0.61066753 0.01095497 -0.79181129 0.0053751064
0.013021941 0.047643278 -0.00187462 0.72513235 0.10921064 -0.67989427 0.0027257376
-0.015715692 0.050760284 -0.0031239428 -0.78430259 -0.45056787 -0.42644814 0.0015414899
0.011198305 0.050802328 -0.0032006912 0.72132105 0.16626848 -0.67234719 0.003854031
0.012910709 0.049557436 -0.0016253496 0.76671946 0.18403426 -0.61503875 0.0033408534
-0.017550308 0.054067325 -0.0030007591 -0.85627598 -0.39138219 -0.33706295 0.0031018644
-0.016526936 0.052951626 -0.0039734449 -0.77345127 -0.45253202 -0.44383314 0.0057456596
0.0094391694 0.054060463 -0.0043050442 0.70079553 0.16831706 -0.69322079 0.0049302583
0.010800571 0.053690903 -0.0028604746 0.77049536 0.26476112 -0.57986069 0.0032637445
-0.018664105 0.056794763 -0.0031731012 -0.88374704 -0.34129629 -0.32016885 0.0017455424
0.0090223653 0.057029415 -0.0036131795 0.77522284 0.32183859 -0.5435527 0.0056434353
0.010200071 0.056340005 -0.0023414399 0.78726059 0.3740921 -0.49017945 0.0031076737
-0.019623781 0.059891626 -0.0032398272 -0.93086177 -0.25574657 -0.2609407 0.0014869436
0.0067432877 0.060744133 -0.0042890664 0.76947528 0.4185299 -0.48243183 0.0036830599
0.0080048563 0.059753876 -0.0031324993 0.7744084 0.41615489 -0.47655714 0.0038194605
-0.020002924 0.062206309 -0.003895564 -0.91027153 -0.29951969 -0.28582105 0.0039363834
0.0058740876 0.062919334 -0.0034312326 0.75802666 0.47247744 -0.44962272 0.0033392184
0.0072437907 0.062001746 -0.0020329561 0.79117531 0.4891203 -0.36715528 0.0032588348
-0.020499302 0.064633884 -0.0033497419 -0.91201049 -0.31680721 -0.26051876 0.0048586437
0.0029940736 0.066436671 -0.0038580154 0.70158982 0.6055963 -0.37553266 0.0016520962
0.004543162 0.065051779 -0.003025284 0.73198736 0.56321198 -0.38338867 0.0019146899
0.00017751195 0.069503188 -0.0037592258 0.67068875 0.6497885 -0.35770315 0.0020635994
0.0018820174 0.068285115 -0.0025407579 0.69122344 0.64294845 -0.32989007 0.0016979425
-0.0031044127 0.072246782 -0.004200032 0.62568438 0.68136889 -0.37980971 0.00058236672
-0.0012341675 0.071003847 -0.003193697 0.6559121 0.68106598 -0.32546642 0.00084202021
-6.5121741e-05 -0.066639863 -0.00068592082 0.5858562 -0.74588221 -0.31691048 0.001820025
0.0017479656 -0.065225594 -0.00065613835 0.66513157 -0.66495746 -0.33975238 0.0026212614
0.0031020185 -0.063884586 -0.00077907695 0.68484944 -0.65176082 -0.32586661 0.0027788137
0.0047282618 -0.06248701 3.3980352e-05 0.71474129 -0.62371951 -0.31641552 0.0022541429
0.0061782477 -0.060289849 -0.00045187725 0.77719533 -0.48930159 -0.39566576 0.0018783035
0.0074418294 -0.0592779 0.0008146459 0.79702151 -0.48852038 -0.3551119 0.0016635584
-0.019183405 -0.05568492 -0.0013247038 -0.87422132 0.44154346 -0.20193185 0.0010902979
0.0067792544 -0.058493014 -0.0015076901 0.76740736 -0.46982068 -0.43629634 0.0016716775
0.0081663998 -0.057093736 -0.00023679039 0.80935287 -0.39137015 -0.43792388 0.0012572486
-0.018493673 -0.053610805 -0.00091004919 -0.88397366 0.41763991 -0.21016055 0.00096562918
0.0093044536 -0.05438057 -0.00042654434 0.82640851 -0.35428253 -0.43764463 0.00098417734
0.01022321 -0.053669665 0.00072787155 0.827389 -0.35265523 -0.4371061 0.00093900179
-0.017661776 -0.05134159 -0.00011302577 -0.88612437 0.41707394 -0.20207144 0.00081627158
-0.016848417 -0.04985426 -0.00070274423 -0.86051655 0.45040926 -0.23799737 0.0013695483
0.009615479 -0.052152347 -0.0012571866 0.75407022 -0.18884772 -0.62905848 0.0029688163
0.010722037 -0.051046077 -3.9919978e-05 0.81453377 -0.24800676 -0.52443051 0.0031042139
-0.015842019 -0.047940925 -0.00040994678 -0.82844704 0.47434759 -0.29777485 0.0043514343
0.011351554 -0.048061967 -0.00017347815 0.77752614 -0.17729749 -0.60333967 0.0041091074
-0.014780944 -0.04572152 0.00022256654 -0.79140043 0.49814877 -0.3543067 0.0023951451
-0.013625586 -0.04447804 -0.00048889266 -0.74887538 0.51706654 -0.41452128 0.0017269017
0.011526208 -0.04516096 -0.00037251262 0.7151556 -0.032548338 -0.69820702 0.0025882416
0.012987742 -0.04485146 0.0012341161 0.77219462 -0.11802428 -0.62432826 0.0028425471
-0.012251375 -0.042155556 -1.7726445e-05 -0.70495224 0.51651686 -0.48605824 0.0047562113
-0.010530473 -0.041214563 -0.0012487476 -0.59125459 0.55108082 -0.58883619 0.00065544387
0.01144613 -0.042119902 -0.00042502058 0.63802475 0.045935843 -0.76864451 0.0023678907
0.012981699 -0.042218231 0.0010098057 0.72029299 -0.022022575 -0.69332027 0.0021725697
-0.011377468 -0.040148359 0.00086563767 -0.67401296 0.53243762 -0.51207101 0.0023744893
-0.0095968647 -0.039171208 -0.00024686672 -0.59313494 0.54955834 -0.5883677 0.0048131403
-0.0073850667 -0.038031932 -0.0011314485 -0.44146538 0.54912305 -0.70962816 0.0019351713
0.0094779348 -0.038480893 -0.0013967488 0.52852017 0.13798532 -0.83763146 0.0017218239
0.011235726 -0.0391399 -0.00034411566 0.56231189 0.094529152 -0.82150447 0.0022315192
0.012982602 -0.039136145 0.0010433042 0.65017337 0.029169111 -0.75922585 0.002601167
-0.0087422123 -0.03693432 0.00088857894 -0.56944633 0.513843 -0.64163566 0.002049238
-0.0066938577 -0.036185469 -0.00019434735 -0.44890118 0.52171713 -0.72546464 0.0023559586
-0.0040515712 -0.035402101 -0.0011113437 -0.3097772 0.48545048 -0.81754261 0.0022284212
0.0088106394 -0.035849769 -0.0011725691 0.34923899 0.1992619 -0.91560191 0.0044824565
0.011299362 -0.036206514 5.3219846e-05 0.53059578 0.10547391 -0.84103703 0.0028435809
0.012987355 -0.036302764 0.0012197291 0.65092391 0.05973966 -0.75678879 0.0019267822
-0.0059570535 -0.03400813 0.00085527648 -0.52051312 0.50594825 -0.68780988 0.003097726
-0.0035906222 -0.033157997 6.6116569e-05 -0.37657753 0.4570123 -0.80580956 0.0054937322
-0.00062086881 -0.032881685 -0.00083840801 -0.21642596 0.41574454 -0.88335514 0.0019473208
0.0022496711 -0.032749057 -0.0012167491 -0.062766902 0.37771532 -0.92379189 0.0021388864
0.0055385423 -0.032919995 -0.001189022 0.091238767 0.2999309 -0.94958776 0.002104671
0.0084456773 -0.033075087 -0.00064831099 0.27797881 0.22204702 -0.93457091 0.0035606709
0.011309717 -0.033162389 0.00050692412 0.4585588 0.14258675 -0.87715036 0.0031067352
0.012991773 -0.034416359 0.0013837313 0.62352204 0.081157483 -0.77758199 0.0031152228
-0.0028386996 -0.030668942 0.0010055894 -0.44032589 0.37232822 -0.81699747 0.0031142607
-0.00054265436 -0.03007151 0.00037303264 -0.28357917 0.34512335 -0.89469141 0.0030534198
0.0023281551 -0.030227223 -0.00030177471 -0.099068284 0.32894292 -0.93913901 0.0021392368
0.0053448104 -0.030225193 -0.00040621671 0.054140769 0.28751725 -0.95624399 0.0021328714
0.0084574167 -0.030050455 6.123248e-05 0.23953292 0.21442804 -0.94691318 0.0029953825
0.01109668 -0.03018597 0.00088353606 0.42460173 0.13391 -0.89542252 0.0044579385
-7.041276e-05 -0.027630171 0.0011117404 -0.31520921 0.31411955 -0.89552897 0.0023527071
0.0023018261 -0.027245486 0.00065313384 -0.15648676 0.28038681 -0.94704551 0.0019895686
0.0053822002 -0.027230578 0.00041160861 0.015878674 0.24475725 -0.96945435 0.0014623661
0.0084679369 -0.027248148 0.00069428759 0.17291717 0.19989268 -0.96443897 0.0026596901
0.010668255 -0.027571555 0.0011774009 0.33727446 0.17737816 -0.92454469 0.0026734434
0.0026765922 -0.025178254 0.0012216874 -0.1861337 0.26317781 -0.94662124 0.0019514067
0.0054621832 -0.02451802 0.0011295747 -0.016169047 0.23292194 -0.97236097 0.0018183786
0.0082587693 -0.024827104 0.0012107984 0.1212627 0.20843706 -0.97048926 0.0016642158
0.010141761 -0.025628813 0.0013860558 0.3356103 0.18853828 -0.92294049 0.0028005019
0.0029565915 0.022044227 0.0012600255 -0.22745624 -0.29868862 -0.92684883 0.0018833282
0.0055242572 0.021355405 0.0010849492 -0.081249677 -0.24960133 -0.96493405 0.001272424
0.008474458 0.021145696 0.001097215 0.066102773 -0.22331141 -0.97250319 0.0023575216
0.0108512 0.021716857 0.0012433251 0.18639554 -0.21221115 -0.95928258 0.0012174757
0.00016692234 0.0247091 0.001148594 -0.34262726 -0.34574232 -0.87353808 0.0023498575
0.0023360264 0.024010718 0.00078488758 -0.2106003 -0.30439258 -0.92897397 0.0014505578
0.0053816182 0.023954185 0.00036816741 -0.055010732 -0.26634032 -0.96230799 0.00093612622
0.008462511 0.023954827 0.00037929369 0.08778891 -0.25426435 -0.96314216 0.0012509451
0.011316348 0.023978474 0.00081303751 0.21850768 -0.21202736 -0.95252228 0.0016828099
0.013320942 0.024525473 0.0012616223 0.30708891 -0.19570641 -0.93134063 0.00066384592
-0.0025034414 0.027497398 0.0011351203 -0.4509865 -0.36659792 -0.81376725 0.0025715819
-0.0005095597 0.026843924 0.0005730408 -0.3237412 -0.33102697 -0.88634795 0.0021856241
0.0022996196 0.026765747 -0.00015475403 -0.16038142 -0.33076555 -0.92998499 0.0011394396
0.0053734859 0.026746089 -0.00047845766 -0.031510677 -0.30316722 -0.9524163 0.0013161788
0.0084501542 0.02675307 -0.00036470313 0.1062622 -0.27097374 -0.95670348 0.0012852934
0.011301231 0.026784927 0.00015765626 0.26802847 -0.21873541 -0.93825132 0.0018738109
0.013823918 0.026912136 0.00094590534 0.39925706 -0.18510027 -0.89795977 0.002483255
-0.0055297567 0.031116888 0.0011279677 -0.57537818 -0.39433235 -0.71654862 0.0023684916
-0.0034699843 0.030038187 0.00045588857 -0.4358671 -0.38755053 -0.81229585 0.0026874081
-0.00053887808 0.02981043 -0.00062274985 -0.26971871 -0.37133795 -0.88845927 0.0012279203
0.0022382129 0.029395873 -0.001082234 -0.1419972 -0.35115525 -0.92548728 0.0011980791
0.0054449202 0.029140335 -0.0012282595 -0.0096915383 -0.32096887 -0.9470402 0.0011158693
0.0085456893 0.02960992 -0.0011380559 0.15118578 -0.25578561 -0.95483851 0.0015994834
0.011284385 0.029814245 -0.00057181483 0.26001552 -0.24484558 -0.93404633 0.0011680224
0.014266602 0.029923333 0.00056690595 0.44046357 -0.16241693 -0.88295674 0.0027478973
-0.0063651521 0.033107206 0.00059640792 -0.54380929 -0.43007302 -0.72063065 0.0019655216
-0.0037520679 0.032742441 -0.00072526955 -0.37774354 -0.41992012 -0.82521325 0.0016830281
-0.00118484 0.031944588 -0.0013575422 -0.24735785 -0.39932072 -0.88281196 0.0014586461
0.0096102208 0.031637289 -0.0015282239 0.18276663 -0.21449146 -0.95947373 0.0021752813
0.011523321 0.032657981 -0.0011714284 0.31946173 -0.2372136 -0.9174279 0.00143111
0.014412872 0.032901295 0.00011716725 0.49630693 -0.14841802 -0.85536635 0.0034441003
0.016314415 0.033267133 0.00131335 0.59218609 -0.081115454 -0.8017081 0.0019876622
-0.008874543 0.036160208 0.00076260243 -0.6307106 -0.44442281 -0.63615447 0.0033558456
-0.0067974767 0.035679605 -0.00062065723 -0.48064205 -0.44312611 -0.75671822 0.0017743319
-0.0047054351 0.034795769 -0.0013675297 -0.4014048 -0.43831694 -0.80420917 0.0004645462
0.012287094 0.03502807 -0.0014142846 0.38059348 -0.19441356 -0.90407521 0.0012367053
0.014310725 0.035815127 -0.00039700558 0.52222824 -0.1236282 -0.84379721 0.0026583048
0.016306128 0.035859741 0.0010729925 0.6277172 -0.051985424 -0.77670372 0.0042560981
-0.011375109 0.039789025 0.00078418304 -0.69249946 -0.46960205 -0.54764801 0.0020914043
-0.0096137961 0.038694739 -0.0003360468 -0.62149429 -0.47047049 -0.62642026 0.0046031959
-0.0077354787 0.037789948 -0.0013137142 -0.5535652 -0.48243076 -0.67884171 0.0017858566
0.014689825 0.03878567 -0.00045713375 0.64340144 -0.038992096 -0.76453525 0.0040657613
0.016302999 0.038699925 0.00098221458 0.70495862 0.0052881143 -0.70922869 0.0032212192
-0.012161856 0.041918725 4.8540533e-06 -0.68669903 -0.48090002 -0.54514176 0.0019796477
-0.010572644 0.040992741 -0.0011414568 -0.6190511 -0.47922799 -0.62218672 0.00048652955
0.014836482 0.041888207 -0.00042056292 0.6883868 0.0021185055 -0.72534066 0.004250926
0.016310025 0.041566789 0.0011860078 0.76095808 0.084815465 -0.64323336 0.0029041229
-0.014690896 0.045467459 0.00065001787 -0.80027169 -0.43990046 -0.40749586 0.0021257601
-0.013445613 0.044477537 -0.00053662062 -0.75358087 -0.4646025 -0.465038 0.0013095068
0.014743029 0.044732302 -0.00028297282 0.79011703 0.10065053 -0.60463595 0.0038109128
-0.015521577 0.047756687 -0.00017661997 -0.80855173 -0.443544 -0.38666895 0.0021223375
0.014295232 0.047847722 -0.00016768707 0.84216076 0.19046055 -0.50446999 0.0040126471
-0.017518897 0.051583994 0.00023838831 -0.88184464 -0.38201246 -0.27643532 0.0017777154
-0.016700964 0.050241031 -0.00045689498 -0.85474974 -0.41174856 -0.31601581 0.0012998115
0.012444262 0.051940653 -0.001419654 0.84006745 0.26451477 -0.47362292 0.0045367316
0.01353056 0.05080599 -0.00012170651 0.84242922 0.25247973 -0.47599044 0.0040328195
-0.018285884 0.05387428 -0.00027620443 -0.8850382 -0.3819581 -0.26611131 0.0016091273
0.01211994 0.054006476 -0.0006735854 0.8306157 0.29866076 -0.46997803 0.0039043613
0.013085114 0.0529911 0.00044356484 0.84793955 0.31254673 -0.42815077 0.0016505562
-0.019384274 0.057108436 -0.0003917024 -0.91346633 -0.32450187 -0.2455155 0.001691554
0.011093186 0.056643374 -0.00032914977 0.82227081 0.40231934 -0.40250438 0.0016481725
-0.020156585 0.060532022 -0.00072675 -0.93085629 -0.25576362 -0.26094362 0.0014908219
-0.019648664 0.058541927 -0.0014688278 -0.91726029 -0.29932073 -0.26275584 0.0011584922
0.0092172958 0.059922103 -0.00043961953 0.80301845 0.47990617 -0.35334325 0.0021657725
0.010286337 0.058835108 0.00072379864 0.82145864 0.49088976 -0.29022908 0.0016598579
0.0065520615 0.063592307 -0.00081204425 0.76809347 0.55712754 -0.31565997 0.0014094748
0.007741753 0.062253051 -0.00026064913 0.77860647 0.53837854 -0.32236698 0.0014920933
0.0034756935 0.067022271 -0.0015636588 0.71323138 0.63810152 -0.29004732 0.00081231783
0.0049019246 0.065775134 -0.00043303624 0.74112177 0.59365082 -0.31355557 0.00031149579
0.00064426271 0.069916554 -0.0011668111 0.66779709 0.67656982 -0.31032285 0.00062132772
0.0020669287 -0.065556072 0.0015621578 0.67346734 -0.68236184 -0.28429565 0.0011753256
0.0065853754 -0.061085407 0.0018789117 0.79192269 -0.53204942 -0.2996361 0.0014417608
0.0079801697 -0.059557613 0.0028918777 0.80974782 -0.51729351 -0.27697617 0.0010598797
0.0093703568 -0.057118788 0.0024610851 0.83093804 -0.43809664 -0.34294811 0.0010598513
0.010175044 -0.055998188 0.0030116532 0.83515 -0.43556592 -0.3358674 0.0011218439
0.01101489 -0.054049861 0.0028246092 0.85257399 -0.37117791 -0.36789197 0.0011036688
-0.017680956 -0.050659884 0.0022022668 -0.87364298 0.44038966 -0.20689347 0.00056324445
0.012112691 -0.051218987 0.0027514216 0.86585647 -0.33310917 -0.37327036 0.00076126517
0.01306631 -0.050167229 0.0041505191 0.88849378 -0.33434352 -0.31431389 0.0009815098
-0.016502086 -0.047833569 0.0024615619 -0.85991812 0.45733437 -0.22668527 0.0014319608
0.012531633 -0.048968218 0.0019587073 0.8692162 -0.25110656 -0.42592105 0.0016190412
0.013367128 -0.047879182 0.0030509485 0.86876464 -0.25176471 -0.42645353 0.0016386446
-0.015229208 -0.044963587 0.0028084731 -0.86168712 0.44212562 -0.24903865 0.0012658125
0.013909691 -0.045024816 0.0027059992 0.84618944 -0.18495336 -0.49975556 0.0035097913
-0.014312559 -0.042844512 0.003400479 -0.83293474 0.46604288 -0.29836839 0.001868162
-0.013274084 -0.041667525 0.0024435581 -0.80883342 0.48347628 -0.33472246 0.0011962993
0.014351921 -0.042062618 0.0027004234 0.8188709 -0.093204252 -0.56635988 0.0050453343
-0.011980672 -0.039292846 0.0029528155 -0.758865 0.5067988 -0.40899763 0.002501461
-0.010614959 -0.038184386 0.0019285375 -0.69057971 0.52886856 -0.49335352 0.00044016956
0.01448607 -0.039222453 0.0026191296 0.74255532 -0.014170413 -0.66963482 0.002844786
0.015940804 -0.038234375 0.0043464494 0.83339763 -0.097644426 -0.54397976 0.00508013
-0.011311449 -0.037262063 0.0041575525 -0.75473279 0.49982253 -0.42491874 0.0022111894
-0.0096924091 -0.036095746 0.0028429264 -0.71482807 0.52120274 -0.46622801 0.0013759143
-0.0077567557 -0.034837183 0.0017002319 -0.60624218 0.5052526 -0.61415803 0.00056038139
0.014424924 -0.036132056 0.00254795 0.68741047 0.016848823 -0.72607368 0.0016179767
0.015935009 -0.036068391 0.0041729999 0.75939924 -0.024845161 -0.65015048 0.0020048853
-0.0087331254 -0.033824258 0.0037416313 -0.68192255 0.48288214 -0.54936922 0.0022590936
-0.0069641182 -0.032904319 0.0025332049 -0.57211429 0.45716447 -0.6809448 0.002288939
-0.0050625345 -0.031824064 0.0016641711 -0.50003117 0.44350052 -0.74382532 0.00079561991
0.014249184 -0.033044752 0.0025515333 0.63680708 0.053107955 -0.76919204 0.0018587582
0.015933977 -0.033197917 0.0041421051 0.72845936 4.3033542e-05 -0.68508905 0.001419957
-0.0062166727 -0.030415097 0.003492129 -0.63090253 0.39030996 -0.67053717 0.005306894
-0.0040825633 -0.029882284 0.0021094498 -0.48363593 0.39165181 -0.78275478 0.0026716702
0.012442536 -0.029758299 0.0015755092 0.48726428 0.10269084 -0.86719555 0.0048784716
0.01422013 -0.030232714 0.0027219416 0.6037454 0.059314277 -0.79496753 0.0038746994
0.015935479 -0.030094044 0.0041870396 0.6736781 0.019756924 -0.73876077 0.0022432618
-0.0055752625 -0.028179081 0.00414433 -0.67528325 0.33545208 -0.65685946 0.0019125727
-0.0035916266 -0.027204579 0.0030256817 -0.53240812 0.33743736 -0.77632314 0.0048240284
-0.001118572 -0.026630729 0.0018574198 -0.35623655 0.32712379 -0.87526309 0.0018403729
0.011943973 -0.026862413 0.0017901576 0.39440256 0.13347624 -0.90919232 0.0027977605
0.014227892 -0.02715213 0.0029894896 0.56013155 0.067862026 -0.8256194 0.0041513206
0.015938941 -0.026993142 0.0042907041 0.61866146 0.033991355 -0.784922 0.003565141
-0.0029430243 -0.02433281 0.0037381714 -0.55080706 0.30117807 -0.77839798 0.0026169587
-0.0005008275 -0.0241143 0.0025063008 -0.36595276 0.29619095 -0.88224119 0.0017469586
0.0021181046 -0.023731852 0.0017631085 -0.21815291 0.29071239 -0.93160909 0.0016906218
0.0051079453 -0.022929095 0.0015371417 -0.041243743 0.26265216 -0.96400875 0.0018684777
0.0087731797 -0.023370164 0.0015921373 0.10641798 0.23178931 -0.96692753 0.0014537732
0.011319757 -0.02408886 0.0020347075 0.324453 0.18009506 -0.92859894 0.0033322256
0.014237469 -0.024071205 0.0033175624 0.49578586 0.099203207 -0.86276013 0.0037251313
0.015942216 -0.024607878 0.0043887217 0.55171299 0.049220357 -0.83258039 0.0041412846
-0.0023489189 -0.022085004 0.0041470546 -0.56026012 0.28301802 -0.77846605 0.0024406894
-0.00052034314 -0.021248488 0.0034427019 -0.41881883 0.26055068 -0.86988741 0.0028861125
0.0023065193 -0.021166332 0.0024403897 -0.2354479 0.26868716 -0.9340083 0.001373616
0.0053971657 -0.021143802 0.0019696662 -0.065636799 0.24018562 -0.96850538 0.001894668
0.008490053 -0.021146521 0.0020252592 0.092887543 0.20760684 -0.9737922 0.0016204451
0.011357126 -0.021172706 0.0025701253 0.29059893 0.16155154 -0.94310832 0.0022680054
0.014212989 -0.021258581 0.0036470215 0.43883413 0.10384778 -0.89254707 0.0029839023
1.5141559e-05 -0.018427918 0.0040410822 -0.43433961 0.24789208 -0.86596692 0.0028083439
0.0023086923 -0.018105235 0.003269881 -0.28602505 0.24125186 -0.92735499 0.0021327862
0.0054040151 -0.01808127 0.002682921 -0.094885029 0.2323909 -0.96798313 0.0014677875
0.0085002929 -0.018079599 0.0026409882 0.066386193 0.20253314 -0.97702265 0.0012814425
0.011369036 -0.018097872 0.0030859169 0.25112167 0.15191466 -0.95596021 0.0020684795
0.013957444 -0.018203693 0.0038985242 0.38748151 0.12027577 -0.91399771 0.0024256483
0.00063832424 -0.016236939 0.004344115 -0.45478597 0.24195181 -0.85710508 0.0023270599
0.0024724856 -0.015159136 0.0039587249 -0.29831031 0.21761207 -0.92933095 0.0022227303
0.0054104994 -0.015007664 0.0033583175 -0.14130916 0.19427942 -0.97071481 0.0023464651
0.0085100988 -0.015003394 0.0032310737 0.07608901 0.17061128 -0.98239625 0.0029624351
0.011380659 -0.015015623 0.0035896897 0.20997301 0.1396693 -0.96767962 0.001760859
0.013620119 -0.015198559 0.0041576121 0.35797247 0.11525776 -0.92659122 0.0022082597
0.0031593528 -0.012626458 0.0042689159 -0.31437829 0.15852204 -0.93596858 0.0030978105
0.0054154499 -0.01215909 0.0038740821 -0.14451538 0.13700436 -0.979972 0.0018560583
0.0085172746 -0.012153329 0.0036629094 0.048515499 0.1236653 -0.99113733 0.0025044018
0.011389045 -0.012161352 0.0039537386 0.17028724 0.099574268 -0.98035055 0.0015247983
0.013207632 -0.012615675 0.0043244925 0.33271936 0.090939201 -0.93863088 0.0019819718
0.0057137604 -0.0093978513 0.0041772905 -0.14844379 0.091976568 -0.9846344 0.0017606404
0.0085225506 -0.0092952549 0.0039799209 0.02426891 0.076993607 -0.99673617 0.0014921909
0.011285885 -0.0093649924 0.0041936929 0.14317283 0.068285361 -0.9873392 0.0012851218
0.0062725302 -0.0063815643 0.0043276292 -0.15932283 0.045471247 -0.98617882 0.0018607696
0.0085261054 -0.0061925324 0.0041933586 -0.011914628 0.03014018 -0.9994747 0.0022477009
0.010832653 -0.0063088313 0.0042998944 0.13051331 0.035035156 -0.99082732 0.0013801127
0.0065609817 -0.0029946705 0.0043729912 -0.073520087 0.0090746516 -0.99725246 0.0010996546
0.0085270759 -0.0030858098 0.0042523704 -0.014477483 0.0025054419 -0.999892 0.001916233
0.010680244 -0.0030863485 0.004328982 0.1238253 0.0046262629 -0.99229318 0.0014013866
0.0063770129 -0.00021727849 0.0043713609 -0.170252 -0.030971704 -0.98491371 0.0021347876
0.008526748 -0.00021720806 0.0042327191 -0.016692432 -0.02557346 -0.99953359 0.0023176374
0.010775456 -0.00012159976 0.0043090722 0.12079425 -0.029045755 -0.99225253 0.0014320778
0.0060408497 0.0030338059 0.0042513753 -0.1636388 -0.061611485 -0.98459458 0.00170332
0.0085240388 0.0028891522 0.0040704822 -0.015658479 -0.060725488 -0.99803168 0.0022805433
0.011281761 0.00300336 0.0042142253 0.12349374 -0.054602686 -0.99084198 0.0011044269
0.01307339 0.0043263049 0.0044133756 0.30225807 -0.097367778 -0.94824028 0.0016862463
0.0035077995 0.0069565312 0.0043951664 -0.34717819 -0.10372489 -0.93204534 0.0030912238
0.0055279005 0.0060510039 0.0040945085 -0.16464776 -0.089427367 -0.98229015 0.0017199611
0.0085199764 0.0059922272 0.0038268603 -0.040487364 -0.096179098 -0.99454027 0.0018795618
0.011390152 0.00599461 0.0040035266 0.13209018 -0.092941917 -0.98687077 0.0012981371
0.01333149 0.0062813908 0.0043112566 0.27705634 -0.093375824 -0.9563058 0.0017502445
0.0031758298 0.0091050211 0.0042199311 -0.26029068 -0.13243948 -0.95640397 0.00049633486
0.0054143174 0.0088567389 0.0037608026 -0.16800322 -0.1327413 -0.97680849 0.001728537
0.0085142488 0.0088512152 0.003483362 0.024618167 -0.13082983 -0.99109912 0.0025857114
0.011382444 0.008854948 0.0036704461 0.14870618 -0.11814675 -0.98179823 0.0014405242
0.0137727 0.0089994203 0.0041366573 0.28111672 -0.1114283 -0.95318258 0.001778906
0.0025176997 0.011854978 0.0039645098 -0.2998305 -0.17158002 -0.93843591 0.0019147629
0.0054099509 0.011710119 0.0033076648 -0.16796771 -0.16915883 -0.97117049 0.0017569022
0.0085072853 0.011703733 0.003065221 0.042644735 -0.16323046 -0.98566586 0.0031926706
0.011373541 0.011709569 0.0032853852 0.16491108 -0.14998774 -0.97483742 0.0014031959
0.014184378 0.011782385 0.0039117648 0.29174671 -0.13553682 -0.94684398 0.0017342436
0.015941568 0.012694864 0.0043693427 0.38752922 -0.12758645 -0.91298562 0.00052058091
0.00022024498 0.015256492 0.0041179322 -0.45209694 -0.21423236 -0.86585957 0.0022756944
0.0023090416 0.014814673 0.0034187692 -0.29673621 -0.20237876 -0.93326867 0.00188456
0.0054042381 0.014791215 0.0027150065 -0.13791561 -0.21871288 -0.96599376 0.0012265011
0.0084980512 0.014784463 0.0025115861 0.0088639222 -0.20443803 -0.9788394 0.0010683044
0.011361495 0.014792943 0.0027648211 0.19350994 -0.1742236 -0.965505 0.0019707351
0.014241209 0.014816064 0.0034563942 0.31099993 -0.14676435 -0.93900979 0.0020975743
0.016293641 0.015109094 0.0041737445 0.45586082 -0.13771293 -0.87933272 0.0021778804
-0.002230867 0.019149788 0.0043429229 -0.58636886 -0.28206158 -0.75935024 0.0022612591
-0.00042094343 0.018031545 0.0036758343 -0.43691722 -0.2487475 -0.86442351 0.0030066136
0.0023069975 0.01788523 0.0026427992 -0.26987121 -0.25793904 -0.92770523 0.0012072809
0.0053974008 0.017859509 0.0020056795 -0.12341434 -0.24582914 -0.96142441 0.0013007595
0.0084872041 0.017853701 0.0018613368 0.02287581 -0.21891113 -0.97547662 0.0013506004
0.011347467 0.017865771 0.0021594823 0.17812409 -0.20297632 -0.96284598 0.0011700065
0.0142248 0.017895818 0.0029023904 0.34333855 -0.16583559 -0.92445511 0.0022044505
0.016662512 0.01803555 0.0038936553 0.48086905 -0.1402574 -0.86550146 0.0026031812
-0.00267353 0.021104805 0.0038948171 -0.55427015 -0.30025223 -0.77629453 0.0024049119
-0.00055227213 0.02075352 0.0028607277 -0.41130373 -0.2871516 -0.86508566 0.0032432247
0.0022011329 0.020575071 0.0019035396 -0.2522496 -0.29811922 -0.92059499 0.0017776804
0.0050537991 0.019810611 0.0015624302 -0.10296532 -0.27621937 -0.95556313 0.0013381509
0.0084810033 0.019501973 0.0014903144 0.034402642 -0.24840368 -0.96804553 0.0014227943
0.011592953 0.020365871 0.0016813671 0.18082945 -0.23048238 -0.95612687 0.0011555486
0.014338084 0.020786954 0.0023955973 0.32156792 -0.2002226 -0.92547554 0.0011883477
0.01707167 0.020784162 0.0036796145 0.50650132 -0.14084312 -0.85065836 0.002707009
-0.0034776211 0.023996508 0.003289822 -0.55453807 -0.33553374 -0.76151466 0.0024168543
-0.00077154353 0.023506433 0.0019732583 -0.3608405 -0.34584072 -0.86613417 0.0021062454
0.0012748954 0.02251301 0.0015281831 -0.23212209 -0.29142529 -0.92800361 0.0018558222
0.012518981 0.022351675 0.0014694427 0.21668094 -0.19411758 -0.95674855 0.0014848929
0.014716203 0.02360977 0.0019911011 0.36167312 -0.20240848 -0.91006774 0.0020435171
0.017419571 0.023920378 0.0034168479 0.57367015 -0.11356832 -0.81117493 0.004576386
-0.0060472018 0.027214494 0.003754003 -0.66588169 -0.36511254 -0.65061086 0.0021951301
-0.0039103241 0.026761513 0.0023031458 -0.49436629 -0.36968297 -0.7867251 0.0016966652
-0.0017343445 0.02567967 0.0015088414 -0.38919044 -0.35621676 -0.84949428 0.0014923732
0.015473742 0.02673921 0.0017461752 0.44847229 -0.15119903 -0.88091516 0.0029698422
0.017603079 0.026921364 0.0031388518 0.61316282 -0.081981316 -0.78569102 0.0059028147
-0.0084420918 0.030848317 0.0040942822 -0.70046914 -0.3972182 -0.59292555 0.0020601409
-0.0067126635 0.029831536 0.0028757076 -0.66127205 -0.4078415 -0.62959081 0.0019455724
-0.0047473703 0.028865211 0.001783599 -0.56504709 -0.41908616 -0.71069586 0.001893894
0.015847782 0.029009122 0.0015617703 0.49290159 -0.12371893 -0.86124426 0.0031982085
0.017557012 0.029802797 0.0027642171 0.67975122 -0.068816684 -0.7302072 0.0046679969
-0.0090074278 0.033144191 0.0031419625 -0.69920373 -0.42608941 -0.57407492 0.0017288281
-0.0074812844 0.032236941 0.0020766524 -0.63272381 -0.42876068 -0.64484477 0.00047797716
0.017667035 0.032739274 0.0026148148 0.73376191 -0.035721805 -0.67846698 0.0049514873
-0.011459711 0.036715202 0.0037643011 -0.77349335 -0.43700182 -0.45906132 0.0019782679
-0.010145216 0.035602033 0.0027050823 -0.74256557 -0.44243667 -0.50283813 0.0012505378
0.017839689 0.035892472 0.0027569709 0.81854707 0.042390339 -0.57287323 0.002895087
-0.012158576 0.038891431 0.0028950665 -0.77450675 -0.43736091 -0.45700631 0.0020704938
-0.010766361 0.037809316 0.0016671662 -0.6744808 -0.47243151 -0.56734836 0.0016985228
0.017600626 0.038799718 0.0026609455 0.8300665 0.07752274 -0.55224991 0.0054539111
-0.01431878 0.042428277 0.0035789651 -0.84157801 -0.42368078 -0.33502391 0.0016593282
-0.013388741 0.041521598 0.0024674032 -0.81276512 -0.44335574 -0.3779532 0.0011061806
0.017269179 0.041758996 0.0027243439 0.85699117 0.14777331 -0.49368933 0.0037046531
-0.015271893 0.044932988 0.0028675613 -0.86313462 -0.40761033 -0.29808131 0.0013649417
0.015848221 0.045880269 0.0015749579 0.84761679 0.20373736 -0.48993558 0.0050394638
0.016743848 0.044723388 0.0028908262 0.88230908 0.20572773 -0.42332828 0.0023621267
-0.016576134 0.047856729 0.0028232764 -0.89499331 -0.39204356 -0.21281177 0.0015100634
0.01559569 0.047809903 0.0021528695 0.88144946 0.27621138 -0.38308501 0.0053545465
0.016154867 0.047762733 0.0036084522 0.89291102 0.30123374 -0.33461642 0.0018955077
-0.017665809 0.050552364 0.0029583606 -0.92022574 -0.35183907 -0.1714464 0.00034043187
-0.016938267 0.049434979 0.0014914965 -0.89563763 -0.39655793 -0.20143209 0.001290735
0.014814481 0.050644454 0.0027149748 0.89180154 0.30436164 -0.33474475 0.001559349
-0.018641008 0.05358148 0.0023781303 -0.91828185 -0.34797353 -0.18887265 0.00053487864
0.012518771 0.055132706 0.0014613365 0.84818977 0.38321388 -0.36567906 0.0012954345
0.01349342 0.05357486 0.0023277993 0.87274081 0.35930893 -0.33048537 0.0012220476
0.011828957 0.05691269 0.0023776609 0.8448416 0.45111948 -0.28763497 0.0017779986
0.010670795 0.059258316 0.0038926695 0.83264774 0.48310462 -0.27075386 0.0014700968
0.00825099 0.062329534 0.0019601081 0.79706615 0.54241145 -0.26547179 0.0016676011
0.0083086621 -0.059912633 0.0055280421 0.80979502 -0.51718801 -0.27703536 0.0010925791
0.0092486562 -0.058338147 0.0044932459 0.82280952 -0.49701092 -0.27561703 0.0014118842
0.010449081 -0.056453172 0.0047148857 0.84945893 -0.48315778 -0.21208024 0.00087958394
0.011951808 -0.053964123 0.0054990621 0.87887466 -0.39027429 -0.2743454 0.00059524388
0.012604629 -0.052153271 0.0047811959 0.88822508 -0.35079044 -0.29665181 0.0012984019
0.013452112 -0.050689302 0.0057377396 0.89448512 -0.34531233 -0.28399965 0.0010091144
-0.016580762 -0.047330346 0.004441509 -0.88941365 0.4144648 -0.19277525 0.00047621608
0.014306747 -0.048180196 0.0056671565 0.89649415 -0.29930717 -0.32667023 0.0013401437
-0.015811065 -0.04517138 0.0051635499 -0.89238536 0.41381446 -0.18001676 0.00073282531
0.015167836 -0.0453442 0.0056009805 0.90284032 -0.26832151 -0.33598059 0.00063056912
0.016029881 -0.043996762 0.0070130471 0.92389834 -0.26274475 -0.27816749 0.00036216568
-0.014656051 -0.04222073 0.0060496894 -0.88634562 0.42492983 -0.18391864 0.001049386
-0.013724489 -0.040910389 0.0048474167 -0.85957706 0.46011561 -0.22230813 0.0019701901
0.015477469 -0.043061163 0.0048063691 0.9008863 -0.22691855 -0.37001589 0.0021060852
0.016255833 -0.041686427 0.0059272172 0.90177655 -0.20275725 -0.38169175 0.0024435951
-0.012945008 -0.038987089 0.0058012283 -0.85679436 0.4473381 -0.25649974 0.0011058014
0.01666604 -0.039089549 0.0057591661 0.88149351 -0.15210509 -0.44702709 0.00345299
-0.011716937 -0.036469255 0.0061591142 -0.83129072 0.45346636 -0.32144052 0.0020627591
-0.010671602 -0.035341784 0.005258373 -0.79874021 0.46775815 -0.37843946 0.0014854959
0.017089436 -0.036103483 0.0058704568 0.84542716 -0.10107004 -0.52444047 0.004022568
-0.0096826786 -0.033132773 0.0059453999 -0.80777508 0.43434381 -0.39855349 0.0014135358
0.017217997 -0.033253755 0.0057848641 0.81740302 -0.043884274 -0.57439232 0.0038941572
-0.0087357108 -0.03063876 0.0065559 -0.78734601 0.37654355 -0.48816106 0.0027221045
-0.0074850107 -0.029816678 0.0053124428 -0.75611478 0.37410057 -0.53697222 0.0017749561
0.017388796 -0.030120635 0.0058654132 0.7959013 -0.024571583 -0.60492754 0.003636759
-0.0066118767 -0.027114222 0.0058715404 -0.72905064 0.35451913 -0.58549231 0.0045338469
-0.0051036132 -0.02629412 0.0045966003 -0.68385851 0.35407484 -0.63794082 0.0025570323
0.017431473 -0.027087703 0.0058427555 0.76398939 -0.018959561 -0.64495027 0.0031851095
-0.005805207 -0.024387084 0.0063174451 -0.71800184 0.304952 -0.62568176 0.002350268
-0.0041849269 -0.023782056 0.0049181227 -0.59209776 0.30144879 -0.74736124 0.0032395367
0.017337397 -0.024142774 0.0057282383 0.68069369 0.044883765 -0.73119193 0.0043955878
-0.0053169434 -0.021803237 0.006942248 -0.71794236 0.26903352 -0.6420123 0.0019296705
-0.0036248157 -0.021075781 0.0055563133 -0.60275286 0.27746555 -0.74813223 0.0017828405
-0.0017535032 -0.020068325 0.0044720862 -0.53613162 0.28787047 -0.79353225 0.00054107397
0.015465485 -0.020066686 0.0044356678 0.5341022 0.076507568 -0.84195101 0.0060779601
0.017236704 -0.021234017 0.0056904536 0.65820235 0.041229982 -0.75171125 0.0035478142
0.018930517 -0.020921674 0.0073686931 0.75467539 -0.018828403 -0.65582818 0.0055053681
-0.003146251 -0.018240618 0.0062098326 -0.63920587 0.26083106 -0.72345209 0.0037900482
-0.0012524871 -0.017819691 0.004907073 -0.4868086 0.25958338 -0.83404666 0.0026191396
0.015364313 -0.017894061 0.0045944215 0.4472011 0.081262171 -0.89073431 0.0031591712
0.017140295 -0.018135259 0.0057538273 0.58107609 0.04064662 -0.81283361 0.0022678436
0.018927861 -0.018030185 0.00730207 0.68245357 -0.00057629589 -0.73092872 0.002799961
-0.0027004126 -0.015334735 0.0067934748 -0.66982949 0.23407115 -0.70465529 0.0025916104
-0.00059612928 -0.015041698 0.0053714742 -0.48444137 0.2460926 -0.83949679 0.0019221494
0.001307884 -0.014236813 0.0046043964 -0.34072906 0.21623963 -0.91495579 0.0030285909
0.014997239 -0.014872245 0.0047522737 0.40448189 0.089355759 -0.91017026 0.0025757083
0.017195877 -0.015096458 0.0059675765 0.56794465 0.037691474 -0.82220328 0.0045288391
0.018927805 -0.015141796 0.0073006889 0.71697485 0.0034980504 -0.69709027 0.0028940148
-0.0023487946 -0.012876585 0.0072094649 -0.68659222 0.171983 -0.7064085 0.0030344338
-0.00056463346 -0.012219207 0.0060653682 -0.52686441 0.18664208 -0.82920367 0.0054118582
0.001939601 -0.011983985 0.0048137768 -0.36221704 0.17555906 -0.91541129 0.0025808802
0.014537653 -0.012078239 0.0048287921 0.37488329 0.075167067 -0.92401969 0.001848229
0.017201293 -0.012220968 0.0061202548 0.53944534 0.044186056 -0.84086043 0.0042621866
0.018929062 -0.012254337 0.0073321955 0.59115207 0.009413139 -0.8065052 0.0042865402
-0.00043967628 -0.0091838334 0.0064989608 -0.54250443 0.11151221 -0.83261871 0.0035316152
0.00228106 -0.0092731677 0.0050896015 -0.3668094 0.11727073 -0.92287517 0.0024738428
0.0041663414 -0.0088883787 0.0045344923 -0.19026007 0.10072567 -0.97655278 0.0020489355
0.012596442 -0.00858807 0.0044646356 0.18120895 0.058364686 -0.98171115 0.0015731419
0.014284993 -0.0093153398 0.0049333572 0.34065476 0.047730789 -0.93897611 0.001784198
0.01723543 -0.0091381464 0.0062576896 0.50217444 0.025472831 -0.86439109 0.003379704
0.018929843 -0.0091255121 0.0073517952 0.55839747 -0.0036311445 -0.82956564 0.0043976661
-0.00025754905 -0.0060556754 0.006673391 -0.54529959 0.055018783 -0.83643371 0.0031442854
0.0023432914 -0.006173166 0.0053209648 -0.35599858 0.057279292 -0.93272936 0.0025236802
0.0046683853 -0.0060330345 0.0046285139 -0.20270786 0.054355543 -0.97772956 0.001938496
0.012232056 -0.0060283006 0.0045190738 0.1677379 0.029965173 -0.98537612 0.0015549096
0.014288659 -0.0062046908 0.0050580855 0.32080993 0.02355779 -0.9468506 0.0016983827
0.0171747 -0.0060271495 0.0062859477 0.47750986 0.006569617 -0.87860185 0.0028710694
0.018929513 -0.0059960624 0.0073435055 0.63841659 -0.0049157194 -0.76967531 0.0024993501
-8.572283e-05 -0.0031029042 0.0066927178 -0.55171931 0.012922236 -0.83392978 0.003525387
0.0023144311 -0.0030942992 0.0054641929 -0.35056973 0.013866921 -0.93643397 0.0024984335
0.004911596 -0.0031298762 0.0046569612 -0.21200158 0.014028027 -0.97716856 0.0018208107
0.0121205 -0.0030879457 0.004558695 0.16498122 0.0015389792 -0.98629546 0.0013828361
0.014289637 -0.0030916813 0.0050916052 0.30735114 -0.0032843056 -0.95159054 0.0015900109
0.01720739 -0.0031001288 0.0062938556 0.46239021 -0.013983254 -0.88656634 0.002684721
0.018926952 -0.0031070453 0.0072792713 0.6224553 -0.023756446 -0.78229469 0.0026994569
-8.5639476e-05 -0.00021851843 0.006662718 -0.54978311 -0.030917415 -0.83473504 0.003437974
0.002314378 -0.00021785742 0.0054431865 -0.35521594 -0.033576682 -0.93418097 0.0022931579
0.0047056186 -0.00021744508 0.0046831798 -0.21277677 -0.034149904 -0.97650391 0.0019998678
0.012179612 -0.00033695961 0.0045313332 0.15814072 -0.032198355 -0.98689145 0.0015419144
0.014288047 -0.00021766534 0.0050378023 0.30270532 -0.037130039 -0.95236063 0.0015807312
0.017204411 -0.00021830993 0.0062116371 0.45394844 -0.035344914 -0.89032662 0.0023814305
0.018922929 -0.00021882995 0.0071784006 0.60816306 -0.037600648 -0.79292119 0.0024246813
-0.00028235017 0.0028179712 0.0065980041 -0.54326147 -0.066704936 -0.83690947 0.0031738819
0.0023138905 0.0028967997 0.0052576172 -0.3542169 -0.09205848 -0.93062109 0.0021102235
0.0044405265 0.0026659346 0.0045895763 -0.20846933 -0.067292646 -0.97571117 0.0018149146
0.012477091 0.0018156195 0.0044732559 0.13545784 -0.07235986 -0.98813725 0.0014285647
0.014312602 0.0028593952 0.0048813834 0.30994183 -0.068857081 -0.94825882 0.0013822459
0.017198212 0.0029018787 0.0060399245 0.46048135 -0.061788339 -0.88551629 0.0024559838
0.019163709 0.0026686601 0.0071799578 0.60353804 -0.053310592 -0.79554999 0.0023774093
-0.00055956148 0.0059690429 0.0064506466 -0.54148185 -0.10946419 -0.83355564 0.0030855134
0.0022428464 0.0059517175 0.0049997484 -0.37454644 -0.11161055 -0.92046624 0.0025494916
0.0039867111 0.0052838288 0.0044967425 -0.25907964 -0.10663465 -0.9599514 0.00048191976
0.014691554 0.005880598 0.0047706366 0.32011122 -0.09019167 -0.94307697 0.0015913054
0.017189106 0.0060186572 0.0057876301 0.45521036 -0.076678365 -0.88707608 0.0032442329
0.019246114 0.0059447093 0.0069853924 0.6081996 -0.068971537 -0.79078203 0.0026584598
-0.002321373 0.0090976413 0.0072220527 -0.60167819 -0.13879506 -0.78658718 0.0036221414
-0.00056434859 0.0089011602 0.0059919655 -0.53508919 -0.16746585 -0.82803065 0.0051386151
0.001823866 0.0087415548 0.0047644158 -0.37190494 -0.15764666 -0.9147864 0.0026520651
0.015140392 0.0086348243 0.0046248371 0.32470533 -0.10638458 -0.93981308 0.0017404152
0.017349411 0.0089409109 0.0055723344 0.4467124 -0.093607858 -0.88976717 0.0015613004
0.019531339 0.0087825255 0.0069233719 0.61590636 -0.076982915 -0.78404915 0.00249451
-0.0026346699 0.011947833 0.0068444544 -0.67690372 -0.18804137 -0.71164715 0.0027647414
-0.00056208757 0.011765456 0.0054061557 -0.50000805 -0.19390284 -0.84403414 0.0015143112
0.0012759833 0.011105482 0.0045605991 -0.35275155 -0.18497397 -0.91725183 0.0024448615
0.01546651 0.010784326 0.0044674072 0.31676352 -0.13750248 -0.93848485 0.0017914755
0.017483031 0.011714788 0.0052932175 0.46152052 -0.13250871 -0.87717742 0.00150566
0.019872652 0.011804186 0.0068670241 0.64435691 -0.089381687 -0.75948346 0.002992477
-0.0030014892 0.014963945 0.0063457899 -0.64376682 -0.22578719 -0.73115283 0.0046465835
-0.0010388647 0.01460954 0.0049907775 -0.49873212 -0.22265406 -0.83767033 0.0020927312
0.017927077 0.014741359 0.0051238243 0.50660223 -0.11761968 -0.85411936 0.0024283994
0.019928796 0.014851488 0.0065653985 0.68268746 -0.094369084 -0.72459114 0.0033989265
-0.0051386277 0.018787159 0.0070960717 -0.71162468 -0.24481337 -0.65852618 0.0022298065
-0.0035009736 0.017889868 0.0058112657 -0.64279145 -0.27695826 -0.71422213 0.0045770286
-0.0016346741 0.01712691 0.0045896117 -0.53226286 -0.26602462 -0.80369592 0.00077967282
0.01832786 0.017844688 0.0049234093 0.61790603 -0.11757305 -0.77741158 0.0025385898
0.020120377 0.017850403 0.0064027114 0.72216845 -0.083932884 -0.68660623 0.0030677998
-0.0056119454 0.02111036 0.0065505058 -0.71732032 -0.29693574 -0.63030207 0.0023609644
-0.0039705029 0.020641597 0.0050913999 -0.59679645 -0.30735129 -0.74119437 0.0026313548
0.018634461 0.020650739 0.0047431532 0.65919971 -0.10546697 -0.74453503 0.0028732037
0.020078033 0.020902611 0.0060336147 0.70897382 -0.059369989 -0.70273125 0.003025868
-0.0062547484 0.02381203 0.0059426883 -0.73801774 -0.33675817 -0.58474261 0.0037712101
-0.004785778 0.023152513 0.0046852026 -0.68087208 -0.33831552 -0.64958131 0.0027148144
0.018818388 0.023225565 0.0045563672 0.65415138 -0.072212346 -0.75290865 0.0071794936
0.020164736 0.023701265 0.0058945189 0.77433646 -0.023870708 -0.63232368 0.0043716091
-0.0085807713 0.027510118 0.0068071475 -0.78882676 -0.36444882 -0.49490342 0.0019083782
-0.0072851134 0.026566606 0.0055530425 -0.7566191 -0.36738876 -0.54088169 0.0013431779
0.020030987 0.026820367 0.0055504213 0.77225965 -0.020284791 -0.63498306 0.0030680748
-0.0092466827 0.029996235 0.0059661078 -0.78569156 -0.38374445 -0.4852103 0.0024018558
-0.0079789246 0.028983586 0.0048153345 -0.69877428 -0.38834798 -0.60074991 0.0021790105
0.020090681 0.029929757 0.0056451797 0.8293131 0.016704937 -0.55853432 0.004957621
-0.011508627 0.033808663 0.0068989713 -0.85684735 -0.38787529 -0.33965486 0.00046718217
-0.010302329 0.032628052 0.0055576153 -0.81151879 -0.40459895 -0.42158863 0.0014947832
0.019914368 0.032772411 0.0055623162 0.85978049 0.051918246 -0.50801778 0.0046831183
-0.012011523 0.035805449 0.0058826027 -0.85337692 -0.38285962 -0.35378841 0.0019045336
-0.010849902 0.03448515 0.0047682617 -0.78969604 -0.42257875 -0.44475538 0.00036336514
0.019729283 0.03561509 0.005730066 0.89226007 0.094575785 -0.44150579 0.0050591915
-0.014284622 0.039968569 0.0072077308 -0.91682851 -0.35593584 -0.18092842 0.00084412016
-0.013236431 0.038577933 0.0056916545 -0.87396848 -0.38495433 -0.29663 0.0012129004
0.018833205 0.039286364 0.0049280319 0.91096401 0.14618005 -0.38571483 0.0034490037
0.019485179 0.038439866 0.0062195342 0.90925622 0.14894772 -0.38867438 0.0034158316
-0.014720139 0.041772317 0.0059142006 -0.89974654 -0.37369531 -0.22540644 0.0013705101
0.018436972 0.042033792 0.0055048447 0.89931029 0.18820997 -0.39473787 0.0018048965
0.018921729 0.041888151 0.0071482752 0.91623068 0.18438318 -0.35570243 0.0016375884
-0.015745644 0.044454042 0.0055367942 -0.89474231 -0.39281318 -0.21244755 0.0011594145
0.017706076 0.044611763 0.0055146134 0.91303909 0.23282939 -0.33488807 0.00033486387
-0.017109359 0.047984678 0.0056697223 -0.90544158 -0.37718281 -0.19470124 0.0011855976
-0.01661502 0.046746533 0.0053007547 -0.91061485 -0.37745309 -0.16825485 0.00042783827
0.016763091 0.047120843 0.0050618048 0.910335 0.29647899 -0.28877398 0.00067907141
-0.017594945 0.04943933 0.005811492 -0.91862863 -0.35806242 -0.1670709 0.00029497757
0.015470954 0.050262365 0.0046048257 0.88948047 0.30745357 -0.3380782 0.0016013384
0.015986862 0.049429748 0.0057252739 0.90257353 0.31079486 -0.2979387 0.00071619265
0.012676801 -0.053444397 0.0075718258 0.87887466 -0.39027429 -0.2743454 0.00059524388
0.013653125 -0.051569235 0.0080239465 0.8972491 -0.35386696 -0.26404962 0.00053103309
0.01520234 -0.047829613 0.0082221301 0.91479969 -0.3159093 -0.25168002 0.00042874299
-0.015746705 -0.044304337 0.0076909754 -0.90094763 0.40306431 -0.16072482 0.00025097487
0.015567293 -0.046220612 0.0075849388 0.92390275 -0.26271895 -0.27817702 0.00037123548
0.016284155 -0.044900972 0.0088365525 0.93267727 -0.24788217 -0.26204497 0.00046838727
-0.015061023 -0.042474035 0.0087012742 -0.89647806 0.41049296 -0.16680132 0.00034135141
0.016986834 -0.042343356 0.008794453 0.93447113 -0.24464537 -0.25867414 0.00043263333
-0.014337817 -0.040545788 0.0087503884 -0.89250541 0.41350609 -0.18013027 0.00060897425
-0.013617215 -0.038865115 0.0088628773 -0.88948578 0.41784424 -0.18498993 0.00055061729
0.017736368 -0.039286006 0.0085456762 0.92125744 -0.2103705 -0.32715279 0.0028380721
-0.012310199 -0.036055539 0.0087671848 -0.88083506 0.41123486 -0.23455392 0.0013343175
0.018330142 -0.036335569 0.0084446995 0.92373037 -0.1634085 -0.34643891 0.0037232533
0.019026658 -0.035072435 0.0097800288 0.91836065 -0.172792 -0.35602909 0.0039051967
-0.011459141 -0.033835184 0.0094290469 -0.88123387 0.38505128 -0.2741577 0.0020347021
-0.010652547 -0.032628804 0.0086344127 -0.85912311 0.40250379 -0.31606674 0.0012019168
0.018461645 -0.032982361 0.0076932209 0.87619996 -0.08591821 -0.47422746 0.0033663365
0.019163655 -0.032849234 0.0091681238 0.90591317 -0.12469071 -0.40468952 0.0054466524
-0.0096325334 -0.030079478 0.0088619702 -0.85301822 0.35416999 -0.38330597 0.0023889849
0.019381315 -0.030031769 0.0089647984 0.88322902 -0.072147742 -0.46335864 0.0028280397
-0.0088896528 -0.027539972 0.009308558 -0.86020947 0.30533433 -0.40842447 0.0021316016
-0.0078834742 -0.026575811 0.0079973433 -0.83213806 0.30993128 -0.45987928 0.0017643509
0.019521199 -0.02717714 0.0087747509 0.86055982 -0.057165649 -0.50613123 0.0022414862
-0.0085737109 -0.025414892 0.010201419 -0.86161911 0.30906004 -0.40260956 0.004168903
-0.0073808115 -0.024040585 0.008810007 -0.82881218 0.29924929 -0.47277927 0.0014035641
0.019721206 -0.024183948 0.0087614926 0.83479619 -0.060414929 -0.54723424 0.0029471058
-0.0063098469 -0.021026578 0.0087496536 -0.79942769 0.27587178 -0.53367615 0.0021011289
0.019977413 -0.021055104 0.0088227447 0.83614558 -0.07369557 -0.54353428 0.0034438064
-0.0056784186 -0.018239331 0.0091638044 -0.80435324 0.25547945 -0.53641969 0.002228172
-0.0045295181 -0.017604375 0.0078456029 -0.70055848 0.26352569 -0.66315311 0.0021264628
0.020201318 -0.018095795 0.0089231683 0.83575028 -0.041479558 -0.54754072 0.0013564298
-0.0052981619 -0.015469624 0.0098396633 -0.80629086 0.21179335 -0.55230302 0.0020876538
-0.0040712128 -0.01500858 0.0083587356 -0.77585977 0.22014019 -0.59125286 0.002172237
0.020192891 -0.015190326 0.0087280618 0.78378075 -0.025441758 -0.6205163 0.0044547268
-0.0036179496 -0.012229586 0.0087744687 -0.73832947 0.19397917 -0.64594245 0.0043955967
0.02044373 -0.012298454 0.0089349104 0.77421862 -0.028858237 -0.63226008 0.0049650082
-0.0032336332 -0.0091588702 0.0089974655 -0.76269346 0.099440098 -0.63906997 0.0045630285
-0.0017734163 -0.0084070619 0.0075519104 -0.70804811 0.11092443 -0.69739777 0.0030579714
0.020438123 -0.0091554094 0.0088078501 0.73206395 -0.014004989 -0.6810919 0.0036673062
-0.0029923839 -0.0060193632 0.0090873372 -0.74421817 0.059876014 -0.6652475 0.002298835
-0.0016540892 -0.0057601668 0.0077173952 -0.70804054 0.058402155 -0.70375276 0.0026146474
0.020433005 -0.0060142553 0.0086912727 0.70168352 -0.021439433 -0.71216607 0.0042216326
0.021960162 -0.0050678789 0.010409275 0.81859362 -0.054308906 -0.57179981 0.0057394141
-0.0029940107 -0.003120916 0.0092631755 -0.74467492 0.017542761 -0.66719669 0.0026951092
-0.0015338622 -0.003110298 0.0077481782 -0.60157812 0.015410668 -0.79866529 0.0039875638
0.020427734 -0.0031161113 0.0085702622 0.66679156 -0.03261501 -0.74453026 0.0026396795
0.021953298 -0.0031280089 0.010261177 0.76735461 -0.038865462 -0.64004397 0.0024230473
-0.0029936698 -0.00021990901 0.0092258798 -0.74512535 -0.035658661 -0.66597044 0.002787316
