# .PCD v0.7 - Point Cloud Data file format
VERSION 0.7
FIELDS x y z normal_x normal_y normal_z curvature
SIZE 4 4 4 4 4 4 4
TYPE F F F F F F F
COUNT 1 1 1 1 1 1 1
WIDTH 556
HEIGHT 1
VIEWPOINT 0 0 0 1 0 0 0
POINTS 556
DATA ascii
0.019586751 0.0033393735 -0.00086054555 0.47590244 0.16126937 -0.86458611 0.0031784535
0.021658704 0.0031147785 0.00040821778 0.62197334 0.14379297 -0.76972258 0.0017785282
0.0051042461 0.006148424 6.3697807e-05 -0.46528938 0.086677797 -0.88090456 0.0018657492
0.0075080232 0.0061786501 -0.00097332266 -0.33778587 0.10617287 -0.93521547 0.0019745629
0.010567496 0.0061654123 -0.0017662054 -0.16131301 0.13778545 -0.97723758 0.0016449088
0.013632745 0.0061615892 -0.0019959968 0.016929148 0.13951576 -0.99007511 0.0025290328
0.016481098 0.0061681466 -0.0016050052 0.26283514 0.1581272 -0.95179486 0.0023523578
0.019535925 0.0061409986 -0.0003880281 0.46422005 0.14321977 -0.87406403 0.0031314541
0.0052721268 0.0091653736 0.00022172346 -0.44705337 0.056674112 -0.89271003 0.0016339363
0.0075128004 0.0092630666 -0.00066909543 -0.31248972 0.077302046 -0.94677055 0.0016698886
0.010575513 0.0092454674 -0.0014134385 -0.18341924 0.10257264 -0.97766882 0.0033112823
0.013644988 0.0092414664 -0.0015841061 0.049554478 0.14160204 -0.98868263 0.0019493584
0.016498392 0.0092523489 -0.0011271145 0.29722092 0.13524194 -0.9451822 0.0032932104
0.019131076 0.0091652228 -8.927891e-05 0.46462119 0.14248131 -0.87397158 0.0027799346
0.0053918795 0.012372478 0.00031354488 -0.42767894 0.029181587 -0.90345949 0.001937445
0.007515993 0.012348533 -0.00046737527 -0.28604245 0.052719835 -0.95676559 0.0017692568
0.010582027 0.012328301 -0.0011277276 -0.15453692 0.085079536 -0.98431695 0.0033209822
0.013656082 0.012325789 -0.0012110062 0.12843595 0.1167672 -0.98481959 0.0049258871
0.016515451 0.012342878 -0.00065638986 0.30404386 0.13327342 -0.9432897 0.0030222249
0.018682094 0.012187529 0.00019865623 0.48416919 0.15283722 -0.8615225 0.0029559345
0.0053922287 0.01522244 0.00034497306 -0.39629993 -0.0016714719 -0.91811961 0.0019719193
0.0075177718 0.01519639 -0.00035710679 -0.251531 0.029556364 -0.96739787 0.0018902214
0.01058691 0.0151757 -0.0009152086 -0.11894053 0.069504865 -0.9904657 0.0036076563
0.01366559 0.015176618 -0.00089211797 0.15108654 0.101335 -0.98331285 0.004036746
0.016531529 0.01520195 -0.00021269289 0.32260734 0.13471466 -0.93689716 0.0026722262
0.018312125 0.014608867 0.00044667907 0.50702763 0.16678055 -0.84564024 0.0022254661
0.005309335 0.018410908 0.00031716819 -0.35008439 -0.019826004 -0.9365083 0.001732071
0.0075186635 0.018280245 -0.0003043327 -0.20935713 0.018070716 -0.97767222 0.0019250484
0.010591439 0.018262025 -0.00071897008 -0.07247252 0.066369995 -0.99515963 0.0038394323
0.013676036 0.018269939 -0.00054236106 0.17715083 0.10584013 -0.97847605 0.0033339672
0.016214259 0.018115519 0.00012254925 0.36332756 0.14273761 -0.92066228 0.0030172002
0.0051540481 0.021391829 0.00027662935 -0.30376664 -0.023260426 -0.95246243 0.0017647565
0.0075191222 0.021363391 -0.00028014625 -0.16335475 0.020472707 -0.98635495 0.0020441234
0.010595922 0.021350872 -0.0005264217 0.054845586 0.066675358 -0.99626625 0.004227011
0.013687565 0.021369893 -0.00015677954 0.2118261 0.11365669 -0.970676 0.0029586446
0.015682761 0.02108207 0.0004072343 0.41376093 0.15947637 -0.89630872 0.003143575
0.0049165064 0.024239937 0.00026814034 -0.25522757 -0.0066163321 -0.96685845 0.0012675502
0.0075198193 0.024210704 -0.00024026167 -0.11539425 0.031923585 -0.99280661 0.0024919475
0.010600749 0.024206309 -0.00031812326 0.094033204 0.077915087 -0.99251544 0.0034913677
0.013521651 0.024135947 0.00018767314 0.25806078 0.12679635 -0.95777202 0.0032654435
0.0030195538 0.028772915 0.00060302811 -0.23690018 -0.058209572 -0.96978861 0.001036394
0.0046789413 0.027324963 0.00025408412 -0.19292216 -0.0072423597 -0.98118734 0.0016960854
0.0075213537 0.027299067 -0.00014820904 -0.062023986 0.046482418 -0.99699163 0.0022637695
0.010607819 0.027307997 -1.2495788e-05 0.13316156 0.092825055 -0.98673779 0.0025987893
0.012957724 0.0267244 0.00040718005 0.33188373 0.15684962 -0.93018889 0.0038302261
0.0030192449 0.030431673 0.00054568844 -0.18527079 -0.033535093 -0.98211509 0.0019121409
0.0046787197 0.030408338 0.00021934882 -0.13579473 0.018721301 -0.99056011 0.002083723
0.0075238873 0.030393239 7.2307885e-06 0.035737727 0.057928592 -0.99768084 0.0033644571
0.010298055 0.030276649 0.00028748554 0.19672321 0.11852811 -0.97326827 0.0034886331
0.0027815609 0.03327994 0.00051874225 -0.22483374 -0.015052116 -0.97428089 0.0020538091
0.0046792161 0.033259977 0.00026245136 -0.084274024 0.032245748 -0.99592072 0.0018328697
0.0075278385 0.033259347 0.00025279541 0.079082541 0.084664591 -0.99326628 0.0027561798
0.0095258271 0.032753002 0.00046010222 0.2835713 0.16498858 -0.94465125 0.0043899543
0.0026034634 0.036249895 0.00053026201 -0.093882143 0.028156361 -0.99518508 0.0021537838
0.0046805972 0.03612021 0.00040051551 -0.002997322 0.049930695 -0.99874818 0.0026317846
0.0070564547 0.035771407 0.00048848591 0.14685841 0.13299972 -0.98017532 0.0028111467
0.0026800199 0.038204573 0.00057108421 -0.05435776 0.089399584 -0.99451137 0.0028948272
0.004246478 0.038190994 0.00054559158 0.030925501 0.084865168 -0.99591237 0.0044144117
0.0075673372 -0.06203597 0.0027789553 0.81982136 -0.55925328 -0.12299865 0.00011582566
0.0087632025 -0.060382269 0.0029080887 0.81981975 -0.55925608 -0.12299704 0.00011341036
0.0094883675 -0.059485219 0.0033499827 0.82677394 -0.550008 -0.11805092 0.00017221858
0.017300908 -0.046371244 0.0013400395 0.87487698 -0.39448583 -0.28101805 0.00089543767
0.017760735 -0.045377873 0.00092537003 0.87487793 -0.39447537 -0.28102982 0.00090684439
0.018484622 -0.043976568 0.0011867513 0.8895126 -0.37003425 -0.26803359 0.0010082528
0.019711113 -0.041439436 0.0020521809 0.90186757 -0.33770823 -0.26942182 0.00040964651
0.020533295 -0.039032385 0.0017786478 0.90917569 -0.30444407 -0.28410107 0.00038647771
0.021159353 -0.037658133 0.0024437984 0.92073256 -0.28371817 -0.26787242 0.00026219143
-0.010531607 -0.034923978 0.0010066708 -0.85989434 0.44407558 -0.25175118 0.00049201184
0.021688109 -0.035619102 0.0020872816 0.9190194 -0.24378635 -0.30979273 0.00070652709
-0.0096727237 -0.032902993 0.0015693684 -0.84889942 0.44485641 -0.28543419 0.0015962085
0.02251881 -0.032566804 0.0020526429 0.92351568 -0.20766746 -0.32247937 0.00078719627
-0.0082514593 -0.02953908 0.0019071246 -0.87059802 0.40748185 -0.27571279 0.0026943784
0.023113338 -0.029582988 0.0017664237 0.91855061 -0.20436212 -0.3383798 0.0013373691
-0.0070323222 -0.026675386 0.0018279464 -0.87981993 0.38671613 -0.27634686 0.0028722405
0.023754448 -0.026653005 0.0018823375 0.90817028 -0.17436501 -0.38055703 0.0019922201
0.02454688 -0.025540536 0.0033311923 0.92919135 -0.17261101 -0.32681632 0.0011420422
-0.0061676623 -0.024249747 0.0021677311 -0.89977396 0.33460921 -0.2800777 0.0026438469
-0.0053831162 -0.023125784 0.0012446472 -0.86826313 0.36244079 -0.33875632 0.0014275205
0.02395685 -0.023759233 0.0012105883 0.88980776 -0.12823617 -0.43794709 0.001250989
0.024625128 -0.023589741 0.0025660065 0.90317327 -0.16658841 -0.39563403 0.0015951222
-0.0047111688 -0.020643272 0.0019573686 -0.88503289 0.32098114 -0.33717629 0.0021974901
0.023931319 -0.022070652 0.00072703557 0.86447114 -0.12628646 -0.48656064 0.0031738947
0.024883889 -0.020551058 0.0021996214 0.88488865 -0.091217011 -0.45678398 0.0020693105
-0.0037031139 -0.017675592 0.0020727296 -0.86209518 0.2781049 -0.42361486 0.0026876382
-0.0026838805 -0.016610174 0.00086972909 -0.77952367 0.30924734 -0.54470998 0.0018200289
0.02494197 -0.017596181 0.0018091002 0.86494809 -0.047258612 -0.49963126 0.0016751197
-0.0032967301 -0.015010855 0.0029527997 -0.85916859 0.23894027 -0.45247871 0.002444874
-0.0023149615 -0.014489791 0.001507154 -0.80354828 0.28673679 -0.52162445 0.004627218
0.025195198 -0.014745546 0.0020706421 0.85230863 -0.0057710418 -0.52300733 0.0020133299
-0.0017744472 -0.011697032 0.0020437799 -0.81780601 0.24124587 -0.522488 0.0010227659
0.025235502 -0.011758276 0.0021381238 0.82643908 0.026381295 -0.56240767 0.0013572122
-0.00095866044 -0.0087293042 0.002093744 -0.77327138 0.21617134 -0.59608829 0.0022514032
0.00026356647 -0.0079106325 0.00089644385 -0.74010235 0.22728834 -0.63292062 0.0021866071
0.023929819 -0.0075750183 0.00069863396 0.71981502 0.082613401 -0.68923241 0.0023003067
0.025168052 -0.0086793331 0.00224574 0.81000048 0.046468277 -0.58458525 0.0022390818
-0.00072895788 -0.0058140513 0.0027292916 -0.76392174 0.17366636 -0.62150103 0.0024261598
0.00064362329 -0.005497789 0.0012597486 -0.73380029 0.1936411 -0.65118378 0.0026399055
0.023874873 -0.0055067679 0.00094352383 0.71243453 0.098882616 -0.69473678 0.0017785847
0.024969796 -0.0056905169 0.0023181834 0.80833083 0.087760359 -0.58215064 0.0019157969
-0.00050303957 -0.0030230875 0.0031511327 -0.74827725 0.14109409 -0.64820796 0.0022428709
0.0010135181 -0.0027466742 0.0015893481 -0.71459204 0.16496673 -0.67981189 0.001871039
0.023661809 -0.0027329416 0.0011633921 0.75142312 0.11589567 -0.64956254 0.0013642815
0.024930241 -0.0029496243 0.0026855138 0.78607154 0.10036486 -0.60993314 0.0013885294
-0.00031246687 -0.00044210441 0.0034755473 -0.76202297 0.11764661 -0.63677329 0.0042328755
0.0014437669 0.00036737625 0.001849358 -0.67655104 0.14115554 -0.72274047 0.0029459391
0.02337466 0.00038771739 0.001443933 0.7409566 0.12813708 -0.65921479 0.0013558527
0.024748441 0.00016353116 0.0029769759 0.77002364 0.11732811 -0.62713456 0.0012825626
0.0015957422 0.0033699973 0.0021396736 -0.64715827 0.095331386 -0.75637168 0.0021831975
0.0034953917 0.003830554 0.00071430998 -0.52075315 0.11013618 -0.84657329 0.0021278618
0.023103099 0.0034343242 0.0017788224 0.72247118 0.14504021 -0.67601687 0.0010021604
0.024545794 0.0031430279 0.0033110636 0.75782067 0.13030639 -0.63931847 0.0011952379
0.0018348814 0.0062316717 0.0022076648 -0.62547791 0.05206253 -0.77850294 0.0027644706
0.0037124131 0.0063173482 0.00086889998 -0.5055263 0.068147555 -0.86011571 0.0020424672
0.021081068 0.0071579013 0.0007543047 0.61907321 0.15302275 -0.7702806 0.0015503303
0.022738684 0.0061723432 0.002008168 0.68263406 0.15231508 -0.7147103 0.0026904019
0.0018643428 0.009298672 0.0023118663 -0.576114 0.020757293 -0.81710571 0.0010843368
0.0038930045 0.0094597852 0.00095048686 -0.48550183 0.039907124 -0.87332428 0.00165563
0.020557236 0.0095630959 0.0008478344 0.61553282 0.16111825 -0.77146626 0.0012956936
0.022221424 0.009251168 0.0021862607 0.67492586 0.16702171 -0.71873415 0.0027182119
0.0016803753 0.012450068 0.0024524545 -0.58026588 -0.0054087387 -0.81440926 0.0024691224
0.003972651 0.012393705 0.0010058859 -0.46313685 0.0080519328 -0.8862502 0.0017554729
0.020072088 0.01256023 0.0011251271 0.54150528 0.1701992 -0.82328862 0.0027265188
0.021951828 0.012281541 0.002636672 0.69974709 0.1852162 -0.68996304 0.0013664126
-0.00031267939 0.016299115 0.0035741259 -0.63991559 -0.1004265 -0.76185471 0.0011744745
0.0015966193 0.015296899 0.0023506968 -0.55505228 -0.060473029 -0.82961434 0.0015844052
0.0039724191 0.015245784 0.00097389147 -0.43465316 -0.031794917 -0.90003651 0.0018265917
0.019624189 0.015363129 0.0014400205 0.55785471 0.18038875 -0.81009746 0.0017311502
0.02156789 0.015178343 0.003007432 0.66208512 0.19414254 -0.72384524 0.0018553804
-0.0004317814 0.018441994 0.003358942 -0.60507017 -0.11508179 -0.78781104 0.0016800433
0.001650235 0.018221296 0.0020463839 -0.48120394 -0.076977856 -0.87322229 0.0010562525
0.0039216327 0.018206935 0.00086950487 -0.39547378 -0.052823588 -0.91695696 0.0017489112
0.01749819 0.018849503 0.00083980756 0.43277282 0.17820549 -0.88371396 0.0031716407
0.019471984 0.018144293 0.0020040479 0.59972012 0.2068474 -0.77301353 0.0031087871
0.021198971 0.017483482 0.0032987674 0.66664827 0.21429746 -0.71390241 0.0018226849
-0.00071002962 0.021457039 0.0031086751 -0.56607795 -0.11867268 -0.81576502 0.0017201089
0.0015450456 0.021292306 0.0018025027 -0.45027247 -0.086032197 -0.88873684 0.00099001965
0.0037333148 0.021416795 0.00076504843 -0.34988254 -0.058840442 -0.93494391 0.0017207231
0.017017631 0.021596704 0.001176975 0.47539815 0.19327722 -0.85827768 0.0022702748
0.019215025 0.021142418 0.0026020883 0.61103207 0.22844106 -0.75792778 0.003006317
-0.0011200274 0.024466177 0.0029190998 -0.5272581 -0.11501716 -0.84188473 0.0018747075
0.0015951488 0.024309661 0.0014792022 -0.40678179 -0.070721708 -0.91078371 0.0016285555
0.0034952469 0.024264347 0.00069188373 -0.30266628 -0.058330078 -0.95130992 0.001570695
0.0148074 0.024886033 0.00075535383 0.33892146 0.18052389 -0.92333269 0.004203924
0.016597783 0.024317835 0.0016116505 0.5023607 0.21092686 -0.83853656 0.0014693425
0.018651348 0.024161059 0.0030381577 0.65927106 0.24250282 -0.71172619 0.0022942277
-0.0031822766 0.028493786 0.0035365899 -0.58254397 -0.15577543 -0.79773206 0.0012654902
-0.0014709972 0.027278801 0.0027066376 -0.47633582 -0.13082483 -0.86947632 0.0017792081
0.0016168351 0.02718797 0.0012176621 -0.38828728 -0.081413046 -0.91793507 0.0012290177
0.014078378 0.027491922 0.0009963566 0.40312913 0.20646492 -0.89154869 0.003021653
0.016555198 0.027167745 0.0023735422 0.5784812 0.25591898 -0.77450949 0.002486656
0.018335629 0.026095191 0.0034191688 0.65657938 0.27187061 -0.70355523 0.0014654036
-0.0034412888 0.030435164 0.0033242214 -0.53603113 -0.16603392 -0.82770973 0.0018247324
-0.0015028853 0.030316185 0.0022649881 -0.43960831 -0.12228613 -0.88982618 0.0016052016
0.0013278939 0.030266188 0.0010711208 -0.3352215 -0.088486604 -0.93797481 0.001766064
0.01178764 0.030951139 0.00079111056 0.28298151 0.18911758 -0.94029576 0.0041057295
0.013787062 0.030339632 0.0015800451 0.44527504 0.22933456 -0.86552632 0.0018137463
0.016002448 0.029959297 0.0028930856 0.61101389 0.27041021 -0.74400294 0.0028715059
-0.0040222616 0.033459492 0.0030224691 -0.46712947 -0.18052943 -0.86556298 0.0021478017
-0.0015006749 0.033382811 0.0018378161 -0.39283448 -0.12460464 -0.91112822 0.0019415729
0.0011191426 0.033311844 0.00092810881 -0.27405593 -0.070120715 -0.95915395 0.0020215695
0.010973925 0.033485357 0.0010527777 0.35093087 0.22331704 -0.90938276 0.0028257326
0.013694481 0.033373211 0.00242557 0.53584099 0.27982354 -0.79660106 0.0028578856
0.015585083 0.032188997 0.0033831676 0.63433701 0.30122292 -0.71195596 0.0019863646
-0.0063154027 0.036877453 0.0033887406 -0.47838709 -0.2306516 -0.84731674 0.0018211545
-0.0043679103 0.036304768 0.0025870753 -0.39351347 -0.17223451 -0.90304065 0.0020105098
-0.0014988064 0.036211248 0.0014798017 -0.28932264 -0.097442277 -0.95225912 0.0028159793
0.00097287941 0.036081966 0.00081423251 -0.1969946 -0.018969754 -0.98022103 0.0030720425
0.0081308624 0.036601398 0.00082051428 0.22331251 0.21517444 -0.95070052 0.0026851555
0.010493225 0.036167495 0.0015487093 0.38461643 0.24802473 -0.88913101 0.001890979
0.012925867 0.036185555 0.0029198793 0.56310928 0.30286038 -0.7688846 0.0032629459
-0.0069835638 0.039398704 0.0030541508 -0.40312222 -0.20417237 -0.89207965 0.0020447837
-0.0043321601 0.039319187 0.0020101396 -0.32714522 -0.13432799 -0.93537802 0.0023089501
-0.0014972797 0.039279535 0.0011942955 -0.21201941 -0.057669379 -0.97556239 0.0034298589
0.0014133081 0.039407659 0.00073826546 -0.1094078 0.0047498085 -0.99398559 0.0028237302
0.0048584654 0.039653763 0.0007793 0.13309018 0.14908057 -0.97982752 0.0046624565
0.0075148623 0.039251391 0.0012604252 0.2882086 0.24484494 -0.92573583 0.0026048934
0.010355073 0.03909957 0.0024397848 0.46787196 0.3184936 -0.82441354 0.0038473418
0.012237567 0.038402129 0.003356487 0.56824499 0.3490186 -0.74517351 0.0020990504
-0.0093955472 0.042617757 0.0033409717 -0.42113155 -0.21851803 -0.88028294 0.0019013687
-0.0073068999 0.042322602 0.0025654128 -0.33024028 -0.15409642 -0.93123341 0.0020003242
-0.004389172 0.042371474 0.001646725 -0.25749347 -0.077350497 -0.96317911 0.0026453272
-0.001496623 0.042361695 0.0010887976 -0.11962464 0.02917864 -0.99239033 0.003638427
0.0015949283 0.042345308 0.00092098629 0.031695697 0.12627606 -0.9914887 0.0052624936
0.0046889917 0.04238078 0.0012787867 0.19321987 0.21729849 -0.95679015 0.0049969153
0.0075594685 0.042396668 0.0022445335 0.39187282 0.30897203 -0.86658639 0.0038763296
0.0096884184 0.041707445 0.0031034853 0.51188093 0.37169912 -0.77447897 0.0034894133
-0.010378072 0.045501139 0.0031483616 -0.34553769 -0.14875728 -0.92653924 0.0017077443
-0.0074630668 0.045333236 0.0022103675 -0.26911685 -0.077816628 -0.95995867 0.0023790312
-0.0043554166 0.045260917 0.0015205201 -0.12226701 0.0043489975 -0.99248773 0.0043646311
-0.0014971562 0.045230325 0.0012281898 -0.01737245 0.085428104 -0.99619287 0.0045368131
0.0015961601 0.045246795 0.0013830883 0.17494528 0.20761561 -0.9624396 0.0061790762
0.0046972311 0.045327898 0.002152734 0.30736694 0.30774605 -0.90045422 0.0050743143
0.0070820525 0.0450119 0.0030972944 0.45289433 0.37873808 -0.80712092 0.0032634088
-0.012446143 0.048749998 0.0034406227 -0.36607081 -0.13897911 -0.92015046 0.0017332911
-0.010578865 0.048266377 0.0028562751 -0.27024612 -0.072099686 -0.9600879 0.0025775118
-0.0074603995 0.048179306 0.0020741532 -0.19216339 0.019334663 -0.9811725 0.0031519292
-0.00435687 0.048133437 0.0016616555 -0.065317303 0.088238396 -0.99395555 0.004170639
-0.0014990943 0.04813363 0.0016619046 0.077234186 0.22390956 -0.97154486 0.0040078466
0.0015982387 0.048194848 0.0022086608 0.24411294 0.31202844 -0.918176 0.005226071
0.0043070125 0.047889922 0.0030467561 0.38625875 0.39327088 -0.83435136 0.0038559828
-0.012915448 0.051273849 0.0033237687 -0.27111012 -0.03537114 -0.96189821 0.0022915485
-0.010525368 0.051205382 0.0027344916 -0.18402247 0.049775239 -0.98166084 0.0030863434
-0.0074639646 0.05130253 0.0022800379 -0.090206817 0.14594859 -0.9851709 0.0040700063
-0.0043917592 0.051257052 0.0021887762 0.02980648 0.23417154 -0.97173828 0.0038888759
-0.001502913 0.051089451 0.0024925708 0.18926662 0.31890428 -0.92869705 0.0046403073
0.0011794476 0.05075027 0.0031029172 0.3262845 0.40593919 -0.85366958 0.0039541782
-0.013132114 0.054213088 0.0033905474 -0.18853982 0.075629011 -0.97914916 0.0022579369
-0.010588596 0.054362092 0.0030249082 -0.088297121 0.14343396 -0.98571312 0.0032274239
-0.0074403798 0.054453395 0.0029156031 0.0096404823 0.24562864 -0.96931612 0.0042143301
-0.0044921562 0.054144207 0.0030755214 0.13154835 0.34547645 -0.92916149 0.0041822726
-0.0018825282 0.053300627 0.003294942 0.27549428 0.43314922 -0.85818678 0.0037592088
-0.012429306 0.056394733 0.0035463748 -0.14808787 0.20439999 -0.96762109 0.0036250385
-0.010354539 0.056462917 0.0034574242 -0.020607771 0.31779096 -0.94793689 0.0043628202
-0.0076455032 0.056309231 0.0035017459 0.099202171 0.40456545 -0.90911263 0.0041272612
-0.046269037 0.067057744 0.0035186433 -0.31142312 0.042276613 -0.94933045 0.088579632
-0.045985408 0.0681867 0.003508993 -0.20563594 0.16607954 -0.96443319 0.10874387
0.010213909 -0.058579244 0.0037385901 0.8275404 -0.54802197 -0.12185624 0.00020554062
0.011060178 -0.057311077 0.0041160737 0.83269763 -0.5414694 -0.11586857 0.00021985895
0.012153365 -0.055829234 0.0047233184 0.83726376 -0.53394061 -0.11788453 0.00010141111
0.013446307 -0.053727128 0.0052014221 0.84096354 -0.52575403 -0.12791802 6.0508879e-05
0.014828227 -0.051645681 0.0058950563 0.84894723 -0.51276338 -0.12791513 8.2014223e-05
0.015405785 -0.050900795 0.0064000073 0.85827339 -0.49834463 -0.12255403 0.00023081065
0.022915062 -0.033008933 0.0041540642 0.92496359 -0.22372633 -0.30722779 0.00075587817
0.023655348 -0.030643133 0.0045798053 0.93919867 -0.22599651 -0.25851762 0.00062526105
0.024146112 -0.028979059 0.0047949431 0.94326717 -0.22746645 -0.24188021 0.00040099261
-0.007513965 -0.026752478 0.0049787341 -0.91253865 0.34170976 -0.22473896 0.0011009204
0.024780601 -0.026736531 0.0051197447 0.94188166 -0.2188931 -0.25484258 0.00065749203
-0.006450111 -0.023591906 0.0045029004 -0.90457666 0.33186454 -0.26759484 0.0026441927
0.025444698 -0.023608878 0.0048505324 0.93573272 -0.19980757 -0.29065666 0.0019045945
-0.0060841534 -0.021824485 0.0056708534 -0.92883098 0.30146348 -0.21539001 0.00068250438
-0.0053941016 -0.02032749 0.0043914993 -0.92034662 0.31607229 -0.2303482 0.00091524323
0.02608042 -0.020595893 0.0050614974 0.93053341 -0.14256336 -0.33731782 0.001222145
-0.0047404193 -0.017684722 0.0049105301 -0.93368298 0.2671397 -0.23847938 0.0014906588
0.026292374 -0.017699445 0.0045784866 0.92117262 -0.10731068 -0.37406611 0.0016040237
0.027129134 -0.016569113 0.0065701087 0.92715359 -0.094499223 -0.36256894 0.0017021458
-0.004024663 -0.014771223 0.0050473535 -0.93284726 0.20426534 -0.29676852 0.0027316383
0.02660927 -0.014655714 0.0047314926 0.91752434 -0.054808449 -0.39388463 0.001900735
0.02710312 -0.015111005 0.006131168 0.93907255 -0.049264017 -0.34017038 0.0019304593
-0.0033954957 -0.011916659 0.0050427672 -0.92199904 0.18234132 -0.34156901 0.0022459831
-0.0027080707 -0.0107366 0.0040766476 -0.89097518 0.2248849 -0.39444891 0.0024395061
0.026794374 -0.011715616 0.0049645002 0.91176504 -0.010292814 -0.41058305 0.0014581032
-0.0032046696 -0.0088563524 0.0061341361 -0.93603337 0.13285032 -0.32587156 0.0082996087
-0.0024163141 -0.0084956894 0.0044539948 -0.88123447 0.19592203 -0.43016323 0.0020554266
0.026798271 -0.0085977186 0.0050311987 0.89883852 0.02052504 -0.4377991 0.0013546746
-0.0021400747 -0.0056219981 0.0049985563 -0.88319933 0.12869011 -0.45099649 0.0021478126
0.026437195 -0.0058580474 0.0045919358 0.86474293 0.060919967 -0.49850616 0.0018677423
0.027093509 -0.0050067017 0.0059690257 0.89139342 0.051587068 -0.45028499 0.0018118784
-0.001710389 -0.0028048248 0.0049718046 -0.84145427 0.12058637 -0.52670068 0.0034402809
0.026192371 -0.0027006804 0.0046249195 0.85812092 0.088471599 -0.505768 0.0022254139
0.027117116 -0.002843922 0.0063673141 0.89976352 0.080601521 -0.42886958 0.0015690754
-0.0014010641 0.00037321553 0.0051063234 -0.83111465 0.085805573 -0.5494414 0.0044494555
0.026030229 0.00034552405 0.0049425699 0.84417403 0.10753319 -0.52517307 0.0014761082
-0.0010360201 0.0033982415 0.0049009663 -0.81664371 0.044379279 -0.57543343 0.003992246
0.025591981 0.003398112 0.0049039489 0.84068358 0.13202323 -0.5251866 0.0018312804
-0.0011294544 0.0063548223 0.0051500807 -0.78403413 -0.0061237202 -0.62068748 0.003508673
0.0001655613 0.0062556714 0.0036479514 -0.70902532 0.019432193 -0.70491511 0.0039397269
0.024083883 0.0069726799 0.0036164005 0.74078953 0.14874275 -0.6550622 0.0011658923
0.025161197 0.006243282 0.0049626324 0.82923239 0.15285018 -0.53759694 0.0016396933
-0.0012780314 0.0091643464 0.0053033978 -0.79194099 -0.035200339 -0.60958219 0.0018506203
0.00016548342 0.0091277538 0.003720202 -0.72026455 -0.0050679375 -0.69368094 0.0022311672
0.023613421 0.0098467553 0.0037692068 0.73215616 0.16398017 -0.66110355 0.0013758395
0.024740281 0.0090644378 0.0051246588 0.82655472 0.16522545 -0.53805935 0.0020353734
-0.0013550487 0.012344517 0.005108064 -0.74056613 -0.076687902 -0.6675933 0.0028498615
0.00016554051 0.011518562 0.0036672284 -0.65348321 -0.038873721 -0.75594211 0.0036237231
0.023382038 0.012549771 0.0042793509 0.79209471 0.1802128 -0.58318889 0.0018643767
0.024466978 0.012090952 0.0056657377 0.82628542 0.18084867 -0.53342861 0.0017258074
-0.0032068074 0.016168812 0.0063821352 -0.7585876 -0.14897482 -0.63431168 0.0025030035
-0.0015867417 0.015334843 0.0048899669 -0.68778658 -0.1414488 -0.71199852 0.0026831834
0.023052776 0.015492642 0.0048395377 0.7924546 0.20959966 -0.57278579 0.0011909981
0.024222763 0.0147202 0.0062466343 0.82084459 0.21338749 -0.52979237 0.0012086976
-0.0034852042 0.018523144 0.0061044297 -0.71231395 -0.1756054 -0.67953777 0.0015092213
-0.0018221552 0.018186074 0.0045428057 -0.63289654 -0.14524716 -0.76049012 0.0014265805
0.022361835 0.018264599 0.0049726502 0.77534205 0.2260894 -0.58968484 0.0028208054
-0.0038196929 0.021293329 0.0057332641 -0.72123003 -0.18209913 -0.66833156 0.0013395305
-0.0020845598 0.021165039 0.004191102 -0.60115701 -0.15101379 -0.78473252 0.0015784402
0.020618511 0.021551387 0.0040569766 0.67697018 0.23756139 -0.69661748 0.0018743634
0.021852877 0.021009561 0.0053953091 0.77732629 0.25204071 -0.57640201 0.0015989566
-0.0042125341 0.02437124 0.0053264843 -0.67713672 -0.17861383 -0.7138508 0.0019091463
-0.0025331373 0.024125796 0.003953584 -0.63004678 -0.16110528 -0.75966179 0.0012273061
0.020082882 0.024432095 0.0046356935 0.75627953 0.27104685 -0.59546191 0.00149505
0.021465112 0.023647392 0.0060746367 0.7836991 0.28224513 -0.55331129 0.0011931505
-0.0062534353 0.027712744 0.0062555945 -0.68841147 -0.23112255 -0.68751138 0.002392554
-0.0044599273 0.027297644 0.004783236 -0.59877229 -0.17969723 -0.78050029 0.00063451711
-0.0027051044 0.026111418 0.0036833663 -0.56185704 -0.16223279 -0.81117028 0.00084849144
0.017874293 0.028275663 0.0038527031 0.70882022 0.29648831 -0.64005357 0.0015591774
0.019345582 0.027300242 0.0050919619 0.74773914 0.28550875 -0.59947544 0.0027060418
-0.0067641246 0.030480884 0.005809329 -0.66473776 -0.25049204 -0.70383054 0.0014682648
-0.004799556 0.030099068 0.004330717 -0.5598467 -0.21470454 -0.80029595 0.0012936302
0.017416546 0.030412178 0.0043967972 0.72273499 0.30968714 -0.61785769 0.0024651643
0.018749848 0.030005006 0.0057649589 0.74397552 0.33373237 -0.57889813 0.0014049748
-0.0091023967 0.034095582 0.0063393717 -0.631226 -0.34005195 -0.69707847 0.0017022823
-0.0071888501 0.033324424 0.0051392633 -0.58308029 -0.27341446 -0.76502419 0.0015046536
-0.0052602598 0.032749053 0.0039376272 -0.49896234 -0.23135144 -0.83517253 0.0018399216
0.015002875 0.034498483 0.0038621207 0.68090236 0.33513787 -0.65119469 0.0014954336
0.016721452 0.033152703 0.0050312667 0.70757174 0.33624181 -0.6215173 0.0027980129
-0.0097815432 0.03649566 0.005728371 -0.55457503 -0.33884794 -0.76001889 0.0016834191
-0.0076147038 0.036137242 0.0043852874 -0.50654227 -0.2798076 -0.81555045 0.0013536058
0.014417253 0.036728643 0.004458752 0.65838289 0.36002201 -0.66099632 0.0011834786
0.015990289 0.035780098 0.0056549129 0.70351982 0.37849742 -0.60149771 0.0016669667
-0.012684728 0.040028878 0.0062243179 -0.57964641 -0.37114358 -0.72543961 0.0019654369
-0.010426709 0.039310906 0.0049963258 -0.51756388 -0.31058109 -0.79728729 0.0013596385
-0.0081506008 0.03862492 0.0038441983 -0.43895796 -0.26186198 -0.85950226 0.0015592041
0.011650742 0.040235601 0.003792726 0.6230948 0.38573027 -0.68041533 0.0014789078
0.013418731 0.039345808 0.0049851933 0.63894439 0.37998688 -0.66884977 0.0016442668
0.015330385 0.038325377 0.0065463115 0.7336632 0.41001093 -0.54187572 0.0030854729
-0.01524029 0.043605141 0.0063773771 -0.58727205 -0.37293568 -0.71835262 0.0024006723
-0.013397532 0.042433918 0.0056330902 -0.52619994 -0.3463929 -0.77661151 0.001669305
-0.010836783 0.042019017 0.0042331382 -0.45633021 -0.26943657 -0.848037 0.0012063415
0.010949779 0.042458683 0.0044977786 0.60448319 0.41173598 -0.68196309 0.003731939
0.012621026 0.041820761 0.005755832 0.67655039 0.44872549 -0.58388782 0.0022028624
-0.015876539 0.045515135 0.0060027153 -0.52949524 -0.32233053 -0.78468961 0.0027240075
-0.0134722 0.045314003 0.0046478002 -0.45562556 -0.2444551 -0.85594809 0.00096702517
-0.011534154 0.044521354 0.0038465639 -0.39735451 -0.20783839 -0.89381909 0.0018290264
0.0081285425 0.045782622 0.0042040148 0.50891531 0.4233228 -0.74953526 0.0015452572
0.010109974 0.044926554 0.0053805206 0.62875867 0.45449087 -0.63095212 0.0021612062
-0.018425874 0.04883074 0.006298088 -0.52193838 -0.32078534 -0.79036516 0.0029429812
-0.016405266 0.048304204 0.0053528738 -0.46625674 -0.26397482 -0.84434706 0.0021671285
-0.013805044 0.048229583 0.0040818513 -0.40646687 -0.19473708 -0.89267141 0.001350238
0.005274374 0.048973676 0.0041839462 0.47963688 0.44986543 -0.75337213 0.0041194088
0.0074375886 0.0480977 0.0052451999 0.56984729 0.48774758 -0.66134441 0.0028794913
0.0093070036 0.04720924 0.0063210209 0.60927081 0.49022073 -0.62327588 0.0020784221
-0.021020303 0.0527604 0.0064582606 -0.52034557 -0.31347546 -0.79433852 0.0026988769
-0.019134672 0.051390227 0.0058418144 -0.47728226 -0.27298918 -0.83527154 0.0014064215
-0.016375095 0.051333643 0.0045692162 -0.38115463 -0.16078277 -0.91042304 0.0019094923
-0.014328502 0.051106952 0.0038056667 -0.33338678 -0.1100169 -0.93634903 0.0024374546
0.0022222546 0.051897854 0.0042123753 0.38460866 0.48723209 -0.78401595 0.00254989
0.0045501371 0.051243998 0.0052925516 0.51232123 0.5202201 -0.6832993 0.0032840113
0.0066597932 0.050335925 0.0063070362 0.58839083 0.54347593 -0.59869045 0.00085722015
-0.021544749 0.05463241 0.0062438729 -0.4536522 -0.20790352 -0.86658865 0.0040926943
-0.019283403 0.054298934 0.0052834586 -0.3658585 -0.10798029 -0.92438513 0.0026073274
-0.016361373 0.054166019 0.0042143138 -0.29697013 -0.032376483 -0.95433772 0.0045886789
-0.014507139 0.05450071 0.0036994466 -0.23342714 0.023332832 -0.9720943 0.0026957439
-0.0038537397 0.055302102 0.0037304182 0.21400885 0.41885573 -0.88247389 0.0033860221
-0.0012719728 0.054652311 0.0042685512 0.3322587 0.48300883 -0.81012762 0.0016307471
0.0013577207 0.054071359 0.0052593891 0.42629752 0.54501081 -0.72196501 0.0023984241
0.0036921336 0.053385958 0.0063239611 0.54166329 0.5780893 -0.61025697 0.0016383452
-0.023913972 0.058549948 0.0065510948 -0.26831755 -0.045093983 -0.96227449 0.0050187935
-0.022132639 0.057336666 0.006047525 -0.3166005 -0.10674834 -0.94253331 0.0043881517
-0.019273395 0.057151347 0.005063368 -0.28583187 0.024141405 -0.95797563 0.0042230249
-0.01633629 0.057259675 0.004327124 -0.20386662 0.13132414 -0.97015071 0.0054000337
-0.0136054 0.057527628 0.0039557875 -0.1372862 0.19165182 -0.9718138 0.0033581562
-0.010367799 0.057969633 0.0039977087 0.057390708 0.38880759 -0.91952968 0.00385065
-0.0072406377 0.057589166 0.0041828658 0.16200696 0.46556625 -0.87005854 0.0020628679
-0.0043347152 0.057180561 0.0047405986 0.28943396 0.53429455 -0.79420233 0.0027012196
-0.0017782142 0.0568415 0.0055973423 0.39759773 0.59684962 -0.69691205 0.0020491751
0.00032309088 0.056281827 0.0063873804 0.4756749 0.60938072 -0.63434106 0.0018334991
-0.024395859 0.060476918 0.0065574781 -0.23620713 0.045285169 -0.97064686 0.013101146
-0.022445235 0.060169853 0.0060741105 -0.19270992 0.13007759 -0.97259587 0.0054677282
-0.019287325 0.060074594 0.0053790761 -0.17500889 0.23562673 -0.95595604 0.0073480522
-0.016430503 0.060218722 0.0050192121 -0.098412171 0.34651962 -0.9328661 0.0073429071
-0.013509275 0.060251772 0.0049211411 -0.0030956301 0.39806262 -0.91735303 0.0038264841
-0.010398225 0.060295515 0.0052368925 0.15878643 0.54168463 -0.8254481 0.003402465
-0.0073904363 0.059868094 0.0056224666 0.21977513 0.59151518 -0.77576339 0.0036740445
-0.0049134544 0.059226505 0.0060146232 0.33754867 0.63153499 -0.69801462 0.0024462533
-0.048304487 0.063570395 0.0057574785 -0.35864809 -0.58067542 -0.73088139 0.093303896
-0.046371233 0.063692465 0.0053024353 -0.13066503 -0.56986672 -0.81128204 0.054417167
-0.043339953 0.063734442 0.0057837083 0.1550217 -0.582093 -0.79820794 0.017150588
-0.04053982 0.064056963 0.0061285733 0.15184133 -0.4644337 -0.87249392 0.013266014
-0.038488887 0.064314023 0.0064543565 0.11443888 -0.37357688 -0.92051291 0.021054335
-0.023913316 0.06191894 0.0065391441 -0.16568759 0.28637838 -0.9436816 0.017362053
-0.022075335 0.062280942 0.0063750329 -0.11087786 0.37735847 -0.91940558 0.0076581333
-0.019320153 0.062340561 0.0061167064 -0.075128667 0.46477109 -0.88223773 0.0077484609
-0.016429488 0.062325101 0.0060077137 0.0037705093 0.54822582 -0.83632189 0.0060053295
-0.013690742 0.062240619 0.0060902373 0.086910486 0.61664551 -0.7824288 0.0043656509
-0.01111322 0.062027294 0.0063321027 0.19181038 0.66304934 -0.72358429 0.0029539026
-0.047966424 0.066702485 0.0063309749 -0.87167549 0.14905159 -0.46686769 0.01911757
-0.046389882 0.065854907 0.0040267729 -0.391265 -0.3407371 -0.85487413 0.10454418
-0.043501277 0.066246688 0.0046542408 0.33428109 -0.15761876 -0.92919987 0.021632684
-0.040455114 0.066378549 0.0057799513 0.26114619 0.026805473 -0.96492702 0.039107587
-0.038198516 0.065814584 0.0064278753 0.24681917 0.011496592 -0.96899337 0.028847052
-0.045992166 0.069273412 0.0043300702 -0.15625031 0.44240698 -0.88309789 0.11139397
-0.043580621 0.069012165 0.0051022326 0.41087881 0.45506442 -0.78999674 0.015033429
-0.041146729 0.068411842 0.00610387 0.38526878 0.31633487 -0.86689109 0.015267513
-0.04563063 0.071136266 0.0056877346 -0.18724339 0.7579664 -0.62484145 0.07435821
-0.044572107 0.070993751 0.00608144 0.11648023 0.79340941 -0.59743947 0.091795564
0.016309863 -0.049602486 0.0070088883 0.85847831 -0.49845737 -0.12064486 0.00021822013
0.017241204 -0.047861561 0.0074210246 0.86263055 -0.49111155 -0.12115283 0.00024585324
0.018781845 -0.045173533 0.0085417107 0.89083838 -0.44188303 -0.10557647 0.0008897846
0.025279781 -0.026761478 0.0079682544 0.94268 -0.21726573 -0.25327829 0.0005573628
0.025957234 -0.023820883 0.0071350117 0.94786334 -0.20967206 -0.2399848 0.00049069803
-0.0056191403 -0.019948831 0.0067820628 -0.93133426 0.27774608 -0.23552799 0.0016269545
0.026699031 -0.020701056 0.0074541797 0.93847573 -0.15430698 -0.30895433 0.00047263072
-0.005151262 -0.017579352 0.0078569129 -0.93547368 0.24299374 -0.25659919 0.0019112183
0.027190328 -0.018053796 0.0076026157 0.93050379 -0.14126852 -0.33794361 0.0013201981
-0.0046642297 -0.015394842 0.0075112958 -0.95002699 0.23301128 -0.20773646 0.0014053049
0.027704332 -0.014691126 0.0081219841 0.95486581 -0.059211839 -0.29107603 0.00040121184
-0.0040196553 -0.011853501 0.0073816706 -0.95550036 0.17760026 -0.23553616 0.0024124542
0.02785226 -0.01130152 0.0078972559 0.95149541 -0.028029181 -0.30638364 0.00031950377
-0.0036341185 -0.00847302 0.0079069901 -0.95809823 0.13639803 -0.25187963 0.0027437729
0.027935972 -0.0086466074 0.0079501048 0.94542664 -0.0064425105 -0.32577142 0.00076547271
-0.0032871871 -0.0059181554 0.0076802499 -0.95056075 0.1277201 -0.28305808 0.0028244632
0.027944922 -0.0057497122 0.0080972984 0.92763972 0.034265921 -0.37190109 0.00058549573
-0.0032230497 -0.0028509232 0.0082662534 -0.95986903 0.041371081 -0.27738044 0.0034499373
-0.0027299458 -0.0026052413 0.0069766664 -0.91241437 0.052748114 -0.40585423 0.004763166
0.02791439 -0.0030454528 0.0083905868 0.92057025 0.087577976 -0.38063172 0.0007759764
-0.0032272933 0.00029224239 0.008758476 -0.95094132 0.0068733296 -0.30929485 0.0049756207
-0.0027335889 0.00028811046 0.0074596698 -0.92062414 0.06066756 -0.38570797 0.0043402263
0.027446469 0.00028983154 0.0078434236 0.92452133 0.091592737 -0.3699609 0.00078997127
-0.0032282735 0.0034386981 0.0088722035 -0.92091554 -0.026965575 -0.38882819 0.0043953471
-0.0024906376 0.0034215129 0.0071826088 -0.89394784 0.013104743 -0.44797939 0.002946886
0.026670123 0.0036604586 0.0069573843 0.89268589 0.12025424 -0.43433961 0.0018507972
0.027357683 0.0031918678 0.0083821155 0.92313063 0.10167137 -0.37080017 0.0012607346
-0.0032957643 0.0065124198 0.0086678173 -0.90108299 -0.054459468 -0.43021333 0.0027865842
-0.0025389281 0.0061221584 0.0071961307 -0.8764742 -0.028986128 -0.4805755 0.002589029
0.026509628 0.0065134377 0.0075122346 0.90039957 0.1598345 -0.40463999 0.0011654763
0.027275266 0.0056195152 0.009035714 0.91600454 0.14516267 -0.37398335 0.0011853549
-0.0034683724 0.0092411702 0.0086328071 -0.88355476 -0.09110859 -0.45938018 0.0029613397
-0.0027321128 0.0092095956 0.0072639515 -0.86203617 -0.060613282 -0.50320941 0.0032315988
0.026247798 0.0092265373 0.0079907961 0.90591997 0.17042713 -0.38763851 0.00096794392
-0.0036525773 0.012291614 0.0081887934 -0.85708594 -0.1496616 -0.49295539 0.0030728506
-0.0027288469 0.011849658 0.006830974 -0.77445662 -0.12566185 -0.62002105 0.0016413195
0.025631547 0.012170796 0.0079114847 0.8882435 0.19072047 -0.41791046 0.0015448286
-0.0041884314 0.015320653 0.0080461074 -0.82468981 -0.19023351 -0.53263307 0.0031918429
0.025000045 0.015294909 0.0080361068 0.89241272 0.20699574 -0.40093929 0.0013437909
-0.0061414121 0.019438835 0.0094662979 -0.85291463 -0.27370152 -0.44454926 0.0051134764
-0.0048591392 0.018349951 0.0079307463 -0.81495041 -0.20792589 -0.54094607 0.0019868077
0.023712799 0.01877482 0.0072431895 0.86635637 0.25246266 -0.4309167 0.0018222313
0.024505936 0.018188369 0.0085526612 0.88539398 0.24112678 -0.39741093 0.0015452867
-0.0063961232 0.021631729 0.0088351127 -0.81202531 -0.24484183 -0.52978051 0.0019000907
-0.0052420599 0.021128666 0.0073929452 -0.79295963 -0.20984828 -0.57199538 0.0023113894
0.023283299 0.02138257 0.0079586934 0.86513352 0.27123737 -0.42186996 0.0016107603
-0.0068390486 0.024355104 0.008285014 -0.78484309 -0.25341433 -0.56551075 0.0023919677
-0.0055245296 0.023514114 0.0069046752 -0.70732552 -0.21859761 -0.6722393 0.0013181705
0.022384625 0.024203587 0.0080185924 0.85179287 0.2929703 -0.43430099 0.0017859944
-0.0090486892 0.028403008 0.009431906 -0.76204306 -0.35129949 -0.54394764 0.0011463896
-0.007519675 0.027224103 0.0079115946 -0.76564968 -0.28870466 -0.57483059 0.0021346831
0.020718522 0.027656579 0.007239793 0.8118127 0.32288501 -0.48652381 0.0023914233
0.021679921 0.026791852 0.0084541105 0.85114241 0.32096857 -0.41537431 0.0013919461
-0.0095165092 0.030664168 0.0086723603 -0.73802984 -0.34691393 -0.57875961 0.0023070185
-0.0081682829 0.030099846 0.0073665003 -0.6959359 -0.30597278 -0.64965677 0.0016986761
0.020022841 0.030399524 0.0080831498 0.83195436 0.34464175 -0.4348264 0.001097952
-0.012110721 0.03452098 0.0091709867 -0.68704367 -0.45691177 -0.56498027 0.0016646986
-0.010289758 0.033328637 0.0079483092 -0.71242756 -0.36761215 -0.59775269 0.001778964
-0.008509486 0.032081924 0.0067665954 -0.66286576 -0.32858971 -0.67278355 0.0034426141
0.017883692 0.034163736 0.0072000627 0.7830928 0.36822858 -0.50117201 0.0021344116
0.01886026 0.033154108 0.0081768502 0.81610334 0.36904445 -0.44472635 0.0014636513
-0.012877284 0.036523096 0.0085705556 -0.70014656 -0.44744617 -0.55640513 0.0013582621
-0.011239662 0.03600619 0.0072006085 -0.6155892 -0.38958305 -0.68503648 0.0011905843
0.017185098 0.036358766 0.007858187 0.80110377 0.38562793 -0.45773783 0.0015452977
0.018331669 0.035669655 0.0093969479 0.83246094 0.41138628 -0.37117407 0.00046055601
-0.015638279 0.039938852 0.0090544894 -0.64886159 -0.48910424 -0.58288562 0.0014871362
-0.013808491 0.039137237 0.0077280807 -0.6280908 -0.40777454 -0.66273808 0.00090790651
-0.011880374 0.037858568 0.006715395 -0.61317325 -0.41156876 -0.67426229 0.0015167715
0.014457673 0.040281564 0.0068711224 0.70178223 0.41796279 -0.57689583 0.0017640382
0.015928378 0.039073694 0.0081780273 0.77679694 0.44640112 -0.44419867 0.0020487946
-0.018251386 0.043414094 0.0093053654 -0.64829183 -0.42689475 -0.63045907 0.0023662564
-0.016364539 0.042393833 0.0080735553 -0.64576733 -0.41366032 -0.64177084 0.0026341584
-0.014686457 0.041456681 0.007069834 -0.62693965 -0.42571312 -0.65246838 0.0011212236
0.013736706 0.042434957 0.0078198612 0.75752503 0.4679715 -0.4551467 0.0019736402
0.015167138 0.041199915 0.008943297 0.77836901 0.46144798 -0.42568457 0.0011358983
-0.018980883 0.045584667 0.0085036587 -0.65548968 -0.42383146 -0.62506014 0.0025757095
-0.017200997 0.044969313 0.0072560548 -0.58314687 -0.37185842 -0.72226101 0.001482432
0.011261119 0.045870937 0.0075322953 0.72340918 0.52228928 -0.45154518 0.0011150937
0.012735272 0.044640999 0.0085074268 0.73289138 0.50451356 -0.45643872 0.0012065435
-0.021651199 0.048784167 0.0088580847 -0.64623088 -0.44927323 -0.61687869 0.0033400538
-0.019677453 0.048068609 0.0075783501 -0.56775576 -0.40441626 -0.71700823 0.0034139247
0.0085214917 0.049158853 0.0072520948 0.67093909 0.55878776 -0.48743924 0.0010837349
0.010141823 0.04803291 0.0082798768 0.70425463 0.53135407 -0.47083789 0.0019704185
-0.024249045 0.052209985 0.0091217179 -0.62382394 -0.43349877 -0.65032494 0.0054207654
-0.022267073 0.051284172 0.0079544894 -0.60164148 -0.3479943 -0.71897674 0.0033505016
-0.020398753 0.050483212 0.0068902154 -0.51565856 -0.30510676 -0.80062854 0.0027524289
0.0057881135 0.052210331 0.0072278655 0.62235653 0.59148985 -0.5126521 0.0016468735
0.0074822614 0.051151376 0.0081372019 0.64930874 0.58287603 -0.4885219 0.0024903852
-0.026978977 0.055540167 0.0094138458 -0.65887612 -0.49218234 -0.5688926 0.012918334
-0.024955427 0.05448281 0.008455893 -0.56384158 -0.40505713 -0.71973002 0.0040634256
-0.022837142 0.053999059 0.0071705519 -0.48785225 -0.29232854 -0.82252306 0.0028422521
0.0024347312 0.055242363 0.007051459 0.51512426 0.58753765 -0.62405646 0.0010037686
0.0046543148 0.054062746 0.0080384482 0.61659771 0.59842837 -0.51155728 0.0019541502
0.006454831 0.053075232 0.0090669468 0.63986027 0.60246998 -0.47708365 0.00092857092
-0.030382164 0.058468781 0.0095717981 -0.34631902 -0.67027831 -0.65634602 0.012099501
-0.028056392 0.057584442 0.0088547841 -0.47946814 -0.41556785 -0.77292538 0.0095823603
-0.025404548 0.057332128 0.0075200913 -0.46065146 -0.2475583 -0.85235858 0.0031958013
-0.023443928 0.056410484 0.0067642112 -0.44223908 -0.17831774 -0.8789922 0.00376812
-0.0010657305 0.058161579 0.0072523574 0.41973302 0.66853458 -0.6139102 0.0026004508
0.0014851845 0.05705205 0.0082345586 0.50817347 0.65597522 -0.5580827 0.0024569714
0.0035495593 0.055983894 0.0090922192 0.57719237 0.64834476 -0.49648577 0.0011369199
-0.042887084 0.06162199 0.0085480176 0.10515445 -0.74243295 -0.66161609 0.0063342475
-0.040189728 0.061345223 0.0084727313 0.037178189 -0.70784396 -0.7053898 0.011146376
-0.037221041 0.061096255 0.0085467882 -0.011081221 -0.68555719 -0.72793442 0.011095364
-0.034346465 0.06086592 0.00860334 -0.044794537 -0.64519155 -0.76270664 0.01368465
-0.031432457 0.060443185 0.0084994137 -0.18370475 -0.53780937 -0.82280838 0.023976002
-0.028627558 0.060279083 0.0078214593 -0.2710757 -0.26399308 -0.92564881 0.013874282
-0.025818704 0.060254082 0.0069720545 -0.30881524 -0.14755376 -0.9396069 0.0087934798
-0.0068009719 0.061240532 0.0070442469 0.27260807 0.68641216 -0.67418343 0.0013818464
-0.0043247724 0.060602397 0.0077525596 0.39117715 0.71133918 -0.58393234 0.0022452231
-0.0018056234 0.059677716 0.0084745884 0.45527571 0.70212245 -0.54749256 0.0023320471
0.00015958826 0.058902673 0.0091909245 0.50408095 0.67569923 -0.53789663 0.0019832682
-0.048800964 0.063320294 0.0073498017 -0.63358819 -0.71219891 -0.30222303 0.14086059
-0.04614405 0.062350068 0.0073168254 -0.28727347 -0.66168833 -0.69256234 0.098291636
-0.043486908 0.062263299 0.0072714244 0.094387576 -0.68340498 -0.72391212 0.013227922
-0.040433981 0.062506303 0.0071159308 0.048129838 -0.7137931 -0.69870085 0.011928227
-0.037257202 0.063098058 0.0071156747 0.10714219 -0.36887547 -0.92328292 0.01925206
-0.034330104 0.063240841 0.0073626949 0.13471809 -0.17345482 -0.97558421 0.019370561
-0.031444386 0.06325826 0.0074822274 -0.026642095 -0.1524812 -0.98794717 0.035858341
-0.028540572 0.063239262 0.0073482781 -0.064778306 0.2117735 -0.97516966 0.030937366
-0.025425108 0.0632312 0.0070858127 -0.081811801 0.33700544 -0.93794149 0.012584581
-0.022358455 0.063784823 0.0070699337 -0.044732057 0.46092892 -0.88630897 0.0081298575
-0.019363072 0.06392388 0.0070793857 0.0019023828 0.54498947 -0.83844078 0.0058736643
-0.016475534 0.063943744 0.0072153625 0.062774777 0.61938274 -0.78257561 0.0040644021
-0.01335432 0.063902497 0.0076511609 0.13437627 0.6986717 -0.70270962 0.0053270278
-0.010343628 0.063318476 0.0078920946 0.21794437 0.72441149 -0.65400928 0.0024334269
-0.0075486465 0.062719524 0.0084004905 0.33309093 0.74608099 -0.57655317 0.0024317659
-0.0050067678 0.062131431 0.0091886204 0.41039148 0.73805708 -0.53558433 0.0014196909
-0.048433054 0.066261843 0.007662592 -0.93396848 0.036513943 -0.35548505 0.055990819
-0.036932327 0.066411644 0.0069773956 0.3386988 0.38394335 -0.85899395 0.03655741
-0.034349781 0.066174731 0.0076178727 0.22640865 0.37207627 -0.90016574 0.028091667
-0.031553436 0.066193268 0.0082122851 0.095726967 0.49547076 -0.8633337 0.018486189
-0.028563984 0.066010118 0.008452531 0.045195308 0.56278157 -0.82536918 0.011943148
-0.025361104 0.065789059 0.0085173044 0.065407954 0.71546596 -0.69557905 0.0095191132
-0.022325331 0.065572962 0.0084421244 0.021310879 0.67378986 -0.73861557 0.007917311
-0.019502951 0.065570593 0.0086172894 0.050404523 0.73225337 -0.67916453 0.0049423408
-0.016532291 0.065369546 0.0087024756 0.093321666 0.76351076 -0.63901675 0.0033851115
-0.013815873 0.065260291 0.0091335122 0.17671867 0.80884147 -0.560844 0.0047463751
-0.047509715 0.069540173 0.0080510154 -0.82015526 0.48866224 -0.29758117 0.028694853
-0.042748392 0.070438027 0.0071168547 0.40691513 0.64089227 -0.65090489 0.021211905
-0.040327117 0.069327965 0.0075587411 0.42320672 0.57561004 -0.69969213 0.0059101549
-0.037503596 0.068456694 0.0081452783 0.33823732 0.59319156 -0.73056096 0.0093561411
-0.034911122 0.068221837 0.0090457201 0.2024401 0.68161333 -0.70315099 0.0046282397
-0.046435364 0.071751401 0.0077860956 -0.59664077 0.64875352 -0.47237545 0.10451114
-0.044211417 0.071348846 0.0072833677 0.21233675 0.83531874 -0.50710517 0.088681377
-0.0042123483 -0.01135779 0.01035849 -0.96411222 0.14616005 -0.22164118 0.0020170577
0.028308101 -0.012079729 0.010084577 0.95233154 -0.042630032 -0.30207187 0.00063583854
-0.0037267094 -0.0055295671 0.010357698 -0.96691072 0.079311803 -0.24247311 0.001751982
-0.0037405824 -0.0028639468 0.011788167 -0.97588295 0.044707023 -0.21366754 0.0017775792
0.028286647 -0.0018869471 0.0097353235 0.92970031 0.085793033 -0.35818544 0.00057859119
-0.0037363165 0.00029969937 0.011348298 -0.96839279 0.003990938 -0.24939825 0.0012731467
0.02834985 0.00029995909 0.010764347 0.95385641 0.095785506 -0.28457534 0.00091051549
-0.0037295963 0.0034566266 0.010655342 -0.95837885 -0.016444692 -0.28502572 0.0018107765
0.027949046 0.0036006751 0.010560663 0.95712465 0.12543936 -0.26110813 0.0011280021
-0.0039457991 0.0064536817 0.010630993 -0.95162231 -0.05794375 -0.30175737 0.0026483063
0.027657015 0.0064091017 0.010783536 0.95818508 0.13353312 -0.25308159 0.0011324816
-0.0043808692 0.0095376959 0.010925615 -0.9406305 -0.13128988 -0.31301314 0.0024993694
0.02685304 0.010246361 0.010100849 0.9499684 0.16319072 -0.26632479 0.0012661068
0.027393904 0.0088113528 0.011037447 0.95488185 0.15599751 -0.25271612 0.0010765806
-0.0048360275 0.012274146 0.010785354 -0.90768409 -0.20739967 -0.36482179 0.0032130782
0.026686715 0.012243413 0.010818191 0.94022834 0.19519138 -0.27905384 0.00083634316
-0.0061798906 0.015899731 0.012016911 -0.912099 -0.250285 -0.32470414 0.0020389401
-0.0054807235 0.014928598 0.010762431 -0.90445751 -0.23672619 -0.3548483 0.0027463885
0.02614768 0.015101437 0.011111451 0.93417722 0.2143776 -0.28522837 0.00041173483
-0.0065835752 0.018436836 0.011109743 -0.90014797 -0.26008263 -0.34941483 0.0028683024
-0.0056618224 0.017030137 0.0098289326 -0.87868273 -0.27432883 -0.39071769 0.0049472433
0.02533653 0.018183753 0.010962263 0.92463821 0.24606052 -0.29068598 0.00073529099
-0.0074421363 0.021394327 0.011014128 -0.86834747 -0.29549792 -0.39831346 0.003108931
0.023954287 0.022393772 0.01035931 0.91217858 0.28699362 -0.2925148 0.00063105882
0.024626402 0.02101592 0.011253063 0.91837627 0.26462516 -0.29420826 0.00081991131
-0.0091012558 0.025152205 0.011871008 -0.87109941 -0.3180131 -0.3742373 0.0018641273
-0.0082562929 0.024118407 0.010817656 -0.86453795 -0.30333707 -0.40070021 0.0030982911
0.023504211 0.024375232 0.011053741 0.90903121 0.2941584 -0.29518309 0.00074660114
-0.0095702931 0.027438611 0.011042995 -0.84888601 -0.31904656 -0.42142826 0.0024963499
-0.0085741756 0.026252205 0.0099261478 -0.84452504 -0.34534881 -0.40928212 0.003138572
0.022477202 0.027320243 0.011047911 0.89353949 0.32950923 -0.30497673 0.00093057076
-0.012032122 0.031505711 0.012131639 -0.78544825 -0.47723591 -0.3941026 0.0014612003
-0.010674046 0.030145243 0.010872409 -0.81910491 -0.42552495 -0.38470209 0.0025768965
0.020880105 0.030894145 0.01038878 0.87312692 0.36772057 -0.32004827 0.0011648302
0.021569476 0.02990534 0.011295237 0.88930672 0.35691199 -0.28591493 0.00093948352
-0.012677971 0.033507902 0.011051953 -0.79078203 -0.46591875 -0.39696783 0.002017197
