# .PCD v0.7 - Point Cloud Data file format
VERSION 0.7
FIELDS x y z normal_x normal_y normal_z curvature
SIZE 4 4 4 4 4 4 4
TYPE F F F F F F F
COUNT 1 1 1 1 1 1 1
WIDTH 553
HEIGHT 1
VIEWPOINT 0 0 0 1 0 0 0
POINTS 553
DATA ascii
-0.0016319475 0.054191586 -0.026433462 0.11164889 -0.24158138 -0.96393621 0.013281739
-0.013037072 0.056860115 -0.027399173 -0.098491184 -0.84742641 -0.52169722 0.014174899
-0.010511367 0.05646196 -0.027528703 -0.072625943 -0.79552174 -0.6015569 0.022049619
-0.0075298054 0.055977881 -0.027411075 -0.11155623 -0.65867358 -0.74411315 0.011995502
-0.0045141042 0.055851143 -0.02730749 0.077728562 -0.38657781 -0.91897541 0.018499084
-0.0016294618 0.055905998 -0.026910042 0.20060663 -0.21376167 -0.95606637 0.00611305
0.0002593059 0.056132771 -0.026474696 0.24933051 -0.07013002 -0.9658758 0.011792433
-0.015855029 0.057720702 -0.028741514 0.027667755 -0.90383369 -0.42698854 0.0032547347
-0.013566124 0.057413477 -0.028829074 0.063229516 -0.8451094 -0.53084087 0.016182303
-0.010445257 0.057554737 -0.028967097 0.079078577 -0.69947582 -0.71026766 0.013337052
-0.0072326837 0.058373395 -0.028881595 0.2081205 -0.33617023 -0.91851807 0.028239094
-0.0045037866 0.058841269 -0.028132159 0.3142333 -0.09269505 -0.9448095 0.018862776
-0.001706561 0.058828559 -0.027057493 0.29889038 0.11760447 -0.94701302 0.014657679
7.3838753e-05 0.058269653 -0.02644209 0.40368116 0.21397454 -0.88952601 0.009867874
-0.0068431059 0.062110577 -0.028808426 0.51568282 0.30711627 -0.79984426 0.031661451
-0.0045960215 0.061782576 -0.027628569 0.46169561 0.39761576 -0.79293054 0.0093957223
-0.0021869438 0.061133452 -0.026634425 0.42301393 0.39281493 -0.81655103 0.0079771383
-0.010007106 0.065361381 -0.028623017 0.5592947 0.48955569 -0.66897279 0.0054804725
-0.007775683 0.064392537 -0.027945483 0.51234323 0.54016978 -0.6676234 0.0055918461
-0.0052829995 0.063805357 -0.026749924 0.43435743 0.59123856 -0.679537 0.0031762784
-0.0010639468 0.048223525 -0.02343897 -0.23152474 -0.52473241 -0.81917775 0.0028240483
0.0014456937 0.047841687 -0.023637505 -0.070729695 -0.4609254 -0.88461578 0.0030458295
0.0042909882 0.047732931 -0.023609266 0.073556066 -0.378252 -0.92277575 0.00297494
0.0065559079 0.04813182 -0.02345651 0.25092426 -0.27361345 -0.92853254 0.0036179274
-0.0063545294 0.051013984 -0.023347184 -0.49121094 -0.57915735 -0.65060633 0.0059407023
-0.0042338306 0.050562996 -0.024015447 -0.29694137 -0.56972808 -0.76631308 0.0053659687
-0.001642357 0.049992837 -0.024360731 -0.14519313 -0.47576272 -0.86750722 0.0054327385
0.0012643747 0.049960732 -0.02462657 0.028865755 -0.37393141 -0.92700702 0.004308613
0.0043957112 0.049990088 -0.024387388 0.16064151 -0.25213888 -0.95426422 0.0049645938
0.0071029607 0.050027609 -0.023747269 0.30540219 -0.1594615 -0.93877667 0.0042274776
-0.0098157153 0.053967148 -0.023904055 -0.52054465 -0.73801798 -0.42937472 0.009837538
-0.0074802553 0.05316769 -0.024722828 -0.3461993 -0.69184977 -0.63363242 0.011207954
-0.0045976033 0.0527604 -0.025444048 -0.17277126 -0.54096073 -0.82311094 0.0040282947
-0.0016351844 0.052715503 -0.025796115 -0.024173321 -0.39240378 -0.91947538 0.0078448001
0.0012623583 0.052951578 -0.025694728 0.19376446 -0.28779194 -0.93788654 0.0094306599
0.0043316176 0.052951947 -0.025018185 0.28767732 -0.11381021 -0.95094109 0.006520323
0.0072685834 0.052735891 -0.023903189 0.39842403 0.0057255458 -0.91718346 0.0046810559
-0.012463391 0.05614851 -0.025137961 -0.23172052 -0.90227675 -0.36359641 0.013914516
-0.010568772 0.055109389 -0.025062086 -0.35055199 -0.83367264 -0.4267357 0.018860938
-0.0084491782 0.054778025 -0.026041385 -0.22183777 -0.71721077 -0.66060328 0.0097453836
0.0017072138 0.055808328 -0.025999274 0.32595205 0.027104249 -0.94499773 0.0075058201
0.0044506518 0.055851143 -0.024921698 0.38025567 0.094619088 -0.92002869 0.0045905826
0.0068086302 0.055623826 -0.023794746 0.47450694 0.19602937 -0.85814667 0.0042523108
-0.0005199333 0.060003765 -0.026248738 0.37278408 0.23227377 -0.89837682 0.0099938279
0.0015145739 0.058960017 -0.025570987 0.43257436 0.27156276 -0.85972852 0.0045423862
0.0041735801 0.058680691 -0.024274733 0.44107333 0.34071177 -0.83028299 0.0055336175
0.0061976756 0.057951659 -0.023429185 0.51014113 0.36762255 -0.77756649 0.003090132
-0.0034149911 0.063142017 -0.026107192 0.44690809 0.61418796 -0.65042013 0.0089009013
-0.0013774293 0.062120833 -0.025560824 0.43523005 0.49088925 -0.75472009 0.006232318
0.0010683149 0.061637502 -0.024438446 0.44489348 0.53958017 -0.71478873 0.0034668879
0.0033949469 0.060839973 -0.02360028 0.45242688 0.5402984 -0.70949811 0.0040460913
-0.0070275972 0.065419488 -0.025789455 0.48313761 0.63073182 -0.60725236 0.0044069798
-0.0043758247 0.064567864 -0.025092147 0.43960679 0.65950078 -0.60975784 0.0055813892
-0.0018291435 0.063961342 -0.024178984 0.39866298 0.67726803 -0.61836541 0.0053872252
-7.7663593e-05 0.063540302 -0.023522541 0.3809903 0.73856056 -0.55621457 0.0041321111
0.0021763623 0.042346817 -0.020421341 -0.24650823 -0.55924332 -0.79150522 0.0024666926
0.0045908033 0.041978877 -0.02064364 -0.121765 -0.50668585 -0.85348856 0.0026608265
0.0073639192 0.041776702 -0.02069938 0.031072499 -0.44706148 -0.89396334 0.0022284477
0.0098490706 0.041979596 -0.020543456 0.21588333 -0.36175257 -0.90693408 0.0029934181
-0.0010256825 0.04461107 -0.020952519 -0.33857962 -0.57199436 -0.74711871 0.0022589457
0.0015238156 0.044081312 -0.02138936 -0.2013725 -0.52198493 -0.82884312 0.0027785676
0.0044204504 0.044005617 -0.021791168 -0.068000004 -0.48183122 -0.87362152 0.00070922804
0.007417893 0.04406048 -0.021758171 0.11010265 -0.38202083 -0.91757149 0.0035189216
0.010286299 0.043895762 -0.021155162 0.27121982 -0.30321744 -0.91350913 0.0032862404
0.012433841 0.044343986 -0.020550914 0.40156618 -0.24293786 -0.88302082 0.0040180432
-0.006398458 0.048191942 -0.020629451 -0.62100852 -0.56536061 -0.54287744 0.0045639859
-0.0042548398 0.04709515 -0.021278888 -0.4319168 -0.58551306 -0.68601918 0.0035721974
-0.0017102003 0.04671691 -0.022243829 -0.27065563 -0.54668283 -0.79239106 0.0011214098
0.0011880251 0.046445906 -0.022817641 -0.13114503 -0.50047427 -0.85576075 0.0018600074
0.0045169578 0.046269801 -0.022953451 0.0077846497 -0.42877984 -0.90337551 0.0026132832
0.0076371869 0.046874642 -0.022794049 0.24106395 -0.25969779 -0.93511778 0.0034601348
0.010539446 0.046765108 -0.021867571 0.37456051 -0.1902269 -0.90747911 0.0057755029
0.012750079 0.046867482 -0.02081167 0.50785971 -0.094562314 -0.85623395 0.0040882388
-0.0091023445 0.051330574 -0.020792469 -0.66486645 -0.61633134 -0.42200503 0.006664522
-0.0073267655 0.050121963 -0.02163207 -0.56109434 -0.62079084 -0.5475325 0.0092533724
-0.0048531354 0.049141277 -0.022616357 -0.37152877 -0.58345711 -0.72218025 0.0029426566
0.0086694015 0.04954768 -0.02311221 0.36603093 -0.089061216 -0.92633122 0.0037848162
0.010485005 0.049799532 -0.022264894 0.45297793 -0.040215418 -0.89061415 0.0045514428
0.012691357 0.049855951 -0.020901039 0.58182544 0.050154269 -0.81176585 0.0035757474
-0.0099787666 0.053000771 -0.021829352 -0.64372921 -0.65656549 -0.39310881 0.0070197866
-0.0083653061 0.05199068 -0.022711344 -0.63225126 -0.63211024 -0.44799 0.0062046894
0.0087587796 0.053104628 -0.023128102 0.50228727 0.081958845 -0.8608079 0.0032886441
0.010437491 0.052864529 -0.022093065 0.5347327 0.11918693 -0.83657372 0.0023209881
0.012346347 0.052649383 -0.020741992 0.61179316 0.20299311 -0.76452792 0.0032872534
-0.011481105 0.05481308 -0.021740193 -0.5370453 -0.73949003 -0.40587774 0.011575757
0.0082275392 0.05612592 -0.02277191 0.55720401 0.2551125 -0.79021597 0.0024162182
0.010381189 0.055699829 -0.021322589 0.59985542 0.31473193 -0.73560685 0.0030303835
0.012111927 0.054550044 -0.020321921 0.63132006 0.32476193 -0.70424753 0.0049822042
0.0054562772 0.059735943 -0.022973394 0.49655196 0.38773629 -0.77659297 0.0040058824
0.007408666 0.058943357 -0.022025436 0.54793358 0.45280567 -0.70337456 0.0045400006
0.009349159 0.058205191 -0.020898852 0.59326506 0.45685077 -0.66281503 0.0017450977
0.002110878 0.062941954 -0.022670995 0.41172311 0.72647971 -0.55019212 0.0053554475
0.0045009758 0.061811984 -0.022007043 0.47542512 0.60835993 -0.63550705 0.0051573529
0.0068650572 0.061060131 -0.020887429 0.54065496 0.572007 -0.6168471 0.0030957558
-0.0034456137 0.065454639 -0.02275385 0.40785828 0.74267149 -0.53112197 0.0021119541
-0.0013157777 0.064953037 -0.022139095 0.38125852 0.7645061 -0.51978117 0.0031201474
0.0011749743 0.064124063 -0.021821724 0.4063921 0.7472682 -0.52577156 0.0040197605
0.0034151585 0.063615806 -0.020837829 0.41122234 0.73519492 -0.53887349 0.0041026566
0.0076447935 0.036130544 -0.01748682 -0.1251892 -0.52534163 -0.84163159 0.0018201236
0.010371116 0.036048517 -0.017558614 0.050959244 -0.47811097 -0.87681985 0.0028352651
0.012533654 0.036172371 -0.017441586 0.21144974 -0.41047877 -0.88701534 0.0038525015
0.001940179 0.038661741 -0.017675299 -0.3548246 -0.56431365 -0.74541909 0.0021132678
0.0045708856 0.038199652 -0.018240081 -0.21019189 -0.5464595 -0.81067955 0.0015590481
0.0073987339 0.037997127 -0.018605756 -0.043368381 -0.49269918 -0.86911833 0.0013054401
0.010346573 0.037997939 -0.018598473 0.096418545 -0.43161938 -0.89688808 0.0027350492
0.013389664 0.038035855 -0.018072557 0.24828726 -0.34796849 -0.90403062 0.0040762685
0.015554447 0.038642757 -0.017524501 0.4109081 -0.3018626 -0.86025202 0.003743028
-0.0032670852 0.042196967 -0.017443463 -0.60334116 -0.56551898 -0.56228799 0.0035989059
-0.0011326512 0.041293222 -0.018170474 -0.42497814 -0.5823819 -0.69298261 0.0029907962
0.0015025439 0.040680595 -0.018982805 -0.27460212 -0.55658615 -0.78409541 0.0012012011
0.0043558395 0.040526465 -0.019698478 -0.16092524 -0.53325188 -0.83050925 0.001418359
0.0073768292 0.040301822 -0.019922765 -0.023237878 -0.4822976 -0.87569916 0.0017398359
0.010497943 0.040649168 -0.019839473 0.15091702 -0.39542878 -0.90601331 0.003169734
0.013567886 0.040796194 -0.019043053 0.3366628 -0.29045582 -0.89570838 0.0052972562
0.015988925 0.040876471 -0.017886244 0.51340532 -0.19662245 -0.83531708 0.0039252723
-0.0042851511 0.04422975 -0.018566046 -0.54191089 -0.59986597 -0.58863693 0.004526265
-0.0016509858 0.043236166 -0.019536627 -0.37907743 -0.58179939 -0.71958995 0.0018736437
0.00070935319 0.042499639 -0.02003172 -0.24650854 -0.5592081 -0.79153007 0.0024736992
0.01378445 0.043587353 -0.019695712 0.43997234 -0.16896677 -0.88197207 0.0059436075
0.01623047 0.0438959 -0.01819695 0.59404659 -0.084360622 -0.79999495 0.0041853627
-0.0070221601 0.047119725 -0.018651886 -0.66153795 -0.5765453 -0.47954452 0.0027537404
-0.0053596683 0.04619867 -0.01961451 -0.56365854 -0.58990067 -0.57819211 0.0078738788
0.014347445 0.046873558 -0.019771772 0.60453796 -0.022959223 -0.79624534 0.00262423
0.01618921 0.046746969 -0.018282231 0.66533917 0.035105105 -0.74571526 0.0042022611
-0.009405327 0.05049894 -0.01855237 -0.74806356 -0.56993192 -0.33996841 0.0038369382
-0.0082345242 0.049061529 -0.019138716 -0.74433678 -0.55732954 -0.36789489 0.0039401744
0.014303362 0.049983516 -0.019617375 0.66552615 0.10965052 -0.73827612 0.0022028899
0.015866216 0.049676146 -0.018160442 0.72324413 0.16727544 -0.67002749 0.0024515006
-0.010266242 0.052337248 -0.019360483 -0.72479939 -0.60538417 -0.32890093 0.002461378
0.013887313 0.052942593 -0.019190473 0.70293158 0.26260075 -0.66100526 0.0028390887
0.01551629 0.052238543 -0.017744269 0.72168428 0.29895291 -0.62433887 0.0014573401
0.011369774 0.056786902 -0.019925719 0.65218627 0.36611938 -0.66378438 0.0019777033
0.013081997 0.055721421 -0.018693479 0.7053718 0.37468663 -0.60171467 0.0026437379
0.010570999 0.059026618 -0.019067254 0.62826538 0.51969397 -0.57896525 0.0033705106
0.012361201 0.057955373 -0.01791331 0.66938525 0.46812135 -0.57687587 0.0016008622
0.0056481985 0.063089266 -0.019600516 0.48662397 0.73864412 -0.46647832 0.002565871
0.0075944853 0.062037807 -0.019043665 0.51517576 0.73762721 -0.43646306 0.0020670022
0.0096323378 0.061015386 -0.018107399 0.59501296 0.61071777 -0.52247816 0.0019015853
-8.1202765e-05 0.065401472 -0.020238176 0.35939744 0.80967921 -0.46395364 0.00044040551
0.0018046796 0.065095738 -0.019304553 0.37969235 0.81410444 -0.43939471 0.00093914842
0.0043669846 0.064213268 -0.018888803 0.44441679 0.77423555 -0.45061415 0.0022874773
0.0065006693 0.063479729 -0.018022254 0.50107682 0.74104613 -0.44695944 0.0018898558
0.0052217213 0.033003181 -0.014676699 -0.32356477 -0.57348806 -0.75260699 0.0015541867
0.0075731855 0.032431312 -0.015004444 -0.19778657 -0.54647821 -0.81378251 0.0017122892
0.010487043 0.03200049 -0.015180547 -0.042386785 -0.51575029 -0.85568982 0.0018127356
0.013373187 0.031949934 -0.015110216 0.099704444 -0.46523634 -0.87955338 0.0033532386
0.016095558 0.032460444 -0.014786757 0.34491172 -0.36465779 -0.864905 0.003110453
0.0018385676 0.035418935 -0.014961679 -0.42543969 -0.59051889 -0.68577582 0.0014496724
0.0045053782 0.035020746 -0.015910711 -0.27519679 -0.57147467 -0.7730999 0.0010405456
0.0073719351 0.034669917 -0.016488228 -0.15632187 -0.54340661 -0.82478648 0.0011341765
0.010391407 0.034528319 -0.016699538 -0.018673051 -0.51245284 -0.85851228 0.0012770123
0.013438813 0.034858845 -0.016614728 0.20149826 -0.41029483 -0.88941365 0.0031562161
0.016286993 0.034937799 -0.015796116 0.4187693 -0.32503828 -0.84792829 0.0023051153
0.018578228 0.035151396 -0.014709311 0.52227056 -0.2820715 -0.80477893 0.0031613989
-0.0032936812 0.039303325 -0.014358327 -0.67098325 -0.56652212 -0.47836611 0.0027735089
-0.0011220175 0.038175199 -0.015343778 -0.51510483 -0.59139389 -0.62041956 0.0021294428
0.0013553797 0.037381034 -0.016344188 -0.38212514 -0.57991886 -0.71949607 0.00099269371
0.0035567638 0.036847729 -0.01696549 -0.25017098 -0.57900035 -0.77599812 0.0014602335
0.014472224 0.03675694 -0.017258689 0.25566345 -0.35131755 -0.90067315 0.0039571146
0.016637251 0.037626937 -0.016606038 0.48403594 -0.23098135 -0.84401232 0.0036314698
0.018962724 0.037933886 -0.015146149 0.61399323 -0.17240432 -0.77025265 0.0041534957
-0.0039873086 0.041220751 -0.015611873 -0.61267412 -0.59029174 -0.52553403 0.0027289174
-0.0019083318 0.040143564 -0.016571051 -0.46861422 -0.60027927 -0.64812452 0.0019225562
0.017356524 0.04073938 -0.016944166 0.5713433 -0.12921882 -0.81047475 0.0032261768
0.019057401 0.040895391 -0.015492716 0.70299953 -0.038955174 -0.71012264 0.0023123391
-0.0068026893 0.044502471 -0.015424335 -0.75339842 -0.54134709 -0.3732748 0.0041002873
-0.0053977743 0.043263182 -0.016180348 -0.70372045 -0.55607104 -0.44222447 0.0020783686
0.017666949 0.043834604 -0.017003288 0.70077771 -0.01526039 -0.71321642 0.0024619401
0.019017773 0.043756045 -0.015575144 0.74290323 0.021290824 -0.66906017 0.0020576396
-0.0079934886 0.04668694 -0.016048538 -0.7787233 -0.52924055 -0.33688948 0.0032681322
0.01753507 0.04707912 -0.016890559 0.71846163 0.10074146 -0.68823254 0.001982104
0.018747328 0.0467145 -0.015482968 0.78624797 0.15293695 -0.59868562 0.0020625722
-0.0095217992 0.049525358 -0.015704691 -0.78524983 -0.5295772 -0.32082814 0.0028760715
0.017233526 0.050016735 -0.016469082 0.768884 0.20187277 -0.60668343 0.0020405813
0.018458199 0.049518805 -0.014946622 0.80230522 0.26416698 -0.53527761 0.0014297739
0.016569417 0.052840196 -0.015972218 0.77744198 0.33946022 -0.52948147 0.0019385446
0.01422936 0.056452271 -0.016742432 0.7354843 0.44423926 -0.51158023 0.0030327777
0.015408371 0.055557694 -0.015673015 0.76333016 0.43594626 -0.47673669 0.001389089
0.011755468 0.059796184 -0.016790524 0.68350804 0.6013701 -0.41372794 0.0018760503
0.013304313 0.058618277 -0.015803332 0.71197253 0.54437739 -0.44356337 0.0020992155
0.0083436444 0.063014306 -0.01658836 0.54125923 0.73787183 -0.40321666 0.0021406091
0.010372699 0.061710514 -0.015900631 0.61885607 0.67600602 -0.4000414 0.0022548058
0.0053810705 0.064593203 -0.016689703 0.46072814 0.76724172 -0.44617218 0.0026340077
0.0073089018 0.063898265 -0.015865771 0.53540397 0.76659662 -0.35450277 0.0019293106
0.0083242413 0.027005687 -0.011509195 -0.30050465 -0.53144711 -0.79199809 0.0017957501
0.010680584 0.02650775 -0.011784117 -0.15327075 -0.49998808 -0.85236144 0.0016023297
0.013500704 0.02617619 -0.011862546 0.007950549 -0.47680449 -0.87897348 0.00189652
0.016278544 0.026459984 -0.011750073 0.19193237 -0.4365786 -0.87895453 0.0024718731
0.018586874 0.027125955 -0.011432543 0.40860939 -0.37109274 -0.83386362 0.0044169421
0.0049344227 0.029667715 -0.011945799 -0.41477358 -0.56798589 -0.71088314 0.0017566236
0.0075280117 0.028927503 -0.012528254 -0.28545138 -0.53760856 -0.7934069 0.0018370108
0.010474191 0.028847814 -0.013196165 -0.13271439 -0.52674466 -0.83959931 0.0010118454
0.013454602 0.028836237 -0.013365665 0.038655408 -0.48417884 -0.87411463 0.002469003
0.016455267 0.028865861 -0.012937794 0.24040255 -0.43965694 -0.86539489 0.0036831796
0.019281922 0.029135518 -0.011980532 0.43537509 -0.35580954 -0.82695109 0.0041640713
-9.0807494e-05 0.033129655 -0.011325046 -0.61374962 -0.55082268 -0.56560218 0.0046633352
0.0018347583 0.032307081 -0.01219996 -0.50162387 -0.59903997 -0.62411904 0.0010942676
0.0043454356 0.031742051 -0.013285004 -0.37414315 -0.59366739 -0.71244359 0.0022159498
0.0072480366 0.030994868 -0.013896964 -0.23523799 -0.55910891 -0.79502213 0.0013451825
0.009534237 0.030612491 -0.014200702 -0.10044713 -0.54264325 -0.83393568 0.0011988182
0.014572638 0.030608676 -0.014252767 0.098537698 -0.46645123 -0.87904125 0.0031008383
0.016875764 0.031186594 -0.013938111 0.28339443 -0.40581813 -0.86890692 0.0031115627
0.019408068 0.031890392 -0.01302095 0.51197213 -0.32955548 -0.79327017 0.0046872008
0.021293849 0.032130629 -0.011718121 0.67459655 -0.22470286 -0.70315593 0.0028126759
-0.0010100955 0.035330027 -0.012578954 -0.59638131 -0.5882445 -0.54616642 0.0026404501
0.0012481208 0.034179144 -0.013452115 -0.45524779 -0.58861065 -0.66804707 0.0013704144
0.0031210633 0.033379383 -0.01397787 -0.42935148 -0.58832121 -0.68522656 0.0012560487
0.019862821 0.034598451 -0.013604877 0.55130351 -0.22559693 -0.80322498 0.0056571993
0.02154948 0.034906346 -0.012145342 0.70708805 -0.13795756 -0.69353747 0.0033259885
-0.0037389842 0.038308278 -0.012531856 -0.6859594 -0.568645 -0.45398524 0.0019865709
-0.0022316547 0.037256591 -0.013331696 -0.66732854 -0.5610351 -0.48980832 0.0015885155
0.020355025 0.037781231 -0.013881723 0.73036712 -0.1012871 -0.67550343 0.002511604
0.021580094 0.037854493 -0.012508142 0.77632719 -0.043871626 -0.62880147 0.0033897799
-0.0063886093 0.04170021 -0.011726911 -0.84769136 -0.49158138 -0.19941685 0.0037284051
-0.0051653804 0.040661231 -0.01309737 -0.76720279 -0.53469467 -0.35426193 0.0020280064
0.020545177 0.040951256 -0.013898592 0.74497592 -0.0021219996 -0.66708797 0.0021461677
0.021529039 0.040851891 -0.012560832 0.82353455 0.050244533 -0.56503654 0.0022287562
-0.0071921386 0.043785464 -0.012892058 -0.82209861 -0.49971005 -0.27284372 0.0016070964
-0.0060466966 0.042542316 -0.014033988 -0.77676886 -0.53406191 -0.33377835 0.0040594214
0.020364458 0.044074774 -0.013844306 0.79529786 0.095218517 -0.59869421 0.0015717222
0.021363426 0.04377744 -0.012327294 0.84981155 0.13851263 -0.50856125 0.0016918256
-0.0085086422 0.046453696 -0.013198103 -0.8235665 -0.49161413 -0.28293759 0.0014017342
0.020237988 0.047027726 -0.013120985 0.84807074 0.2073141 -0.48764417 0.0027245947
0.021098511 0.04620913 -0.011943191 0.86275893 0.23916022 -0.44547662 0.0014124896
0.019454515 0.049921215 -0.012971071 0.84384328 0.29990512 -0.44495556 0.0018578543
0.017653938 0.053523686 -0.013589363 0.82809085 0.40690118 -0.38561243 0.0020973857
0.018628353 0.052434731 -0.012627089 0.83156848 0.36447915 -0.41910467 0.0018039949
0.016695747 0.055672657 -0.013124675 0.79138315 0.47801778 -0.38106644 0.001058389
0.01390731 0.059336871 -0.013575993 0.72476983 0.5737164 -0.38152078 0.001936398
0.015428681 0.057846893 -0.012729131 0.77124494 0.52760416 -0.35611102 0.00094091828
0.011622424 0.061686844 -0.01319845 0.64420152 0.68860596 -0.33290577 0.0020347966
0.012522577 0.06067463 -0.013848409 0.69503719 0.60077655 -0.39495656 0.0015327903
0.010660228 0.020963646 -0.0086187497 -0.21504916 -0.45438847 -0.86445653 0.0015961005
0.013414338 0.02059361 -0.0087971762 -0.046184622 -0.45980623 -0.88681751 0.0014486747
0.016297473 0.020634867 -0.0087216571 0.12691113 -0.44624352 -0.88586694 0.0023009528
0.01838582 0.021092411 -0.008520416 0.31819403 -0.42270568 -0.84857082 0.002308103
0.0054795053 0.02407176 -0.0083854049 -0.45648703 -0.45571873 -0.76415968 0.0011212765
0.0076483632 0.023193473 -0.0089125382 -0.33543485 -0.4697226 -0.81660527 0.001375306
0.010328134 0.022844458 -0.0095866444 -0.20495582 -0.46929502 -0.85892677 0.0017712577
0.013326489 0.022822065 -0.0099986307 -0.033184193 -0.48286763 -0.87506437 0.0016552553
0.016339624 0.022829607 -0.009860524 0.11465959 -0.46343723 -0.87868035 0.0015557708
0.019199401 0.023009881 -0.009155849 0.34927377 -0.41686186 -0.83918655 0.0039339862
0.021265453 0.023832962 -0.0085005015 0.52836215 -0.36411986 -0.76697469 0.0038599989
0.0026923059 0.027085193 -0.0084705949 -0.5894714 -0.49164966 -0.64094007 0.0018972233
0.0046099415 0.026217975 -0.0092259375 -0.47651505 -0.48417258 -0.73383266 0.0019244583
0.0072746212 0.025643274 -0.010229081 -0.30412912 -0.5092082 -0.80511642 0.0017939107
0.010364093 0.025021721 -0.010830446 -0.17552902 -0.51596421 -0.83843333 0.0014679905
0.013527424 0.024615325 -0.010991563 -0.020168478 -0.46785471 -0.88357532 0.0017413761
0.016595837 0.025024485 -0.010947372 0.16145487 -0.47197843 -0.86669987 0.0020154472
0.019490162 0.025681715 -0.010308677 0.35026398 -0.41868138 -0.8378669 0.0021741497
0.021857757 0.026120506 -0.0090448949 0.5914824 -0.32578236 -0.73757333 0.0035626225
0.0017957913 0.029151101 -0.00932517 -0.55601907 -0.51979166 -0.64858258 0.0026874684
0.0041866978 0.028431863 -0.010552459 -0.43781725 -0.54417574 -0.71567369 0.0014439471
0.0063696881 0.027605675 -0.011150166 -0.31398278 -0.54412395 -0.77803856 0.0013515527
0.020396883 0.028138656 -0.010941863 0.5770762 -0.30128646 -0.7590847 0.0018282959
0.022264853 0.028954441 -0.0097423866 0.67893952 -0.21838106 -0.70096427 0.0031848976
-0.00088485592 0.032252915 -0.0094557535 -0.65048516 -0.53960085 -0.53450906 0.0014477815
0.0011786545 0.031110121 -0.010556975 -0.50685185 -0.57575798 -0.64156371 0.0013908504
0.022693548 0.031744793 -0.010147748 0.75288826 -0.17433292 -0.6346395 0.0033718729
0.024049344 0.032420073 -0.0085387975 0.80495459 -0.10839634 -0.58335102 0.0020702896
-0.0034922853 0.035532687 -0.0092504323 -0.75751048 -0.52198553 -0.39205742 0.0030650944
-0.0020576275 0.034479138 -0.01032906 -0.71774107 -0.53484124 -0.44586161 0.0013550501
0.023026751 0.03482613 -0.010328606 0.81845415 -0.068627082 -0.57045877 0.0021666409
0.024035532 0.034953061 -0.0087901009 0.85100186 -0.019083871 -0.52481574 0.0023811532
-0.0045981421 0.037763048 -0.010003776 -0.77908027 -0.51922321 -0.3513419 0.0022126595
0.023046337 0.037825625 -0.010397081 0.84232211 0.007146507 -0.53892708 0.0022183419
0.024045885 0.037754279 -0.0086017158 0.90902817 0.070889153 -0.41066119 0.0015949777
-0.0064443881 0.040873129 -0.0096066706 -0.88195777 -0.42946753 -0.19418566 0.0019219844
-0.0056337635 0.039868563 -0.010790467 -0.81527495 -0.50752944 -0.27882001 0.0049987664
0.023015123 0.040797256 -0.010037492 0.88649553 0.10944324 -0.4496085 0.0021818904
-0.0074837878 0.043501522 -0.010640915 -0.86944163 -0.45785496 -0.18558019 0.0021311119
0.022551019 0.043753605 -0.0099926898 0.90348709 0.18009175 -0.38894472 0.0019319259
0.021799708 0.046762183 -0.0099745747 0.89830953 0.26591849 -0.34975335 0.0013212719
0.020514488 0.050113339 -0.010367706 0.88223374 0.33927664 -0.32642779 0.0013958619
0.021345085 0.04893665 -0.0092530176 0.88412738 0.33263418 -0.32813606 0.0014780521
0.019335538 0.052882172 -0.010141735 0.85614026 0.42005736 -0.30095777 0.00096888532
0.01701037 0.056617074 -0.01046053 0.81400174 0.48984894 -0.31216845 0.0012613398
0.01816586 0.054922566 -0.010459051 0.84208918 0.45966652 -0.28212148 0.00073105533
0.010915582 0.015091441 -0.0055424026 -0.21658297 -0.43133262 -0.87581044 0.0015358882
0.013568188 0.014728003 -0.0057084756 -0.050421719 -0.44386613 -0.89467335 0.0014500363
0.016335238 0.014805076 -0.0056728404 0.13121334 -0.45516619 -0.88068539 0.0027178472
0.018489977 0.015236988 -0.0054696724 0.32539773 -0.43777052 -0.83813673 0.0038145825
0.007807421 0.017406013 -0.005780214 -0.36350921 -0.42824498 -0.8273254 0.001745871
0.010402104 0.016952435 -0.006393142 -0.21670616 -0.44707012 -0.86785179 0.0015328339
0.01342142 0.016933896 -0.0068519441 -0.052275475 -0.46925703 -0.88151294 0.0013804812
0.016454786 0.016937533 -0.0067620166 0.09172076 -0.46229392 -0.88197035 0.0014471002
0.019186851 0.017054273 -0.0061524063 0.31696615 -0.42813072 -0.84630764 0.0036593426
0.02125076 0.017842524 -0.005592098 0.50068104 -0.39292386 -0.77131665 0.0034298613
0.0049592704 0.020284582 -0.0058849202 -0.48566961 -0.43022388 -0.7609418 0.0013874348
0.0073595825 0.019958381 -0.0069554262 -0.36617255 -0.46254283 -0.80744773 0.0016220623
0.010247786 0.019489093 -0.0077072782 -0.21832669 -0.46824241 -0.85620236 0.0015614233
0.013324979 0.019024557 -0.0079488996 -0.051192943 -0.48492301 -0.87305725 0.0013575656
0.016506469 0.019078776 -0.0078715431 0.11844608 -0.47823375 -0.87020862 0.0019794046
0.019574177 0.019800544 -0.007389809 0.35733101 -0.40863478 -0.83984053 0.0041060243
0.022071352 0.020090841 -0.006141331 0.56387776 -0.36093071 -0.74281281 0.0037734699
0.0023665901 0.023494974 -0.0058364561 -0.60122192 -0.4222298 -0.67842048 0.0021907517
0.0043013347 0.022793639 -0.0068939328 -0.50752938 -0.42351902 -0.75036359 0.0026286056
0.006629311 0.022238391 -0.0079196617 -0.36127141 -0.46790972 -0.80656272 0.0019307426
0.020509399 0.022072962 -0.0081201699 0.38950148 -0.41132489 -0.82407552 0.0036948684
0.022617195 0.022767209 -0.006949245 0.66189545 -0.30233568 -0.68592095 0.0018007689
0.024302157 0.023667496 -0.005640659 0.72344774 -0.25787443 -0.64040941 0.002760475
-9.7041535e-05 0.027039431 -0.0055398196 -0.70099229 -0.40580213 -0.58645928 0.0022179254
0.0016552623 0.025960635 -0.0067166369 -0.62793511 -0.44593945 -0.63783664 0.0029651439
0.0036260381 0.02503622 -0.0077832108 -0.55047315 -0.47401369 -0.68723387 0.0016634563
0.023193486 0.025663877 -0.0076565063 0.67109871 -0.28139481 -0.68588883 0.0030878822
0.024554165 0.025972944 -0.0061554983 0.7894246 -0.19250253 -0.58288211 0.0039685653
-0.00071147172 0.029203089 -0.0065137446 -0.72338575 -0.4662849 -0.50920671 0.0033540989
0.00083557906 0.02809586 -0.0074995169 -0.67853254 -0.47388646 -0.56127107 0.0031547803
0.023608869 0.028038725 -0.0080967546 0.73167348 -0.18179111 -0.65696728 0.0031244995
0.024693571 0.02892592 -0.0067880396 0.84450215 -0.11847915 -0.52228224 0.0033511529
-0.0033661856 0.033085547 -0.0059478432 -0.82929313 -0.47326106 -0.29714784 0.0055502513
-0.001984043 0.031673755 -0.0070763836 -0.79187989 -0.47203791 -0.38743576 0.0015557898
0.024985448 0.031761609 -0.0067915469 0.88559061 -0.04963775 -0.46180657 0.0028935834
-0.0039903796 0.034873035 -0.0069254665 -0.84521818 -0.44445232 -0.29676318 0.0028914157
-0.002884354 0.033631183 -0.0079030246 -0.73700166 -0.54033101 -0.40604308 0.002634313
0.024996335 0.034722738 -0.0068689939 0.91381633 0.033852711 -0.40471429 0.0014708046
-0.006165022 0.039135419 -0.0061907321 -0.89278835 -0.41383064 -0.17796956 0.00057807809
-0.0052970769 0.037497114 -0.0071195066 -0.87024391 -0.44814712 -0.20454755 0.00078826101
0.024826486 0.037813436 -0.0067443866 0.92804486 0.11275936 -0.35499027 0.0016469079
-0.0066140909 0.040586647 -0.0072924942 -0.89136201 -0.42221135 -0.16495836 0.00086754584
0.023602925 0.042203255 -0.0082070678 0.93227744 0.19409211 -0.30526572 0.0016810178
0.024318531 0.040502355 -0.0070387246 0.93613309 0.17010038 -0.3077673 0.00098351319
-0.007533587 0.043160401 -0.007932052 -0.88387781 -0.43012545 -0.18371728 0.0018895738
0.023496849 0.043923188 -0.0072979238 0.92465454 0.23926377 -0.29625455 0.001789926
0.024186855 0.042652078 -0.0060366541 0.93261665 0.24872226 -0.26146409 0.00076694955
0.022722648 0.046580855 -0.0072633298 0.92228925 0.29790661 -0.24624015 0.0010262147
0.020835176 0.051082395 -0.0077822059 0.89436537 0.37970728 -0.23650154 0.0010998712
0.021561151 0.049753636 -0.0072077364 0.90615845 0.35847032 -0.22444572 0.00069137139
0.020128714 0.052454032 -0.0079747587 0.88675237 0.37844351 -0.26542571 0.0016609045
0.010805717 0.009027781 -0.0025279699 -0.20767584 -0.38293847 -0.90012717 0.0016722392
0.013363051 0.0086626317 -0.0026861192 -0.037044361 -0.40743124 -0.91248423 0.0016179224
0.016147694 0.0088230362 -0.0026616477 0.14213791 -0.43427122 -0.88949716 0.0025262081
0.018498251 0.0093434146 -0.0024522694 0.32200956 -0.43930671 -0.83864146 0.0035195686
0.0078591136 0.011414151 -0.0027665026 -0.35784891 -0.39048818 -0.84821177 0.0018968768
0.010472189 0.01096647 -0.0033689747 -0.2150816 -0.41458204 -0.88422942 0.0016046447
0.013404601 0.011008788 -0.0038168696 -0.046200801 -0.44687006 -0.89340508 0.0014245742
0.016443852 0.010904755 -0.0036542376 0.11152233 -0.42506599 -0.8982659 0.0014389202
0.019284226 0.011133707 -0.0030737016 0.33467856 -0.40855575 -0.84915978 0.0029145714
0.021236774 0.012006657 -0.0026219143 0.51784134 -0.40862498 -0.75157559 0.0043348144
0.0050079864 0.014309473 -0.0027843332 -0.48377803 -0.38944265 -0.78376865 0.0014585946
0.0074437507 0.013810566 -0.0037702729 -0.35172555 -0.42240575 -0.83538157 0.0018851386
0.010307327 0.013664842 -0.004671786 -0.21556146 -0.44345689 -0.86998808 0.0015874221
0.01336366 0.013150828 -0.0048903949 -0.047835678 -0.46819338 -0.88233024 0.0013203451
0.01665877 0.013259507 -0.0048314859 0.11142009 -0.47297683 -0.87400138 0.0016081039
0.019395053 0.013765193 -0.0043856101 0.29131433 -0.45564231 -0.84114569 0.0019072855
0.021925019 0.013957914 -0.0031677692 0.50413859 -0.38809261 -0.77151048 0.0040340819
0.0024543551 0.017808165 -0.0027009272 -0.65037614 -0.3709636 -0.66287017 0.0020689419
0.0043893266 0.016862044 -0.0036658272 -0.51273352 -0.37466362 -0.77248389 0.0022196271
0.0069080302 0.016180543 -0.0047386996 -0.36321518 -0.43172064 -0.8256464 0.0017647446
0.02030915 0.015743338 -0.0050570103 0.32539937 -0.43777034 -0.83813632 0.0038142104
0.022541806 0.016688595 -0.0040838523 0.56279129 -0.35081798 -0.74846017 0.0031976062
0.024524486 0.017727697 -0.0027487082 0.70611995 -0.31535116 -0.63399404 0.003561144
0.0019059194 0.020021189 -0.0033565061 -0.63693386 -0.37238893 -0.67501241 0.00250919
0.0038832137 0.019480007 -0.0047124373 -0.55172449 -0.40160224 -0.73096913 0.0031505676
0.023394058 0.01945213 -0.0047319271 0.61521477 -0.31694016 -0.72184461 0.0037091281
0.024830254 0.020024993 -0.0033631045 0.75469929 -0.26795113 -0.59885818 0.0034143915
-0.00023428746 0.023506945 -0.002975611 -0.75960571 -0.32530785 -0.56318212 0.0024487516
0.00124706 0.022660712 -0.0042102328 -0.67840642 -0.36540255 -0.63737404 0.0030778144
0.0031772456 0.021441869 -0.0052883476 -0.53792626 -0.417835 -0.73215383 0.001400262
0.025220521 0.022803105 -0.0039780885 0.80446124 -0.22090018 -0.55140293 0.0023330634
-0.00082374079 0.025926622 -0.003645059 -0.79246908 -0.3343426 -0.51010549 0.0031644681
0.00048748151 0.025090307 -0.0048964247 -0.69010979 -0.39073879 -0.60915655 0.0030446146
0.02592415 0.02586904 -0.0038548494 0.89152396 -0.10898645 -0.43966681 0.0021285815
-0.0018457457 0.028673269 -0.0040295692 -0.8433938 -0.3850517 -0.37472939 0.0030284259
0.026211629 0.028719129 -0.0038708108 0.91266865 -0.048553512 -0.40580606 0.0014238321
-0.0035608995 0.032195967 -0.0037871564 -0.87854457 -0.40261787 -0.25701827 0.0018610567
-0.0027540459 0.030933427 -0.0044854134 -0.86471921 -0.40482968 -0.29727709 0.004050123
0.026398694 0.031667046 -0.0035436454 0.94256467 0.0088177035 -0.33390743 0.0027785127
-0.0046585901 0.034857389 -0.003853532 -0.87924641 -0.42085332 -0.2231776 0.00090073497
0.026065139 0.035122477 -0.0038883614 0.94225067 0.080984242 -0.3249695 0.001914882
-0.0054824646 0.037149258 -0.0048624277 -0.87682664 -0.42910534 -0.21689543 0.00046222066
0.025612747 0.03774868 -0.0042678616 0.95013839 0.13042942 -0.28324053 0.00071816501
0.025056155 0.040942211 -0.0038850459 0.95100003 0.19919896 -0.23647146 0.00042701053
0.023780415 0.044870816 -0.0049128681 0.93400586 0.27828625 -0.2240309 0.0014589316
0.024261607 0.043490164 -0.0046764761 0.93401557 0.2782658 -0.22401579 0.0014471754
0.023314176 0.046279423 -0.0048757643 0.9231419 0.30229267 -0.23754603 0.00079348189
0.022387221 0.048641883 -0.0046877116 0.91823125 0.3421402 -0.19947781 0.00044495106
0.0084284004 0.0027734409 0.00046926411 -0.26908112 -0.28716677 -0.91930979 0.0014784854
0.010655514 0.0022365807 0.00024636346 -0.13750476 -0.32468534 -0.93577343 0.0016515468
0.013395731 0.0020600203 0.00014088023 0.016635945 -0.35649428 -0.93414938 0.0016442937
0.016242139 0.0024671208 0.0002623538 0.18234077 -0.37694553 -0.90811008 0.0021874597
0.018545305 0.0030904831 0.00058725942 0.37791389 -0.40891787 -0.8306427 0.0038572017
0.005427327 0.0059346822 0.00054801977 -0.41969839 -0.28757548 -0.86090273 0.0021032142
0.0075694965 0.0049793087 4.0135346e-06 -0.30234614 -0.30737728 -0.90227824 0.0021268816
0.010533516 0.0048911623 -0.00072495244 -0.15900072 -0.34110841 -0.92647928 0.0013752495
0.01336157 0.0048875818 -0.0010100614 -0.0058668032 -0.39435998 -0.91893727 0.0015719867
0.016441332 0.0048904889 -0.00077118573 0.15056983 -0.38474029 -0.91066104 0.0014100643
0.019373327 0.0050737518 -8.813804e-06 0.36847332 -0.39061093 -0.84359372 0.0036959641
0.021230472 0.0058557084 0.00055493391 0.52442163 -0.39726418 -0.75310242 0.0028629121
0.0048389649 0.007960475 0.00014988286 -0.47582585 -0.30789834 -0.82388622 0.002101199
0.0075050192 0.0078965528 -0.0010692787 -0.32660565 -0.35803294 -0.87472337 0.0018533244
0.010383822 0.007503646 -0.0017627936 -0.19768065 -0.38846555 -0.90000933 0.0018521288
0.013272083 0.0070474823 -0.0019372539 -0.023218755 -0.42706794 -0.90392137 0.0015639708
0.016569825 0.0072685778 -0.0018542922 0.13767152 -0.44562176 -0.88457203 0.0019663256
0.019536611 0.0078809205 -0.0013298686 0.33475682 -0.41953608 -0.84375787 0.0033274272
0.0219109 0.0079764836 -7.9247402e-05 0.55443013 -0.38776535 -0.73637307 0.0025512504
0.0024764061 0.011565096 0.00033919816 -0.62962109 -0.30168766 -0.71593422 0.0019675796
0.0043876683 0.01079997 -0.00071674329 -0.51132083 -0.33667812 -0.79069519 0.0029129901
0.0068065398 0.010324136 -0.0018176707 -0.3550925 -0.38619772 -0.85132879 0.0019084921
0.020255405 0.010010493 -0.0021234306 0.32910669 -0.4235273 -0.84398663 0.0032869915
0.022411555 0.010692747 -0.0011178269 0.54121566 -0.38866323 -0.74567181 0.0031122596
0.024317412 0.011560294 0.00016678195 0.68101335 -0.33356556 -0.65188569 0.0021993527
0.0019596117 0.01400909 -0.00032205787 -0.6409356 -0.32489631 -0.69544512 0.0027393647
0.0039717127 0.013519008 -0.0017116466 -0.51929963 -0.36796376 -0.77131736 0.0020034639
0.023211027 0.013337662 -0.0018702035 0.5831477 -0.35230508 -0.73199719 0.0039801239
0.024711898 0.014010192 -0.00061175833 0.71634364 -0.32407168 -0.61792338 0.0021548292
-0.00010334584 0.017460821 0.00031057466 -0.76308912 -0.28245535 -0.58130372 0.0020223877
0.0013681022 0.016743397 -0.0010518694 -0.68655646 -0.31941617 -0.65315664 0.0029454948
0.0031978174 0.015477112 -0.0021066221 -0.59385169 -0.34063357 -0.72890943 0.0038035065
0.025387712 0.016732512 -0.0010632531 0.77470106 -0.28298444 -0.56547153 0.002919662
-0.00055117253 0.020020394 -0.00040726236 -0.81053728 -0.28196466 -0.51334703 0.00365433
0.00060616934 0.019638909 -0.0017724158 -0.69542813 -0.34000766 -0.63306761 0.0021721628
0.026335146 0.019798625 -0.00089922023 0.86615366 -0.18626022 -0.46377265 0.00095878675
-0.0011376784 0.022761703 -0.00099339895 -0.84176433 -0.28298816 -0.45972878 0.0030668885
0.026612233 0.022629052 -0.0014135631 0.89562625 -0.16099654 -0.41464895 0.0015558392
0.027380016 0.023147799 0.00033293641 0.92376816 -0.10719577 -0.36764318 0.0019142918
-0.00218728 0.025832368 -0.00091739371 -0.89792317 -0.26282325 -0.35306942 0.0030132453
0.026765531 0.025378944 -0.0019975337 0.90932018 -0.10879076 -0.40162337 0.0039033093
0.027326949 0.025938613 -0.00053102011 0.95080042 -0.043664232 -0.30671161 0.0010642514
-0.0034146823 0.029499453 -0.00032220804 -0.91847211 -0.30813617 -0.24791345 0.0018942067
-0.0028159029 0.028366409 -0.0013583342 -0.90962887 -0.2910682 -0.29640266 0.0032085455
0.027314071 0.028999055 -0.00074070715 0.96448934 0.011994851 -0.26384947 0.00064415159
-0.0038801441 0.031664051 -0.00114328 -0.9021821 -0.35923937 -0.23877707 0.0016040693
0.026752967 0.032904781 -0.0022057744 0.95131564 0.070830211 -0.29996935 0.0019915528
0.027354699 0.031174086 -7.9269521e-05 0.96497029 0.033639699 -0.26019356 0.00058702962
-0.0043419045 0.033384748 -0.0020917805 -0.89841104 -0.38533995 -0.21064377 0.00063952123
0.026811406 0.03416004 -0.0012373778 0.96105051 0.095520072 -0.25934124 0.00083210284
0.026161011 0.037669174 -0.0015930785 0.95907789 0.12227388 -0.25537941 0.0008510953
0.0082476269 -0.0086603099 0.0036289243 -0.11645337 -0.21078761 -0.97057056 0.0019050608
0.010236514 -0.0087661399 0.0036143975 0.022556756 -0.24804115 -0.96848685 0.0026240034
0.0054305675 -0.0061774249 0.0035964397 -0.26330262 -0.18337913 -0.94712394 0.0020218606
0.0073822583 -0.0068916096 0.0033491806 -0.13886954 -0.19762689 -0.97039104 0.0018005481
0.010384931 -0.0069827083 0.0031417513 0.0061674272 -0.24887843 -0.96851504 0.0024438642
0.013316346 -0.0067627034 0.0032884099 0.13623087 -0.2962015 -0.94536012 0.0018001811
0.015484349 -0.0061127627 0.0035137779 0.31918189 -0.35645762 -0.87810069 0.0035698449
0.0049131643 -0.0039880895 0.0033529198 -0.32188749 -0.19293374 -0.92691159 0.0015798707
0.0072787083 -0.0041181981 0.0027454991 -0.19225997 -0.21130244 -0.95832533 0.0025578621
0.010366543 -0.0041149701 0.0023344031 -0.04987742 -0.2684204 -0.96200979 0.0016277839
0.013463394 -0.0041157175 0.0024193258 0.092863075 -0.31105539 -0.94584399 0.0011226058
0.016245531 -0.0040260977 0.0029530779 0.29353285 -0.35648391 -0.88699359 0.0021589145
0.018344028 -0.0032484783 0.0034140495 0.43098676 -0.37554091 -0.82049948 0.0029645201
0.0027572054 -0.00054450147 0.0035747436 -0.45587945 -0.16322176 -0.87494713 0.0010222122
0.0044555543 -0.001225663 0.0029390201 -0.36461022 -0.19107364 -0.9113453 0.0019941442
0.0073116245 -0.0012261812 0.0019807687 -0.23752806 -0.2638503 -0.93486011 0.001953251
0.010381327 -0.0012864616 0.0014567617 -0.089747921 -0.30792236 -0.94716901 0.0018267633
0.013433198 -0.0012574926 0.0014026733 0.065810397 -0.34991547 -0.93446672 0.0018085148
0.016299618 -0.0012582956 0.0018489452 0.23351021 -0.37137523 -0.89863974 0.0018021173
0.019144565 -0.0010791501 0.0028429811 0.43185407 -0.3741127 -0.82069594 0.0033669164
0.0023977873 0.0021088945 0.0032951084 -0.55262715 -0.1761748 -0.8145954 0.0020062746
0.0044150292 0.0018345835 0.0022463363 -0.42949086 -0.22589913 -0.87436104 0.0024465404
0.0072486801 0.0015856914 0.0012149238 -0.25198719 -0.29936945 -0.92026103 0.0014269247
0.010289816 0.0006630937 0.0008486032 -0.11056872 -0.34240568 -0.93302351 0.0014967505
0.013414846 0.00040423815 0.00078482414 0.038912214 -0.33369279 -0.94187844 0.0016309139
0.016561313 0.00093489687 0.00098549691 0.20973021 -0.40895733 -0.8881256 0.0021653934
0.019540442 0.0016768751 0.001734189 0.36554602 -0.40895745 -0.83613992 0.0018499005
0.021845227 0.0021894572 0.0029339183 0.581568 -0.38592699 -0.71612787 0.0041721109
0.0019713468 0.0050603747 0.0028954593 -0.59682572 -0.19637483 -0.77796924 0.0025376366
0.0043143514 0.0048250486 0.0014661443 -0.4684951 -0.2374467 -0.85095912 0.00223735
0.0062213559 0.0038832596 0.00083970511 -0.38316035 -0.28550193 -0.87845135 0.00090091763
0.020461269 0.0040431288 0.001012166 0.52531481 -0.41393259 -0.74344081 0.0020510952
0.022529416 0.0049043428 0.0020834806 0.58616346 -0.37834689 -0.71642596 0.002756289
0.024226477 0.005657888 0.0033660282 0.70925474 -0.34473655 -0.61491013 0.0029664368
0.0016678656 0.0078520849 0.0024261123 -0.62052274 -0.20601842 -0.75664246 0.0028719273
0.0036200101 0.0073787486 0.0010943308 -0.55659038 -0.28064993 -0.78194803 0.0017598661
0.023198869 0.0073924982 0.0012871046 0.64226711 -0.37129307 -0.6705479 0.0012884135
0.024663003 0.0079727117 0.0026193496 0.73962778 -0.33542275 -0.5834744 0.002473091
-0.00022584473 0.011380463 0.0032616479 -0.76531434 -0.19559568 -0.61321807 0.0030611379
0.0013060139 0.010664179 0.0018090012 -0.69181889 -0.28650075 -0.66280007 0.0033325907
0.025382698 0.010799499 0.0020544769 0.81186843 -0.29905218 -0.5014354 0.0014784796
-0.00052293407 0.014100469 0.002578493 -0.81104881 -0.23060952 -0.53760499 0.0035012921
0.00062934583 0.013656689 0.0012330723 -0.69742686 -0.28846946 -0.65603453 0.002242106
0.026184468 0.013714858 0.0016969817 0.84354812 -0.25859755 -0.47069505 0.001374726
0.02706912 0.014473154 0.0030333323 0.8826502 -0.20645539 -0.42226163 0.0024906602
-0.00097114296 0.016775979 0.0020690665 -0.85749656 -0.22338085 -0.46346587 0.004081551
0.026469864 0.016064061 0.00096652377 0.88562268 -0.2005776 -0.4188568 0.0027033661
0.027237983 0.016933825 0.0022412741 0.90248895 -0.17780586 -0.39229929 0.0010988715
-0.0017442082 0.019749768 0.0020003084 -0.88529116 -0.22130629 -0.40900257 0.0027890706
0.027602896 0.019869475 0.0020166582 0.90967947 -0.16027762 -0.38313743 0.0011704057
-0.0024844049 0.022875851 0.002071175 -0.92666036 -0.20940234 -0.3121717 0.002685867
0.027916213 0.022658063 0.0022791547 0.95095819 -0.070109352 -0.3012692 0.0014425678
-0.0034415638 0.026854455 0.002795994 -0.96783423 -0.18637741 -0.16899802 0.0025586777
-0.0028606944 0.025208328 0.0015352932 -0.93461674 -0.23688784 -0.26528418 0.0021322162
0.027959405 0.02585528 0.0020215411 0.96004575 -0.036187306 -0.27749345 0.00077334361
-0.0035501807 0.028563134 0.0016078202 -0.96446121 -0.21116893 -0.15881523 0.0031079629
0.027973991 0.028011141 0.0022549082 0.96465582 0.0032951226 -0.26349235 0.00069660082
-0.0038985736 0.030761965 0.0007857827 -0.95577228 -0.24983507 -0.15518282 0.0033081621
0.027416915 0.032195978 0.00093366182 0.9663437 0.068641633 -0.24792776 0.0013943879
-0.0010714824 -0.031065416 0.0066369027 -0.030306635 -0.056587305 -0.99793756 0.0017889033
0.0011214851 -0.030463548 0.0066213217 0.048828404 -0.091133989 -0.99464077 0.0013484749
-0.00092345267 -0.028251493 0.0065724896 -0.10962932 -0.010279883 -0.99391937 0.0012694238
0.0015716357 -0.02817083 0.0064627016 0.014981487 -0.060303554 -0.99806768 0.0012890066
0.0039747516 -0.027816476 0.0065612374 0.12220456 -0.12116941 -0.98508066 0.0016614284
-0.0008309526 -0.025291825 0.0065321987 -0.1734373 -0.0076859468 -0.98481488 0.0017477175
0.0015710567 -0.025278063 0.0062827636 -0.07025741 -0.053816214 -0.99607617 0.0015319124
0.004453036 -0.025279442 0.0063054832 0.063948914 -0.10319754 -0.99260306 0.0015887578
0.0067772372 -0.024729718 0.0065034898 0.19943836 -0.16807848 -0.965388 0.0019254474
-0.00063429441 -0.022232555 0.0065037515 -0.24402173 0.00033623306 -0.96976972 0.0018729174
0.0015705081 -0.022148566 0.0061216177 -0.12563226 -0.051266395 -0.99075139 0.0019025671
0.0044495962 -0.022139927 0.0059411479 0.020417029 -0.12006631 -0.99255592 0.0025028279
0.0073327301 -0.022151044 0.0061678523 0.13421838 -0.1478852 -0.97985476 0.0015851164
0.0095679229 -0.021410173 0.0064641768 0.28212634 -0.23236576 -0.93081194 0.0030363074
-0.00059060904 -0.019043522 0.0064990241 -0.31339383 -0.0020922527 -0.9496209 0.0019384866
0.00157006 -0.019022463 0.0059897229 -0.19001964 -0.050385639 -0.98048651 0.0018826263
0.0044466364 -0.019007608 0.0056289891 -0.085134275 -0.1068316 -0.99062562 0.0026098613
0.0073244101 -0.019008275 0.0056430204 0.10491689 -0.16292168 -0.98104477 0.0027789753
0.010353967 -0.018947555 0.0061072921 0.22010557 -0.20797484 -0.95304769 0.0027850107
0.012504071 -0.018204283 0.0065378398 0.3764827 -0.29360896 -0.8786664 0.0038236743
-0.00045323078 -0.016021553 0.006450708 -0.3782514 -0.0061063613 -0.92568272 0.0023041237
0.0015695419 -0.016137401 0.005835128 -0.24844098 -0.058846835 -0.96685785 0.0019509768
0.0044435342 -0.016118698 0.0052987207 -0.14592546 -0.11360242 -0.98275143 0.0025424382
0.007316737 -0.016113853 0.0051578525 0.066600636 -0.19232212 -0.97906923 0.0039603626
0.010437653 -0.016124375 0.0054553095 0.18705298 -0.22257994 -0.95680159 0.0028213635
0.013317458 -0.015960673 0.0061696079 0.35816029 -0.29691327 -0.88519132 0.0025109886
0.015271777 -0.014965051 0.006676212 0.48153108 -0.34157225 -0.80712843 0.0026932259
-0.00049439695 -0.013419829 0.0064298064 -0.43902388 -0.016516641 -0.8983236 0.0022601308
0.0015690271 -0.013254228 0.0056778267 -0.31008169 -0.067816138 -0.94828808 0.0020547539
0.00444033 -0.013233859 0.0049603041 -0.20257719 -0.12525092 -0.97122335 0.0023970145
0.0073083476 -0.013224415 0.004626777 -0.033727158 -0.1965263 -0.9799183 0.0020167206
0.010421662 -0.013228134 0.004754276 0.11347736 -0.24533029 -0.96277511 0.0020178694
0.013552317 -0.013246962 0.0054094931 0.30878592 -0.29662281 -0.90369588 0.0022445519
0.015870137 -0.012922888 0.0062143058 0.45077023 -0.30931023 -0.83733708 0.0034865036
-0.00053984503 -0.010025282 0.0063755242 -0.49676809 -0.023155337 -0.86757433 0.0023917784
0.0015682516 -0.010131482 0.0054292837 -0.37233549 -0.078445375 -0.92477703 0.0023929365
0.0044363267 -0.010112254 0.0045324899 -0.2395428 -0.15704913 -0.9580996 0.0022177726
0.0072517642 -0.010173966 0.0040665185 -0.10636164 -0.17814972 -0.97823811 0.0017874807
0.010441546 -0.010400726 0.0040556667 0.083327159 -0.26383904 -0.96096069 0.0014816931
0.013522569 -0.010110006 0.0044099232 0.21695183 -0.30607635 -0.92695695 0.0019238816
0.016398974 -0.010096429 0.0054030987 0.42047465 -0.32707313 -0.84630036 0.0033046973
0.01847598 -0.0093812477 0.0062697651 0.55990356 -0.35388047 -0.74918395 0.0028880446
-0.00059032248 -0.0070284465 0.0063097365 -0.55533218 -0.03387941 -0.83093828 0.0025536567
0.0015673935 -0.0070117614 0.005155446 -0.39686692 -0.094019681 -0.91304815 0.0018221935
0.0042707049 -0.0071277507 0.0041214982 -0.30444381 -0.13851795 -0.94240475 0.0015953308
0.0062603364 -0.0080261761 0.0037713295 -0.14821544 -0.19908194 -0.96870971 0.0016104588
0.014221929 -0.0079136938 0.0038431648 0.18614024 -0.33040321 -0.92530298 0.0022319388
0.016563902 -0.0071750637 0.0043133851 0.35181543 -0.35749051 -0.86511636 0.0023792603
0.019149965 -0.0068869479 0.0055948729 0.55415004 -0.36374831 -0.74873549 0.0032007471
0.021035954 -0.005830952 0.0065884739 0.68348008 -0.35905716 -0.63555717 0.0027146731
-0.00059000833 -0.0041454444 0.0061518885 -0.61246854 -0.043401401 -0.78930259 0.0030191066
0.0015664087 -0.0041347952 0.0048244186 -0.47183245 -0.10573327 -0.87532544 0.0021831363
0.0035673517 -0.0043661781 0.0039075073 -0.35525641 -0.14916646 -0.92279047 0.0017572473
0.017404735 -0.0051612342 0.0038072316 0.33644977 -0.3406643 -0.87792331 0.0029673451
0.019443145 -0.0043082428 0.0045484761 0.48016259 -0.3902649 -0.78558075 0.0022536775
0.021452205 -0.0038398087 0.0059006047 0.62056524 -0.37168828 -0.69046837 0.0023436677
-0.00058967591 -0.0012644817 0.0059750844 -0.63044137 -0.052510057 -0.77445871 0.0027520927
0.001456858 -0.0013273348 0.0045129126 -0.49952999 -0.14501034 -0.85407358 0.001201941
0.0032355364 -0.0024544974 0.0037272123 -0.42664799 -0.17746086 -0.88683659 0.0055824574
0.020356044 -0.0018981625 0.0039431695 0.57161784 -0.39605701 -0.71860415 0.0020703955
0.022201803 -0.0011834468 0.005187613 0.65672541 -0.38406301 -0.64900482 0.0036702408
-0.00074316602 0.0019696495 0.0058329599 -0.69668031 -0.066432394 -0.7142992 0.0039676554
0.0010504711 0.0016806733 0.0043134913 -0.58493334 -0.1294917 -0.80067778 0.002468477
0.023192205 0.0015560243 0.0046241339 0.7430144 -0.35240635 -0.56898093 0.0015973399
0.024606111 0.0024305279 0.0059550609 0.77408475 -0.34989592 -0.52760369 0.0022018044
-0.00082896644 0.0049692215 0.0055484409 -0.75954622 -0.076572008 -0.64593047 0.0038411489
