# .PCD v0.7 - Point Cloud Data file format
VERSION 0.7
FIELDS x y z normal_x normal_y normal_z curvature
SIZE 4 4 4 4 4 4 4
TYPE F F F F F F F
COUNT 1 1 1 1 1 1 1
WIDTH 557
HEIGHT 1
VIEWPOINT 0 0 0 1 0 0 0
POINTS 557
DATA ascii
0.020790925 -0.034294572 -0.066084847 -0.11430952 -0.31928697 -0.94073862 0.075493157
0.022340823 -0.034593575 -0.066594578 0.0294179 -0.30450416 -0.95205659 0.066060051
0.02042581 -0.031784102 -0.066278003 -0.23580027 -0.1156364 -0.96489716 0.01332468
0.022623317 -0.03211537 -0.067133181 0.20959002 -0.16818343 -0.96321672 0.084889606
0.024478003 -0.031980537 -0.0663312 0.54769033 -0.03503146 -0.83594745 0.073860273
0.019971197 -0.028856296 -0.066475868 -0.37729368 -0.0015011651 -0.92609239 0.0045875842
0.022349713 -0.029320285 -0.067157745 0.26535454 0.23393384 -0.93534058 0.077349454
0.020121314 -0.027288843 -0.066336304 -0.16241154 0.082372591 -0.98327881 0.068417631
0.021453874 -0.027345164 -0.066489905 0.18273579 0.13195537 -0.97426659 0.09422867
0.019731883 -0.036763843 -0.064656027 -0.14378537 -0.14961974 -0.97823292 0.068989635
0.016948689 -0.034581695 -0.064212866 -0.43767586 -0.18645585 -0.87958741 0.0036103006
0.019394886 -0.035188258 -0.065284587 -0.39160889 -0.21304186 -0.89512885 0.0021850038
0.021831399 -0.036129158 -0.065685816 0.029374385 -0.30438438 -0.95209628 0.066082403
0.024608126 -0.033976205 -0.064189591 0.77903754 -0.34787452 -0.52161664 0.040785223
0.014929484 -0.031211965 -0.063364185 -0.44698715 -0.070014738 -0.89179617 0.002642124
0.016757673 -0.032009128 -0.064534158 -0.45210558 -0.095792368 -0.88680565 0.0017563816
0.019107476 -0.032191541 -0.065607682 -0.41508847 -0.12871495 -0.90062976 0.00011977049
0.025116747 -0.031896479 -0.064243272 0.87945992 -0.0096682049 -0.47587478 0.028945357
0.016867869 -0.029213175 -0.064916126 -0.46377918 -0.03489881 -0.88526314 0.0032205714
0.018670298 -0.029305167 -0.065815769 -0.39219356 -0.017587591 -0.91971457 0.0047979732
0.023468098 -0.028550539 -0.064910866 0.66998172 0.58047354 -0.46279049 0.031439606
0.024614101 -0.029617161 -0.06408079 0.85211849 0.28262106 -0.44047618 0.026015356
0.017893126 -0.027438847 -0.065152347 -0.44195512 -0.013672187 -0.89693296 0.0057274699
0.019211691 -0.027130838 -0.065715842 -0.16238847 0.0822047 -0.98329669 0.068346918
0.025392875 -0.034025479 -0.061300721 0.92673826 -0.055134773 -0.37164006 0.017939927
0.026327338 -0.031901535 -0.061355188 0.9013474 -0.082665563 -0.4251346 0.01550345
0.023731703 -0.028077466 -0.061845165 0.7282058 0.65499866 -0.20172468 0.032068193
0.025572574 -0.029414732 -0.061368782 0.78928965 0.5289712 -0.31178728 0.041153233
0.026426181 -0.033977915 -0.058538813 0.88743931 0.013982937 -0.46071249 0.038854234
0.026930904 -0.032944877 -0.059602316 0.88743204 0.014035495 -0.4607248 0.038856167
0.02791024 -0.031744625 -0.058401123 0.89086151 0.020129703 -0.45382878 0.037490256
0.023055805 -0.027844736 -0.05935752 0.2540164 0.92068005 -0.29635099 0.0076499921
0.025895208 -0.02842154 -0.058434501 0.48970792 0.73196143 -0.47372839 0.031002937
0.027857596 -0.029803868 -0.058018763 0.7774359 0.33548886 -0.53201562 0.022067042
0.022602962 -0.027330266 -0.058122575 0.22213063 0.93969703 -0.26005292 0.011713808
0.024187507 -0.027357018 -0.057502564 0.34721059 0.90876567 -0.23149486 0.019778091
0.028042078 -0.033924051 -0.055308823 0.81030101 -0.37665582 -0.44893509 0.013178943
0.029146967 -0.032194413 -0.05593894 0.84538621 -0.24845453 -0.47285578 0.026108792
0.030348008 -0.031404603 -0.054593485 0.77194035 -0.27699369 -0.57217366 0.029449498
0.026402628 -0.027724421 -0.056657035 0.33468631 0.81641704 -0.4705829 0.012138233
0.028747329 -0.028717097 -0.055746816 0.6809538 0.47626665 -0.55630213 0.030431606
0.030339343 -0.029390633 -0.054460064 0.71802169 0.21810134 -0.66096646 0.032814011
0.023108484 -0.026797883 -0.055744197 0.1234136 0.93720782 -0.32620621 0.0085695134
0.025650606 -0.02667564 -0.055350233 0.2161857 0.90876633 -0.35694188 0.017219296
0.028089475 -0.027022133 -0.054603897 0.36914814 0.74109143 -0.56081474 0.014444889
0.029052479 -0.034198552 -0.052700151 0.55639726 -0.74464262 -0.36868611 0.01338011
0.030596701 -0.033827256 -0.051537421 0.52947783 -0.75749141 -0.38191622 0.014313653
0.029798282 -0.033212539 -0.053907391 0.77341312 -0.34796283 -0.52986217 0.018836288
0.031574614 -0.031969052 -0.052427355 0.7240029 -0.40105706 -0.56122458 0.019520244
0.031884328 -0.028985519 -0.052505147 0.75860161 0.17194651 -0.62845683 0.029263357
0.023171164 -0.026588285 -0.053539321 0.016988851 0.97487366 -0.22210975 0.013616107
0.02593445 -0.025610367 -0.05233518 -0.21014272 0.9182235 -0.33571646 0.018743573
0.028810097 -0.025791707 -0.052614052 0.30428347 0.73773021 -0.60263234 0.013439128
0.031163836 -0.026501793 -0.051979017 0.40289631 0.64079189 -0.65349859 0.015697453
0.028766567 -0.035179853 -0.049037613 0.31738529 -0.91540039 -0.2476059 0.0063558212
0.031434771 -0.034338541 -0.049209028 0.3942039 -0.83080852 -0.39288741 0.02016017
0.033136021 -0.033659127 -0.048525032 0.64139342 -0.62454581 -0.44559729 0.0082586706
0.032575861 -0.032860331 -0.050292432 0.68489438 -0.5483554 -0.47981873 0.017750148
0.034156691 -0.031623799 -0.04926135 0.69483125 -0.45893824 -0.5537014 0.010988079
0.034473468 -0.028958958 -0.049587712 0.72627062 -0.02210577 -0.68705338 0.013040031
0.023795445 -0.02641405 -0.049807247 -0.42117479 0.89444113 -0.15028943 0.014000104
0.025565116 -0.025168736 -0.049570974 -0.43847263 0.85112721 -0.28865939 0.021150336
0.028416408 -0.024674173 -0.050804503 0.0058164834 0.88224638 -0.47075197 0.020112488
0.032239791 -0.025445908 -0.050394334 0.43574801 0.53730714 -0.72209746 0.030468829
0.034414232 -0.026169192 -0.049068548 0.64347637 0.27620417 -0.71389729 0.015447163
0.026502591 -0.024287244 -0.048487443 -0.50752532 0.82748783 -0.24017058 0.012966511
0.028723331 -0.023826072 -0.049302846 -0.13827875 0.85649961 -0.49728003 0.019224109
0.031516291 -0.023650236 -0.049005322 0.19511266 0.75385755 -0.62739933 0.01708764
0.033673089 -0.024029126 -0.048397623 0.49083123 0.55714995 -0.66982728 0.010594432
0.028619355 -0.035498884 -0.046754893 0.26463306 -0.91559398 -0.3027491 0.0085788546
0.031828064 -0.035205916 -0.046587344 0.30685779 -0.89485592 -0.32414699 0.014290188
0.034168426 -0.034274887 -0.046216313 0.5213272 -0.73329014 -0.43646714 0.0087732216
0.035292316 -0.032531664 -0.047117684 0.66087914 -0.5549686 -0.50522143 0.015737226
0.036854029 -0.031636365 -0.045931224 0.70665866 -0.42614532 -0.56483072 0.0056165406
0.03571168 -0.030329939 -0.047970291 0.7166602 -0.24603529 -0.65258318 0.021643778
0.037229814 -0.029030029 -0.046410825 0.763331 -0.09130194 -0.63952297 0.0069069788
0.023846349 -0.026074503 -0.045868937 -0.7038483 0.67699307 -0.21512324 0.0078687193
0.024699097 -0.025107119 -0.046628192 -0.70384508 0.67700034 -0.21511057 0.0078709759
0.035595283 -0.025354652 -0.047688566 0.66454339 0.24812134 -0.70485312 0.0056525175
0.037205547 -0.026163457 -0.046282649 0.70809525 0.20022568 -0.67713422 0.0072670733
0.026240166 -0.023618748 -0.046343166 -0.58170474 0.74212492 -0.33297187 0.010298095
0.028579416 -0.022375613 -0.046542007 -0.2397557 0.81695008 -0.52450913 0.0056631537
0.031612985 -0.022103995 -0.047021378 0.057428654 0.78223795 -0.62032712 0.0075283977
0.034684066 -0.022824816 -0.046659522 0.35366201 0.62076229 -0.69969797 0.0089251818
0.036721461 -0.023647839 -0.045774832 0.58635122 0.45008516 -0.6735099 0.0067718136
0.029574102 -0.021186266 -0.04524165 -0.31456441 0.78707528 -0.53062385 0.0039598178
0.03168058 -0.02096191 -0.045476977 -0.069580741 0.79146057 -0.60724688 0.012574304
0.033886455 -0.021040173 -0.045329299 0.25957808 0.70986694 -0.6547581 0.007454765
0.028876388 -0.036092192 -0.044023402 0.14972925 -0.96309507 -0.223672 0.0078343628
0.031899802 -0.036059853 -0.043991409 0.16109192 -0.93848091 -0.30545548 0.0038763196
0.034767862 -0.035282314 -0.043439995 0.37864992 -0.84230506 -0.3835969 0.0051595303
0.036928866 -0.034096058 -0.04326456 0.57841271 -0.67956161 -0.45125908 0.0045577609
0.03817163 -0.032092527 -0.043926992 0.73277247 -0.36512873 -0.57421732 0.003557455
0.03954713 -0.031488404 -0.04261744 0.74594617 -0.3975521 -0.53433746 0.0040414911
0.038864672 -0.029142328 -0.044479333 0.76104856 -0.11052856 -0.63920927 0.0035134503
0.040062059 -0.028898992 -0.042982571 0.77969718 -0.13654067 -0.6110884 0.0045065195
0.023397302 -0.026011396 -0.043298308 -0.90080976 0.37500408 -0.21889196 0.0092037357
0.024319431 -0.024643665 -0.044252168 -0.74506772 0.58064228 -0.32822028 0.0043215724
0.038764294 -0.025645819 -0.044468049 0.74048567 0.13431221 -0.65851444 0.0028558106
0.040128455 -0.026105786 -0.04294179 0.76861411 0.11205842 -0.6298216 0.0036438205
0.023785237 -0.024328319 -0.042352047 -0.80061388 0.505252 -0.32208344 0.0094112232
0.025515042 -0.022848111 -0.043561518 -0.70487142 0.61679631 -0.35031226 0.0073483079
0.027707541 -0.021646975 -0.044548508 -0.37332594 0.78298277 -0.49755979 0.0066219419
0.0359785 -0.021630077 -0.044875141 0.43089718 0.60501677 -0.66953892 0.012143501
0.037941668 -0.02276459 -0.044045955 0.65727001 0.3889738 -0.64551955 0.0038216349
0.039658569 -0.023204664 -0.042544857 0.70396149 0.36160403 -0.61129427 0.0041808723
0.026453631 -0.021220608 -0.042451177 -0.58580875 0.65080023 -0.48299807 0.003954438
0.028646832 -0.020402577 -0.043327674 -0.38142803 0.77041364 -0.51085752 0.0071641738
0.031612296 -0.019599784 -0.043548405 -0.091563188 0.79280674 -0.60255593 0.0043783323
0.034689963 -0.019859493 -0.043612376 0.18599558 0.74748302 -0.63771063 0.0036981064
0.037193149 -0.020467341 -0.042885672 0.50578529 0.57180691 -0.64592427 0.00354518
0.032584492 -0.018351546 -0.042012852 -0.055699237 0.83134508 -0.55295843 0.0058957115
0.033439547 -0.018350659 -0.042033087 0.088516228 0.78744513 -0.60999596 0.0097069629
0.02945357 -0.036875807 -0.040823594 0.057131547 -0.9688676 -0.24089763 0.0075295973
0.031550448 -0.036812838 -0.041527454 0.05712438 -0.96888006 -0.24084897 0.0075778486
0.034270611 -0.036868002 -0.039705869 0.23110567 -0.92241883 -0.30940843 0.0058449651
0.027945006 -0.036439504 -0.040899407 -0.05441881 -0.98348278 -0.17262797 0.0022357272
0.035021536 -0.036212761 -0.041036971 0.30699024 -0.89344287 -0.32789746 0.0040326314
0.037731938 -0.035000708 -0.040546421 0.51398635 -0.76868165 -0.38071841 0.0055400366
0.039773889 -0.033969481 -0.039591487 0.66117728 -0.6361205 -0.39773792 0.003187607
0.038808499 -0.033354472 -0.04186919 0.65513116 -0.52508593 -0.54321992 0.0099897506
0.04059029 -0.032073911 -0.040600635 0.73626494 -0.43461043 -0.51867884 0.0072815795
0.022407213 -0.027908957 -0.040002298 -0.95937145 0.13902366 -0.24551763 0.0035060705
0.041521531 -0.029251248 -0.040896311 0.81727237 -0.16465247 -0.55222774 0.0036343811
0.042471066 -0.028801329 -0.039551731 0.84169644 -0.20257904 -0.50050861 0.0050412612
0.022628365 -0.02606333 -0.040370747 -0.93447 0.23281366 -0.26937631 0.006431221
0.041565433 -0.025972161 -0.041015174 0.80287611 0.07660614 -0.59120339 0.0023668995
0.042658895 -0.026399788 -0.039472416 0.8398543 0.063390128 -0.53909785 0.0027878231
0.023420434 -0.023420431 -0.040284049 -0.83735752 0.43515036 -0.33087242 0.0078711929
0.02454639 -0.022303166 -0.041190285 -0.78093064 0.50208497 -0.37156165 0.0082263546
0.041134246 -0.023011817 -0.040593859 0.77469951 0.28839296 -0.56273448 0.0021999353
0.042501494 -0.024077315 -0.039251354 0.80224621 0.25863215 -0.53806174 0.0021239179
0.023962585 -0.021496056 -0.039125022 -0.69996226 0.57649362 -0.42155406 0.0029811116
0.025843957 -0.020343257 -0.040359214 -0.60072106 0.64780927 -0.46848413 0.0049915416
0.028195471 -0.019192345 -0.04117202 -0.37137473 0.77526885 -0.51091987 0.0033760529
0.030234655 -0.018783553 -0.04192948 -0.25484261 0.82216901 -0.50901222 0.0023408248
0.035799447 -0.018781153 -0.041983183 0.25136539 0.74514717 -0.61771441 0.0023806726
0.038053088 -0.019448698 -0.041204214 0.47459081 0.61811364 -0.62665701 0.0062184259
0.040100452 -0.020529103 -0.040193345 0.65797538 0.48055321 -0.57977331 0.0035454188
0.026986454 -0.01847866 -0.039063867 -0.5127635 0.69812721 -0.49969178 0.0038058392
0.028968209 -0.017985767 -0.039976325 -0.38008747 0.77674806 -0.50219125 0.0025736522
0.031629838 -0.01743469 -0.040450435 -0.16216505 0.83129996 -0.53164178 0.0038634473
0.034625962 -0.017370371 -0.040477417 0.084661566 0.81535733 -0.57273453 0.0033180399
0.037361935 -0.017872114 -0.039956998 0.41059271 0.70686001 -0.57598835 0.0039966204
0.028898852 -0.037253328 -0.03757273 -0.051509481 -0.981363 -0.18513085 0.0032045643
0.0317716 -0.037511647 -0.038545065 0.047771424 -0.97335154 -0.22428694 0.0046269335
0.034857895 -0.037271991 -0.037781142 0.29686809 -0.909922 -0.28967455 0.0032955944
0.036655791 -0.036927428 -0.037016429 0.40824813 -0.86507648 -0.29150644 0.0026318899
0.038237587 -0.035938419 -0.037753716 0.45137998 -0.83063251 -0.32604566 0.0023852238
0.040308736 -0.034585278 -0.037368894 0.61347872 -0.70988792 -0.34598127 0.0060785152
0.041582778 -0.032882925 -0.038073931 0.74707657 -0.52401739 -0.40900165 0.01113927
0.042716291 -0.031578165 -0.037463386 0.79377967 -0.42118779 -0.43876502 0.0038311381
0.021796387 -0.027993361 -0.037114505 -0.96387321 0.067651019 -0.25762725 0.0028305303
0.043529745 -0.028931536 -0.037658501 0.86060053 -0.23419276 -0.45223936 0.0040980019
0.021791875 -0.025768224 -0.037326895 -0.95692152 0.10368768 -0.27120116 0.0037459149
0.043828975 -0.025895191 -0.037431877 0.87600517 0.060661141 -0.4784717 0.0019996564
0.022522891 -0.022837479 -0.037549686 -0.84881616 0.37909591 -0.368507 0.0043208804
0.043216094 -0.022919761 -0.037453137 0.82288688 0.27297163 -0.4983409 0.0024232902
0.023580024 -0.020535996 -0.03720323 -0.75313532 0.52613324 -0.39493161 0.0043915845
0.024966458 -0.019350562 -0.037840758 -0.69017988 0.57872981 -0.43442327 0.0030296529
0.041221809 -0.019573543 -0.037949648 0.70110267 0.47755498 -0.52952451 0.0025396727
0.042572249 -0.0206568 -0.036999196 0.75789517 0.41824937 -0.50066191 0.0021152582
0.02623122 -0.017825538 -0.037265934 -0.55018342 0.6862945 -0.47570792 0.0022900144
0.028521506 -0.016670726 -0.037659768 -0.34168103 0.77941793 -0.52513027 0.0013930998
0.031485014 -0.016081253 -0.038367543 -0.14242874 0.82983714 -0.53952235 0.0029422448
0.034939185 -0.016052257 -0.0385537 0.088251069 0.83083683 -0.54947418 0.0043049087
0.037868552 -0.016488386 -0.037816856 0.35852617 0.75765491 -0.54536045 0.0045357654
0.040046137 -0.017591115 -0.037237011 0.56486166 0.62539625 -0.53834075 0.003747422
0.029755896 -0.015333844 -0.036447521 -0.34116969 0.79739821 -0.4977544 0.0016606939
0.031572387 -0.01514584 -0.036919989 -0.17023343 0.83537304 -0.52265888 0.0037972892
0.034476846 -0.015092164 -0.037149873 0.071415395 0.84840697 -0.5245049 0.0035518401
0.036825817 -0.015251655 -0.036726441 0.30935898 0.79210883 -0.52617538 0.0036146299
0.028275749 -0.03742253 -0.034707293 -0.054238793 -0.98390239 -0.1702771 0.0028968866
0.032134645 -0.038391367 -0.033657618 0.065628581 -0.98682541 -0.14788043 0.0093129035
0.035324451 -0.037854221 -0.034760382 0.26325402 -0.95106816 -0.16176099 0.0030224388
0.037237857 -0.037150908 -0.035314854 0.43907803 -0.86402082 -0.24633017 0.0032721402
0.038502719 -0.036456835 -0.035780039 0.43909249 -0.8640008 -0.2463744 0.0032616782
0.040877126 -0.034982167 -0.03521166 0.63326889 -0.72297502 -0.27618411 0.0025105025
0.042692918 -0.034068193 -0.03303754 0.69885129 -0.66592097 -0.26106718 0.0049646161
0.043578651 -0.032081306 -0.034839381 0.81349063 -0.50926346 -0.28086245 0.0042017493
0.021333635 -0.028360615 -0.034548599 -0.97701675 -0.014400369 -0.21267562 0.0018902509
0.044606179 -0.029484674 -0.035069123 0.90766764 -0.19546348 -0.37139404 0.0047914488
0.045203995 -0.028520025 -0.034133237 0.91728562 -0.18103406 -0.35470238 0.004820779
0.020778505 -0.025946321 -0.033354126 -0.97627753 -0.017033793 -0.21585178 0.0023323789
0.021142976 -0.026070286 -0.034897629 -0.9684965 0.028164012 -0.24742928 0.0050119432
0.044581946 -0.024921922 -0.035887342 0.89382255 0.054708239 -0.4450711 0.0022217801
0.045393817 -0.026121112 -0.03406439 0.93548596 0.0040350296 -0.35334072 0.0027026555
0.020784646 -0.023983929 -0.033221569 -0.93777257 0.19730072 -0.28575337 0.0042767813
0.02147731 -0.022781044 -0.034735061 -0.9132005 0.24863081 -0.32287413 0.0036494487
0.044452064 -0.022682158 -0.03505636 0.87372965 0.24837774 -0.41821641 0.0019867853
0.045242693 -0.023515506 -0.033770476 0.90182358 0.22060682 -0.37154648 0.0025670358
0.02261146 -0.019950939 -0.034469396 -0.8039102 0.45769578 -0.37979329 0.0011768085
0.024154481 -0.018626509 -0.035633262 -0.65451306 0.61294687 -0.44261599 0.00097973214
0.041965712 -0.018612666 -0.0359548 0.69143707 0.52438068 -0.49693012 0.0047713327
0.043601226 -0.019906415 -0.034473885 0.81667078 0.39452693 -0.42118564 0.0014414028
0.023534019 -0.017982729 -0.033656083 -0.68483233 0.59763885 -0.41693226 0.0028880197
0.025431432 -0.016749898 -0.034617316 -0.56013733 0.70630765 -0.43286932 0.0018901663
0.02771352 -0.015728058 -0.035551783 -0.39428502 0.79584986 -0.45952418 0.0034175492
0.038942035 -0.015576599 -0.035733398 0.51425183 0.70759994 -0.48461059 0.0026994718
0.040868826 -0.016561707 -0.034875754 0.55892783 0.67411846 -0.48287061 0.0021600877
0.0426118 -0.017704112 -0.033848278 0.70743918 0.55844206 -0.43321151 0.0023832957
0.026570382 -0.015110204 -0.033467147 -0.50785047 0.71177214 -0.48525074 0.0021381294
0.028720809 -0.014442766 -0.034262419 -0.35571888 0.79917204 -0.48454934 0.0030462292
0.031606633 -0.013690149 -0.034513216 -0.13305852 0.85485202 -0.50152117 0.0024358374
0.034604933 -0.013517337 -0.034548953 0.06056704 0.85735977 -0.51114166 0.0027628345
0.037612472 -0.014179371 -0.034543794 0.32686451 0.79636514 -0.50888318 0.0051136436
0.039745096 -0.014833661 -0.033785138 0.53018814 0.70632744 -0.46904373 0.0032147816
0.033063512 -0.03845593 -0.032952812 0.065658286 -0.98681116 -0.14796147 0.0093062557
0.038387988 -0.0372083 -0.032198783 0.50631756 -0.84064955 -0.19222583 0.0037983698
0.039201412 -0.036708053 -0.032901581 0.50632244 -0.84064901 -0.19221538 0.0038323414
0.041861106 -0.03498159 -0.032586988 0.65099776 -0.7340278 -0.19340417 0.0067128902
0.042759482 -0.034120884 -0.032378998 0.70344085 -0.66784215 -0.24322374 0.014573588
0.044793677 -0.031532351 -0.031801324 0.88452357 -0.42737138 -0.18700731 0.0073581412
0.020705361 -0.028237734 -0.031126138 -0.98307991 -0.086582944 -0.1614226 0.0013620059
0.04585731 -0.028913166 -0.031544898 0.94843507 -0.15580827 -0.27603379 0.0055863149
0.020347653 -0.025897183 -0.031248558 -0.97921455 -0.084256604 -0.18449864 0.0012827351
0.046273153 -0.025940116 -0.031442039 0.96338993 -0.012025608 -0.26783445 0.0012337149
0.020457398 -0.02310944 -0.031459518 -0.96167678 0.12053402 -0.24627081 0.0040959097
0.045893103 -0.023105217 -0.031796224 0.92359817 0.19838534 -0.32803911 0.001386893
0.020732963 -0.020762779 -0.030768499 -0.88789296 0.32023346 -0.33029783 0.0038069622
0.021629067 -0.019664479 -0.031916309 -0.84586549 0.38357905 -0.37064615 0.0024642898
0.044718105 -0.01971568 -0.031999417 0.84749609 0.37773919 -0.3729122 0.0013192344
0.045551531 -0.020665687 -0.030875903 0.86531848 0.36331806 -0.34528813 0.0017208027
0.022908339 -0.017134156 -0.031319328 -0.70401472 0.57061255 -0.42280555 0.002635166
0.024622202 -0.015985889 -0.032440998 -0.60730416 0.6629042 -0.43788084 0.0015922079
0.041705493 -0.015831022 -0.032684699 0.63779318 0.6398586 -0.42872 0.00096726493
0.043354772 -0.017068205 -0.031517718 0.74740416 0.549788 -0.3729881 0.0020953417
0.023862682 -0.01518378 -0.030242052 -0.62163192 0.6492995 -0.43815973 0.0010930382
0.025872016 -0.01423727 -0.03131735 -0.51673561 0.71718758 -0.46757495 0.0032914409
0.02850824 -0.013098458 -0.031922068 -0.32406622 0.80442977 -0.49786925 0.0016766592
0.031548765 -0.012616153 -0.032692142 -0.13569118 0.84469223 -0.51776719 0.0022900663
0.035478208 -0.012610612 -0.032889765 0.065924607 0.86318588 -0.50056386 0.0025298605
0.037881687 -0.012899704 -0.032203261 0.29954493 0.82452559 -0.4800317 0.0029436515
0.040533766 -0.014112541 -0.031556219 0.55625224 0.72655064 -0.40337035 0.0037571075
0.042498786 -0.015319256 -0.030577686 0.69226491 0.62205499 -0.36580986 0.0018420409
0.029125104 -0.012084968 -0.030681837 -0.33620748 0.81595141 -0.47030604 0.0023714839
0.031569332 -0.011716788 -0.031112667 -0.12081775 0.86839777 -0.48092455 0.0023524989
0.034407463 -0.011634932 -0.031254556 0.070672765 0.88152665 -0.46681485 0.0024553151
0.0373156 -0.011944578 -0.030830607 0.3379446 0.83875722 -0.42694238 0.0038870219
0.020341631 -0.02845984 -0.028438102 -0.98039252 -0.1179274 -0.1578722 0.0020044749
0.046731953 -0.028259454 -0.028121229 0.96452725 -0.088103339 -0.24884738 0.0043086116
0.019846696 -0.026146198 -0.028612234 -0.97424775 -0.12393139 -0.18836752 0.0020142749
0.047254432 -0.025198339 -0.027400758 0.96688211 0.067866713 -0.24603471 0.0046718959
0.019628707 -0.022850707 -0.028340956 -0.97040635 0.046080146 -0.2370403 0.0021797107
0.04663324 -0.022448599 -0.029028185 0.94771123 0.18432033 -0.2605176 0.0017929649
0.020193944 -0.019896835 -0.028524257 -0.91695517 0.25855464 -0.30387935 0.0034274289
0.045937251 -0.019713912 -0.028644789 0.89332873 0.35460204 -0.27608186 0.0012603378
0.020709479 -0.01783151 -0.027874222 -0.82478356 0.42426354 -0.37380821 0.0026968506
0.021897215 -0.016621007 -0.028896028 -0.76900458 0.48946235 -0.41116735 0.0016351198
0.044356812 -0.016752016 -0.028800912 0.8033157 0.50805885 -0.31074134 0.00095274643
0.045412663 -0.01806717 -0.028020935 0.84139252 0.45454946 -0.29230711 0.0022002282
0.023142632 -0.014535531 -0.028229013 -0.66213995 0.60537392 -0.44169351 0.0030739331
0.025067365 -0.013190633 -0.028845733 -0.53216964 0.71474981 -0.45379314 0.001947838
0.041157428 -0.013163446 -0.028940044 0.55371237 0.74438643 -0.37321752 0.0044474718
0.042863674 -0.014624761 -0.028524501 0.69195902 0.63887876 -0.33619428 0.0015948473
0.026036192 -0.01189469 -0.027901089 -0.47464919 0.73958522 -0.47720215 0.0015929295
0.028499437 -0.01106304 -0.028552897 -0.33794895 0.80476516 -0.48799959 0.0022622219
0.031579673 -0.010271091 -0.028548686 -0.11162579 0.87448984 -0.47202453 0.001428041
0.034729049 -0.010215388 -0.028543826 0.098396659 0.88718885 -0.4507927 0.0020258378
0.037532963 -0.010800625 -0.028471932 0.34338033 0.83407825 -0.43174469 0.0041842489
0.039964613 -0.011817607 -0.028091693 0.52188623 0.76267463 -0.38204986 0.0023547118
0.019937664 -0.028696483 -0.025351308 -0.96454853 -0.21757242 -0.14936006 0.00078793248
0.019227955 -0.025946643 -0.025688013 -0.96702367 -0.18019643 -0.17998451 0.0018108718
0.04730745 -0.024781821 -0.026918378 0.96626854 0.10450272 -0.23538119 0.0041635777
0.01878836 -0.022822378 -0.025146756 -0.96192497 -0.019165495 -0.27264112 0.0027134984
0.04744051 -0.023735566 -0.025707807 0.96977419 0.12442607 -0.20989585 0.004231663
0.019171732 -0.019900676 -0.025546968 -0.94132257 0.16818386 -0.29261926 0.0024995541
0.046811219 -0.020210836 -0.025754264 0.9426949 0.27329552 -0.19140503 0.0026872116
0.020131523 -0.016902756 -0.025509587 -0.86321282 0.36514813 -0.34861216 0.0032175593
0.044886537 -0.016342988 -0.026683237 0.82256979 0.51049894 -0.25053912 0.00370619
0.045722984 -0.017071212 -0.025081631 0.85806042 0.46496713 -0.21803191 0.001507531
0.020621886 -0.015187396 -0.024674091 -0.76368499 0.49734694 -0.4116202 0.0023467853
0.022092735 -0.013902983 -0.025649898 -0.70577353 0.56174552 -0.4316546 0.0015207544
0.042003009 -0.012786774 -0.026602622 0.67196858 0.67965984 -0.29414397 0.00083737948
0.043617263 -0.014187699 -0.025671167 0.7487849 0.60036975 -0.28085122 0.0011105541
0.023405021 -0.011941203 -0.024875998 -0.60221589 0.66199809 -0.4462001 0.0032097618
0.025495915 -0.010792962 -0.025557956 -0.45894602 0.75905758 -0.46173599 0.0019498711
0.028302727 -0.0098783681 -0.026412008 -0.30560672 0.82131261 -0.48171583 0.0024844646
0.038130585 -0.0099046677 -0.02611828 0.35359672 0.85163856 -0.38688642 0.0041806395
0.040505186 -0.011032782 -0.025484968 0.54920149 0.7734189 -0.31654537 0.0025188404
0.042186633 -0.012168972 -0.024709295 0.67194861 0.67969936 -0.29409835 0.00085537694
0.026789136 -0.0092715304 -0.024324041 -0.4174397 0.77782059 -0.46982902 0.0018411383
0.028833942 -0.0089156497 -0.025045082 -0.28403607 0.84570998 -0.4517723 0.0031988712
0.031631373 -0.0085969847 -0.025420785 -0.1051417 0.88439459 -0.45474318 0.0028164887
0.0344708 -0.0086666467 -0.025459042 0.12217385 0.8919223 -0.43537122 0.0017884944
0.037210692 -0.009015752 -0.024934513 0.34682652 0.85664725 -0.38192508 0.004115501
0.019565186 -0.028863985 -0.022350436 -0.95077115 -0.27499712 -0.14286643 0.00087386149
0.018593827 -0.025945764 -0.022276776 -0.95745224 -0.22259094 -0.18368033 0.0018678894
0.017743107 -0.021962924 -0.021002945 -0.97037745 -0.088439897 -0.22482422 0.0013875504
0.018239973 -0.023337621 -0.02270719 -0.97391629 -0.10872613 -0.19916244 0.002050851
0.017741546 -0.02105904 -0.021044349 -0.9731977 0.022876043 -0.22882928 0.0058488511
0.018328205 -0.019970188 -0.022877861 -0.93989491 0.13920881 -0.31179863 0.0023091659
0.046815377 -0.018712444 -0.023233261 0.92024577 0.3537862 -0.16728106 0.0048325784
0.018904027 -0.016944377 -0.0225372 -0.90120637 0.26036769 -0.34646183 0.0032684167
0.046009187 -0.016501451 -0.022373723 0.84306389 0.49367315 -0.21337795 0.0026243369
0.020067545 -0.014168486 -0.022349164 -0.78205752 0.48045868 -0.39691994 0.0028388065
0.021391449 -0.013027339 -0.023349719 -0.67122328 0.57426423 -0.46870029 0.0026755605
0.044086907 -0.013657631 -0.022967109 0.77917141 0.58214223 -0.23238425 0.00090282114
0.045196969 -0.014730347 -0.021533635 0.80971283 0.54530698 -0.21680762 0.0022186171
0.020731397 -0.012331649 -0.021404611 -0.71480989 0.54263324 -0.44113043 0.00079727842
0.022626292 -0.011102415 -0.022554822 -0.61685997 0.63932133 -0.45907736 0.0035866164
0.024736362 -0.0099168578 -0.023410281 -0.5087539 0.70328349 -0.4965499 0.0044165724
0.041002125 -0.010418066 -0.023041774 0.58255422 0.76109111 -0.28525579 0.0031416228
0.04283103 -0.012109971 -0.022696707 0.72336054 0.64943486 -0.23448639 0.0011041338
0.023886446 -0.0091783442 -0.021380322 -0.52598852 0.70383579 -0.47744244 0.00060701976
0.025839981 -0.008578877 -0.022334239 -0.4256894 0.7699728 -0.47532135 0.0027976392
0.028580332 -0.0075271511 -0.022410249 -0.21796262 0.86036825 -0.46071559 0.0020267346
0.031558167 -0.0071008326 -0.02245974 -0.032458555 0.89667922 -0.44148931 0.0021535158
0.034615979 -0.0073187565 -0.022545815 0.15067221 0.89962333 -0.40984836 0.0021729837
0.037494082 -0.0080393162 -0.0223851 0.40202272 0.85152882 -0.33656561 0.0025474092
0.039623268 -0.0091286218 -0.022411533 0.53861779 0.78249329 -0.31240219 0.0024091564
0.019147249 -0.02869679 -0.019747544 -0.94523031 -0.29563889 -0.13833801 0.00075310585
0.017821284 -0.025238464 -0.018930173 -0.94942659 -0.26081094 -0.17483376 0.0025496054
0.018335016 -0.026551817 -0.019699529 -0.9533785 -0.2529552 -0.16456957 0.0023743981
0.017545197 -0.023014659 -0.019697864 -0.97084862 -0.14594224 -0.19014196 0.0014347428
0.017295381 -0.019894812 -0.019346062 -0.96067786 0.037786264 -0.27508217 0.0033484162
0.01754028 -0.017161578 -0.019164462 -0.92606634 0.16666593 -0.33856103 0.0025685842
0.018302152 -0.016206868 -0.020542176 -0.89458269 0.25307128 -0.36834309 0.0023367913
0.017842384 -0.014832366 -0.018370714 -0.84182245 0.33511847 -0.42312008 0.0043460079
0.018860254 -0.01377541 -0.019561609 -0.82082576 0.37804052 -0.42817095 0.0021081672
0.044715371 -0.01343373 -0.019623589 0.77317435 0.60645109 -0.18552199 0.00093901221
0.020230521 -0.011259289 -0.019249821 -0.69934297 0.53622717 -0.47263083 0.0024248424
0.021832375 -0.010251618 -0.020351153 -0.62482071 0.62562698 -0.46710807 0.00053913327
0.041574165 -0.0099546453 -0.020155 0.69892412 0.68527067 -0.20471761 0.0008419113
0.042959638 -0.011284242 -0.019652601 0.72818458 0.65689313 -0.1955471 0.00061600958
0.02102818 -0.0093909483 -0.018167462 -0.60438645 0.63313806 -0.48358363 0.0017756047
0.022828972 -0.0085584214 -0.019222219 -0.55964381 0.67093003 -0.4864687 0.0020106775
0.025276219 -0.0072632888 -0.019701445 -0.38670719 0.78356469 -0.48629612 0.0021741684
0.027779656 -0.0067256847 -0.020592537 -0.2318749 0.8458122 -0.48045376 0.0027576666
0.035359349 -0.0066347802 -0.020645844 0.21232511 0.90267205 -0.37430093 0.00444534
0.037693854 -0.0070985463 -0.019732859 0.36337143 0.86452532 -0.34721351 0.0023660248
0.040204357 -0.0085503738 -0.019482847 0.5651927 0.78214997 -0.26229489 0.0029398147
0.026377251 -0.0060567437 -0.018569212 -0.34524536 0.80359536 -0.48480943 0.0027629628
0.028744468 -0.0057691252 -0.019259999 -0.16986373 0.87366235 -0.45591697 0.002614175
0.031590305 -0.0057417341 -0.019688657 0.0090128398 0.8947801 -0.44641602 0.002742192
0.034408413 -0.005853612 -0.019210976 0.18906499 0.90419602 -0.38299331 0.002490774
0.036659561 -0.0062081572 -0.01856054 0.41131255 0.8626253 -0.29444778 0.0035642597
0.018887853 -0.028850988 -0.01680704 -0.91592211 -0.383495 -0.11839826 0.00049573957
0.017590459 -0.02590326 -0.016409006 -0.93772447 -0.30620858 -0.16404003 0.0011724703
0.016879342 -0.022972962 -0.016714608 -0.95717424 -0.19397603 -0.21492015 0.0021763283
0.016332764 -0.019927163 -0.016042618 -0.94068605 -0.080009297 -0.32970938 0.0025745751
0.016546112 -0.017029226 -0.01646159 -0.92662835 0.088364109 -0.36544725 0.0033443584
0.01715615 -0.014022334 -0.016397143 -0.83760101 0.29302117 -0.46104574 0.0029426422
0.018322481 -0.012809044 -0.01769283 -0.77105922 0.43793097 -0.46225989 0.0024449779
0.017691677 -0.011520522 -0.015634235 -0.76880366 0.39146975 -0.50566024 0.00292506
0.018969504 -0.010759496 -0.016849026 -0.73374617 0.46052527 -0.49953279 0.0020345328
0.043207124 -0.010787746 -0.016516458 0.697079 0.69368422 -0.18133681 0.0009390238
0.020054508 -0.0086505003 -0.016139964 -0.61520386 0.58460313 -0.52892661 0.0035822473
0.022173896 -0.0072480654 -0.016794467 -0.50020242 0.68972039 -0.52352965 0.0019811029
0.024219336 -0.0066700261 -0.017920788 -0.4727757 0.7298426 -0.49377421 0.0019532642
0.038590599 -0.0066791233 -0.01721723 0.41127756 0.85630941 -0.31238595 0.0033312645
0.040260635 -0.0077160029 -0.016361773 0.62172973 0.75092119 -0.22264215 0.0036639699
0.042149317 -0.0094392728 -0.015675839 0.68168908 0.71000105 -0.17663103 0.00040158868
0.023093812 -0.005817106 -0.015755774 -0.45488593 0.69736183 -0.55386394 0.0020291761
0.025634034 -0.0050700894 -0.016469395 -0.30462795 0.80597669 -0.50754642 0.0044813245
0.028547479 -0.0044545429 -0.016769754 -0.1381312 0.86872792 -0.47563809 0.0015543501
0.031564921 -0.0044061602 -0.016826052 0.087842643 0.90309924 -0.42035139 0.0033087898
0.034483217 -0.0047666514 -0.016521901 0.23368403 0.9050532 -0.35534567 0.0027214356
0.037189573 -0.0056944368 -0.016402889 0.40518597 0.86007684 -0.30998731 0.0032859563
0.029169252 -0.0035051461 -0.015113819 -0.097140431 0.88479775 -0.45573753 0.0030646557
0.03077116 -0.0035052528 -0.015095836 0.12197369 0.90209752 -0.41393527 0.0022432616
0.018011415 -0.027819095 -0.013888981 -0.90544981 -0.41162002 -0.10358371 0.0016752318
0.018938676 -0.029517692 -0.013627098 -0.88276958 -0.45742562 -0.10714333 0.0006654365
0.017170632 -0.026073823 -0.013348736 -0.90174621 -0.40007347 -0.16369154 0.0026393584
0.01614726 -0.023001976 -0.013513848 -0.93929034 -0.24843548 -0.23667164 0.0021898497
0.014853806 -0.018948464 -0.012139168 -0.93206549 -0.17891072 -0.3150315 0.0022402452
0.015547222 -0.020132497 -0.013485271 -0.93054789 -0.15434946 -0.33204952 0.0030001595
0.014844057 -0.017094472 -0.012462244 -0.9135766 -0.033898745 -0.40525135 0.0027208424
0.015487467 -0.017039852 -0.013927639 -0.90381283 0.036094543 -0.42640293 0.0027025912
0.014848157 -0.014107026 -0.012326441 -0.86844426 0.11456096 -0.48236948 0.0028622665
0.015781201 -0.013894238 -0.013856512 -0.85476583 0.17221525 -0.48960939 0.0029925711
0.016448285 -0.011011301 -0.013512822 -0.7860834 0.30348259 -0.5384897 0.0018569224
0.043130945 -0.010367839 -0.014972355 0.69707924 0.69368398 -0.18133684 0.00093918556
0.01738587 -0.0084918486 -0.012976864 -0.65761316 0.46992338 -0.58882672 0.0016640372
0.019226503 -0.0074834395 -0.014070846 -0.60777944 0.54995883 -0.57284337 0.0035182447
0.04036827 -0.0069684964 -0.012630071 0.63000405 0.75326312 -0.18891673 0.0016646066
0.02000124 -0.005585012 -0.012916978 -0.50420052 0.6283797 -0.59238577 0.0023438786
0.022307847 -0.0047567757 -0.013773913 -0.41650525 0.71349514 -0.56342536 0.0028194175
0.024946397 -0.0040576197 -0.014554115 -0.2474526 0.81163776 -0.5291611 0.0023582929
0.035154477 -0.0040992387 -0.014187788 0.2701003 0.90402156 -0.33134711 0.0024239556
0.037521388 -0.0050263377 -0.013660582 0.47286054 0.84563571 -0.24759457 0.0034380304
0.039486945 -0.006053349 -0.012188073 0.56524181 0.79460651 -0.22159024 0.0025485144
0.023378056 -0.0032631834 -0.012551264 -0.34038362 0.75383818 -0.56202042 0.0019980299
0.025715977 -0.002924162 -0.013185845 -0.19795337 0.83420306 -0.51470357 0.0029202031
0.028470406 -0.0027096509 -0.01348837 -0.037898917 0.89204967 -0.45034549 0.0043250239
0.031587675 -0.0028653126 -0.013407731 0.17243861 0.90782791 -0.38224766 0.0017716078
0.034125973 -0.0033628391 -0.013070771 0.28182405 0.89610958 -0.34287426 0.0025312391
0.017889688 -0.02823112 -0.010984149 -0.86133468 -0.49490416 -0.11477085 0.00062646205
0.018607683 -0.02942821 -0.010340955 -0.86155969 -0.49622768 -0.10711233 0.00059760903
0.016520089 -0.025775982 -0.010525849 -0.89662606 -0.41132122 -0.16394052 0.0018962068
0.014833082 -0.0221505 -0.0097529609 -0.90938771 -0.31651223 -0.26987776 0.0023378129
0.01553057 -0.023279894 -0.010759372 -0.91550976 -0.32329807 -0.23941642 0.0026358159
0.01438078 -0.019866958 -0.010425948 -0.90904546 -0.23479463 -0.34424973 0.001930022
0.01386919 -0.016959885 -0.010449135 -0.90679163 -0.10584167 -0.40807652 0.0025560178
0.013782424 -0.014055824 -0.010487463 -0.87193435 0.049357336 -0.48712862 0.0034591462
0.014111041 -0.01105822 -0.010293856 -0.80729747 0.20368727 -0.55387932 0.0032568127
0.015326773 -0.010437324 -0.011740681 -0.77623457 0.26201275 -0.57341886 0.0026392543
0.014642506 -0.0083434749 -0.0096891942 -0.71869218 0.37099209 -0.58808696 0.0026825138
0.016095016 -0.007806696 -0.011005077 -0.6668731 0.44422325 -0.59828573 0.0031521367
0.016956164 -0.005451452 -0.010031638 -0.57434368 0.53520763 -0.61942071 0.0020844112
0.019063495 -0.004588393 -0.011070041 -0.4999862 0.62539184 -0.59908164 0.0030693724
0.037929073 -0.0045300969 -0.010630336 0.49121556 0.83533835 -0.24681382 0.0016105548
0.019908551 -0.0029226146 -0.0098813977 -0.41988894 0.68120939 -0.5997057 0.0014117811
0.022557063 -0.0021879314 -0.010595609 -0.32851994 0.75094783 -0.57284552 0.0016823808
0.025474608 -0.0013333652 -0.010555651 -0.11360193 0.85642648 -0.50361514 0.0026227219
0.028533621 -0.0012179262 -0.010614951 0.071877591 0.89861161 -0.43281719 0.0035293461
0.03146309 -0.0016225586 -0.010434462 0.21981162 0.90226132 -0.37095457 0.0029630966
0.034446664 -0.0026051286 -0.010484906 0.38061762 0.88191092 -0.27814248 0.0026540509
0.036359347 -0.0033778679 -0.010037498 0.46988729 0.85225034 -0.22994627 0.0010328422
0.017538348 -0.028191244 -0.0079493783 -0.8445161 -0.52066934 -0.12528333 0.00081618363
0.018213291 -0.029082414 -0.0085363947 -0.85574341 -0.50819123 -0.097184911 0.0002946014
0.015022472 -0.024545534 -0.0065490571 -0.87576342 -0.44029093 -0.19794504 0.0011006329
0.016061567 -0.026030907 -0.0073777619 -0.84388566 -0.51408553 -0.15353516 0.0013539043
0.014386631 -0.022722567 -0.0075552342 -0.87802374 -0.41468906 -0.23897143 0.00065848196
0.015428015 -0.024440361 -0.0085009597 -0.8664549 -0.45422775 -0.20720303 0.0014403069
0.013362014 -0.02006878 -0.0075691012 -0.89410341 -0.29544702 -0.33658603 0.0025816073
0.011762338 -0.016156582 -0.0063000489 -0.88741469 -0.22054352 -0.40479091 0.0022040231
0.012634376 -0.017090008 -0.0077186194 -0.8905409 -0.14988592 -0.42950097 0.0014527107
0.011569293 -0.013860989 -0.0065765558 -0.87586802 -0.074798524 -0.47671837 0.0021270143
0.012419626 -0.014003711 -0.0080616036 -0.86475885 -0.011514685 -0.50205523 0.0021019217
0.011541116 -0.01112335 -0.0065529817 -0.83643389 0.07010401 -0.54356587 0.0028884246
0.012602763 -0.01085897 -0.008069464 -0.81325245 0.13641913 -0.56569451 0.0025904363
0.011762269 -0.0086873705 -0.0063030589 -0.76542467 0.24705589 -0.59421253 0.003303125
0.013157408 -0.0078416364 -0.0076612104 -0.72093827 0.32094485 -0.61420059 0.003478443
0.014103373 -0.0052311155 -0.0070944359 -0.64553094 0.43562582 -0.62731165 0.0031181681
0.015871052 -0.0043722191 -0.0081308465 -0.59989738 0.4904784 -0.63210285 0.0019222967
0.015029927 -0.0030858349 -0.0063019958 -0.52666587 0.56755817 -0.6328513 0.0016012008
0.016934704 -0.002425293 -0.0071956869 -0.47022927 0.61837798 -0.629677 0.0025032971
0.01934021 -0.0015107184 -0.0078761205 -0.3555806 0.71989429 -0.59608269 0.00099263235
0.022188203 -0.00088691735 -0.0086514447 -0.2471066 0.7937054 -0.5558508 0.0018548329
0.031907491 -0.00088643422 -0.0081458734 0.29640177 0.90656161 -0.30048656 0.0034008112
0.034275062 -0.001637172 -0.0073769419 0.41176617 0.87759441 -0.24551307 0.0018452085
0.037099849 -0.0033128094 -0.0075682667 0.4799549 0.85442811 -0.19898751 0.0012339742
0.020105407 -9.8940451e-05 -0.0065929024 -0.31940442 0.74475366 -0.58593756 0.0019300864
0.02271433 0.00032819645 -0.0071081095 -0.17477684 0.81675857 -0.54987133 0.0024545568
0.025584675 0.00037545059 -0.0076486915 -0.024900792 0.87871045 -0.47670531 0.0031345119
0.028490292 0.00022757589 -0.0075555756 0.14769839 0.89954466 -0.41110158 0.0037317253
0.030936027 -0.00013081543 -0.0069483635 0.32245511 0.88995272 -0.32250088 0.003447891
0.017189408 -0.028164288 -0.0046110121 -0.81437367 -0.5710035 -0.10368535 0.00070257857
0.014837832 -0.0248683 -0.0048999754 -0.82359946 -0.54306078 -0.16361223 0.0021469963
0.01554972 -0.026056651 -0.004584786 -0.8137759 -0.56567591 -0.13334012 0.0013349474
0.013676149 -0.02294885 -0.0045465333 -0.86117154 -0.45106164 -0.23436496 0.0016142726
0.01166074 -0.019135458 -0.0038674837 -0.88369805 -0.35060406 -0.31008804 0.00195103
0.012543805 -0.020374598 -0.0048696217 -0.88543034 -0.36839122 -0.28337452 0.00058932352
0.011113495 -0.016853524 -0.0044741211 -0.88219029 -0.24873848 -0.39983669 0.0013394853
0.012237512 -0.018504543 -0.0059471694 -0.89799917 -0.29131624 -0.32974613 0.0039909994
0.010466988 -0.014086634 -0.0044596563 -0.88222814 -0.1365218 -0.4505944 0.0026772018
0.01020287 -0.011015262 -0.004443638 -0.85475504 0.00011104914 -0.51903158 0.00219765
0.010556482 -0.0079860622 -0.0045016068 -0.7557978 0.21395904 -0.61886293 0.002683921
0.011084146 -0.0051984941 -0.0039808596 -0.65562755 0.35032591 -0.66889775 0.0017206139
0.012798577 -0.0044674212 -0.0052938429 -0.65175915 0.39031222 -0.65028179 0.002198634
0.011674421 -0.0029422324 -0.0032576984 -0.57185024 0.4608916 -0.67865032 0.0018579718
0.013827191 -0.0020350739 -0.0043975865 -0.50252736 0.55563086 -0.66237497 0.0014460876
0.016186897 -0.0011794108 -0.0054132808 -0.41926754 0.64840919 -0.63543713 0.0015519294
0.034533292 -0.0011008587 -0.0045466167 0.45690829 0.86486447 -0.20795245 0.0018687062
0.036371175 -0.0023887213 -0.005014163 0.4692111 0.86178774 -0.19277671 0.0013046515
0.014648114 -0.00016112067 -0.0033745656 -0.47926641 0.59969723 -0.64083296 0.0014487564
0.016822113 0.00045229029 -0.0041072862 -0.38725272 0.67261761 -0.63057196 0.0010406531
0.019416675 0.0011760456 -0.0045815683 -0.27195826 0.76253295 -0.5870111 0.0021430177
0.022406662 0.0016694096 -0.0049503692 -0.11163151 0.83946425 -0.53182536 0.0025351094
0.025606614 0.0018253222 -0.0049533714 0.054314442 0.89461535 -0.44352356 0.0036700093
0.028583406 0.0014472948 -0.0046103601 0.23362564 0.90008295 -0.36779055 0.0035644735
0.031632993 0.00034369226 -0.0046945647 0.35235065 0.88837826 -0.29433504 0.0016413695
0.033412602 -0.00027969293 -0.0038464332 0.46879131 0.85586309 -0.2184791 0.002099067
0.020531161 0.0025427807 -0.0031768347 -0.21028686 0.79750925 -0.56547189 0.0019384169
0.022626441 0.0025390852 -0.0036045108 -0.05528219 0.85893792 -0.50908697 0.0028425339
0.025686421 0.0025400713 -0.0034906431 0.1236825 0.89601457 -0.42645097 0.0035517281
0.016555009 -0.027584879 -0.0025700594 -0.80993038 -0.57768178 -0.10147131 0.00066699018
0.014445343 -0.025012812 -0.0022445137 -0.80622262 -0.57856125 -0.12357985 0.0016367824
0.015907764 -0.026987923 -0.00070368906 -0.79864246 -0.59010106 -0.11811391 0.0012120429
0.011887934 -0.021548478 -0.00074994226 -0.84173495 -0.48750219 -0.23199977 0.0011232505
0.013054105 -0.023172604 -0.0013631399 -0.84882927 -0.48422468 -0.2121679 0.00076407642
0.011165056 -0.019867023 -0.0013826381 -0.85314196 -0.45354864 -0.25776422 0.0008795443
0.012317626 -0.021464242 -0.0025678242 -0.84972304 -0.47623107 -0.22621818 0.0011281936
0.0090586739 -0.016127205 -0.00028809567 -0.86342657 -0.36657622 -0.34657821 0.0013892578
0.01001432 -0.017127505 -0.0016034446 -0.87578326 -0.35242474 -0.32984924 0.0015166602
0.00866747 -0.013785357 -0.0010859834 -0.86181402 -0.23920952 -0.44727558 0.0030790693
0.0095723877 -0.014561372 -0.0024914606 -0.8750875 -0.1902537 -0.44500047 0.0015256015
0.0083880955 -0.010912267 -0.0015703382 -0.83298725 -0.085751504 -0.54660678 0.0042511993
0.0081289541 -0.0080242148 -0.0013179005 -0.79054147 0.042571861 -0.61092699 0.0040876139
0.0094875759 -0.0068647545 -0.0028623308 -0.7742359 0.18262035 -0.60597736 0.0066469484
0.0083466871 -0.00513857 -0.00098626805 -0.72857106 0.20571493 -0.65334946 0.0048537911
0.0098725939 -0.0045783329 -0.0023754661 -0.70749742 0.27527994 -0.65089822 0.0025166827
0.0087945051 -0.0024276734 -0.0003612935 -0.61894542 0.36467677 -0.6956417 0.0037474704
0.010596038 -0.0018328913 -0.0015529135 -0.59102201 0.43506682 -0.67927152 0.0037308927
0.012629328 -0.0010615892 -0.0026529743 -0.46765652 0.55557001 -0.68748766 0.0018407863
0.035889458 -0.0016898643 -0.0021759833 0.50975215 0.8465842 -0.15312707 0.00051707518
0.011215646 0.00026808865 -0.00058617425 -0.487221 0.52738017 -0.69605017 0.0027474808
0.013463837 0.00096537382 -0.0014821034 -0.41183901 0.60371691 -0.68257928 0.0038282506
0.016149553 0.0016668532 -0.0023564363 -0.34665608 0.69863027 -0.62589556 0.0035887663
0.029288432 0.0020796675 -0.0022402471 0.33407325 0.90140069 -0.2754485 0.0026970508
0.031457461 0.0011921246 -0.0018921428 0.41548342 0.8777101 -0.23874348 0.0011873889
0.033856172 -3.686361e-05 -0.00097016653 0.49926877 0.849738 -0.16933969 0.0014459462
0.014380966 0.0026854035 -0.00036134978 -0.36435571 0.6747067 -0.64188457 0.0020161686
0.016793652 0.003137819 -0.00094839983 -0.25500223 0.74558151 -0.61569643 0.0022847725
0.019659871 0.0035026767 -0.0014706656 -0.14703199 0.82131714 -0.55119842 0.003318294
0.022551538 0.0037088795 -0.0016028966 0.024377247 0.87993765 -0.4744634 0.0019865429
0.025505207 0.003475388 -0.0015176584 0.19012721 0.89680958 -0.39948002 0.0033133135
0.028137345 0.0028212552 -0.0013499623 0.35294354 0.8881526 -0.29430562 0.0028343352
0.015254957 -0.026385201 0.0011560951 -0.79012573 -0.6041773 -0.10330074 0.00058210111
0.011776749 -0.022120399 0.0013322864 -0.83618659 -0.50799185 -0.20672749 0.00035918571
0.012641908 -0.023296049 0.0011067126 -0.80731982 -0.56479084 -0.17101467 0.0021343357
0.01027635 -0.019849461 0.0015535329 -0.84080315 -0.48518622 -0.2400925 0.0013309437
0.0086581511 -0.016951038 0.0016907352 -0.85321122 -0.4102928 -0.32201016 0.0023383736
0.0095486501 -0.018057456 0.00068001787 -0.85683638 -0.43354994 -0.27904442 0.001146397
0.0074669253 -0.013985144 0.0015217167 -0.85068977 -0.31442091 -0.42126769 0.0030172002
0.0056751994 -0.010365487 0.0025969897 -0.79846311 -0.27498224 -0.53557569 0.0026944587
0.0067572007 -0.01101586 0.0011618234 -0.83577585 -0.20309016 -0.51013047 0.0040450245
0.0053866375 -0.0079785967 0.0022795433 -0.76854366 -0.11084793 -0.63012165 0.0038268906
0.0065216636 -0.0081901094 0.00084131147 -0.78777939 -0.023352422 -0.61551476 0.0030674762
0.0052910056 -0.0050264494 0.0022246689 -0.70234299 0.041526858 -0.71062636 0.0042654565
0.0067676017 -0.0048411763 0.00074089586 -0.7075991 0.11919235 -0.6964888 0.0039174971
0.0053957468 -0.0021711518 0.0025584989 -0.61226654 0.20065483 -0.76476616 0.0034534077
0.0073396889 -0.0017938958 0.0011359568 -0.62499559 0.25008613 -0.73948455 0.0024182734
0.0057729399 -0.00026523881 0.0028744971 -0.54496127 0.32558349 -0.77266586 0.0036084459
0.0078524062 0.00077738718 0.0019937258 -0.47528958 0.40352497 -0.78183591 0.0028477516
0.01041155 0.0013261802 0.00072553277 -0.4413057 0.5220775 -0.7298522 0.0038924306
0.012381299 0.0020974446 0.00011808018 -0.38665688 0.60389256 -0.69700092 0.00063237065
0.031636816 0.0017497484 0.0011597682 0.48905298 0.85102153 -0.191284 0.0017959818
0.033414926 0.00068777986 0.0027870571 0.50888211 0.84216928 -0.17829709 0.00093454955
0.0086304387 0.0027126949 0.0027073061 -0.4510408 0.48279735 -0.75064564 0.0013704578
0.010864645 0.0034558398 0.0021176278 -0.3801735 0.57631248 -0.72341686 0.0015915195
0.013561227 0.0040757256 0.0014572459 -0.26838568 0.70442837 -0.65707672 0.00089815725
0.016450183 0.004726673 0.0011220465 -0.17949304 0.76952147 -0.61287761 0.0020935712
0.019520558 0.0051101251 0.00095692615 -0.068385005 0.83458519 -0.54661787 0.0023850629
0.022615824 0.0051921671 0.0011664538 0.096761584 0.89078796 -0.44399783 0.005020679
0.025341779 0.0047548176 0.0014055767 0.26423413 0.89878643 -0.34980449 0.0040610824
0.028422737 0.003580736 0.0014104936 0.41425747 0.87643898 -0.24544974 0.0039616055
0.030485174 0.0025848318 0.0017018948 0.49754766 0.84527177 -0.19483836 0.0016538854
0.014833302 0.0059335548 0.0029841696 -0.1420093 0.75704056 -0.6377483 0.0018571522
0.01648967 0.005927599 0.002615192 -0.1125596 0.79155886 -0.60063702 0.002707961
0.019580485 0.0060681487 0.0024608469 0.00095707743 0.84793454 -0.53009999 0.0025753146
0.022442859 0.0059266617 0.0025573527 0.17914662 0.88833123 -0.42281684 0.0038262596
0.0112655 -0.021978615 0.00338741 -0.83021182 -0.51584601 -0.21130845 0.00035254276
0.0086706318 -0.018955467 0.0053623351 -0.81506091 -0.53626227 -0.21931377 0.0010757261
0.0097498652 -0.02014849 0.0044202581 -0.8262549 -0.51306057 -0.23253319 0.00047065585
0.0076058395 -0.016947653 0.0046213423 -0.81162059 -0.51062161 -0.28379139 0.0011642893
0.0055244686 -0.013404949 0.0049415096 -0.81105751 -0.39762288 -0.42904741 0.0029627751
0.0065252455 -0.014439413 0.0039415327 -0.83889627 -0.36753467 -0.4014613 0.0024283011
0.0046189092 -0.011000015 0.0045903861 -0.7971738 -0.30580813 -0.52057207 0.0012374395
0.0027385543 -0.007752656 0.0055230404 -0.75837153 -0.24833117 -0.60266429 0.0027970218
0.0040074792 -0.0082528237 0.0041188886 -0.77145064 -0.16164559 -0.61541414 0.0020655729
0.0023548238 -0.0049485317 0.005246636 -0.70470703 -0.10548933 -0.70161241 0.0042732409
0.0038691766 -0.0050389776 0.0036543331 -0.72444159 -0.031051371 -0.68863654 0.0028715618
0.002198518 -0.0019374359 0.0052860733 -0.62762922 0.059924405 -0.77620262 0.0041482388
0.0040649539 -0.0017830543 0.0037729992 -0.64751506 0.11855002 -0.75277489 0.0024399427
0.0024387778 0.00075641461 0.0055706641 -0.54816878 0.24241091 -0.80046731 0.0037500139
0.0045542624 0.00096782099 0.0042467634 -0.55347365 0.27179909 -0.7872687 0.00205476
0.0065721553 0.0018036682 0.0033363735 -0.43916979 0.40803018 -0.80040067 0.0035692465
0.0029192239 0.0026206989 0.005864236 -0.45692763 0.35836852 -0.81411868 0.0020667636
0.004770956 0.0036390563 0.0053183041 -0.42214337 0.41271451 -0.80713177 0.0030155911
0.0073627587 0.0038963105 0.0041727647 -0.41257069 0.47079027 -0.77983457 0.0015373462
0.0099270837 0.0045830798 0.0034743398 -0.32148236 0.60206538 -0.73086685 0.0036314833
0.026786787 0.004988255 0.0035766398 0.36344811 0.89593685 -0.25534794 0.0026959723
0.028645089 0.0041193063 0.0040563475 0.45075718 0.86691505 -0.21278201 0.0016946291
0.031171395 0.0026124883 0.0049086842 0.50699967 0.84500813 -0.17003727 0.00082761067
0.0057988968 0.0055005122 0.0058854851 -0.38272223 0.48834342 -0.78424764 0.0015199562
