# .PCD v0.7 - Point Cloud Data file format
VERSION 0.7
FIELDS x y z normal_x normal_y normal_z curvature
SIZE 4 4 4 4 4 4 4
TYPE F F F F F F F
COUNT 1 1 1 1 1 1 1
WIDTH 555
HEIGHT 1
VIEWPOINT 0 0 0 1 0 0 0
POINTS 555
DATA ascii
-0.0048959004 -0.029095061 -0.032421537 -0.15513745 0.62310594 -0.76659727 0.0019733889
-0.0019185743 -0.028950505 -0.032498326 0.028700337 0.51484644 -0.85680181 0.0059300615
0.0011011538 -0.029031385 -0.032135986 0.18238896 0.44963256 -0.87439394 0.0015755992
0.0036717178 -0.029667597 -0.031646661 0.33253655 0.34936175 -0.87599427 0.00062513427
-0.0017062901 -0.027270403 -0.031388022 -0.032693919 0.59348351 -0.80418181 0.0045555909
5.0333445e-05 -0.02727237 -0.031357013 0.1137876 0.55096322 -0.82673579 0.0062122107
-0.01472195 -0.056471355 -0.029778667 0.094006874 -0.91366637 -0.39544472 0.0010696626
-0.010734694 -0.055942234 -0.030439032 0.17142457 -0.91508293 -0.36501628 0.0023194267
-0.0078746127 -0.055359017 -0.030411853 0.25498509 -0.88764602 -0.38349339 0.0025808548
-0.0053914692 -0.054801185 -0.02962661 0.37416837 -0.850088 -0.37060544 0.0014870897
-0.047196679 -0.053221609 -0.031064726 -0.97210693 0.054417789 -0.22813787 0.080318086
-0.004306226 -0.053979289 -0.030642886 0.39013618 -0.8385061 -0.38039619 0.0017831252
-0.0018742718 -0.052914593 -0.030249642 0.42623657 -0.79665565 -0.4285582 0.0044134501
0.00032349391 -0.051931687 -0.02950177 0.52790195 -0.7173515 -0.45467177 0.0028071082
0.0016493768 -0.050512835 -0.030201534 0.55746406 -0.68386549 -0.47070348 0.0026124015
0.0035444181 -0.049177676 -0.029676015 0.63018388 -0.59410506 -0.49990749 0.0022777321
0.0047924262 -0.047150537 -0.030337317 0.6627472 -0.46079955 -0.59027946 0.0036046652
0.0064477902 -0.046147101 -0.029292623 0.68343365 -0.49472269 -0.53681278 0.0046921689
-0.028728912 -0.044858273 -0.031184651 -0.47920462 0.79763311 -0.36625719 0.0081026163
-0.026580676 -0.043175422 -0.030453203 -0.58622074 0.76661342 -0.26200953 0.0029045776
0.0055436036 -0.045090612 -0.031067155 0.65570027 -0.43385547 -0.61792117 0.0027454221
0.0071917125 -0.043874264 -0.030018581 0.69803196 -0.32589382 -0.63760847 0.0021183088
0.0088128764 -0.042984158 -0.028727932 0.71634573 -0.37854323 -0.58613461 0.0021842155
-0.025072539 -0.041685473 -0.029941238 -0.66159707 0.70985311 -0.24165681 0.0012036737
-0.023283754 -0.039990436 -0.030393198 -0.66558433 0.69553608 -0.27060506 0.001964469
0.0076816832 -0.041104659 -0.030703671 0.64768785 -0.19082409 -0.73762232 0.0018945112
0.0093286196 -0.040673062 -0.029211443 0.70383239 -0.25054958 -0.66471422 0.0025257319
-0.022154262 -0.03871201 -0.02992079 -0.66110528 0.69934314 -0.27177033 0.0020589624
-0.020612771 -0.037287328 -0.030253252 -0.67538631 0.69100654 -0.25761086 0.0019942741
0.0079611177 -0.03783977 -0.031057836 0.60798633 -0.060069185 -0.79167193 0.0019982436
0.0096482728 -0.037866965 -0.029584534 0.67218274 -0.12037953 -0.73053348 0.0033680294
-0.019181008 -0.035701796 -0.0297605 -0.6530537 0.6925475 -0.3064293 0.0031006448
-0.017252145 -0.034222499 -0.030183928 -0.58628976 0.71561164 -0.37968978 0.0040867361
0.0079178791 -0.034678329 -0.031017452 0.55360949 0.07656756 -0.82924902 0.0020208762
0.009918334 -0.034840256 -0.02954006 0.64139104 0.00042264364 -0.76721406 0.0011913794
-0.016114194 -0.032798592 -0.029289482 -0.58725196 0.70764285 -0.39290807 0.0016434472
-0.013913262 -0.031484868 -0.03002823 -0.54545665 0.69380504 -0.47022498 0.0038128728
-0.011690044 -0.030555025 -0.03089905 -0.42386505 0.7179026 -0.5522266 0.001370834
0.0073205628 -0.031522799 -0.030746263 0.42816526 0.25995544 -0.86550432 0.0015040307
0.0098294225 -0.031867951 -0.029288808 0.54013556 0.18326761 -0.82138085 0.0016886131
-0.012878154 -0.029970326 -0.028882638 -0.52220756 0.7137602 -0.46673936 0.0013726264
-0.010657596 -0.028985858 -0.029675066 -0.45850542 0.71842891 -0.52309912 0.0029713588
-0.0082236929 -0.028193831 -0.030410765 -0.32116675 0.69767487 -0.64039195 0.0017122335
-0.0057948106 -0.027814981 -0.031116225 -0.1874793 0.64912653 -0.7372151 0.0023503853
0.0022467198 -0.027718958 -0.031242587 0.17162193 0.48699775 -0.85637563 0.0023167636
0.00463785 -0.028565586 -0.030838156 0.33464152 0.35129368 -0.87441856 0.00063954096
0.0071012564 -0.0286889 -0.029864363 0.37225315 0.34511447 -0.86158198 0.0003346726
0.0093261544 -0.028994776 -0.028853521 0.48702905 0.28408882 -0.8258912 0.0013655478
-0.0074756024 -0.026707519 -0.029120509 -0.4071185 0.70819461 -0.57681453 0.0019004403
-0.0049057542 -0.026149053 -0.029736001 -0.25178659 0.69563317 -0.67282832 0.002755054
-0.0019643595 -0.025838722 -0.030205932 -0.13360398 0.65050268 -0.74766046 0.0026626266
0.0011962726 -0.025958065 -0.030353019 0.051060136 0.5725354 -0.81828845 0.0024489262
0.0042368802 -0.025986191 -0.029775813 0.24360164 0.46633559 -0.8504054 0.0029232781
0.0068301973 -0.026072379 -0.028860243 0.35225448 0.39663157 -0.84770292 0.0011514231
0.0086713871 -0.027016561 -0.028423227 0.41071081 0.36114365 -0.83719283 0.0010479034
-0.0016275758 -0.024062924 -0.028694291 -0.1707684 0.67051613 -0.72197378 0.0028764179
0.0011509336 -0.023895673 -0.028863398 -0.0063302564 0.61632675 -0.78746516 0.0035969275
0.0039141728 -0.023960326 -0.028693853 0.17582986 0.53246421 -0.82798898 0.0034937963
-0.0046033612 -0.054927658 -0.028092511 0.37417388 -0.85008395 -0.37060928 0.0014842097
-0.0032798452 -0.054546293 -0.027618147 0.4361763 -0.8321867 -0.34236756 0.0011566865
-0.0015048638 -0.05361592 -0.027962653 0.456 -0.81879717 -0.34876227 0.0016201723
0.0013427718 -0.052223373 -0.026949869 0.53592807 -0.79137081 -0.29413125 0.0014745332
0.0042217835 -0.050020076 -0.027168231 0.6103242 -0.71670216 -0.33740532 0.0032350998
0.0059557497 -0.048846409 -0.026311893 0.67180592 -0.6537075 -0.3483437 0.0018581628
0.0055793882 -0.048292127 -0.028048255 0.65760261 -0.63559496 -0.40444762 0.0030379624
0.0073680752 -0.046924859 -0.026990706 0.71302712 -0.60003603 -0.36269698 0.0019145471
0.0089395242 -0.045626234 -0.026070572 0.72360206 -0.55477917 -0.41063395 0.0023529045
0.0082375789 -0.044981297 -0.02795703 0.71411502 -0.50258511 -0.4872863 0.0023634303
0.0096523706 -0.043768853 -0.026931148 0.75720745 -0.44109231 -0.48174095 0.0033221059
-0.023193419 -0.039427292 -0.028153874 -0.68477106 0.69367397 -0.22339441 0.00077398028
0.010833554 -0.041069973 -0.027191529 0.76801813 -0.32485604 -0.55192101 0.0044149742
0.011999832 -0.040349487 -0.026009046 0.77555162 -0.36553016 -0.51469159 0.0020908429
-0.02148241 -0.037310552 -0.027048625 -0.7105301 0.68272865 -0.17037761 0.00032144308
-0.020792373 -0.03660496 -0.027514704 -0.69362438 0.6883499 -0.21227261 0.001282212
0.01122675 -0.03811666 -0.027962331 0.73905742 -0.17064197 -0.65167123 0.0022798937
0.012517668 -0.037640721 -0.0265416 0.76615912 -0.23697357 -0.59736401 0.0020974607
-0.019202136 -0.03484159 -0.026987862 -0.6832279 0.69833565 -0.21337046 0.0011826912
-0.018073261 -0.033748552 -0.027185904 -0.68109411 0.70027894 -0.21382269 0.0010489072
0.011330159 -0.036100019 -0.028242357 0.66955972 -0.027601015 -0.74224526 0.0017585413
0.012912996 -0.034759454 -0.026730992 0.73087692 -0.084639743 -0.67724073 0.0027922138
-0.016524496 -0.032194484 -0.026935359 -0.64807904 0.70994502 -0.27562973 0.0015398598
-0.014959384 -0.030922718 -0.027409641 -0.63915974 0.71333969 -0.28743917 0.0017849887
0.011332313 -0.031459238 -0.028159078 0.62714976 0.091246963 -0.77353561 0.0023732367
0.012876855 -0.03193162 -0.026862014 0.67424631 0.034562707 -0.73769736 0.0032342703
-0.013450505 -0.029338684 -0.026788414 -0.59366155 0.72981101 -0.33903059 0.0016638407
-0.011394044 -0.027940791 -0.027316587 -0.55243164 0.73097432 -0.40061939 0.0048197145
0.010763053 -0.028555099 -0.027838657 0.52925652 0.23308395 -0.81581819 0.0020370593
0.012907109 -0.028952129 -0.026417281 0.62028849 0.16162868 -0.76754051 0.0014544528
-0.010207643 -0.026580863 -0.026496146 -0.55373389 0.72218966 -0.41451281 0.0030406637
-0.0080139479 -0.025428183 -0.027055701 -0.43561414 0.71936345 -0.54106987 0.0017290765
-0.0055335481 -0.024637781 -0.027819926 -0.30118072 0.71407616 -0.63196951 0.0020376884
0.0076463665 -0.024975792 -0.028010746 0.32188085 0.42837808 -0.84432513 0.0014115683
0.010056007 -0.025736686 -0.027146043 0.42774421 0.36688751 -0.8260923 0.00060752948
0.012467399 -0.026137032 -0.025873419 0.53862411 0.2975392 -0.7882604 0.0015212088
-0.0070402725 -0.02380652 -0.025625117 -0.48872384 0.74250096 -0.45808434 0.0020658821
-0.0048076068 -0.023240767 -0.026549712 -0.36406845 0.72073525 -0.58991092 0.0038303868
-0.0020301053 -0.02249166 -0.027008699 -0.23663664 0.69506925 -0.6788829 0.0031468836
0.0010781663 -0.022341978 -0.02755129 -0.066210546 0.6515705 -0.75569308 0.0019823541
0.0042540971 -0.022599664 -0.0276937 0.12130222 0.56063229 -0.81913197 0.0047872248
0.0070415144 -0.022633385 -0.027052298 0.24389094 0.49406576 -0.83451563 0.0018323102
0.0097522652 -0.022944309 -0.026039703 0.39175394 0.4198215 -0.8187055 0.0016270604
0.011848534 -0.024084728 -0.025427528 0.47975445 0.36678118 -0.79706168 0.00056636182
-0.0011468434 -0.020809595 -0.025587035 -0.29259443 0.68877655 -0.6633063 0.0030847462
0.0013419618 -0.02064392 -0.026067702 -0.12780824 0.66522145 -0.73562592 0.0029405258
0.0040453076 -0.020486914 -0.026128052 0.029202543 0.61845577 -0.78527683 0.0029130885
0.0066786474 -0.020502102 -0.025809534 0.20326975 0.54604149 -0.81272388 0.0030920564
0.0089520542 -0.020965036 -0.025441281 0.36007944 0.45241675 -0.81588095 0.0017010313
0.0029445104 -0.051880475 -0.024031796 0.57869458 -0.76060683 -0.29426143 0.00096210558
0.004726904 -0.050466757 -0.024643399 0.61841291 -0.72897726 -0.29352623 0.0014442401
0.0067483694 -0.049004588 -0.02377034 0.65876156 -0.70426446 -0.26466 0.0020319356
0.0078633931 -0.047863018 -0.023975678 0.70047021 -0.63836741 -0.3191058 0.0019129989
0.00932856 -0.046178773 -0.024191698 0.73094094 -0.5960024 -0.33242515 0.0014308098
0.01082361 -0.044133548 -0.02427534 0.79027271 -0.47650805 -0.38523886 0.0016445847
0.012012166 -0.042879511 -0.023511142 0.78622657 -0.48070696 -0.38828942 0.0015281556
0.013077407 -0.040698946 -0.023842482 0.80554932 -0.41242525 -0.4254359 0.0029406799
0.013960555 -0.037927244 -0.024418021 0.82086182 -0.28177339 -0.49677926 0.0037142343
0.014927066 -0.037737906 -0.022888893 0.81844378 -0.34208754 -0.46165559 0.0021449358
-0.019800235 -0.035245281 -0.025169529 -0.68956125 0.69544572 -0.20214 0.00088332396
0.014441647 -0.035072085 -0.024866549 0.79122061 -0.14785659 -0.59338719 0.0024266145
0.015526517 -0.034724943 -0.023455538 0.81029487 -0.20604321 -0.54860592 0.0025157684
-0.01672064 -0.031750064 -0.024202343 -0.69973695 0.69464093 -0.16685927 0.00094880897
-0.015358523 -0.03037129 -0.024735428 -0.68147719 0.69707316 -0.22288518 0.0034852263
0.014528486 -0.031896703 -0.025233306 0.72328967 -0.019183233 -0.69027823 0.0020508764
0.015839713 -0.031703185 -0.02368645 0.77166778 -0.055409346 -0.63360769 0.0012215741
-0.015442817 -0.030074846 -0.022562481 -0.70982742 0.68127435 -0.1789142 0.0010431212
-0.013924426 -0.028756902 -0.023987794 -0.70982438 0.68127668 -0.1789171 0.0010425358
0.014478098 -0.028842326 -0.025073439 0.67644727 0.12258228 -0.72621804 0.0022258433
0.015955936 -0.028834105 -0.023592962 0.73191458 0.057869688 -0.67893457 0.0036742478
-0.012729486 -0.027341586 -0.023222752 -0.66304135 0.71077228 -0.23490202 0.0016130578
-0.010867922 -0.025880061 -0.023940835 -0.64857775 0.70696151 -0.28205025 0.0008654063
-0.0089583527 -0.02471067 -0.024860876 -0.52118582 0.75399178 -0.39982724 0.0040969327
0.013886586 -0.025625151 -0.024684031 0.60208726 0.24631391 -0.75948697 0.0014843527
0.015788712 -0.026038613 -0.023281755 0.66332835 0.18155552 -0.72597039 0.0015062686
-0.0096080033 -0.024237346 -0.022650309 -0.63291222 0.70915818 -0.31067151 0.0022153645
-0.0076170363 -0.023108006 -0.023720341 -0.55278903 0.73050773 -0.40097725 0.0033289737
-0.0051567173 -0.021873513 -0.02448432 -0.40572158 0.73616588 -0.54171008 0.0024026548
-0.003302326 -0.021417465 -0.025300123 -0.34379563 0.7080602 -0.61681062 0.0013096152
0.01100622 -0.022065625 -0.024961218 0.4290835 0.38447326 -0.81735408 0.00058248168
0.01306775 -0.02281807 -0.024058128 0.51297987 0.35728699 -0.78051108 0.0015135827
0.015107556 -0.023156703 -0.022817526 0.57557416 0.31470582 -0.75476789 0.0008152615
-0.0045383256 -0.020651815 -0.023269791 -0.46172059 0.73218596 -0.50071728 0.0037041251
-0.001974463 -0.019660074 -0.023895221 -0.31614399 0.70499331 -0.63485235 0.0021517971
0.00094087759 -0.019097786 -0.024499161 -0.17401178 0.68533367 -0.70713347 0.0016915638
0.0040553478 -0.018984023 -0.024874866 -0.023430821 0.64800578 -0.76127487 0.0018373451
0.0071689081 -0.019251706 -0.024822522 0.13997051 0.59084117 -0.79455328 0.0019449224
0.010144042 -0.019628663 -0.02412094 0.30540991 0.49951118 -0.81068695 0.0025463225
0.012734528 -0.020046506 -0.022963842 0.46962708 0.40043867 -0.78682864 0.0016550217
-0.00086129963 -0.017961022 -0.022559352 -0.38323998 0.71917814 -0.57957739 0.0027820936
0.0014554464 -0.01756488 -0.02311575 -0.23444301 0.68905407 -0.68574119 0.0028540893
0.0041198726 -0.017319962 -0.023416182 -0.070359133 0.67195195 -0.73724496 0.0025967609
0.0069791391 -0.017257692 -0.02332316 0.1036218 0.621539 -0.77649969 0.0028118333
0.0099014146 -0.017420512 -0.022818681 0.26860073 0.53198981 -0.80301964 0.0031448537
0.011930953 -0.017968621 -0.02236817 0.3820132 0.49164715 -0.78252739 0.0018373685
0.011266937 -0.044714134 -0.022006236 0.7764222 -0.56205732 -0.28506163 0.0011641063
0.012596407 -0.043236285 -0.02106634 0.80862182 -0.52233797 -0.27072832 0.00058918545
0.013852802 -0.041331097 -0.021211965 0.82849699 -0.47973996 -0.28886372 0.0014007661
0.014792016 -0.040003903 -0.020720534 0.823919 -0.48361605 -0.29541984 0.0013171367
0.015867284 -0.03777023 -0.020872287 0.84068775 -0.39188075 -0.37372932 0.0029374782
0.016893642 -0.035023075 -0.021012189 0.85884386 -0.3053146 -0.41130301 0.001832673
0.017868683 -0.033873416 -0.019868173 0.86142439 -0.30661419 -0.40488976 0.0020542701
-0.015928645 -0.030588772 -0.021630503 -0.7082482 0.68575376 -0.16770871 0.00099925941
0.017207762 -0.032199718 -0.02173936 0.81112534 -0.12508611 -0.57133979 0.0016160568
0.018172303 -0.03167887 -0.020330723 0.84552097 -0.1816981 -0.50207591 0.0024113194
-0.013478146 -0.027707916 -0.020967029 -0.71148914 0.6890294 -0.13791938 0.00069343683
0.017331483 -0.028764781 -0.022015914 0.7711035 -0.0048978804 -0.63669097 0.0019049526
0.018437233 -0.02875369 -0.020536382 0.82056105 -0.06238544 -0.56814402 0.0026424662
-0.012788347 -0.027005445 -0.021402009 -0.70182288 0.69513094 -0.15568407 0.00058553455
-0.011283793 -0.025346007 -0.020903848 -0.70029068 0.69436681 -0.1656737 0.00061907904
0.017156253 -0.02567124 -0.021905098 0.69566917 0.14314334 -0.70395625 0.0026996364
0.018551882 -0.025767472 -0.020337291 0.76691377 0.073986307 -0.63747096 0.0037096234
-0.0098780077 -0.02388569 -0.020845279 -0.68253523 0.69541723 -0.22481215 0.0022332263
-0.0081559932 -0.022378985 -0.021177184 -0.66395473 0.70512187 -0.248932 0.0012572117
0.016558278 -0.022741277 -0.021492066 0.62989956 0.2632426 -0.73070514 0.0018095841
0.018230841 -0.022996172 -0.020107497 0.68578774 0.21626139 -0.69492888 0.0032984053
-0.0068051917 -0.020896548 -0.020540584 -0.63581204 0.70157045 -0.32177922 0.0021059562
-0.004921007 -0.019518118 -0.020969627 -0.57699394 0.69368064 -0.431144 0.0038589335
-0.002976499 -0.018618863 -0.021838488 -0.45349646 0.7262854 -0.51657575 0.00067770306
0.013742168 -0.019094508 -0.02187084 0.46414366 0.39471161 -0.79295236 0.0015221817
0.015956158 -0.019917114 -0.020663105 0.56725752 0.34356904 -0.74845123 0.00037889395
0.017996574 -0.020907462 -0.019505173 0.66876912 0.28065228 -0.68846357 0.001753886
-0.0039595575 -0.017926216 -0.019652732 -0.57493883 0.68519759 -0.4471572 0.0041977083
-0.0017334843 -0.017001186 -0.020720065 -0.43296918 0.71507215 -0.54882562 0.0022315749
0.0008925182 -0.016204346 -0.021476703 -0.26324105 0.69904196 -0.66486424 0.0018161185
0.0038537178 -0.015848171 -0.022030391 -0.11310707 0.68062395 -0.72384936 0.0019060564
0.0069977446 -0.015734104 -0.0220828 0.05522586 0.63922453 -0.76703459 0.0018422212
0.010395109 -0.016214522 -0.021830622 0.21089461 0.57645613 -0.78944403 0.0019863115
0.013173446 -0.016780548 -0.021005124 0.37506431 0.4819175 -0.79188532 0.0018492449
0.015183143 -0.017113028 -0.019908655 0.5046587 0.41152248 -0.75892615 0.00091223692
0.0015085806 -0.014732116 -0.020198051 -0.34118083 0.6932711 -0.6347999 0.002644324
0.0041529317 -0.014195438 -0.020542387 -0.16616915 0.67989689 -0.71423239 0.0029155468
0.0070197284 -0.013979916 -0.020619949 0.022368971 0.64986438 -0.75972092 0.0020816878
0.010088399 -0.014131086 -0.020379983 0.20371349 0.57361048 -0.7933926 0.0019266172
0.0127498 -0.014679642 -0.019917537 0.36528665 0.51029849 -0.77856356 0.0014639229
0.012919925 -0.043419804 -0.019232728 0.80861694 -0.5223549 -0.2707102 0.00058544398
0.014288811 -0.04164676 -0.018857576 0.82255286 -0.49940336 -0.27203521 0.00067287579
0.015222103 -0.040515862 -0.018042374 0.83358437 -0.50056946 -0.2335965 0.00051040639
0.016808122 -0.037866365 -0.018083941 0.858863 -0.41989025 -0.29333681 0.0016108233
0.018005162 -0.036407601 -0.0165352 0.87556106 -0.39261541 -0.28150663 0.0014492082
0.017463574 -0.036227699 -0.018702932 0.88294184 -0.34938332 -0.31360009 0.0029823526
0.018403297 -0.034603644 -0.017900646 0.87690264 -0.33589104 -0.34382981 0.0014087217
0.019448295 -0.031736687 -0.017814906 0.88381976 -0.25160593 -0.39440727 0.0030644371
0.019838383 -0.029010925 -0.018270306 0.87409568 -0.12957196 -0.46815366 0.0037084713
0.020722922 -0.028424684 -0.016813524 0.87842554 -0.19033355 -0.43833983 0.0023728858
-0.011969098 -0.025811132 -0.018731333 -0.70643723 0.68706518 -0.16996476 0.00062903675
0.019964529 -0.025825746 -0.018479511 0.82366586 0.012316797 -0.56694174 0.002128673
0.020924918 -0.025807962 -0.016983651 0.8508746 -0.045755759 -0.52337253 0.0024553034
-0.0099488785 -0.023356404 -0.018052317 -0.71422994 0.6796056 -0.16736725 0.0009914838
-0.0087277777 -0.021957794 -0.01788779 -0.72389239 0.66490591 -0.18406501 0.00088962849
0.019646356 -0.022788566 -0.018509416 0.7688368 0.13711171 -0.62457216 0.0021750815
0.020928781 -0.022838965 -0.016902188 0.80178106 0.08356709 -0.59174639 0.003202558
-0.0071395268 -0.020187486 -0.017900404 -0.7129373 0.66334379 -0.22736649 0.0022556123
-0.0057891719 -0.018889472 -0.018216092 -0.69758695 0.65841144 -0.28260711 0.0017234971
0.017299473 -0.018704718 -0.019037295 0.60157436 0.33350775 -0.72586554 0.00070864131
0.0191902 -0.019851664 -0.017942224 0.68998271 0.27568763 -0.66926837 0.0011027354
0.020735215 -0.020248357 -0.016554251 0.72949606 0.23268875 -0.64318842 0.0026449915
-0.0044797305 -0.017250173 -0.017594591 -0.65163779 0.67852116 -0.33908278 0.0031730565
-0.0026627593 -0.015977956 -0.018281847 -0.59673584 0.68313676 -0.42098758 0.0020475981
0.016624538 -0.016529351 -0.018503327 0.57544392 0.35878709 -0.73493958 0.00067842432
0.01865552 -0.017105747 -0.017092638 0.62560171 0.33933312 -0.70247817 0.00047827666
-0.001461488 -0.014404094 -0.017471008 -0.54545808 0.68182057 -0.48743835 0.002752803
0.00091760373 -0.01337105 -0.018299114 -0.39807534 0.68228239 -0.61321026 0.0023219706
0.0037251581 -0.012746574 -0.019062854 -0.20908876 0.68514031 -0.69775683 0.0022682415
0.011022658 -0.012759379 -0.019146141 0.14772247 0.60183644 -0.78483826 0.001702297
0.013387039 -0.013358457 -0.018749315 0.32727113 0.5221867 -0.7875371 0.0028746398
0.016053064 -0.013920357 -0.017611781 0.50786024 0.39991471 -0.76298505 0.0013625443
0.018003684 -0.014786306 -0.016571321 0.59593874 0.36338031 -0.7161088 0.0012877871
0.0017032147 -0.011788394 -0.017013127 -0.43578389 0.68272132 -0.58650148 0.0018984306
0.0041981274 -0.011139307 -0.017616712 -0.27873409 0.69453001 -0.6632762 0.002555795
0.0070596677 -0.010884721 -0.017960954 -0.060170915 0.64782619 -0.75940812 0.003289944
0.010046763 -0.010917857 -0.017900281 0.12834701 0.60933161 -0.78245902 0.0019009151
0.012889264 -0.011040445 -0.017322309 0.28407034 0.54591209 -0.78821582 0.0028422032
0.015477524 -0.011823841 -0.016736321 0.4423306 0.46028939 -0.76972538 0.0017366615
0.0075372797 -0.009099016 -0.016480507 -0.1177354 0.65013438 -0.75064206 0.0026974918
0.010041673 -0.0090994136 -0.016459312 0.085116416 0.61427593 -0.78448725 0.0021577715
0.017357482 -0.037851397 -0.015634693 0.86653268 -0.42593074 -0.26019996 0.0012801484
0.019079758 -0.034793876 -0.015364908 0.88441181 -0.39388946 -0.25033358 0.00086964981
0.020156352 -0.032403234 -0.015283795 0.90402097 -0.32264665 -0.28043774 0.0012420574
0.020950532 -0.030978795 -0.014431015 0.90179163 -0.32548779 -0.28430542 0.0012454849
0.021485653 -0.028715804 -0.014876487 0.90609252 -0.23924115 -0.34894124 0.0021306742
0.022041628 -0.025775876 -0.014914185 0.89833015 -0.12404438 -0.42144501 0.0036032293
-0.0093248151 -0.022340324 -0.015674211 -0.74004334 0.65168005 -0.16627994 0.00067769946
0.022136753 -0.022766653 -0.015034877 0.8482731 0.032460462 -0.5285632 0.0013857656
-0.0074483776 -0.019697942 -0.014991913 -0.75303763 0.62612987 -0.20222652 0.0013979723
0.021865433 -0.019791916 -0.014973873 0.7880702 0.18049495 -0.58852953 0.0039574639
-0.0066147125 -0.018296625 -0.014141805 -0.77509117 0.59176624 -0.2214641 0.0015253316
-0.0051768213 -0.01670533 -0.014944185 -0.73367292 0.61860198 -0.28116852 0.0021951955
0.019865301 -0.016437823 -0.015667439 0.65234113 0.31568313 -0.68905389 0.00069688883
0.021561094 -0.017079953 -0.014314965 0.71218729 0.28355944 -0.64217079 0.0016799899
-0.0038691023 -0.01463694 -0.014053449 -0.71396148 0.61211985 -0.33995336 0.0021743714
-0.0022716492 -0.013519239 -0.015018808 -0.65883398 0.63996792 -0.39544767 0.0013079554
0.017414004 -0.012901813 -0.016138483 0.57616049 0.37908062 -0.7241112 0.0010365148
0.01929912 -0.013826193 -0.014932123 0.63967121 0.32857394 -0.69488126 0.00010540421
0.021055076 -0.014740829 -0.013675703 0.69007415 0.30194336 -0.65774453 0.00098359399
-0.0010194398 -0.011831652 -0.014356999 -0.59755355 0.65238571 -0.46617872 0.0016297031
0.00099789363 -0.010602789 -0.01498091 -0.50573838 0.65916222 -0.55653739 0.0036832725
0.0037041772 -0.0096952757 -0.01592128 -0.29105163 0.67899323 -0.67398602 0.0028388249
0.013846993 -0.0097137541 -0.016084287 0.23889799 0.57621342 -0.78160471 0.0017414498
0.016252317 -0.010591151 -0.015525614 0.39302388 0.50075054 -0.77122051 0.0016707575
0.018525751 -0.011086943 -0.014289264 0.54030335 0.40930146 -0.73521739 0.0016461997
0.0020829402 -0.0088848993 -0.013874253 -0.51886165 0.66444039 -0.53786755 0.0019299454
0.0042600958 -0.0081877587 -0.014582044 -0.34277329 0.69920659 -0.62738872 0.0035526238
0.0070519242 -0.0075981128 -0.01502667 -0.17188019 0.65900767 -0.73223358 0.0031987047
0.010069573 -0.0075233029 -0.015194505 0.024552291 0.6360721 -0.77123892 0.0012713368
0.013046903 -0.0077559426 -0.014886206 0.20147279 0.59409136 -0.77875811 0.0012893926
0.015845137 -0.0081493026 -0.014146429 0.3658745 0.5214895 -0.77083367 0.0029704231
0.017819263 -0.0089987116 -0.013614483 0.53272635 0.42370859 -0.73258013 0.0014372922
0.0077808774 -0.0058129039 -0.013563721 -0.20880501 0.65765196 -0.72380549 0.0030471312
0.010102302 -0.0057131411 -0.013709478 -0.001394696 0.63179064 -0.77513784 0.0027368399
0.012430108 -0.0058128973 -0.013564359 0.19160311 0.58294475 -0.78959715 0.0018121115
0.019985465 -0.03394654 -0.01300738 0.88485157 -0.39323643 -0.24980542 0.00086296257
0.020448385 -0.033034977 -0.012921967 0.89801943 -0.35169381 -0.2643342 0.00051936245
0.021412816 -0.031264316 -0.0119747 0.91049004 -0.3513301 -0.21811713 0.00043316674
0.022418223 -0.028745554 -0.011803789 0.922598 -0.27645525 -0.26904541 0.0012483078
0.023063274 -0.026070476 -0.012302078 0.93020689 -0.229608 -0.28634807 0.0021278125
0.02376557 -0.0248782 -0.010995157 0.92551547 -0.2368221 -0.29552734 0.0021765998
0.02319173 -0.022925548 -0.013129782 0.88442504 -0.047691237 -0.464239 0.0024703282
0.023949899 -0.022674762 -0.011466118 0.91854763 -0.11023066 -0.37963063 0.0022491221
-0.0075646751 -0.019286927 -0.012335725 -0.77958369 0.59368706 -0.19946159 0.00065820053
0.023193236 -0.019943919 -0.013101222 0.838754 0.085950576 -0.53768408 0.0025682396
0.023956554 -0.019773772 -0.011727279 0.88861835 0.014249152 -0.45842603 0.0033374382
-0.0066511729 -0.017690446 -0.012027122 -0.80373788 0.55924106 -0.20311324 0.00084720971
-0.0058250921 -0.016360728 -0.011917057 -0.8037383 0.55924141 -0.20311031 0.00084726606
0.022926727 -0.016652923 -0.01255865 0.74970669 0.22576916 -0.62206769 0.0023775145
0.023987798 -0.016802024 -0.011152104 0.82657403 0.15675737 -0.5405575 0.0040255543
-0.0041905525 -0.013920786 -0.01171523 -0.77795148 0.57037395 -0.26356211 0.0022905853
-0.002813837 -0.012541339 -0.01250834 -0.72751367 0.60510576 -0.32337424 0.0020225083
0.020435313 -0.012370283 -0.013204075 0.65282011 0.34608892 -0.67383105 0.0011240833
0.022176048 -0.013703097 -0.011971777 0.71010858 0.29974362 -0.63710248 0.00035845998
0.02378127 -0.014741987 -0.01070376 0.77088773 0.25085601 -0.5854941 0.0021770892
-0.0016651206 -0.01085481 -0.01184673 -0.69248641 0.60022461 -0.40024105 0.0026442178
-5.6363177e-05 -0.0097797308 -0.012742119 -0.63250285 0.64225721 -0.43295011 0.0016666688
0.020029763 -0.010484362 -0.012710022 0.64992636 0.34736878 -0.67596644 0.0013110409
0.021576634 -0.010904714 -0.011314655 0.69262379 0.32576078 -0.64354658 0.0012091
-0.00067543483 -0.008975083 -0.010639109 -0.67506075 0.59967941 -0.42974129 0.0034303481
0.0012551874 -0.0078479424 -0.011693938 -0.5806492 0.65119547 -0.48866239 0.0020488291
0.0038468558 -0.0067181946 -0.012731269 -0.3732332 0.67570424 -0.63570487 0.0025685045
0.016585551 -0.0068307556 -0.012904346 0.33464411 0.52977014 -0.77933109 0.002036293
0.01913688 -0.0077701425 -0.011909145 0.53957754 0.40527692 -0.73797476 0.0019000384
0.021165725 -0.008666019 -0.01071969 0.65730172 0.36721629 -0.65810841 0.0028115897
0.0025545191 -0.0059738257 -0.010786869 -0.56274498 0.63652366 -0.52740473 0.00087732828
0.0044133468 -0.005179347 -0.011411989 -0.41221601 0.65998375 -0.62809193 0.0030122886
0.0070153978 -0.0046046237 -0.012172847 -0.26501232 0.68602175 -0.67760074 0.003541569
0.01012757 -0.0043461411 -0.012562804 -0.032993041 0.65976292 -0.75074923 0.0022016435
0.013248592 -0.0046026744 -0.012454225 0.16659285 0.60435385 -0.77910411 0.0024511833
0.016132163 -0.0048120469 -0.011698597 0.34082302 0.5461812 -0.7651965 0.00242478
0.018389417 -0.0053572534 -0.010911635 0.47593066 0.47776636 -0.73839641 0.002230431
0.0077057877 -0.0028979245 -0.010805967 -0.29688907 0.67313993 -0.67730314 0.0031593645
0.01021144 -0.0025425891 -0.011035026 -0.072152533 0.66235989 -0.74570328 0.0034359822
0.013050548 -0.0025958805 -0.010945256 0.12699814 0.62738055 -0.76828718 0.002108281
0.015553641 -0.0030523736 -0.01066604 0.30765063 0.57125062 -0.76093608 0.0017437605
0.02294624 -0.028693449 -0.0090052262 0.92761022 -0.29197273 -0.23300484 0.00042727363
0.023357512 -0.027244207 -0.0099900141 0.92269462 -0.2620503 -0.28277963 0.0013995126
0.024103304 -0.02544928 -0.009027563 0.93491066 -0.23103227 -0.26938108 0.0019910312
0.024804382 -0.022741105 -0.0089213075 0.93679798 -0.15791331 -0.31220654 0.0014658883
0.025107788 -0.019738236 -0.0091936346 0.92806 -0.067102216 -0.36633575 0.0028383965
-0.0060066003 -0.015949007 -0.0091497228 -0.8166815 0.54027951 -0.20280394 0.00076885277
0.025272006 -0.016885221 -0.008854324 0.8955934 0.050246596 -0.44202691 0.0030592773
-0.0048001814 -0.013665461 -0.0089062462 -0.82298434 0.52066869 -0.22715867 0.0011395485
0.02334814 -0.012679765 -0.010167576 0.72731864 0.2946921 -0.61980987 0.00037598729
0.024776224 -0.013873171 -0.0088450387 0.79369134 0.24020502 -0.5588879 0.0014643595
-0.0036503398 -0.011654947 -0.0085708331 -0.80557001 0.53370517 -0.25732422 0.0017395143
-0.0025329958 -0.010344094 -0.0091626663 -0.78096002 0.54815233 -0.29938349 0.0010942435
0.023011273 -0.010706268 -0.0095424205 0.734869 0.29904836 -0.6087181 0.00019621116
0.024281953 -0.011107188 -0.0081850514 0.76909328 0.27164039 -0.5785386 0.00089490705
-0.0012451967 -0.0083147855 -0.0086219581 -0.7232933 0.57833177 -0.3773315 0.0017756323
0.00024558377 -0.0069175013 -0.0091410624 -0.68192291 0.59802371 -0.42112789 0.0016206806
0.02057619 -0.0066735097 -0.010163732 0.61643004 0.39012715 -0.68396991 0.0012174782
0.022364546 -0.0077649541 -0.0089429729 0.7134586 0.3121621 -0.627321 0.00043580311
0.023950359 -0.0090298746 -0.007565476 0.75075221 0.29080525 -0.59313023 0.00030620859
0.001736649 -0.0050484245 -0.0086641246 -0.57782423 0.63341463 -0.51468927 0.0012012274
0.0036773244 -0.0040973625 -0.0095906826 -0.44020799 0.67353112 -0.59377831 0.0022131861
0.019366238 -0.0044436967 -0.0096637402 0.44754842 0.5049842 -0.73803216 0.0014967686
0.021501103 -0.0050362544 -0.0083214268 0.59884089 0.41371393 -0.68573344 0.0016444542
0.0025687511 -0.0032199719 -0.0074850693 -0.62651253 0.61353707 -0.48068103 0.0013855527
0.0044394601 -0.0024228566 -0.008375477 -0.47587854 0.65389591 -0.5881834 0.0022782825
0.0069739488 -0.0015006931 -0.0091207707 -0.3406668 0.6360032 -0.69242042 0.0030780237
0.010053905 -0.0009204396 -0.0096059516 -0.10532292 0.63885534 -0.76208317 0.0027576343
0.013130899 -0.0010295706 -0.0097103026 0.091133803 0.61035854 -0.78686541 0.0022946908
0.016188549 -0.0015610787 -0.0093057174 0.25519812 0.58225703 -0.77191365 0.0013254746
0.018845083 -0.0020904648 -0.0083950339 0.44010445 0.51018 -0.7389347 0.0023323661
0.020846136 -0.0030641702 -0.0076820329 0.56477529 0.47720394 -0.67327946 0.0014557767
0.0076205027 0.00032415753 -0.0077371337 -0.36249694 0.62221289 -0.69386387 0.0027250256
0.010121273 0.00078529911 -0.0081327725 -0.14865652 0.63217467 -0.76043177 0.0033509517
0.012969482 0.00092927972 -0.0081790425 0.069479838 0.6101352 -0.78924501 0.0032667159
0.015735108 0.00054431194 -0.0078919027 0.26129353 0.57369947 -0.77626973 0.0017344424
0.017913979 3.4695026e-05 -0.007406272 0.40800059 0.52886569 -0.74420208 0.0012140421
0.025413809 -0.022569407 -0.0063577518 0.94826329 -0.13185215 -0.28881085 0.00096926349
0.026039846 -0.01977485 -0.0062857247 0.94533479 -0.10808916 -0.30766678 0.0011441492
0.026350576 -0.016978577 -0.0062816017 0.93739164 -0.019079624 -0.347754 0.0041109887
0.026917983 -0.016102992 -0.0046046078 0.94908404 -0.05361522 -0.31042698 0.001430224
-0.0051172101 -0.013479019 -0.0063838586 -0.85121822 0.49349356 -0.17858243 0.00081521901
0.026174024 -0.013690056 -0.0064044967 0.88643515 0.12800996 -0.44479904 0.0035758971
0.026909344 -0.013758485 -0.0047477754 0.91780877 0.044355225 -0.39453718 0.0040424177
-0.0038923114 -0.010895964 -0.0057388702 -0.85667396 0.48228323 -0.18306427 0.0010922699
-0.003017012 -0.0097440574 -0.0066936985 -0.84521151 0.49217698 -0.20827696 0.0019839611
0.025708597 -0.010774195 -0.0060383687 0.83177084 0.22998889 -0.50523496 0.00097869057
0.026929382 -0.012129346 -0.0044157282 0.93502176 0.077952109 -0.34591597 0.0027893889
-0.0020034537 -0.0078049349 -0.0059230477 -0.79721045 0.53345942 -0.28262436 0.0020701755
0.023509542 -0.0067113661 -0.0071108416 0.70432556 0.33276051 -0.62705332 0.0012833328
0.024899704 -0.0079617696 -0.0057440856 0.78794748 0.28326106 -0.54671919 0.00059341302
-0.00088003732 -0.0056596049 -0.0052268105 -0.7619071 0.52813852 -0.37492296 0.002782899
0.00040689361 -0.0045694038 -0.0061227558 -0.72226101 0.54730541 -0.42284253 0.0014164889
0.022971213 -0.0046212701 -0.0065976135 0.71659857 0.34996042 -0.60333586 0.0016656555
0.0242998 -0.0049438239 -0.00513463 0.76861167 0.31690323 -0.55570537 0.0017600607
0.0018762954 -0.002270333 -0.0054997653 -0.65393573 0.57927269 -0.48663267 0.0015233884
0.0038675391 -0.0010233382 -0.0063864151 -0.49341184 0.62560737 -0.60428482 0.0016435214
0.019795213 -0.00084290048 -0.006929405 0.4408555 0.51694143 -0.73376971 0.0016550268
0.021942686 -0.001826209 -0.005870305 0.61280084 0.41954648 -0.66966838 0.0019829902
0.023755062 -0.0028809928 -0.0046775937 0.69455206 0.3765769 -0.61301494 0.0017212672
0.0046033477 0.00082132081 -0.0052071987 -0.52519 0.59784687 -0.60560268 0.0021088819
0.0068202708 0.0014548637 -0.0062158322 -0.37077969 0.62187165 -0.68978107 0.0024285892
0.0097333798 0.002113536 -0.0068922509 -0.17044468 0.66072607 -0.73101962 0.0029608463
0.013207731 0.0022962503 -0.0070555839 0.046266783 0.6424008 -0.76497096 0.0029241482
0.016353633 0.0017942693 -0.006727661 0.23952797 0.58592367 -0.77415746 0.0017025042
0.019143429 0.0012073284 -0.0058496906 0.4288418 0.50778967 -0.74715751 0.0017856284
0.021289874 0.00051080389 -0.004861434 0.55446297 0.492093 -0.67112982 0.0013893907
0.0073902672 0.0032835659 -0.004890807 -0.39042151 0.61131817 -0.68837565 0.0020281635
0.01016112 0.0039015571 -0.00547104 -0.18818781 0.63801491 -0.74667418 0.0035184228
0.013080474 0.0040095719 -0.0056941435 0.065379046 0.61480004 -0.78596842 0.0035556094
0.015987176 0.0038456218 -0.0052798381 0.24253491 0.58390701 -0.77474481 0.0022113128
0.018545829 0.0031427881 -0.0047642402 0.40974185 0.55754548 -0.72197962 0.0013907407
0.012883858 0.0056635961 -0.00437835 0.01493413 0.64184314 -0.76669049 0.0047384193
0.026472038 -0.019628581 -0.0042322055 0.95217758 -0.10396943 -0.28731203 0.00093654386
0.027258819 -0.01663046 -0.0028569996 0.95859367 -0.053544652 -0.27969828 0.0013711337
-0.0049136332 -0.012605781 -0.0040981546 -0.86864382 0.47232652 -0.14955133 0.00059928489
0.027489236 -0.013810809 -0.0029238886 0.94030023 0.037199397 -0.33830714 0.0040706759
-0.0042229844 -0.010754781 -0.0030370727 -0.87746328 0.4535675 -0.15599555 0.0010139149
0.02728289 -0.010752412 -0.0031030974 0.92567718 0.10921583 -0.36220682 0.0035779632
-0.0035202242 -0.0091136191 -0.00283245 -0.88572854 0.43179998 -0.1703928 0.0013281659
-0.0026393118 -0.0072925822 -0.0028608479 -0.88297695 0.41329864 -0.22256657 0.0023246708
0.026282756 -0.0075771092 -0.0034703489 0.85446423 0.22719461 -0.46719748 0.0022084112
0.027207775 -0.0080900555 -0.0021451218 0.86303884 0.21504787 -0.45707598 0.0016358119
-0.0013513647 -0.0048657833 -0.0029095369 -0.84146231 0.43253338 -0.32381484 0.0026150921
-0.00022846821 -0.0037042298 -0.0038895383 -0.78044391 0.47929335 -0.4014788 0.0015781499
0.025602726 -0.0047029955 -0.003060136 0.81457812 0.27698588 -0.5096482 0.00037115373
0.026614428 -0.005599136 -0.001829721 0.83258754 0.26499555 -0.48639014 0.00045769417
-0.00070339721 -0.003008055 -0.0019893721 -0.79154944 0.47950852 -0.37884173 0.0030267532
0.00074747857 -0.001575232 -0.0030296221 -0.74319619 0.49683446 -0.44812393 0.0016041171
0.023049589 -0.00057914807 -0.0039883135 0.65700084 0.43250006 -0.61748976 0.0030660292
0.024730558 -0.0018804874 -0.00276095 0.74790984 0.36674231 -0.55329114 0.0018089217
0.0018457329 0.00071851863 -0.0022911453 -0.67253566 0.51441586 -0.53204525 0.0018067696
0.0034082215 0.0016920995 -0.0031907307 -0.60280412 0.54991829 -0.57811505 0.0030149268
0.020384301 0.0023873644 -0.0041950718 0.4931429 0.52879477 -0.69078666 0.0021989727
0.022344138 0.0014934158 -0.003205088 0.59241885 0.4541862 -0.66539824 0.0023281393
0.024042968 0.00073280605 -0.0019649705 0.68824559 0.41265994 -0.59668231 0.0011765808
0.0045658923 0.0037961118 -0.0023821117 -0.55664885 0.56517762 -0.60886472 0.0017430356
0.006808917 0.0045057898 -0.0034594042 -0.42079568 0.59588951 -0.68399316 0.0029691237
0.0090252878 0.0050818929 -0.0041361228 -0.24866499 0.65189135 -0.71638215 0.0048365123
0.016923064 0.0050128242 -0.0040532486 0.26656502 0.58294344 -0.76754159 0.0034950811
0.019370038 0.004320967 -0.0033737598 0.43473017 0.53466177 -0.72466987 0.0019388492
0.021651464 0.0036991704 -0.0022021323 0.55480832 0.51987064 -0.64955544 0.001601869
0.0054232716 0.0057109641 -0.0014484301 -0.47798553 0.54941189 -0.68532944 0.0014263871
0.0072982986 0.0064064944 -0.0021245894 -0.42551962 0.59168839 -0.68471736 0.0017544298
0.010136565 0.007070642 -0.0028291219 -0.21236752 0.63764888 -0.74047548 0.002855524
0.013187162 0.0072855391 -0.0030649155 0.049149405 0.61193836 -0.78937685 0.0032087511
0.015954705 0.0070662266 -0.0027952227 0.18988404 0.59980875 -0.77728605 0.0014177824
0.018651053 0.0065157162 -0.002098124 0.40485689 0.57944995 -0.70733911 0.0017862725
0.01107838 0.0090090428 -0.0015252107 -0.15213372 0.59187931 -0.79153907 0.0065053003
0.013198595 0.0091969324 -0.0015559001 0.032624528 0.61925495 -0.7845118 0.004187285
0.015322455 0.0090104137 -0.0014677816 0.16579294 0.61321032 -0.77232492 0.0050048232
0.028130852 -0.01318032 -0.00017523533 0.9613837 0.024760915 -0.27409539 0.0012403326
-0.0040142513 -0.0098623428 -0.00059578568 -0.89439386 0.41080073 -0.17692471 0.001773815
0.028093327 -0.010802843 -0.00077562127 0.9415608 0.096526638 -0.32271624 0.0028509933
-0.003551038 -0.0082233045 0.00034482032 -0.89021707 0.40373895 -0.21097036 0.0014795039
-0.0030768798 -0.0068023899 0.0002509281 -0.89686203 0.38286254 -0.22148329 0.0014801752
0.027975181 -0.0075067664 -0.00014808541 0.92493063 0.14819749 -0.35005838 0.00253466
-0.0023020697 -0.0048441365 0.00010573398 -0.88491309 0.37161726 -0.28076562 0.002128039
0.027442532 -0.0049087564 0.0001541879 0.88546968 0.22569738 -0.40620691 0.001295643
-0.0011843463 -0.0020538182 0.00026875408 -0.86242646 0.39331478 -0.31862834 0.0030364916
-0.00011745107 -0.00076977024 -0.00065723807 -0.81314725 0.43223256 -0.38982898 0.0025402196
0.025982672 -0.001265415 -0.00053662201 0.82514668 0.29629704 -0.48097926 0.00073949242
0.026939537 -0.0020917198 0.00074632373 0.85371423 0.26599509 -0.44768134 0.00088849111
-0.00071437727 6.3186046e-05 0.0014070496 -0.81058252 0.38996527 -0.43690181 0.0021755362
0.000708348 0.0013202191 1.7892569e-05 -0.76773816 0.45815337 -0.4479661 0.0012054594
0.025246261 0.0012928317 5.4560602e-05 0.76955861 0.36949879 -0.5208168 0.0015321043
0.0016878826 0.0037884805 0.00072449259 -0.70289111 0.47248584 -0.53169668 0.0023294967
0.0031823725 0.0044490993 -0.00045087794 -0.65900272 0.49600443 -0.5654158 0.0015706493
0.022794034 0.0045155371 -0.00053939968 0.61295199 0.46391574 -0.6395874 0.0015771138
0.024361888 0.0037875976 0.00065242313 0.68863875 0.43571958 -0.5795905 0.0011836073
0.0043340307 0.0069337049 0.00049688155 -0.57047796 0.517528 -0.63774568 0.0017911277
0.0068252385 0.0079211956 -0.00060709566 -0.40706733 0.55763501 -0.72342205 0.0018338561
0.008728208 0.0085456418 -0.0011744872 -0.36273307 0.56933194 -0.73775727 0.0015467658
0.01721786 0.0085449414 -0.0012053028 0.29626152 0.5900262 -0.75106472 0.0039533181
0.019511577 0.0077712853 -0.00062460732 0.39947477 0.56551427 -0.7215355 0.0013679154
0.021870453 0.0069568856 0.00050995499 0.573228 0.5067932 -0.64387137 0.001962288
0.023971817 0.0057609426 0.0016440973 0.71164334 0.43098873 -0.5548085 0.0013284745
0.0052965814 0.0092384862 0.0014788033 -0.52722806 0.51672459 -0.67455637 0.0019609192
0.0072908909 0.0099943103 0.0007499028 -0.40963113 0.56005681 -0.72009629 0.0024260692
0.010051052 0.010284501 -0.00024005165 -0.21436311 0.58837718 -0.77965426 0.0031141401
0.013169708 0.010628511 -0.00041950261 0.0033576228 0.61342007 -0.78974962 0.0026712893
0.016138991 0.010331077 -0.00019022124 0.19353452 0.61964107 -0.76065058 0.0017526305
0.018761368 0.0099925427 0.00068043265 0.4073711 0.57471442 -0.70975494 0.0020448857
0.020795599 0.0092365388 0.0013971357 0.52906138 0.53957278 -0.6549468 0.0014563943
0.0083055915 0.011933555 0.0016730055 -0.37970653 0.53971905 -0.75134963 0.0011151083
0.010195399 0.012293627 0.0012496551 -0.22454332 0.5898661 -0.77565348 0.0034075221
0.013035707 0.012507525 0.0010414915 0.0060943267 0.63257426 -0.77447581 0.0030034285
0.015887348 0.012248988 0.001239487 0.23584783 0.60852575 -0.75767547 0.0034234643
0.017801423 0.011933719 0.001678817 0.38983896 0.57108659 -0.72241658 0.0013151517
0.028770313 -0.009921575 0.0024463059 0.93893397 0.11010455 -0.32600632 0.0027820983
0.028760947 -0.0077785426 0.0022990378 0.93593341 0.11957757 -0.33125496 0.0023503241
-0.0029109051 -0.0046944954 0.0030667353 -0.90552527 0.34109366 -0.25234714 0.0012799292
0.028658783 -0.0046948823 0.0031850226 0.91204822 0.17764318 -0.36960909 0.0026601255
-0.0020394307 -0.0017268849 0.0030928338 -0.91081774 0.29605463 -0.28768513 0.0029109681
0.027919078 -0.0018044044 0.003033299 0.87346476 0.26456171 -0.4087376 0.00088863197
-0.001129664 0.0011934764 0.0033663139 -0.87777984 0.29841703 -0.37476647 0.0027891025
-0.00012262419 0.0020851539 0.0020783767 -0.82310873 0.36661351 -0.43368936 0.0017609339
0.026256144 0.002085668 0.0021476448 0.80665565 0.33787903 -0.48491701 0.0016181697
0.027251299 0.0010230429 0.0033405712 0.86556232 0.27800649 -0.4165504 0.0012039198
-0.00072315487 0.003175308 0.0041222796 -0.82575566 0.37002721 -0.42568469 0.0024226604
0.00044647348 0.0042831562 0.0029967558 -0.80175936 0.37441266 -0.46582952 0.00077508326
0.025691509 0.004252715 0.0028802883 0.79075271 0.37317136 -0.48523524 0.00089576765
0.026975164 0.0031766566 0.004256852 0.83113164 0.34502792 -0.43609148 0.0014091977
0.0014801815 0.0067664729 0.0034359749 -0.7274273 0.41432321 -0.54697877 0.0023078546
0.0031261151 0.0078729261 0.002359353 -0.66910124 0.44492802 -0.59526688 0.0017057107
0.023061138 0.00789202 0.0024073236 0.65994298 0.48128507 -0.57692283 0.0012528406
0.024677936 0.0068239262 0.0034715971 0.72052228 0.44866699 -0.52872062 0.0017381484
0.0020226529 0.0090292143 0.0043567643 -0.66680336 0.41810697 -0.61689538 0.0023892403
0.0040704962 0.010238449 0.003227856 -0.54163659 0.4826135 -0.68826884 0.0011709052
0.0064711357 0.011174153 0.0020965412 -0.41270837 0.56297922 -0.71604902 0.0020048607
0.019663358 0.011176753 0.0021876544 0.41882047 0.57995719 -0.69874108 0.001814487
0.021871731 0.0103057 0.0032412345 0.5757305 0.53316838 -0.61989188 0.0023660297
0.023744278 0.0090236301 0.0041154176 0.65913177 0.49203455 -0.56872433 0.001396001
0.0050050928 0.012483164 0.0040623322 -0.48964491 0.50218248 -0.71278375 0.001321189
0.0071064802 0.013206535 0.0032248152 -0.35979581 0.54674149 -0.75605607 0.0013241315
0.0098307878 0.013663116 0.0023854161 -0.21145704 0.57060069 -0.7935369 0.0033703612
0.013066779 0.013928547 0.0021494124 0.015078395 0.62723976 -0.77868021 0.0028251621
0.016302094 0.013633183 0.0024704328 0.23372719 0.5904218 -0.7725113 0.0030974506
0.018999115 0.013117249 0.0033579804 0.41455567 0.56538385 -0.71308118 0.0019056295
0.021082986 0.012328432 0.0042057009 0.51621699 0.54918629 -0.65720201 0.00089652766
0.0078201834 0.015250395 0.0043076836 -0.37760955 0.53064275 -0.75883424 0.0015164496
0.010080943 0.015748695 0.0038485667 -0.18015555 0.56622881 -0.8043189 0.0032444596
0.0130717 0.015923239 0.0036705183 0.033058483 0.59222025 -0.8050977 0.0034505627
0.016022999 0.015558994 0.0039155344 0.24957596 0.59462726 -0.76428419 0.0028307987
0.018064475 0.015039775 0.0043548169 0.42505586 0.58934408 -0.68702334 0.0012761654
-0.0031231744 -0.0039947578 0.0056211129 -0.93111295 0.28484437 -0.22779921 0.0015107464
-0.002716396 -0.0015671179 0.0060471008 -0.92553502 0.26465055 -0.27082303 0.0015413153
0.028875848 -0.0015721568 0.0057788519 0.90165681 0.24648161 -0.35533357 0.00060647854
-0.0021695767 0.0012780512 0.0062334016 -0.92252254 0.24768141 -0.29598325 0.0027674907
0.028229797 0.0014684377 0.0060033547 0.89881653 0.26157266 -0.35172245 0.000730653
-0.0012998558 0.0041252431 0.0061421804 -0.8591193 0.29914463 -0.41524276 0.0011572493
-0.00024756655 0.0053363787 0.004972063 -0.79289609 0.37666386 -0.47899911 0.00077906915
0.02653642 0.0050966488 0.0049240068 0.81372088 0.35267046 -0.46204099 0.0022305213
0.027539156 0.0041388525 0.0062933676 0.88241321 0.290602 -0.36999655 0.0019284214
-0.00091276108 0.0066285795 0.0069908872 -0.82772654 0.29150447 -0.47947252 0.0019173268
0.0001976979 0.0073266169 0.005623077 -0.79764169 0.34218657 -0.49666488 0.0013356257
0.025858816 0.0072630057 0.0056239041 0.77715343 0.41976488 -0.46886018 0.0019036679
0.026809974 0.0067265863 0.0068725226 0.82914156 0.3757382 -0.41393855 0.001726995
0.0010760319 0.010122866 0.0063153906 -0.72421587 0.35095415 -0.59358448 0.0016331065
0.0028141215 0.011174726 0.0050610108 -0.66712451 0.4230009 -0.61320066 0.0017221029
0.023084022 0.01120335 0.0052243397 0.62994206 0.51943606 -0.57737273 0.00049708068
0.02467462 0.009972862 0.0062340312 0.71849918 0.46532178 -0.51694739 0.0013585783
0.0018013079 0.012841099 0.0071211495 -0.67282706 0.38978314 -0.62878674 0.0017015415
0.0037625395 0.013478282 0.0057124821 -0.5597648 0.44623718 -0.69823766 0.0024511628
0.020170121 0.014272352 0.0051699104 0.55119103 0.54947102 -0.62790936 0.0011433734
0.022086766 0.013340349 0.0061012916 0.58067983 0.54546487 -0.60438317 0.0011859077
0.0239507 0.012264068 0.0073134722 0.68380493 0.49528486 -0.5358206 0.001197465
0.0044704536 0.015961919 0.0067664692 -0.51448941 0.44259533 -0.73444539 0.0018188274
0.0069522304 0.016395185 0.0054992493 -0.38108486 0.51767337 -0.76602119 0.0029550234
0.0097968932 0.017174505 0.0049550757 -0.15924813 0.59374374 -0.78873849 0.0027320175
0.013498862 0.017286234 0.0047686622 0.049945351 0.62553728 -0.77859396 0.0031715168
0.01657122 0.016894735 0.0052090259 0.26207748 0.61486602 -0.74381125 0.0023264317
0.019170361 0.016142238 0.0060509779 0.45900461 0.57222289 -0.67961437 0.0019788931
0.021209268 0.015296058 0.0069514783 0.5536688 0.56350148 -0.61312068 0.0011284765
0.0053585768 0.018039443 0.0074304463 -0.47683001 0.47225782 -0.74135393 0.0012053119
0.007383171 0.018800791 0.0069061471 -0.33855292 0.51701325 -0.7861802 0.0027825385
0.010062654 0.019027423 0.0062244311 -0.14181072 0.58530772 -0.79831362 0.0025026987
0.012936013 0.019018892 0.0060360916 0.058077127 0.59444338 -0.80203748 0.0028637175
0.015879553 0.01885825 0.0065774573 0.28346121 0.62773263 -0.72498381 0.0030161964
0.018337632 0.01819142 0.007236925 0.46995243 0.58736145 -0.65890157 0.0017123471
0.010489936 0.020847142 0.0074696215 -0.13749933 0.5677852 -0.81161189 0.0029047353
0.012734695 0.02088704 0.0074655861 0.11996362 0.59821945 -0.79230177 0.0033342042
-0.0031481604 -0.0013594488 0.0085195042 -0.93904644 0.20953666 -0.27255481 0.0011187674
-0.0029757489 0.0014175856 0.0094877407 -0.94355857 0.18563308 -0.27429479 0.00082422135
0.029097166 0.0012942599 0.0088497866 0.90742141 0.26319462 -0.32758954 0.00044679368
-0.0023881374 0.0043911003 0.0089396331 -0.91281348 0.1967774 -0.35784101 0.0023086979
0.028497357 0.0042250669 0.0089958571 0.90462148 0.27794185 -0.3231228 0.00053155574
-0.0017911087 0.0072171511 0.0091522373 -0.88170582 0.22613446 -0.41407496 0.002435887
0.027580498 0.0070871497 0.0090321545 0.87735415 0.33496824 -0.34357831 0.0009116584
-0.0011632561 0.0098716514 0.009368185 -0.8326214 0.25880238 -0.48965594 0.0024647496
-9.384763e-05 0.010602421 0.0081069246 -0.76125544 0.32346559 -0.56201434 0.0021208015
0.025838044 0.010612107 0.0087393168 0.79779017 0.43265799 -0.41992617 0.00089016161
0.026980733 0.0093582002 0.0097863991 0.8365227 0.39336061 -0.38144088 0.0012505066
-0.0008236086 0.012514803 0.010231005 -0.77920395 0.27832747 -0.56158262 0.0020535907
0.00052950997 0.013422727 0.0089525282 -0.73177773 0.34195119 -0.58955133 0.0017425793
0.023233142 0.014177878 0.0081840754 0.64355719 0.5314464 -0.55081654 0.00099770911
0.024734069 0.01308 0.0093289036 0.74415743 0.46741644 -0.47723332 0.0013476381
0.0013217431 0.016150162 0.0095698964 -0.64235997 0.37910312 -0.66607398 0.0017819391
0.0030783764 0.016752295 0.0083028404 -0.60713434 0.40949628 -0.68095571 0.0011490718
0.020291729 0.01725927 0.0079448549 0.57308161 0.55894351 -0.59929919 0.00045443882
0.022201814 0.016308714 0.0090663061 0.66095316 0.54773694 -0.51295727 0.0012835446
0.023935599 0.015091796 0.010122381 0.72739929 0.50590587 -0.46362644 0.00074575393
0.0018846098 0.018487383 0.01030943 -0.60176718 0.38611948 -0.69913375 0.0018359688
0.0040237042 0.019207783 0.0090644229 -0.50965101 0.43099213 -0.74464869 0.0020182121
0.0065491395 0.02001369 0.008062236 -0.30905741 0.54091728 -0.78223532 0.0022465321
0.017004525 0.019992366 0.0080359504 0.44975108 0.59512925 -0.66599184 0.00095115474
