# .PCD v0.7 - Point Cloud Data file format
VERSION 0.7
FIELDS x y z normal_x normal_y normal_z curvature
SIZE 4 4 4 4 4 4 4
TYPE F F F F F F F
COUNT 1 1 1 1 1 1 1
WIDTH 551
HEIGHT 1
VIEWPOINT 0 0 0 1 0 0 0
POINTS 551
DATA ascii
0.022473047 0.031973187 -0.0057511246 0.86728603 0.17618328 -0.46559045 0.00040032688
-0.013253541 0.03411746 -0.0048162215 -0.84661347 -0.50516105 -0.16750525 0.00086597283
0.021862522 0.03403233 -0.0059285634 0.86467618 0.19509482 -0.46289653 0.00038983009
0.0089578349 -0.014706095 -0.00062310626 -0.28970692 -0.31013134 -0.90547693 0.0023189837
0.011095587 -0.015295568 -0.00076128449 -0.091286503 -0.3487778 -0.93274909 0.0029740171
0.013712752 -0.015210892 -0.00073874788 0.11624104 -0.37993193 -0.91768169 0.002225172
0.015967049 -0.014566182 -0.00056169415 0.30602863 -0.40954489 -0.85942972 0.0023908762
0.0060236249 -0.01148939 -0.00052230293 -0.47087547 -0.30707991 -0.82702971 0.0015248831
0.0081706168 -0.01256363 -0.0011102159 -0.32519606 -0.31481358 -0.89170617 0.0030949232
0.010968518 -0.012874066 -0.0017005434 -0.11912993 -0.34273911 -0.9318465 0.0024591354
0.013801603 -0.012873079 -0.0017346678 0.089652769 -0.36937949 -0.92494386 0.0016157458
0.016716208 -0.012565295 -0.0012197942 0.28477281 -0.38706872 -0.87697333 0.0021968253
0.018994587 -0.011865114 -0.00063410937 0.43132955 -0.39740595 -0.80995262 0.0017370802
0.0055768993 -0.0095223198 -0.00094285747 -0.50540292 -0.2955485 -0.8106904 0.002069575
0.0078929765 -0.0097964732 -0.0020075322 -0.38886899 -0.32228395 -0.86308402 0.0023935896
0.010877004 -0.00988233 -0.0028792755 -0.14965637 -0.37837461 -0.9134745 0.0025805398
0.01395861 -0.0099252248 -0.0029763286 0.10520101 -0.40239468 -0.90940166 0.0025486094
0.016997805 -0.0098377792 -0.0023546265 0.2743887 -0.39227867 -0.87796825 0.0017731165
0.019743105 -0.0096439328 -0.0012322126 0.4670639 -0.35838008 -0.80834091 0.0018024216
0.021652211 -0.0086485585 -0.00049929554 0.57137978 -0.35455674 -0.74014497 0.0015665576
0.0031817539 -0.005568563 -0.00061665708 -0.65480798 -0.25451449 -0.71165216 0.003104456
0.0049231164 -0.0068233088 -0.0014903275 -0.56317919 -0.28920394 -0.77407378 0.0018710962
0.007545108 -0.0071694115 -0.0028717546 -0.39636764 -0.33761391 -0.85376203 0.0023310727
0.0097537572 -0.0081161251 -0.003372299 -0.19868653 -0.32004526 -0.92633396 0.0043896083
0.017565597 -0.0076897014 -0.003127483 0.26735908 -0.41656855 -0.86890149 0.0018808142
0.019949885 -0.0069929771 -0.0023154814 0.42839485 -0.38276148 -0.81851792 0.001093592
0.022154 -0.0065220557 -0.0010690072 0.59006661 -0.33924055 -0.73262358 0.0013539547
0.0027356315 -0.0034634236 -0.0010727518 -0.67487538 -0.30025682 -0.67408389 0.0014674256
0.0047160788 -0.0039963089 -0.0025044396 -0.54904062 -0.32893988 -0.76834434 0.0019724281
0.0066183265 -0.0051376112 -0.0032824748 -0.47653228 -0.37033477 -0.79735136 0.0015185608
0.020591596 -0.0046102656 -0.0030094236 0.4506124 -0.3501268 -0.82119405 0.0017006593
0.022650417 -0.0037016238 -0.0018724359 0.61434084 -0.30839545 -0.72627664 0.0020166121
0.024489259 -0.0027281034 -0.00058213109 0.719374 -0.27705008 -0.63698065 0.0018272774
0.0021984312 -0.00070387195 -0.0018022669 -0.68823814 -0.31636479 -0.65287179 0.0020425306
0.003908474 -0.0015311504 -0.0030410888 -0.63032025 -0.34559625 -0.69516867 0.00099008274
0.02321553 -0.00093060569 -0.0025373404 0.62863165 -0.27254847 -0.72838151 0.0013371415
0.024819437 -0.0006747942 -0.0010418741 0.72484845 -0.250489 -0.6417554 0.00081460003
0.00010490365 0.0028091162 -0.0011161827 -0.77039194 -0.31926182 -0.5518769 0.001875679
0.001521063 0.0019832868 -0.002430697 -0.72980785 -0.33492705 -0.59599036 0.0011628837
0.024022171 0.0018905931 -0.0028435125 0.70881671 -0.24061009 -0.66308796 0.0012143631
0.025385821 0.0024293787 -0.0014898949 0.76211071 -0.21701679 -0.60999256 0.0019789494
-0.00043852592 0.0054206452 -0.0018920086 -0.79028296 -0.33801821 -0.51107395 0.0020600404
0.00093207241 0.0044709309 -0.0031862953 -0.68758327 -0.37913308 -0.61926353 0.0010864921
0.024339294 0.0043518483 -0.0033654743 0.6949414 -0.21639819 -0.68573201 0.0007352471
0.025719594 0.0053356942 -0.0019464879 0.78399026 -0.1718595 -0.59650952 0.001462255
-0.0014387597 0.0080731167 -0.0020750486 -0.82448655 -0.34993801 -0.44470814 0.0012025535
0.026125018 0.0080513731 -0.0020860538 0.83811247 -0.11343002 -0.53357387 0.00058589643
-0.0032231624 0.011731857 -0.001551537 -0.86117828 -0.35239151 -0.36632261 0.0016744088
-0.0022230579 0.010458321 -0.002618297 -0.83151084 -0.37808272 -0.40699279 0.0015210771
0.026510434 0.011258327 -0.0020203022 0.86459225 -0.052540835 -0.49971953 0.0012270021
-0.0040613255 0.014269656 -0.002143614 -0.87123281 -0.37417349 -0.31772256 0.0014525494
0.026790654 0.014283173 -0.0017099354 0.87977952 -0.012812726 -0.47520918 0.00069381797
-0.0057984693 0.018063793 -0.0016436153 -0.90010643 -0.37424356 -0.22304736 0.0015423595
-0.0050220927 0.016680874 -0.0023298697 -0.88382041 -0.39037943 -0.25780877 0.0012822603
0.026646581 0.016976111 -0.0018616895 0.87907195 0.027293369 -0.47590703 0.00040969826
-0.0064971615 0.019985937 -0.0022316487 -0.88251585 -0.42036578 -0.2108517 0.001407919
0.026173139 0.019994317 -0.0022965297 0.87960964 0.063739128 -0.47140652 0.000504645
-0.0077644624 0.022976793 -0.002573865 -0.87628186 -0.43868998 -0.19920139 0.0013973297
0.025554413 0.023206532 -0.0026826845 0.87092537 0.11281695 -0.4782899 0.00065550336
-0.0090845218 0.025806155 -0.0025595599 -0.87147397 -0.45347053 -0.18680888 0.00078515802
0.024986645 0.025622688 -0.0030065749 0.88167763 0.13090676 -0.45332986 0.00022831357
0.0091592371 -0.023495888 0.0025255657 -0.1237049 -0.32670835 -0.93699449 0.0022520635
0.010350967 -0.023494877 0.0025070934 0.044277929 -0.37913606 -0.924281 0.0038904983
0.0058675949 -0.021010362 0.0024038856 -0.30361167 -0.24506272 -0.92074114 0.0031550566
0.0080717448 -0.021689463 0.0020355568 -0.18575042 -0.29547423 -0.93711889 0.0031086605
0.011051043 -0.021793025 0.0018503843 0.028860757 -0.35566688 -0.93416709 0.003201928
0.013712377 -0.021473568 0.0020565838 0.1874036 -0.40026274 -0.89703381 0.0016313336
0.015973108 -0.020818342 0.0023768549 0.34309378 -0.41937047 -0.84048498 0.0018759071
0.0052997442 -0.018786615 0.0020626076 -0.41187832 -0.24971125 -0.87635636 0.0029390077
0.0079439618 -0.018903805 0.0011263043 -0.25280607 -0.30478212 -0.91825753 0.0039770692
0.011023486 -0.018883284 0.00066507468 -0.037452571 -0.37049195 -0.92808032 0.0030372075
0.013880446 -0.018894827 0.00092135044 0.15012923 -0.40206307 -0.90322006 0.0014155863
0.016665475 -0.018835584 0.0016949964 0.33630532 -0.4030678 -0.85113746 0.0024118195
0.018766046 -0.01808155 0.0022874996 0.47303405 -0.41288295 -0.77831 0.0018551325
0.0031976709 -0.014906113 0.0023375778 -0.59808666 -0.19696252 -0.77685136 0.0017743168
0.0048863301 -0.015792934 0.0014876574 -0.49933523 -0.21459244 -0.83941317 0.0018852082
0.0077745458 -0.015933417 0.00019551581 -0.30913606 -0.29269943 -0.90485471 0.0032427283
0.010898218 -0.016685393 -0.00019590952 -0.060829833 -0.3885645 -0.91941142 0.0027378094
0.013945443 -0.016621543 -8.0805272e-05 0.14154874 -0.41619623 -0.8981896 0.0019885057
0.017039428 -0.015898645 0.00043594232 0.30280948 -0.41713333 -0.85691667 0.0014161095
0.019776301 -0.015595648 0.001641802 0.50443822 -0.38781768 -0.7714529 0.0018855331
0.021792503 -0.014433577 0.0024596578 0.62754667 -0.36173368 -0.68944472 0.0013987081
0.0028148291 -0.012609483 0.0020455127 -0.63999087 -0.20740251 -0.73986208 0.0015933784
0.0048155142 -0.012743172 0.00063599227 -0.51205707 -0.24848916 -0.82222301 0.0022398846
0.0067714341 -0.013392557 -0.00024893042 -0.4216966 -0.29105446 -0.85875446 0.00085481827
0.0179679 -0.013676639 -0.0002543265 0.34276727 -0.38733402 -0.85585219 0.0026019083
0.020201227 -0.012836416 0.00053421129 0.47922349 -0.37601936 -0.79306638 0.002002551
0.022269074 -0.012418705 0.001835627 0.62400204 -0.36856794 -0.68904221 0.0015637996
0.0024593184 -0.0097834384 0.0015553012 -0.67406082 -0.22595844 -0.70326716 0.001897508
0.0043143732 -0.010061771 0.00010023499 -0.57382238 -0.26793534 -0.77391124 0.001242422
0.02092579 -0.010553016 -0.00011201017 0.5117141 -0.37562692 -0.77269214 0.00062206789
0.022882709 -0.0098507293 0.001124911 0.63381392 -0.33862132 -0.69542468 0.0026186104
0.024645982 -0.0087094298 0.0023266203 0.7015211 -0.31777093 -0.63787907 0.0013899449
0.00033775685 -0.0053739687 0.0023943014 -0.75512689 -0.24027354 -0.60996062 0.0018616875
0.0020012336 -0.0067805424 0.0010075108 -0.69951731 -0.24396484 -0.671682 0.0022221655
0.0037757931 -0.0078240773 -0.00028124684 -0.63064337 -0.28832039 -0.72052783 0.0010808414
0.023443647 -0.0070571294 0.00029433891 0.65228522 -0.3214246 -0.68644756 0.00076071295
0.024967302 -0.0065242946 0.0016611028 0.72701424 -0.29344869 -0.62075615 0.0015138249
0.00017946778 -0.0034625751 0.0018943343 -0.79131866 -0.22016048 -0.57038939 0.0023154225
0.0014072267 -0.0038523849 0.00049104029 -0.75501877 -0.2652137 -0.59967351 0.0014158433
0.024031816 -0.0046258708 -0.0002781027 0.64358395 -0.30327284 -0.70272696 0.0011040337
0.025489731 -0.0036822862 0.0010337848 0.74366611 -0.2697432 -0.61171836 0.0014209185
-0.00023244054 -0.00074661034 0.0013202676 -0.81952626 -0.24728408 -0.51694041 0.0023373689
0.00097240612 -0.0014683616 -3.9455714e-05 -0.73059642 -0.29081887 -0.61778086 0.0014615828
0.026208583 -0.00092592533 0.00085387751 0.8094824 -0.21818699 -0.54509884 0.00089937821
0.027510621 0.00034645339 0.0024071163 0.89022291 -0.16466403 -0.42472214 0.0013194664
-0.00083862932 0.0021036169 0.00083398912 -0.83753979 -0.27211347 -0.4737947 0.001830094
0.026593093 0.0019931877 0.00030126446 0.81784278 -0.18254127 -0.54572135 0.0018076218
0.0275821 0.0024098153 0.0018359516 0.86582839 -0.15310536 -0.47634014 0.0017313395
-0.0019258081 0.0051280009 0.0010299352 -0.88020211 -0.26884559 -0.39110905 0.0022045728
0.027193749 0.0051405132 0.00029754406 0.86391842 -0.13711292 -0.48460802 0.0015250397
0.027944507 0.0051062736 0.0017098272 0.89969671 -0.10170643 -0.42450175 0.0029388499
-0.0031097506 0.0084326221 0.001412326 -0.92217976 -0.27623352 -0.27070218 0.0033441391
-0.0024118079 0.0075599179 0.00029208139 -0.88245565 -0.30420727 -0.35878965 0.0015710773
0.027359067 0.0081700273 -0.00010436005 0.85751289 -0.091381408 -0.50628155 0.0011520579
0.028175313 0.0081983311 0.0015884913 0.9305324 -0.056855075 -0.36176932 0.0035001168
-0.0037470355 0.010942996 0.00090689445 -0.916062 -0.30164197 -0.26427731 0.0015268986
0.027341349 0.0098233828 -0.00039793784 0.86472344 -0.051874153 -0.49956235 0.0012951371
0.028160423 0.011048048 0.0013474054 0.92816305 -0.054636575 -0.36814144 0.002563793
-0.0047476087 0.014117359 0.00062311534 -0.91674352 -0.33932462 -0.21080822 0.00084943138
0.02788082 0.014119338 0.00067293644 0.89360344 -0.0095320605 -0.44875601 0.00032550495
-0.0058375057 0.017215127 0.00094394153 -0.9029206 -0.36641747 -0.22466104 0.0013847073
-0.0053508207 0.015999245 0.00011981791 -0.9135409 -0.36313185 -0.18324372 0.00042449031
0.027354285 0.017410716 -0.00018353993 0.88659209 0.040292576 -0.46079379 0.00068731065
-0.007012995 0.02051031 0.00026046997 -0.90053022 -0.39704108 -0.17721076 0.00056474312
0.005163121 -0.029888345 0.0053292471 -0.20280252 -0.29031372 -0.93519461 0.0030492009
0.0077702133 -0.030118221 0.0051823794 -0.0080315527 -0.35098761 -0.9363457 0.0020908082
0.010636351 -0.029799202 0.0052642296 0.16579135 -0.40452644 -0.89937288 0.0026983568
0.012817049 -0.029423339 0.0055497414 0.32256657 -0.44769299 -0.83397955 0.0031939142
0.0028935182 -0.027404994 0.0052640638 -0.39641634 -0.24133305 -0.88578355 0.0026055935
0.004886956 -0.027687529 0.0046776184 -0.24892713 -0.27938426 -0.92735088 0.0029155449
0.0078001795 -0.027625417 0.0042109285 -0.056519818 -0.33685079 -0.93986017 0.002168745
0.010905575 -0.027698217 0.0043858993 0.15074287 -0.40902659 -0.89998549 0.0019670026
0.013810867 -0.027446881 0.0049300813 0.30522925 -0.43669161 -0.84624791 0.002183795
0.015850548 -0.026689641 0.0053369128 0.42582825 -0.45563954 -0.78170514 0.0022357975
0.0023589167 -0.024748048 0.0049496661 -0.47022575 -0.1907098 -0.86169457 0.0024598669
0.0048791217 -0.024764022 0.0038367463 -0.3128877 -0.26620355 -0.91172194 0.0040826923
0.0079172822 -0.024783898 0.0031446931 -0.13165624 -0.35803893 -0.9243781 0.0047201216
0.011146202 -0.024832921 0.0031467532 0.10496052 -0.41094527 -0.90559781 0.001419345
0.013961739 -0.02475412 0.0036592484 0.23519301 -0.41844764 -0.87726039 0.0015324107
0.016691284 -0.02463695 0.0046780775 0.42802942 -0.42946437 -0.79520512 0.0025577534
0.018570727 -0.023891715 0.0053599901 0.55285943 -0.43804875 -0.70884407 0.0023628997
0.0020816217 -0.02187545 0.0045710145 -0.53652424 -0.15499881 -0.82952827 0.0027629936
0.004711221 -0.021990471 0.0031578331 -0.34517705 -0.26606533 -0.90003449 0.0024938257
0.0068960795 -0.02290727 0.002663923 -0.17317326 -0.31994274 -0.93147612 0.0022639325
0.01446097 -0.02270023 0.0028055883 0.21755303 -0.43504608 -0.87373084 0.0017236546
0.016952839 -0.022035481 0.0034271306 0.36711442 -0.43726152 -0.82099295 0.0014193886
0.019361651 -0.021676805 0.0046544573 0.53363639 -0.41852131 -0.73489594 0.0033215233
0.00033452682 -0.018374287 0.0053917351 -0.68080062 -0.095236585 -0.72625101 0.0018786389
0.0019805948 -0.018832957 0.0041150548 -0.5943647 -0.16082406 -0.78795063 0.0025130049
0.0039956868 -0.01929879 0.002853076 -0.46190351 -0.19245687 -0.86579764 0.0026814004
0.017831834 -0.020011175 0.002782715 0.36245593 -0.41761625 -0.83320016 0.0026711102
0.020074897 -0.019010507 0.0036676191 0.54721206 -0.43017974 -0.7179864 0.0034784339
0.022041552 -0.018355643 0.0049533616 0.65243882 -0.4037284 -0.64134783 0.0026517252
0.00017473739 -0.015487024 0.005186792 -0.71058053 -0.097036108 -0.69689262 0.0018085719
0.0019379999 -0.015779626 0.0035777385 -0.63032526 -0.15081713 -0.76154071 0.0018044728
0.0036759402 -0.017299531 0.0025891787 -0.57508582 -0.20926075 -0.79087692 0.0026866884
0.02085796 -0.016568987 0.0028760857 0.57889062 -0.3879447 -0.71720606 0.00060354266
0.02284907 -0.01562133 0.0041734753 0.67713189 -0.38290483 -0.6283918 0.0029000561
9.5313881e-05 -0.012838055 0.0048328512 -0.75478029 -0.11431374 -0.64594042 0.0021800832
0.0014282636 -0.012896297 0.0033999793 -0.66916001 -0.1656678 -0.72441638 0.001801615
0.023585461 -0.013059222 0.0034748381 0.72581947 -0.34529883 -0.59494096 0.0013430939
0.024958996 -0.012417727 0.0047982386 0.76439971 -0.33105186 -0.55326098 0.0016936718
-0.00014404685 -0.0099549219 0.0045355787 -0.79903686 -0.12177828 -0.58882105 0.0024021652
0.0010927645 -0.010117646 0.0030506901 -0.70673877 -0.18224223 -0.68359935 0.0016820845
0.024200922 -0.010870143 0.0029245592 0.66941583 -0.33566293 -0.66273135 0.0010989123
0.025481628 -0.0098571051 0.0040934565 0.78110892 -0.30489013 -0.54489523 0.0018499177
-0.00038259913 -0.0068325987 0.0040301462 -0.8169511 -0.18414758 -0.5465169 0.0019545159
0.00081446016 -0.0080028614 0.0027445233 -0.73577285 -0.1999788 -0.64702916 0.0017531365
0.026348146 -0.0068910066 0.0038039358 0.82782078 -0.26438373 -0.49478683 0.00074474444
0.027695335 -0.0054170331 0.0054680831 0.88662374 -0.22128662 -0.40611646 0.000422916
-0.00096317916 -0.0038238589 0.0039173434 -0.86578739 -0.17157401 -0.47007927 0.0021480434
0.026924131 -0.0039533749 0.0032391874 0.84533137 -0.23807579 -0.47826225 0.001484594
0.027765606 -0.0034894317 0.0046454421 0.87591821 -0.20474148 -0.43686184 0.0019109654
-0.001638636 -0.00097167003 0.0040878463 -0.90205604 -0.18308187 -0.39086562 0.0020548713
0.027043171 -0.002038135 0.0025634891 0.82435155 -0.19173068 -0.53261977 0.0015444914
0.028015096 -0.00078276941 0.0039614947 0.89830315 -0.17147677 -0.40453339 0.001350739
-0.0021652661 0.0019631824 0.0037311073 -0.90535575 -0.22939183 -0.35736564 0.0018531797
0.028422229 0.0019538347 0.003816972 0.90738875 -0.14813027 -0.39332309 0.00080696429
-0.0030752022 0.0053097582 0.0042599305 -0.95188129 -0.20051458 -0.23176691 0.0015458864
-0.0025293832 0.0041667437 0.0033117062 -0.93328071 -0.21933866 -0.28439 0.0029935364
0.028799435 0.005127924 0.0039378465 0.94058841 -0.075443693 -0.33106154 0.0018728684
-0.003584042 0.0080898628 0.0036762306 -0.94303006 -0.25460729 -0.21417116 0.0018459392
0.02909686 0.0072946264 0.0048622168 0.94509268 -0.054810073 -0.32217357 0.0011537102
-0.0041999174 0.010851831 0.0031941957 -0.93602818 -0.27259305 -0.22258522 0.0014948155
-0.0049109012 0.01370524 0.0027749068 -0.92601097 -0.31458589 -0.20866099 0.00074163667
0.0027475851 -0.038322598 0.0084986221 -0.1233637 -0.29691246 -0.94690245 0.0043447488
0.007097167 -0.038322926 0.0085021984 0.1392751 -0.44614446 -0.88405746 0.0051634302
0.00013804334 -0.035798199 0.0083591342 -0.2982761 -0.23807789 -0.92431068 0.0025574823
0.0021490622 -0.036551379 0.0080487188 -0.21833685 -0.26474839 -0.93927485 0.0016013501
0.0048608305 -0.036931131 0.0078596864 -0.0074407253 -0.36267918 -0.93188441 0.0023587481
0.0077983029 -0.036665726 0.0078856107 0.12349903 -0.38719386 -0.91368973 0.002653254
0.010364865 -0.036009863 0.0081236605 0.29175922 -0.44249725 -0.84798157 0.0034161203
-0.00032703159 -0.033611741 0.0080817435 -0.40112102 -0.19111383 -0.89586687 0.0025060317
0.0020187697 -0.033633053 0.0072161281 -0.28490028 -0.26339406 -0.92165905 0.0038003232
0.0049612317 -0.033722322 0.006689847 -0.10099265 -0.33398953 -0.93715072 0.0023360064
0.0077418508 -0.033675082 0.0066073588 0.063744962 -0.38065207 -0.92251867 0.0018503024
0.010932745 -0.033625908 0.0071189296 0.22102906 -0.41722581 -0.88151503 0.0013634315
0.013688246 -0.033291895 0.0080103651 0.4301239 -0.46193779 -0.77563328 0.0027541476
-0.00063355826 -0.030778473 0.0077404655 -0.51169145 -0.13957372 -0.84775639 0.0032731071
0.0020165164 -0.030686719 0.0064385128 -0.34263688 -0.2274967 -0.91150707 0.0043834765
0.0046818946 -0.03122233 0.0058619683 -0.14593987 -0.31429517 -0.93804055 0.0021689301
0.0077793421 -0.031599477 0.0057643182 0.032364879 -0.38829172 -0.920968 0.0020309214
0.011080058 -0.031203227 0.0059963283 0.1923532 -0.43583587 -0.87923115 0.0022677639
0.014088791 -0.030745579 0.0067790053 0.34543255 -0.43961477 -0.82910502 0.0018467518
0.016417131 -0.030220801 0.0078156367 0.50548321 -0.47424012 -0.72082108 0.0027763634
-0.00087446615 -0.027869845 0.0075255265 -0.58119661 -0.10950308 -0.80636197 0.0033179405
0.0015750694 -0.027932914 0.0060112565 -0.4243176 -0.18405576 -0.88661039 0.004508839
0.014688437 -0.028666256 0.0058976798 0.33037004 -0.4358286 -0.83720315 0.0031784985
0.017039232 -0.027919577 0.0068125059 0.47543135 -0.44775683 -0.75728387 0.0015747873
0.018973771 -0.027230311 0.0078997407 0.60333681 -0.46316016 -0.64920527 0.0017680682
-0.00087337871 -0.024957547 0.0071980688 -0.61261183 -0.075050302 -0.78681272 0.0019554428
0.00097454665 -0.025118934 0.0058322144 -0.51864445 -0.13082904 -0.84492105 0.0025281501
0.017793644 -0.025766768 0.0059544914 0.48511371 -0.4529193 -0.7480166 0.0018976742
0.01975105 -0.024873365 0.0070281294 0.59276843 -0.45010418 -0.66785616 0.0017646998
0.021585448 -0.023812173 0.0082805287 0.6734333 -0.42608303 -0.60410321 0.00080262189
-0.00090195017 -0.021847956 0.0069507533 -0.67183048 -0.063136987 -0.73800915 0.0016798831
0.00081446016 -0.022946408 0.0056331581 -0.57852888 -0.10532735 -0.80883282 0.0020904324
0.020567289 -0.022535671 0.0061894706 0.63645136 -0.42597541 -0.64301986 0.00046907776
0.022208368 -0.021511784 0.0073454999 0.68893951 -0.41784543 -0.59225637 0.00099475007
-0.0010225335 -0.018767009 0.0068302141 -0.74561781 -0.036452744 -0.66537601 0.0025242397
0.023138776 -0.018910609 0.0066662752 0.71771348 -0.39556235 -0.57307756 0.0019670802
0.024594491 -0.017887054 0.0080904644 0.76292151 -0.36931753 -0.53061789 0.00053997507
-0.0012199141 -0.015870648 0.006897951 -0.80718553 -0.038427602 -0.5890457 0.0016845823
0.024239149 -0.016213473 0.0062495894 0.76679766 -0.36236677 -0.52982235 0.00052053161
0.025256651 -0.015570979 0.0074591418 0.78603023 -0.34679189 -0.5117538 0.00059219706
-0.0013531742 -0.01289901 0.0068222596 -0.84842658 -0.053675253 -0.52658445 0.0020895114
0.02603841 -0.012967321 0.0069824741 0.81470984 -0.31603417 -0.48617923 0.00070603803
-0.0016190528 -0.0099221673 0.0068516531 -0.8757804 -0.083243906 -0.47547781 0.0019578168
0.026969919 -0.010254271 0.006945916 0.85063905 -0.27602535 -0.4474631 0.00037709973
0.027846238 -0.0090728542 0.0079687741 0.90301371 -0.2464366 -0.35190243 0.0019796214
-0.0019748167 -0.0067558754 0.0069683413 -0.91734201 -0.080498807 -0.3898764 0.0039529153
0.027245153 -0.0078271022 0.0059715039 0.87311804 -0.24579073 -0.42101279 0.00095470482
0.028121378 -0.0066463677 0.0071979095 0.90297896 -0.20302887 -0.37869287 0.0014050677
-0.0023163385 -0.0037526453 0.006940315 -0.94806039 -0.082627743 -0.30717117 0.0017130241
0.028614527 -0.0038172591 0.0069082775 0.91526645 -0.18716818 -0.35672873 0.0006588265
-0.0030500027 0.0003401204 0.0082913171 -0.95780259 -0.13210551 -0.2552692 0.00061533478
-0.0025531084 -0.0008612785 0.0064569884 -0.94519836 -0.16254286 -0.28316042 0.0015242043
0.029066952 -0.0011031434 0.006910956 0.92145574 -0.16641176 -0.35103628 0.00051921455
-0.003038378 0.0020258739 0.0069428408 -0.95708752 -0.16387704 -0.23901428 0.0009622986
-0.0025463095 0.00082317134 0.0055556423 -0.95481628 -0.16170767 -0.24935216 0.0011486211
0.029174402 0.001784016 0.0060818619 0.91584498 -0.1470661 -0.37363023 0.00031901221
-0.0035194245 0.0058787554 0.0068853176 -0.96264827 -0.18111718 -0.20125832 0.00073044776
-0.0039874176 0.0089863548 0.0056278235 -0.94625783 -0.25215489 -0.20251939 0.0012743936
0.02914501 0.0080258707 0.0056195385 0.94509292 -0.0548083 -0.32217279 0.0011538377
-0.0027532494 -0.044583958 0.011490019 -0.1668635 -0.30999523 -0.93598056 0.0026299658
-0.00075248606 -0.044912338 0.011262067 -0.11694099 -0.35017657 -0.92935526 0.0022209135
0.0019256277 -0.045014471 0.011164607 0.031564195 -0.42972362 -0.90240854 0.0032328786
0.0044345008 -0.044669658 0.01126691 0.21192218 -0.4982653 -0.84072632 0.003536697
-0.0034302829 -0.042556956 0.011164369 -0.31380299 -0.22209981 -0.92314643 0.0018465755
-0.00088495878 -0.042625882 0.010519385 -0.19406858 -0.28214747 -0.93953717 0.0029688289
0.0020270301 -0.042590126 0.010147247 -0.050044127 -0.36216453 -0.9307698 0.0021538327
0.0049737152 -0.042639885 0.01030232 0.13698685 -0.43840468 -0.88827693 0.0042873728
0.0076528117 -0.042316969 0.010802943 0.29000694 -0.5042848 -0.81338358 0.0031397361
0.0097296713 -0.04164559 0.011284037 0.41713789 -0.52215153 -0.74387753 0.001329961
-0.0038905058 -0.039686505 0.010795556 -0.43362331 -0.1263811 -0.89218754 0.0056671975
-0.0008818811 -0.039636463 0.0096682236 -0.23510298 -0.27488357 -0.93229049 0.0014341708
0.0019671577 -0.039654668 0.0090792235 -0.16619629 -0.29997519 -0.93935806 0.0022811005
0.0048880763 -0.039866496 0.0090148561 0.044058282 -0.38979095 -0.91984886 0.0033435959
0.0078927586 -0.039680172 0.009358976 0.23908786 -0.47235459 -0.84836203 0.0012919207
0.010584136 -0.039515883 0.010301853 0.35191709 -0.49389926 -0.79512137 0.0020055224
0.012808788 -0.038887534 0.011255451 0.49448264 -0.5143683 -0.70065117 0.00048865488
-0.0041149361 -0.036854729 0.010594547 -0.49087471 -0.071291581 -0.86830848 0.0036548187
-0.0011363878 -0.036746528 0.0090892725 -0.33125097 -0.23890322 -0.9127968 0.003166049
0.00097558624 -0.03768931 0.0086273476 -0.21176952 -0.25923085 -0.9423126 0.0017146341
0.0090334052 -0.03785421 0.0086713266 0.18856913 -0.4746111 -0.85975927 0.0035288266
0.011154989 -0.037176576 0.0090789273 0.34130371 -0.4802182 -0.80802369 0.0026574796
0.013680043 -0.036654212 0.010263639 0.48252463 -0.50143504 -0.71814543 0.00157123
0.0158889 -0.035647228 0.011274291 0.56731468 -0.49699768 -0.65661806 0.00046542694
-0.0042123804 -0.033943292 0.010504857 -0.59103125 -0.069344781 -0.80366248 0.0033291487
-0.0019919581 -0.0338668 0.0089983586 -0.48222533 -0.11071982 -0.86902237 0.0031781197
0.014695057 -0.034361951 0.0093463399 0.48754913 -0.47634917 -0.73170161 0.0024317808
0.016739128 -0.033627532 0.010545159 0.57260591 -0.47124028 -0.67086154 0.00064623967
-0.0040703947 -0.030906228 0.01033121 -0.68286735 -0.014726113 -0.73039395 0.0025492106
-0.002329547 -0.0308579 0.0088671464 -0.61231995 -0.070959732 -0.78741926 0.002256654
0.017444553 -0.031305797 0.0094910879 0.58197844 -0.45948234 -0.67095238 0.0012317854
0.019389164 -0.030582162 0.010827225 0.63906419 -0.45571357 -0.61961448 0.00064189371
-0.0040541729 -0.02785114 0.010316141 -0.74344081 0.010962846 -0.66871196 0.0018556567
-0.0025712191 -0.02795515 0.0088579636 -0.67888886 -0.043908641 -0.73292691 0.0018990851
0.020169599 -0.02813396 0.0098972023 0.66742128 -0.44409609 -0.59776872 0.00041265556
0.021987917 -0.02687579 0.010969497 0.69057798 -0.4350374 -0.57779276 0.00021846106
-0.0037562365 -0.024767999 0.01006389 -0.7636342 0.033954352 -0.64475578 0.0025345369
-0.0025701476 -0.024803225 0.0087158848 -0.731435 -0.021412551 -0.68157494 0.0018979893
0.020947898 -0.025892355 0.0091414824 0.67024076 -0.44204149 -0.59613478 0.0011322668
0.022642514 -0.024535483 0.010138275 0.72490513 -0.41339043 -0.551018 0.00099345786
-0.0037636498 -0.021788727 0.010226667 -0.81001526 0.048013631 -0.58443993 0.002771755
-0.0025697704 -0.021657802 0.0086659174 -0.72567654 -0.01505583 -0.68787128 0.0021805787
0.023617927 -0.022012731 0.0096162725 0.75468308 -0.38792014 -0.52912331 0.00040459633
0.024886055 -0.021251531 0.010785053 0.80805939 -0.37248656 -0.45639202 0.0015857719
-0.003551855 -0.018822467 0.01016889 -0.85104489 0.068205401 -0.52064437 0.0028521295
-0.0025698352 -0.018757356 0.0086745098 -0.78288811 0.0054631913 -0.62213856 0.0015522605
0.024027038 -0.019971414 0.0087901484 0.7430011 -0.39301938 -0.54174262 0.00022253474
0.025473723 -0.018792031 0.01002389 0.80408758 -0.35321662 -0.47820613 0.00085890037
-0.0034564335 -0.016064268 0.010341991 -0.88832957 0.07911215 -0.45234045 0.0030477694
-0.002570644 -0.01586045 0.0087817237 -0.82677835 0.014346456 -0.56234485 0.00203765
0.026471784 -0.016019205 0.0097796284 0.83824992 -0.32329795 -0.43910769 0.00078011572
0.027544336 -0.014728754 0.011019541 0.86744499 -0.29197922 -0.4028489 0.0020370656
-0.0033125265 -0.013012973 0.010546697 -0.92025763 0.055220317 -0.38739738 0.0028721658
-0.0025713202 -0.012961796 0.0088713635 -0.90683651 -0.0028535575 -0.42147294 0.0034400926
0.027060708 -0.013207617 0.0089830663 0.87104172 -0.28758705 -0.39822108 0.0017008054
0.027791202 -0.012762022 0.010266243 0.88481915 -0.27149168 -0.37866539 0.0010716678
-0.003066364 -0.0098489197 0.010189205 -0.94439524 0.0026694266 -0.32880151 0.0015346265
-0.0025708303 -0.009816424 0.0088064335 -0.93367034 -0.025964318 -0.35719121 0.0031123108
0.028336406 -0.0098367594 0.0096628908 0.91659057 -0.23038462 -0.32677919 0.0010877687
-0.0030666359 -0.0066965166 0.010220774 -0.95050943 -0.05102409 -0.30647758 0.0010684922
-0.0025690964 -0.0078773936 0.008576585 -0.95292926 -0.032148782 -0.30148351 0.0014396056
0.028901564 -0.0069258744 0.0094073117 0.92255116 -0.21037851 -0.32348141 0.0013009363
-0.00306655 -0.0037855816 0.010210769 -0.96269703 -0.055761378 -0.26477376 0.00096880784
0.029394299 -0.0037793505 0.0095405709 0.92847681 -0.19544397 -0.31580463 0.0007170398
-0.0030570605 -0.0011131724 0.0091100037 -0.95825016 -0.10296516 -0.26674852 0.0010357911
-0.0064320518 -0.050783448 0.014386553 -0.23296992 -0.33508864 -0.91292971 0.0036535147
-0.0040796325 -0.051052518 0.014169078 -0.068605006 -0.45856047 -0.88601106 0.0039150417
-0.0010451121 -0.05095331 0.014157396 0.083401658 -0.53627908 -0.83991009 0.0037167945
0.001304158 -0.050582785 0.014344387 0.22915711 -0.58481443 -0.77812541 0.0022887425
-0.0089792553 -0.048145469 0.014441989 -0.36144891 -0.2172502 -0.90672874 0.0024471206
-0.007160374 -0.048728298 0.013933407 -0.27142939 -0.25180104 -0.92893612 0.0028516722
-0.0040691309 -0.048742071 0.013175987 -0.15835559 -0.35377312 -0.92182869 0.0039179344
-0.00089361006 -0.048712462 0.012903333 -0.013046392 -0.43241772 -0.90157902 0.0034218365
0.0020008953 -0.048716452 0.013256809 0.19014962 -0.52165627 -0.83169585 0.0042116875
0.0047023511 -0.048248794 0.013809232 0.31020111 -0.56721961 -0.76291358 0.0013566288
0.0069351476 -0.047652096 0.014407961 0.40132862 -0.58831906 -0.70200849 0.00098153716
-0.009324559 -0.045780893 0.01423631 -0.4826104 -0.10620254 -0.86937225 0.0023510009
-0.0072453907 -0.045822807 0.013282619 -0.36911827 -0.1877939 -0.91021156 0.0032557149
-0.0041589616 -0.045795441 0.012227071 -0.25909346 -0.29348013 -0.92018473 0.0042626681
-0.0010249132 -0.046377309 0.011838496 -0.054033723 -0.39924148 -0.91525221 0.0028744966
0.0021780897 -0.04651165 0.011933176 0.10355525 -0.47582921 -0.87342018 0.0033089565
0.0051293606 -0.046042692 0.012345755 0.2619049 -0.52924711 -0.80703372 0.001518452
0.0077910163 -0.045689087 0.013311682 0.37851307 -0.56223601 -0.73526764 0.0016304125
0.010110696 -0.044958036 0.014050487 0.47922647 -0.56959301 -0.66776174 0.0010214662
-0.0094621833 -0.042973917 0.014133001 -0.55776489 -0.012311322 -0.82990766 0.0025962999
-0.0072374651 -0.042848121 0.012827141 -0.44100115 -0.10083305 -0.89182436 0.0036357567
-0.0050585847 -0.042965397 0.011834575 -0.35715538 -0.16014077 -0.92021465 0.002369541
0.0084138801 -0.043651298 0.012064008 0.34608561 -0.52820861 -0.77538401 0.0015850987
0.010882803 -0.042926352 0.012997843 0.45092171 -0.54435527 -0.7073521 0.00069560914
0.013043974 -0.042224072 0.013963841 0.55206364 -0.54853094 -0.62796468 0.0010491997
-0.0092873313 -0.0400027 0.014133094 -0.6270147 0.070964918 -0.77576834 0.0026328948
-0.0072346879 -0.03990525 0.012659891 -0.54509425 0.0067704599 -0.83834732 0.0026685412
-0.0055121975 -0.040300164 0.011639608 -0.46950376 -0.06689398 -0.88039279 0.0033937015
0.01168883 -0.040726405 0.011863889 0.44637007 -0.52958328 -0.72131503 0.00052163017
0.013892216 -0.040074863 0.012947248 0.54048175 -0.5262779 -0.65643811 0.0016570637
0.0159264 -0.039239574 0.014019089 0.60973567 -0.528175 -0.59097677 0.00235975
-0.0089754425 -0.037112385 0.014265088 -0.68685579 0.13766207 -0.71363735 0.0020342269
-0.0072896155 -0.036903754 0.012843786 -0.63810492 0.069220915 -0.76683152 0.0031439043
0.014934474 -0.037544787 0.011856331 0.56544101 -0.50100094 -0.65519041 0.00045152596
0.016786883 -0.036859363 0.012940157 0.63376206 -0.49218294 -0.59674251 0.0014929625
0.01876023 -0.035884216 0.014205081 0.66834778 -0.49927405 -0.5513953 0.0021585959
-0.0071205338 -0.033881262 0.013088077 -0.7230804 0.13148925 -0.67813373 0.0023854123
-0.0055113928 -0.032995805 0.011582179 -0.66205865 0.033130199 -0.74871951 0.0034646252
0.017868312 -0.034551285 0.012180082 0.5981788 -0.48255342 -0.63978463 0.00031487559
0.019667955 -0.033463996 0.013263689 0.68953013 -0.47506514 -0.54668212 0.0024143835
-0.0067751678 -0.030789634 0.013229012 -0.77417147 0.12240875 -0.62102717 0.0031690213
-0.0055135321 -0.030816609 0.01173494 -0.70727575 0.052043892 -0.70501947 0.0018694041
0.020693433 -0.031045957 0.012542885 0.6952818 -0.46734124 -0.54605442 0.0025258958
0.022110591 -0.029968666 0.013579441 0.7490049 -0.43769577 -0.49740729 0.002362398
-0.006485397 -0.027828032 0.013377711 -0.8244487 0.12468102 -0.55203164 0.0025269021
-0.0055174315 -0.027670143 0.012013258 -0.76594728 0.064392008 -0.63967061 0.0017191024
0.022852099 -0.027814565 0.012873141 0.77659172 -0.4161343 -0.47300911 0.0032036474
-0.0062522776 -0.024953766 0.013692856 -0.85978222 0.14300101 -0.4902297 0.0022421505
-0.0052754041 -0.024753146 0.012110025 -0.81341434 0.085739702 -0.57533103 0.0017413751
0.023944212 -0.025286039 0.012420127 0.81223321 -0.387054 -0.43642458 0.0020806612
0.024914511 -0.024172653 0.013351146 0.81812942 -0.38678232 -0.42551574 0.0020098987
-0.0060359435 -0.022419004 0.014097502 -0.89274395 0.16884518 -0.41773152 0.0018926598
-0.0052259909 -0.021761332 0.012607167 -0.89011282 0.12215446 -0.43906429 0.004069014
0.025544848 -0.022004295 0.012664292 0.85234553 -0.35178643 -0.38697991 0.0020789895
-0.0049437797 -0.019084467 0.012815813 -0.9217236 0.14168505 -0.36104155 0.003748703
0.026666557 -0.019035555 0.012662526 0.87384576 -0.33319947 -0.35407859 0.00065888715
-0.0045559201 -0.015887255 0.01302946 -0.94458711 0.12602364 -0.30310592 0.0024734237
0.02711915 -0.017200394 0.012064589 0.86683232 -0.31732121 -0.38458943 0.0026572503
0.027626254 -0.015751991 0.012401674 0.89117765 -0.30395004 -0.33677411 0.0013554617
-0.0040680105 -0.012792279 0.013075633 -0.95463604 0.078902088 -0.28713143 0.0013255818
0.028291836 -0.013322189 0.012658648 0.92347234 -0.24466741 -0.29552779 0.0010674644
-0.0035733774 -0.0096579036 0.012448443 -0.94793248 0.0034116013 -0.31845301 0.0014572182
0.029067267 -0.0089191636 0.01205851 0.92630035 -0.21552214 -0.30905959 0.0010150558
-0.0070730466 -0.056361299 0.017489366 -0.0061039855 -0.60234857 -0.79820979 0.0028494159
-0.012381685 -0.053932399 0.0173312 -0.39652625 -0.28073484 -0.87404519 0.0024803397
-0.010131051 -0.054679818 0.01691132 -0.2330301 -0.40378496 -0.88467777 0.0045362907
-0.0071450239 -0.054804016 0.016473122 -0.10842403 -0.49510843 -0.86203939 0.0029863599
-0.0040082959 -0.05467407 0.016422894 0.10198575 -0.60289091 -0.7912783 0.0016280878
-0.0010763969 -0.054381732 0.016778229 0.20621344 -0.63955581 -0.74057037 0.0023943973
0.0016589283 -0.053713039 0.017132083 0.31874344 -0.65031922 -0.689556 0.0010221874
-0.012898035 -0.051582158 0.016982282 -0.42785123 -0.19385467 -0.88281578 0.0028026756
-0.010240388 -0.051992141 0.01594062 -0.28402689 -0.32139248 -0.90334696 0.002269814
-0.0074124495 -0.052065652 0.015141293 -0.21775904 -0.35063535 -0.91084355 0.0030515825
-0.0040886607 -0.052620988 0.015022604 0.00677532 -0.51050931 -0.85984552 0.0032141653
-0.00079733122 -0.052513927 0.015302764 0.14781322 -0.60224289 -0.78450924 0.0022670468
0.002050926 -0.051925998 0.015731577 0.26168728 -0.60731399 -0.75012642 0.00068541861
0.004725921 -0.051497035 0.016550431 0.37159231 -0.64588261 -0.66689932 0.001869026
0.0070938729 -0.050518777 0.017042799 0.47231966 -0.63861269 -0.60752618 0.0018190906
-0.012963645 -0.048726488 0.016638035 -0.51194096 -0.084052943 -0.85489857 0.0029455048
-0.010335411 -0.049036499 0.015259998 -0.3878687 -0.20179312 -0.89935392 0.0021234073
-0.0083304439 -0.04996359 0.014644785 -0.26578096 -0.25138301 -0.93068099 0.0027057331
0.0032642714 -0.050132915 0.014698548 0.29720473 -0.61038798 -0.73423153 0.0017729138
0.0053217113 -0.049673408 0.015246537 0.33449051 -0.60067254 -0.72616017 0.00082398369
0.0078897197 -0.048778653 0.01593565 0.42882752 -0.60206044 -0.6735208 0.0010014824
0.010291817 -0.047854856 0.016884344 0.56072801 -0.61610967 -0.55316633 0.0022212272
-0.01292931 -0.045721728 0.01654546 -0.60159534 0.045466967 -0.79750597 0.0014346273
-0.010806256 -0.046020646 0.015104977 -0.52117002 -0.040795483 -0.85247731 0.0022207331
0.0087811789 -0.04709873 0.014965026 0.44498414 -0.60388613 -0.6612947 0.00055549463
0.010999387 -0.046063103 0.015719721 0.50321966 -0.58607024 -0.6350525 0.0014479652
0.013115885 -0.044936981 0.016628064 0.59517628 -0.58831537 -0.54740316 0.0016875805
-0.012685263 -0.042776171 0.016631929 -0.64968055 0.11786972 -0.75101393 0.0029707504
-0.010933043 -0.042756639 0.0151882 -0.6195507 0.050640192 -0.78332144 0.0019926478
0.012089887 -0.044278502 0.014952553 0.56311542 -0.58218914 -0.58647835 0.0020031761
0.014150897 -0.042984359 0.015710101 0.61470586 -0.56301713 -0.55240244 0.0037637178
0.015904447 -0.041821647 0.016639782 0.67927635 -0.55954772 -0.47485793 0.0020072337
-0.012327664 -0.040041562 0.016912811 -0.70336205 0.20075029 -0.68189526 0.0021847037
-0.01071879 -0.039663401 0.015429771 -0.65251118 0.1288908 -0.74673712 0.0017302182
0.016997192 -0.039755046 0.015841277 0.68282974 -0.55464184 -0.47551653 0.0048008417
0.01854174 -0.038570777 0.016983462 0.74473929 -0.53531379 -0.39850038 0.0018359097
-0.011997911 -0.037860259 0.017316682 -0.7480616 0.2905367 -0.5966509 0.0020152861
-0.010402983 -0.036755007 0.015867123 -0.72971874 0.2327452 -0.64291549 0.0029298798
0.01796926 -0.037652746 0.014860822 0.69699329 -0.50441551 -0.50967175 0.0059238262
0.019275196 -0.036694422 0.015976287 0.75423634 -0.51152873 -0.41166237 0.0037208397
-0.0097959582 -0.033995312 0.016179558 -0.78388387 0.25257331 -0.56721485 0.00365136
-0.0084974142 -0.032993507 0.014825139 -0.74459606 0.17854731 -0.64319324 0.0021476068
0.020694634 -0.034151569 0.015537573 0.78712839 -0.47655958 -0.39156067 0.0011639199
0.021629259 -0.033103243 0.016298655 0.81032044 -0.45686701 -0.36695132 0.0021163234
-0.0092986943 -0.031215632 0.016795183 -0.82941347 0.27957082 -0.48364601 0.0026524244
-0.0082852719 -0.030712573 0.015347883 -0.83510864 0.18839598 -0.51681763 0.0033434187
0.022537373 -0.030901244 0.015572576 0.8344205 -0.43136024 -0.34303162 0.0017704375
-0.0090457378 -0.029250426 0.017526789 -0.90473551 0.25276774 -0.34287336 0.0051598446
-0.0079126582 -0.027956529 0.015867393 -0.87859994 0.19134331 -0.43754983 0.003296935
0.023981797 -0.027940469 0.015509291 0.82970262 -0.42724767 -0.35923946 0.002445454
0.024458818 -0.027747093 0.017137839 0.86009961 -0.40991363 -0.30364361 0.00057714252
-0.0073280418 -0.025111426 0.015954727 -0.92002577 0.20160815 -0.33601612 0.0028224003
0.025027608 -0.025517199 0.015483432 0.84536999 -0.39019626 -0.36482388 0.0027611691
-0.0065968493 -0.021900453 0.015965905 -0.93425089 0.20356576 -0.29280758 0.0021113395
0.026050219 -0.022452934 0.014749167 0.85020596 -0.36088645 -0.38328922 0.0019407761
-0.0060673952 -0.019329611 0.016182287 -0.94352216 0.19039987 -0.27113423 0.0012423919
-0.0055621732 -0.018060839 0.01520711 -0.9478144 0.18134023 -0.26222813 0.0014881286
0.026787456 -0.020249261 0.014786078 0.87694979 -0.33790547 -0.34172958 0.000698046
-0.0055835545 -0.016894413 0.016733421 -0.95498049 0.18888518 -0.22876735 0.00077185186
-0.0050812913 -0.015389287 0.015951646 -0.94815385 0.16178209 -0.27355212 0.0013163023
-0.004581105 -0.013401492 0.015203072 -0.95211947 0.13273785 -0.27540728 0.0014264354
-0.012084624 -0.059703045 0.020409785 -0.13234432 -0.62236094 -0.77146089 0.0043790573
-0.0098501118 -0.059692256 0.020327691 -0.019724334 -0.65153956 -0.75835818 0.0045807878
-0.0078681419 -0.05970706 0.020440323 0.10402739 -0.72127664 -0.68479073 0.0023510414
-0.015917694 -0.057428602 0.020076856 -0.36821005 -0.38883892 -0.84452689 0.0070489459
-0.013293584 -0.057835646 0.019376241 -0.23846787 -0.50639415 -0.82867247 0.0059870505
-0.010175564 -0.057816613 0.018778518 -0.11424131 -0.55567306 -0.82351458 0.0047944118
-0.0069577033 -0.057974111 0.018886093 0.045164522 -0.65890056 -0.75087297 0.0049765115
-0.0039664516 -0.057557147 0.019000338 0.17640282 -0.72400862 -0.66685343 0.0022978666
-0.0011073651 -0.057105724 0.019480301 0.2969979 -0.73062497 -0.61480027 0.0014778001
0.0010624481 -0.056687474 0.020098848 0.38205948 -0.73525453 -0.55984944 0.0017199997
-0.0180356 -0.054486968 0.020351907 -0.52132386 -0.16822478 -0.83661336 0.003584407
-0.016265275 -0.054869138 0.019410113 -0.44806767 -0.23650819 -0.86214805 0.0034339267
-0.013539314 -0.054945212 0.018153174 -0.38823968 -0.27032092 -0.88102013 0.0025694517
-0.011144302 -0.05576501 0.017650357 -0.22016728 -0.39039725 -0.89393306 0.0041846521
-0.0026375316 -0.055888131 0.017649068 0.18217726 -0.66144192 -0.72753429 0.0031599982
-0.00062133244 -0.055678774 0.018131506 0.24315451 -0.67387778 -0.69768518 0.0013061819
0.0021593787 -0.055041283 0.018786212 0.34552884 -0.70852774 -0.61530334 0.0013288829
0.0046331901 -0.054080304 0.019319069 0.45727393 -0.71136951 -0.53371698 0.002244222
-0.018199051 -0.052083779 0.020303752 -0.61095661 0.0025803929 -0.79165989 0.0026766099
-0.016248269 -0.051845577 0.018947877 -0.5580194 -0.045788996 -0.82856369 0.0010331222
-0.01431292 -0.051958203 0.017780092 -0.47516537 -0.12613095 -0.87080938 0.0023352192
0.0055554714 -0.052656785 0.018270243 0.40546393 -0.68424201 -0.60614508 0.0020098591
0.0078387884 -0.051609151 0.019038662 0.52799785 -0.69875705 -0.48265594 0.0028778911
0.0097365202 -0.050726488 0.019995345 0.59792078 -0.66933638 -0.44099844 0.001708325
-0.018035496 -0.049525965 0.020349367 -0.67095768 0.12851836 -0.73027313 0.0024070009
-0.016248783 -0.048878979 0.018956011 -0.6106205 0.030928774 -0.79131919 0.0016446777
-0.014471542 -0.04873307 0.017607484 -0.5805046 -0.010378133 -0.81419086 0.0017757402
0.0090390444 -0.049840022 0.017955316 0.52604139 -0.64115757 -0.55874628 0.00064579997
0.010879054 -0.048887312 0.018894449 0.63695866 -0.65889019 -0.40018424 0.0014117685
0.012711518 -0.047756463 0.020033194 0.67750466 -0.64893186 -0.34622943 0.0027035973
-0.016074138 -0.046040185 0.019198379 -0.68510228 0.13806796 -0.71524268 0.0014090118
-0.014476839 -0.045790438 0.017766062 -0.6626848 0.091147989 -0.7433309 0.0021106657
0.012166008 -0.047050744 0.018023891 0.64057642 -0.62018365 -0.45280692 0.0025030766
0.01375023 -0.045972995 0.018994106 0.70693147 -0.61453235 -0.35013968 0.00085425982
-0.015601438 -0.04307472 0.019546445 -0.75221878 0.24531369 -0.61154556 0.0025798443
-0.014183544 -0.042765137 0.018073687 -0.71931577 0.18210457 -0.67039001 0.0019310107
0.015130425 -0.043852784 0.018124459 0.71381903 -0.59548312 -0.36859491 0.0011342615
0.016314708 -0.042873628 0.019075235 0.71629751 -0.5903914 -0.37196234 0.0011418773
-0.015149229 -0.040622424 0.020082403 -0.7716713 0.31832567 -0.55062884 0.0021640151
-0.01378939 -0.039751779 0.018742843 -0.7607227 0.2584098 -0.59542024 0.0019222915
0.017726129 -0.04081174 0.018888468 0.7659927 -0.54467148 -0.34145021 0.00044054232
0.018993521 -0.038996175 0.019053688 0.77569282 -0.52839613 -0.34510592 0.00049045798
-0.012831088 -0.036963832 0.018947363 -0.78473485 0.31010973 -0.53667784 0.0015634656
-0.01151536 -0.035673097 0.017696513 -0.78224087 0.28169921 -0.55564815 0.0027554419
0.020079613 -0.036965817 0.018421603 0.79042679 -0.50540686 -0.34610596 0.00063935469
-0.012131502 -0.034173287 0.019872991 -0.82353181 0.36393744 -0.43513784 0.0024503847
-0.011197382 -0.03357644 0.018581927 -0.83342987 0.33405036 -0.44023308 0.0040677674
0.02106066 -0.035224944 0.018269075 0.8159917 -0.47876087 -0.32395315 0.0013688881
0.021782551 -0.033712536 0.01785828 0.80768657 -0.46839431 -0.35811898 0.0020148852
-0.010255141 -0.030806778 0.019101236 -0.87841105 0.37255725 -0.29932442 0.0024460279
0.023032743 -0.031268477 0.018195443 0.8333903 -0.43610564 -0.33951813 0.0017773292
-0.0091422545 -0.027870888 0.019127017 -0.91624016 0.29863417 -0.26706105 0.0027827232
-0.0085642012 -0.027065856 0.018087162 -0.91722888 0.3091763 -0.25119942 0.002518388
-0.0085963551 -0.025923355 0.019657625 -0.93294096 0.29527032 -0.20600146 0.0012990541
-0.0078784516 -0.024366045 0.018357547 -0.93969929 0.2626746 -0.21901447 0.0025463591
-0.007261279 -0.022085272 0.018841658 -0.94489551 0.24318503 -0.21916568 0.0013651091
-0.0065974845 -0.019930257 0.018565906 -0.95217049 0.21474461 -0.21738458 0.00088610058
-0.020823441 -0.059762858 0.023396783 -0.36311263 -0.47801813 -0.79977983 0.0077556325
-0.01871608 -0.060302354 0.022752358 -0.34502617 -0.50634998 -0.7902953 0.0059122071
-0.015843822 -0.060812771 0.02218114 -0.24077174 -0.59251475 -0.76873612 0.0060769022
-0.012954 -0.060998112 0.021840256 -0.079188623 -0.73399895 -0.67451817 0.0077722156
-0.0098891445 -0.061160408 0.02202007 0.050913926 -0.78637993 -0.61564136 0.0031584732
-0.0068998989 -0.060642995 0.021874497 0.16361515 -0.81345195 -0.55814517 0.002677008
-0.00400085 -0.060183041 0.022288563 0.25216773 -0.81099337 -0.52792168 0.0021691106
-0.0015785387 -0.059610963 0.022743089 0.36725169 -0.81097084 -0.45546958 0.0015358179
-0.02121566 -0.057625566 0.022981063 -0.521258 -0.19407929 -0.83103752 0.0045734281
-0.019088825 -0.057770021 0.021756127 -0.47787091 -0.23551297 -0.84627008 0.0024410961
-0.016644543 -0.058544923 0.020898795 -0.40729362 -0.38866761 -0.82646799 0.0068497132
-0.0037789459 -0.059140176 0.020849807 0.21715391 -0.78767508 -0.57655191 0.0021219635
-0.00067718769 -0.058527 0.021648781 0.3634288 -0.8052392 -0.46851832 0.0013017592
0.0019348759 -0.057489257 0.02202736 0.40553665 -0.78855419 -0.46230111 0.001793036
0.0039728484 -0.056692455 0.022796316 0.5109728 -0.76140374 -0.39896265 0.0017777564
-0.02134541 -0.054835428 0.022801079 -0.62688011 -0.0088237477 -0.77906579 0.0037554947
-0.019224934 -0.054879852 0.021224706 -0.54827476 -0.09706495 -0.83064622 0.0047283131
0.0028006253 -0.056279063 0.020803882 0.39390165 -0.74438035 -0.53920263 0.0016621946
0.005216294 -0.055284001 0.021727746 0.53377384 -0.75118363 -0.38834089 0.00089661439
0.0074578449 -0.053896222 0.022347344 0.56615573 -0.72552258 -0.39126045 0.00084226223
-0.021066003 -0.051913526 0.022800909 -0.68836516 0.12698555 -0.71416247 0.0034417191
-0.019408641 -0.051732756 0.021314925 -0.64389873 0.061648488 -0.76262295 0.0019743305
0.0084914835 -0.052696306 0.021718306 0.57526588 -0.70382184 -0.41677812 0.0015340995
0.010418303 -0.051107686 0.022125214 0.65945232 -0.67794895 -0.3248198 0.0014433776
-0.020789875 -0.049301378 0.023186319 -0.73346329 0.25587672 -0.62972903 0.002509159
-0.019173108 -0.048654448 0.021642411 -0.70399129 0.169862 -0.68959635 0.0015970856
0.011760029 -0.049551547 0.02171596 0.69166565 -0.65262026 -0.30933046 0.00087736675
0.013256771 -0.047949228 0.021861179 0.6986025 -0.64525247 -0.30919862 0.00084827817
-0.018764067 -0.045846887 0.0222557 -0.764732 0.31325564 -0.56307715 0.0021701474
-0.017392013 -0.045272097 0.020801667 -0.71819884 0.21929847 -0.66037774 0.0022311553
0.014619467 -0.046189558 0.021677887 0.72536534 -0.62291408 -0.29295596 0.00062987901
-0.017906416 -0.043099601 0.022727979 -0.78927803 0.38652828 -0.4771122 0.0022572766
-0.016738195 -0.042426322 0.021346701 -0.78314215 0.32046789 -0.53290588 0.0049788319
0.016210029 -0.043873638 0.020887418 0.72366852 -0.59796572 -0.34458801 0.0007044606
-0.015934661 -0.039818179 0.021943353 -0.81220341 0.36647525 -0.45389605 0.0023017169
-0.014574008 -0.038392574 0.020674808 -0.8040604 0.40907887 -0.43144101 0.0034024122
-0.014942143 -0.03747724 0.022362521 -0.82355595 0.4420211 -0.3554897 0.0025817764
-0.013825006 -0.036188524 0.021396143 -0.8189612 0.45396295 -0.35102734 0.0026222982
-0.012876127 -0.033925053 0.021994764 -0.83632302 0.44368392 -0.32203776 0.0022390196
-0.011800775 -0.031875987 0.022117419 -0.86264473 0.44448689 -0.24140321 0.003555008
-0.01088341 -0.030287867 0.021957053 -0.88283962 0.41785491 -0.21445622 0.0037069754
-0.0097375996 -0.027945736 0.021915246 -0.90934074 0.36849415 -0.19316204 0.0010832815
-0.0086257095 -0.025509922 0.021091355 -0.93294197 0.2952669 -0.20600188 0.0012997204
-0.0081351548 -0.024036838 0.021415962 -0.93682194 0.28602013 -0.20138784 0.0012456801
-0.023814434 -0.062508285 0.0264547 -0.32119226 -0.61520296 -0.71997279 0.0053373924
-0.021828339 -0.062737077 0.025920145 -0.25527924 -0.66531396 -0.70156246 0.0082863588
-0.018995907 -0.063120231 0.025419604 -0.19970551 -0.74213499 -0.6398074 0.0047741383
-0.015902152 -0.063302062 0.025129812 -0.070889346 -0.79521835 -0.6021648 0.0065201665
-0.013110376 -0.063189566 0.024826711 0.011826159 -0.84854096 -0.52899748 0.0031365389
-0.010072184 -0.063041411 0.025010647 0.12261084 -0.87157595 -0.47468096 0.0031989389
-0.0071132239 -0.062802687 0.025666529 0.23019908 -0.89423215 -0.38387153 0.0022557322
-0.0052139219 -0.062474817 0.026208414 0.28846809 -0.8740887 -0.3908388 0.0023736611
-0.024843281 -0.0605321 0.025895758 -0.45031321 -0.27831787 -0.84838498 0.015839668
-0.022037689 -0.060901649 0.024626818 -0.35886288 -0.4598071 -0.81227762 0.0074361572
-0.019273989 -0.061858915 0.024126483 -0.22653212 -0.71791011 -0.65824634 0.0078890864
-0.01692122 -0.062125854 0.023638351 -0.13579394 -0.7163226 -0.68442816 0.0055762813
-0.0068311365 -0.062058285 0.024192194 0.19853851 -0.87745601 -0.43663886 0.0021818792
-0.0038041568 -0.061448604 0.024796193 0.31569234 -0.87512517 -0.36673465 0.00064705336
-0.00093798898 -0.060282536 0.024817003 0.37799755 -0.8525762 -0.36087626 0.0011557972
0.0013158931 -0.059348807 0.025343431 0.44078669 -0.82670331 -0.34966934 0.0010039356
