# .PCD v0.7 - Point Cloud Data file format
VERSION 0.7
FIELDS x y z normal_x normal_y normal_z curvature
SIZE 4 4 4 4 4 4 4
TYPE F F F F F F F
COUNT 1 1 1 1 1 1 1
WIDTH 553
HEIGHT 1
VIEWPOINT 0 0 0 1 0 0 0
POINTS 553
DATA ascii
-0.034072753 -0.015641965 -0.050297391 -0.33436891 0.80345869 -0.49259678 0.0062631024
-0.017144565 -0.01645723 -0.050202888 0.37497538 0.20115165 -0.90494841 0.0021005021
-0.01483916 -0.016813647 -0.049296517 0.40809697 0.17250352 -0.89649284 0.0029081185
-0.012312592 -0.016901966 -0.048065752 0.4483341 0.12703839 -0.88479251 0.0025431255
-0.034917712 -0.014892266 -0.047895651 -0.42534575 0.8224951 -0.37760136 0.0059247655
-0.032790471 -0.014313195 -0.049115557 -0.38834575 0.77744406 -0.49474052 0.0054794317
-0.029930227 -0.013299669 -0.049440872 -0.24593663 0.73994082 -0.6261012 0.0045827869
-0.026940316 -0.012881236 -0.049886074 -0.11472195 0.68770415 -0.71686953 0.0034425945
-0.02383408 -0.012817029 -0.050015364 0.014932944 0.61456472 -0.78872508 0.0027336746
-0.020903647 -0.013186154 -0.049926884 0.13405287 0.5036931 -0.85341853 0.0026270377
-0.017905425 -0.01377562 -0.049479324 0.29780439 0.3658722 -0.88173133 0.0015394643
-0.014920256 -0.01371512 -0.048406474 0.31794319 0.36424476 -0.87535012 0.0015066151
-0.012883364 -0.014431125 -0.047805138 0.40364152 0.29783803 -0.86508161 0.0015582128
-0.029130097 -0.011826295 -0.048045114 -0.37825519 0.75002789 -0.54256916 0.0052411933
-0.026846454 -0.011404851 -0.048421875 -0.1974092 0.74825746 -0.63335633 0.0049895337
-0.02396258 -0.01105017 -0.04855166 -0.058011595 0.68977451 -0.72169644 0.0047170441
-0.021061357 -0.010917836 -0.048393779 0.083152443 0.60769492 -0.78980535 0.0037705845
-0.018050492 -0.01127936 -0.048157681 0.19830111 0.53795946 -0.81931454 0.0023351174
-0.015664054 -0.011711874 -0.047755003 0.29362938 0.46476611 -0.83532888 0.0017773585
-0.031858224 -0.030404136 -0.047043499 0.020463895 -0.89039999 -0.45471868 0.0016117749
-0.030011993 -0.03067892 -0.04656614 0.02308061 -0.9065491 -0.42146885 0.0029822935
-0.026843 -0.031107575 -0.045821786 0.046936765 -0.90607834 -0.42049852 0.0024800699
-0.023890764 -0.030860636 -0.046296474 0.081166998 -0.88849491 -0.45165119 0.0044311304
-0.02095785 -0.030883625 -0.045635592 0.13887076 -0.84628767 -0.51430744 0.0044658501
-0.018188793 -0.030677758 -0.045032725 0.21317069 -0.82475305 -0.52377534 0.0028191188
-0.020530619 -0.029885985 -0.047137208 0.17949142 -0.79921323 -0.57362092 0.0056596841
-0.01765286 -0.029462323 -0.046563167 0.25043321 -0.7795561 -0.57408667 0.0011728859
-0.014970683 -0.028744038 -0.046083976 0.32795146 -0.70312887 -0.63091803 0.0052146595
-0.012344926 -0.028025839 -0.045395099 0.39552355 -0.64497274 -0.6538893 0.0052782195
-0.010380119 -0.027640268 -0.044526678 0.42775735 -0.6519658 -0.62607056 0.0027361836
-0.042104892 -0.024542511 -0.047095697 -0.95499611 -0.10876168 -0.2759591 0.0013692448
-0.013783014 -0.026898146 -0.047335438 0.47360647 -0.38198927 -0.79358751 0.010747355
-0.011810846 -0.025940087 -0.046737365 0.43131062 -0.38880101 -0.8141284 0.012146667
-0.0093072746 -0.02561428 -0.045469902 0.4694286 -0.39656672 -0.78890532 0.012544282
-0.0072881738 -0.024823498 -0.044678956 0.53000355 -0.41053301 -0.74199659 0.013454139
-0.04206115 -0.024101585 -0.047489803 -0.95342028 -0.09587016 -0.28600481 0.0015313493
-0.011417029 -0.023029383 -0.047062408 0.49646333 -0.14141935 -0.85646057 0.00025249523
-0.0090359729 -0.022845257 -0.045730345 0.49636662 -0.10871885 -0.86127841 0.001412306
-0.0071748346 -0.023108479 -0.044728592 0.56363136 -0.13310219 -0.81523222 0.0070088934
-0.010870403 -0.020159857 -0.04727529 0.514714 -0.059785195 -0.85527498 0.0012485026
-0.0091200778 -0.019689698 -0.04618134 0.52828109 -0.049806248 -0.84760749 0.0009925809
-0.0071840845 -0.019442517 -0.044859618 0.56524736 -0.034492623 -0.82420003 0.00066998316
-0.035791129 -0.015323714 -0.047491591 -0.41931444 0.83054829 -0.36655831 0.0024762684
-0.010969369 -0.016418591 -0.047271028 0.49603698 0.10200141 -0.86228949 0.0019935661
-0.0090724966 -0.016626649 -0.046188258 0.51527882 0.085898563 -0.85270703 0.0024624246
-0.0070476606 -0.016787164 -0.044873297 0.57569396 0.052296184 -0.81599116 0.0020766112
-0.034548588 -0.014491783 -0.047366899 -0.48455331 0.81571496 -0.31593862 0.0022424154
-0.032910582 -0.013171135 -0.04644068 -0.45589343 0.81084102 -0.36701241 0.0044752345
-0.031207107 -0.012402312 -0.047324698 -0.4683246 0.78449422 -0.40649822 0.005519351
-0.01364226 -0.012401045 -0.047372263 0.30580226 0.44119275 -0.8437025 0.0017324837
-0.011775054 -0.013490753 -0.046920296 0.40313295 0.31601757 -0.85884613 0.0022276887
-0.0091144219 -0.013735009 -0.045587763 0.49652335 0.24240896 -0.83348817 0.0012384071
-0.0073436815 -0.014493416 -0.044709399 0.53196293 0.23151758 -0.81450301 0.0020118125
-0.031788744 -0.012034447 -0.045379829 -0.4611662 0.80930626 -0.36379826 0.0041497559
-0.029875569 -0.011173988 -0.046187412 -0.4356634 0.80759126 -0.39748418 0.0061469078
-0.027145892 -0.010038758 -0.046422087 -0.30711994 0.82123554 -0.4808841 0.0072846296
-0.024289712 -0.0096544409 -0.047063373 -0.12074675 0.73226577 -0.67022914 0.002961915
-0.020716976 -0.0095607489 -0.047221333 0.01915675 0.7036224 -0.71031582 0.0025288207
-0.017638821 -0.0098759076 -0.047089048 0.14271982 0.62751615 -0.76541132 0.0017405036
-0.014768521 -0.010547774 -0.0467517 0.24349296 0.52584547 -0.81498325 0.0021650433
-0.01202138 -0.010763058 -0.045804624 0.36673188 0.45407987 -0.81198472 0.0022745219
-0.0096655209 -0.011343447 -0.044978626 0.43425643 0.38789442 -0.812994 0.0017967878
-0.026181106 -0.0089382203 -0.045193486 -0.3229287 0.80510521 -0.49751648 0.0062050461
-0.023638532 -0.0084885135 -0.045694325 -0.20012504 0.80425608 -0.55957317 0.0052799378
-0.020801902 -0.0082087796 -0.04582582 -0.018571489 0.74418926 -0.66771048 0.0022922792
-0.017972508 -0.0081176925 -0.045629814 0.056160431 0.70060807 -0.71133274 0.0022509345
-0.015062585 -0.0083613126 -0.045298114 0.20689887 0.61969954 -0.75707674 0.0023144276
-0.012544491 -0.0088215265 -0.044858001 0.32270175 0.54430562 -0.77433515 0.0016132982
-0.02660406 -0.031798866 -0.043386452 0.0031274403 -0.94363999 -0.33095884 0.00056572416
-0.023703028 -0.032043487 -0.043257773 0.054199375 -0.93288273 -0.35607901 0.0017796952
-0.020946071 -0.03209167 -0.042878352 0.075854622 -0.92777699 -0.36534351 0.0018972452
-0.017887084 -0.0316061 -0.043145761 0.16901013 -0.89794642 -0.40635934 0.0026566759
-0.015219365 -0.031059463 -0.042915896 0.25037199 -0.85175002 -0.46025631 0.0026426269
-0.012648927 -0.030543897 -0.042248137 0.35187203 -0.78827041 -0.50479281 0.0020059648
-0.014260311 -0.030063059 -0.044025861 0.29363003 -0.80770725 -0.51126349 0.0016298596
-0.011727943 -0.029299244 -0.043456316 0.38780808 -0.74981648 -0.53607851 0.0014430668
-0.0090289414 -0.028271794 -0.042772755 0.46034133 -0.68186229 -0.56846249 0.0022550623
-0.0069224956 -0.027528506 -0.041928243 0.51355165 -0.62964565 -0.58293319 0.0011770893
-0.0082528843 -0.026660562 -0.043922402 0.44035694 -0.4755522 -0.76153517 0.013700289
-0.005893751 -0.025538612 -0.042969935 0.57904941 -0.45955324 -0.67343342 0.010575078
-0.0038143857 -0.024707653 -0.041830014 0.57307041 -0.4656851 -0.674335 0.0065748952
-0.0056039174 -0.022522967 -0.043673381 0.58874935 -0.061689682 -0.80595815 0.0050739599
-0.0033396811 -0.022637952 -0.042248286 0.59911799 -0.11465852 -0.79240841 0.014188628
-0.0055627609 -0.019745197 -0.043491468 0.62236112 -0.0041073277 -0.78271943 0.0020799567
-0.0037418087 -0.019682441 -0.041982356 0.62526608 0.022158433 -0.78009701 0.0020070164
-0.0054079955 -0.016666174 -0.043634675 0.61779219 0.024203939 -0.78596878 0.0014867843
-0.003595378 -0.016760908 -0.042144313 0.63225996 0.012609904 -0.77465367 0.0013682682
-0.033128772 -0.012900383 -0.04447205 -0.50797927 0.81229174 -0.28659922 0.0011131905
-0.0078548342 -0.012479843 -0.044446569 0.51420301 0.24760298 -0.82115042 0.001267762
-0.0058385781 -0.013698494 -0.043464333 0.57773089 0.17714296 -0.79677308 0.0011625253
-0.0037421228 -0.013959784 -0.041958623 0.60838699 0.17915627 -0.77315474 0.0022703914
-0.029828623 -0.010271171 -0.043582551 -0.47653151 0.82993531 -0.29004335 0.0019269143
-0.0084876176 -0.010422744 -0.043874003 0.46974686 0.36297768 -0.80472666 0.0016032401
-0.0059396042 -0.010968169 -0.042575918 0.53187966 0.33715698 -0.77680701 0.0014123062
-0.0040988643 -0.011917354 -0.041704606 0.55749154 0.30553019 -0.77191609 0.001300631
-0.026677396 -0.0083527779 -0.043138288 -0.42118362 0.84917712 -0.31859478 0.0028809092
-0.023936238 -0.007195483 -0.043298542 -0.34928071 0.86962599 -0.34893206 0.003449098
-0.021038532 -0.0067822291 -0.043970663 -0.12496752 0.83558595 -0.53495711 0.0039725206
-0.017726053 -0.0067117568 -0.044167668 0.016334176 0.73920077 -0.67328697 0.0029342875
-0.014893184 -0.006938383 -0.044018343 0.14450219 0.70552284 -0.69379866 0.0020233851
-0.011895074 -0.0075132395 -0.043610193 0.25462893 0.61774069 -0.74401653 0.0020020078
-0.0090136426 -0.0079875058 -0.042694103 0.35667676 0.5346961 -0.76608211 0.001387347
-0.0066408627 -0.0087326951 -0.04187011 0.46218053 0.46150526 -0.7572332 0.0021100421
-0.02297011 -0.0061891386 -0.04181717 -0.36445454 0.88227379 -0.29793608 0.0041481447
-0.020783752 -0.0058636088 -0.042529192 -0.20121959 0.85465121 -0.47862521 0.0047814841
-0.018003277 -0.0055676885 -0.042694643 -0.063483119 0.8184278 -0.57109171 0.0046753646
-0.015092549 -0.0055453312 -0.042581618 0.084850021 0.75530565 -0.64985675 0.0039793262
-0.012144907 -0.0057264729 -0.042119354 0.21643965 0.67780399 -0.70266318 0.0023870459
-0.0098254485 -0.0061901966 -0.041718911 0.32543978 0.62373817 -0.71066141 0.002049082
-0.023653653 -0.032542482 -0.041056912 0.03210412 -0.94641012 -0.32136765 0.00065375475
-0.019763932 -0.032940786 -0.039597116 0.096996218 -0.94538069 -0.31120268 0.0014910494
-0.018121276 -0.032683007 -0.040348001 0.14160088 -0.93167305 -0.33456618 0.0010847538
-0.014866647 -0.032176282 -0.040295467 0.21138808 -0.91017008 -0.35623804 0.0020569919
-0.011786734 -0.031339701 -0.040099636 0.31447375 -0.85354549 -0.41541097 0.00099691388
-0.0094856899 -0.030774347 -0.039406635 0.38948014 -0.80936539 -0.43958262 0.0015336782
-0.0083958367 -0.029612985 -0.040421069 0.42325357 -0.75778174 -0.49661174 0.0014914509
-0.0059987716 -0.028382476 -0.039969292 0.49539229 -0.6900574 -0.52764314 0.001750342
-0.0039937412 -0.027730908 -0.038815111 0.56137371 -0.64132011 -0.52303737 0.0011137004
-0.0048184292 -0.026748642 -0.040846106 0.58201122 -0.57885504 -0.57113034 0.0065826988
-0.0029199794 -0.025733598 -0.039950889 0.58453214 -0.5225808 -0.62067026 0.0035242585
-0.0010020565 -0.024736132 -0.038873594 0.62538254 -0.53947884 -0.56379008 0.0016504949
-0.0019355121 -0.022889975 -0.041015066 0.64093339 -0.13387012 -0.75583273 0.016027391
-0.00031335372 -0.022630595 -0.03965345 0.71553767 -0.19939817 -0.66951191 0.017761549
-0.002299774 -0.019848976 -0.040763594 0.62274808 0.046494756 -0.78103977 0.0016985963
-0.00017806189 -0.020140942 -0.039330348 0.6524424 0.026016612 -0.75739157 0.0032975418
-0.0021471255 -0.016844027 -0.040864542 0.64500874 0.016254924 -0.76400232 0.00096444867
-0.00046450691 -0.01684114 -0.039338402 0.66030854 0.015333882 -0.7508378 0.00080481649
-0.0022998957 -0.013772791 -0.040747225 0.63014227 0.12576292 -0.76622742 0.0013749553
-0.00050165318 -0.013899548 -0.039272211 0.6498006 0.10760719 -0.75244921 0.0018806643
-0.0046990183 -0.0099322777 -0.041268982 0.4959766 0.36375454 -0.78847313 0.0026149766
-0.0027845649 -0.01084348 -0.04026629 0.59809297 0.29105207 -0.74670851 0.0011910897
-0.00083092484 -0.01123309 -0.038909886 0.57904422 0.2761263 -0.76711273 0.0017903675
-0.028741047 -0.0091689536 -0.041211646 -0.45115179 0.84847587 -0.27667806 0.0006821329
-0.026871242 -0.007903398 -0.04061703 -0.45219278 0.861265 -0.23182806 0.00078210048
-0.024956699 -0.006769042 -0.040628068 -0.41595563 0.87488919 -0.24809234 0.0023311127
-0.0078216642 -0.0067265453 -0.041215282 0.4151569 0.5473882 -0.72664356 0.0021209521
-0.0055967886 -0.0076857526 -0.040553249 0.48110583 0.44949365 -0.752657 0.0010988259
-0.0032110233 -0.0082204342 -0.039304398 0.51176244 0.43022838 -0.7436415 0.0018185832
-0.023226365 -0.0057828608 -0.03993341 -0.37012541 0.87895131 -0.30075204 0.0038584548
-0.020870198 -0.0048718411 -0.040159211 -0.30722082 0.88674569 -0.34539458 0.0059125414
-0.017900899 -0.0041367975 -0.040340245 -0.18036194 0.87074035 -0.45747226 0.0063688694
-0.014822013 -0.0040935799 -0.040691249 0.021525076 0.82783341 -0.56056088 0.0025746115
-0.01165651 -0.0043391623 -0.040492143 0.15257174 0.76476985 -0.62597841 0.0020402942
-0.0088050542 -0.0049284836 -0.040083438 0.26975626 0.67148983 -0.69016874 0.0020461828
-0.0061120233 -0.00548452 -0.039250076 0.41029054 0.58519477 -0.69943464 0.0017559264
-0.0041380818 -0.0062230388 -0.038671833 0.42999098 0.56024814 -0.70797592 0.0012711257
-0.016953466 -0.0032298972 -0.038882695 -0.20648757 0.88673341 -0.41360217 0.0032490136
-0.014631488 -0.0030511776 -0.039071113 -0.05339529 0.860273 -0.50702989 0.0043626893
-0.012001982 -0.0030515699 -0.038945727 0.093172453 0.80538809 -0.5853793 0.0041654678
-0.0099078463 -0.0032304386 -0.038720589 0.22856231 0.73664957 -0.63647997 0.0028842792
-0.015344718 -0.033333238 -0.036406554 0.19219252 -0.93662256 -0.2929166 0.0016544942
-0.017413434 -0.033194922 -0.038164817 0.14943938 -0.93684506 -0.31621072 0.00077977148
-0.013991216 -0.032770853 -0.038113654 0.22631073 -0.91689813 -0.32875729 0.0017359218
-0.011726145 -0.03249466 -0.037153706 0.28574982 -0.89754558 -0.33579594 0.0026362352
-0.0087549845 -0.031517442 -0.037028622 0.35259894 -0.86980677 -0.34512332 0.0014541491
-0.0064258883 -0.030760363 -0.036315162 0.4392606 -0.81289846 -0.38242143 0.0014245119
-0.0054946137 -0.029582661 -0.037587952 0.47484979 -0.76597738 -0.43335477 0.0014245398
-0.0029906137 -0.028306864 -0.036767863 0.5425148 -0.70088387 -0.46307611 0.0016182262
-0.0011600822 -0.027340621 -0.035990696 0.6024729 -0.64864379 -0.46506742 0.0011688884
-0.0020594127 -0.026680715 -0.0379516 0.57560986 -0.65150428 -0.49418157 0.00081804261
-6.4292923e-05 -0.025481708 -0.036918931 0.62402308 -0.58256185 -0.52078491 0.0021409902
0.0018531103 -0.024341539 -0.035748105 0.64252347 -0.58203876 -0.4983919 0.0010051815
0.00096344156 -0.023223523 -0.037871461 0.71519852 -0.24331394 -0.65520179 0.014391828
0.0026255483 -0.022422422 -0.036565155 0.64132816 -0.33597174 -0.68979782 0.014442566
0.00093085878 -0.019258829 -0.038026836 0.65465581 0.016965721 -0.75573659 0.0034246058
0.0030463133 -0.01971305 -0.036771629 0.62432569 0.071229875 -0.77790987 0.0054718396
0.0048696371 -0.019829132 -0.035539057 0.69074667 -0.056431975 -0.72089154 0.019331286
0.0010135132 -0.017002217 -0.037944525 0.66711313 0.038604222 -0.74395555 0.0018583246
0.0026983926 -0.016579133 -0.036422573 0.62943387 0.060097288 -0.77472663 0.004313753
0.00099208672 -0.013937673 -0.038010724 0.65709674 0.07823199 -0.74973565 0.0014957673
0.0027119331 -0.013724802 -0.036510788 0.64980489 0.05942614 -0.75777453 0.001815423
0.00056394469 -0.010808889 -0.037683293 0.60887146 0.21985543 -0.76219368 0.00099006027
0.0024580108 -0.010869465 -0.036195237 0.60991925 0.2202912 -0.7612294 0.0013375289
-0.0021123905 -0.0073269969 -0.038020201 0.53289247 0.40025935 -0.7455321 0.0012062709
7.9289544e-05 -0.0080051795 -0.036863063 0.55692697 0.37378636 -0.74169809 0.0011611047
0.0019391272 -0.0086648772 -0.035811376 0.5634231 0.35749179 -0.74481809 0.0010020629
-0.023846127 -0.0058022896 -0.037977379 -0.39451873 0.88244551 -0.25621262 0.0015621767
-0.020655818 -0.004091341 -0.037585463 -0.34737533 0.90047467 -0.26167881 0.0018855927
-0.019112576 -0.003659145 -0.038429659 -0.24129678 0.90797925 -0.34256327 0.0041201627
-0.0077778324 -0.0036592791 -0.038394909 0.29222623 0.67594343 -0.67653847 0.002771358
-0.005495924 -0.0042124875 -0.037773229 0.34172475 0.67104399 -0.65796971 0.0017257119
-0.0029194765 -0.0050002998 -0.036924142 0.42131957 0.56561875 -0.70891845 0.0018421062
-0.00054502208 -0.0057600946 -0.035970356 0.49713162 0.48884326 -0.71686286 0.0012013172
-0.017713519 -0.0028418361 -0.037103619 -0.2177359 0.91479731 -0.34020135 0.0048057339
-0.014865204 -0.0021281173 -0.03710375 -0.16608773 0.9122631 -0.37442091 0.0059450413
-0.011733423 -0.0018549869 -0.037006274 0.030176191 0.8638823 -0.50278902 0.001618735
-0.0088934666 -0.002221012 -0.037013367 0.21160118 0.76457834 -0.60880613 0.001700451
-0.0060925423 -0.0026353851 -0.036437131 0.29215443 0.71274877 -0.63767946 0.0028890143
-0.0038514598 -0.0031320089 -0.03586055 0.38695744 0.65364885 -0.65038997 0.00202433
-0.011108701 -0.033065569 -0.03431505 0.28327891 -0.91213071 -0.29626113 0.0014406046
-0.0087053068 -0.032461874 -0.034136675 0.35983604 -0.88093942 -0.30734953 0.0011138015
-0.0058049439 -0.031328183 -0.034021251 0.41850463 -0.85387665 -0.30943257 0.00073025958
-0.003883482 -0.030659895 -0.033205125 0.48255965 -0.81675297 -0.31630805 0.0018866063
-0.0026095752 -0.029409509 -0.034273557 0.50780088 -0.78051162 -0.36460909 0.00073695823
-0.00039808406 -0.027968898 -0.033890568 0.57715636 -0.71116829 -0.40141028 0.0015737283
0.00084840273 -0.026424531 -0.034555897 0.62975979 -0.63986498 -0.44042641 0.0011431612
0.0026154253 -0.025211394 -0.03375008 0.64800632 -0.58591783 -0.48660886 0.00073836208
0.0038929507 -0.023056358 -0.034468301 0.68344045 -0.4632526 -0.56418633 0.0073309531
0.0053519513 -0.02215945 -0.033478245 0.69758391 -0.40677086 -0.5898425 0.015455894
0.0042252196 -0.01833038 -0.035312589 0.66514707 0.022106646 -0.74638504 0.013297363
0.0061321016 -0.019576941 -0.034097679 0.67037648 -0.0045845974 -0.74200696 0.024002852
0.0079366826 -0.018659182 -0.032582801 0.71846169 -0.11742792 -0.68558258 0.027430069
0.0041469242 -0.016752208 -0.035004161 0.66161597 0.085533001 -0.74494851 0.0042025149
0.0058924742 -0.016783934 -0.033563845 0.63302082 0.1362703 -0.76204664 0.0059827808
0.0079379166 -0.018010944 -0.032511216 0.68500644 0.048681453 -0.7269088 0.011517241
0.0042263987 -0.013592105 -0.035172895 0.66382468 0.046313267 -0.74645287 0.0013122824
0.0057535367 -0.01363366 -0.033747062 0.68928808 0.034514464 -0.72366476 0.0013909739
0.0039195195 -0.010410927 -0.034859993 0.63241988 0.19674876 -0.74922293 0.0012681313
0.00567606 -0.010692204 -0.033412933 0.65457141 0.1865299 -0.73262733 0.0017513541
0.0014230488 -0.006691392 -0.035208456 0.53116179 0.39967006 -0.7470817 0.0033464783
0.0032601319 -0.007480788 -0.034216791 0.57979339 0.36731282 -0.72726959 0.0019532875
0.0051838476 -0.0080911266 -0.03296027 0.60423505 0.34637654 -0.71758157 0.0012890036
-0.0017390668 -0.0038165858 -0.035234611 0.44228682 0.5799939 -0.68409759 0.0016965792
0.00036995718 -0.0046028802 -0.034510978 0.4750109 0.53092486 -0.70177162 0.002318027
0.0025747344 -0.0050185067 -0.033266816 0.52677757 0.48828703 -0.69575948 0.0012207839
-0.017705508 -0.0022724913 -0.034214091 -0.28128171 0.92692119 -0.24839005 0.00042300497
-0.014849796 -0.0011615884 -0.034121707 -0.22424504 0.92652094 -0.30211431 0.0024057603
-0.012200621 -0.00074865343 -0.034721054 -0.13783582 0.93648696 -0.32248017 0.0033524977
-0.0086991191 -0.00081015145 -0.034876063 0.088024609 0.86316222 -0.49719468 0.0033907008
-0.0057032141 -0.0012275693 -0.034534529 0.21602587 0.79232514 -0.57057315 0.0021131819
-0.0028997762 -0.0019467599 -0.034086227 0.31422314 0.72255117 -0.61577886 0.0015289277
-0.00020909635 -0.002676551 -0.033264026 0.42553231 0.61543202 -0.66344982 0.00096860609
-0.011574762 -0.00010634307 -0.033262223 -0.15589698 0.92607242 -0.34363627 0.0035168154
-0.0089709703 1.3955869e-06 -0.033403322 0.0046365215 0.89274675 -0.45053503 0.0045186691
-0.0061817872 -5.5990182e-05 -0.033019789 0.14845236 0.83197409 -0.53458488 0.0043282351
-0.0042162188 -0.00021210406 -0.032629233 0.26882187 0.75769639 -0.59466887 0.0025501284
-0.0057187472 -0.032102291 -0.031007212 0.42152384 -0.86593783 -0.26920137 0.00059693295
-0.0029323543 -0.030948382 -0.030688122 0.4626807 -0.84432828 -0.27025229 0.0006305392
-0.0020508503 -0.030058037 -0.031992655 0.48208413 -0.82659245 -0.29041308 0.0014765639
0.00022359239 -0.02882351 -0.03120929 0.55414677 -0.76449221 -0.32935265 0.0015868448
0.0023018396 -0.027702618 -0.03029542 0.59068525 -0.71500719 -0.37397274 0.0011668933
0.0034600534 -0.026128713 -0.031248469 0.62362772 -0.6699807 -0.40275839 0.00095821667
0.005210232 -0.024930086 -0.03043969 0.64827126 -0.61912495 -0.44320267 0.00076154352
0.0064533986 -0.022951528 -0.031131778 0.69789165 -0.54923326 -0.45966294 0.0010749442
0.0081264898 -0.021750163 -0.030025624 0.70319486 -0.50851947 -0.49691552 0.0022473126
0.0074026259 -0.020745944 -0.03205001 0.72166598 -0.43134409 -0.54142445 0.0038662418
0.0088388119 -0.019654863 -0.030875206 0.75932187 -0.18002614 -0.62531662 0.021181986
0.0072348025 -0.01633016 -0.032050706 0.71203589 0.092055216 -0.69608235 0.006515854
0.0089921365 -0.016850697 -0.030864932 0.74073857 0.11546201 -0.66179675 0.0084893135
0.010611649 -0.017471023 -0.029602896 0.81553864 -0.039906476 -0.57732499 0.0139087
0.007291493 -0.01367837 -0.032213487 0.71254116 0.047001246 -0.70005429 0.0014766043
0.0087308837 -0.013639623 -0.030637927 0.74610096 0.039685592 -0.66464901 0.0018535347
0.0071800631 -0.010488394 -0.031985287 0.68868959 0.15658233 -0.70794684 0.0015381359
0.0086655142 -0.010719106 -0.03049193 0.71994144 0.13586083 -0.6806072 0.0022656694
0.0065454142 -0.007441449 -0.031455006 0.63332921 0.33636901 -0.69695777 0.0018376998
0.0083016157 -0.007946861 -0.030005623 0.67493534 0.29950118 -0.67435998 0.0011716359
0.0038755117 -0.0044649187 -0.031888414 0.55012685 0.46019629 -0.69683552 0.00079046714
0.005903488 -0.00497289 -0.030591113 0.578614 0.45292211 -0.67828274 0.00153319
-0.014655746 -0.00064413343 -0.032025021 -0.22443159 0.93798041 -0.26424092 0.001904143
-0.001940263 -0.00075346697 -0.032269392 0.30340675 0.71277106 -0.63237774 0.0012674183
0.00039606635 -0.0013512354 -0.031585533 0.37737182 0.68509531 -0.62308514 0.0016565179
0.0029488001 -0.0022417428 -0.030738492 0.4675684 0.60356462 -0.64582461 0.0013990125
0.0050698752 -0.0031132211 -0.029914767 0.54258531 0.55113488 -0.63391745 0.00072254345
-0.013816199 -0.00020599458 -0.031212669 -0.22429357 0.93731463 -0.26670894 0.0019989465
-0.012017298 0.00033836532 -0.031278092 -0.1964294 0.94316083 -0.26807293 0.0012177362
-0.0088765062 0.0010002009 -0.031015173 -0.08923462 0.93410498 -0.34566626 0.0038468507
-0.0058699222 0.00099347392 -0.031091101 0.038200833 0.899248 -0.43576816 0.0038239332
-0.0029741223 0.00058086822 -0.030915959 0.24739201 0.79049248 -0.56028461 0.0013603549
-0.00020096544 0.00011853687 -0.030245099 0.33461612 0.7421425 -0.58073795 0.0024938197
-0.0026589045 -0.031307366 -0.028732222 0.46016914 -0.85718572 -0.23125106 0.00066719134
-0.00087408628 -0.03060203 -0.027866092 0.50901824 -0.82566255 -0.24327318 0.0006790316
0.00061592925 -0.029649768 -0.028262738 0.50527591 -0.82654971 -0.24801576 0.00067765417
0.0029849033 -0.02815545 -0.027958276 0.57482105 -0.76244354 -0.29708683 0.00096282322
0.0043520294 -0.026783761 -0.028666329 0.62013572 -0.71428007 -0.32440034 0.0011549497
0.0059732059 -0.025513314 -0.028204799 0.6405496 -0.66794008 -0.37888286 0.0010608252
0.007585871 -0.024367869 -0.02743296 0.67929262 -0.62171614 -0.38991079 0.00098945852
0.0071226833 -0.023844048 -0.028996211 0.67981267 -0.59504741 -0.42868793 0.0015353808
0.0087692495 -0.022560481 -0.027987191 0.72209132 -0.559021 -0.4075287 0.00067101215
0.0098527307 -0.020400038 -0.028766304 0.78714323 -0.38532913 -0.4815881 0.010306275
0.011068658 -0.019465405 -0.027640417 0.784437 -0.33315071 -0.52313399 0.017576387
0.0099666184 -0.015738372 -0.02911507 0.74079782 0.043693278 -0.67030555 0.010840452
0.011761623 -0.016680509 -0.027983999 0.76869273 0.070194349 -0.63575494 0.0091305254
0.010027625 -0.014008993 -0.029057439 0.74566716 0.097631194 -0.65912724 0.0037381472
0.011286781 -0.0138145 -0.027536716 0.75898057 0.078717418 -0.64633745 0.0026274517
0.0099850036 -0.010604109 -0.02904683 0.75401729 0.10804097 -0.64790827 0.0017174425
0.011270688 -0.010823096 -0.027503418 0.77484298 0.094482347 -0.62505317 0.0015199446
0.009533775 -0.007468692 -0.02851817 0.69059181 0.29049429 -0.66234124 0.0026193676
0.010953071 -0.0079809641 -0.02713757 0.73733282 0.25024027 -0.62747121 0.0018507144
0.0069282511 -0.0039913217 -0.028985016 0.56931943 0.49682954 -0.65500838 0.0013260323
0.0086964974 -0.0047132783 -0.027814161 0.63479298 0.41759881 -0.65011466 0.0018013022
0.010684562 -0.0059133032 -0.026527267 0.68252039 0.38419482 -0.62173963 0.0013453398
0.0038759476 -0.0010353173 -0.028880216 0.46515259 0.61822069 -0.63359004 0.0012179828
0.0059891324 -0.001869496 -0.028012764 0.52256143 0.57247961 -0.63182002 0.0018555508
0.0078877062 -0.0025348871 -0.026922062 0.56684959 0.55015725 -0.6131953 0.00061659317
-0.01117991 0.0011232262 -0.028305601 -0.2322647 0.95244402 -0.1972397 0.00060326722
-0.0089114755 0.0018128594 -0.028221022 -0.1748614 0.95377433 -0.24441347 0.0033496779
-0.0060271779 0.0022195568 -0.028304556 -0.042444289 0.93221498 -0.35940748 0.0061492138
-0.002809406 0.0020730402 -0.028346177 0.13931619 0.87733352 -0.45921344 0.0018967406
0.00018494297 0.0014791298 -0.028105607 0.24781093 0.81106919 -0.52986467 0.0019262404
0.002969102 0.00053131115 -0.027759839 0.39553207 0.70687521 -0.5864144 0.0012180432
0.005100172 -4.0621497e-05 -0.026900809 0.47600555 0.64715797 -0.59548753 0.0011432704
-0.0049543106 0.0028968742 -0.026643824 -0.10605628 0.94937944 -0.29568699 0.00305478
-0.0031918874 0.002896335 -0.026688948 0.067272834 0.90574044 -0.41845962 0.003874799
0.00010631187 -0.030727267 -0.024506669 0.50949228 -0.82606941 -0.2408876 0.00061905175
0.0012122011 -0.029984124 -0.025666904 0.50949192 -0.82607055 -0.24088462 0.00061908725
0.0033496781 -0.028821576 -0.025068669 0.53697532 -0.8085053 -0.24078351 0.0010684789
0.0051241294 -0.0277749 -0.024522882 0.59949273 -0.75326151 -0.27056542 0.00054845709
0.0064944848 -0.026367977 -0.025395736 0.60670012 -0.74461383 -0.27832568 0.00083336962
0.0081136534 -0.024982829 -0.025186609 0.6662128 -0.67172843 -0.32394662 0.00088620599
0.0096236682 -0.023221258 -0.025425162 0.71362364 -0.60381621 -0.35517219 0.0013368332
0.011002497 -0.021914274 -0.024790596 0.73391742 -0.56331831 -0.37952304 0.00065670419
0.012405855 -0.019678853 -0.025011159 0.77514458 -0.45690626 -0.43633413 0.0035178466
0.013857312 -0.018362686 -0.023689013 0.82391787 -0.38113323 -0.41940054 0.011156764
0.013147823 -0.017093983 -0.026007902 0.83208638 -0.079049326 -0.54898399 0.015448776
0.014244185 -0.01646924 -0.024547067 0.85447454 -0.1597061 -0.4943352 0.013740457
0.01281999 -0.013871267 -0.025564935 0.79157001 0.1034018 -0.60226649 0.0012830623
0.014154392 -0.014287286 -0.024311135 0.82980752 0.032139927 -0.55712348 0.00558369
0.012842595 -0.010686919 -0.025448825 0.78236616 0.093430199 -0.61577111 0.00095535954
0.013845042 -0.01081229 -0.024081595 0.79748207 0.095962435 -0.59566218 0.00068394875
0.012433355 -0.0076030903 -0.025195673 0.75968379 0.20819092 -0.61606586 0.0012600983
0.013856503 -0.0086021833 -0.023714921 0.78798026 0.16618235 -0.59284949 0.00085622724
0.0099475188 -0.0038889223 -0.025988372 0.61896712 0.48903358 -0.61459404 0.00079346629
0.011612908 -0.0047882684 -0.024736861 0.68058848 0.39488542 -0.6171425 0.0016162338
0.0070200833 -0.0007717968 -0.026053362 0.54418486 0.57932776 -0.60682964 0.00082145736
0.0090323752 -0.0016662199 -0.025046743 0.57954097 0.54179555 -0.60876089 0.0022762474
0.010925001 -0.0024800638 -0.023870122 0.62488121 0.50400025 -0.59624422 0.0010006601
-0.0085714143 0.0023179939 -0.025819343 -0.1914635 0.95833492 -0.21198106 0.0015903783
0.00099199684 0.0024612583 -0.026195448 0.20295753 0.85800374 -0.471845 0.0029591315
0.0034952443 0.0019435063 -0.025497591 0.33568811 0.78580326 -0.51944852 0.001183643
0.0060342401 0.00094262837 -0.024940429 0.44652909 0.69082749 -0.56865555 0.0021422149
0.0081384368 0.00010172743 -0.02411218 0.53133416 0.61800885 -0.57943857 0.00090087473
-0.0060325945 0.0031115506 -0.025131313 -0.14105228 0.96024007 -0.24092166 0.0054197689
-0.0029012472 0.0035372721 -0.024904741 -0.011717767 0.94714236 -0.32059932 0.0055143922
4.1377731e-05 0.0033379002 -0.024938159 0.13081071 0.90124047 -0.41310301 0.0039952737
0.0027647032 0.0030737845 -0.024187006 0.28923494 0.82310498 -0.48871389 0.0028001184
0.0045486838 -0.02862455 -0.022788923 0.54547256 -0.80968529 -0.21649361 0.0012757897
0.0061199786 -0.027809538 -0.021599893 0.6139558 -0.75284272 -0.23724684 0.00056911865
0.0067725554 -0.027069077 -0.022773426 0.6139555 -0.75284433 -0.23724255 0.00056943437
0.0087851658 -0.025551207 -0.022115113 0.65992641 -0.70728499 -0.25346598 0.000792815
0.010184268 -0.024039395 -0.022621056 0.68240529 -0.67921859 -0.27015746 0.00071708497
0.011819926 -0.022438187 -0.022020139 0.74200618 -0.59864211 -0.30175218 0.0012678336
0.01313566 -0.020513585 -0.022373347 0.78225267 -0.52882576 -0.32927817 0.0013613644
0.014274777 -0.019198317 -0.02174937 0.79216701 -0.48435983 -0.37130448 0.0011981081
0.015445183 -0.016712867 -0.022068903 0.84123182 -0.23311853 -0.48783669 0.0095161488
0.016630504 -0.015576215 -0.020736154 0.82734311 -0.14442562 -0.54281181 0.019809989
0.015344867 -0.013629844 -0.022392653 0.83853531 0.089286625 -0.53748161 0.0047162976
0.016750876 -0.014070204 -0.020931192 0.84668189 0.035769824 -0.53089577 0.0106732
0.01521889 -0.010816109 -0.022082299 0.83086938 0.092977695 -0.54864484 0.0030083633
0.01342011 -0.0063867876 -0.023475718 0.75766832 0.23129648 -0.61027908 0.0012864466
0.014960439 -0.007726294 -0.021973597 0.77917981 0.19646306 -0.59521514 0.0018133787
0.012997109 -0.0041969391 -0.022769097 0.71296328 0.35296282 -0.60588825 0.0013907884
0.014416647 -0.0048362799 -0.02143677 0.72818601 0.33710933 -0.59674317 0.0016263649
0.010173683 -0.00076332781 -0.023092331 0.58157438 0.56085902 -0.58924395 0.00042948083
0.012116552 -0.0017609363 -0.021940026 0.66091007 0.48090303 -0.57613379 0.001181023
0.013949714 -0.0028417418 -0.020732146 0.67441094 0.45530337 -0.58126467 0.00091569417
-0.0087732803 0.0024905792 -0.023474704 -0.20973094 0.95987654 -0.18614499 0.00078905921
0.0065738568 0.0022506062 -0.022836654 0.40084678 0.73678851 -0.54448557 0.0017930524
0.0090232203 0.0011970093 -0.022024611 0.47740746 0.67460155 -0.56302285 0.0011413961
0.011107065 0.00013454678 -0.021260794 0.59404564 0.57070708 -0.56692439 0.0011288286
-0.0055759032 0.0037288582 -0.022196595 -0.20151849 0.95617568 -0.21241097 0.0016775226
-0.0027512922 0.0044234414 -0.021919206 -0.11464976 0.96009916 -0.2550782 0.003289585
0.00019054301 0.0044624284 -0.022289375 0.038973793 0.9342339 -0.35452509 0.0038734665
0.0031541009 0.0040103123 -0.022216011 0.21565673 0.87714905 -0.42907071 0.0035180368
0.0058040414 0.0034743957 -0.021527151 0.34526187 0.79993808 -0.49080878 0.0025933718
0.0079179211 0.0029671034 -0.02071872 0.43820688 0.72532851 -0.53091741 0.0021702463
0.0092105735 -0.025934212 -0.019338032 0.65958029 -0.71965927 -0.21689709 0.00058534282
0.01102062 -0.024550077 -0.01867504 0.68007493 -0.70413512 -0.20418577 0.00052695011
0.012431766 -0.022987965 -0.019074298 0.71050709 -0.65938443 -0.24574737 0.0017452972
0.01359509 -0.022203356 -0.017676365 0.72290093 -0.65716368 -0.21342453 0.0013168625
0.013513443 -0.021177739 -0.020382386 0.77666914 -0.55627298 -0.29554242 0.00093090662
0.015062251 -0.019703915 -0.018990686 0.78870654 -0.5479331 -0.27876726 0.00085422571
0.016118571 -0.017747309 -0.019458052 0.82453114 -0.44243175 -0.35270768 0.0031532946
0.017193627 -0.016278755 -0.01871538 0.85196728 -0.288533 -0.43692163 0.016795484
0.016195219 -0.012679906 -0.020421397 0.84668732 0.035770845 -0.53088695 0.010664856
0.0177732 -0.013433931 -0.019012725 0.84392077 0.043431144 -0.53470695 0.0088430112
0.016196311 -0.012233512 -0.020391624 0.8419078 0.059011281 -0.53638506 0.0092047546
0.017319921 -0.010738158 -0.018846529 0.82912397 0.087410152 -0.55218911 0.0034576801
0.016204257 -0.0073169419 -0.020174645 0.80646425 0.15298393 -0.57114905 0.0017755588
0.017329227 -0.0078712525 -0.018715335 0.81605315 0.099228948 -0.56939524 0.0021177912
0.015736308 -0.0044226707 -0.019563584 0.76192564 0.30364898 -0.57207221 0.0012052926
0.017015509 -0.0049660918 -0.018195765 0.7719695 0.28591937 -0.56772637 0.0019073612
0.013226642 -0.00090357754 -0.020003291 0.65262222 0.48119092 -0.58526868 0.0013718562
0.014923547 -0.0018645898 -0.018857393 0.69348311 0.41798386 -0.58683103 0.0008358286
0.0099466639 0.0022734413 -0.019892916 0.48865578 0.68538398 -0.53987449 0.0009474277
0.012017994 0.0012072292 -0.019128885 0.54165238 0.62525409 -0.56184524 0.0013785521
0.013863149 0.00035670307 -0.018109739 0.60342377 0.56189209 -0.56582427 0.0013777373
-0.004840076 0.0043323776 -0.019076627 -0.20214522 0.95822757 -0.20232937 0.0016859937
-0.0025963627 0.005049767 -0.019118207 -0.18823422 0.96130228 -0.20116161 0.0021168704
0.00019847276 0.0054317554 -0.0193779 -0.065111704 0.95569485 -0.28706768 0.0057850908
0.003137507 0.0053538866 -0.019327993 0.11032879 0.92101419 -0.3735778 0.003800726
0.0059467675 0.0048414767 -0.019008616 0.25757864 0.86280501 -0.43499506 0.0025407805
0.0089046331 0.0037201783 -0.018783106 0.42218035 0.75253814 -0.50542057 0.0021258621
0.011042168 0.0031521311 -0.017771851 0.50043178 0.68103474 -0.53456497 0.0013247578
0.010240748 -0.025635295 -0.016690221 0.67464399 -0.71270484 -0.19211285 0.00025988513
0.012751588 -0.02365848 -0.015651127 0.70086449 -0.69115114 -0.1763494 0.00055937597
0.014320544 -0.0219035 -0.016100487 0.72931075 -0.65292925 -0.20442379 0.0013212799
0.015767902 -0.020079831 -0.016235372 0.77437812 -0.58198887 -0.24824883 0.0012830071
0.016988259 -0.018849811 -0.015258611 0.7899217 -0.54503977 -0.28098994 0.00075973704
0.017954201 -0.0168909 -0.016013674 0.83261102 -0.45995533 -0.30854484 0.0013051934
0.01913999 -0.013681708 -0.0165968 0.86647815 -0.19245152 -0.46062779 0.01558096
0.020012092 -0.013194447 -0.015128127 0.87988621 -0.25732112 -0.39948219 0.009878994
0.01900968 -0.01079 -0.016281523 0.84069204 0.06445694 -0.5376637 0.00076193974
0.020111755 -0.011190511 -0.014928638 0.86446911 0.016858261 -0.50240314 0.0018532471
0.018978983 -0.0077211233 -0.016276149 0.81767768 0.094587937 -0.56785244 0.00095844333
0.020032536 -0.0080683194 -0.014675599 0.83609211 0.083946265 -0.54212826 0.00093180308
0.018351369 -0.0044965921 -0.016195362 0.78081572 0.26004526 -0.56806982 0.0026970988
0.019569643 -0.0053462656 -0.014891502 0.80662107 0.21880524 -0.54907817 0.0021714631
0.016039882 -0.0011024931 -0.016974375 0.69234949 0.41570616 -0.58978009 0.0014119287
0.017525557 -0.0019279518 -0.015789701 0.71564573 0.38792858 -0.5808292 0.0020623149
0.012803675 0.0023799082 -0.017017744 0.51480544 0.673648 -0.53025812 0.0015280477
0.015002037 0.001216162 -0.016000241 0.60445708 0.57453549 -0.55185193 0.0021107004
0.016999662 1.512887e-05 -0.014954668 0.67523581 0.49720386 -0.54483479 0.00075137365
-0.0029185605 0.0052729342 -0.016585728 -0.20343737 0.9628154 -0.17776307 0.0011595092
-0.0012613786 0.0057127764 -0.01719014 -0.15660694 0.96171647 -0.22489046 0.0035036623
0.0067615481 0.0056245467 -0.017090421 0.23790029 0.86203033 -0.44755691 0.0026200148
0.0093436083 0.0049741492 -0.016461654 0.35232821 0.8086862 -0.47105351 0.0011275724
0.011980931 0.0039303964 -0.015804961 0.46970254 0.71738577 -0.51452607 0.0022808081
0.013826597 0.0031858673 -0.015009444 0.54243958 0.64593273 -0.53715014 0.00032466717
0.00053933635 0.0062991874 -0.016028203 -0.15217142 0.96152103 -0.22873822 0.003544708
0.0030229916 0.0064026881 -0.016510475 0.016451802 0.95514393 -0.29568473 0.0052994564
0.0059666028 0.0064173993 -0.015767708 0.16146946 0.91469586 -0.37048489 0.0028248304
0.00888508 0.0059448723 -0.015116587 0.3084324 0.84108204 -0.444354 0.0026172269
0.011880179 -0.024632201 -0.014368217 0.67617214 -0.72033143 -0.15464114 0.00031585453
0.014891283 -0.02222744 -0.012479175 0.71942729 -0.67420328 -0.16695575 0.00096487807
0.016231697 -0.020600241 -0.013219681 0.74036705 -0.65019846 -0.17058302 0.001642512
0.017533932 -0.019097624 -0.012878871 0.77500647 -0.58729798 -0.23333681 0.0010994468
0.018881828 -0.016957831 -0.013303136 0.82992446 -0.48336482 -0.2785387 0.0017424845
0.019791733 -0.01596285 -0.012446564 0.82434738 -0.48906788 -0.28506827 0.0017251424
0.020644739 -0.013715141 -0.013223441 0.88976282 -0.31346223 -0.33175835 0.0052188323
0.021115262 -0.010812268 -0.01307278 0.89155799 -0.055350624 -0.44951156 0.0047928053
0.020973261 -0.0078019407 -0.013100305 0.85780191 0.066799261 -0.5096212 0.0002511114
0.020624589 -0.0046628043 -0.013059925 0.82462531 0.19419874 -0.53130031 0.0021532041
0.018779017 -0.0013536774 -0.013810469 0.74233824 0.35980013 -0.56522369 0.0012824467
0.020101454 -0.0020085075 -0.012490606 0.76568729 0.3444117 -0.54323441 0.0016797225
0.016152326 0.0020837085 -0.013846137 0.61899471 0.57618976 -0.53371423 0.001703969
0.017887298 0.0010608076 -0.012867431 0.65298623 0.52621448 -0.54470843 0.00219283
0.019712985 -0.00012168381 -0.011647146 0.70296854 0.48055607 -0.52431011 0.00090222474
0.012624481 0.005004229 -0.013714804 0.42579985 0.75931954 -0.49206549 0.0012191019
0.014921417 0.0039883833 -0.012861848 0.5089494 0.69903255 -0.50231856 0.00070729706
0.016965758 0.0030722758 -0.011847179 0.61218458 0.58867151 -0.52791661 0.0010109995
-0.0021838502 0.0057642451 -0.014380883 -0.20392634 0.96277308 -0.17743151 0.00099654554
0.00035494706 0.0067915311 -0.012982732 -0.17252596 0.96478063 -0.1985777 0.001970106
0.0032203477 0.0073304968 -0.013318421 -0.068413682 0.95847863 -0.27683619 0.0068868808
0.0059954915 0.0073764343 -0.013295047 0.069708496 0.94223195 -0.32762751 0.0037071516
0.0091130082 0.006833856 -0.013163889 0.24106567 0.88437432 -0.39971161 0.0033335439
0.011747521 0.0062250616 -0.012465188 0.38495773 0.79578131 -0.46748227 0.0027205988
0.013812008 -0.023467705 -0.010487091 0.71297181 -0.68396461 -0.15447848 0.0004502376
0.018164024 -0.019119043 -0.010445531 0.77179956 -0.60475838 -0.19645001 0.00082780846
0.019153409 -0.017820269 -0.010503333 0.7964977 -0.56968224 -0.20261662 0.0011285535
0.020392284 -0.01636765 -0.0096247438 0.82311833 -0.50628293 -0.25720373 0.00066450785
0.021684978 -0.013821729 -0.010229778 0.87722272 -0.3796148 -0.29389274 0.003656792
0.022598039 -0.012981088 -0.0087767951 0.87258852 -0.38561794 -0.29981336 0.003826
0.022358745 -0.010366863 -0.010794358 0.89008766 -0.098139204 -0.44509846 0.0034503699
0.023204405 -0.010423861 -0.0091743097 0.90640455 -0.1501499 -0.39482373 0.004668538
0.022264238 -0.0076665478 -0.010856455 0.87367117 0.048803907 -0.48406285 0.0004744913
0.023151945 -0.0074592037 -0.0091787837 0.89101297 0.018476248 -0.45360178 0.00067998853
0.022170506 -0.0046333792 -0.010596426 0.84033048 0.1564419 -0.51900923 0.0016568936
0.023039859 -0.0047039995 -0.0091248304 0.86741364 0.14960773 -0.47456408 0.0031758468
0.021399722 -0.0015585669 -0.01029267 0.79536366 0.3094084 -0.52121323 0.0013459993
0.022586185 -0.0024073531 -0.0090108225 0.81722623 0.29240274 -0.49663046 0.0019676539
0.018883891 0.0020467993 -0.010641057 0.6410886 0.58101541 -0.50142443 0.00078540744
0.020416938 0.0009192531 -0.0097389603 0.71493453 0.47903311 -0.50930929 0.0023000604
0.015685823 0.0049668755 -0.010739851 0.51347321 0.70895511 -0.48345414 0.002621437
0.017682958 0.0040348154 -0.0097627519 0.59286869 0.63568693 -0.49437714 0.0014399933
0.00053542294 0.0072192736 -0.010062775 -0.24685004 0.95874971 -0.14093985 0.00099274609
0.0030538836 0.0079802861 -0.010153057 -0.2111772 0.96295696 -0.16768469 0.0035272883
0.0060313493 0.0083611319 -0.01020488 -0.069918796 0.95445877 -0.29003432 0.0062028076
0.009151008 0.0082283886 -0.010015215 0.14879213 0.91792846 -0.36778843 0.003034811
0.012057456 0.00739404 -0.010046808 0.35390443 0.82560939 -0.43945506 0.0015068498
0.014667216 0.006337584 -0.0097168833 0.46059334 0.74986768 -0.47492343 0.0015917986
0.018305402 -0.019721871 -0.0069498429 0.78391331 -0.59232539 -0.18609267 0.00042269824
0.021106828 -0.016249802 -0.0072541051 0.80803144 -0.55598885 -0.19483739 0.0013283372
0.022231821 -0.014646315 -0.0068907402 0.86341804 -0.45006371 -0.22792976 0.0038540168
0.023087848 -0.0131885 -0.0067132227 0.87590879 -0.41997761 -0.2374921 0.0021017219
0.024077464 -0.010605156 -0.0069218585 0.92404824 -0.21027628 -0.3192471 0.006324016
0.024124607 -0.007831824 -0.0071242992 0.90768945 0.001980945 -0.41963777 0.00036072658
0.024091922 -0.0046477318 -0.007088583 0.89259231 0.09054707 -0.44167885 0.0014548372
0.022154368 -0.00056795869 -0.0084532909 0.79235744 0.32960749 -0.51335043 0.0018332128
0.023473538 -0.0017633843 -0.0070023295 0.8443166 0.28356162 -0.45466733 0.002638011
0.021589026 0.0016276082 -0.0073054889 0.72554421 0.49301326 -0.48012862 0.0021151009
0.023016851 0.0004222272 -0.00622008 0.77339721 0.43102711 -0.46483585 0.0016527962
0.018826921 0.0048173377 -0.007353426 0.61399305 0.63119328 -0.4739278 0.00084830355
0.02039938 0.0038108109 -0.0065767923 0.65889013 0.58201212 -0.47657707 0.0015194397
0.0034133773 0.0085472269 -0.0072677694 -0.22377168 0.95937306 -0.17184162 0.0040723435
0.012431997 0.0084440848 -0.0076373005 0.27745119 0.86806798 -0.41167808 0.0013783077
0.015141011 0.0076318765 -0.0069824718 0.38584086 0.81776053 -0.4270767 0.0010731691
0.017358102 0.0064333454 -0.0067064362 0.53070146 0.71469766 -0.45559114 0.0007283258
0.0063476739 0.0092726042 -0.0068848813 -0.1453566 0.96134651 -0.23384686 0.0046478854
0.0090709869 0.0093627274 -0.0069730841 0.06895142 0.9421711 -0.32796261 0.0045279167
0.011627461 0.009265258 -0.0062764101 0.22798073 0.90273082 -0.3648313 0.0019330403
0.02115215 -0.016905006 -0.0043167705 0.80651891 -0.56277835 -0.18112908 0.00096398272
0.02354056 -0.013569378 -0.0039554201 0.86054319 -0.46894437 -0.19888836 0.0014557211
0.024872109 -0.010780313 -0.0040306449 0.90884995 -0.3433691 -0.23683213 0.005139153
0.025684215 -0.009402425 -0.0030348413 0.9444167 -0.15962803 -0.28739518 0.0058190706
0.025115985 -0.0077472092 -0.0048611723 0.92778599 -0.051914085 -0.3694835 0.001516963
0.025658939 -0.0077658878 -0.0034774505 0.93878627 -0.088877656 -0.33283809 0.0020172046
0.025110152 -0.004730694 -0.0049652401 0.90506709 0.077609457 -0.41812727 0.0018683088
0.025648888 -0.004739224 -0.0036533931 0.93133152 0.046604853 -0.36117804 0.0016865233
0.02482865 -0.0014831456 -0.0042570895 0.86827344 0.25515068 -0.42544016 0.001414465
0.02569088 -0.0024139492 -0.0029180953 0.88593084 0.2300308 -0.40275601 0.0023244042
0.022324279 0.0026893755 -0.005025547 0.72268248 0.53814244 -0.43374267 0.0011091081
0.023797795 0.0013297973 -0.0039206976 0.80450821 0.41382834 -0.42604306 0.0025674931
0.021513309 0.0044900374 -0.0040487163 0.6939081 0.57519972 -0.43317068 0.0011556748
0.023042105 0.0033315308 -0.0030776076 0.71869069 0.53846568 -0.43992993 0.0012178046
0.00099182455 0.0077907434 -0.0050200336 -0.3337045 0.93726224 -0.10089967 0.0016083709
0.0023841206 0.00849305 -0.0047482513 -0.35969335 0.92599714 -0.11467279 0.0020443439
0.015652984 0.0085373716 -0.0048332922 0.36516052 0.83079177 -0.42005113 0.0018903965
0.018232018 0.0073467214 -0.0041477513 0.49221894 0.75322753 -0.43631271 0.0011147684
0.02019934 0.0063751927 -0.0032804608 0.59682596 0.6684221 -0.44385892 0.0016839379
0.0040100133 0.0091974428 -0.0044228993 -0.24096349 0.9477241 -0.20917857 0.0044866954
0.0061065257 0.0099096829 -0.0038605817 -0.21947427 0.95220315 -0.21246223 0.0031446628
0.0092352815 0.01035395 -0.0038558329 -0.034629419 0.95771474 -0.28562805 0.0021898227
0.012119 0.010052024 -0.0039893966 0.16911346 0.92710519 -0.33447972 0.0028001019
0.014918086 0.009472209 -0.0035018278 0.32259935 0.86475438 -0.38487598 0.0025039171
0.017067686 0.0087690344 -0.0029711984 0.45277515 0.78922075 -0.41487992 0.0014615656
0.023405567 -0.014322617 -0.0020499192 0.85954303 -0.48232213 -0.16897109 0.0010266219
0.025106221 -0.011781358 -0.00085572526 0.89760941 -0.40724176 -0.16867575 0.0021023406
0.025964584 -0.0099079069 -0.00086422823 0.91729879 -0.35525772 -0.1798749 0.0036415411
0.026456758 -0.0076120207 -0.00099031627 0.95286202 -0.16988239 -0.25138399 0.0054933424
0.026477996 -0.0047539612 -0.0014253668 0.93636507 0.050285559 -0.34740725 0.0013664964
0.026301194 -0.0016962057 -0.0010669474 0.91907239 0.18478005 -0.34808376 0.0022536637
0.024914555 0.0016368246 -0.0015093703 0.83074194 0.38413599 -0.40287381 0.001264206
0.025997102 0.0004745489 -0.00029618666 0.85589647 0.34705237 -0.38340038 0.0017215199
0.022339996 0.005375782 -0.0015670266 0.68171185 0.60554069 -0.41059628 0.00048970064
0.023760915 0.0040807631 -0.00085093081 0.76655298 0.50268567 -0.39962927 0.0010833727
0.019060899 0.008176907 -0.0017281491 0.55227542 0.72742492 -0.4072406 0.0010711954
0.020816326 0.0071935989 -0.0010118466 0.58129281 0.70397598 -0.40806428 0.00085157558
0.022562478 0.0060236594 -0.00022013113 0.66225904 0.62867379 -0.40765455 0.0013784729
0.0033295923 0.0092727486 -0.0015135221 -0.40214688 0.90859848 -0.11281272 0.0011964587
0.0063717486 0.010528428 -0.0012028124 -0.28215015 0.93826002 -0.2001484 0.0028662987
0.0090947868 0.011213525 -0.00073632598 -0.12410057 0.96177059 -0.24412395 0.0024772522
0.011996086 0.011242748 -0.00080954656 0.092031673 0.93757772 -0.33537769 0.003699773
0.015062955 0.010514679 -0.0010204669 0.28198501 0.87962574 -0.38307056 0.0010356538
0.017848615 0.0093903551 -0.00086238235 0.43775186 0.80756128 -0.39524436 0.0019826873
0.019777615 0.0088537177 0.00044568256 0.56009823 0.72240061 -0.40549654 0.001196765
0.024504051 -0.013233976 0.0010023005 0.89091754 -0.42722803 -0.15408489 0.0008578712
0.02552757 -0.011856795 0.0024840422 0.90444076 -0.39656651 -0.15723208 0.0017780277
0.026199911 -0.010428892 0.0018663593 0.92155361 -0.36100775 -0.14287171 0.0017724588
0.027219847 -0.0077976682 0.002376372 0.94926143 -0.22935291 -0.21517435 0.0039857961
0.027556367 -0.0045184842 0.0019801334 0.96181649 -0.039447922 -0.27083737 0.0020839889
0.027429171 -0.0017344039 0.0020001773 0.94557506 0.10121585 -0.30926225 0.0026217257
0.026702639 0.0011703479 0.0020876713 0.88482165 0.3240011 -0.33483437 0.0021067716
0.024790633 0.0044886991 0.0016538966 0.77475458 0.49783897 -0.38975856 0.0010428963
0.02613629 0.0031281738 0.0028112419 0.80783093 0.45898661 -0.36978444 0.0014772026
0.0014616926 0.0083889803 0.00065298751 -0.43136767 0.89535969 -0.11069313 0.00086564192
0.021706402 0.0079387687 0.0014970228 0.57976228 0.70937032 -0.40083599 0.0010449277
0.023261979 0.0067936275 0.0021763165 0.66945535 0.63437545 -0.38651934 0.0010556044
0.0036608186 0.0098250648 0.0016194563 -0.41455105 0.89613098 -0.1584194 0.0022917446
0.00593659 0.010923979 0.0016280599 -0.31932488 0.92548901 -0.20371951 0.001409176
0.0087544648 0.011696286 0.0012361743 -0.1303159 0.95202476 -0.27688754 0.0030089929
0.012972546 0.011676989 0.00061841682 0.047982823 0.93782371 -0.34377962 0.003371289
0.015296654 0.011415741 0.0012863968 0.2554988 0.88500154 -0.38922057 0.0021563058
0.018308789 0.010480824 0.0018989407 0.42134303 0.81425804 -0.3993167 0.002980459
0.020525463 0.0093758954 0.0024630819 0.55278558 0.73404384 -0.39447126 0.00078139483
0.007138337 0.011763348 0.0033818074 -0.37344238 0.90285045 -0.21307737 0.0032060356
0.0092965653 0.012114043 0.0025247037 -0.16191879 0.95341688 -0.25451645 0.0038727343
0.01210628 0.012264832 0.0021797176 0.0083794622 0.95535779 -0.29533255 0.0029932873
0.014922659 0.012139776 0.0028339606 0.21635081 0.9126752 -0.34672228 0.0027349978
0.016824983 0.011758118 0.0032144226 0.34713498 0.85225695 -0.39135084 0.0025125814
0.027817372 -0.0074074799 0.005215425 0.95639485 -0.18358885 -0.22716527 0.0054598325
0.027985286 -0.0057370127 0.0040878635 0.95830268 -0.10941607 -0.26397753 0.0031014702
0.028571174 -0.0038503269 0.0058849733 0.97242838 -0.060586371 -0.22519389 0.0013147077
0.02820738 -0.0016649165 0.0046093762 0.95894605 0.079036191 -0.27235237 0.0033864931
