# .PCD v0.7 - Point Cloud Data file format
VERSION 0.7
FIELDS x y z normal_x normal_y normal_z curvature
SIZE 4 4 4 4 4 4 4
TYPE F F F F F F F
COUNT 1 1 1 1 1 1 1
WIDTH 562
HEIGHT 1
VIEWPOINT 0 0 0 1 0 0 0
POINTS 562
DATA ascii
0.0017453101 -0.036689937 -0.01134059 0.65856618 -0.69997603 -0.27626821 0.00060457236
0.0031210082 -0.035267204 -0.011879428 0.704413 -0.66331184 -0.25262567 0.0012215771
0.0047267689 -0.033676684 -0.011704787 0.70974201 -0.65998173 -0.24635406 0.0011241644
0.0077159395 -0.030589374 -0.011078345 0.7304166 -0.63257605 -0.25756392 0.0014507414
0.0091154817 -0.029454438 -0.0097977361 0.72853053 -0.63280869 -0.26229078 0.0013255153
0.010287597 -0.027590044 -0.010712693 0.7602886 -0.56457287 -0.32127666 0.00059351261
0.011566299 -0.025488522 -0.011388309 0.77548486 -0.5300827 -0.34298036 0.0020058942
0.012828184 -0.024163019 -0.010508593 0.78243721 -0.51628357 -0.34820005 0.00093953242
0.014112202 -0.021912564 -0.010892946 0.79659963 -0.49722508 -0.34379688 0.0010766588
0.015278047 -0.020596264 -0.010101523 0.80110002 -0.46274659 -0.37961078 0.0012588736
0.014576565 -0.02013634 -0.011987223 0.78347957 -0.44358063 -0.43519655 0.0021836986
0.016066585 -0.018527951 -0.010735352 0.81116462 -0.38586676 -0.43945277 0.0012676986
0.017269235 -0.015716014 -0.010908698 0.81577551 -0.35292515 -0.4582077 0.0012587496
0.018445667 -0.014603054 -0.0097203916 0.81308818 -0.35545635 -0.46101898 0.0012420564
0.017717445 -0.012965642 -0.011732548 0.78571308 -0.19323879 -0.58763403 0.0025747153
0.018840114 -0.012469308 -0.010328901 0.80094349 -0.24886858 -0.54456764 0.0033344808
-0.016384136 -0.0098426649 -0.011271078 -0.59226924 0.74322957 -0.31117028 0.0016949639
-0.014809258 -0.0082531851 -0.01047404 -0.61119896 0.74128979 -0.27735421 0.00075654913
0.019321693 -0.0095871296 -0.010685941 0.76696676 -0.14011423 -0.62620288 0.0012609635
-0.013190734 -0.006822553 -0.010720217 -0.61423105 0.73477256 -0.28780103 0.00081980444
-0.01179639 -0.0057130363 -0.011218964 -0.61550856 0.73162204 -0.29305023 0.00058946601
0.019626196 -0.0066022752 -0.010743036 0.73276341 -0.066355258 -0.67724055 0.0035760975
0.021119693 -0.0059736846 -0.0091630062 0.7709316 -0.086643405 -0.63099706 0.0023558403
-0.010352453 -0.004255564 -0.010479205 -0.5897882 0.72843677 -0.34861115 0.0013880477
-0.00817216 -0.0027294951 -0.011133968 -0.54662168 0.73559058 -0.40013906 0.0046182941
0.017527547 -0.0027243304 -0.0118498 0.57054305 0.19355305 -0.79813397 0.0025525645
0.019441957 -0.0036518178 -0.010717405 0.63112152 0.15823196 -0.75937355 0.0030763901
0.02111819 -0.0036667907 -0.0091962526 0.73666435 0.053175561 -0.67416471 0.0036934302
-0.0069123907 -0.0012718784 -0.010262726 -0.58601475 0.706361 -0.39704001 0.0030672692
-0.0048766164 -0.00024029519 -0.011086833 -0.47124785 0.6924811 -0.54625577 0.0021015946
-0.0028373641 0.0004842747 -0.01189883 -0.43109712 0.66663557 -0.60807264 0.0050235041
0.016904075 -0.00048230868 -0.011440507 0.45186779 0.28586614 -0.84504205 0.0015758802
0.01940329 -0.00072044367 -0.010009031 0.55618238 0.23218158 -0.79796797 0.0022477764
-0.0038308795 0.0013031419 -0.0099363131 -0.48146427 0.71204925 -0.51105589 0.0022196507
-0.0014335182 0.0023112055 -0.010690731 -0.39129204 0.68237454 -0.617459 0.002106674
0.0013591549 0.0031658839 -0.011324915 -0.26805627 0.66275281 -0.69921714 0.0017219132
0.004241528 0.0035913261 -0.011823291 -0.1561076 0.62267017 -0.76675433 0.0017326277
0.010709043 0.0035907617 -0.011900124 0.13127947 0.50498945 -0.85308343 0.0012992054
0.013636645 0.0028662747 -0.011573154 0.27010781 0.41885638 -0.86694932 0.0021840578
0.0164563 0.0023237616 -0.01065879 0.39409205 0.36347702 -0.84414208 0.0010663547
0.018824682 0.0019184351 -0.0095242085 0.48410046 0.31702265 -0.81556326 0.00094991631
-0.00032901298 0.004172923 -0.0093474677 -0.42994079 0.68564099 -0.58740735 0.00080365431
0.0017237049 0.0048046457 -0.0098930411 -0.34078604 0.67311853 -0.65633559 0.0034446223
0.0045384332 0.0052861134 -0.010465753 -0.22453339 0.65304857 -0.72326505 0.00192528
0.0074880719 0.0053088181 -0.010928558 -0.041966982 0.58542621 -0.80963874 0.001028209
0.010475916 0.0053095706 -0.010850921 0.086665072 0.53647149 -0.83945668 0.0018268354
0.013477426 0.0053155664 -0.010310269 0.23159461 0.47481602 -0.84906644 0.0020053007
0.016083065 0.0049681747 -0.009643577 0.37019882 0.39958528 -0.83862054 0.0022627248
0.0054349368 0.006940159 -0.0092983982 -0.23568031 0.65771353 -0.71544921 0.0024710512
0.0075963801 0.0072213691 -0.0094697634 -0.095396489 0.61338407 -0.78400218 0.001838244
0.010434886 0.0073757097 -0.0094687948 0.040552821 0.57118106 -0.81982172 0.001482891
0.013274115 0.0070936885 -0.0093120579 0.18863581 0.5126785 -0.83760214 0.0016984583
-0.061414968 -0.050485469 -0.0062514832 -0.25542772 -0.41133171 -0.87496454 0.020448439
-0.058317356 -0.050721522 -0.0066648833 -0.18897903 -0.6932196 -0.69550955 0.011323212
-0.055674825 -0.050568625 -0.0075094057 -0.26479658 -0.71649843 -0.64537799 0.0062324977
-0.053191837 -0.050298426 -0.0088091828 -0.4502165 -0.54105538 -0.71032685 0.020074544
-0.063487217 -0.048408892 -0.0062273638 -0.29149872 0.0040148525 -0.95656282 0.023573339
-0.061533958 -0.048644014 -0.006831178 -0.27285168 -0.35973433 -0.8922686 0.028806405
-0.058673747 -0.048655525 -0.0079635773 -0.4013246 -0.31005058 -0.86186266 0.034703307
-0.056317355 -0.049434319 -0.008662818 -0.45294896 -0.37384722 -0.80936736 0.055434324
-0.063294023 -0.046902001 -0.0061083576 -0.2001977 0.26016945 -0.94458067 0.024751149
-0.061425615 -0.046388917 -0.0065526208 -0.30140328 0.31694657 -0.89927793 0.03706459
-0.05847127 -0.045879133 -0.0074728657 -0.49357322 0.58688951 -0.64183033 0.02562944
-0.056414533 -0.045165531 -0.0083887847 -0.62060994 0.42596969 -0.65832597 0.021280147
-0.057199467 -0.044072896 -0.0065112254 -0.55477422 0.62560827 -0.5484888 0.0054910607
-0.055359297 -0.043244053 -0.0075572403 -0.5996877 0.60986453 -0.51811194 0.0062927813
-0.053411894 -0.042069156 -0.0079915365 -0.6523667 0.57266974 -0.49645439 0.0055388319
0.0056755487 -0.033495583 -0.008206307 0.71347272 -0.66181177 -0.23013441 0.00057561696
0.0063666925 -0.032785073 -0.0084256371 0.71348315 -0.66180128 -0.23013203 0.00058709859
0.010990592 -0.027618257 -0.0082941251 0.77207726 -0.59223419 -0.23055439 0.0010703483
0.013515165 -0.024506621 -0.0077452841 0.79009783 -0.56938499 -0.22703764 0.00133846
0.014452185 -0.02284853 -0.0084582856 0.8059966 -0.5200454 -0.28270528 0.0012998022
0.015694601 -0.021394104 -0.0075452169 0.80814779 -0.53301471 -0.25058436 0.00035457866
0.017066745 -0.018941127 -0.0080257794 0.82523847 -0.49130598 -0.2785674 0.00093276997
0.017958675 -0.017813167 -0.0073616793 0.83667648 -0.43983084 -0.32637596 0.0017469771
0.017904762 -0.016828885 -0.0087911924 0.85461098 -0.40062746 -0.33036003 0.0028978761
0.01899701 -0.015563143 -0.0076621673 0.84132165 -0.42335787 -0.3360745 0.0013813797
0.020198293 -0.012784086 -0.0077166636 0.8511672 -0.35985538 -0.38212356 0.0013999653
0.021233756 -0.011579586 -0.0066427728 0.84815031 -0.36241102 -0.38639265 0.00129634
0.020604894 -0.010292555 -0.0086333193 0.83097398 -0.20347477 -0.51776469 0.0022402918
0.021547552 -0.0094458275 -0.0073936405 0.8448422 -0.25610346 -0.46973684 0.0027154877
0.022074293 -0.0067005968 -0.0076600104 0.82132584 -0.16576236 -0.54584503 0.0030518766
-0.0095063485 -0.0027518403 -0.0080892779 -0.65866721 0.71741176 -0.2268874 0.0021017857
-0.0088742655 -0.0022861939 -0.0087278923 -0.67490131 0.69972926 -0.23428008 0.0016549836
0.022494489 -0.0035955883 -0.0075835381 0.78819954 -0.0011691599 -0.61541867 0.0052555292
-0.0074077281 -0.00061976397 -0.0075686257 -0.68131208 0.70498395 -0.19700621 0.0013137205
-0.0056387624 0.0004842747 -0.008917137 -0.58447737 0.70638371 -0.39925966 0.0026208512
0.020671017 0.00025353022 -0.0088777682 0.60689318 0.1730611 -0.77571291 0.0031255691
0.022350203 -0.00067293551 -0.0075830841 0.70879 0.097150117 -0.69869775 0.0043691532
-0.0061453735 0.00094849057 -0.0064570447 -0.66307867 0.70834494 -0.24202083 0.0026265087
-0.0043766727 0.0022085411 -0.0075248322 -0.64010096 0.70601737 -0.30300209 0.0013248732
-0.002414525 0.0034559742 -0.0082757743 -0.57799482 0.71389896 -0.39531022 0.0031276683
0.020033615 0.0026405426 -0.0084986687 0.51985484 0.28139839 -0.80657667 0.0023432777
0.022127103 0.0022295741 -0.0071027521 0.60645694 0.23630667 -0.75918978 0.0017963224
-0.0011390403 0.0049900748 -0.0074158614 -0.553976 0.69156706 -0.46351424 0.0036332803
0.0012214999 0.0060630003 -0.0082152467 -0.36197942 0.67762893 -0.64014828 0.0026193319
0.0031305598 0.0064842571 -0.0089247962 -0.30503675 0.6627329 -0.68391347 0.0011716324
0.017136704 0.0058711106 -0.0087563731 0.36076713 0.3894237 -0.84746462 0.0022040273
0.019519303 0.0053751096 -0.0077895885 0.46752557 0.35960072 -0.80753154 0.0019000421
0.02167212 0.0050637834 -0.0065325918 0.55052912 0.31170768 -0.77443916 0.0012927507
0.0018819086 0.0075487122 -0.0069561531 -0.43293625 0.6917479 -0.57797158 0.004781696
0.0045558191 0.0083322171 -0.0076982817 -0.2805984 0.6516763 -0.70468616 0.0017980011
0.0074856533 0.0088398457 -0.0081397668 -0.13175604 0.6310097 -0.76450449 0.0012930635
0.010527515 0.008969374 -0.0083130794 -0.0014111091 0.58966398 -0.80764747 0.0014402648
0.013548249 0.0087112803 -0.008217331 0.11882459 0.55334359 -0.8244341 0.00095155928
0.016325545 0.0083535593 -0.0077256095 0.28757945 0.47761512 -0.83016974 0.0018477296
0.019031374 0.008029066 -0.006784929 0.39694706 0.43423271 -0.8086254 0.0020015899
0.0056921346 0.010233821 -0.0063939532 -0.35629746 0.6595521 -0.66184831 0.0027630844
0.0076615615 0.010634184 -0.0066524269 -0.19736294 0.64515364 -0.73812234 0.0028397345
0.010325813 0.010919861 -0.006841491 -0.046557967 0.60452139 -0.79522723 0.002122429
0.013343111 0.010921957 -0.0067531541 0.10086348 0.56282467 -0.82039922 0.0014191596
0.016137181 0.010597913 -0.0064284727 0.25545469 0.50894612 -0.82201993 0.0016105707
-0.066220298 -0.050257623 -0.0052258512 -0.1867723 -0.032417715 -0.98186815 0.034557059
-0.064360879 -0.051346067 -0.0050153201 -0.18980743 -0.49995303 -0.84499705 0.040833991
-0.061797097 -0.051526871 -0.0050013363 -0.19208595 -0.61398095 -0.76559156 0.019298382
-0.059485879 -0.051435743 -0.0051108538 -0.13874142 -0.70274198 -0.69778556 0.011263107
-0.055903256 -0.051121056 -0.0057913205 -0.21824567 -0.72791642 -0.65000504 0.008635723
-0.066375554 -0.048419755 -0.0054225852 -0.30422375 0.024405846 -0.95228791 0.023834474
-0.064914539 -0.048604459 -0.005844323 -0.30419981 0.024354991 -0.95229685 0.023838501
-0.066491656 -0.046078727 -0.0046860208 -0.40692341 0.50762272 -0.7594291 0.037810948
-0.064618498 -0.045567002 -0.0047291312 -0.25227115 0.70093411 -0.66712117 0.038212635
-0.061696131 -0.045017444 -0.0048189554 -0.25775346 0.7078889 -0.65761417 0.03606746
-0.059188969 -0.044503517 -0.0051585091 -0.39647403 0.79231226 -0.46373445 0.0056350632
-0.058291186 -0.043619603 -0.0045036492 -0.44361296 0.76533246 -0.46634087 0.0076689869
-0.05642058 -0.042946633 -0.0054023508 -0.55680203 0.68072814 -0.47600502 0.0017516821
0.011991715 -0.02699299 -0.0050455472 0.78231943 -0.5883981 -0.20436251 0.00051357911
0.01382735 -0.02460785 -0.0060175201 0.78754675 -0.57621348 -0.21851388 0.0010020233
0.016423427 -0.02129774 -0.0048427498 0.81383061 -0.53177774 -0.23429072 0.00027964337
0.017332494 -0.0197544 -0.0054666391 0.8314321 -0.4919236 -0.25832507 0.00044872364
0.018526008 -0.018082872 -0.0046799821 0.83920729 -0.48653451 -0.24293046 0.00043248292
0.020057226 -0.015429724 -0.0046913251 0.86063504 -0.43374029 -0.2667895 0.00064802059
0.020834539 -0.013715958 -0.0051766327 0.87269354 -0.39308983 -0.28963158 0.0016663397
0.021692991 -0.012261074 -0.0045163571 0.87062585 -0.39533642 -0.29277951 0.0016180264
0.022715094 -0.0095672198 -0.0048137233 0.88113576 -0.32983893 -0.33883041 0.0026719118
0.023441691 -0.0069188084 -0.00518214 0.87539226 -0.24555664 -0.41640162 0.0044573192
0.024249103 -0.0061454368 -0.0039770445 0.87903649 -0.29290846 -0.37616417 0.0018742597
-0.010115274 -0.003004482 -0.0055838069 -0.67871594 0.70601606 -0.20220307 0.0014422961
0.023590587 -0.0046284078 -0.0059151193 0.82471836 -0.087306261 -0.55876404 0.0023810074
0.02454566 -0.0035899547 -0.0045131426 0.85051334 -0.13369894 -0.50867641 0.0052384436
-0.0071329684 0.0004842747 -0.003565385 -0.70806843 0.67672288 -0.20170601 0.00082861731
0.02482455 -0.00068136072 -0.004583919 0.82745969 -0.03320989 -0.56054229 0.0028448899
-0.0064150714 0.0011836309 -0.0044712564 -0.71504575 0.66895407 -0.2030026 0.00091163313
-0.0047139963 0.0030154279 -0.0046086791 -0.69826019 0.67164946 -0.24762803 0.0021265743
0.023481119 0.0028091455 -0.0057823239 0.69473702 0.15018344 -0.70340985 0.0032506939
0.024833664 0.0023502205 -0.0044094175 0.77001822 0.069504634 -0.63422477 0.0037400553
-0.0035413569 0.0043720277 -0.0043071448 -0.68457699 0.67259157 -0.28102505 0.002201268
-0.0018255935 0.0058017187 -0.0049983179 -0.64107513 0.68000877 -0.35582393 0.004419521
0.022976438 0.005581446 -0.0053605167 0.62633252 0.24247964 -0.74088532 0.0022183068
0.024720421 0.0052941199 -0.00389991 0.68856114 0.19267882 -0.69911253 0.0029784711
-0.00048377668 0.0075361747 -0.0041997009 -0.63657099 0.66502124 -0.39054349 0.0020608832
0.0013641585 0.0088748392 -0.0046872743 -0.5633508 0.65624964 -0.50196856 0.0053617181
0.0034895428 0.0096679721 -0.0057151308 -0.3917729 0.69246137 -0.6058144 0.0020489129
0.020194476 0.00916606 -0.0056330226 0.41889575 0.39520651 -0.81751961 0.002356194
0.022493917 0.0084110182 -0.0045759263 0.54812884 0.33246103 -0.76747924 0.0011622889
0.024359111 0.007788511 -0.00343291 0.63510931 0.29885632 -0.71226472 0.0021398282
0.0023296336 0.010411834 -0.0036891019 -0.58690268 0.68268341 -0.43530282 0.0024911196
0.0044430755 0.011258846 -0.004555366 -0.43340856 0.67949182 -0.59198648 0.0058970419
0.0071632471 0.011953235 -0.0053012203 -0.24137785 0.66172236 -0.70983118 0.0019957135
0.010348015 0.01234152 -0.0057238704 -0.088693805 0.6329962 -0.76905745 0.0018213287
0.013370344 0.012341095 -0.0057389024 0.066466995 0.59244347 -0.80286545 0.0012392773
0.016550524 0.011926299 -0.0054508671 0.19672534 0.54476076 -0.81519002 0.0010224846
0.01945827 0.011438273 -0.0046995315 0.34841806 0.48861948 -0.79990989 0.00098847097
0.021953549 0.011026319 -0.003647632 0.47140521 0.43133825 -0.76923627 0.0018705524
0.0054869577 0.013110207 -0.0032737395 -0.47148833 0.65773368 -0.58743948 0.0030466099
0.0076342672 0.013703853 -0.0038217939 -0.30588835 0.65612417 -0.68987918 0.0031709564
0.010432955 0.014181707 -0.004219362 -0.14264882 0.63342291 -0.76054364 0.0029120138
0.013408745 0.014247416 -0.0043109222 0.063909598 0.59530103 -0.80095708 0.0010576721
0.016388575 0.014151432 -0.0039843703 0.18080468 0.55588299 -0.81135923 0.0015851117
0.018982274 0.013624603 -0.0035525141 0.34637272 0.49684018 -0.79572338 0.0011615629
0.012974111 0.01592301 -0.003074958 0.0053625931 0.61238414 -0.79054219 0.0022934056
-0.062647998 -0.052904285 -0.002628847 -0.19200395 -0.6140002 -0.76559669 0.019309314
-0.064658687 -0.044008721 -0.0019473149 -0.28014177 0.78859806 -0.54738814 0.030989904
-0.06142886 -0.043925352 -0.0018894579 -0.26949948 0.85002548 -0.4525778 0.010595486
-0.059602849 -0.043537006 -0.0026375195 -0.33167008 0.80144894 -0.49766916 0.010532985
0.020237477 -0.015900968 -0.0027937731 0.85555357 -0.44752529 -0.26028666 0.00065103575
0.022323122 -0.012503348 -0.00159417 0.88091511 -0.41521856 -0.22711699 0.00053895131
0.02356559 -0.0098396745 -0.0017776382 0.89441985 -0.36262706 -0.26175335 0.0010265018
0.024312746 -0.0086838137 -0.00093912985 0.89680666 -0.35549328 -0.26336735 0.0011270877
0.024878254 -0.0066001946 -0.0018100105 0.90183139 -0.32070127 -0.28957 0.0022909385
0.025843693 -0.0035374975 -0.0018062755 0.90305233 -0.23073159 -0.36229736 0.0026755205
0.026372807 -0.00068892119 -0.0019266396 0.88623822 -0.12919202 -0.44484967 0.0044787009
0.027154891 1.3591722e-05 -0.00057318248 0.89699978 -0.17810169 -0.40456295 0.0024149222
-0.0055172164 0.0025927443 -0.0023872396 -0.72132182 0.65937209 -0.21195099 0.00073504297
0.02634736 0.0023586955 -0.0023750803 0.84155691 0.017559703 -0.53988302 0.002338584
0.027315661 0.0026224181 -0.00075334311 0.86843711 -0.04458778 -0.49379021 0.0026631218
-0.0037717272 0.0049456935 -0.0014514318 -0.76364499 0.62524295 -0.16098912 0.0019437122
-0.0025676091 0.006204145 -0.0021563075 -0.73212647 0.64832729 -0.20895584 0.0013806751
0.026183123 0.0055241147 -0.0021735793 0.78937709 0.12495696 -0.60105705 0.0018519877
0.027339404 0.0052359421 -0.00063941348 0.82632416 0.068210132 -0.55904901 0.0028617634
-0.0010230313 0.008181911 -0.0016885004 -0.69587451 0.64971387 -0.30599126 0.0013321025
0.00057441555 0.0096220169 -0.0023665866 -0.67903286 0.6603508 -0.32070422 0.0017782444
0.025668036 0.0083933976 -0.0019610245 0.69794935 0.26619092 -0.6648376 0.0038027964
0.027167341 0.008016808 -0.00035920925 0.76848137 0.17440672 -0.61564493 0.0021771144
-0.00013779569 0.0099030007 -0.00020129886 -0.74039036 0.61494118 -0.27142119 0.0044476702
0.0017191954 0.0112042 -0.0015561655 -0.64164406 0.66451919 -0.38302371 0.0034634825
0.0036197314 0.012398461 -0.0024346849 -0.54710025 0.66782916 -0.50466383 0.00084103958
0.023061628 0.011844968 -0.0024915896 0.52754498 0.37796542 -0.76081437 0.001513714
0.025284037 0.01114985 -0.0011710068 0.62565088 0.31637475 -0.71306944 0.0017450872
0.0046802722 0.013984423 -0.0014919555 -0.53208631 0.67977434 -0.50476819 0.0033472208
0.0070253499 0.014992258 -0.0021980545 -0.3572441 0.65668553 -0.66418439 0.0022634573
0.00946863 0.015461678 -0.0028861305 -0.17920168 0.65510881 -0.73397493 0.0024191765
0.017191835 0.015462028 -0.0028756401 0.15354192 0.5866279 -0.79516834 0.0011536921
0.019572765 0.014883878 -0.002489333 0.2950201 0.5347991 -0.79180366 0.00093347376
0.022373116 0.014308374 -0.0014840378 0.40829259 0.48271155 -0.77478188 0.00058516063
0.024650177 0.01350514 -0.00048426166 0.53670239 0.42935151 -0.72636622 0.0011741718
0.0077896398 0.016602596 -0.00097294897 -0.41826922 0.66293418 -0.62094218 0.0023321095
0.010518047 0.017251996 -0.0015334492 -0.20185097 0.65557629 -0.72765094 0.0013066601
0.013485463 0.017406153 -0.0018206062 -0.0068253339 0.61708546 -0.78686655 0.0019630233
0.016533583 0.017385708 -0.001590224 0.14360365 0.60874546 -0.7802608 0.0014329327
0.019235017 0.017091079 -0.0010924479 0.27776119 0.55882317 -0.78138685 0.0019159339
0.021639267 0.016441703 -0.00052342098 0.41570342 0.49837902 -0.76079494 0.00083180756
0.013282947 0.019320436 -0.00023184624 -0.077275366 0.63505048 -0.7685957 0.0026010484
0.015874976 0.019322816 -0.0001762528 0.12105116 0.61001921 -0.78308564 0.001622994
-0.064496949 -0.043834932 0.00030383561 -0.28663382 0.82751304 -0.48276615 0.020241447
0.02494956 -0.0085130464 0.0022174576 0.90471846 -0.38404122 -0.18438219 0.00027904863
0.025586696 -0.0065972214 0.00086969696 0.91182017 -0.35111132 -0.21284917 0.00054194604
0.026680162 -0.003766478 0.001005779 0.9226014 -0.28886852 -0.25565916 0.0019753606
0.027296113 -0.0025913995 0.0018537352 0.91689003 -0.2977719 -0.26579055 0.0020047531
0.027685851 -0.00060208235 0.0012342548 0.93142116 -0.21896535 -0.29070386 0.0024299517
0.028273966 0.0023434209 0.0013225535 0.91734177 -0.11977332 -0.37965563 0.0027574254
-0.0039400957 0.0052226353 0.0024903873 -0.79087204 0.597381 -0.1328811 0.0010102878
-0.0029881159 0.0066385586 0.0020908574 -0.80426091 0.57329595 -0.15651233 0.00099495635
0.028494492 0.0056837881 0.0014087819 0.8900969 -0.0076844436 -0.4557066 0.0027593162
-0.0015584364 0.0084421746 0.00083710346 -0.79573494 0.57351536 -0.1946433 0.0018118541
0.028259248 0.0082487334 0.001370809 0.83931994 0.11568961 -0.53118551 0.0033733991
-0.00030347263 0.01041664 0.0016706446 -0.77070612 0.58953071 -0.24179673 0.0020751937
0.0011442867 0.012035972 0.001126416 -0.74885982 0.60088551 -0.27954516 0.0012044789
0.026500585 0.012095597 0.00033546705 0.67441356 0.30021909 -0.67456275 0.0047255461
0.02786921 0.01124097 0.0015331954 0.75804335 0.24067783 -0.60617197 0.005348864
0.0023236754 0.0137817 0.001722822 -0.70548248 0.60830468 -0.36367542 0.001917555
0.0038359663 0.014915718 0.00082377996 -0.63235784 0.6407131 -0.43544263 0.0041578105
0.023902193 0.015569391 0.00023739133 0.51560527 0.44369644 -0.73299706 0.00083374447
0.02577039 0.014590297 0.0010493323 0.59062922 0.38742313 -0.70785624 0.001773279
0.027586972 0.01395761 0.002328001 0.69110441 0.33603197 -0.63988841 0.0038465708
0.0049895048 0.016772337 0.0017854981 -0.61491662 0.62648231 -0.47895458 0.0031413811
0.0070064981 0.017820211 0.00094585773 -0.45883131 0.65134823 -0.60433382 0.0026212893
0.0092840008 0.018387141 -2.3677014e-05 -0.29163462 0.67345196 -0.67927301 0.0017651662
0.020243619 0.018274983 0.00011374149 0.29381284 0.55583596 -0.77763766 0.002869827
0.022583352 0.017510191 0.00071031321 0.39165372 0.53036261 -0.75187963 0.00089435343
0.025008176 0.017067531 0.0019871993 0.53445047 0.46546167 -0.70548433 0.0016297481
0.0080044288 0.019550994 0.0020566508 -0.50331926 0.65007031 -0.56927884 0.0020157048
0.010522877 0.020308383 0.0013532527 -0.28150514 0.66091418 -0.69566321 0.0022342969
0.013316875 0.020793734 0.0010555377 -0.11017147 0.65584838 -0.74680996 0.0034278529
0.016449858 0.020715775 0.0010244269 0.072105907 0.63599044 -0.7683208 0.0010656863
0.019471379 0.020337893 0.0014066985 0.23127528 0.60358715 -0.76301664 0.0013179067
0.022083933 0.01979997 0.002092992 0.38515761 0.55783105 -0.73517221 0.0015878644
0.024265699 0.018974112 0.0027326206 0.48821825 0.50894403 -0.70895624 0.00043747513
0.011703266 0.022295536 0.0027879337 -0.3072494 0.66651875 -0.67922783 0.0027091606
0.013545323 0.022472156 0.0025251992 -0.12459805 0.67019379 -0.73165268 0.0034249567
0.016436335 0.022519609 0.0025260905 0.067546777 0.6575231 -0.75040042 0.001755779
0.018813396 0.022292541 0.002727584 0.2346506 0.61549687 -0.75239789 0.0018588419
0.026211362 -0.0061659347 0.0036174217 0.91453451 -0.34573427 -0.20998687 0.00051812071
0.027439697 -0.0034812321 0.0043227132 0.92273295 -0.34422186 -0.1734221 0.00040436239
0.028478801 -0.00056108367 0.0041850787 0.93739915 -0.2679238 -0.2224852 0.00094259641
0.029342815 0.0026523648 0.0043112691 0.93976259 -0.16371953 -0.30007029 0.0013109412
0.029638749 0.0052387454 0.0039777616 0.93341601 -0.081984006 -0.34930399 0.0040316256
0.030389994 0.0064517576 0.0057973126 0.95311493 -0.098604016 -0.28609288 0.0024590839
-0.0020533502 0.00831935 0.0034561316 -0.80900586 0.55551523 -0.19212615 0.00045224751
0.029594418 0.0085155107 0.0037785182 0.89453238 0.057289895 -0.4433167 0.0016023485
0.030372947 0.0083566718 0.0055336766 0.93986273 0.0022901227 -0.34154493 0.0022461568
-0.00053779176 0.010952886 0.0043231351 -0.79370338 0.56632525 -0.22205992 0.00066331279
0.00047852844 0.012366839 0.0038408004 -0.78810447 0.56778413 -0.23772368 0.00061615824
0.029382698 0.011505065 0.0040532425 0.85956496 0.12973768 -0.49428344 0.0014012206
0.030385736 0.010508291 0.0057314299 0.9272778 0.081329927 -0.36543304 0.002903153
0.0018321183 0.01459235 0.0045290152 -0.76785547 0.57181597 -0.2888329 0.0014953368
0.003169836 0.015672402 0.0032245675 -0.74395204 0.57692975 -0.33717561 0.0008530792
0.028903387 0.01455616 0.0042955056 0.80261892 0.25593251 -0.53879631 0.0071139787
0.0026994227 0.016216563 0.0051804939 -0.76816094 0.56013864 -0.31011862 0.00224933
0.0041247555 0.017559865 0.0043740887 -0.72465211 0.58334613 -0.36686045 0.0017406986
0.02622089 0.017793817 0.0034023626 0.61345398 0.42482957 -0.66572821 0.0011259817
0.028037032 0.017268462 0.0047517568 0.65030897 0.39406413 -0.64947039 0.0015397922
0.0052404376 0.019388044 0.0050181756 -0.67345703 0.5882616 -0.44766498 0.002630878
0.0071069188 0.02061264 0.0041565765 -0.60198522 0.61730242 -0.50650918 0.0019859397
0.0098115653 0.02167639 0.0030585686 -0.33900437 0.6675511 -0.66291153 0.0040719248
0.020720176 0.021830278 0.002971516 0.30530357 0.59141999 -0.74633247 0.0031891535
0.022747811 0.021084303 0.003402194 0.36574361 0.57561499 -0.73136795 0.0013428418
0.025263572 0.020210315 0.0043706596 0.51418346 0.49609238 -0.69964844 0.0013097583
0.027218431 0.019469477 0.0054358756 0.58069664 0.47723928 -0.65957105 0.00070627319
0.0082193697 0.022368858 0.0050638001 -0.55897355 0.63312942 -0.53543973 0.002108779
0.010580729 0.02342103 0.0044643655 -0.31849509 0.67064738 -0.66992021 0.0020864236
0.013319599 0.023925215 0.003927202 -0.15621306 0.69078785 -0.70598125 0.0045024459
0.016425908 0.023983143 0.0037983079 0.045077123 0.66981685 -0.74115688 0.0014702765
0.019597296 0.023694593 0.0041780081 0.23258047 0.64074081 -0.73168135 0.0019670252
0.022383295 0.023104489 0.004829431 0.37118974 0.59489065 -0.71296787 0.0017111154
0.024480894 0.022265358 0.0053837355 0.49277207 0.54339606 -0.67962968 0.00067825656
0.011770386 0.025306687 0.0057540396 -0.3619881 0.67266268 -0.64535999 0.0025014451
0.013631003 0.025566589 0.0054236688 -0.18809043 0.68540829 -0.70344687 0.0038934101
0.016221382 0.025732473 0.0053366795 0.0349163 0.66474921 -0.74625021 0.0021825789
0.018970132 0.025485344 0.0055348612 0.20823765 0.64944166 -0.73134309 0.0013551918
0.028537199 -0.001429392 0.0067387382 0.93364668 -0.31907091 -0.16278104 0.00062688376
0.029447552 0.0014394987 0.0059951106 0.94829881 -0.24068689 -0.20687962 0.0019902505
0.030013293 0.0026398841 0.0073811868 0.95209801 -0.24277158 -0.1859334 0.0015857805
0.030646112 0.0055143051 0.007283912 0.95728058 -0.15332212 -0.24516562 0.00062370417
0.030959185 0.0083857905 0.0071937656 0.95491099 -0.04757487 -0.29305565 0.001429015
0.030784532 0.011493241 0.0069599943 0.93605208 0.062939934 -0.34618646 0.0011680016
0.0010269647 0.014500715 0.0074552493 -0.8580212 0.48249397 -0.17606591 0.0026571809
0.029921521 0.015288414 0.0059377411 0.83791596 0.18440066 -0.51370555 0.0030549136
0.030650247 0.014309306 0.0075349873 0.90996456 0.1423852 -0.38947535 0.0023214938
0.0023846184 0.016860358 0.007556594 -0.79624838 0.54073149 -0.27128965 0.0011826737
0.0033743205 0.018303927 0.0072928043 -0.79023021 0.53552848 -0.29790202 0.0014793499
0.029183362 0.018118443 0.0065471055 0.72657394 0.35031015 -0.59107792 0.008223909
0.030267693 0.017502194 0.0076088691 0.79601109 0.28901234 -0.53182542 0.008486947
0.0047800578 0.020416683 0.0074068392 -0.72379935 0.57080406 -0.38768172 0.0018322808
0.0060474556 0.021275068 0.0063023577 -0.68034917 0.58155531 -0.44600272 0.001539599
0.026430421 0.021346631 0.0061334129 0.59154338 0.48558521 -0.64364856 0.00078017381
0.028401196 0.020398425 0.0073041106 0.66777921 0.43770376 -0.60206836 0.00072588341
0.030085087 0.019457208 0.0085104564 0.76373565 0.34379905 -0.54636073 0.0092477752
0.0055858511 0.022083731 0.0081979493 -0.70747823 0.57635862 -0.40900519 0.0030679067
0.0073928656 0.023395177 0.0072537856 -0.62611991 0.62432617 -0.46710882 0.0022367102
0.0098683201 0.024612784 0.0061614821 -0.40009615 0.66236556 -0.63339943 0.0038560682
0.023059446 0.024377927 0.0062368196 0.3548246 0.60511941 -0.71269214 0.0010429897
0.025587106 0.02336799 0.0070880679 0.51056141 0.53217584 -0.67536348 0.0012858558
0.027666828 0.02256492 0.0082187215 0.60947752 0.50484174 -0.61128718 0.001208763
0.0083054183 0.025122583 0.0081776241 -0.56158304 0.62241578 -0.54518163 0.0034436723
0.01049097 0.026182376 0.0074689453 -0.41539988 0.65786248 -0.62821966 0.0037288736
0.013372425 0.027028985 0.0069376891 -0.18006022 0.68732101 -0.70368183 0.0025173002
0.016400624 0.027225848 0.0067431414 0.017573129 0.67735803 -0.73544365 0.0020417646
0.019502589 0.026840698 0.0069224769 0.18315521 0.66228455 -0.72652131 0.0012072575
0.022496743 0.026211955 0.0075504472 0.35066488 0.62033981 -0.70157874 0.0013101073
0.024787117 0.025445629 0.0082287351 0.4706279 0.58701891 -0.65872473 0.001513921
0.011598883 0.028120436 0.0087918499 -0.40812999 0.6727258 -0.61714655 0.0023378711
0.013794281 0.028597564 0.0083886525 -0.21544789 0.68503052 -0.69592768 0.0031835579
0.016387161 0.028806988 0.0082464302 0.0033089942 0.68228734 -0.7310766 0.0025848527
0.019074945 0.028618794 0.0084366882 0.17003988 0.67984039 -0.71337473 0.0010919898
0.02144671 0.028033376 0.0086798137 0.32528463 0.63339472 -0.70214039 0.00098561216
0.029674508 0.00096580572 0.009626315 0.95209581 -0.2427754 -0.1859401 0.0015938276
0.031096961 0.0057770777 0.0092897872 0.96163684 -0.19434397 -0.19361013 0.0021517263
0.031605765 0.0086708199 0.0097034434 0.96235901 -0.048104316 -0.26749042 0.0009657995
-0.0001809313 0.012527289 0.0098061422 -0.86228389 0.48459834 -0.14707468 0.0012244727
0.031855199 0.011441143 0.010147258 0.95523548 0.047744568 -0.29196858 0.00089680072
0.031746779 0.014133517 0.010362 0.94705904 0.081904046 -0.31043661 0.0012824337
0.002159161 0.017641531 0.010369091 -0.88444918 0.43893978 -0.15837102 0.0013466057
0.031348046 0.017104765 0.010435157 0.91822362 0.16341846 -0.36077672 0.0016689411
0.0027138097 0.019357534 0.011855886 -0.88202506 0.43185917 -0.18849272 0.0016066411
0.0037627486 0.020611471 0.0103805 -0.83724022 0.47770354 -0.26613575 0.00098398293
0.029496435 0.021497576 0.0093418313 0.65746444 0.46334666 -0.59418035 0.00042986128
0.03074475 0.020621223 0.010345259 0.81439996 0.35338852 -0.46029255 0.010252797
0.0052547436 0.023161735 0.010509304 -0.78089201 0.52175397 -0.34348291 0.0023671018
0.0064017698 0.02424676 0.0097578922 -0.71887159 0.56841868 -0.40015492 0.0024850862
0.026748585 0.02452527 0.0089703361 0.55756813 0.54096091 -0.62966597 0.0014177916
0.028747819 0.023628335 0.010213594 0.6468842 0.4946447 -0.58040285 0.0014664896
0.030383743 0.022597156 0.011306592 0.77071577 0.40684333 -0.49038318 0.01078419
0.0075344509 0.026141588 0.010469419 -0.66289693 0.58968484 -0.46134526 0.0037352177
0.009287335 0.02712046 0.0094835619 -0.56394035 0.6176852 -0.54812068 0.0013125526
0.023637343 0.027427413 0.0092559615 0.43085337 0.59962898 -0.6743964 0.00054855348
0.025881799 0.026548207 0.010031932 0.51883954 0.56791043 -0.63897043 0.0014509605
0.027835513 0.02583082 0.011119084 0.59123552 0.5343712 -0.60405958 0.0012253874
0.0085146204 0.028042436 0.011435554 -0.6148352 0.62177837 -0.48514867 0.0040759649
0.010630159 0.029052429 0.010529193 -0.41621637 0.66696477 -0.61799836 0.0021181274
0.013381753 0.029790349 0.00975597 -0.21243015 0.71256113 -0.66867793 0.0027084542
0.016428523 0.030090306 0.0095055187 -0.009812641 0.71533823 -0.69870955 0.0022934428
0.019457916 0.029834855 0.0096844388 0.16841926 0.68680453 -0.70706046 0.0012206297
0.022359228 0.029235054 0.010227715 0.30766705 0.6532039 -0.69185662 0.00092314428
0.024848672 0.02866042 0.01116695 0.45922431 0.60096848 -0.65417886 0.0014960502
0.011904797 0.030960828 0.011693672 -0.41934213 0.66373533 -0.61936069 0.0020033352
0.013825975 0.031306427 0.011188234 -0.24727628 0.7179749 -0.65066612 0.0032431143
0.016531046 0.031609137 0.011024886 -0.028254228 0.72761083 -0.68540806 0.0029433374
0.019248916 0.031436719 0.01118469 0.16983055 0.69897217 -0.694691 0.001581118
0.021452341 0.031071458 0.011541576 0.31773391 0.66285223 -0.67799121 0.0010292068
0.032262173 0.010171982 0.012278245 0.96537614 -0.001184135 -0.26085937 0.0015845285
0.00077752722 0.015010642 0.012118087 -0.88565207 0.4367964 -0.15757342 0.0011827411
0.032256234 0.015013156 0.012190805 0.96049738 0.080328189 -0.26644361 0.00098059047
0.0015028664 0.01697755 0.01296723 -0.90041518 0.40728265 -0.15288314 0.00054762774
0.032215405 0.017479571 0.013374274 0.95541406 0.13472563 -0.26274133 0.00040667973
0.0025557461 0.019754739 0.013587511 -0.90177768 0.40059823 -0.16222821 0.00089431542
0.0033639972 0.021359475 0.013286934 -0.88758963 0.41483912 -0.20023297 0.0019108658
0.031870838 0.020324325 0.013670997 0.94699162 0.13428608 -0.29184613 0.001910988
0.004416652 0.023553062 0.013453911 -0.8406778 0.45960629 -0.28639644 0.0011940663
0.029842809 0.024705723 0.012319193 0.69384593 0.46768865 -0.54758126 0.00052477262
0.031173103 0.023626812 0.013311646 0.79235882 0.35472527 -0.49632391 0.0077488734
0.0054396177 0.025661726 0.013819407 -0.81336766 0.47901061 -0.33012414 0.0025903725
0.006598291 0.026980314 0.013099964 -0.77424628 0.50089204 -0.38684613 0.001237574
0.028915312 0.026683509 0.012998219 0.65830141 0.49510109 -0.5670222 0.0018307659
0.030387521 0.026085556 0.014222686 0.68208849 0.47982812 -0.55183351 0.00072038878
0.0078902654 0.029093996 0.013654561 -0.68601513 0.57864755 -0.4410786 0.003243445
0.0095032696 0.030060437 0.012709131 -0.61870247 0.60996908 -0.49512115 0.0022158667
0.023530934 0.03049916 0.012024269 0.34532478 0.64725214 -0.67957014 0.0011572239
0.025615105 0.02989291 0.012877832 0.4384003 0.61656982 -0.65394711 0.00095002062
0.027755866 0.029046655 0.01392259 0.57932645 0.55349159 -0.59835428 0.00099438685
0.010675472 0.031810313 0.013632637 -0.48480159 0.6779573 -0.55257708 0.0031290397
0.013241041 0.032788631 0.013042745 -0.23829626 0.71552318 -0.65668976 0.0024866869
0.016437523 0.033148862 0.012612966 -0.036145169 0.73271555 -0.67957449 0.0026151477
0.019579997 0.032946657 0.012764822 0.15266752 0.71013933 -0.68730986 0.0012460561
0.022449482 0.032385942 0.013290928 0.32023543 0.6563313 -0.68313885 0.0017037694
0.02492561 0.031638704 0.014034011 0.45751905 0.63140512 -0.62610215 0.0011804106
0.013957297 0.03433194 0.0144235 -0.27987748 0.71344775 -0.64238685 0.0028645259
0.016578309 0.034526393 0.014065196 -0.053310852 0.74537748 -0.66450757 0.0031795341
0.019357862 0.034443062 0.014252082 0.15348345 0.72232509 -0.67430651 0.0016258813
0.021710297 0.034082491 0.014641161 0.30941248 0.68552136 -0.65903288 0.0010656079
0.032982394 0.01488241 0.015697896 0.96653312 0.081677057 -0.24319227 0.00087831618
0.0017459509 0.018029736 0.015051947 -0.90395373 0.39650914 -0.16015001 0.00077180559
0.033044755 0.017357336 0.016602173 0.9610222 0.12784171 -0.24513833 0.00025198312
0.0024799444 0.020546889 0.016857013 -0.90998024 0.38593188 -0.15163308 0.00053526391
0.032452118 0.020374518 0.016101915 0.96285474 0.13279395 -0.23510978 0.00096349849
0.033134755 0.019121395 0.017907098 0.96985453 0.10919478 -0.21785016 0.00052016875
0.0035377243 0.023209669 0.01629528 -0.90282458 0.389667 -0.18184461 0.0014189986
0.03196685 0.024368539 0.015108095 0.88796765 0.23330072 -0.39633858 0.014799534
0.0049225697 0.026292395 0.016371127 -0.86737901 0.4327352 -0.24575195 0.0016479552
0.0061332099 0.027782798 0.015144692 -0.77509266 0.51081705 -0.37188333 0.0015576862
0.031336602 0.026569732 0.015986405 0.72925979 0.45967171 -0.5068354 0.00079624366
0.0056615658 0.028138518 0.016980842 -0.82723564 0.46359396 -0.31742996 0.0022066133
0.0069117621 0.029771645 0.016283993 -0.79713374 0.48961768 -0.35334441 0.000758023
0.028932191 0.02994971 0.015976597 0.63996083 0.5364852 -0.55012167 0.0013152556
0.030626897 0.028875876 0.017028302 0.69644028 0.49054843 -0.52376825 0.0015650014
0.0082519753 0.031988896 0.016738623 -0.68525237 0.57197636 -0.45085725 0.0017880261
0.0098343706 0.033085361 0.016003735 -0.61159128 0.6207267 -0.49056545 0.0035613275
0.023683846 0.033634871 0.015177594 0.33984393 0.6722241 -0.6577391 0.0011754107
0.025722049 0.03297152 0.015954841 0.4384048 0.64121908 -0.62979311 0.00098739716
0.027955186 0.031892024 0.016847312 0.57402599 0.57812053 -0.57988864 0.001025537
0.01081849 0.034743987 0.016951054 -0.50718987 0.64182401 -0.57516992 0.0031300508
0.013238413 0.035651457 0.016256768 -0.31741983 0.70370162 -0.63564831 0.0053847348
0.016466064 0.036150619 0.015855897 -0.052543014 0.7333436 -0.67782474 0.0026760274
0.019676674 0.0359971 0.015986059 0.13195072 0.72324127 -0.67787248 0.0014714049
0.022479866 0.035412386 0.016415309 0.31335872 0.68302083 -0.65976429 0.0017961662
0.024964767 0.034720618 0.017182305 0.4555665 0.63882571 -0.61996847 0.0011703251
0.014001288 0.037250783 0.017693654 -0.29430747 0.71433789 -0.6349051 0.0030189296
0.016441151 0.037467998 0.017348882 -0.070903935 0.74022269 -0.66861278 0.0034001318
0.019384736 0.037394777 0.017453354 0.13187024 0.73669088 -0.66324711 0.0021773307
0.021362355 0.037265033 0.017870083 0.30058563 0.71037644 -0.63640672 0.0012400643
0.033222459 0.020649897 0.019178823 0.96934038 0.12985753 -0.2086053 0.00068509334
0.0027307086 0.022148954 0.019696996 -0.92086256 0.35545552 -0.16019852 0.0004399429
0.0033856705 0.02410252 0.019397762 -0.91462028 0.36117536 -0.18172005 0.00085208181
0.032743562 0.02336517 0.019369133 0.9681862 0.13063261 -0.21342574 0.002646148
0.033323471 0.022193806 0.020643458 0.97834057 0.1018142 -0.18023229 0.00096439314
0.004205435 0.02641743 0.019307394 -0.90628892 0.37140557 -0.20173819 0.0012290648
0.032598831 0.026915576 0.018682372 0.94402552 0.1580075 -0.28956768 0.0096520577
0.0053538932 0.029130735 0.01935102 -0.87253898 0.40967777 -0.26615775 0.0014893436
0.0061668102 0.030202471 0.018609196 -0.83744884 0.45336053 -0.30519465 0.0016038354
0.031870514 0.029378042 0.019382555 0.73160934 0.47249231 -0.49142537 0.0010835892
0.007125794 0.032305852 0.019274235 -0.77517396 0.50028121 -0.38577715 0.002178326
0.028996132 0.032833695 0.018913198 0.62483132 0.56194896 -0.54203242 0.001670722
0.030656073 0.031709611 0.019811939 0.69528729 0.51750386 -0.49876377 0.0012465768
0.0083336076 0.03453248 0.019858398 -0.69672686 0.56153327 -0.44637653 0.0023920157
0.010103452 0.035797369 0.019031852 -0.56385213 0.65927577 -0.49741957 0.0036642158
0.012295442 0.036794469 0.018119007 -0.40489575 0.70231915 -0.58549738 0.0073830481
0.02346798 0.036687538 0.018316276 0.33943769 0.70070845 -0.6275267 0.0013232172
0.025949914 0.035751779 0.019082095 0.49467933 0.64239907 -0.58533382 0.001096459
0.028063122 0.03468246 0.019865755 0.5674898 0.6110394 -0.55189323 0.00093732751
0.011053826 0.037497438 0.020064246 -0.53804582 0.6437524 -0.54414111 0.0029330866
0.013301615 0.038421478 0.019501392 -0.27706784 0.73554391 -0.61823016 0.0025127409
0.016247565 0.038828664 0.018963821 -0.065316774 0.76594329 -0.63958162 0.00275773
0.019442694 0.038671397 0.018951707 0.13913579 0.77355438 -0.6182676 0.0021957157
0.022359461 0.038286749 0.019588519 0.29728311 0.73971194 -0.60369605 0.0016245631
0.024861827 0.037450269 0.020156812 0.44117135 0.67974311 -0.58593267 0.0012535802
0.014576454 0.039962739 0.020719722 -0.29717112 0.7537517 -0.58612943 0.0026107805
0.016542278 0.040105626 0.020468395 -0.079772003 0.78260332 -0.61738849 0.0030842917
0.019010192 0.040068634 0.020516384 0.14509167 0.77757442 -0.61182225 0.0022734641
0.0032308884 0.024738267 0.022110149 -0.93517935 0.31972691 -0.15236248 0.00075929874
0.033436403 0.023758203 0.022280987 0.97566766 0.1192657 -0.18397939 0.0014835459
0.0038900212 0.026874885 0.021969881 -0.92214876 0.33769515 -0.18868932 0.0018390759
0.032895077 0.02545318 0.021601021 0.97548974 0.10549916 -0.19310515 0.0021683369
0.0047163158 0.029448211 0.022229575 -0.92025763 0.33342984 -0.2048181 0.0020908117
0.032633428 0.030136183 0.021386296 0.90023458 0.25089884 -0.35584763 0.013095254
0.032955982 0.030456007 0.022498146 0.85950214 0.2965486 -0.4163112 0.018123928
0.0055452669 0.031789877 0.022681814 -0.87432128 0.40103418 -0.27337497 0.0015842902
0.0063656718 0.033071559 0.022118635 -0.84054679 0.43711621 -0.32001621 0.00096580962
0.031635273 0.032539476 0.022179801 0.74045384 0.49152836 -0.45839709 0.0013108496
0.033030283 0.031272024 0.023592636 0.76468885 0.47889856 -0.43116945 0.00052385026
0.0076578995 0.03549489 0.022391327 -0.7588324 0.50025821 -0.41703114 0.0022063791
0.0091549195 0.036541268 0.02113761 -0.65586638 0.57770705 -0.48589492 0.0053703752
0.028831534 0.035784885 0.021999422 0.62749422 0.59092915 -0.50700474 0.0011967232
0.030445732 0.0348249 0.022954538 0.68991333 0.54435587 -0.47717533 0.0020645019
0.0085261231 0.037362631 0.023169342 -0.69241643 0.57774872 -0.43216428 0.0025363741
0.010228803 0.038552538 0.022335842 -0.59627533 0.64331859 -0.48020515 0.004128546
0.012372253 0.039530128 0.02143468 -0.38824326 0.74740314 -0.53912491 0.005294106
0.02311652 0.039395936 0.021308437 0.3059755 0.74556744 -0.59203732 0.0013760468
0.025486423 0.038700376 0.022201814 0.43140796 0.70662224 -0.56086731 0.00060997967
0.027524719 0.037665233 0.022816289 0.54694813 0.64933455 -0.52840555 0.00087409531
0.011300386 0.040316224 0.023380101 -0.5434708 0.66207892 -0.51603401 0.0021460571
0.013507174 0.04093964 0.022545908 -0.33357957 0.73976392 -0.5843578 0.0044384841
0.016349737 0.041640766 0.022472396 -0.069475226 0.80151218 -0.59392881 0.0031946867
0.019330705 0.04151674 0.022452921 0.13405412 0.78503394 -0.6047737 0.0031385047
0.022133296 0.040738534 0.022526611 0.31306008 0.75849867 -0.57155329 0.0015386924
0.024458917 0.0403248 0.023479037 0.44292191 0.72151917 -0.53219384 0.00077111344
0.0034058527 0.02621768 0.024991814 -0.93264806 0.31921756 -0.16812982 0.00069400523
0.033639077 0.026149306 0.025219776 0.98778737 0.074437931 -0.13687612 0.00059852522
0.0041539078 0.029465828 0.025150117 -0.92941797 0.30872592 -0.20216462 0.0014712502
0.0051726261 0.032698911 0.025368683 -0.91838044 0.32148287 -0.23070788 0.0012882593
0.032421201 0.033315226 0.024390414 0.7571786 0.50175947 -0.41823208 0.00085662008
0.033080891 0.031819224 0.024338081 0.92587829 0.31052306 -0.21523218 0.025468839
0.0055752117 0.034449715 0.026299898 -0.8796066 0.37981865 -0.28640902 0.0014458757
0.0066159852 0.035683226 0.025000442 -0.83720875 0.43730471 -0.32839921 0.00097491959
0.029587515 0.036777735 0.02414386 0.64590359 0.61042291 -0.45846757 0.0016375518
0.031470638 0.035411295 0.025390677 0.72591621 0.54516226 -0.41933733 0.0012395233
0.0079421122 0.038270455 0.025461581 -0.74413669 0.54032236 -0.39282596 0.0021014407
0.0094590914 0.039547734 0.024564236 -0.62556845 0.61651397 -0.47809482 0.0013275859
0.026371589 0.039785534 0.02443485 0.50990355 0.68416244 -0.5214597 0.0010097986
0.028662365 0.038512904 0.02532322 0.62955415 0.63230246 -0.45150319 0.00092410826
0.030382715 0.03744613 0.026286993 0.66376507 0.608338 -0.43513304 0.0010286354
0.0087423725 0.040214166 0.026532248 -0.67527497 0.59830183 -0.43132198 0.002613792
0.0105084 0.041284159 0.025574628 -0.57258695 0.66695446 -0.47677666 0.0041554011
0.013242129 0.042388912 0.024614893 -0.32105687 0.76405823 -0.55958688 0.0034048725
0.015415953 0.042737164 0.024071619 -0.12769452 0.81957954 -0.55855477 0.0047153118
0.019897152 0.042753629 0.024251223 0.12511684 0.79688573 -0.59103209 0.0026427219
0.022528386 0.042173203 0.024705131 0.30920762 0.77506536 -0.5510574 0.00088756613
0.025322396 0.041265253 0.025538195 0.46163833 0.73685932 -0.493891 0.00099067669
0.027585715 0.040054746 0.026130721 0.55981153 0.67738253 -0.4772464 0.0010040915
0.011739273 0.04295589 0.02645956 -0.467397 0.70566505 -0.5325194 0.0044205557
0.013573457 0.043571588 0.026051398 -0.32648799 0.78072357 -0.53280032 0.0036254576
0.016454376 0.043862864 0.025468234 -0.0669396 0.82657689 -0.55882895 0.0033751715
0.019381421 0.043853778 0.025684647 0.13664998 0.8188141 -0.55755734 0.0031259386
0.022272538 0.043335274 0.026237492 0.34544325 0.78313309 -0.51707977 0.0012779516
0.033818714 0.027545661 0.027824506 0.98554307 0.094293505 -0.14076047 0.0018300364
0.0037532328 0.029842019 0.028458729 -0.94227403 0.27971691 -0.18406007 0.00036439911
0.033912156 0.028127119 0.029179439 0.98554504 0.094304942 -0.14073931 0.0018142544
0.004420484 0.032329667 0.028156172 -0.92459452 0.31303731 -0.21710038 0.0013707308
0.0053149452 0.03539779 0.028581701 -0.89791453 0.3551074 -0.26009285 0.00067377376
0.0062492182 0.036510423 0.02710633 -0.83134031 0.43822414 -0.34180835 0.001004787
0.032326777 0.036078781 0.027999155 0.70881641 0.57834733 -0.40384847 0.00047296638
0.0057684937 0.037189975 0.02938439 -0.85779315 0.42157534 -0.29404947 0.0018767654
0.0068514375 0.038458992 0.028128188 -0.82886618 0.45661986 -0.32323229 0.00097566372
0.029657945 0.039427277 0.028078333 0.67464924 0.62360835 -0.39491916 0.00067337352
0.031096458 0.037962593 0.028359249 0.68847579 0.60956514 -0.39297777 0.00047554792
0.0081807114 0.040966313 0.028650023 -0.72423017 0.56093633 -0.40104985 0.0019957554
0.0096010799 0.042268462 0.028075721 -0.6615867 0.61556327 -0.42823458 0.0011682045
0.026247902 0.042281181 0.027984139 0.50619268 0.73542863 -0.45045945 0.00088977208
0.028267972 0.04098079 0.028495759 0.59539843 0.68457353 -0.4205471 0.001320899
0.01084234 0.043843813 0.028731726 -0.55812836 0.66666538 -0.49401429 0.0028087287
0.013420034 0.045009401 0.028187167 -0.27630994 0.78450859 -0.55515683 0.0028725842
0.016520644 0.045309942 0.027551599 -0.05763337 0.82875246 -0.55663973 0.0027873227
0.01963651 0.045287088 0.027913362 0.17309733 0.81832159 -0.54807591 0.0021911762
0.022570236 0.044642758 0.028432306 0.34513703 0.78279805 -0.51779109 0.0016273925
0.025041616 0.043510187 0.028670765 0.47392979 0.74388713 -0.47119257 0.0010215215
0.014320146 0.046255011 0.029530302 -0.27865615 0.79793966 -0.53445584 0.0035241975
0.016690217 0.046459831 0.029286236 -0.045648877 0.8340224 -0.54983896 0.0031645026
0.019175904 0.046321396 0.029351775 0.17901407 0.83906662 -0.51373255 0.0019461561
0.0039677187 0.032501675 0.031423654 -0.94416964 0.27231961 -0.1854341 0.00038158003
0.004691985 0.035588734 0.031511296 -0.9376027 0.28692505 -0.1964058 0.0012786472
0.0054729525 0.03813741 0.031790331 -0.90467381 0.35047597 -0.2423466 0.0020420398
0.0064481227 0.039278116 0.030311391 -0.85010791 0.42501482 -0.31093237 0.0026334529
0.031494502 0.038804088 0.030674558 0.6993283 0.61837184 -0.35854736 0.00034072291
0.0072981231 0.041451745 0.031239461 -0.80561262 0.48081294 -0.34613165 0.001413729
0.028680224 0.042114224 0.031044792 0.62009609 0.68696231 -0.37889802 0.00097619719
0.030475419 0.040618662 0.03167396 0.67548871 0.64503181 -0.35727993 0.00025141131
0.0084608374 0.04359065 0.031808484 -0.70128703 0.59481579 -0.3929258 0.0020842806
0.01009689 0.044903826 0.031191986 -0.56975877 0.696715 -0.43584773 0.0034299267
0.012321036 0.04580608 0.030087546 -0.37802643 0.79148185 -0.48026296 0.0058816378
0.022903167 0.04565331 0.030243035 0.33091924 0.80476266 -0.49279755 0.0011983223
0.02539091 0.044784363 0.031158134 0.46498138 0.76212734 -0.45050445 0.00071022136
0.027594035 0.043585464 0.031949155 0.58259088 0.70528531 -0.40393132 0.0010242017
0.011286759 0.046295162 0.03187032 -0.49528944 0.72907758 -0.47237089 0.0034130737
0.013613652 0.047199514 0.031430244 -0.28643441 0.82365119 -0.48944262 0.0033998583
0.016573388 0.047849163 0.031537119 -0.034174778 0.85861236 -0.51148504 0.0029048435
0.019567234 0.047445178 0.031359211 0.19699228 0.8422519 -0.50180244 0.0017047685
0.022233617 0.046824709 0.031766854 0.33757728 0.81687427 -0.46771574 0.0014671212
0.024174541 0.046184797 0.03225176 0.4597376 0.76788765 -0.44608283 0.00086043216
0.0037767179 0.033230603 0.033907294 -0.94741684 0.26321489 -0.18198696 0.00046806081
0.0040847487 0.035367131 0.034664448 -0.94591546 0.2586813 -0.1957752 0.00044878607
0.004869164 0.038475618 0.034648493 -0.9295035 0.29727349 -0.2182925 0.0013400837
0.0056453245 0.040752638 0.034792885 -0.87973601 0.39067429 -0.27099451 0.0018600073
0.0064857639 0.042044569 0.034061205 -0.84760869 0.42860511 -0.31282136 0.0010235442
0.029659923 0.042608976 0.033754215 0.66700327 0.65842116 -0.34869522 0.00043065593
0.030809321 0.041666236 0.034569893 0.66701216 0.65840268 -0.34871289 0.00043816498
0.0078445245 0.044448171 0.034425274 -0.74648809 0.56125712 -0.35741577 0.0026808816
0.0093518058 0.045612335 0.033318326 -0.62081903 0.65584469 -0.42947805 0.0013023474
0.026439697 0.045474287 0.03364031 0.58175927 0.71815419 -0.38185182 0.00068673905
0.028325733 0.044352762 0.034641035 0.63512379 0.68889171 -0.34935087 0.00085901754
0.0088731134 0.046301752 0.035198495 -0.6711446 0.63456029 -0.38327307 0.001936299
0.010638346 0.047330406 0.034338795 -0.53528339 0.72272372 -0.43719795 0.0043071653
0.013417911 0.048528332 0.033735313 -0.29280195 0.82071215 -0.49061048 0.0026805415
0.015425479 0.048615977 0.032939866 -0.05643858 0.8720209 -0.48620385 0.0025885694
0.019499186 0.048670009 0.033468094 0.15911719 0.85924739 -0.48618478 0.0022392431
