# .PCD v0.7 - Point Cloud Data file format
VERSION 0.7
FIELDS x y z normal_x normal_y normal_z curvature
SIZE 4 4 4 4 4 4 4
TYPE F F F F F F F
COUNT 1 1 1 1 1 1 1
WIDTH 550
HEIGHT 1
VIEWPOINT 0 0 0 1 0 0 0
POINTS 550
DATA ascii
-0.043434881 0.059968498 -0.015045382 -0.016267454 -0.76670837 -0.6417895 0.012775142
-0.040633112 0.059579872 -0.015069854 -0.085165113 -0.78831494 -0.60934919 0.0088781295
-0.037766617 0.059044875 -0.014983123 -0.11417739 -0.73242229 -0.67120868 0.013161308
-0.035262771 0.058726449 -0.015585695 -0.22838941 -0.65420902 -0.72100544 0.024704212
-0.0011205687 0.061041839 -0.01527789 0.47036815 0.74732941 -0.4693107 0.0023798
0.0011596838 0.0597996 -0.014574276 0.55604333 0.68494684 -0.47081172 0.0024871149
0.0031639582 0.058971487 -0.013146453 0.61543816 0.67964458 -0.39914787 0.0011507954
-0.0070082508 0.064077385 -0.01527751 0.32398883 0.81193554 -0.48558411 0.0062384261
-0.0046342234 0.063218512 -0.014857003 0.39307779 0.80350238 -0.44707233 0.0032306078
-0.001887037 0.062011413 -0.01437806 0.47309959 0.77976829 -0.41004664 0.0028662249
-0.034576565 0.067093819 -0.015590988 0.16244246 0.56421083 -0.80949277 0.0051350901
-0.031523887 0.066613205 -0.015448563 0.068581983 0.58587217 -0.80749625 0.00605583
-0.029350642 0.06648156 -0.015119237 0.034249518 0.62571055 -0.77930307 0.0042746784
-0.025652405 0.065932997 -0.015704323 -0.0036321052 0.6564281 -0.75437981 0.0048234561
-0.022698861 0.065983601 -0.015378229 -0.00033092839 0.708444 -0.70576698 0.004994933
-0.01973683 0.066021927 -0.015131211 0.021918289 0.77200174 -0.6352424 0.0050327727
-0.016558126 0.066124633 -0.014469335 0.040856257 0.82604045 -0.56212795 0.0013273933
-0.013773356 0.06550885 -0.015490201 0.09304323 0.80565006 -0.58503914 0.003866609
-0.010536409 0.06518998 -0.014919522 0.19655252 0.79618824 -0.57223368 0.001229585
-0.0080740154 0.064730562 -0.014592029 0.30982363 0.82577515 -0.47127989 0.0056615779
-0.040720694 0.068646267 -0.015887402 0.32411847 0.56227064 -0.76078838 0.0069051795
-0.037546523 0.067775995 -0.015613936 0.2088604 0.50563699 -0.83708334 0.010755285
0.0082193762 0.0072243838 -0.010171246 -0.330488 -0.43568113 -0.83723342 0.0027935868
0.010422081 0.0066499878 -0.010398421 -0.11503053 -0.39714575 -0.91051811 0.0031092369
0.013298363 0.0065704323 -0.010409816 0.10041601 -0.36834022 -0.92425215 0.0031583239
0.01568836 0.0070512248 -0.010137196 0.31602895 -0.34288985 -0.88461977 0.0030516374
0.0051886244 0.0099810734 -0.01028683 -0.4492276 -0.45682245 -0.76779413 0.0018525962
0.0074341488 0.0091965422 -0.010870236 -0.30231804 -0.41941318 -0.85597688 0.0031220808
0.010330035 0.0091058463 -0.01151601 -0.077811562 -0.41066527 -0.90845984 0.002679541
0.013333188 0.0091072693 -0.011452033 0.13399099 -0.37615034 -0.91681916 0.0029531834
0.016330551 0.0091567868 -0.010673443 0.32737496 -0.30776572 -0.89336771 0.0030347856
0.018120464 0.0099462876 -0.010121599 0.47952732 -0.29492423 -0.82648247 0.0013912963
0.0025646442 0.012987414 -0.010381518 -0.5474723 -0.44325334 -0.7097891 0.0033430697
0.0044087353 0.012212521 -0.011110002 -0.46922699 -0.44646937 -0.76189971 0.0022608123
0.0071575809 0.011835523 -0.012142964 -0.25322506 -0.45400149 -0.85425973 0.0022558067
0.010306057 0.011387121 -0.012553883 -0.058104735 -0.4317027 -0.90014255 0.0029507722
0.013487812 0.01167324 -0.01243146 0.16633314 -0.36149272 -0.9174183 0.0026394189
0.016326394 0.012102118 -0.011677333 0.39964899 -0.26870993 -0.87639928 0.0028040253
0.018585581 0.012307886 -0.010537436 0.53085208 -0.23069306 -0.81546104 0.0016639727
0.0015920458 0.015223123 -0.011040372 -0.55392617 -0.45680827 -0.69605458 0.002235672
0.004006472 0.014680462 -0.012354075 -0.41856536 -0.45474613 -0.78613544 0.0016708033
0.0059274938 0.013911549 -0.012827002 -0.30842584 -0.4909822 -0.81474531 0.0039167311
0.01661909 0.014882805 -0.012377437 0.42564362 -0.23906495 -0.87274009 0.0042776763
0.019047007 0.015142202 -0.010921426 0.57549077 -0.19098911 -0.79519397 0.0018212178
-0.0010708098 0.018442385 -0.010893786 -0.63980722 -0.48451805 -0.59656429 0.0017623686
0.00086494221 0.017623369 -0.012086918 -0.55837065 -0.46504435 -0.68699056 0.0024514745
0.017285675 0.017598953 -0.012689536 0.51301324 -0.16102542 -0.84314197 0.0022980173
0.019252438 0.018136991 -0.011318028 0.61819226 -0.13948062 -0.77355254 0.0021003447
-0.0035854315 0.021787692 -0.010653466 -0.70159239 -0.47038886 -0.53525925 0.0012214187
-0.0019546589 0.020781556 -0.011746434 -0.68060583 -0.4620401 -0.56859004 0.0008978094
0.01943589 0.021025293 -0.01151126 0.65372771 -0.096897505 -0.7505005 0.0025417998
-0.0045057274 0.024096757 -0.011476852 -0.6881339 -0.48749784 -0.53741759 0.0012216384
-0.0026650853 0.022818912 -0.012651396 -0.60988712 -0.49204302 -0.62123358 0.0012173842
0.019516155 0.02403779 -0.011572855 0.73572659 0.011511885 -0.67718071 0.0021928675
-0.0070170141 0.027448939 -0.011184407 -0.72137517 -0.53508043 -0.43966663 0.0013913432
-0.0057290844 0.026342964 -0.011988451 -0.72032684 -0.51290804 -0.46696311 0.0015228287
0.019521039 0.026962332 -0.011465456 0.75246775 0.047867347 -0.65688729 0.0016637385
-0.0095844408 0.030935641 -0.011288691 -0.74028027 -0.55287099 -0.38251635 0.0018069185
-0.0082173832 0.029543493 -0.011801584 -0.73348457 -0.53513873 -0.41907874 0.0020599384
0.019148793 0.029972771 -0.011522116 0.77396262 0.1297919 -0.6197871 0.0016955909
-0.012550179 0.034341697 -0.010577582 -0.74119812 -0.59704673 -0.30685586 0.0018777704
-0.011005392 0.032947987 -0.011651661 -0.74474663 -0.57901108 -0.33181122 0.001500517
0.017433945 0.033932883 -0.012818836 0.74915898 0.14325012 -0.64671499 0.00085962832
0.018736735 0.03291183 -0.011355854 0.79876679 0.18315192 -0.57308549 0.001752358
-0.013626222 0.036141597 -0.011481982 -0.7372449 -0.60210043 -0.30650458 0.0017550865
-0.012033208 0.034653518 -0.012443922 -0.71828848 -0.61161011 -0.33165449 0.0014188641
0.017225567 0.036395989 -0.012270622 0.76886934 0.20615286 -0.60526103 0.00097096176
0.018302593 0.035800993 -0.010917734 0.81609434 0.2461573 -0.52287334 0.0011896798
-0.016023267 0.039191313 -0.011512695 -0.76684588 -0.59230214 -0.24723579 0.0021104065
-0.014807427 0.037903629 -0.012155078 -0.75044787 -0.5974018 -0.28273514 0.0012302722
0.01676761 0.039175194 -0.011608265 0.81974149 0.30916798 -0.48211929 0.00084955897
0.017992821 0.037826471 -0.010410421 0.82664979 0.28487581 -0.48527914 0.0020582022
-0.01891353 0.042895839 -0.01139578 -0.75269014 -0.59585202 -0.28003189 0.0012674859
-0.017471068 0.041216917 -0.01185279 -0.76882881 -0.58253425 -0.26373482 0.0014257504
0.014684566 0.043174647 -0.012455277 0.8051157 0.37576383 -0.45890111 0.0019080206
0.015786991 0.041900251 -0.011479176 0.80770081 0.32525298 -0.49176201 0.0009890123
-0.021460332 0.046142749 -0.011267276 -0.75792348 -0.59273225 -0.27243438 0.00025095427
-0.020228092 0.044664849 -0.011725551 -0.74777633 -0.59343332 -0.29777077 0.00065995002
0.014132833 0.045210164 -0.011720279 0.80844283 0.41625953 -0.41611055 0.0013273627
0.015367134 0.044066124 -0.010495357 0.8426125 0.38088927 -0.38069347 0.0022386445
-0.022710416 0.048005406 -0.011991277 -0.75145406 -0.58480972 -0.30547413 0.00085902907
0.01145868 0.049387179 -0.012508176 0.78467369 0.48697385 -0.38359299 0.0026995826
0.012786837 0.047893245 -0.011571852 0.79190588 0.46827573 -0.39192206 0.0017764446
-0.025248364 0.051410131 -0.012279612 -0.70390517 -0.61868 -0.34893051 0.0026097151
-0.024008945 0.049852453 -0.012467884 -0.74613684 -0.58888906 -0.31062761 0.0010355561
0.010708339 0.051083848 -0.011800135 0.78012282 0.52802062 -0.33556303 0.001376876
0.011973144 0.050080486 -0.010508321 0.7930786 0.50871956 -0.33500847 0.0015423386
0.0081121437 0.054451961 -0.01200459 0.73186505 0.58368587 -0.35168788 0.002038897
0.0095554963 0.053158537 -0.011062508 0.74364799 0.57876432 -0.33469325 0.0018562038
0.0050136005 0.057717413 -0.012213987 0.65812343 0.66352713 -0.35581639 0.0019383043
0.0065010991 0.056540828 -0.011350374 0.68475801 0.63394248 -0.35947654 0.0012064787
0.0017862392 0.06034096 -0.012405738 0.57207286 0.71503925 -0.40181032 0.00067943917
0.003863825 0.05891452 -0.011888601 0.64618731 0.68394703 -0.33861259 0.0016217157
-0.0037472069 0.063764505 -0.011841796 0.44487754 0.81848663 -0.36354312 0.0019011192
-0.0023577963 0.062949993 -0.012674712 0.4606635 0.78940248 -0.40574965 0.0024891477
0.013003103 -0.0017622709 -0.0069173397 0.029039228 -0.35663822 -0.93379116 0.00426056
0.0083304914 0.0010365322 -0.0072668954 -0.36665916 -0.39091751 -0.84424204 0.0017009786
0.010529252 0.00026720297 -0.007538287 -0.18275072 -0.37772688 -0.90770286 0.0024763891
0.013213976 0.0001033335 -0.0076764645 0.039799105 -0.38239768 -0.92314035 0.0042565181
0.015926048 0.00049920054 -0.0074287001 0.24532011 -0.36022124 -0.90003264 0.0024159052
0.018129449 0.0015035169 -0.0070737824 0.4489581 -0.3334941 -0.82898635 0.0023455443
0.005348118 0.0039283917 -0.0071355505 -0.49715662 -0.3899684 -0.77508706 0.0018231171
0.007482694 0.0032073581 -0.0078979544 -0.3761659 -0.3773784 -0.84621799 0.0025051269
0.01039325 0.003123452 -0.0087826382 -0.15614429 -0.40264609 -0.90193957 0.0026053053
0.013300508 0.0031757429 -0.0089749303 0.067247897 -0.39049232 -0.91814673 0.0028373396
0.016324572 0.0030729133 -0.008354174 0.30681282 -0.32381564 -0.89499116 0.0023023784
0.018814314 0.0033663488 -0.0074283825 0.45064422 -0.31535882 -0.83514589 0.0023390085
0.0046430398 0.0061572506 -0.0077988598 -0.52330369 -0.4053379 -0.74956948 0.0018617741
0.0071980078 0.0059237406 -0.0091038896 -0.34988335 -0.42297912 -0.83586502 0.0023527963
0.010240951 0.0050720694 -0.0096425228 -0.14106175 -0.43759459 -0.88803858 0.0029804788
0.013550799 0.005004948 -0.0097217485 0.077778406 -0.4090983 -0.9091695 0.0027540463
0.016630519 0.0058458261 -0.0093370555 0.31974781 -0.33204517 -0.88741606 0.0029248153
0.019200262 0.0060051484 -0.0081574377 0.4950214 -0.29084456 -0.81875718 0.0022671174
0.021018852 0.0065401839 -0.0071279509 0.60816085 -0.25186905 -0.75279635 0.0012625537
0.0021344426 0.0093538361 -0.0076388884 -0.62339187 -0.41239977 -0.66431099 0.0023228703
0.0041724583 0.0087817609 -0.0089354021 -0.49465513 -0.43057799 -0.75492972 0.001849207
0.0061216126 0.0081389789 -0.0097625274 -0.37192988 -0.44384205 -0.81527442 0.0021751665
0.017556228 0.0079847025 -0.0097519085 0.36013725 -0.28471425 -0.8883912 0.0039897803
0.019379765 0.0088879261 -0.0090043265 0.53211892 -0.24009313 -0.81191421 0.0016039363
0.021414611 0.0091778385 -0.007582197 0.64897716 -0.20747703 -0.73197132 0.0015126693
-0.00052793941 0.01292586 -0.0072579011 -0.6837312 -0.42837685 -0.59076631 0.0012477752
0.0012932256 0.011951497 -0.008528173 -0.62594539 -0.44910413 -0.63757181 0.0027884867
0.0033411169 0.010923246 -0.0096437056 -0.56729776 -0.46091026 -0.68244779 0.0014375396
0.01991595 0.011729551 -0.0094708558 0.57328159 -0.19386972 -0.79609209 0.0017324742
0.02171142 0.012049897 -0.0080214972 0.66427267 -0.15969594 -0.73023218 0.0016227781
-0.0012245338 0.015242448 -0.0081658121 -0.70643127 -0.43712249 -0.55666757 0.0020348178
0.00036564626 0.014220458 -0.0092435535 -0.65795499 -0.44653499 -0.60638422 0.0014421913
0.020493641 0.014861893 -0.0097191315 0.67908442 -0.13927259 -0.72072697 0.001592156
0.021893084 0.014958018 -0.0083800703 0.71424735 -0.10119021 -0.69253969 0.0016777315
-0.003581427 0.018531632 -0.0076039955 -0.7671209 -0.42950001 -0.47650322 0.0012691184
-0.0022607904 0.01773051 -0.0088690687 -0.73628592 -0.44905382 -0.50619519 0.0008999565
0.020797897 0.017021369 -0.0098202452 0.7016803 -0.071784832 -0.70886654 0.0021865757
0.022267137 0.018011745 -0.0082904752 0.75750351 -0.03465841 -0.65191048 0.0013056998
-0.0044306531 0.021003498 -0.0085560232 -0.75975019 -0.4588801 -0.46066117 0.0013104264
-0.0028408074 0.01957633 -0.0096923336 -0.6739794 -0.48118818 -0.56054401 0.0012603184
0.022233192 0.020987684 -0.0084217256 0.77564603 0.0014121283 -0.63116658 0.002125409
-0.0068699052 0.0247194 -0.0079118162 -0.81032711 -0.46487978 -0.35673067 0.001595951
-0.0057601728 0.023579067 -0.0089316815 -0.78499794 -0.47805774 -0.39400378 0.0010910777
0.02202094 0.024044015 -0.0085558649 0.824884 0.081324726 -0.55942172 0.0013118739
-0.007879436 0.026922805 -0.0086465515 -0.80851102 -0.50463682 -0.30274013 0.0031532815
0.020801887 0.027918816 -0.0097360536 0.80546886 0.081203617 -0.58704847 0.001857468
0.021819815 0.026944526 -0.0083649922 0.85405391 0.13972649 -0.50106734 0.0014881069
-0.010020014 0.030058835 -0.0083973035 -0.8023749 -0.54927117 -0.23344293 0.0017203537
-0.0088732345 0.028865341 -0.009445034 -0.78754836 -0.55648077 -0.26475805 0.0017101904
0.020338535 0.030700648 -0.0097312462 0.81161928 0.15226173 -0.56399518 0.0011079833
0.021336511 0.029900465 -0.0082850903 0.86056817 0.195309 -0.47040069 0.0014392117
-0.012844042 0.034038484 -0.0085473359 -0.78819609 -0.57935429 -0.20759453 0.00093156641
-0.011615264 0.032446112 -0.0088618845 -0.77665478 -0.58896494 -0.22344485 0.00089817774
0.020097733 0.033261273 -0.0090886932 0.86165297 0.22812049 -0.45333779 0.0024257468
0.021032222 0.032509681 -0.0076878425 0.86736339 0.25819048 -0.42546248 0.0011582673
-0.015441483 0.037388973 -0.0074308142 -0.78534216 -0.59215897 -0.18051441 0.00018572295
-0.014183773 0.035877939 -0.0087877912 -0.7802316 -0.59036756 -0.2066517 0.00067329203
0.019583013 0.03596073 -0.008492602 0.86826992 0.28659725 -0.40493131 0.002021875
-0.016309988 0.038825747 -0.0090787159 -0.77445334 -0.59866649 -0.20450068 0.00068928377
0.017568931 0.040231861 -0.0094332919 0.8618536 0.36923924 -0.34766483 0.0020499688
0.018491916 0.038795825 -0.0086360555 0.86419427 0.3219412 -0.38668093 0.0010299167
-0.018156454 0.041402422 -0.0093190894 -0.75050646 -0.61667025 -0.23760855 0.00098412856
0.016988397 0.042097494 -0.0088544684 0.85829431 0.40441099 -0.31588393 0.0010930798
0.018104333 0.040627368 -0.0076871142 0.86114842 0.37806934 -0.33983395 0.0021716813
0.014784056 0.046025835 -0.0094770417 0.83165491 0.43104357 -0.3500734 0.00094077556
0.015687641 0.044907965 -0.008522477 0.8396517 0.42605999 -0.33683512 0.00086516415
0.01372374 0.048191532 -0.0087733194 0.81008571 0.49110019 -0.32028395 0.00070985756
0.014823381 0.046616547 -0.0082998797 0.825679 0.4707931 -0.31081828 0.00064831047
0.011317285 0.05165264 -0.0089788064 0.7907418 0.53048557 -0.30547079 0.0004782773
0.012329366 0.050281093 -0.0087868106 0.79927516 0.52410227 -0.29406804 0.00039783382
0.010619793 0.052573375 -0.0090370402 0.76421642 0.57871276 -0.28471881 0.0010505916
0.0073589152 0.056202702 -0.009691231 0.71649522 0.6255759 -0.30868986 0.0010423529
0.010814308 -0.0081924591 -0.0041287593 -0.18780789 -0.32464331 -0.92700315 0.0030368408
0.013316912 -0.0083476249 -0.0042036315 0.032155354 -0.34530616 -0.93793905 0.002936
0.015340555 -0.0080683641 -0.0040673837 0.24357478 -0.36422873 -0.89889312 0.0023114989
0.0077424375 -0.0054304949 -0.0042961151 -0.38050324 -0.32596973 -0.86542535 0.002612476
0.010249476 -0.0059913485 -0.0048634661 -0.19961171 -0.34620038 -0.91667908 0.0027203117
0.013288849 -0.0059873615 -0.005150178 0.027687024 -0.34880346 -0.93678683 0.0020265481
0.016269933 -0.0059121498 -0.0046890508 0.26585937 -0.36020938 -0.89418566 0.002684105
0.018541053 -0.0051197284 -0.0041902922 0.41364184 -0.36539942 -0.8338967 0.0021320297
0.0052755168 -0.0023021181 -0.0042386614 -0.52375311 -0.32471678 -0.7875542 0.0012607565
0.0071992259 -0.0029426203 -0.0050302446 -0.39789572 -0.34393376 -0.85052252 0.002123544
0.010221647 -0.0029351874 -0.0060923947 -0.20026563 -0.38347152 -0.90157825 0.0023928878
0.013274333 -0.0030394536 -0.0063554319 0.036898945 -0.3706384 -0.92804396 0.004107059
0.016307097 -0.0029365071 -0.005904675 0.24644454 -0.36988395 -0.8957963 0.0023100642
0.019266177 -0.0028419029 -0.0047390107 0.45483536 -0.32277739 -0.83002377 0.0018941398
0.021070316 -0.001774515 -0.0040746555 0.59087074 -0.31532818 -0.74258995 0.0023406975
0.0027537718 0.0015137391 -0.003919445 -0.64737231 -0.31524158 -0.69392502 0.0029129309
0.0046094558 0.0002829209 -0.0048704837 -0.56854278 -0.32785493 -0.75449997 0.0016835495
0.0070863878 -8.5868873e-05 -0.006199575 -0.39952362 -0.36747494 -0.83984703 0.0023203052
0.0094082421 -0.0010963567 -0.0066839126 -0.21396345 -0.37502328 -0.90198511 0.0031862815
0.01695136 -0.00071308855 -0.0066281408 0.24602069 -0.39535707 -0.88496703 0.0022331513
0.019378636 6.922381e-05 -0.0058415965 0.45417887 -0.31679451 -0.83268416 0.0023697461
0.021564424 0.00040876865 -0.0045439154 0.59948123 -0.29106697 -0.74558854 0.0014999467
0.0024255987 0.0033881904 -0.0045126672 -0.6428771 -0.33357328 -0.68952012 0.0012436789
0.0042211907 0.0030158474 -0.0058638696 -0.54732901 -0.36668247 -0.75231296 0.0019713701
0.0061617093 0.0021269715 -0.0067444071 -0.49427876 -0.39589235 -0.77392364 0.00129515
0.020054948 0.0027729445 -0.0064947936 0.49949351 -0.2871438 -0.8173461 0.0020689992
0.022086814 0.0032133209 -0.0051183542 0.63129222 -0.24499747 -0.73583031 0.0018442908
0.0017774226 0.0060834354 -0.0052738027 -0.67730916 -0.37183169 -0.63481766 0.0024601477
0.0034988271 0.0053002471 -0.0064874478 -0.59781516 -0.39077079 -0.69993949 0.00067371898
0.022334665 0.0058541032 -0.0057606837 0.64370722 -0.22501238 -0.73144412 0.0013900193
0.024015445 0.0064092153 -0.0042074504 0.72993469 -0.18215615 -0.6587978 0.0011421933
-0.0007099387 0.0096641621 -0.0044945776 -0.75156796 -0.37577525 -0.54216111 0.0019286126
0.00073795335 0.0086930841 -0.0057164473 -0.71721172 -0.39312369 -0.57537901 0.0013314669
0.022796459 0.0087623354 -0.0061715171 0.68726176 -0.16922051 -0.70642459 0.0016989245
0.024214696 0.009181004 -0.0046810294 0.763731 -0.14001279 -0.63016772 0.0014067343
-0.0013412979 0.012128031 -0.0054438445 -0.74473524 -0.41731119 -0.52078861 0.0013251185
9.3125622e-05 0.011000996 -0.0065522222 -0.68023646 -0.41998515 -0.60074198 0.0016525714
0.023398925 0.011881595 -0.0062254057 0.76722485 -0.1163023 -0.63074553 0.0012366794
0.024556667 0.012062693 -0.0047308356 0.79813206 -0.08668799 -0.59621328 0.001456234
-0.0035215395 0.015748834 -0.004914023 -0.81868374 -0.40243313 -0.40963957 0.0014275046
-0.0024607806 0.014662268 -0.0058568567 -0.78939986 -0.42287305 -0.4450013 0.00089564105
0.023544732 0.014943905 -0.0064545935 0.7667926 -0.067450136 -0.63834125 0.00089457614
0.024706848 0.015159303 -0.0048459196 0.82867235 -0.030020837 -0.55892831 0.0016095097
-0.004388717 0.017952591 -0.0053918781 -0.82802039 -0.41107997 -0.38130739 0.0012800866
0.023764737 0.018091459 -0.0063693998 0.82934022 -0.013577837 -0.55857891 0.0017108241
0.024591155 0.018018307 -0.0050867056 0.85921741 0.025179533 -0.51099068 0.0016634108
-0.0066348398 0.021926086 -0.0044306889 -0.89697325 -0.38665095 -0.21433623 0.00061701715
-0.0056778523 0.020856153 -0.0057666656 -0.8478421 -0.42315406 -0.31953788 0.0012219172
0.023699626 0.021129569 -0.0063405815 0.85720843 0.049356632 -0.51259893 0.0016504064
0.024552193 0.020969693 -0.0048131198 0.87894088 0.082806088 -0.46968737 0.0014235884
-0.0072424919 0.023824196 -0.0054803244 -0.88446617 -0.39835301 -0.2429699 0.0022872146
0.023490582 0.023797456 -0.0062570497 0.87390929 0.10589209 -0.47441477 0.0014122612
0.024162576 0.024174673 -0.0047907424 0.89394212 0.14424483 -0.4243359 0.0014831548
-0.0094388453 0.027993362 -0.0049499199 -0.85438335 -0.49073285 -0.17091063 0.0020556098
-0.00862322 0.026651489 -0.0055385539 -0.87020808 -0.45611677 -0.18626726 0.0017419503
0.023107849 0.027101735 -0.0059412317 0.89339983 0.18010457 -0.41158125 0.0020642981
0.023869451 0.02661996 -0.0044259131 0.92654639 0.2031561 -0.31660628 0.0011295212
-0.0103525 0.029802479 -0.005919151 -0.8255645 -0.53291523 -0.18559241 0.0021023673
0.02256887 0.030056886 -0.0056183711 0.90777171 0.23195708 -0.34949449 0.0017727599
-0.011760924 0.031921599 -0.0057204589 -0.80336797 -0.57414752 -0.15796956 0.00055060844
0.021702204 0.033102676 -0.0055669202 0.90256083 0.26952931 -0.33576456 0.00098130736
0.020387497 0.036330611 -0.0061547309 0.89397389 0.32274935 -0.31087554 0.0014762268
0.021005735 0.035220433 -0.0054367608 0.89772534 0.31853598 -0.30434173 0.0015855981
0.019472923 0.038824581 -0.0057008155 0.88712811 0.3739087 -0.27054748 0.00062150881
0.017440919 0.042578354 -0.0067910478 0.86670166 0.40789589 -0.28713974 0.00038133215
0.018358562 0.041320249 -0.0052947029 0.88385832 0.39321855 -0.25332537 0.00043730563
0.016747236 0.043995969 -0.0066198632 0.86035639 0.42361575 -0.28343704 0.00040802135
0.010810369 -0.016923603 -0.0009958013 -0.075339682 -0.31340075 -0.94662762 0.0049730842
0.012703191 -0.016924655 -0.00096898526 0.13928419 -0.36605823 -0.92010945 0.0037824663
0.0077941157 -0.014451493 -0.0012303658 -0.31338555 -0.27331939 -0.90944266 0.0031770507
0.010323513 -0.015011512 -0.001599544 -0.13525993 -0.30486488 -0.94274181 0.0024253787
0.013364713 -0.014976269 -0.0016209728 0.1288709 -0.35491735 -0.925973 0.0025399651
0.015883587 -0.014311457 -0.001327771 0.29253355 -0.36846793 -0.88241464 0.0021544073
0.0054478967 -0.011322321 -0.0011612352 -0.47840154 -0.25836074 -0.83927447 0.0013399499
0.0072496897 -0.011935348 -0.0018070366 -0.34140745 -0.28173795 -0.89669657 0.0022395574
0.010299119 -0.011911593 -0.0026734369 -0.14560437 -0.33990213 -0.92912108 0.0027336348
0.0133583 -0.011907931 -0.0028087422 0.059522543 -0.36842498 -0.92774999 0.0028618688
0.016206123 -0.011924131 -0.002221182 0.2971212 -0.35560736 -0.88615036 0.00247185
0.018536307 -0.011610724 -0.001395284 0.44555736 -0.36571264 -0.81714934 0.0017796619
0.0048527624 -0.0089507755 -0.0015289809 -0.52593285 -0.25846243 -0.81030351 0.0017391072
0.0072350921 -0.0090830885 -0.0027384674 -0.35092387 -0.30582082 -0.88505709 0.0023715866
0.010060508 -0.0094111655 -0.003525964 -0.18152839 -0.3465457 -0.92030084 0.0033306347
0.013333518 -0.0097689051 -0.0036439439 0.046139121 -0.39313278 -0.91832334 0.0027080972
0.016295325 -0.0092302058 -0.003318086 0.25592446 -0.38886982 -0.88503277 0.00202293
0.019205496 -0.0090486482 -0.0021344491 0.46382603 -0.36100885 -0.80903536 0.0025950656
0.021330263 -0.0082898177 -0.0010864213 0.59868217 -0.32864395 -0.7304607 0.0012210895
0.0026740874 -0.0051915902 -0.0011502311 -0.65936631 -0.24477176 -0.71086067 0.0011249969
0.0044413949 -0.0059934002 -0.0022400324 -0.54504591 -0.26924282 -0.7939983 0.0026135482
0.0067846398 -0.0064809225 -0.0034532731 -0.37900102 -0.32697657 -0.86570466 0.0026386024
0.01764157 -0.0072607347 -0.0036817219 0.35011566 -0.39139733 -0.85101539 0.0045428388
0.019677255 -0.0062234919 -0.0030985838 0.46812227 -0.34136698 -0.81506443 0.0020947226
0.021889456 -0.0057804319 -0.0017467078 0.59821266 -0.30821747 -0.73969156 0.0019327113
0.0022933846 -0.0027854005 -0.0016523877 -0.65798718 -0.26091251 -0.70638341 0.0013666454
0.0041528908 -0.0031407522 -0.0030959314 -0.56001502 -0.30413169 -0.77064067 0.0016538062
0.020503126 -0.0037745642 -0.0036430433 0.52212363 -0.332104 -0.78555316 0.0010563214
0.022356641 -0.0029937061 -0.0025335909 0.61441284 -0.29077062 -0.73345035 0.0012978755
0.024043009 -0.0022598058 -0.001204652 0.69441396 -0.26421884 -0.6693114 0.00093768793
0.0017627943 0.00020097662 -0.0023016066 -0.68762052 -0.29957265 -0.66138804 0.00155298
0.0034608031 -0.00066007208 -0.0035822317 -0.57064205 -0.32987857 -0.75202906 0.0016131151
0.022888083 -0.00017423881 -0.0031930837 0.6582005 -0.27128768 -0.70226431 0.00089448999
0.024463054 0.00032748049 -0.001718225 0.72495323 -0.2349456 -0.64749008 0.0011573983
-0.0005408788 0.0041222023 -0.0012539849 -0.78584814 -0.26223332 -0.56006819 0.001939849
0.00089150714 0.0030992897 -0.0026728937 -0.75384212 -0.30956498 -0.57956153 0.0010607912
0.023443721 0.0024549908 -0.0036007788 0.72517002 -0.22027974 -0.65238434 0.0010197914
0.024781559 0.0032415981 -0.0023273062 0.76819032 -0.20722173 -0.60575795 0.0015611182
-0.00086654688 0.0062399162 -0.0019098972 -0.80488455 -0.30677116 -0.50798845 0.0024628902
0.00024748649 0.0056722271 -0.0032486815 -0.77371168 -0.34147686 -0.5336327 0.0018293331
0.025301997 0.005961325 -0.0024289724 0.81731373 -0.14429694 -0.55783212 0.0015497219
-0.0016252917 0.0090809269 -0.0024932108 -0.81302863 -0.34593418 -0.46830973 0.0012365523
0.02570764 0.0089467037 -0.0025192937 0.849307 -0.087928332 -0.52052498 0.0010304862
-0.0034669195 0.012756545 -0.0018072173 -0.86710328 -0.3587006 -0.34563819 0.0015694243
-0.0025781344 0.011797601 -0.0029380049 -0.84071022 -0.37768629 -0.38801983 0.0012243246
0.025842592 0.012116118 -0.0027881968 0.86883646 -0.038787976 -0.49357739 0.0020908646
-0.0040916018 0.014896227 -0.0025520916 -0.87842971 -0.36710545 -0.30593282 0.001411389
0.025987625 0.014814572 -0.0026079724 0.89401841 0.018207295 -0.44766009 0.0022926943
-0.0062078168 0.019468967 -0.0016287491 -0.89015532 -0.3959721 -0.22545455 0.0012072768
-0.0053436202 0.017960183 -0.0027082996 -0.89206761 -0.38079178 -0.24333738 0.0013387538
0.025825009 0.017957907 -0.0026427615 0.91436028 0.070252404 -0.39876041 0.0019635661
-0.0067638466 0.021231586 -0.002301143 -0.89825779 -0.39175197 -0.19915646 0.00068115653
-0.0061802068 0.020328794 -0.0034589395 -0.88803136 -0.40359923 -0.22024542 0.0010446246
0.025575187 0.020891063 -0.0025180504 0.92460638 0.12962015 -0.35819244 0.0020171914
-0.0077562272 0.02380164 -0.0030149345 -0.89944357 -0.39729029 -0.18210365 0.00097642868
0.02499507 0.023846259 -0.0027768209 0.93374562 0.16920337 -0.31541935 0.0011354152
-0.008563051 0.025591064 -0.0019377396 -0.90330696 -0.40289202 -0.14735858 0.00043441314
0.024375789 0.026970111 -0.0025325513 0.93344045 0.21725793 -0.28546086 0.00044712989
-0.0099479081 0.028808717 -0.0032487735 -0.86160767 -0.47941673 -0.16670844 0.0021752797
0.023351088 0.03011125 -0.003128387 0.9245339 0.26363248 -0.27520001 0.00049831584
0.024009489 0.028902192 -0.0018267855 0.93219101 0.24309941 -0.26818386 0.00055885245
0.022544716 0.032763716 -0.0027900762 0.9142406 0.30965352 -0.26130226 0.00075769692
0.020638805 0.037278734 -0.0032510385 0.89466387 0.36408713 -0.25887665 0.00064936822
0.021551147 0.0348786 -0.003844671 0.90437478 0.32364407 -0.27813819 0.00079604081
0.0085013369 -0.025615003 0.002054669 -0.079408281 -0.30967489 -0.94752091 0.0038312944
0.0092161717 -0.025616203 0.0020750389 -0.0246104 -0.24638757 -0.96885884 0.0038042502
0.0053703426 -0.023228483 0.0019565811 -0.25340092 -0.2447923 -0.93587637 0.0019358586
0.0073976829 -0.023832006 0.0016381736 -0.17162667 -0.26108822 -0.94993538 0.0024283971
0.010121918 -0.023883883 0.0014904249 0.061978836 -0.350416 -0.93454117 0.0049722651
0.01284625 -0.023351196 0.0017033904 0.24247065 -0.39161086 -0.88760853 0.0030684352
0.0048579462 -0.020946348 0.001627462 -0.39416 -0.20926866 -0.89489919 0.0024009598
0.0072914269 -0.021032948 0.00084905 -0.22990221 -0.26577547 -0.93622029 0.0032143714
0.010335533 -0.020985303 0.00045722537 -0.01180649 -0.33536783 -0.94201326 0.0030355419
0.013422426 -0.021065958 0.0008634855 0.21557626 -0.36769083 -0.90461612 0.0030492141
0.015946049 -0.020670617 0.0015633451 0.39699706 -0.39998671 -0.82607746 0.0019567867
0.0027853691 -0.0172759 0.0019449592 -0.56166434 -0.16529493 -0.8106854 0.00138994
0.004443842 -0.017957766 0.001146026 -0.44595128 -0.2046328 -0.87135118 0.0023232417
0.0072307987 -0.017982172 4.7972426e-06 -0.25800496 -0.27012786 -0.92761225 0.002957952
0.010285197 -0.018288154 -0.00047310838 -0.071957856 -0.33243257 -0.94037795 0.0047118454
0.01349722 -0.018242981 -0.00030382001 0.17374355 -0.38737944 -0.90540063 0.0028406254
0.016332176 -0.017965104 0.0004662713 0.36104828 -0.4001801 -0.84231824 0.0032322097
0.018682875 -0.017472098 0.0014558947 0.51321495 -0.40284893 -0.75784117 0.0012358137
0.0024438845 -0.014750229 0.0016813586 -0.60961837 -0.16929695 -0.7744056 0.001534192
0.0044369632 -0.014843008 0.00040349131 -0.46046621 -0.22407593 -0.85893005 0.0018671715
0.0068326611 -0.015318817 -0.00061871065 -0.3093209 -0.26915196 -0.91207337 0.003070561
0.014600063 -0.016457241 -0.00082003325 0.13927664 -0.36604354 -0.92011636 0.0037847727
0.016614094 -0.015464677 -0.00055645267 0.32127586 -0.39766976 -0.859442 0.0021323527
0.019151501 -0.014845891 0.00047718082 0.47559276 -0.37583324 -0.79533702 0.0012040263
0.021163229 -0.014230676 0.001645539 0.61740839 -0.37167037 -0.69330221 0.00079703872
0.0021329671 -0.011933303 0.0012739147 -0.61039913 -0.17753015 -0.77194303 0.00145449
0.0042263065 -0.012105556 -0.00020122784 -0.51525807 -0.22839363 -0.82604206 0.0019483849
0.019918244 -0.012190549 -0.00030839257 0.49443498 -0.36165711 -0.79040378 0.0022418471
0.021911591 -0.011916753 0.0011265897 0.63067734 -0.3613041 -0.68680817 0.0010543013
0.0017514415 -0.0088571105 0.00087176263 -0.66608274 -0.18403031 -0.72281861 0.0023036075
0.0035368395 -0.0092932303 -0.0005270557 -0.56121677 -0.2282303 -0.79557937 0.0021687846
0.020754434 -0.010070819 -0.00075561553 0.57406634 -0.34851536 -0.74093515 0.0011162722
0.022609949 -0.009019386 0.00035914406 0.65660936 -0.31895867 -0.6834687 0.00024000152
0.024359215 -0.008065911 0.0017181956 0.72917408 -0.30127025 -0.61444402 0.001899558
0.0012437562 -0.0058625652 0.00052164588 -0.71556526 -0.19895011 -0.66961569 0.002536627
0.023299545 -0.0061329878 -0.00035356241 0.64539069 -0.29972491 -0.70259213 0.0014909402
0.024713662 -0.0056732032 0.0010214709 0.73095155 -0.28183293 -0.62151432 0.0010352486
-0.00054736983 -0.0027519357 0.0017578378 -0.79532075 -0.18025109 -0.57876974 0.0018720167
0.00070722779 -0.0031023775 0.00022559799 -0.76522106 -0.2145285 -0.60697144 0.0014199089
0.025208194 -0.0029720608 0.00049833534 0.76608086 -0.25174692 -0.59139127 0.0015968393
-0.00087314408 0.00025223754 0.0011466462 -0.83072102 -0.19089989 -0.52293384 0.0024415397
0.00023514018 -0.00023449119 -0.0003112799 -0.79595011 -0.24464479 -0.55372602 0.0017850616
0.025920708 -8.1767794e-05 0.00032524904 0.81349748 -0.2013748 -0.54559153 0.00077991205
0.027060039 0.00081791822 0.0017850846 0.86848128 -0.15337689 -0.47139764 0.0027474789
-0.0012574404 0.0031889989 0.00050832331 -0.85964108 -0.23664978 -0.45278487 0.0020860126
-6.8599475e-05 0.0019967901 -0.00084876269 -0.75778657 -0.29463342 -0.58219463 0.001300775
0.026277255 0.0029944896 -0.0001960143 0.83998978 -0.1656453 -0.51669985 0.0015707857
0.027187843 0.0034322701 0.0012730733 0.87498224 -0.12400086 -0.46800613 0.0022039197
-0.001996811 0.0059940666 0.00042173639 -0.88239312 -0.26834801 -0.38648644 0.0028953769
0.026439965 0.0053111711 -0.00064598769 0.86075538 -0.1123485 -0.4964655 0.002736662
0.02723559 0.0060398476 0.00075448817 0.89827609 -0.07381501 -0.43318748 0.0012777646
-0.0034009221 0.0096175075 0.0015007034 -0.91575414 -0.27010331 -0.29738623 0.0021156024
-0.0026565692 0.0085962564 0.00012639118 -0.90538347 -0.27257794 -0.32554889 0.0021963427
0.027180068 0.0090044979 0.00014206814 0.90983886 -0.048750676 -0.41208813 0.0019213501
-0.0038185378 0.011918349 0.00038000802 -0.9237535 -0.29722801 -0.24152629 0.0016026227
0.027210742 0.012066374 4.544016e-05 0.91965604 0.018610969 -0.39228359 0.002856689
-0.0048937588 0.015049541 0.00035435706 -0.91584605 -0.34873343 -0.19902514 0.00048579834
0.027193066 0.01494346 0.00040702568 0.9474113 0.071417898 -0.31194758 0.0021941476
-0.0062280032 0.019054327 -0.0002907142 -0.91309464 -0.3651059 -0.18153723 0.000252097
-0.0055163074 0.017156076 -0.00038593262 -0.9131704 -0.36447129 -0.18242921 0.00020146744
0.026440661 0.019276302 -0.00063429028 0.94844127 0.14541709 -0.28162551 0.0011887429
0.026989527 0.017670004 0.00061654579 0.95365363 0.097151905 -0.28479153 0.0011457258
-0.0066963425 0.020460088 -0.00062569231 -0.90088719 -0.38267115 -0.20485385 0.00069545064
0.026296083 0.021157918 0.00012159487 0.94602144 0.16302992 -0.28011546 0.0013208534
0.025696144 0.023972401 0.00013549859 0.94240987 0.1995052 -0.2684426 0.0002451984
0.025025502 0.026145566 -0.00054516643 0.94051814 0.20706353 -0.2693519 0.00029780081
0.002609648 -0.031918071 0.00492502 -0.20090958 -0.24222645 -0.94919002 0.0037174616
0.0045774695 -0.032538645 0.0046958001 -0.13518225 -0.28828254 -0.94795513 0.0033564549
0.0072428025 -0.032452129 0.0045834091 0.066924445 -0.35557196 -0.93224978 0.0034394665
0.0097100642 -0.031965606 0.0048075244 0.27524173 -0.41516718 -0.86710912 0.0029643485
0.0020140198 -0.029714825 0.0046649603 -0.38117927 -0.19576432 -0.90353674 0.0026836267
0.0044696168 -0.029788939 0.0039124843 -0.22889966 -0.26008514 -0.93806219 0.0040211556
0.0073343781 -0.029766327 0.0035747522 -0.01551748 -0.34201282 -0.93956709 0.0031674814
0.010210239 -0.029790739 0.0039347261 0.21398112 -0.38429633 -0.89806932 0.0033941553
0.012739429 -0.029355368 0.0045893742 0.37927818 -0.43262818 -0.81791252 0.0022068943
0.0016710205 -0.026886443 0.0043031052 -0.4394024 -0.16630103 -0.88276237 0.0025139628
0.0044626319 -0.026873572 0.0031631291 -0.2928974 -0.24053198 -0.92539477 0.0040611019
0.0072848559 -0.026872912 0.0025914912 -0.13441579 -0.29056096 -0.94736832 0.0035130531
0.010238568 -0.026914945 0.002687443 0.16299932 -0.40228152 -0.90088892 0.0023441298
0.013309262 -0.026899023 0.0035739639 0.33306256 -0.42337251 -0.84251118 0.00080623542
0.015732225 -0.026461406 0.0045637814 0.4852384 -0.45777452 -0.74497402 0.001618473
0.001395105 -0.024025237 0.0040064771 -0.506621 -0.13189183 -0.85202098 0.0029210891
0.004235568 -0.024150521 0.0026000482 -0.32802489 -0.2377578 -0.91425979 0.0022931376
0.0062801666 -0.024986332 0.0021664775 -0.15991017 -0.28135565 -0.94618589 0.0018185219
0.01136067 -0.025142502 0.0021210089 0.11976919 -0.37887457 -0.91766524 0.0047678309
0.013687077 -0.024553139 0.0025318679 0.30726746 -0.41626799 -0.85574973 0.0020593377
0.01638104 -0.023996579 0.0035595987 0.45916897 -0.44099259 -0.77116114 0.0030697512
0.018401429 -0.023367086 0.0045789853 0.58683848 -0.44233233 -0.67820549 0.0013172984
-0.00055430445 -0.020511352 0.0049754996 -0.68258202 -0.073347941 -0.72711891 0.0021419942
0.0012967943 -0.021020444 0.0036287494 -0.5646053 -0.15219167 -0.81120807 0.0023932399
0.0035238927 -0.021385122 0.0023265961 -0.43695286 -0.17098446 -0.88308352 0.0021071208
0.016935747 -0.021672377 0.0025862311 0.4616732 -0.42048427 -0.78105748 0.0025391374
0.019206665 -0.020905472 0.0037585869 0.56683791 -0.42148989 -0.70784253 0.0020523411
0.021168958 -0.019701799 0.004741706 0.6687544 -0.40871257 -0.6210649 0.0010848392
-0.00055376277 -0.017864402 0.0047241524 -0.67574936 -0.072475649 -0.73355991 0.0017484402
0.0012883407 -0.017971171 0.0031922273 -0.59378946 -0.12943365 -0.79414177 0.0016519829
0.019722026 -0.018365148 0.0026893043 0.5448491 -0.39521068 -0.73955929 0.0011090869
0.021633748 -0.017617237 0.0039546015 0.63989985 -0.39067501 -0.66174102 0.00082540052
-0.00079325942 -0.01498666 0.0046415301 -0.71935135 -0.08208213 -0.68977982 0.0021284292
0.0008129233 -0.015001584 0.0030745799 -0.63781768 -0.12765886 -0.75953394 0.0017791868
0.022393234 -0.015128929 0.0032981816 0.6868329 -0.37316608 -0.62370479 0.00090265786
0.024042256 -0.01435014 0.0047084866 0.72515666 -0.35403389 -0.5905996 0.00099912938
-0.00084776152 -0.012011593 0.0043321028 -0.76257282 -0.088444158 -0.64082783 0.0020838566
0.00049950986 -0.012158388 0.0028487905 -0.73225492 -0.13537811 -0.66743958 0.0019020903
0.023296148 -0.012255715 0.002632603 0.69424021 -0.33466864 -0.6372028 0.00046652585
0.024596479 -0.012006786 0.0040656738 0.74648231 -0.32519284 -0.5805288 0.0011616561
-0.0010312657 -0.0089866538 0.0040646214 -0.80245054 -0.097650327 -0.58867449 0.0022795154
0.00012625649 -0.0091556404 0.0026186332 -0.77144152 -0.14670528 -0.6191572 0.0020499248
0.023747504 -0.010376345 0.0021524802 0.71223044 -0.29244515 -0.638125 0.0024324863
0.025379505 -0.0090110749 0.0035433136 0.78057528 -0.29485744 -0.55114532 0.0018707056
-0.0012041919 -0.0057840846 0.0036547976 -0.83728933 -0.11852045 -0.53375971 0.0021762892
-7.1969829e-05 -0.0068054381 0.0022789314 -0.76095742 -0.16348375 -0.62786692 0.001184333
0.026194032 -0.0060483837 0.0032523768 0.82477498 -0.24655706 -0.50887698 0.00093759055
0.027231965 -0.0051657115 0.0046341298 0.85293895 -0.22704643 -0.47004801 0.0014170704
-0.0014566903 -0.0030639456 0.0033712164 -0.86783201 -0.13732089 -0.47750446 0.0020979096
0.0265527 -0.003393129 0.002596227 0.84798658 -0.21575235 -0.48411733 0.001420303
0.027410273 -0.0028969222 0.0039808201 0.88175088 -0.18194646 -0.4352136 0.001974127
-0.0020134482 -0.00020536594 0.0035008229 -0.88716424 -0.16081233 -0.43252641 0.0016352551
0.027746186 -0.00027834205 0.0036396538 0.90193534 -0.15000887 -0.40498149 0.00098953268
-0.0025267969 0.002939472 0.0035048262 -0.92767501 -0.16009581 -0.33732545 0.0024843572
0.028080929 0.0029714629 0.0034230086 0.90524507 -0.12944371 -0.40469208 0.0012055542
-0.0034247395 0.0068051266 0.0042635174 -0.94384336 -0.18889585 -0.27106842 0.001064364
-0.0028558539 0.0056701745 0.002827642 -0.92658728 -0.20987639 -0.31207037 0.001663445
0.028365687 0.0060784337 0.0036113015 0.93079066 -0.055531617 -0.36131003 0.0019274863
-0.003607376 0.0088922158 0.0032658414 -0.93267387 -0.24330743 -0.26630986 0.00060438883
0.028255537 0.0086971652 0.0031255921 0.94012231 -0.035118129 -0.33902326 0.0010751617
-0.0042070434 0.011712585 0.0027697161 -0.92510116 -0.27571955 -0.26108712 0.0013665063
0.02808506 0.012036644 0.0029536942 0.94729376 0.032502413 -0.31871298 0.00086467771
-0.0048441659 0.013941724 0.0028666034 -0.92311311 -0.31685075 -0.21787132 0.00093493355
0.027586818 0.016318161 0.0026119426 0.95400536 0.096341565 -0.28388739 0.0010540016
0.027122624 0.019188542 0.0028221682 0.95154339 0.12292639 -0.2818763 0.0015752069
-0.00056101044 -0.04093226 0.0080870762 -0.18625234 -0.28365999 -0.94066316 0.0044034012
0.0012380256 -0.041134991 0.0079050921 -0.064299121 -0.34360808 -0.93690938 0.0038947491
0.0037829927 -0.041079305 0.0079357401 0.14070964 -0.43326476 -0.89021486 0.0038395436
-0.0012841509 -0.038713187 0.0077613322 -0.31706876 -0.21549188 -0.92359662 0.0021398393
0.0010945949 -0.039124679 0.0072586713 -0.15791821 -0.26077977 -0.95239478 0.0046594199
0.0042587849 -0.039159629 0.0071353456 0.064667434 -0.37258491 -0.92574221 0.0048914663
0.0072699348 -0.038638428 0.0074621337 0.25196752 -0.45441601 -0.85441113 0.0030969614
0.0094752954 -0.037722342 0.0078076199 0.40357065 -0.49230054 -0.77121389 0.0022372536
-0.0016943502 -0.035750456 0.0073891077 -0.40267941 -0.14649466 -0.90354228 0.002931484
0.0012674558 -0.035896603 0.0063206786 -0.24627958 -0.25567254 -0.93486792 0.0049510747
0.0043591848 -0.036228377 0.0059547601 -0.032483425 -0.34208027 -0.93910915 0.005187253
0.007354666 -0.036074422 0.0061774608 0.16947053 -0.42722964 -0.88811851 0.0024779583
0.010182218 -0.035677832 0.0069523994 0.37836769 -0.46502161 -0.80037034 0.0028738165
0.012302289 -0.034945693 0.0076738326 0.49695143 -0.48640192 -0.71864629 0.0019330198
-0.0034574298 -0.03223994 0.0080555649 -0.61082178 -0.034385085 -0.79102111 0.0027792931
-0.0017637764 -0.032889493 0.0070432303 -0.47556901 -0.11342367 -0.87233543 0.0027728858
0.0012379371 -0.03293867 0.0056555187 -0.34708607 -0.18204661 -0.91999477 0.0034594433
0.0041987025 -0.034174521 0.0052521843 -0.082337067 -0.32978681 -0.940458 0.0035503858
0.0075211036 -0.034078982 0.0052854465 0.13348696 -0.4054575 -0.90431488 0.0032710074
0.010509346 -0.03317105 0.0057043871 0.31957355 -0.44119731 -0.83858067 0.0015982051
0.013067673 -0.032777801 0.0068067303 0.43961325 -0.45947891 -0.77176374 0.0011854001
0.014996139 -0.032093927 0.0077011138 0.58917326 -0.47948655 -0.65035957 0.0015692492
-0.0034566803 -0.030061724 0.007968667 -0.64655674 -0.018317025 -0.76264596 0.0016098908
-0.001762494 -0.029979656 0.0067485375 -0.55621028 -0.063274056 -0.82862937 0.0022602731
0.00040438486 -0.030076744 0.0054658251 -0.429757 -0.13838902 -0.89227659 0.0025055197
0.013651951 -0.030401176 0.0056657214 0.42454031 -0.45161501 -0.78473526 0.001445748
0.01593044 -0.029817259 0.0069210995 0.56203955 -0.47404161 -0.67778754 0.0021383397
-0.0034564096 -0.026922571 0.0079372255 -0.69321281 -0.0015949715 -0.7207312 0.0013451705
-0.0017615426 -0.027077546 0.0065175947 -0.58823115 -0.047513127 -0.8072958 0.0017187975
4.4727756e-05 -0.027240189 0.0052497014 -0.5578329 -0.10351879 -0.82347208 0.0019056714
0.016910367 -0.027328542 0.0060002021 0.55450261 -0.46807766 -0.68806267 0.0031279686
0.01878079 -0.02665692 0.0072553568 0.63423467 -0.47607002 -0.60918283 0.0015719722
-0.0034565739 -0.023786504 0.007956299 -0.74936843 0.012650841 -0.66203249 0.0018552287
-0.0018091069 -0.024015252 0.0063845273 -0.64604002 -0.041227371 -0.76218939 0.0016897466
-7.5009128e-05 -0.025312614 0.0050993934 -0.60760182 -0.086206585 -0.78954947 0.0013011853
0.017674111 -0.025320452 0.0052363649 0.58803195 -0.44230714 -0.6771875 0.0014088234
0.01956543 -0.024184702 0.0062337788 0.61188173 -0.44801065 -0.65183371 0.0011813451
0.02141083 -0.023037145 0.0074606482 0.68848127 -0.45096821 -0.56799752 0.00093647133
-0.0034574552 -0.020895477 0.0080585601 -0.75743389 0.013851755 -0.65276486 0.0012972238
-0.0018844549 -0.020951482 0.0063054087 -0.71832985 -0.029742278 -0.69506663 0.0026557697
0.020320524 -0.021971367 0.0054145977 0.61463964 -0.43851396 -0.6556856 0.0015779046
0.02207651 -0.020765238 0.0065577058 0.713162 -0.42017365 -0.56111848 0.0019275406
-0.0034575982 -0.019206565 0.0080750957 -0.7794829 0.015907714 -0.62622142 0.0018597589
-0.0020010038 -0.017928423 0.0063113645 -0.74410367 -0.039378081 -0.66690266 0.0025171095
0.023018029 -0.018217439 0.0059220688 0.74637341 -0.38527814 -0.54266703 0.00077810913
0.024279125 -0.017453954 0.0071469387 0.77583605 -0.37641189 -0.50635219 0.0011098231
-0.0022419824 -0.015048174 0.0064562419 -0.80785048 -0.021542773 -0.58899361 0.002799466
0.024970181 -0.015090583 0.0065885875 0.787404 -0.35181966 -0.50617969 0.0011861312
-0.0023090499 -0.012073671 0.0064028883 -0.84246486 -0.032046635 -0.53779739 0.0026731847
0.025886923 -0.012300488 0.0062387958 0.83541203 -0.3024644 -0.45891395 0.0010590631
0.026922736 -0.011226822 0.0074996054 0.88047546 -0.28299427 -0.38036463 0.0030739161
-0.0024561272 -0.0088808686 0.006330681 -0.87564403 -0.046078365 -0.48075399 0.002772345
0.026513975 -0.0093032531 0.0054624751 0.86486596 -0.2631205 -0.42752123 0.0016879555
0.027326368 -0.0088259727 0.0069181612 0.88621593 -0.24435812 -0.39358661 0.0012962034
-0.0026188369 -0.0060444255 0.0063499669 -0.8967008 -0.070769779 -0.43694323 0.0026736034
0.027823232 -0.0059083761 0.0064522969 0.91526985 -0.1957242 -0.35209817 0.0013163717
-0.0027194954 -0.003019792 0.0060326057 -0.93176728 -0.07254798 -0.35573387 0.001877856
0.028348442 -0.0029409346 0.006305798 0.91497272 -0.18180779 -0.3602373 0.0014338122
-0.0034561858 0.00082803238 0.0079112723 -0.95637649 -0.092369333 -0.27714962 0.00093566749
-0.0029590807 -0.00013663433 0.0059873341 -0.9465341 -0.10432225 -0.30527052 0.0018302526
0.028787386 -0.00013718568 0.0064938543 0.92431366 -0.1557873 -0.34838855 0.00081663986
-0.0034498731 0.0029941904 0.0071789864 -0.95497453 -0.13837209 -0.26244372 0.00071823417
-0.0029537193 0.0017832788 0.0052765682 -0.96065015 -0.11100452 -0.25461611 0.0010011686
0.028722491 0.0022638077 0.0054731295 0.91583645 -0.11742865 -0.38399756 0.0005329079
-0.0034358324 0.0053844103 0.005550283 -0.94942749 -0.15206783 -0.27470511 0.0010216223
0.028704587 0.0092177587 0.0051914826 0.94768816 -0.028538311 -0.31791937 0.00054676633
-0.0041912301 -0.047010858 0.010814754 -0.25897449 -0.2897402 -0.92140263 0.0039601238
-0.0018774994 -0.047382891 0.010656591 -0.045027118 -0.40945157 -0.91122001 0.0050434144
0.0010115737 -0.047027174 0.01067966 0.15709393 -0.5038836 -0.84936607 0.0044196849
0.003076375 -0.046530411 0.010866679 0.31104511 -0.55870134 -0.76883268 0.0028375275
-0.0064949337 -0.044207901 0.010959973 -0.42833331 -0.1839502 -0.88469934 0.0022042049
-0.004690676 -0.044777866 0.010337958 -0.31337732 -0.24174361 -0.91834348 0.003000854
-0.0017551994 -0.045082361 0.0097106509 -0.14290786 -0.3271623 -0.93409961 0.0049434942
0.0010921613 -0.044990975 0.0095737195 0.057825834 -0.42781699 -0.90201372 0.0037932838
0.0042111622 -0.044748869 0.010118631 0.27726993 -0.50341898 -0.81834638 0.0047909725
0.0067772139 -0.043896157 0.010628086 0.40382785 -0.55764282 -0.72522932 0.0026010091
-0.0066373469 -0.041904077 0.010742205 -0.52147555 -0.089554697 -0.8485536 0.0019443958
-0.0046838867 -0.041809175 0.0097228605 -0.39958099 -0.1730071 -0.90022421 0.0041723908
-0.0018302371 -0.042064544 0.0087462002 -0.2046136 -0.29930696 -0.93195957 0.0028708214
0.0010810689 -0.042612832 0.008494474 0.014570088 -0.40923354 -0.91231334 0.0039823283
0.0043208762 -0.042393509 0.0087286253 0.19785623 -0.47191682 -0.85915506 0.002351064
0.0074271704 -0.041786663 0.0094740856 0.36490202 -0.53429717 -0.76247817 0.0037885387
0.009849906 -0.041147504 0.01043505 0.50435269 -0.54636848 -0.66866273 0.0014237745
-0.0068510841 -0.038914949 0.010699818 -0.5845089 -0.029410828 -0.81085408 0.0017996361
-0.0046795029 -0.03886703 0.0093220621 -0.46210197 -0.10451244 -0.88064688 0.0030800044
-0.0025681532 -0.039208762 0.008336558 -0.36399376 -0.15820022 -0.91786778 0.0025935599
0.007892888 -0.039812118 0.0083841011 0.3064529 -0.49587393 -0.81252426 0.0022916973
0.010461354 -0.039027657 0.0092762988 0.4460876 -0.50197887 -0.7409609 0.0010464415
0.012532563 -0.038219571 0.010246022 0.54453903 -0.51493752 -0.6620549 0.00090781937
-0.0066340626 -0.036059126 0.010529965 -0.64455467 0.023077546 -0.76420987 0.0019234238
-0.0046771653 -0.035944596 0.0091018397 -0.54375899 -0.048841599 -0.83781898 0.0019218703
-0.0029752804 -0.036832578 0.0081349388 -0.51021963 -0.094558649 -0.85483009 0.0015918276
0.011353957 -0.036930498 0.0083456906 0.50037438 -0.52111793 -0.6914199 0.0013692648
0.013376783 -0.036106113 0.0093390057 0.54112798 -0.49158272 -0.68229532 0.0013364974
0.01524337 -0.035328709 0.010496547 0.62110704 -0.50658715 -0.59799284 0.0013795678
-0.0066365511 -0.033158224 0.010688205 -0.69914591 0.054832581 -0.71287328 0.0019551883
-0.0047873398 -0.033108223 0.0091169449 -0.6107282 -0.00927372 -0.7917859 0.0019142937
0.014256674 -0.034042783 0.0084855137 0.59192204 -0.49413761 -0.63675451 0.0014021086
0.016120654 -0.033049136 0.0095657315 0.63887239 -0.48782831 -0.5948661 0.0026265441
0.018133409 -0.031710431 0.010814004 0.70205182 -0.47860417 -0.5273152 0.0016461397
-0.0063948254 -0.030007111 0.010767229 -0.72349781 0.077253699 -0.68599045 0.0016898972
-0.0049670134 -0.030046294 0.0093157282 -0.66997802 0.027926387 -0.7418555 0.0012941546
0.017142393 -0.030652696 0.0086633153 0.66776448 -0.47129595 -0.57616907 0.00097033061
0.018746041 -0.029766629 0.0098356912 0.69844466 -0.48212138 -0.52889889 0.0016239637
-0.0063989949 -0.02783894 0.011043586 -0.77966523 0.098248385 -0.61844105 0.0013651184
-0.0048790141 -0.026923822 0.0094225928 -0.75456882 0.052444782 -0.65412188 0.0014936957
0.019964874 -0.027198305 0.0091254208 0.73001653 -0.47016236 -0.49600732 0.0010318068
0.021454491 -0.025989978 0.010161747 0.74879599 -0.46941093 -0.46792942 0.00094912917
-0.0048174146 -0.023954669 0.0095927389 -0.78973192 0.048852317 -0.61150378 0.0021312814
0.020684041 -0.025003742 0.0081456974 0.69066674 -0.44857678 -0.56723738 0.00094659947
0.022327535 -0.023857079 0.0095193051 0.78307587 -0.44335711 -0.43614984 0.0011398434
-0.0046523395 -0.021025453 0.0097088236 -0.84678835 0.077170238 -0.52630234 0.00186273
0.023354001 -0.021448212 0.0089458702 0.79623353 -0.41508913 -0.44012854 0.0011029085
0.024342041 -0.020561535 0.0099661686 0.81491452 -0.41247016 -0.40716422 0.0016371307
-0.0042277696 -0.017999854 0.0093832808 -0.86066711 0.081151158 -0.5026595 0.0019139502
0.02512956 -0.01815368 0.0093225893 0.84239042 -0.36606473 -0.39544284 0.0014172421
-0.0040262449 -0.015122155 0.0093550412 -0.88708323 0.05677069 -0.4581053 0.0031928422
0.026253186 -0.015337447 0.0092647504 0.87706965 -0.33285871 -0.34634361 0.0014944968
0.027108029 -0.014218789 0.01062604 0.90785807 -0.30296323 -0.28983942 0.00056974567
-0.0039031424 -0.012000799 0.0094107902 -0.93037355 0.02940611 -0.36543185 0.0037001309
0.026478808 -0.01341581 0.0081564561 0.86440402 -0.31875724 -0.38884383 0.0031446861
