# .PCD v0.7 - Point Cloud Data file format
VERSION 0.7
FIELDS x y z normal_x normal_y normal_z curvature
SIZE 4 4 4 4 4 4 4
TYPE F F F F F F F
COUNT 1 1 1 1 1 1 1
WIDTH 547
HEIGHT 1
VIEWPOINT 0 0 0 1 0 0 0
POINTS 547
DATA ascii
-0.002943933 0.019158812 -0.012325949 -0.5310536 0.020133976 -0.84709895 0.0046831826
7.2554685e-06 0.019229652 -0.013722708 -0.31596652 0.1142348 -0.94186819 0.0022027404
0.001721541 0.020296572 -0.01413522 -0.24099132 0.10463863 -0.96486986 0.00067423639
0.012604716 0.019693311 -0.013937774 0.26732436 0.214679 -0.93938845 0.0017512821
0.01508667 0.01919725 -0.01308329 0.48710468 0.24995108 -0.83681154 0.0050710239
0.017186835 0.018511787 -0.011492074 0.66679454 0.25578207 -0.69997185 0.00056956342
-0.0028316891 0.022146124 -0.012252862 -0.48231599 0.036126405 -0.87525207 0.0042225798
0.00011133449 0.022172738 -0.013439576 -0.30355647 0.12814002 -0.9441576 0.0029208534
0.0027048888 0.022620745 -0.013950751 -0.11689826 0.18161014 -0.97639775 0.00095844793
0.0060888594 0.023288386 -0.014059184 0.0102528 0.21011876 -0.97762209 0.0010672237
0.0093098674 0.022771418 -0.013909746 0.13691643 0.24309111 -0.96029192 0.0010590084
0.012109284 0.022205768 -0.013456531 0.26483458 0.25796208 -0.92914915 0.0011398939
0.014803763 0.022043668 -0.012454942 0.55704635 0.27133295 -0.78490627 0.006393271
-0.0029560151 0.025147965 -0.011947883 -0.44288921 0.066869363 -0.89407921 0.0039268597
0.00011069828 0.025190383 -0.013024223 -0.25566736 0.1513471 -0.95484459 0.0017028269
0.0031033545 0.025158664 -0.013546336 -0.10167066 0.19187368 -0.97613913 0.0012456978
0.0060939053 0.025152119 -0.013654814 0.029825905 0.22327553 -0.97429895 0.001301882
0.0090909516 0.02517065 -0.013351229 0.16562013 0.2567277 -0.95218742 0.00086330035
0.012103537 0.025215542 -0.012614699 0.28260729 0.26393506 -0.9222101 0.0005992598
0.014415476 0.024972726 -0.011768707 0.58251661 0.27230367 -0.76584923 0.0083478279
-0.0026315297 0.028007418 -0.011758866 -0.3891834 0.10681082 -0.91494685 0.0041286391
0.00013812725 0.028185744 -0.012527742 -0.2265963 0.17057259 -0.95893645 0.0021708489
0.0031068004 0.028192826 -0.012922327 -0.065502055 0.21433364 -0.97456181 0.00090186059
0.0061030448 0.02819293 -0.012921706 0.064310253 0.24824864 -0.96655917 0.00087683171
0.0090465229 0.028128557 -0.012539877 0.18275583 0.26514459 -0.94673055 0.00059866544
0.012034441 0.027948078 -0.01178153 0.39767417 0.31849408 -0.86047471 0.0072826766
0.013910148 0.027066104 -0.011340369 0.60354429 0.32103649 -0.72984242 0.010957542
-0.0022041812 0.03081874 -0.011447482 -0.31463012 0.17207612 -0.93348688 0.0020098411
7.7850185e-05 0.031220509 -0.011914153 -0.17101026 0.19628753 -0.96551889 0.002020265
0.0031107054 0.031242052 -0.012210642 -0.033803072 0.23603566 -0.97115624 0.00086703594
0.0061133178 0.031250667 -0.012096148 0.12009077 0.28000635 -0.95245725 0.0009071487
0.0090286992 0.031027908 -0.011666873 0.21101318 0.28132296 -0.9361254 0.0011440971
0.011287483 0.029992823 -0.011386309 0.3908788 0.30341733 -0.86899465 0.0079491725
-0.0015115733 0.033168253 -0.011203223 -0.17489153 0.22085096 -0.95949876 0.0017592662
0.00026251341 0.033655155 -0.011384547 -0.13000122 0.23356371 -0.96361178 0.0012888393
0.0031145797 0.033877123 -0.011501705 -0.0073149386 0.26259148 -0.96487933 0.0010711909
0.005932393 0.033592824 -0.011419294 0.11244162 0.2866194 -0.95142329 0.00094264193
0.0080902074 0.033048552 -0.011254028 0.23838943 0.32120016 -0.91651571 0.0014199843
0.0033862693 -0.042952329 -0.0082421685 -0.081846967 -0.34050718 -0.93667281 0.0026075777
0.005694943 -0.042782068 -0.0082501182 0.13757409 -0.39944714 -0.90637493 0.0024742696
0.00040541857 -0.040463787 -0.0085038841 -0.25664121 -0.25574023 -0.9320581 0.0013130179
0.0031280527 -0.040853735 -0.0089533664 -0.1238013 -0.29728594 -0.94672817 0.0016919752
0.0061518913 -0.040851016 -0.0089844838 0.087623321 -0.34456509 -0.93466419 0.0029537606
0.0088872071 -0.040353723 -0.0086524459 0.26225477 -0.39255506 -0.88154572 0.0024621247
0.011053511 -0.039520804 -0.0082451189 0.44646779 -0.39873922 -0.8010453 0.0028027152
-0.002047054 -0.037584916 -0.008449994 -0.38454345 -0.22080147 -0.89631081 0.0014404118
0.00010424969 -0.037818722 -0.0090804938 -0.2782267 -0.23189051 -0.9321034 0.0007153675
0.0031230631 -0.037752397 -0.0098552108 -0.15210357 -0.26910871 -0.95102316 0.0013975718
0.0061375364 -0.037728652 -0.010133425 0.02278056 -0.3169837 -0.94815737 0.0026837382
0.0091625974 -0.037768632 -0.0096683223 0.21157581 -0.35339203 -0.91123533 0.0016266359
0.011879658 -0.037595779 -0.0087494673 0.41161478 -0.37677354 -0.82982826 0.0028661594
-0.0026271399 -0.034779731 -0.0088161528 -0.42543808 -0.17321615 -0.88825595 0.0026288719
0.00010541244 -0.03497475 -0.009757271 -0.30961826 -0.1995019 -0.92969644 0.0013495227
0.003119394 -0.034913979 -0.010524139 -0.18436405 -0.23208721 -0.95506305 0.00061630009
0.0060569714 -0.035259746 -0.010879884 -0.041911446 -0.27722025 -0.95989186 0.0044895913
0.0092845336 -0.035070028 -0.010667074 0.1851209 -0.35020688 -0.9181968 0.0026887946
0.012179368 -0.034975555 -0.0097507788 0.40955546 -0.36114621 -0.83775759 0.0021193796
0.014423455 -0.03448211 -0.0087085562 0.54674983 -0.35982096 -0.75603807 0.0015845379
-0.0028521731 -0.031777427 -0.0091681536 -0.48682651 -0.12147903 -0.86501032 0.0036292688
0.00010647508 -0.03190643 -0.01045263 -0.31872082 -0.1853393 -0.92955172 0.0023701082
0.0025282379 -0.032462448 -0.010910936 -0.20561767 -0.20623729 -0.95665437 0.00042558784
0.010524228 -0.033252228 -0.011043199 0.21243127 -0.35168436 -0.91169685 0.01001865
0.012454393 -0.032317985 -0.010692835 0.36587664 -0.3221837 -0.87311625 0.0022103798
0.01504004 -0.031702008 -0.0094885156 0.53656906 -0.32381171 -0.77925581 0.0037667661
0.017109528 -0.030664744 -0.0082852328 0.68049651 -0.31220198 -0.6629135 0.0021598549
-0.0047902674 -0.028109638 -0.0081670815 -0.62253982 -0.050886918 -0.78093189 0.0011045613
-0.0029487526 -0.028920084 -0.0094541702 -0.53623486 -0.12446808 -0.83484119 0.0033379667
-0.00041104946 -0.029078962 -0.010811061 -0.37054846 -0.16650231 -0.91376734 0.0032475439
0.015438698 -0.029053096 -0.010298198 0.52032399 -0.30853489 -0.79628456 0.0021083329
0.01752634 -0.02867762 -0.0087582553 0.6836642 -0.30459687 -0.66319239 0.0019059557
-0.0047884108 -0.025771189 -0.0083106644 -0.64481753 -0.047268689 -0.76287353 0.0023889074
-0.0028842599 -0.025887672 -0.0098140631 -0.55491823 -0.093918301 -0.82658637 0.0014348354
-0.00093397219 -0.026311088 -0.010992833 -0.43097112 -0.1176002 -0.89466977 0.0023238382
0.016244277 -0.026402343 -0.010758006 0.59558594 -0.27117193 -0.75613701 0.0018175754
0.018009055 -0.025759516 -0.0094652493 0.66708553 -0.27329695 -0.69304097 0.0027033081
-0.0047862618 -0.022967324 -0.0084768068 -0.68811327 -0.035568967 -0.72473097 0.0015948375
-0.0029810895 -0.022934305 -0.010026836 -0.59371591 -0.076412685 -0.80103844 0.0011676202
0.018451709 -0.022990584 -0.010057531 0.67451894 -0.24630035 -0.69595999 0.0041632238
0.019971289 -0.022576023 -0.0085436143 0.75202233 -0.22738203 -0.61867577 0.0014538834
-0.0047842618 -0.019933339 -0.0086314976 -0.71809483 -0.024816116 -0.6955027 0.0021664568
-0.0032005757 -0.019926528 -0.010096902 -0.62400836 -0.055424266 -0.77944964 0.0013078175
0.018988647 -0.0200139 -0.010517985 0.72866082 -0.20188104 -0.65444428 0.0021987315
0.020284776 -0.019789901 -0.009116495 0.76383924 -0.20172642 -0.61307102 0.0017317955
-0.0047830688 -0.016903808 -0.0087238085 -0.74802834 -0.015753316 -0.6634798 0.0024993925
-0.0033736769 -0.016850296 -0.010164492 -0.71162421 -0.043891773 -0.70118803 0.0022342498
0.01932694 -0.017518081 -0.010887999 0.73061311 -0.16683206 -0.66209626 0.0019546708
0.020590711 -0.016824683 -0.0096091647 0.76989996 -0.17149594 -0.61468953 0.0015797016
-0.0047823838 -0.013876794 -0.0087767029 -0.77685225 -0.011866275 -0.6295712 0.0024088759
-0.0035655024 -0.013883091 -0.010157062 -0.73653805 -0.0360347 -0.67543554 0.0023300385
0.020999465 -0.013845477 -0.0098130126 0.78596115 -0.14097609 -0.60198909 0.002886337
-0.0047819326 -0.010850917 -0.0088116508 -0.79875553 -0.0076644146 -0.60160685 0.0027505432
-0.0036043795 -0.010817335 -0.010263644 -0.75831097 -0.030658672 -0.65117162 0.0023339086
0.0214637 -0.010828127 -0.009807799 0.78354859 -0.10555611 -0.61229855 0.0037831797
-0.0047811694 -0.0078252228 -0.0088707078 -0.82214582 -0.0087483646 -0.56920964 0.0029008237
-0.0037558484 -0.0079039354 -0.010227126 -0.78045756 -0.029614318 -0.62450695 0.0026862391
0.021602284 -0.0079066791 -0.010067195 0.7915023 -0.075022936 -0.60654414 0.0047576916
0.022696022 -0.0078334482 -0.0083751166 0.88077635 -0.075933531 -0.46740469 0.0040880856
-0.0049385563 -0.0045692376 -0.0087129753 -0.83772004 -0.018071184 -0.54580086 0.0031539926
-0.0038357629 -0.0047878888 -0.010285733 -0.79834867 -0.031170342 -0.60138816 0.0032058412
0.021672823 -0.0047880118 -0.010273169 0.82054615 -0.036823723 -0.57039279 0.0015745243
0.022679038 -0.0048023304 -0.008710457 0.85465521 -0.037057281 -0.5178718 0.0018162923
-0.005015729 -0.0017768118 -0.0087448545 -0.84115386 -0.041324548 -0.53921479 0.0034134667
-0.0038337796 -0.0017730824 -0.010469729 -0.80723912 -0.04395134 -0.58858579 0.0036524164
0.021667399 -0.0017731406 -0.01038504 0.82072049 -0.0035331962 -0.57131898 0.0016388809
0.022673119 -0.0017764859 -0.0088273622 0.85509789 -0.00099063909 -0.51846558 0.0018921522
-0.0050120866 0.0012471451 -0.0090148682 -0.84729838 -0.050464023 -0.52871436 0.003342893
-0.004065949 0.0012403973 -0.01041333 -0.80038196 -0.04986256 -0.59741306 0.0032227361
0.021670781 0.0012410471 -0.010315469 0.82415581 0.030330893 -0.56555033 0.0017946592
0.022677761 0.0012487308 -0.0087356698 0.85918736 0.034765348 -0.51047868 0.0021128734
-0.0051098424 0.0041693537 -0.0091686677 -0.84164101 -0.057978828 -0.53691608 0.0037550947
-0.0040632212 0.0040194225 -0.010653643 -0.8051604 -0.053425968 -0.59064579 0.0043337736
0.021682993 0.004026392 -0.01006416 0.82992804 0.065408826 -0.55402273 0.002192091
0.022693422 0.0040449807 -0.0084264763 0.85862833 0.066136517 -0.50831419 0.0020984162
-0.0052406085 0.0070554791 -0.0093265856 -0.83797681 -0.072034732 -0.54093051 0.0034861851
-0.0041905576 0.0067720842 -0.010765329 -0.79339725 -0.055252932 -0.60619134 0.0041874303
0.021485236 0.0070971628 -0.0098962458 0.8251664 0.10117511 -0.55575544 0.0010778991
0.022707179 0.0056790398 -0.0081548179 0.91002166 0.085869074 -0.40557006 0.0014224439
-0.0054075904 0.01015735 -0.0094895689 -0.81999838 -0.080317862 -0.56670249 0.003917438
-0.0042911558 0.010035556 -0.010956455 -0.68437183 -0.053793244 -0.72714615 0.0029338126
0.02116321 0.010030467 -0.0097485576 0.79659563 0.14639203 -0.58651918 0.0032316078
-0.0055455961 0.013163714 -0.0096929604 -0.81887126 -0.085476689 -0.56757694 0.0047586248
-0.0042894236 0.011883504 -0.011102595 -0.70914781 -0.024899065 -0.70462 0.0067707603
0.019322213 0.013970191 -0.010997701 0.69251645 0.17362227 -0.70019734 0.0009449416
0.020618007 0.013009277 -0.0096914582 0.78607613 0.18579257 -0.58954686 0.0016793412
-0.0056985454 0.016099393 -0.009829266 -0.77296865 -0.070932619 -0.63046652 0.0042622695
0.019021284 0.01630361 -0.0105394 0.74305266 0.22415903 -0.6305756 0.0023462991
0.020273481 0.016009843 -0.009163701 0.7794534 0.22206828 -0.58577985 0.0019830023
-0.0059022317 0.019149724 -0.0098601608 -0.7243405 -0.071480379 -0.685727 0.0069966484
0.018438466 0.01926038 -0.0099909566 0.72338015 0.27416432 -0.63368374 0.00097696704
0.020048313 0.018322589 -0.0085582072 0.76390868 0.26638412 -0.58777797 0.0014735836
-0.0075855441 0.022686703 -0.0082191834 -0.83451849 -0.067489058 -0.54683095 0.0040886193
-0.0059280959 0.022125412 -0.010005935 -0.67597991 -0.02841259 -0.73637205 0.004671182
0.016426906 0.022524973 -0.010588535 0.69188422 0.27928144 -0.66580641 0.00069461542
0.017874531 0.022035612 -0.0093517508 0.71968126 0.29705444 -0.62754881 0.00094227178
-0.0075808251 0.025234886 -0.0084624719 -0.77421075 -0.035766918 -0.63191646 0.0023852745
-0.0059272433 0.02513939 -0.010047903 -0.62566084 0.011344172 -0.78001273 0.0061889528
0.015943084 0.025336677 -0.0097939838 0.71492201 0.31475699 -0.62435138 0.00078921078
0.017353605 0.024498401 -0.0086739976 0.73466021 0.32365629 -0.59625584 0.00081140548
-0.0075784968 0.028254176 -0.008582551 -0.68041366 -0.0083095115 -0.73278111 0.0032908255
-0.0059285867 0.028162075 -0.0099516427 -0.59342408 0.040715937 -0.80385947 0.005093561
-0.0042241039 0.02825447 -0.01103485 -0.45635793 0.083640717 -0.88585645 0.0048828097
0.013149606 0.029096328 -0.010974605 0.58394819 0.3437233 -0.73543102 0.01171043
0.014877588 0.0280334 -0.0097329728 0.68840665 0.33240268 -0.64467406 0.005618799
-0.0075795865 0.031052029 -0.008526329 -0.61392611 0.034321431 -0.78861707 0.0042064073
-0.005885243 0.031124806 -0.0097422525 -0.53930247 0.077171035 -0.83856875 0.0044917595
-0.0036885198 0.031394344 -0.010845951 -0.37114102 0.14233591 -0.91760278 0.0023412958
0.010216891 0.032182336 -0.010985581 0.31035763 0.34099913 -0.88735431 0.0062507032
0.012300867 0.031318538 -0.010503666 0.40250155 0.3471747 -0.84703135 0.0032568404
0.014065305 0.030706141 -0.0094952965 0.67801481 0.33126011 -0.65617275 0.0088535678
-0.0075835288 0.03386239 -0.0083230967 -0.63618875 0.085052416 -0.7668311 0.0023355072
-0.0059876228 0.034164101 -0.0092882738 -0.46991137 0.14291288 -0.87106782 0.0035063729
-0.0029756953 0.034194484 -0.010538446 -0.3071304 0.21693029 -0.92661333 0.0029598461
-0.00020100304 0.034961093 -0.010977065 -0.11453985 0.27195311 -0.95546961 0.0011665162
0.0031167725 0.035259474 -0.011099113 0.012470163 0.29651678 -0.95494616 0.00095629564
0.006425289 0.034876101 -0.010939017 0.13754877 0.32765466 -0.93473136 0.0010236691
0.0092557594 0.034259561 -0.010520004 0.26744133 0.33659765 -0.90287161 0.0010987868
0.012119415 0.034183558 -0.0094345724 0.58422863 0.41566491 -0.697065 0.015976027
0.013834381 0.032665249 -0.0087393904 0.61973119 0.41276982 -0.66749847 0.013886351
-0.0058395634 0.037013888 -0.0088498639 -0.40917999 0.18882027 -0.89270306 0.0028252152
-0.0028793407 0.03702379 -0.0098917913 -0.25421494 0.25078937 -0.93406606 0.0020318925
0.00010666531 0.037174523 -0.010387425 -0.10570543 0.29317334 -0.95019776 0.0014815698
0.0031201392 0.037166085 -0.010483647 0.032722764 0.324752 -0.94523299 0.0010700574
0.0060829902 0.037081666 -0.010227373 0.15743715 0.34381223 -0.92574662 0.00071042974
0.0091659743 0.03702059 -0.0095005566 0.29173312 0.36032832 -0.88603348 0.0012153181
0.011564045 0.036806401 -0.008662465 0.64153153 0.34613132 -0.68456578 0.017294314
-0.005307117 0.039618265 -0.0084605105 -0.38006657 0.2412084 -0.89295453 0.004485033
-0.002948564 0.040119361 -0.0089763608 -0.21432686 0.29028159 -0.93263108 0.0015842842
0.00010507694 0.040285878 -0.0093631903 -0.070063978 0.32412484 -0.94341624 0.00098785502
0.0031262441 0.040286042 -0.0093622319 0.050794095 0.35007313 -0.93534422 0.0006233796
0.0061761234 0.040161021 -0.009005704 0.19497108 0.37949711 -0.90441597 0.0007324029
0.0087734051 0.039492656 -0.0085972408 0.32406592 0.40088582 -0.85689658 0.0031050425
-0.0023813057 0.042325336 -0.0083273435 -0.19256142 0.32792595 -0.92487001 0.0014334274
0.00020354509 0.042597793 -0.0084876204 -0.045937147 0.36657614 -0.92925334 0.0010910742
0.0030610852 0.042441048 -0.0084907562 0.075696677 0.39540157 -0.91538388 0.00091815105
0.0053683673 0.042205423 -0.008283874 0.20559898 0.41120231 -0.88805497 0.0014890539
-0.0015435943 -0.048702229 -0.0052601183 -0.22503553 -0.33414304 -0.91526365 0.0066149514
0.00023936119 -0.049062885 -0.0053936369 -0.12466029 -0.41016436 -0.90345174 0.00360817
0.002990901 -0.049072191 -0.0054510934 0.061416596 -0.46586442 -0.88272214 0.002236926
0.0053767925 -0.048818927 -0.0052657435 0.23962988 -0.49421376 -0.83566153 0.0029142688
-0.0043587573 -0.04565328 -0.0052533383 -0.34731206 -0.29052764 -0.89160973 0.0012685319
-0.0025419169 -0.046801597 -0.0056375517 -0.30661079 -0.30792955 -0.90064937 0.0017405127
9.9922647e-05 -0.046951357 -0.0062904516 -0.14739566 -0.38108325 -0.91271573 0.0018047526
0.0031415019 -0.046927288 -0.0065181437 0.0092389183 -0.41029474 -0.91190618 0.0018619547
0.006154337 -0.046938214 -0.006100696 0.20166963 -0.44977927 -0.87007356 0.0026190148
0.0086837783 -0.046258513 -0.0056369668 0.37064707 -0.47736982 -0.79670495 0.0023166351
-0.0050020949 -0.043529056 -0.0056144907 -0.44939792 -0.24481659 -0.85913116 0.0013387359
-0.00267844 -0.043852225 -0.0065158233 -0.35021192 -0.27571276 -0.8951726 0.0010214271
7.0039066e-05 -0.043991584 -0.007364572 -0.20410974 -0.31836584 -0.92573339 0.0019551704
0.0030449717 -0.044359326 -0.0076652337 -0.043617547 -0.38430619 -0.92217475 0.0039932975
0.0062284968 -0.044166766 -0.007514229 0.17222215 -0.43355221 -0.88451797 0.0015607034
0.0092191435 -0.0438627 -0.006758254 0.35709035 -0.45108819 -0.81792778 0.0032740645
0.011736159 -0.043174397 -0.0058177277 0.50403118 -0.46869019 -0.72545296 0.001840022
-0.0054873829 -0.040853973 -0.006058949 -0.53188783 -0.16486308 -0.83061147 0.0050728316
-0.0027000918 -0.040767089 -0.0073664617 -0.34564021 -0.24923861 -0.90466183 0.00038466812
-0.00039679627 -0.041679148 -0.0079468256 -0.23333929 -0.27869371 -0.93160218 0.0012637809
0.0096031651 -0.041645598 -0.0077841999 0.3018325 -0.43456379 -0.84855849 0.0019811722
0.012256159 -0.040815149 -0.0068481332 0.46827471 -0.42411694 -0.77514106 0.0019942326
0.014220092 -0.040278681 -0.0056700082 0.58410668 -0.42779589 -0.68978983 0.0018140759
-0.0059920978 -0.037929226 -0.0062548378 -0.54762191 -0.15217172 -0.8227722 0.0034041146
-0.003493879 -0.038089801 -0.0077282898 -0.41494828 -0.19270407 -0.88920361 0.0033145696
0.01297597 -0.038511861 -0.0076724021 0.50784838 -0.38992137 -0.76814806 0.004817775
0.014941799 -0.037822921 -0.0064733448 0.61768258 -0.40096661 -0.6765309 0.0025748638
0.01674898 -0.036491323 -0.0054092193 0.69605273 -0.38002336 -0.60917383 0.0015456576
-0.005931295 -0.034839664 -0.0066410322 -0.65674013 -0.067050681 -0.75113016 0.0041037058
-0.0041872128 -0.0351662 -0.0079263207 -0.48586139 -0.12705687 -0.86475152 0.0038410558
0.015554831 -0.035182282 -0.0074310475 0.59583122 -0.36285827 -0.71646285 0.0018936065
0.017159518 -0.034496386 -0.0061415001 0.70866752 -0.36104697 -0.60616452 0.0015996716
-0.0060103275 -0.031894073 -0.0067668045 -0.69485515 -0.064802989 -0.71622401 0.0050004576
-0.0043247612 -0.033006508 -0.0081214095 -0.51821536 -0.10074328 -0.84929597 0.005303775
0.016501287 -0.0325546 -0.0079279626 0.64779496 -0.32768595 -0.68773806 0.00082802435
0.01798271 -0.031858593 -0.0066252742 0.73795068 -0.33666718 -0.58487952 0.0033086988
-0.0060722241 -0.028932314 -0.0068371403 -0.74238998 -0.024367219 -0.66952485 0.0031068879
0.018843066 -0.029064322 -0.0070464448 0.77566248 -0.29570508 -0.55758965 0.0011359769
0.02011298 -0.028124584 -0.0057025277 0.80873138 -0.29073855 -0.51129705 0.0012887453
-0.0062122717 -0.025860149 -0.0067663733 -0.77520615 0.0039169868 -0.63169616 0.0038637335
0.019371074 -0.026412953 -0.0077006244 0.73299617 -0.26456305 -0.62667626 0.0014178497
0.020394523 -0.025759978 -0.0064832019 0.82228065 -0.25244102 -0.51002753 0.0017578653
-0.0062400904 -0.022862731 -0.006754254 -0.81290907 0.013186072 -0.58224124 0.0052580652
0.021065407 -0.022861494 -0.0067371228 0.82590139 -0.23240894 -0.51368564 0.0015662574
-0.0060356646 -0.019902181 -0.0069865892 -0.83577168 0.014250122 -0.5488922 0.0046093911
0.021761276 -0.019778566 -0.0068476168 0.85963261 -0.19067609 -0.47399828 0.00098918343
-0.0060044839 -0.016906058 -0.0068937326 -0.86413705 0.016146472 -0.50299752 0.0049553649
0.022070181 -0.017062252 -0.007325842 0.87158835 -0.16910405 -0.4601495 0.0016950463
0.022897784 -0.016781548 -0.0057151061 0.92717254 -0.1421501 -0.34661853 0.00070193165
-0.0058578504 -0.013988989 -0.0069979564 -0.88803852 0.033948239 -0.45851409 0.0037093568
0.022257827 -0.014372434 -0.0078177536 0.86603582 -0.11333014 -0.48696834 0.0030994299
0.023013372 -0.013841492 -0.0063800737 0.906739 -0.091020159 -0.41175196 0.0018180357
-0.0057391813 -0.010890523 -0.0070996997 -0.90484059 0.015178123 -0.42547986 0.0030108043
0.023189247 -0.010782201 -0.0067305965 0.91508806 -0.076430723 -0.39594471 0.001551247
-0.0057411632 -0.0078557432 -0.0069748955 -0.91741967 0.0059983265 -0.39787579 0.0025428748
0.02348917 -0.0078625809 -0.0065751625 0.9162339 -0.082273625 -0.39210513 0.0017115596
-0.0058382615 -0.0049602119 -0.0067339167 -0.92373282 -0.010860782 -0.38288337 0.0024106437
0.023468584 -0.0048182923 -0.0069690035 0.92485315 -0.028895179 -0.37922513 0.0014081665
-0.0059805731 -0.0017815194 -0.0065802587 -0.92421556 -0.036845561 -0.38008946 0.002463382
0.023462478 -0.0017802304 -0.0070857788 0.92585748 0.0044986303 -0.3778463 0.0014603595
-0.005974642 0.0012570507 -0.0069580856 -0.93031734 -0.03729276 -0.3648546 0.002449688
0.023470148 0.0012574642 -0.0069390968 0.9186396 0.0323718 -0.39376813 0.0017671626
-0.0062442441 0.0040179552 -0.0066920184 -0.92297465 -0.072352536 -0.37799862 0.003068754
0.02349215 0.0040666503 -0.0065183747 0.93374467 0.060066462 -0.352864 0.0017475554
-0.0064911535 0.0071949763 -0.0068217996 -0.92255294 -0.075319409 -0.37844813 0.0037452027
0.023116611 0.0070384447 -0.0068514012 0.91322547 0.11758003 -0.3901208 0.001766996
-0.0068120323 0.010007112 -0.006808647 -0.91516119 -0.099395826 -0.39064121 0.00176607
0.022259004 0.010815575 -0.0077939611 0.87846619 0.125193 -0.46111158 0.0035140463
0.022982921 0.0099637108 -0.0064123981 0.92284364 0.12291062 -0.36503786 0.0016690862
-0.0076319715 0.013445011 -0.0058256174 -0.9318797 -0.12321281 -0.34120205 0.0038088264
-0.0069411546 0.012967275 -0.0073499046 -0.90154153 -0.12176618 -0.4152059 0.0030294722
0.022095341 0.01336282 -0.0071740337 0.88549447 0.18021414 -0.42827845 0.0018285733
0.022831924 0.012747436 -0.0056917514 0.91017938 0.16707468 -0.37902445 0.0021224609
-0.0078352932 0.016343439 -0.0063262098 -0.90608573 -0.13032581 -0.40252185 0.0029592889
-0.0071275402 0.01617969 -0.0077831382 -0.88254988 -0.098623812 -0.45975992 0.0035957645
0.021605916 0.016217286 -0.0068364562 0.88124019 0.21005784 -0.42342833 0.0012403568
-0.0080307135 0.019182341 -0.0067327041 -0.8920173 -0.12149809 -0.43536577 0.0029979367
-0.0071212621 0.017797885 -0.0081258202 -0.86823928 -0.089154258 -0.48806971 0.0044579455
0.020800821 0.019151399 -0.0068404144 0.8459301 0.25926325 -0.46603087 0.0020910562
-0.0084453924 0.022069361 -0.0066727242 -0.86814386 -0.10848988 -0.48430997 0.0034266848
0.019241728 0.022588804 -0.0074536465 0.78052336 0.29909742 -0.54892993 0.0027466244
0.020325389 0.021847107 -0.0061151744 0.83499253 0.29409572 -0.46507543 0.0022167901
-0.0087530129 0.025154015 -0.0067716376 -0.87284392 -0.08778166 -0.48003948 0.0025411954
0.018529195 0.025197666 -0.00682399 0.77432156 0.34133834 -0.53283602 0.0022536283
0.020043746 0.024027286 -0.0051459754 0.84810835 0.3054584 -0.43290585 0.0046626804
-0.0089585083 0.028206019 -0.0068797283 -0.81452882 -0.055297147 -0.57748169 0.0049235779
0.015990388 0.02875291 -0.0077237766 0.73148715 0.34195194 -0.58991146 0.00099021534
0.017469376 0.027984524 -0.0065139118 0.7537232 0.35714796 -0.55167627 0.00054711051
-0.01045925 0.032234978 -0.0052126581 -0.79871351 -0.061995558 -0.59850925 0.0040454851
-0.0090118749 0.031163057 -0.0070202146 -0.74972844 -0.010462886 -0.66166288 0.0042602555
0.015465171 0.031303111 -0.0067790058 0.75229281 0.38858235 -0.53203303 0.0022181689
0.016833354 0.030654034 -0.0056660138 0.75921458 0.3645013 -0.53919566 0.00064903958
-0.010455053 0.034098808 -0.0053749564 -0.7731638 -0.023061585 -0.63378698 0.00264633
-0.0089278761 0.034154076 -0.0070820446 -0.67702305 0.051004574 -0.73419225 0.0026353672
0.013435034 0.035180848 -0.0064680362 0.74509597 0.40178701 -0.53235263 0.0026990364
0.014648316 0.033846047 -0.0061678658 0.74628454 0.3910507 -0.53864527 0.0022949532
-0.010454508 0.037146017 -0.0053959871 -0.71170598 0.031352147 -0.7017774 0.0038832594
-0.008829942 0.037161618 -0.0069079725 -0.6568166 0.077181555 -0.75008994 0.0037602189
-0.0071228836 0.037847817 -0.0080373371 -0.56155634 0.15014097 -0.81370276 0.0021841163
0.01275873 0.037271205 -0.0066368477 0.77978992 0.35770535 -0.51378453 0.0025717886
0.014089422 0.03588894 -0.0054700957 0.74692595 0.37766433 -0.54723978 0.0017097244
-0.010459133 0.039507728 -0.0052171731 -0.7085728 0.097228661 -0.69890708 0.002748162
-0.0087900413 0.040092826 -0.0064791078 -0.57591194 0.14012456 -0.80541331 0.0029380459
-0.0063572023 0.040467285 -0.0077756727 -0.37929413 0.23972973 -0.89368093 0.004506947
0.0073278355 0.041570093 -0.0081102038 0.29491627 0.44754907 -0.84422988 0.0047306414
0.0095728086 0.040719513 -0.0077468092 0.35103074 0.42165086 -0.83605498 0.0018224099
0.011401882 0.039792001 -0.0071960222 0.66375858 0.37492561 -0.64719039 0.015006794
-0.0085813077 0.042960528 -0.0059482576 -0.49588734 0.22773962 -0.83799189 0.003839347
-0.0059789116 0.043253329 -0.0070768492 -0.3173928 0.30125147 -0.89917153 0.0029444669
-0.0031069387 0.043554336 -0.0077284789 -0.17704898 0.35064301 -0.91962117 0.0020484219
-3.7108082e-05 0.044018365 -0.0078751827 -0.021092806 0.40575364 -0.91373903 0.00097949605
0.0031982502 0.043889631 -0.0078087952 0.099229798 0.4359335 -0.89449173 0.00097053044
0.0062985076 0.043423865 -0.0074847857 0.2147029 0.44782618 -0.86795986 0.00084385439
0.0091525475 0.04308176 -0.0066607418 0.35267395 0.45133469 -0.81970608 0.0022128639
0.011108595 0.042019133 -0.0059216106 0.66138411 0.41679028 -0.62358397 0.016970497
-0.0081512304 0.045456212 -0.005438087 -0.40983626 0.31053239 -0.85767347 0.0029462269
-0.0057203276 0.046191547 -0.0060661351 -0.25576144 0.36438182 -0.89543951 0.0015937968
-0.002704971 0.046149794 -0.0067163194 -0.10701022 0.40876377 -0.90634483 0.00055337552
0.00010121439 0.046128392 -0.0069145397 -0.0018314418 0.43011224 -0.90277356 0.0011434131
0.0031408125 0.046152905 -0.0066887038 0.11008825 0.45712799 -0.88256139 0.00065183546
0.0061333468 0.046153154 -0.0060501173 0.27431563 0.49776116 -0.82279086 0.0025160892
0.0084304446 0.045476574 -0.0056481985 0.52557421 0.49960616 -0.68859667 0.018948022
-0.0050141029 0.048264571 -0.0053742584 -0.22953606 0.38967261 -0.89189041 0.0013732489
-0.0026285378 0.048549026 -0.005612364 -0.098731577 0.4310095 -0.89692974 0.0010716751
9.9240453e-05 0.048607066 -0.0056647607 0.031291381 0.46340072 -0.88559622 0.00090631843
0.0029906943 0.048309769 -0.0055283722 0.15315092 0.48461553 -0.86121577 0.0013058488
0.0052593946 0.047947165 -0.0052759135 0.27288669 0.50003451 -0.82188702 0.0026764884
-0.0015600058 -0.054706562 -0.0022141421 -0.12394903 -0.49371466 -0.86074531 0.0031826459
9.3731098e-05 -0.054697067 -0.002291484 -0.015025946 -0.53719521 -0.84332407 0.0032662929
0.0019835192 -0.054708522 -0.0021981085 0.13306448 -0.56167847 -0.81658506 0.0029887394
-0.0051473407 -0.052313369 -0.0024782086 -0.33831641 -0.40683797 -0.84854275 0.0022130869
-0.0026796707 -0.052891657 -0.0029922947 -0.20277314 -0.45375565 -0.86774927 0.0016102308
9.5411669e-05 -0.052916288 -0.0033694631 -0.046812754 -0.47500488 -0.87873709 0.0017850985
0.0031006553 -0.052878086 -0.0031957598 0.14214006 -0.52130425 -0.84145004 0.0027812605
0.005937153 -0.052330624 -0.0028051152 0.31601948 -0.54811645 -0.77440304 0.002719423
0.0081247659 -0.051630814 -0.0022553885 0.45992962 -0.55775958 -0.69091898 0.0019576279
-0.0078875748 -0.048923299 -0.0023900056 -0.49538946 -0.29499495 -0.81704783 0.0010327839
-0.0057542757 -0.049817182 -0.0031988462 -0.42449564 -0.30980507 -0.8507787 0.00066216144
-0.0027581081 -0.05001485 -0.0043235095 -0.24353772 -0.4090066 -0.87943333 0.0015751179
-3.1597447e-06 -0.050512869 -0.004665677 -0.060268059 -0.46882436 -0.88123292 0.0016612796
0.0032692919 -0.050535604 -0.0046136389 0.097084507 -0.50670946 -0.85663307 0.0018352815
0.0063149934 -0.050134312 -0.0041409768 0.2675769 -0.52055204 -0.81081951 0.0020505397
0.0088995509 -0.049629662 -0.0032602227 0.46428478 -0.53947592 -0.70242816 0.0025521843
0.010873095 -0.048681799 -0.0025830751 0.52772921 -0.52231663 -0.66984117 0.002410704
-0.0082973326 -0.046747096 -0.0028141537 -0.56512254 -0.22411481 -0.79398298 0.0025483093
-0.0057942704 -0.046825502 -0.0042032236 -0.45285177 -0.2586394 -0.85324734 0.0011593656
-0.0036249254 -0.047801118 -0.0049154884 -0.30789021 -0.32852215 -0.89290363 0.0015214374
0.007375251 -0.04826491 -0.0049672509 0.31112874 -0.53202575 -0.78749448 0.004385307
0.0093542282 -0.047316976 -0.0046140086 0.39664653 -0.50550961 -0.76624513 0.0019956287
0.011754478 -0.046617605 -0.0033872765 0.57723796 -0.50181633 -0.64418697 0.002835385
-0.0086571379 -0.043926507 -0.0031940984 -0.63578075 -0.15286656 -0.75658095 0.004242972
-0.0065361215 -0.044046983 -0.0046673287 -0.49682105 -0.20600705 -0.84304798 0.002486875
0.012715259 -0.044263393 -0.0042932401 0.58529365 -0.47664258 -0.65592921 0.0039298199
0.014513013 -0.04339166 -0.0030894752 0.66177571 -0.47397888 -0.58085877 0.00096541952
-0.008617036 -0.040873908 -0.0036468944 -0.689753 -0.063945204 -0.72121555 0.0036816392
-0.0071123419 -0.041156955 -0.0049523623 -0.58316106 -0.12366484 -0.80288869 0.0050392346
0.013474157 -0.042146672 -0.0051233554 0.64004034 -0.42968068 -0.63696373 0.0018021046
0.015335185 -0.040978689 -0.0039434852 0.72163558 -0.42296878 -0.54803234 0.0014078411
0.016972106 -0.039912939 -0.0025430033 0.75871855 -0.41860792 -0.49911284 0.0016333649
-0.0085824616 -0.037848424 -0.0038545919 -0.72839302 -0.0187859 -0.68490195 0.0045392378
0.016187791 -0.038546123 -0.0046998942 0.68802989 -0.4012464 -0.60466206 0.0021208371
0.017390691 -0.037711151 -0.0036199857 0.76881844 -0.38566256 -0.51008093 0.0016902941
-0.0086596999 -0.034877222 -0.0037354324 -0.78505772 0.012970828 -0.61928689 0.0033408739
0.018440507 -0.035105146 -0.0038861497 0.80665231 -0.36175898 -0.46737829 0.00078672409
0.019676432 -0.033639733 -0.0027798647 0.83068818 -0.3380335 -0.44236925 0.0019528853
-0.0084325885 -0.03190615 -0.0039325943 -0.82618064 0.037557673 -0.56215221 0.0042937775
0.019323826 -0.032294802 -0.0044209505 0.82906699 -0.32007349 -0.45847651 0.0014725865
0.020291083 -0.031494066 -0.0031081422 0.85615557 -0.30226532 -0.41908622 0.0016586261
-0.0083781285 -0.028854445 -0.003816762 -0.83536547 0.04920803 -0.54748797 0.0040676841
0.020826913 -0.02893593 -0.0037732706 0.8781864 -0.26665697 -0.39709276 0.0014281358
-0.0082098823 -0.025929572 -0.0038089084 -0.86500806 0.056916751 -0.49851939 0.0047717863
0.021683369 -0.025962876 -0.0038176924 0.88486969 -0.24609002 -0.39553162 0.0012627895
-0.0079866042 -0.022973424 -0.0037546321 -0.90824634 0.067181617 -0.41300759 0.0036258274
0.022282951 -0.023110682 -0.0041507399 0.90662783 -0.22468287 -0.35713235 0.0012511408
0.02298411 -0.022084035 -0.0026868964 0.92888623 -0.20727988 -0.30692902 0.0014516991
-0.0078692846 -0.020120453 -0.0033276195 -0.9273954 0.080931678 -0.3652229 0.0037396385
-0.0071791038 -0.019390749 -0.0049683983 -0.90197557 0.057365272 -0.4279595 0.0048725475
0.022395365 -0.021030622 -0.005043068 0.89942759 -0.20404282 -0.38651827 0.0029026377
0.02308448 -0.019675672 -0.0038104472 0.93769521 -0.16893479 -0.30362594 0.00086264097
-0.0076897023 -0.017357497 -0.0028492953 -0.94292313 0.094854638 -0.31921557 0.0041900002
-0.0071903775 -0.016830575 -0.0043529738 -0.94361198 0.092820078 -0.31777489 0.0039882869
0.023554396 -0.016693329 -0.0038263784 0.94639301 -0.13117249 -0.2951847 0.00094348064
-0.0070430106 -0.013554851 -0.0038541507 -0.95553887 0.074804127 -0.28521889 0.0021056898
0.023937456 -0.013623946 -0.0037862572 0.94229966 -0.11625746 -0.31393555 0.0010431251
-0.0068453588 -0.011199644 -0.0039430792 -0.95168024 0.048956573 -0.30316323 0.0029022438
0.024242003 -0.011210533 -0.0034403363 0.94648862 -0.095534451 -0.30827338 0.00058813882
-0.0067249648 -0.0079024751 -0.0040777409 -0.94117707 0.0089925909 -0.33779404 0.0021362347
0.024334002 -0.0079057803 -0.0039112438 0.94353181 -0.050160069 -0.32746252 0.0003339799
-0.0067304457 -0.004847521 -0.0037598792 -0.9364593 -0.016614577 -0.35038254 0.0006018664
0.02430502 -0.0048413789 -0.0044491873 0.94056755 -0.013608653 -0.33933398 0.00045144503
-0.0067268014 -0.0017873063 -0.003971206 -0.94143361 -0.021813637 -0.33649224 0.00051687041
0.024300225 -0.0017856607 -0.0045381868 0.94236279 0.018432193 -0.33408484 0.00057794695
-0.0067875162 0.0014382885 -0.0043647247 -0.93904698 -0.05274605 -0.33971837 0.00099500024
0.024318136 0.0012708342 -0.0042057717 0.94359708 0.043635968 -0.32820806 0.00053590583
-0.0071438616 0.0039352798 -0.0032320064 -0.94573957 -0.070477068 -0.31719014 0.0010723858
0.024357583 0.0041012871 -0.0034735883 0.96146196 0.072654322 -0.26516446 0.0011368267
-0.0076967459 0.0081251757 -0.0024861281 -0.96712732 -0.11091841 -0.22882704 0.00076598366
-0.0071865693 0.0069073075 -0.0045608464 -0.94015348 -0.091967918 -0.32810554 0.0017456874
0.023930423 0.007306912 -0.0041319462 0.96185917 0.1049941 -0.25259292 0.0013417993
-0.0076661529 0.010209108 -0.0040633515 -0.96541083 -0.1152945 -0.23385717 0.0012822776
0.023711637 0.010215647 -0.0038198368 0.96217573 0.11188177 -0.24839553 0.0016258046
-0.0080740135 0.012871183 -0.0038465089 -0.96047181 -0.15123966 -0.23371044 0.0012594877
0.023342561 0.013217004 -0.0035843209 0.95200747 0.16117992 -0.26019773 0.0014344689
-0.0085651018 0.016005209 -0.0038454616 -0.94950849 -0.1395766 -0.28098387 0.0013133121
0.022417568 0.016775819 -0.0045951838 0.93408924 0.2171175 -0.28343832 0.0015683161
0.022941869 0.015642093 -0.0035209502 0.94349688 0.20276673 -0.26210555 0.0011738056
-0.0091349781 0.019237341 -0.0038559288 -0.94075501 -0.15347794 -0.30236477 0.0016822085
0.022032097 0.019253518 -0.0038354748 0.92794019 0.23839483 -0.28652194 0.0014819895
-0.0096382042 0.022216382 -0.0038871714 -0.9391101 -0.16450238 -0.30168059 0.002471976
0.021213893 0.022132123 -0.0038548494 0.90489185 0.26260146 -0.33497947 0.0020753709
-0.010516263 0.025563549 -0.0030081654 -0.93557954 -0.18378867 -0.30151725 0.002163894
-0.0099537037 0.024897238 -0.0043106163 -0.92828828 -0.15027361 -0.3401452 0.0041397363
0.019599751 0.025940888 -0.0045588301 0.85676444 0.33820602 -0.38932166 0.002446047
0.02046952 0.024991155 -0.0032758308 0.88318306 0.30517957 -0.35616446 0.0018570811
-0.010794782 0.028217858 -0.0034674099 -0.91930556 -0.13908093 -0.3681491 0.0023407296
-0.0099956105 0.027087895 -0.0049870694 -0.87882704 -0.14320159 -0.45514438 0.0052587464
0.018899597 0.028290609 -0.0040178956 0.83604401 0.34619117 -0.42565495 0.0010694098
0.019840941 0.027475785 -0.0026168311 0.90158683 0.3087388 -0.30302083 0.00040705438
-0.011060617 0.0310925 -0.003831459 -0.89899004 -0.12673409 -0.41923198 0.0031927119
0.017793696 0.031073296 -0.0038348292 0.80339569 0.35598689 -0.477314 0.0013295972
-0.011512432 0.034212172 -0.0036672452 -0.8627972 -0.095886305 -0.49637368 0.0040112371
0.015884332 0.034557734 -0.0042670411 0.74726462 0.3930369 -0.53583348 0.0020850876
0.017169276 0.033680126 -0.002956372 0.79458565 0.36934215 -0.4818922 0.0013070911
-0.011645647 0.037116095 -0.0037931157 -0.85870284 -0.049445778 -0.51008284 0.002516089
0.013326155 0.038134728 -0.0048295343 0.76553893 0.3755329 -0.52242231 0.0034501986
0.01494693 0.036994997 -0.0037556263 0.72796714 0.39676425 -0.55914402 0.0017024291
-0.011577368 0.040243525 -0.0038766665 -0.76034623 0.062859304 -0.64646912 0.0036334656
0.012805508 0.040298134 -0.0038513136 0.76862746 0.42217711 -0.48060215 0.002783163
0.014274657 0.039466392 -0.0028390307 0.71203244 0.43445215 -0.55159873 0.00043520774
-0.011488242 0.043146916 -0.0036499277 -0.71706611 0.092178851 -0.69088298 0.003218543
-0.0099028554 0.043665122 -0.0049416567 -0.62872159 0.17323934 -0.75808793 0.0021204848
0.011784877 0.043031409 -0.002833494 0.71334618 0.50661421 -0.48423055 0.0029032626
-0.01138839 0.045994591 -0.0031702421 -0.63786042 0.16965388 -0.7512334 0.0028839046
-0.0091162026 0.046429034 -0.0045980276 -0.47889063 0.25392452 -0.84034884 0.0033781517
-0.0071765753 0.047496822 -0.0051063979 -0.32191291 0.3365247 -0.88494253 0.0048300447
0.0071410444 0.047516037 -0.0049332911 0.27288574 0.50006473 -0.82186896 0.002673127
0.0089797955 0.046336494 -0.0045504752 0.6258086 0.53607684 -0.56655562 0.020018868
0.010721121 0.044969659 -0.0023424113 0.74407494 0.50129181 -0.44165492 0.0029948207
-0.010996969 0.048766077 -0.0026784271 -0.56023401 0.27630118 -0.78089404 0.0032799311
-0.0088835014 0.049260315 -0.0036712084 -0.44242787 0.32005274 -0.83774924 0.0027333302
-0.0060116686 0.049464636 -0.004580549 -0.20372836 0.4297522 -0.87966347 0.001060814
-0.002854018 0.05000696 -0.0048562223 -0.071568623 0.46486089 -0.88248646 0.0009820594
9.795092e-05 0.050109476 -0.0048398012 0.060024519 0.49508721 -0.86676741 0.00096556934
0.0032694954 0.049784299 -0.0046087042 0.17244482 0.52326846 -0.83453751 0.0010001416
0.0062345862 0.049296599 -0.0040560113 0.29228809 0.5227173 -0.80083352 0.001711918
0.0081362091 0.048541024 -0.0035836354 0.62900406 0.54884332 -0.55056787 0.020588433
-0.010534487 0.050642129 -0.0023034597 -0.55178034 0.28391892 -0.78417379 0.0037670806
-0.008618487 0.051881686 -0.0026365491 -0.33451384 0.39683309 -0.85476547 0.002360034
-0.0057959692 0.052173197 -0.0033181116 -0.19583748 0.44003019 -0.87636811 0.0014247022
-0.002728919 0.052122422 -0.0037376145 -0.030921089 0.49113598 -0.87053388 0.00060219353
9.610795e-05 0.052133583 -0.0036462117 0.075463019 0.50712091 -0.85856491 0.00075820845
0.0030481722 0.052080989 -0.0031584615 0.23116998 0.53263003 -0.81416565 0.0034373174
0.0058597289 0.05147846 -0.0026472295 0.50516778 0.56580037 -0.65167129 0.022530055
-0.0053374055 0.054095399 -0.0023894527 -0.17218001 0.47647944 -0.86216086 0.0013496546
-0.0026711668 0.054258313 -0.0025255678 -0.0016579659 0.51137942 -0.85935348 0.0019230149
-9.4779534e-05 0.054119624 -0.0024474764 0.12510189 0.53163189 -0.83768553 0.0015285525
0.001747191 0.053957414 -0.002233603 0.19092751 0.55813652 -0.80748385 0.0034817697
-0.0052729673 -0.057847276 0.00055962941 -0.29460281 -0.514808 -0.8050974 0.0020931901
-0.0026919306 -0.058317412 0.00032683741 -0.11532887 -0.57693017 -0.80861038 0.0022168625
1.9755214e-05 -0.058312044 0.0002853577 0.075905964 -0.61830807 -0.78226167 0.0024711916
0.0029891501 -0.057841338 0.00047317194 0.24418554 -0.63354838 -0.73415923 0.0019995247
-0.0082960445 -0.055231255 0.00039695436 -0.44706613 -0.40504315 -0.79754108 0.001632899
-0.0058518681 -0.055841949 -0.00041136984 -0.3118009 -0.48153144 -0.81908953 0.0014378719
-0.0027836296 -0.056053456 -0.0011711996 -0.1294356 -0.5461871 -0.82760262 0.0015924334
9.2120143e-05 -0.056245483 -0.0012563779 0.044013694 -0.5886243 -0.80720764 0.0014785166
0.0031588338 -0.056014065 -0.00096048741 0.19477144 -0.59408802 -0.7804637 0.0018018858
0.0061028455 -0.055510785 -0.00018057832 0.40065286 -0.62322772 -0.67161334 0.0017707655
0.0080902595 -0.054712996 0.0004171147 0.54453593 -0.59319985 -0.59295404 0.0021735139
-0.010729999 -0.05208718 0.00065761711 -0.60133052 -0.30046266 -0.74035388 0.0016657766
-0.0088925175 -0.052773163 -0.00029881485 -0.5192259 -0.31747973 -0.79348034 0.00080887618
-0.0061896117 -0.053204212 -0.001608029 -0.39266002 -0.36645931 -0.84351987 0.0014724621
-0.0036878446 -0.05425455 -0.002046206 -0.19036072 -0.48655495 -0.85265887 0.0028517959
0.0043475926 -0.05426069 -0.0019957209 0.2566475 -0.59511513 -0.76155764 0.0045137708
0.0064206836 -0.053597253 -0.0016177753 0.34409809 -0.58009511 -0.73829949 0.0020703296
0.009021176 -0.052685127 -0.00066364976 0.50608927 -0.5667963 -0.65008885 0.0020262895
0.010941908 -0.051860239 0.00040871045 0.61363935 -0.56420076 -0.55238056 0.0015869309
-0.011014816 -0.049895011 0.00018687267 -0.65224296 -0.19130057 -0.73347342 0.0032396649
-0.0090654911 -0.049982764 -0.00125536 -0.5533945 -0.24891391 -0.79485625 0.0022183342
-0.0072334651 -0.050951231 -0.0020009363 -0.49104187 -0.31306946 -0.81293625 0.00088342105
0.0099473931 -0.050670236 -0.0017014826 0.47803202 -0.55502594 -0.680758 0.0027169683
0.011843062 -0.049747802 -0.00058262469 0.64201021 -0.53810889 -0.54613346 0.0029303627
-0.011303095 -0.046891324 -0.00014245557 -0.72747397 -0.0988224 -0.67898142 0.0044673299
-0.0096995477 -0.047110073 -0.0016713722 -0.6268326 -0.19001855 -0.75562811 0.0038895055
0.0131133 -0.047463555 -0.0012595251 0.70261693 -0.49458137 -0.51158452 0.0014387794
0.014566532 -0.04640938 -0.0002155737 0.72838616 -0.48958904 -0.4793289 0.0013054162
-0.011267724 -0.043846674 -0.00040262006 -0.79744619 -0.009847681 -0.60330981 0.0035795837
-0.0100726 -0.04387283 -0.0018806201 -0.69101959 -0.083507612 -0.71799606 0.0028597252
0.015512935 -0.044001877 -0.0010986612 0.77526903 -0.45429704 -0.43883049 0.0013141882
0.016962212 -0.042909291 0.00041075703 0.80385017 -0.43745399 -0.40306175 0.0014131435
-0.011151369 -0.041021027 -0.00048914645 -0.84229189 0.052229721 -0.53648531 0.0028428785
-0.010068582 -0.040784538 -0.0020427937 -0.75951755 -0.01353748 -0.65034598 0.0020672949
0.016406957 -0.041749042 -0.0018378729 0.75492734 -0.42019293 -0.50351018 0.0018118857
0.017513137 -0.040944055 -0.0004955614 0.8238495 -0.40609023 -0.39542711 0.0018793364
-0.011009431 -0.037977267 -0.00037570903 -0.87444341 0.087748364 -0.47712567 0.0029757204
-0.01007078 -0.037956018 -0.0019540822 -0.84967071 0.035373706 -0.52612585 0.0027876168
0.018702522 -0.038030773 -0.00085878279 0.85492444 -0.37855655 -0.35468185 0.00099196774
0.019811444 -0.036487941 0.00035246368 0.87573934 -0.3514854 -0.33096623 0.00093697337
-0.010806825 -0.034895323 -0.00012782775 -0.9004963 0.10777625 -0.42129627 0.0025345655
-0.010079017 -0.034908798 -0.0016217444 -0.88097423 0.064679287 -0.46872264 0.0029997358
0.019257005 -0.036099169 -0.0015323246 0.86102879 -0.36883599 -0.35012779 0.001523543
0.020073783 -0.034596998 -0.00089681009 0.89116973 -0.31850347 -0.32306659 0.0013073261
-0.010601317 -0.032205302 0.00028061029 -0.91978735 0.15744166 -0.35944882 0.002776006
-0.0098955166 -0.031660423 -0.0013966435 -0.91209936 0.10651138 -0.39589152 0.0039732209
0.021065027 -0.031772543 -0.00081154797 0.91090453 -0.28503829 -0.29833904 0.0011878957
-0.0098265186 -0.029016785 -0.00066485861 -0.92942131 0.15102831 -0.33669919 0.0041821767
0.0218549 -0.029006105 -0.00092830369 0.92927349 -0.25356227 -0.26862052 0.00051432772
-0.0093058115 -0.025957238 -0.00097245816 -0.95119745 0.12867208 -0.28047612 0.001903503
0.022514835 -0.026190817 -0.0010426375 0.93417054 -0.23840599 -0.26549557 0.00039046915
0.023142617 -0.024849983 0.00044270512 0.94624579 -0.21474427 -0.24187554 0.00034787087
-0.0088804597 -0.022919461 -0.00082405517 -0.96233594 0.13109539 -0.23816708 0.0011462768
0.023271438 -0.022934981 -0.00076224469 0.9435935 -0.20445293 -0.2604425 0.00028097993
-0.0083910041 -0.019706758 -0.00091144675 -0.96781135 0.1206563 -0.22086933 0.0010624581
0.023725886 -0.019884689 -0.0011375868 0.9491834 -0.17232314 -0.26335463 0.00032477683
-0.0078807669 -0.01647632 -0.0011582556 -0.97277868 0.097362667 -0.21029082 0.00065022887
0.02397586 -0.017398613 -0.0017807966 0.95691019 -0.14238022 -0.25308248 0.00037412898
-0.00773481 -0.014837042 -0.00052367989 -0.97701806 0.10275003 -0.18675703 0.0003077827
0.024477683 -0.013631032 -0.0012445832 0.95677221 -0.10579296 -0.27091464 0.00040486691
-0.0072415425 -0.010782158 -0.0015599912 -0.95796257 0.024673397 -0.28583029 0.00083338685
0.024495475 0.0064993561 -0.00091437344 0.97116327 0.092573918 -0.21970879 0.00046548902
-0.0082010301 0.011236972 -0.00091756228 -0.98008192 -0.13806833 -0.14274621 0.0011161853
0.024012882 0.01123356 -0.0010797167 0.97498697 0.1293142 -0.18077104 0.00053957506
-0.0086548803 0.014285683 -0.0018460536 -0.97094119 -0.16179658 -0.17633802 0.0020154729
-0.00913068 0.016891507 -0.0017161304 -0.96551371 -0.18914652 -0.17890444 0.0015084131
0.023289591 0.015958412 -0.0013360167 0.95641088 0.18078232 -0.2293382 0.0013331355
-0.0096090036 0.01926679 -0.0014914954 -0.9524923 -0.16390505 -0.25669721 0.00066923711
0.022616036 0.019782877 -0.00059127156 0.9453246 0.24103478 -0.21968988 0.00037356859
0.023104161 0.01765996 -0.00031656865 0.96045339 0.19827616 -0.19548884 0.00073661155
-0.010588809 0.023122815 -0.0002030516 -0.95933229 -0.18397179 -0.21409312 0.00019858037
-0.010092289 0.021416606 -0.0010862336 -0.94556093 -0.18007956 -0.27108285 0.001179754
0.021867048 0.022348827 -0.0013793195 0.93316877 0.2689299 -0.23847981 0.0018089709
-0.010879893 0.02528085 -0.0011610375 -0.95433831 -0.17443895 -0.2425067 0.00073210499
0.021189205 0.025135053 -0.00068741664 0.92514551 0.28983077 -0.24516086 0.0016563669
-0.011665947 0.028426586 -0.00048552221 -0.9478752 -0.17758365 -0.26456881 0.00089561514
0.020173226 0.028120667 -0.00088363234 0.90307188 0.31498274 -0.29197091 0.00053520995
-0.012168821 0.031255566 -0.00095382053 -0.94336653 -0.17890109 -0.27938154 0.0014266365
0.018978111 0.03130215 -0.0011296058 0.88830966 0.32685444 -0.32260236 0.00097398495
0.019799162 0.030024065 6.7493878e-05 0.89179444 0.35185575 -0.2844294 0.0022143384
-0.013470379 0.035311665 0.00084220525 -0.95524341 -0.18168764 -0.23345169 0.0011848479
-0.012700975 0.034213997 -0.0009844685 -0.92454022 -0.17064704 -0.34074178 0.0033346161
0.017942492 0.034183238 -0.00087597314 0.86115092 0.35271993 -0.36607066 0.0013851088
-0.013545674 0.03739712 -9.6773263e-05 -0.91925979 -0.14775296 -0.36487043 0.0022012123
-0.012918465 0.037240762 -0.0015948201 -0.90463924 -0.091756403 -0.41618332 0.0032962519
0.016162157 0.037764076 -0.0013329834 0.82313895 0.38686854 -0.41566226 0.0012059034
0.017204123 0.036651693 -0.00018894207 0.84735513 0.3706364 -0.38028666 0.0015964758
-0.01371815 0.040269915 -0.00053503131 -0.89587319 -0.087849207 -0.43553847 0.0030633032
-0.012903547 0.040035337 -0.0020721888 -0.83527577 -0.031041779 -0.54895437 0.0024121494
0.01526258 0.040162068 -0.00071283523 0.78398162 0.42802104 -0.44963396 0.0019797636
-0.013875569 0.043110747 -0.00054241205 -0.86341572 -0.017806077 -0.50417876 0.0033802965
-0.012904024 0.04326665 -0.00205691 -0.76638842 0.047611546 -0.64061058 0.0028675268
0.012950657 0.043510925 -0.0011088704 0.70603091 0.49295646 -0.508443 0.0011891511
0.01436532 0.042351697 -0.00014251051 0.74402368 0.47135532 -0.47355345 0.0014229352
-0.013904915 0.046120852 -0.00040579541 -0.8196733 0.053682379 -0.57031029 0.0040923296
-0.012795437 0.046450537 -0.0017501013 -0.68832105 0.1291156 -0.71382302 0.0038212268
0.0099759353 0.046916209 -0.0012763711 0.73103827 0.52242959 -0.43891954 0.0039241742
0.011645822 0.045914259 -0.00044031907 0.68690282 0.52740717 -0.5000062 0.0011856133
-0.013892313 0.049047653 5.6326855e-05 -0.7542842 0.14105929 -0.64121574 0.004951986
-0.012375615 0.049249012 -0.0014411295 -0.62126201 0.21231058 -0.75429285 0.0034312387
0.0091832792 0.049104951 6.4942986e-05 0.69085222 0.58684063 -0.42230481 0.0038663277
0.010791663 0.048149582 0.0007748222 0.64134228 0.56152534 -0.52284729 0.00060260919
-0.013594295 0.051715348 0.0004722178 -0.67425835 0.24546462 -0.69650757 0.0030458083
-0.011790825 0.052027978 -0.000884193 -0.53465182 0.34018537 -0.77357697 0.0043251128
-0.0094061205 0.053111974 -0.0017457439 -0.31764314 0.43037316 -0.84491527 0.0019034502
0.0042300979 0.053407077 -0.0019088099 0.29388708 0.60927296 -0.73648953 0.0049999147
0.0060589751 0.052610509 -0.0012608969 0.57739985 0.61324692 -0.53901535 0.023517178
0.0079375431 0.051003557 0.00077368971 0.71675044 0.56018579 -0.41528395 0.0029130625
-0.011452299 0.054706611 0.0001091361 -0.48692849 0.39247644 -0.78029662 0.0026986646
-0.0088583296 0.055247962 -0.00083687343 -0.26802862 0.47582254 -0.83770734 0.0010415906
-0.005952891 0.055518359 -0.0014537657 -0.15584077 0.50860721 -0.84677756 0.0017225116
-0.0027891845 0.055759154 -0.0015869997 -0.0013268278 0.54431945 -0.83887696 0.00086866261
0.00016531977 0.055623218 -0.0014359278 0.13012019 0.5599888 -0.81821835 0.00085740932
0.0030950592 0.055220306 -0.00094830291 0.29850221 0.59207636 -0.74855995 0.0062596006
0.0052612517 0.054370932 -0.00044783019 0.55272615 0.6316728 -0.54358375 0.025322277
