# .PCD v0.7 - Point Cloud Data file format
VERSION 0.7
FIELDS x y z normal_x normal_y normal_z curvature
SIZE 4 4 4 4 4 4 4
TYPE F F F F F F F
COUNT 1 1 1 1 1 1 1
WIDTH 548
HEIGHT 1
VIEWPOINT 0 0 0 1 0 0 0
POINTS 548
DATA ascii
-0.014061329 0.044508256 -0.0072361403 -0.71719038 -0.56037319 -0.41427028 0.0028898262
0.014819595 0.045288198 -0.0080524553 0.7284587 0.28323379 -0.62379998 0.0008529895
0.015978284 0.044905886 -0.0066327183 0.78302956 0.31445339 -0.53664118 0.0016989582
-0.01796259 0.049029384 -0.0064457441 -0.74068946 -0.56277156 -0.36697039 0.0018758047
-0.016682468 0.047795746 -0.0073079374 -0.72785348 -0.55456579 -0.40334374 0.0029129938
0.014165428 0.048159536 -0.0072185076 0.78567374 0.3769365 -0.49054629 0.0010866809
0.015336659 0.047324274 -0.0060271556 0.79154497 0.37120974 -0.48544815 0.0010641677
-0.018924858 0.050862003 -0.0073074163 -0.73185766 -0.57246143 -0.36969218 0.001480927
0.011712363 0.051984835 -0.0078799278 0.71257854 0.4705357 -0.52041137 0.0029001497
0.013105189 0.050716717 -0.0068388195 0.76759791 0.39994541 -0.50083637 0.0018379996
-0.021395728 0.054459397 -0.0078258002 -0.67902154 -0.59661382 -0.4277637 0.0041821026
-0.020482967 0.053109471 -0.0074412534 -0.71738011 -0.59001058 -0.37047702 0.0013833086
0.010861674 0.054087013 -0.007186065 0.72159415 0.48780152 -0.49127537 0.0014003569
0.012413097 0.052814554 -0.0060609067 0.75684351 0.46354392 -0.46077642 0.00089684827
-0.023002174 0.056498591 -0.0082500959 -0.59070849 -0.70635527 -0.39003301 0.0063453736
0.0083207665 0.057387039 -0.0073418068 0.68554634 0.55212343 -0.47453761 0.0019174799
0.0099105332 0.056108773 -0.0064933882 0.69945794 0.52221739 -0.48790118 0.00124577
0.0053361352 0.060789634 -0.0071562314 0.60557622 0.66334981 -0.43959576 0.0021156382
0.0070490111 0.059384212 -0.0066561839 0.66467863 0.60031742 -0.44477108 0.0013958162
-0.00020660688 0.064402916 -0.0082789743 0.47236508 0.75634778 -0.45255855 0.0027049736
0.002122958 0.063373789 -0.0072572157 0.54720336 0.74178249 -0.38772058 0.0012351573
0.0040503554 0.062119253 -0.0067866752 0.57954508 0.70156217 -0.4146542 0.0016218268
-0.0062581217 0.067234211 -0.0080233598 0.25548851 0.84382659 -0.47189227 0.0015675236
-0.0044038538 0.066868126 -0.0073883533 0.31931105 0.82052356 -0.47411123 0.00091434916
-0.0014526191 0.065658234 -0.0071730004 0.44249445 0.79690713 -0.41126364 0.0019314429
0.00041249464 0.064800009 -0.0066802981 0.50846004 0.7441718 -0.43321672 0.0012450102
-0.009989989 0.06822104 -0.0076727555 0.21224692 0.83916765 -0.50074834 0.0020897533
-0.0074340119 0.067804448 -0.0073618824 0.25548342 0.84393811 -0.47169557 0.0014197507
0.011723618 -0.0019799345 -0.0024886115 -0.084385484 -0.15408781 -0.98444706 0.0017716098
0.013673716 -0.0021865452 -0.0025481996 0.0029649613 -0.17291899 -0.98493159 0.0023555253
0.015715525 -0.001854238 -0.0024744475 0.15620017 -0.21039222 -0.96505785 0.0064018425
0.0087388903 0.0011631428 -0.0024372721 -0.27329373 -0.17979589 -0.9449783 0.00059328799
0.010846519 0.00012510433 -0.0027411946 -0.17282137 -0.19208792 -0.96604091 0.0017820224
0.013672861 -1.6770791e-05 -0.0029953239 -0.0022081828 -0.20333228 -0.97910726 0.0051779235
0.016479302 0.00013614283 -0.002756149 0.19740254 -0.19999981 -0.95970422 0.0027758437
0.0081280619 0.0034504896 -0.0027017677 -0.3557989 -0.19328088 -0.91435742 0.0015795099
0.010604384 0.0030409782 -0.0033201671 -0.20619154 -0.20779474 -0.95619369 0.0021834874
0.01365242 0.0030378206 -0.0036846548 -0.0072314269 -0.20923154 -0.97783941 0.0017565803
0.016720107 0.003040479 -0.0033749966 0.21944247 -0.20769778 -0.95326108 0.0029748448
0.019073812 0.0033605439 -0.0027115231 0.4075563 -0.21355388 -0.88785845 0.0026541688
0.005791523 0.0069378009 -0.0024891505 -0.48257545 -0.22678091 -0.84598547 0.0014158293
0.0075824708 0.006136178 -0.003127252 -0.35923067 -0.22730753 -0.90514338 0.0016907217
0.010587656 0.0060879365 -0.0040591657 -0.20178825 -0.24991067 -0.94700903 0.0014089257
0.013630296 0.0060821343 -0.0044310354 -0.0039901976 -0.2535435 -0.96731573 0.0027007812
0.016692739 0.0060869684 -0.0041219895 0.2164142 -0.236746 -0.94716221 0.0024816897
0.019657966 0.0062061143 -0.0030987579 0.42558315 -0.19844085 -0.88289315 0.0032262143
0.0053160382 0.0090978863 -0.0028557428 -0.49528727 -0.25152531 -0.83152002 0.0019075931
0.0076227277 0.0089585586 -0.003927636 -0.3718757 -0.26953864 -0.88828903 0.0017735686
0.010606864 0.0088116312 -0.0048062615 -0.19185165 -0.27556464 -0.94194323 0.0020117287
0.01361038 0.0086490512 -0.0051036067 -0.0038141182 -0.29560044 -0.95530403 0.0022249031
0.016701628 0.0088610556 -0.004815544 0.21187384 -0.27382293 -0.93815273 0.0027301204
0.019765472 0.0089148702 -0.0036735595 0.45693395 -0.20138678 -0.8664034 0.0035331962
0.021593917 0.0093755713 -0.0026392466 0.61367506 -0.16658352 -0.7717855 0.0014450432
0.0029857683 0.012849161 -0.0026454532 -0.60866243 -0.29210636 -0.73770183 0.0015128079
0.0047794585 0.012033916 -0.0035172389 -0.50713158 -0.2887705 -0.81205243 0.0020629147
0.0075174877 0.011698854 -0.0047545508 -0.33649874 -0.31381011 -0.88785809 0.0014753831
0.009936207 0.010831794 -0.0052654929 -0.18470572 -0.29639098 -0.93703586 0.0022003551
0.017630527 0.011185992 -0.0051585343 0.24880382 -0.24646568 -0.93667036 0.0031448915
0.019735008 0.011950375 -0.0043728799 0.45471725 -0.1937952 -0.86929607 0.0030917006
0.021865202 0.01211537 -0.002968373 0.64480609 -0.1433706 -0.75077951 0.0020055228
0.002331632 0.015203476 -0.0031253195 -0.60038877 -0.32016185 -0.73282307 0.0014064983
0.0046190084 0.014903169 -0.004535486 -0.45411396 -0.33664122 -0.82489586 0.0011292305
0.0064629614 0.014152228 -0.0051947096 -0.38760427 -0.32427084 -0.86290872 0.00034815469
0.020121304 0.014866048 -0.0047543324 0.51082718 -0.16593328 -0.84351748 0.0028098766
0.022106098 0.015093463 -0.0032490252 0.6757623 -0.11876565 -0.72748888 0.0020816645
-0.00021890433 0.018837446 -0.0025729621 -0.6427297 -0.32919464 -0.69175822 0.0012476217
0.0017248978 0.018062126 -0.0039006495 -0.55850875 -0.35019794 -0.75195038 0.00098836317
0.0038635975 0.017272979 -0.0050669336 -0.49206284 -0.34755754 -0.79817158 0.00033682366
0.020520439 0.017860439 -0.004997395 0.64204216 -0.11550185 -0.75791895 0.0017192599
0.022091409 0.018031813 -0.0036433754 0.68294686 -0.077327378 -0.7263636 0.0019327373
-0.00083195459 0.02121417 -0.003185278 -0.68699497 -0.35247442 -0.63545227 0.0012273424
0.00092723611 0.020797113 -0.0045846966 -0.61917973 -0.35467255 -0.70058823 0.0012234601
0.020804496 0.020897416 -0.0051549501 0.68902129 -0.069127291 -0.7214368 0.001822988
0.022227051 0.021005519 -0.0037241629 0.72932845 -0.029548991 -0.68352532 0.0017917797
-0.0031641477 0.024842655 -0.0026455382 -0.72288287 -0.36403835 -0.58729589 0.0012108261
-0.0014501153 0.023881583 -0.0040122047 -0.69166821 -0.37346217 -0.61815947 0.0011059649
0.00041136914 0.022858407 -0.0052006822 -0.61730021 -0.38188782 -0.68782425 0.001147185
0.020865623 0.023868995 -0.0052796043 0.73324984 -0.017196465 -0.67974186 0.0017305032
0.022105262 0.023947312 -0.0038970495 0.77009195 0.026758043 -0.63737154 0.0020669901
-0.003744906 0.027278287 -0.0035182848 -0.7357896 -0.40412116 -0.54341495 0.0029538972
-0.0021236232 0.026341446 -0.004792341 -0.66191387 -0.39208436 -0.63885832 0.00016873261
0.020866511 0.026915006 -0.0052603907 0.72363079 0.024873093 -0.68973887 0.0016071516
0.022059187 0.026921738 -0.0037314929 0.80366588 0.06707301 -0.59128869 0.0018708742
-0.0061361007 0.030817917 -0.0031038225 -0.73487532 -0.48816565 -0.47079986 0.002126514
-0.0046763131 0.02979493 -0.00426149 -0.72915566 -0.45729637 -0.50912863 0.0017436788
0.020877171 0.029976238 -0.0050303526 0.76546466 0.0753313 -0.63905323 0.0012769753
0.021856701 0.030007869 -0.0036017136 0.83165807 0.11326119 -0.54361451 0.0017481101
-0.0070826095 0.033028431 -0.0040172366 -0.71265608 -0.52122062 -0.46952146 0.0022479447
-0.0053693079 0.031617362 -0.0050177956 -0.63941669 -0.51303226 -0.57266408 0.0013767759
0.02065691 0.033046287 -0.0047265925 0.8272981 0.13580136 -0.5451017 0.0017360159
0.021617675 0.032735646 -0.0032714689 0.84852308 0.16869311 -0.50154895 0.0012958677
-0.0096780732 0.036433563 -0.0038591051 -0.75810635 -0.54436105 -0.35909012 0.0025346307
-0.008369796 0.035063196 -0.0044307793 -0.73280603 -0.55855459 -0.38860285 0.001910583
0.020403013 0.03606353 -0.0040738601 0.84022623 0.19435103 -0.50620902 0.0011637525
0.021454073 0.034848649 -0.0027479166 0.86004341 0.22444728 -0.45820168 0.0011804581
-0.012285674 0.039871212 -0.0036217705 -0.77517861 -0.55739105 -0.29734385 0.0019709666
-0.01101299 0.038497832 -0.0043119737 -0.75976616 -0.56808251 -0.3162874 0.0018719919
0.019653864 0.038904574 -0.0040130559 0.84930718 0.24510396 -0.46754822 0.0012006098
-0.013518291 0.041939367 -0.004269531 -0.78334296 -0.55465132 -0.28059909 0.00089497014
0.017985344 0.042806517 -0.0046790326 0.84857702 0.31652743 -0.42394274 0.0014660278
0.018913845 0.041587792 -0.0037064522 0.85270768 0.31214991 -0.41886991 0.0014695426
-0.015720313 0.045051411 -0.0039698267 -0.76947862 -0.57398057 -0.28008756 0.00060007448
-0.014755378 0.043838385 -0.0046769762 -0.75278318 -0.57274193 -0.32447523 0.0019900543
0.017402921 0.045085143 -0.0039742417 0.84003657 0.36726087 -0.39932194 0.0019889777
0.018629614 0.043570656 -0.0026892805 0.86071301 0.33321336 -0.38489202 0.0024612395
-0.018265773 0.048978385 -0.00484527 -0.75074005 -0.57423365 -0.32656565 0.0011192826
-0.017089378 0.047247719 -0.0049513066 -0.75428015 -0.5694012 -0.32686943 0.0013901644
0.014777289 0.049401481 -0.0052465582 0.79549682 0.44001871 -0.41661525 0.0017353997
0.016135413 0.047859207 -0.0039526271 0.83772779 0.40207165 -0.36952758 0.0018913349
0.014259459 0.051284544 -0.0041016587 0.81219691 0.47632334 -0.33682683 0.0010410761
0.015300861 0.049827073 -0.0035965079 0.82625169 0.43123585 -0.36241367 0.0018175418
0.011699491 0.054904837 -0.0047050263 0.77702636 0.51964194 -0.35524973 0.0016429167
0.012879159 0.053594798 -0.0040238583 0.7854386 0.51554358 -0.34249225 0.0012787312
0.010351891 0.057043433 -0.0041385288 0.73715532 0.57429206 -0.35607672 0.0006999133
0.007526421 0.060031906 -0.0045995796 0.65980619 0.64300239 -0.38884929 0.0017015054
0.002130673 0.064464204 -0.0047639394 0.54715103 0.74185431 -0.38765699 0.0011643228
0.004764054 0.062696807 -0.0040179575 0.59576172 0.71143258 -0.37273547 0.0011301747
0.0011920626 0.064839624 -0.0053839469 0.53416538 0.74752402 -0.39481041 0.0015566704
0.0042843707 -0.034904663 0.00059763249 0.025861533 -0.071457833 -0.99710828 0.0034397424
0.0046793679 -0.032903597 0.00053247972 -0.053920519 -0.013684707 -0.99845147 0.0027377619
0.0068947105 -0.032052122 0.00054027489 0.14288232 -0.11168966 -0.98341763 0.004216284
0.0047916006 -0.029944461 0.00045757741 -0.066408329 -0.035371244 -0.99716538 0.0024665596
0.0075113284 -0.029814128 0.00041216589 0.067281 -0.069871306 -0.9952845 0.0030147026
0.0094264848 -0.028887901 0.00054616877 0.19944683 -0.14626405 -0.96893126 0.0014011757
0.0050272285 -0.027100803 0.00040648808 -0.14083947 -0.012777393 -0.98994994 0.0019743117
0.0076019168 -0.027049551 0.00023218477 0.013422861 -0.037480492 -0.99920726 0.0033243978
0.010008388 -0.026843321 0.0004062918 0.19740416 -0.10506386 -0.97467595 0.0045730178
0.0052316873 -0.023974866 0.00039737462 -0.20352575 0.0019482767 -0.97906762 0.0019769296
0.0075995182 -0.023958512 8.5913111e-05 -0.064393759 -0.037181351 -0.99723172 0.0019221499
0.010655032 -0.023934836 0.00019670743 0.11394652 -0.091224164 -0.98928976 0.0031895794
0.012747466 -0.02310905 0.00047775265 0.33463919 -0.15493073 -0.92952299 0.0045223483
0.0053740786 -0.020985395 0.00039854692 -0.26186958 0.0088172015 -0.96506304 0.0019094524
0.0075979708 -0.020871904 -7.5493008e-06 -0.11001295 -0.035985168 -0.99327856 0.0023412202
0.010677823 -0.020867771 -9.9908561e-05 0.07473886 -0.076533228 -0.99426192 0.0030268324
0.013335311 -0.020727182 0.00028316095 0.25038406 -0.13682543 -0.95842928 0.0035981843
0.0054692235 -0.01804409 0.00041978061 -0.31336915 0.0013717453 -0.94963038 0.0019004366
0.0075967978 -0.01802459 -7.7343779e-05 -0.1633696 -0.037397437 -0.98585588 0.0021283624
0.010672125 -0.018014073 -0.00034682592 0.042352315 -0.080374174 -0.99586457 0.0038634106
0.013761711 -0.018027456 -9.1246329e-06 0.19725619 -0.1270639 -0.97208267 0.002874674
0.01570043 -0.017545188 0.00047026901 0.39935315 -0.1805456 -0.89884388 0.0029844991
0.0054691909 -0.014959441 0.00041780737 -0.35749558 -0.017042916 -0.93375927 0.0018001831
0.0075949356 -0.014939795 -0.00019192672 -0.21065581 -0.050977897 -0.9762302 0.0018772411
0.010665857 -0.014926103 -0.00061846559 -0.076874584 -0.095775783 -0.99243003 0.0036623199
0.01374815 -0.014931229 -0.00046304497 0.16536973 -0.13230456 -0.97731692 0.0031829865
0.016264211 -0.014729648 0.00015099207 0.35153511 -0.16895111 -0.92080331 0.003118234
0.0054681743 -0.011872546 0.00032529049 -0.39815605 -0.035441969 -0.91663277 0.0020430677
0.0075920979 -0.011854957 -0.00037017069 -0.25174338 -0.065567821 -0.96557039 0.0018147578
0.010659016 -0.011841166 -0.00091687683 -0.12052909 -0.10538523 -0.98710012 0.0033461282
0.013734845 -0.011841418 -0.00090964895 0.14225629 -0.13758314 -0.98022145 0.0040377728
0.016596993 -0.01185765 -0.00027153245 0.31161025 -0.16578393 -0.93563604 0.0026124904
0.018416833 -0.01143367 0.00039144931 0.48908341 -0.19701733 -0.84969497 0.0020758526
0.0053722323 -0.0089291139 0.0002332232 -0.43016449 -0.059176143 -0.90080893 0.0019932315
0.007588808 -0.0090088341 -0.00057714526 -0.28711927 -0.087307751 -0.95390767 0.0018454484
0.010651682 -0.0089964364 -0.0012381424 -0.15893479 -0.12376871 -0.97950041 0.0033228092
0.013721896 -0.0089944815 -0.0013445658 0.12264295 -0.15816315 -0.97976691 0.0052962117
0.016576754 -0.0090042492 -0.00082973065 0.29666954 -0.17247427 -0.93927622 0.0030719715
0.018937772 -0.0088706249 9.1496855e-05 0.46735647 -0.1875506 -0.86394608 0.0027253404
0.0051873643 -0.0058899741 8.1526581e-05 -0.45835909 -0.081602216 -0.88501298 0.0019949188
0.0075835939 -0.0059274114 -0.00090790982 -0.32415304 -0.1100876 -0.93957734 0.0019751794
0.010642308 -0.0059186639 -0.0016495895 -0.15209045 -0.15506141 -0.97612727 0.0017327814
0.013706739 -0.0059162984 -0.0018542302 0.034062248 -0.17955908 -0.98315728 0.0022776325
0.016554486 -0.0059212116 -0.0014449186 0.25706515 -0.19573209 -0.94636482 0.0021338067
0.019460764 -0.0058216271 -0.00031750742 0.46378681 -0.18967125 -0.8654055 0.0030950368
0.0049432591 -0.0028176499 -9.9610537e-05 -0.48263398 -0.10838521 -0.86908978 0.0019578598
0.0075773872 -0.0028501539 -0.0013019484 -0.34253189 -0.15285878 -0.92698765 0.0016825742
0.010449153 -0.0029905043 -0.0020783239 -0.17991468 -0.16753276 -0.96931082 0.0020180836
0.013708161 -0.0035805055 -0.0022730806 0.016849738 -0.21405922 -0.97667533 0.0022922573
0.016662801 -0.0030064713 -0.0020255232 0.23406629 -0.21158355 -0.94891798 0.0033369372
0.019649746 -0.0028521861 -0.00091189344 0.45059121 -0.19360626 -0.87148386 0.0046070493
0.021777591 -0.002442793 0.00032154378 0.61301941 -0.19365568 -0.76596653 0.0018536609
0.0030970916 0.00093855255 0.00052130874 -0.6266976 -0.10793207 -0.7717517 0.0016485248
0.0047490518 -1.2511155e-05 -0.00040729926 -0.50449848 -0.14228807 -0.8516075 0.0019269284
0.0075363382 -4.8429822e-05 -0.0017706819 -0.34474432 -0.19374698 -0.91848439 0.001490194
0.0094828317 -0.00072281866 -0.0022834879 -0.21997906 -0.17681709 -0.95934606 0.0020883901
0.017585436 -0.00084074668 -0.0022731507 0.23318872 -0.23236974 -0.94426024 0.0031802363
0.019692387 -6.1659492e-05 -0.0015631544 0.44097152 -0.21951033 -0.87026393 0.0024081797
0.022131274 0.00015033246 -4.9441122e-05 0.62017423 -0.19727576 -0.75925374 0.0020744733
0.0028583936 0.0034279516 0.00026010373 -0.63723528 -0.153129 -0.75530303 0.001548549
0.0047439989 0.0030613933 -0.00095552835 -0.48841959 -0.17230541 -0.85542804 0.001142587
0.006992884 0.0026477119 -0.0020599661 -0.38496175 -0.19245397 -0.90264386 0.0016907795
0.020392831 0.002817367 -0.0019056844 0.50932527 -0.20724005 -0.83524811 0.0052313115
0.022450646 0.0031370674 -0.00051075337 0.61677009 -0.19280303 -0.76316559 0.0030352285
0.0024839763 0.0062518176 -8.4560364e-05 -0.60710108 -0.18533514 -0.77270901 0.0012217253
0.0046056961 0.006023732 -0.0015674811 -0.52042598 -0.20783408 -0.82822812 0.0014284583
0.0063833287 0.0049368022 -0.0022957111 -0.44132829 -0.22188286 -0.86948109 0.00030103195
0.020889759 0.0052916175 -0.0022143358 0.48842451 -0.18566737 -0.85262483 0.0037834907
0.022723231 0.0061364942 -0.00095357839 0.65670663 -0.16448906 -0.73598891 0.0023460363
0.024456674 0.0073464243 0.00051378366 0.72949582 -0.13229567 -0.67106915 0.00083172327
0.0020823507 0.009084315 -0.00050413865 -0.64898854 -0.2204109 -0.72817093 0.0031029833
0.0039983275 0.0087471977 -0.001920362 -0.52884519 -0.2419256 -0.81350762 0.0019217419
0.022956261 0.0088608395 -0.0013369108 0.65698987 -0.14943071 -0.73894167 0.0018526787
0.024439273 0.0090003116 0.00019084569 0.75243342 -0.11223638 -0.64903533 0.0017899104
-0.00022517586 0.013036621 0.00033700629 -0.74620485 -0.25185323 -0.61623722 0.0045507061
0.0015472978 0.011980975 -0.0010545691 -0.62386256 -0.29309773 -0.72449237 0.0014421126
0.0035535295 0.010832074 -0.002297991 -0.60570544 -0.29958954 -0.7371344 0.0011366064
0.023318032 0.011929595 -0.0015673682 0.74781603 -0.11142848 -0.65448827 0.0014716805
0.02466579 0.012077535 -7.9316087e-06 0.78147322 -0.085853606 -0.61800385 0.0016026753
-0.00069816131 0.015331904 -0.00023868121 -0.71703541 -0.30627587 -0.62614322 0.0014536631
0.00077590434 0.014890458 -0.0016341807 -0.65983236 -0.32001415 -0.6798619 0.00048988307
0.023573106 0.015006403 -0.0017309547 0.77448881 -0.076499641 -0.62794501 0.00157755
0.024646156 0.015146291 -0.00036910013 0.81269026 -0.042920914 -0.58111298 0.0018126387
-0.001271181 0.018032668 -0.0009191737 -0.76110542 -0.33141679 -0.55756742 0.0010565491
0.00025192826 0.016970837 -0.0021095062 -0.69345224 -0.34098855 -0.63470519 0.0016316317
0.023616573 0.017921664 -0.0019407977 0.75457197 -0.037005026 -0.65517312 0.0014393269
0.024638202 0.017982399 -0.00051548926 0.83550954 -0.0020373026 -0.54947215 0.0018311867
-0.0032565787 0.021499485 -0.00024951645 -0.79732478 -0.34158725 -0.49758559 0.0015382277
-0.0020872003 0.020666769 -0.0014238928 -0.7675032 -0.33605301 -0.54590034 0.0014046127
0.023655316 0.02110718 -0.0019523734 0.79158795 0.0083842725 -0.61099768 0.0013330346
0.024623364 0.02095427 -0.00045381754 0.8598097 0.041850619 -0.50889659 0.0017713847
-0.0039658397 0.024033092 -0.00085275853 -0.78921407 -0.36135203 -0.4965539 0.0018859542
-0.0025790341 0.02286862 -0.0021129632 -0.71983361 -0.3544147 -0.59684992 0.0014198266
0.023623338 0.024065372 -0.0018123845 0.85267246 0.058908492 -0.51911414 0.0017540316
0.024612505 0.023781704 -0.00011686631 0.87368435 0.087652326 -0.4785319 0.0015673601
-0.0060308357 0.027835505 -9.8184682e-05 -0.84044152 -0.39316106 -0.37293732 0.0023693778
-0.0049828598 0.026640933 -0.0011335557 -0.81966335 -0.39653063 -0.41341925 0.0018073164
0.023595031 0.027020641 -0.0013129634 0.87023181 0.11419424 -0.47922456 0.0017446791
0.02444035 0.026551573 0.0002108207 0.88790506 0.13976443 -0.43828145 0.0012973283
-0.0067722145 0.030030269 -0.00090811495 -0.83092958 -0.41899163 -0.36606297 0.0033185922
-0.0054106247 0.02853352 -0.0020684386 -0.80156451 -0.42298117 -0.42258865 0.0011471364
0.023255592 0.029847093 -0.0011397438 0.88781285 0.14128232 -0.43798122 0.0011071877
-0.0093800705 0.034165904 -0.00046610681 -0.80912721 -0.52415675 -0.26565564 0.0026137829
-0.008213737 0.032661147 -0.0011503244 -0.80366498 -0.51052654 -0.30575359 0.0013091465
0.022707064 0.032960348 -0.00094877917 0.8936559 0.20831004 -0.39747465 0.0016352583
-0.010240003 0.035901207 -0.0014215702 -0.81253511 -0.53137928 -0.23963015 0.0021417374
0.02100981 0.037490491 -0.0021678293 0.89483726 0.28281355 -0.34537333 0.0014029279
0.021919951 0.035821542 -0.001092743 0.9027288 0.24964537 -0.35036814 0.0014677637
-0.012392364 0.03921546 -0.0013607675 -0.80128342 -0.55884093 -0.2136393 0.0010823102
-0.011577498 0.037836481 -0.0009088004 -0.81575996 -0.53900105 -0.20979393 0.0011935526
0.020734679 0.039351221 -0.0013105622 0.89026856 0.32461637 -0.3194465 0.00076618523
0.021566188 0.037883256 -0.00038331095 0.89484584 0.28278422 -0.34537524 0.0014102862
-0.013678184 0.041302774 -0.001765498 -0.78311497 -0.56072211 -0.26892692 0.00080326659
0.019860586 0.042071477 -0.00088209426 0.8925221 0.32727921 -0.31031054 0.0012391912
0.018640362 0.044866383 -0.00098987762 0.87460423 0.37472674 -0.30764809 0.0005690385
0.017152414 0.048022185 -0.00079297158 0.85086721 0.42833185 -0.30423141 0.00018015111
0.014892161 0.051700313 -0.0016931677 0.82534283 0.47373998 -0.30721259 0.00057310396
0.015617067 0.050578069 -0.0012015859 0.831276 0.45441106 -0.32014185 0.0010645321
0.013797796 0.05345897 -0.0014661734 0.80553854 0.51053125 -0.30077493 0.00073307706
0.011580841 0.056394909 -0.001909473 0.76483965 0.56111735 -0.31649265 0.0011554752
-0.012992071 -0.059155341 0.0034322008 -0.10840769 -0.22287783 -0.96879983 0.0083308751
-0.010530937 -0.059270199 0.0033390927 0.018055974 -0.27936384 -0.96001554 0.0051233196
-0.0080191586 -0.058818489 0.0033924584 0.18929103 -0.39054725 -0.90091163 0.0053829513
-0.013366967 -0.056845598 0.0032814145 -0.23875032 -0.053125151 -0.96962678 0.0033826283
-0.010489671 -0.056789476 0.0028367057 -0.082602091 -0.15267745 -0.98481798 0.0031072125
-0.0073879766 -0.056791183 0.0028485516 0.085744053 -0.25315362 -0.96361881 0.0053626825
-0.0046484242 -0.056356449 0.003188259 0.24478453 -0.37254816 -0.89514709 0.0057049352
-0.0026219233 -0.055687588 0.0035729026 0.39407399 -0.44900993 -0.80193251 0.0039008339
-0.013142011 -0.054051377 0.0032154764 -0.27505672 0.024787931 -0.96110839 0.001976806
-0.010482759 -0.053892851 0.0025582537 -0.17123434 -0.057289764 -0.9835633 0.0035140037
-0.0073768259 -0.053852905 0.0022242744 -0.029999394 -0.15352118 -0.98768985 0.0039506187
-0.0042816815 -0.053879119 0.0024405867 0.14548336 -0.27449003 -0.95052081 0.0063679013
-0.001699728 -0.053678706 0.0030657644 0.31918529 -0.36003384 -0.87663919 0.0067497585
0.00024584535 -0.052815434 0.0035354113 0.47391438 -0.41997567 -0.77396739 0.003467947
-0.012726153 -0.051278699 0.0032947073 -0.35858765 0.10793453 -0.92723519 0.0020890946
-0.010484006 -0.05103654 0.0026020342 -0.24981976 0.032077368 -0.96776092 0.0023986206
-0.0073722745 -0.050964091 0.0019634799 -0.14735891 -0.051206358 -0.98775673 0.0048687351
-0.0042746356 -0.050945606 0.0017993269 0.091712579 -0.18433513 -0.97857523 0.0090456344
-0.0014200535 -0.050992895 0.0022133463 0.21167842 -0.26339754 -0.94117695 0.0042246394
0.0010622232 -0.050828792 0.0030455207 0.42504326 -0.32824418 -0.84356028 0.0049617426
-0.012273543 -0.048889127 0.0034679212 -0.41113487 0.17322008 -0.89496529 0.0017844312
-0.010462518 -0.048002981 0.0028980034 -0.35151854 0.13950382 -0.92572856 0.00078806467
-0.0073723127 -0.048105814 0.0019557611 -0.23805805 0.040060386 -0.97042447 0.003989032
-0.0042712493 -0.048055548 0.0014855133 -0.067166343 -0.085238241 -0.99409407 0.0044737188
-0.00141701 -0.048061579 0.0015403256 0.13463537 -0.20369789 -0.96973217 0.0064305589
0.0016778259 -0.048146714 0.0023317621 0.31587031 -0.27068487 -0.90937102 0.0059167584
0.0041858712 -0.047309227 0.0031520976 0.44928277 -0.3823072 -0.80745661 0.0047164764
-0.01001101 -0.045030992 0.0031978106 -0.40247598 0.15302525 -0.90254998 0.0023665873
-0.0073769148 -0.045034382 0.0021964046 -0.30065542 0.088505961 -0.94961727 0.0024439113
-0.0042707045 -0.04495718 0.0014241473 -0.16632876 0.023395244 -0.98579276 0.0031595398
-0.0014629811 -0.045004629 0.0011843569 -0.034738973 -0.094024912 -0.99496359 0.0076074889
0.0016755796 -0.044963557 0.0014830434 0.23378634 -0.19940582 -0.9516204 0.0072472775
0.004742628 -0.044787064 0.0024396847 0.3667326 -0.29947624 -0.8808071 0.0063308119
0.006728238 -0.044186585 0.0032648575 0.52883554 -0.35451978 -0.77113467 0.004102611
-0.0093102539 -0.042292118 0.0034384346 -0.46589848 0.20126462 -0.86164439 0.0017512464
-0.0073127481 -0.042022061 0.002593392 -0.36252695 0.14193512 -0.92110181 0.0020401592
-0.0042726765 -0.041880589 0.0015866915 -0.26816747 0.070607528 -0.9607814 0.0029960366
-0.0013649761 -0.041919015 0.0010583238 -0.089199267 -0.0030993531 -0.99600899 0.0034859255
0.0016743018 -0.04182693 0.0010080205 0.094100192 -0.10689793 -0.98980701 0.0048075886
0.0047687739 -0.041882172 0.0015984755 0.30679387 -0.21025249 -0.92826259 0.0066780928
0.0074352296 -0.041863106 0.0027587241 0.49199986 -0.33494392 -0.80358493 0.0021989744
0.0093259448 -0.040866282 0.0035213446 0.58192497 -0.35513216 -0.7316041 0.0027477059
-0.006958534 -0.039161395 0.0029804213 -0.42393082 0.17741649 -0.88814753 0.001970554
-0.0042763185 -0.039052594 0.0018975353 -0.32731402 0.11724482 -0.93761361 0.0024468908
-0.0014155139 -0.03898681 0.0011378112 -0.21647929 0.048983879 -0.9750576 0.0042545781
0.0016736931 -0.038959373 0.00082000392 -0.019264268 -0.056834452 -0.99819779 0.0045353859
0.0047635809 -0.038979847 0.0010540891 0.18219018 -0.15171571 -0.97148806 0.0052395617
0.0076293899 -0.039057564 0.0019476237 0.38596538 -0.22456159 -0.89476413 0.004657873
0.0099280672 -0.038785681 0.0030969316 0.52874845 -0.29469177 -0.79597855 0.0038988006
-0.0062700543 -0.036339324 0.0032623452 -0.48641437 0.19985247 -0.85056454 0.0020308846
-0.0042819306 -0.035996076 0.0023817471 -0.40684143 0.17658788 -0.89626825 0.00086019939
-0.001464408 -0.035988223 0.0013870788 -0.27887678 0.087630711 -0.95632035 0.0032544599
0.0016734472 -0.036106635 0.00078580296 -0.10827854 0.0034278918 -0.9941147 0.0038693738
0.004788436 -0.03617255 0.00073528336 0.12369791 -0.13899775 -0.98253673 0.0029044154
0.0076184366 -0.036145087 0.0012610455 0.29139563 -0.18421364 -0.93869799 0.0035258892
0.010417419 -0.035901263 0.0024086782 0.46943712 -0.26240498 -0.84307325 0.0044190083
0.012306753 -0.034994051 0.0032879254 0.57859838 -0.29748881 -0.75942367 0.0016778116
-0.0059680315 -0.034181725 0.0036010658 -0.53889471 0.21833478 -0.81358612 0.0015056285
-0.0041534742 -0.033039603 0.002894531 -0.46353427 0.19304964 -0.86479354 0.0011319434
-0.0013684693 -0.032936525 0.0017086319 -0.34034911 0.10993329 -0.93385065 0.0029116545
0.0016734579 -0.033025596 0.00087063364 -0.13860543 -0.0008279449 -0.99034733 0.0020589128
0.0057882033 -0.034274679 0.00063718506 0.028260557 -0.069902003 -0.99715352 0.0036381804
0.007834211 -0.033320222 0.00083689112 0.22267145 -0.17718036 -0.95865768 0.0036567338
0.0106473 -0.032799281 0.0016739718 0.36417404 -0.21366313 -0.90649068 0.0023042993
0.01299446 -0.032788981 0.0030033751 0.56624401 -0.26658618 -0.77993566 0.0037129924
-0.0036272162 -0.030302484 0.0031709122 -0.50294811 0.1690405 -0.8476252 0.0020475548
-0.0014206269 -0.030020181 0.0021155444 -0.39217544 0.11701164 -0.91241807 0.0022261376
0.0016736592 -0.02994889 0.0010379483 -0.2342231 0.024744604 -0.97186792 0.0014555799
0.0035723599 -0.028734026 0.0006144261 -0.12411147 -0.0095963171 -0.99222189 0.0023625514
0.0086374488 -0.030952998 0.00066418597 0.14142936 -0.1284911 -0.98157406 0.0042849369
0.010803651 -0.030034509 0.0011297464 0.33822542 -0.21057025 -0.91720432 0.0030648403
0.013703586 -0.029944491 0.0025397772 0.51771569 -0.26268157 -0.81422901 0.0033088981
0.01553789 -0.0289174 0.0034990525 0.64240956 -0.2889623 -0.70979625 0.0022054384
-0.0031941945 -0.027861528 0.0034259534 -0.5590235 0.17379418 -0.8107332 0.0015393556
-0.0014231207 -0.026952395 0.0026015579 -0.4406606 0.12754883 -0.88856602 0.0019564864
0.0016739417 -0.027109543 0.0012386478 -0.30117252 0.044797987 -0.95251679 0.0018530143
0.0036405139 -0.026905783 0.0006656691 -0.19481024 0.03594064 -0.98018223 0.002302401
0.011524043 -0.027348252 0.000836808 0.27975553 -0.18614118 -0.9418537 0.0048031653
0.013815548 -0.0271431 0.0017911047 0.46607155 -0.22574009 -0.85546404 0.0045019086
0.016025485 -0.026627522 0.0030446737 0.59612203 -0.26461568 -0.758035 0.0026517953
-0.0011174795 -0.023935996 0.0028914469 -0.49616465 0.12599063 -0.85903847 0.0022592354
0.0016743768 -0.02403309 0.0015033735 -0.38136387 0.081060402 -0.92086416 0.0014274321
0.0038105727 -0.02399279 0.00073802052 -0.25767845 0.044516947 -0.9652046 0.0018863331
0.012119597 -0.025413765 0.00066994783 0.29318517 -0.14675315 -0.94472533 0.012701247
0.013967605 -0.024159737 0.0011422748 0.39986342 -0.20456997 -0.89345419 0.0031489644
0.016563172 -0.023743296 0.0024968628 0.55699259 -0.2542989 -0.79062718 0.0024884751
0.018407151 -0.02270752 0.003549478 0.65776438 -0.26717398 -0.70424718 0.0014175163
-0.00075911463 -0.021077134 0.0031053154 -0.54347396 0.11239669 -0.83186722 0.0020950795
0.0016747938 -0.020953022 0.0017671403 -0.41740203 0.076593652 -0.90548825 0.0012267553
0.0039891484 -0.020790661 0.00081217755 -0.31205702 0.046446789 -0.94892734 0.001796464
0.014655824 -0.021225145 0.00078915711 0.33040339 -0.19388486 -0.92371118 0.0040244693
0.016670879 -0.020953421 0.0017640823 0.48185533 -0.22234972 -0.84757066 0.0015641735
0.018707821 -0.020696279 0.0031037047 0.63701427 -0.25274324 -0.72824019 0.002165589
-0.00044870144 -0.018264972 0.0032787593 -0.58574694 0.099309936 -0.80438679 0.0018617918
0.0016752236 -0.018106906 0.0020199521 -0.45038098 0.062355693 -0.89065635 0.0012586154
0.0040492085 -0.018063245 0.00090777199 -0.3564325 0.034945626 -0.9336673 0.001832056
0.016959013 -0.018243084 0.0012221341 0.45954308 -0.2118632 -0.86251622 0.0020810044
0.019196903 -0.018003112 0.0026367763 0.59498656 -0.2307175 -0.76990944 0.0029386256
-0.00023189846 -0.015296414 0.0034562913 -0.59189415 0.095037952 -0.8003931 0.0032365371
0.0016754939 -0.015017348 0.0022134618 -0.51030183 0.04389051 -0.85887468 0.0026415794
0.004049636 -0.01497713 0.00096638151 -0.40040556 0.015272401 -0.91621077 0.0018595663
0.017508252 -0.015528043 0.00085923984 0.41690159 -0.20373131 -0.88582546 0.0030087628
0.019538673 -0.015012302 0.0020351405 0.55245793 -0.22327289 -0.80308115 0.0011799734
0.021357987 -0.014192435 0.0032838024 0.70240992 -0.23514697 -0.6718083 0.0016878952
0.0016756974 -0.011924195 0.0023694541 -0.56590438 0.045506544 -0.82321405 0.0030802409
0.0040495819 -0.011888633 0.00096162315 -0.43900567 -0.0059417179 -0.89846456 0.0018961005
0.019763872 -0.012005605 0.0013650274 0.53992581 -0.21146525 -0.81471622 0.0017003843
0.021719944 -0.011754191 0.0028523859 0.64069021 -0.22403318 -0.7343877 0.0015797934
0.0016756371 -0.0090647917 0.0023970557 -0.60523993 0.0027279377 -0.79603851 0.0025502073
0.0039898427 -0.0091555798 0.00091480929 -0.47114956 -0.033278115 -0.88142532 0.0020525181
0.020308711 -0.0092764525 0.0010112163 0.52824295 -0.19899555 -0.82544541 0.0029466734
0.022107985 -0.0089971768 0.0024074507 0.66444528 -0.21388687 -0.7160759 0.0028148643
0.0016753944 -0.0059658219 0.0023447303 -0.63634127 -0.023780622 -0.77104092 0.0024663992
0.0037930908 -0.0060577965 0.00085525867 -0.49894398 -0.057358339 -0.86473399 0.0019982241
0.021012736 -0.0066263839 0.00082335738 0.61186802 -0.20379838 -0.76425368 0.0015232204
0.022788195 -0.0058907513 0.0021726754 0.67539459 -0.20129232 -0.70945299 0.0027414816
0.0016749168 -0.0028668763 0.0021730554 -0.66263682 -0.062104158 -0.74636149 0.0027613665
0.0035730889 -0.0030973139 0.00072714454 -0.52044249 -0.091363735 -0.84899485 0.0021659113
0.02314456 -0.0029835873 0.0016962844 0.684838 -0.19920345 -0.70093858 0.0037133903
0.024682885 -0.0024740943 0.0032338467 0.75275183 -0.17845799 -0.633654 0.0012507003
0.001602996 -5.6176097e-05 0.0019252202 -0.66388768 -0.12603311 -0.73713553 0.0027280068
0.023549877 -0.00019140972 0.0013285284 0.73434383 -0.17739487 -0.65518713 0.0014839555
0.024922008 0.00012908073 0.0028191423 0.77334666 -0.15946411 -0.61360103 0.0018602035
-0.00023177009 0.0028602285 0.0033967509 -0.73900276 -0.12377745 -0.66223413 0.0022693984
0.0013385125 0.0028329045 0.0017394978 -0.69932842 -0.14867783 -0.69916707 0.0039360872
0.023898019 0.002813769 0.00092162844 0.68336213 -0.16470155 -0.71125919 0.0014805805
0.025130173 0.0029475074 0.0023849136 0.77701682 -0.1418238 -0.61329508 0.0024431834
-0.0004299141 0.0061583752 0.002984744 -0.77749008 -0.13633439 -0.61393994 0.0022958738
0.00084217958 0.0058784233 0.0015596924 -0.73951429 -0.16428852 -0.65278471 0.0018905287
0.025274249 0.0058904965 0.0019233222 0.81360418 -0.1172728 -0.56946933 0.0018874172
-0.00067913765 0.0091220886 0.0025328719 -0.79164916 -0.17354734 -0.58580965 0.0026701542
0.00050752854 0.0087408377 0.0011548046 -0.7210446 -0.21692406 -0.65805674 0.00090779446
0.025730174 0.0090409359 0.0020291237 0.86033005 -0.08089783 -0.503277 0.00063711364
-0.0011031359 0.011899779 0.0020637875 -0.79479849 -0.2402914 -0.557275 0.00245252
0.00024881837 0.010675821 0.00077646133 -0.73729175 -0.24273892 -0.63045907 0.0051014549
0.025966279 0.011898 0.0020017955 0.87537843 -0.04905897 -0.48094258 0.0011621423
-0.0030969772 0.015992718 0.0032364144 -0.87211537 -0.28583089 -0.39713407 0.0044276942
-0.0019472718 0.014801746 0.0018464099 -0.82925713 -0.28857908 -0.4785966 0.0015613091
0.025954325 0.014986314 0.0017912658 0.87777948 0.0016295697 -0.47906202 0.0017389876
-0.0034192652 0.01834017 0.0023016273 -0.87027335 -0.28165236 -0.40409932 0.0026694671
-0.0024448214 0.017416542 0.0010816669 -0.81719655 -0.30753949 -0.48745176 0.0036604789
0.025961576 0.018086061 0.0019157943 0.89633167 0.036381476 -0.44188905 0.0016669058
-0.0041510961 0.020930307 0.001941897 -0.87342179 -0.3081471 -0.37706724 0.0021943955
0.025775408 0.020848978 0.001867868 0.91253579 0.074197188 -0.40221038 0.0015198286
-0.0059575606 0.025047557 0.0029069898 -0.89762998 -0.33059159 -0.29149541 0.0022995851
-0.0051356032 0.023774702 0.0018042563 -0.89225924 -0.33138737 -0.30668521 0.0022754276
0.025528625 0.024046835 0.0020837169 0.92442012 0.11515251 -0.36357564 0.0013582028
-0.0063631753 0.027094824 0.0017273342 -0.87535733 -0.3701098 -0.31107587 0.0018826349
0.025008747 0.027132692 0.0019139564 0.92991114 0.16296139 -0.32971039 0.0010487564
-0.0075793816 0.029834324 0.0021203887 -0.85352802 -0.42451307 -0.30212355 0.0017375263
0.024007823 0.030639695 0.0010025417 0.93149769 0.20735325 -0.298859 0.00226065
0.024630781 0.0296179 0.0022676601 0.93056011 0.20922238 -0.30047283 0.0022144981
-0.0092536248 0.033485387 0.00093629118 -0.82276928 -0.49977323 -0.27069828 0.0024263349
-0.0085512884 0.032096591 0.0014269864 -0.83863544 -0.47557935 -0.26554638 0.0023821965
0.023701606 0.033028845 0.0019604629 0.93171322 0.24670857 -0.26654324 0.0011770129
-0.010934156 0.036392774 0.0016221469 -0.82909715 -0.51811242 -0.2101368 0.001094897
0.022690212 0.036151271 0.0015729582 0.92199236 0.26816571 -0.27931571 0.00094327412
0.021154987 0.040139679 0.00096525904 0.90889049 0.32284483 -0.26398733 0.00060228433
0.021905627 0.038546123 0.0017495221 0.90887123 0.32290626 -0.26397851 0.00056760793
0.020461956 0.042081956 0.0014001047 0.89536107 0.34974402 -0.27569509 0.00057136995
0.021238448 0.040783692 0.0027664816 0.90298426 0.3386015 -0.26451534 0.00045143455
-0.019000104 -0.067711607 0.0064625842 -0.10269571 -0.42448506 -0.89959216 0.0067162556
-0.016592627 -0.06758365 0.0064115087 0.094725244 -0.54221171 -0.8348853 0.0046993354
-0.021455474 -0.065591112 0.0063288184 -0.27549365 -0.22255957 -0.93518478 0.0051457649
-0.019211842 -0.065813243 0.0058134925 -0.1823182 -0.27803302 -0.94311064 0.0034503196
-0.01638622 -0.065890059 0.0055911355 -0.005582219 -0.38975996 -0.92089957 0.0070580752
-0.013508125 -0.065655626 0.0057192221 0.14572436 -0.49704036 -0.8554036 0.0062809233
-0.010751224 -0.065068953 0.0060671521 0.29256943 -0.5669049 -0.77007914 0.004386059
-0.021628186 -0.062970988 0.0061026467 -0.40749517 -0.04623146 -0.91203636 0.0033045211
-0.019185198 -0.062847055 0.0052136495 -0.27101305 -0.13389726 -0.95321739 0.0040942896
-0.016228154 -0.062891893 0.0046091652 -0.13331024 -0.24871802 -0.95935792 0.00581592
-0.013442962 -0.063028999 0.0044675809 0.017443148 -0.33233169 -0.94300127 0.0059748963
-0.010226985 -0.062890835 0.0048625935 0.20713617 -0.45308566 -0.86706865 0.0069329329
-0.0074023074 -0.062576741 0.0056558 0.34518385 -0.55953312 -0.75350571 0.0034037591
-0.0053666439 -0.06194767 0.0062350249 0.45224553 -0.59314555 -0.66607231 0.0030535958
-0.021525931 -0.060191859 0.0061179176 -0.47325441 0.077311933 -0.8775267 0.0027153012
-0.019179666 -0.059951689 0.0050873468 -0.35790688 0.00038547124 -0.93375719 0.0030515366
-0.016266601 -0.059828822 0.0041629458 -0.24655491 -0.086023264 -0.96530348 0.0047292425
-0.013641029 -0.060572937 0.0037891949 -0.080771744 -0.19391701 -0.97768718 0.0084746927
-0.010222742 -0.060796082 0.00384465 0.11384273 -0.35465267 -0.92804164 0.0054499563
-0.0069862297 -0.060097266 0.0042499485 0.25828141 -0.44039899 -0.8598485 0.0024027417
-0.0044178064 -0.059836533 0.0052293912 0.43469977 -0.51659155 -0.73767829 0.0024009428
-0.0023201064 -0.059199207 0.0060528582 0.52133638 -0.56036597 -0.6435824 0.0023869635
-0.021179607 -0.057513796 0.0063160006 -0.52956742 0.18707101 -0.8273831 0.0023453969
-0.019243926 -0.057023712 0.0053896881 -0.43182579 0.12733097 -0.89292401 0.0028279377
-0.016264666 -0.056950189 0.0041084005 -0.33928001 0.040455803 -0.9398151 0.0029230665
-0.0038513008 -0.057540379 0.0040437346 0.32264763 -0.43206513 -0.84215093 0.0031694514
-0.0014932666 -0.057006117 0.0050170114 0.44298974 -0.47954914 -0.75749105 0.0015335213
0.0007240086 -0.056202576 0.006066463 0.53466624 -0.52324635 -0.66358519 0.0024927747
-0.018971877 -0.054113649 0.0058101555 -0.50211388 0.20459189 -0.84025222 0.0025434766
-0.016327826 -0.054029979 0.0044371812 -0.40364236 0.12758322 -0.90597761 0.0026152334
-0.014495673 -0.053632103 0.0037048873 -0.34156635 0.090381145 -0.93550181 0.001862898
-0.00071155047 -0.054791998 0.0040670969 0.40813181 -0.40701383 -0.81717092 0.004131454
0.0015607009 -0.053962085 0.0051269117 0.5193491 -0.49052703 -0.69975686 0.0025295818
0.0037689747 -0.052810527 0.0062224083 0.59897923 -0.50689059 -0.61990786 0.0025129849
-0.018349294 -0.051289909 0.0062420107 -0.55831534 0.27086329 -0.78416646 0.0021934235
-0.016252592 -0.05100124 0.0050376807 -0.48521423 0.20887549 -0.8490808 0.0015103354
-0.014105679 -0.050783336 0.003952805 -0.40963683 0.16937195 -0.89638764 0.0019062966
0.0024588911 -0.051454559 0.0041711843 0.48030373 -0.43652219 -0.76076072 0.0041066711
0.0045281048 -0.050648939 0.0053622485 0.588018 -0.47955406 -0.65135455 0.0027330844
-0.016070571 -0.048221748 0.0057579856 -0.55203849 0.27957207 -0.78555262 0.0017650963
-0.013498286 -0.047864232 0.0043014837 -0.47725397 0.2103762 -0.85321188 0.0011923534
-0.011705429 -0.046615165 0.0036573624 -0.4716098 0.17146507 -0.86497623 0.002603252
0.0052731233 -0.04824714 0.0043862588 0.55515176 -0.42018563 -0.71780962 0.0043992954
0.0070995553 -0.047671497 0.0056124562 0.63572508 -0.45317659 -0.6248877 0.0020681096
-0.015410657 -0.04570638 0.0062360084 -0.60057139 0.3128171 -0.73583925 0.0017808434
-0.013477625 -0.045001782 0.0051508141 -0.52872741 0.29198232 -0.79699033 0.0014307667
-0.011382339 -0.044731036 0.0039425157 -0.48033091 0.22107767 -0.84876782 0.001067476
0.0059825825 -0.046139877 0.0036843633 0.55782884 -0.39004189 -0.73259419 0.0012567185
0.0078963181 -0.045223862 0.0047387611 0.56266659 -0.38735837 -0.73031491 0.0011718487
0.0098023294 -0.044405397 0.0060412306 0.66252041 -0.44907874 -0.59949565 0.0020754633
-0.012966158 -0.042252567 0.005778552 -0.59317589 0.30767649 -0.74396062 0.0014806108
-0.010783897 -0.04187464 0.0044064061 -0.5019955 0.24529803 -0.82935476 0.0011000661
0.0086968858 -0.042741194 0.0039727106 0.6111359 -0.38829592 -0.68973845 0.0011836078
0.010444869 -0.041969877 0.0051130219 0.61736751 -0.38822314 -0.68420768 0.0012356712
0.012266601 -0.040882338 0.006354115 0.69125801 -0.41650948 -0.59049314 0.0017545768
-0.012381053 -0.039796561 0.0063146194 -0.63286954 0.32007039 -0.70500439 0.0016096936
-0.010209614 -0.039015822 0.0049800151 -0.55843556 0.27175611 -0.78377187 0.0013158824
-0.008183293 -0.038323343 0.0038272915 -0.46584198 0.22667098 -0.85534292 0.0016861616
0.011122243 -0.039310638 0.0042540762 0.58250475 -0.33600619 -0.74012703 0.0026941698
0.01277924 -0.038675439 0.0055353642 0.67642766 -0.38736185 -0.62641555 0.0016785664
-0.0097703552 -0.036186717 0.0056631025 -0.62668818 0.28982267 -0.72337037 0.0013457645
-0.0076134037 -0.035744764 0.0042308536 -0.51950914 0.24633318 -0.81818718 0.0013286226
0.011719568 -0.037056725 0.00368788 0.63750875 -0.33123419 -0.69560504 0.0012430893
0.013671722 -0.035966136 0.0050063399 0.6662671 -0.34323665 -0.66202474 0.0028133765
-0.0091581168 -0.033679608 0.0061521912 -0.64310002 0.29682913 -0.70591414 0.0021728168
-0.0072530555 -0.032997791 0.0048585474 -0.55455279 0.23641485 -0.79785907 0.00058080099
-0.0053730998 -0.032163229 0.0037841192 -0.5191679 0.21718052 -0.82661802 0.0010971689
0.014428825 -0.033262797 0.0044132415 0.68119919 -0.32431707 -0.65634292 0.0019688765
0.016022375 -0.03272387 0.0058257086 0.72171736 -0.35029837 -0.59700513 0.0020506056
-0.0068981647 -0.03017189 0.0055384478 -0.62104249 0.2743949 -0.7341755 0.0019417465
-0.0049957349 -0.029797096 0.0041667912 -0.53647876 0.21870743 -0.8150813 0.0015396565
0.014951733 -0.030972127 0.0038466668 0.65250611 -0.29053113 -0.69987673 0.0029111998
0.016691048 -0.029932275 0.005103616 0.69778204 -0.32112077 -0.64029813 0.0026424779
0.018528301 -0.028632594 0.0065880632 0.7622596 -0.34397572 -0.54830742 0.0030212856
-0.0063383039 -0.027158387 0.0060761692 -0.6910854 0.24822541 -0.67881161 0.0016222282
-0.0044092373 -0.026861794 0.0045375391 -0.58658469 0.20565842 -0.78334093 0.0011981234
0.017316701 -0.027179882 0.0044117649 0.63819468 -0.300679 -0.70873106 0.0022099083
0.018816158 -0.026580539 0.0057710279 0.7266354 -0.3282859 -0.60351413 0.0015295991
-0.0060110325 -0.025256677 0.0064513898 -0.6883831 0.24093921 -0.68416148 0.0015268809
-0.0042802496 -0.024022898 0.0052060895 -0.65110439 0.20626037 -0.73042434 0.0023335728
-0.002504321 -0.023677636 0.0038281633 -0.61119622 0.17368066 -0.77218789 0.0013825237
0.017820787 -0.024754247 0.0038349396 0.63920879 -0.27392703 -0.71859318 0.0011395959
0.019413194 -0.023905881 0.005141539 0.72775561 -0.29127109 -0.62091297 0.0025150166
-0.0039054828 -0.021253299 0.0055981036 -0.68778127 0.17347427 -0.70488554 0.0025074068
-0.0021760166 -0.020991113 0.0041371956 -0.64912659 0.1550907 -0.7447024 0.0014576964
0.020089511 -0.021245943 0.0046661799 0.72736949 -0.27948159 -0.62675637 0.0012981264
0.021551875 -0.02050955 0.0060705263 0.75652295 -0.29700461 -0.58263302 0.0010689402
-0.0034878529 -0.018189836 0.0059280097 -0.70703882 0.16386276 -0.68792814 0.0018274095
-0.0018308681 -0.017882086 0.0044232751 -0.61751771 0.13326533 -0.77518529 0.0017433161
0.020580022 -0.018521756 0.0040427987 0.65227693 -0.2517072 -0.71496737 0.0017796145
0.021941746 -0.017809838 0.0053245872 0.74876559 -0.26710644 -0.60663342 0.0013182245
-0.0031233134 -0.014908527 0.0062913764 -0.77057868 0.15445977 -0.61834502 0.0041924966
-0.0016270214 -0.014820918 0.0047437944 -0.68921435 0.14704168 -0.70948035 0.0036732333
0.022608623 -0.014900886 0.0049628862 0.74695104 -0.25758931 -0.61295336 0.0023084099
-0.0014353095 -0.011989561 0.0049573123 -0.71950042 0.11264685 -0.6852954 0.0028498808
0.023162102 -0.012143573 0.0045507452 0.77465802 -0.22659092 -0.59039092 0.0011519116
0.024398813 -0.011779491 0.0061300201 0.80197412 -0.22532025 -0.55323446 0.0010953066
-0.0012418955 -0.0091526005 0.005000825 -0.73225963 0.034500103 -0.68015122 0.0025159884
0.023569282 -0.009334987 0.0040225117 0.72264969 -0.21030442 -0.65844482 0.0016722179
0.024661697 -0.0090022432 0.0054241745 0.80902439 -0.20537464 -0.55072755 0.0016190448
-0.0011961687 -0.0059989933 0.0051580667 -0.76717979 0.04722698 -0.63969105 0.0048814267
0.024159065 -0.0067012063 0.0038668578 0.73428953 -0.19406329 -0.6505062 0.0012606459
0.0252284 -0.0059596235 0.0051775877 0.81697142 -0.19186203 -0.54382592 0.0012276423
-0.0010890728 -0.0029609422 0.0050550275 -0.78601903 -0.0093392897 -0.61813176 0.0034481706
0.025771389 -0.0028916202 0.0049797213 0.83400708 -0.16544959 -0.52636349 0.0018451778
-0.0010027334 4.4140848e-05 0.004807787 -0.80075818 -0.04968347 -0.59692353 0.0033113824
0.026186056 -0.00012384471 0.0048023136 0.84127903 -0.14862151 -0.51977044 0.0016240675
0.027179023 0.00096070312 0.0064033335 0.8936848 -0.12686433 -0.43038687 0.0015706477
-0.0014360542 0.002874949 0.0052096737 -0.86302435 -0.07569021 -0.49945968 0.0056730951
0.026672289 0.0027528626 0.0049202191 0.87395686 -0.11927794 -0.47113925 0.00073212996
-0.0015904731 0.0058839018 0.0048774164 -0.85593456 -0.11684024 -0.50371069 0.00195679
0.026826801 0.0059820954 0.0044960701 0.89514703 -0.087168925 -0.43716505 0.0016291523
0.02764751 0.0060077696 0.0061958991 0.90430504 -0.075919762 -0.42008173 0.0011093821
-0.0020738679 0.0091058668 0.0049623763 -0.89764154 -0.14614785 -0.41578913 0.0025577175
0.027062535 0.009094147 0.0044378801 0.89868712 -0.06472595 -0.43378812 0.0012877122
0.027620977 0.0091234082 0.0057562161 0.92259616 -0.037356917 -0.38395402 0.0012645781
-0.0031196943 0.012488688 0.0058715856 -0.92990708 -0.20538194 -0.30510831 0.0059368997
-0.0024374819 0.011777251 0.0044924831 -0.89196968 -0.2326722 -0.38762575 0.0017870975
0.027040865 0.011957167 0.0040722354 0.91851193 -0.019643432 -0.39490515 0.0011949311
0.027616225 0.012003127 0.0056775026 0.94136685 0.012151806 -0.3371658 0.0015318773
-0.0034611211 0.015056121 0.0049875514 -0.9250347 -0.22304814 -0.30750674 0.0023620958
-0.0026239061 0.013624358 0.0038357293 -0.8764782 -0.27479988 -0.39531127 0.0055214665
0.027047044 0.014832061 0.0041764691 0.93261355 0.034316156 -0.35924149 0.001164971
0.027628887 0.014891986 0.0058873212 0.94702232 0.041401833 -0.31848797 0.0010584486
-0.0042140642 0.017924421 0.0048831739 -0.9189623 -0.2660712 -0.29105714 0.0018453576
0.027080746 0.017967205 0.0047451896 0.94409233 0.083280541 -0.31898919 0.0015306454
0.027653294 0.016829574 0.0062917387 0.96346384 0.083107583 -0.25461823 0.0019926326
-0.0050995681 0.020925159 0.0050443071 -0.92433488 -0.29448473 -0.24265991 0.00059905153
0.026778277 0.02095856 0.0046876883 0.95168781 0.11336249 -0.2853756 0.00076918019
-0.0059940289 0.023988651 0.0053243255 -0.90465564 -0.30298829 -0.29966024 0.0019127191
-0.0054999683 0.022735896 0.0043093776 -0.90082312 -0.31175116 -0.30220684 0.0021060521
0.026416289 0.02391416 0.0048516728 0.94727993 0.13035835 -0.2926901 0.00082777214
-0.006696715 0.026564995 0.004294931 -0.89810348 -0.33837599 -0.28091243 0.0014711329
0.025835071 0.026879743 0.0047458266 0.94334805 0.15486558 -0.29344699 0.00075600826
0.02497967 0.030235138 0.0042952714 0.93385774 0.23248488 -0.27177286 0.0015006067
0.024226118 0.033331651 0.0051368093 0.93707937 0.2582407 -0.23493375 0.000460788
0.023720853 0.034731109 0.0046413755 0.93200332 0.26748839 -0.24458076 0.000412394
-0.02809871 -0.073868863 0.0095645655 -0.10186778 -0.41849178 -0.9024896 0.012128846
-0.030276047 -0.071925461 0.0095280921 -0.40942588 -0.15720031 -0.89869827 0.014136145
-0.02834956 -0.072136581 0.009145462 -0.14217485 -0.22403271 -0.96415544 0.0081361905
-0.025251469 -0.071947813 0.0087928763 0.0090822084 -0.38848153 -0.92141175 0.022593103
-0.02232248 -0.071688555 0.0087067755 0.020723263 -0.54197222 -0.84014088 0.011830003
-0.019478315 -0.071350157 0.0087769609 0.12893833 -0.65143216 -0.74767047 0.008289976
-0.016904844 -0.071030729 0.0091164839 0.24561259 -0.68156815 -0.68930346 0.0031348665
-0.030279087 -0.070479177 0.0095721697 -0.48354629 -0.031715471 -0.87474406 0.017147398
-0.028502204 -0.06909845 0.0090176044 -0.36717841 0.098083444 -0.92496473 0.0032726445
-0.025346028 -0.06903407 0.0080359755 -0.21510288 -0.19981445 -0.95593143 0.013968053
-0.022173086 -0.06893108 0.0073581878 -0.14727026 -0.31209922 -0.93856573 0.010923408
-0.019345967 -0.069229417 0.0072824331 -0.0024789728 -0.46318507 -0.88625807 0.008839949
