# .PCD v0.7 - Point Cloud Data file format
VERSION 0.7
FIELDS x y z normal_x normal_y normal_z curvature
SIZE 4 4 4 4 4 4 4
TYPE F F F F F F F
COUNT 1 1 1 1 1 1 1
WIDTH 553
HEIGHT 1
VIEWPOINT 0 0 0 1 0 0 0
POINTS 553
DATA ascii
-0.0083467923 -0.038714983 -0.052476484 -0.29188448 0.71092451 -0.63983572 0.0084540434
-0.0063784188 -0.038599469 -0.053065423 -0.1012671 0.66307211 -0.74167395 0.018193886
-0.001719395 -0.0389372 -0.05283824 0.22541922 0.28044698 -0.93302494 0.013977506
0.0006724681 -0.039716076 -0.052250572 0.36080381 0.17340307 -0.91637981 0.005770517
0.0035671359 -0.03966742 -0.050896771 0.4727439 0.078947261 -0.87765622 0.0037585471
-0.009764717 -0.038020186 -0.050398383 -0.52466905 0.67121559 -0.52363348 0.0075819716
-0.0077751586 -0.037280057 -0.051104873 -0.43767324 0.69089979 -0.57541251 0.0051253717
-0.0051296181 -0.036872417 -0.051811401 -0.11251856 0.57425576 -0.81090683 0.0085122548
-0.0022868137 -0.036722742 -0.051941689 0.061580926 0.44983664 -0.89098531 0.0065636374
0.00067314634 -0.036675271 -0.051410779 0.25551832 0.33657721 -0.90632564 0.0063172099
0.0031651766 -0.036926031 -0.050600432 0.40135616 0.24338305 -0.8829937 0.0028065627
-0.0043890956 -0.034837317 -0.050386623 -0.28123924 0.63072121 -0.72325325 0.0063244253
-0.0021674815 -0.034501299 -0.050606832 -0.068923339 0.56526232 -0.82202685 0.0072518904
0.00057369552 -0.034537699 -0.050496664 0.14602599 0.467917 -0.87162495 0.0045676143
0.0024840874 -0.034972731 -0.050229166 0.25945017 0.39755416 -0.88013428 0.004484694
-0.0022597725 -0.050351564 -0.048616454 0.46279031 -0.81805652 -0.3414802 0.0028715441
-0.013964084 -0.047282912 -0.049743984 -0.8485918 -0.20105384 -0.48935598 0.014383827
-0.0013136765 -0.049741033 -0.049314555 0.46280998 -0.81804687 -0.34147653 0.0028883498
0.00087484147 -0.04876237 -0.048881661 0.4572224 -0.76139385 -0.45959458 0.012203123
0.0030764751 -0.047857489 -0.048174631 0.50081271 -0.71686161 -0.4850733 0.0088640507
0.0040271184 -0.045977294 -0.049130369 0.58991343 -0.49928871 -0.63459671 0.0088104438
0.0058362056 -0.045304257 -0.047910228 0.63755679 -0.47107506 -0.60959798 0.0027801115
-0.013974323 -0.042293184 -0.049464557 -0.94481045 0.24931961 -0.21253915 0.03835937
0.0050503514 -0.042942449 -0.049719136 0.61021739 -0.18522894 -0.77027595 0.0035839302
0.006743114 -0.042665284 -0.048315406 0.664325 -0.23555492 -0.70935619 0.0045067659
-0.012928155 -0.040619835 -0.049450878 -0.72589439 0.63162893 -0.2722539 0.0034374755
-0.01163705 -0.039048702 -0.048929032 -0.69605172 0.67033386 -0.25722462 0.0019308672
0.0052208318 -0.03958191 -0.04990555 0.56354171 0.020020328 -0.825845 0.0027019177
0.0069943895 -0.039745346 -0.048577584 0.61480123 -0.042691384 -0.78752577 0.0040755323
0.0086766016 -0.039164998 -0.047169253 0.69005144 -0.094002165 -0.71762985 0.0027322138
-0.010268684 -0.037533596 -0.048493147 -0.62983751 0.69851148 -0.33968571 0.0047155614
-0.0083529409 -0.036111757 -0.048909217 -0.58849299 0.68552172 -0.42864418 0.0046016178
-0.0064312289 -0.035549499 -0.05000243 -0.40346321 0.66678154 -0.62659377 0.0015844097
0.0047296886 -0.036570929 -0.049756236 0.46127012 0.19113976 -0.86642677 0.003059577
0.0069250101 -0.036654651 -0.048403241 0.56889498 0.13091068 -0.81192422 0.0012446881
0.0086767813 -0.037271075 -0.047160942 0.63708282 0.095534071 -0.76485205 0.0025845387
-0.007267545 -0.034537241 -0.048030466 -0.53464127 0.65884101 -0.52923268 0.0043367799
-0.0052602314 -0.033643253 -0.048767868 -0.37447152 0.63286167 -0.6776852 0.003361227
-0.0023252771 -0.032947589 -0.049434509 -0.15327081 0.61868131 -0.7705462 0.0045539504
0.00075569516 -0.032966848 -0.049587574 0.066655882 0.52585179 -0.84796035 0.004035606
0.0037003458 -0.033686399 -0.049212433 0.27908462 0.41612968 -0.86541772 0.0036822562
0.0064963703 -0.033739701 -0.04791696 0.47758919 0.28526628 -0.83098239 0.0044018733
-0.0043717539 -0.031745087 -0.047452744 -0.43345669 0.66070801 -0.61284596 0.0027860177
-0.002107532 -0.031158647 -0.047948569 -0.24654245 0.6493479 -0.71941924 0.0063374583
0.00073115167 -0.030757172 -0.048089288 0.0032811426 0.58830047 -0.80863571 0.0064236382
0.0035188925 -0.030885104 -0.047826029 0.20625019 0.50083631 -0.84060925 0.0063475603
0.0057256985 -0.031565357 -0.047445383 0.36587235 0.44668457 -0.8164621 0.0031515688
-0.0014324057 -0.050664552 -0.046112422 0.39340231 -0.84376943 -0.36508602 0.0019289707
0.00046813337 -0.050353363 -0.045216966 0.40639848 -0.85217732 -0.3295967 0.001215754
0.0012702491 -0.049819943 -0.046114907 0.40642571 -0.8521443 -0.32964867 0.0012366452
0.0038345144 -0.048743911 -0.045704033 0.49504229 -0.76377112 -0.41423038 0.0046621049
0.0058101579 -0.047655202 -0.045225345 0.57027233 -0.69904155 -0.43142831 0.0041650673
0.0071562366 -0.045767628 -0.045867134 0.68337667 -0.51534927 -0.51711839 0.0048934566
0.0085877422 -0.044975463 -0.044744685 0.69640785 -0.5340097 -0.47942659 0.0027999626
0.0081451889 -0.043186691 -0.046680521 0.71815121 -0.27486616 -0.63930237 0.003460892
0.0094093289 -0.042502161 -0.045446418 0.73949397 -0.29674667 -0.60422683 0.0024759099
-0.011553988 -0.038390286 -0.046450589 -0.76438719 0.61265558 -0.20091146 0.0055549899
0.010009422 -0.039718665 -0.045691714 0.72482049 -0.12848806 -0.67685008 0.0010130777
0.011287423 -0.03987918 -0.044145856 0.76327527 -0.19079357 -0.61725897 0.0027693459
-0.010433039 -0.036634747 -0.045789685 -0.78956777 0.55007476 -0.27203026 0.0066955932
-0.0093019251 -0.035569061 -0.046556853 -0.71415758 0.62928849 -0.30655354 0.003564436
0.010087649 -0.03670457 -0.045805488 0.68051797 0.041507144 -0.73155481 0.003477602
0.011710368 -0.036693059 -0.044191614 0.73486012 -0.021117968 -0.67788988 0.0019354499
-0.0099189933 -0.035187684 -0.044433031 -0.79904807 0.54275119 -0.25873411 0.0047070482
-0.0081831841 -0.033716895 -0.045689244 -0.70932758 0.59370607 -0.3799572 0.0015659509
-0.0063467994 -0.032601774 -0.04675347 -0.57212585 0.63824159 -0.51509196 0.0013767948
0.0080522364 -0.033215038 -0.046812274 0.56545049 0.22593997 -0.79323196 0.0022286372
0.0099463901 -0.033834111 -0.045533367 0.63029259 0.16680226 -0.75822705 0.0011584267
0.011498767 -0.033937048 -0.044174295 0.69004327 0.13768241 -0.7105518 0.0021408182
-0.0071137836 -0.031851415 -0.044811569 -0.64642829 0.61659926 -0.44937277 0.0028122042
-0.0051847044 -0.030742934 -0.045529138 -0.49770322 0.69309974 -0.52144438 0.0044097109
-0.0025724524 -0.02990232 -0.046481937 -0.30060753 0.6915164 -0.6568411 0.0033659239
-0.00016506546 -0.029495155 -0.046977423 -0.075314745 0.66382313 -0.74408776 0.0046365564
0.004228835 -0.029622043 -0.046885561 0.13857448 0.55129474 -0.82272178 0.0045406031
0.0069056544 -0.03065972 -0.046413664 0.43202487 0.36574197 -0.82437092 0.0037086916
0.0094403597 -0.03080664 -0.044972166 0.53623194 0.31689483 -0.78232539 0.0037281886
-0.0039863735 -0.028846895 -0.044161592 -0.49145973 0.70176136 -0.51575035 0.00067777437
-0.0020114076 -0.028478108 -0.045114748 -0.37738106 0.71515244 -0.58833712 0.0026087698
0.00077191158 -0.027853204 -0.045548048 -0.13781463 0.70386636 -0.69683516 0.0067137727
0.003638356 -0.027691251 -0.045567635 0.075048514 0.62657809 -0.77573681 0.0065060561
0.0064913519 -0.027937302 -0.045059528 0.33728725 0.49313107 -0.80190969 0.0025881107
0.0086410632 -0.028543828 -0.044454653 0.42748258 0.46463281 -0.77548379 0.0024122058
0.0039187018 -0.04972095 -0.042760655 0.46450305 -0.81881833 -0.33730316 0.0012444905
0.0067853085 -0.048173361 -0.042766087 0.56579238 -0.71455455 -0.41144955 0.0052421843
0.0085840132 -0.047389135 -0.041567881 0.63011539 -0.67784083 -0.37879589 0.003011364
0.0076915915 -0.046943724 -0.043588404 0.6243397 -0.66641295 -0.40754607 0.0026178157
0.0094481539 -0.045641806 -0.042469785 0.71834356 -0.54227942 -0.43579289 0.0023069114
0.010530543 -0.04321593 -0.043351665 0.77643991 -0.35852566 -0.51826674 0.0021717243
0.01176965 -0.042203553 -0.042166404 0.76872528 -0.37814495 -0.51581782 0.0022234591
-0.011644389 -0.038246147 -0.043454442 -0.84402931 0.51379424 -0.15372086 0.0037861962
0.012426353 -0.039633159 -0.042689618 0.79357427 -0.2496752 -0.55488944 0.002907594
-0.010857278 -0.036215793 -0.042903598 -0.86665142 0.46786311 -0.17326133 0.0034819702
0.012998647 -0.03666437 -0.042651225 0.77323812 -0.079689875 -0.62908846 0.0022548928
-0.010112966 -0.034434237 -0.042431153 -0.84180689 0.49589187 -0.21319552 0.0048859697
-0.0090735378 -0.033016153 -0.042851072 -0.79063445 0.5444712 -0.28008622 0.001826173
0.012806901 -0.033563875 -0.042788576 0.71332276 0.11855806 -0.6907348 0.0015540584
0.014365024 -0.034614775 -0.041118268 0.768978 0.053038239 -0.63707125 0.0014528899
-0.0076522566 -0.031063071 -0.042520117 -0.69679338 0.63257486 -0.33812454 0.0025716929
-0.0060097137 -0.029733699 -0.043075286 -0.61521363 0.69302595 -0.3758021 0.0020889402
0.010637053 -0.029910881 -0.043783441 0.6082781 0.26170546 -0.74933845 0.00174302
0.012500349 -0.030724065 -0.042473495 0.64215225 0.24366124 -0.7268216 0.0018266792
-0.0047916509 -0.028299129 -0.0423375 -0.56853783 0.70125049 -0.43013087 0.0032287585
-0.002533826 -0.027130717 -0.042983778 -0.39781693 0.73341405 -0.55122191 0.0026122942
-9.7777753e-05 -0.026465993 -0.043790765 -0.2235118 0.73250777 -0.64302015 0.0031161755
0.007315503 -0.026533848 -0.043837402 0.28841034 0.54322141 -0.78849858 0.0083341934
0.0097908741 -0.027463272 -0.043155618 0.42002431 0.46025243 -0.78214282 0.0027148903
0.011991744 -0.027954258 -0.041867338 0.58607793 0.35578477 -0.72796279 0.0023869949
-0.0016219686 -0.025722351 -0.041813526 -0.45719376 0.73832798 -0.49582833 0.0015897172
0.00081214728 -0.025068996 -0.042461187 -0.30261868 0.75410938 -0.58287305 0.0023273181
0.0036617895 -0.024681438 -0.042804826 -0.073755667 0.69655645 -0.71370107 0.0060214107
0.0066454741 -0.024692595 -0.042618956 0.20409417 0.61841846 -0.75888354 0.0039092824
0.0094250236 -0.025089914 -0.041881569 0.37724215 0.53439623 -0.75637889 0.0042549586
0.011368106 -0.025841152 -0.041266087 0.50975913 0.46994257 -0.72062451 0.0022355686
0.0043166517 -0.023065349 -0.04122721 -0.1490747 0.73256344 -0.66417432 0.0039193672
0.0062397853 -0.023063805 -0.041256003 0.12958747 0.67415375 -0.72713399 0.0047583813
0.0066754548 -0.048984129 -0.040726315 0.56339347 -0.75104916 -0.34425688 0.0035798256
0.0090452796 -0.047778834 -0.040045191 0.63500798 -0.67360377 -0.37818366 0.0031350385
0.010480919 -0.046235044 -0.040165212 0.70806998 -0.56899524 -0.41818821 0.0043648239
0.011920026 -0.045217134 -0.039111931 0.70234412 -0.55233383 -0.4490436 0.0051812544
0.012831565 -0.042850416 -0.039670825 0.78006732 -0.41178972 -0.47108829 0.00066560466
0.014470991 -0.041323297 -0.038138364 0.80189854 -0.3678956 -0.47075635 0.00060868799
0.013743357 -0.040057827 -0.040542353 0.81592548 -0.27610639 -0.50796735 0.0019977542
0.01483769 -0.039335892 -0.039116602 0.82388538 -0.32203561 -0.46637538 0.0010105105
-0.01133989 -0.03648261 -0.039312039 -0.8792755 0.44862691 -0.16002642 0.001452918
0.015174511 -0.03664821 -0.039706185 0.83251643 -0.17179702 -0.52668977 0.0014139174
-0.01038697 -0.033966824 -0.039611291 -0.85572636 0.48724955 -0.17412719 0.0026280684
-0.0096189193 -0.032392759 -0.039434228 -0.84737289 0.50224012 -0.17237768 0.0030300482
0.015391047 -0.033664405 -0.039721888 0.8095668 0.00182666 -0.58702487 0.0025104799
-0.0082372101 -0.030576354 -0.039810009 -0.76221901 0.59568268 -0.25334629 0.0019321379
0.013945282 -0.030141665 -0.040892106 0.71321702 0.17569436 -0.67856687 0.0017085633
0.01526785 -0.030794913 -0.039556835 0.76373005 0.13206255 -0.63188285 0.0014981107
-0.0070428834 -0.028958334 -0.039429326 -0.70431262 0.64942026 -0.28670034 0.0012370381
-0.0055011045 -0.027509842 -0.039689444 -0.68100345 0.66210955 -0.31280214 0.00084545068
-0.0035932343 -0.026501885 -0.040952776 -0.54613954 0.7088244 -0.44642973 0.0048344051
0.013401466 -0.027555436 -0.040474858 0.6331901 0.29389128 -0.71602947 0.0019848279
0.014972265 -0.027892869 -0.03904175 0.70462829 0.25974947 -0.66032511 0.0019397144
-0.0042157415 -0.025859293 -0.038844101 -0.61023426 0.70242161 -0.36635786 0.0016220909
-0.0022183899 -0.024765762 -0.039646238 -0.46896496 0.75454581 -0.45905608 0.0012654648
0.00032153248 -0.023797415 -0.040476684 -0.30789235 0.76808804 -0.56146508 0.0021830536
0.010223595 -0.023921303 -0.04065964 0.32236642 0.57950139 -0.74850392 0.0032911932
0.012712454 -0.024830995 -0.039608777 0.5572744 0.40775755 -0.72331113 0.0022029043
0.014544673 -0.025622791 -0.038488343 0.63460732 0.37084496 -0.67804688 0.0018277869
0.00094671932 -0.022613341 -0.039206889 -0.39523369 0.76495069 -0.50856739 0.0039830934
0.0037214849 -0.021883441 -0.039640106 -0.18508177 0.75422436 -0.62999243 0.0017700826
0.0067394078 -0.021707924 -0.039794408 0.070607543 0.73411608 -0.67534298 0.0089323707
0.0095925266 -0.021942502 -0.039342638 0.29674524 0.62157929 -0.72496992 0.0043947692
0.011932289 -0.02258765 -0.038681254 0.486334 0.52001989 -0.70218122 0.0021178857
0.0069320761 -0.020214394 -0.038184203 -0.013490236 0.7569285 -0.6533584 0.0058855577
0.0095252506 -0.048038296 -0.037806142 0.62666517 -0.69752306 -0.3474943 0.0017711374
0.013215542 -0.045255985 -0.037015006 0.72478563 -0.52732921 -0.44340676 0.007519647
0.014559048 -0.044602729 -0.035662089 0.80043536 -0.37727144 -0.46579978 0.0013234696
0.013900933 -0.043275505 -0.03748944 0.7925114 -0.36915392 -0.48543918 0.00061189511
0.014949978 -0.042768776 -0.036175545 0.8235895 -0.34761789 -0.44817641 0.0019709191
0.015871082 -0.039763968 -0.036683325 0.83881736 -0.30515221 -0.45085204 0.0010722174
0.016775345 -0.036841542 -0.036953565 0.85986108 -0.21048917 -0.46511635 0.0030731524
0.017591037 -0.036147527 -0.035707202 0.87100536 -0.23970741 -0.42882401 0.0015771561
0.01688005 -0.033680741 -0.037580427 0.84515977 -0.038825206 -0.5331018 0.0014492274
0.017795112 -0.033740494 -0.036001321 0.8680985 -0.07636743 -0.49048242 0.001728173
-0.0083772633 -0.029968763 -0.037279774 -0.78155506 0.59756368 -0.17913505 0.001730266
0.016824564 -0.030515719 -0.037478786 0.80088872 0.092408441 -0.59164006 0.0014155626
0.017791506 -0.030702673 -0.036083195 0.84454769 0.052119922 -0.53293777 0.0016217254
-0.0073818564 -0.028426366 -0.036671437 -0.77562517 0.60527366 -0.1790237 0.0019567902
-0.0061033983 -0.026884558 -0.036805779 -0.74124801 0.63292146 -0.22352135 0.0013869447
0.01648565 -0.027457319 -0.037089396 0.77385175 0.21198192 -0.59683931 0.00076128164
0.01775527 -0.027942335 -0.035557002 0.80894232 0.18118288 -0.55927187 0.0016687006
-0.0047572935 -0.025244808 -0.036248401 -0.68603659 0.67499799 -0.2715354 0.00091073191
-0.0029123081 -0.023869962 -0.036975116 -0.61436981 0.7167635 -0.32984823 0.0019161332
0.01394222 -0.023570152 -0.037856381 0.59425128 0.40791842 -0.69315803 0.002084218
0.015791183 -0.024610654 -0.036616053 0.72199768 0.31387416 -0.61660546 0.00092701759
-0.0016557107 -0.022502199 -0.036278758 -0.55061924 0.73507327 -0.39558285 0.0014758244
0.00064177939 -0.021250671 -0.036788847 -0.45099023 0.75647378 -0.47366151 0.0037644489
0.0033832141 -0.020458492 -0.037568416 -0.23694859 0.77620399 -0.58426261 0.0034346688
0.005426303 -0.02022036 -0.038055453 -0.19562125 0.77375174 -0.60252851 0.0033847578
0.010259336 -0.020449594 -0.037759256 0.23006806 0.67176241 -0.70413345 0.0038970949
0.013006803 -0.021344392 -0.036967926 0.47770861 0.5399701 -0.69298398 0.0052690082
0.015106806 -0.022152048 -0.035835851 0.59982949 0.46871263 -0.64846969 0.0017343332
0.0018461723 -0.019761857 -0.035470866 -0.41727185 0.76757342 -0.48653403 0.0044209263
0.0039269081 -0.019269802 -0.036132962 -0.28965038 0.78800148 -0.54328275 0.0035017661
0.0068101427 -0.018859446 -0.036522251 -0.035815876 0.76126689 -0.64744872 0.0038160651
0.009709049 -0.018867442 -0.036340252 0.18344197 0.70709431 -0.68291044 0.0063823862
0.012337527 -0.019407591 -0.035789032 0.41248584 0.61180204 -0.67494714 0.0026007281
0.015513414 -0.044414394 -0.033341322 0.82293892 -0.30444908 -0.479669 0.0028311748
0.016420007 -0.04243366 -0.034045637 0.83107674 -0.31211343 -0.46032226 0.0030726118
0.017590104 -0.042043332 -0.032347463 0.8401255 -0.29100388 -0.45771807 0.002410138
0.016939098 -0.040064447 -0.034012094 0.85076785 -0.27042612 -0.45062602 0.0013075471
0.017774146 -0.039513506 -0.032726992 0.87265116 -0.21180694 -0.44002026 0.0018791575
0.018296778 -0.036560934 -0.033780299 0.8934409 -0.23139024 -0.38499606 0.001465199
0.018960984 -0.033646952 -0.033721186 0.90293688 -0.13204819 -0.40898433 0.0024845917
-0.0086594755 -0.029963626 -0.034273598 -0.80912787 0.57116562 -0.13813718 0.00043763721
0.019199805 -0.030720463 -0.033599615 0.88318074 -0.0020447522 -0.46902832 0.0014161131
-0.0074145487 -0.02775738 -0.033408485 -0.7949906 0.58884072 -0.1457964 0.00094693282
-0.0064773411 -0.026673375 -0.034735162 -0.78586912 0.59887552 -0.15413548 0.00131478
0.018954679 -0.027780356 -0.033633828 0.82780749 0.15730315 -0.5385077 0.0010102914
-0.0050447681 -0.024603495 -0.033564702 -0.76189727 0.62121284 -0.18332224 0.0019275667
-0.0036552814 -0.023424869 -0.034554992 -0.68400055 0.67610866 -0.2738983 0.0008746956
0.017109731 -0.023933686 -0.034781389 0.75456893 0.28581566 -0.59070736 0.0015546976
0.018393598 -0.024909031 -0.033494622 0.78014702 0.25781918 -0.56999999 0.0013657145
-0.0041132332 -0.023104614 -0.032389048 -0.73122877 0.65565109 -0.18821809 0.001502621
-0.0022393288 -0.021734213 -0.03357996 -0.66482818 0.68770319 -0.29166394 0.001140978
-0.00026560205 -0.020558612 -0.03450539 -0.56243545 0.73798913 -0.37287867 0.0008461111
0.016326929 -0.021433219 -0.03409709 0.66043091 0.40503091 -0.63228226 0.0019554817
0.017956281 -0.022147819 -0.032690998 0.72466201 0.35616764 -0.58992332 0.002113567
-0.0010551607 -0.020053675 -0.032219443 -0.59445494 0.7185992 -0.36088571 0.0017793945
0.0009689735 -0.019202471 -0.033505592 -0.49177754 0.75884432 -0.4269779 0.0021684978
0.0035679699 -0.017970894 -0.033896957 -0.31602287 0.79063964 -0.52442211 0.0020642714
0.0065131309 -0.017467253 -0.034640126 -0.12103537 0.78885549 -0.60254252 0.003168029
0.010074224 -0.017463652 -0.034732528 0.11935818 0.74137634 -0.66038978 0.0045693368
0.013130225 -0.0182238 -0.034187444 0.37263358 0.65437782 -0.65797704 0.0028870632
0.015476861 -0.019034119 -0.03312993 0.55476761 0.52981007 -0.64150929 0.0028859919
0.017307663 -0.020057326 -0.032138024 0.67354244 0.41695249 -0.61032063 0.00045885667
0.0044973455 -0.016788367 -0.032700524 -0.36039644 0.79836422 -0.48241991 0.0017100346
0.0069013075 -0.016379729 -0.033222347 -0.16796967 0.81373227 -0.55644047 0.0037410546
0.0098038437 -0.016225463 -0.033302087 0.073737226 0.78205758 -0.61882859 0.0057189288
0.01259425 -0.016512888 -0.03277814 0.31906998 0.68628824 -0.65360749 0.0036251061
0.018003462 -0.042010017 -0.031216534 0.84862477 -0.2324473 -0.4751887 0.0041560275
0.018862164 -0.039671134 -0.030829962 0.88272691 -0.18136996 -0.43347219 0.00433901
0.019274587 -0.036914282 -0.030598365 0.89596903 -0.18246432 -0.40490285 0.0038201814
0.019917374 -0.033842877 -0.031290267 0.91229862 -0.18711351 -0.36427969 0.0014433804
0.020605728 -0.033160493 -0.02988377 0.90679818 -0.19183473 -0.37538829 0.0015092634
0.020792862 -0.030522129 -0.030356605 0.89966625 -0.074288212 -0.43021134 0.0024598939
-0.0069817384 -0.026698535 -0.030778782 -0.7936998 0.58697701 -0.15968274 0.0008898236
0.019943569 -0.027287675 -0.031878058 0.86504769 0.089653455 -0.49361405 0.0010543496
0.020903835 -0.027612589 -0.03020715 0.88606787 0.028640468 -0.46266994 0.0014865095
-0.0056348015 -0.024630509 -0.030786287 -0.78400099 0.59753424 -0.16821194 0.00062487565
0.019729393 -0.024637014 -0.031435423 0.81180638 0.20067793 -0.54836005 0.0011627921
0.020697899 -0.024552925 -0.029924538 0.84758377 0.15179761 -0.50848722 0.0015622391
-0.0043551009 -0.022773912 -0.030329475 -0.74890727 0.63445836 -0.19131228 0.0015016106
-0.0029024058 -0.021258725 -0.030786674 -0.7289992 0.6448409 -0.22965294 0.0011312135
0.019222474 -0.021668086 -0.030786913 0.76368302 0.30542618 -0.56877339 0.00061653962
0.020504722 -0.022382792 -0.029383432 0.79068285 0.27195323 -0.54850888 0.0014396651
-0.0015502025 -0.019657459 -0.030180937 -0.66139412 0.68840086 -0.29776192 0.0018398189
0.000401892 -0.018257473 -0.030817835 -0.57425767 0.74549425 -0.33832902 0.0016618824
0.0024429471 -0.017438656 -0.032019231 -0.4310421 0.7855044 -0.44405597 0.0038013579
0.01639135 -0.018030919 -0.03150595 0.52843952 0.53814805 -0.65661883 0.001466147
0.018278785 -0.018974179 -0.030279884 0.64567065 0.44945148 -0.6173352 0.0015733732
0.0017215848 -0.016788233 -0.029889923 -0.5343436 0.75039893 -0.38907382 0.0018073609
0.003842738 -0.015888123 -0.03060947 -0.36397448 0.80443329 -0.46947816 0.0010835134
0.006722237 -0.014955429 -0.031033413 -0.18784048 0.81371063 -0.55008256 0.0022912894
0.0099607194 -0.014786988 -0.031435497 0.018286185 0.79823256 -0.60207176 0.0037931364
0.012999727 -0.015195471 -0.031164052 0.26154846 0.73092037 -0.63035536 0.0034004753
0.015531766 -0.015911957 -0.030351583 0.47108456 0.58837646 -0.65718532 0.0035292399
0.017563082 -0.016947683 -0.029551756 0.5730347 0.53231847 -0.62311172 0.0023541127
0.0072949049 -0.013865791 -0.029612292 -0.26845771 0.81882781 -0.50739682 0.0034221208
0.0099956458 -0.013587812 -0.029831128 -0.029507935 0.81300288 -0.58151144 0.0039314879
0.012572965 -0.0137061 -0.029667774 0.20172018 0.75958157 -0.61834043 0.004570886
0.014345895 -0.014022728 -0.029274406 0.34273809 0.6789431 -0.64928186 0.0077827582
0.019997852 -0.039238703 -0.028940942 0.87868893 -0.1087922 -0.46483332 0.0017964264
0.020694235 -0.038703267 -0.027792567 0.87955797 -0.11103255 -0.46265501 0.0017704125
0.019977698 -0.03704121 -0.028578317 0.90203708 -0.15752937 -0.40188763 0.0035307969
0.020989077 -0.036715128 -0.027063003 0.91591209 -0.14105065 -0.37577882 0.004046462
0.021308199 -0.033580273 -0.027461728 0.91354114 -0.1793215 -0.36508417 0.0018680061
0.021917887 -0.030775193 -0.027641084 0.91066241 -0.12532896 -0.39368343 0.0011983912
0.02232551 -0.027673516 -0.027417488 0.89591765 -0.027724862 -0.44335413 0.0023070597
-0.0054835756 -0.02391712 -0.028151365 -0.79531527 0.58629709 -0.15404345 0.00035700065
0.02209018 -0.024768319 -0.02760658 0.87267053 0.088509075 -0.48022106 0.0017140626
-0.0043450929 -0.022044973 -0.027325822 -0.76747644 0.61342931 -0.18623757 0.00070588855
-0.0032766764 -0.020771893 -0.028040154 -0.75972956 0.62128669 -0.1918692 0.0010081048
0.021481061 -0.021591337 -0.027548097 0.81358087 0.24733511 -0.52622384 0.00091570418
-0.0017714078 -0.018798942 -0.027347917 -0.72551811 0.64027739 -0.25232598 0.0020227802
-0.00047991099 -0.017739838 -0.028046958 -0.67328948 0.68217415 -0.28516605 0.0012446684
0.019733857 -0.01852262 -0.028242925 0.73151267 0.3733243 -0.57054192 0.00077682332
0.020954287 -0.018848311 -0.026870277 0.75952941 0.34988841 -0.5483551 0.001146766
0.00089707482 -0.016267622 -0.027418468 -0.58698165 0.74073333 -0.32675174 0.0017071007
0.0032108277 -0.014873562 -0.028082829 -0.45903942 0.78505439 -0.41589957 0.0040529789
0.016526291 -0.014827567 -0.028580826 0.45772606 0.61659139 -0.64054811 0.0021017878
0.018685739 -0.015951207 -0.02752487 0.64290261 0.47883475 -0.59782392 0.0014390225
0.0043654777 -0.013675474 -0.027148997 -0.44968522 0.77900177 -0.43696618 0.0024209088
0.0069314986 -0.012759563 -0.027634958 -0.28640911 0.82305062 -0.49046659 0.0030797874
0.0097744809 -0.012146619 -0.027764037 -0.10603077 0.81752306 -0.56605077 0.0041945986
0.012796549 -0.012244721 -0.027744217 0.17225705 0.78084451 -0.60050762 0.0027665566
0.015559596 -0.01306614 -0.027438158 0.33853555 0.70824611 -0.61950064 0.0023173224
0.01784171 -0.013811767 -0.026465835 0.55282116 0.58372992 -0.59468323 0.00065253675
0.010458812 -0.011009699 -0.026220959 -0.13737348 0.83287776 -0.53613734 0.0030906049
0.012232714 -0.011009219 -0.026242031 0.14252812 0.80349243 -0.57800138 0.0044401544
0.022197034 -0.036229495 -0.024951706 0.9044894 -0.099167086 -0.41480708 0.0034533495
0.022340205 -0.034200136 -0.024332482 0.9150123 -0.11594014 -0.38640696 0.0035154989
0.022846637 -0.030859958 -0.025021879 0.92365223 -0.18683372 -0.33460382 0.0008851114
0.023450062 -0.030018056 -0.023954066 0.92321527 -0.16354015 -0.34774724 0.001660844
0.022889292 -0.028765177 -0.026041778 0.91214269 -0.062346872 -0.40510315 0.0013569786
0.023644527 -0.027755586 -0.024464693 0.9266811 -0.086147584 -0.36584255 0.00278818
0.022895239 -0.023667378 -0.025933566 0.8722229 0.092853345 -0.48021415 0.0017259122
0.023632189 -0.024847174 -0.024681844 0.90968084 0.029986782 -0.41422397 0.0011996251
-0.004079971 -0.021151872 -0.025138604 -0.80728078 0.57388043 -0.13769126 0.00072912819
0.022792278 -0.021429474 -0.025382273 0.84583038 0.19709583 -0.49570572 0.0013611
0.023652969 -0.021865567 -0.024010215 0.87515861 0.15889797 -0.4569999 0.0016712968
-0.002305337 -0.018509526 -0.024502933 -0.79055965 0.58132368 -0.19255713 0.0022395593
0.022229768 -0.018502984 -0.024772154 0.79108405 0.32182291 -0.52020758 0.0016270451
0.023475369 -0.019778339 -0.023502411 0.82888871 0.27155188 -0.48908395 0.0015606832
-0.0010810402 -0.016849941 -0.024214061 -0.72179854 0.64988726 -0.23801999 0.0012982481
0.00046494906 -0.015445855 -0.024643457 -0.67084706 0.68606108 -0.2815749 0.0017788005
0.019860601 -0.015133864 -0.025575312 0.69264007 0.45622891 -0.55866349 0.0013048056
0.021326385 -0.015875181 -0.024265349 0.71635401 0.43251351 -0.54751176 0.0010771591
0.0017431875 -0.013888806 -0.023844676 -0.60324496 0.72091496 -0.34114099 0.0014326919
0.0038367356 -0.012713354 -0.024682995 -0.51038963 0.77145523 -0.37994638 0.0017543937
0.0063887518 -0.011693581 -0.025452372 -0.30946845 0.81190294 -0.49501809 0.0020494889
0.016388593 -0.011844908 -0.025551597 0.33665562 0.71682161 -0.61059785 0.0032991846
0.018737743 -0.012826642 -0.024610981 0.56963193 0.58527148 -0.57704133 0.0041534575
0.020521482 -0.013835323 -0.023644265 0.65358508 0.51795059 -0.55186391 0.0017404003
0.0051712627 -0.011077514 -0.023224385 -0.51460099 0.75279897 -0.41046262 0.0017448278
0.0072143027 -0.010633634 -0.024216168 -0.33862054 0.81595862 -0.46855912 0.0027017521
0.0097408285 -0.010072703 -0.024570435 -0.17573954 0.84333014 -0.50784826 0.0022706578
0.012766658 -0.0098673636 -0.024541646 0.054072656 0.82798374 -0.55813885 0.0034620822
0.015642392 -0.010360343 -0.02424461 0.31185606 0.74184418 -0.59364396 0.0038285276
0.017821191 -0.010923227 -0.023461234 0.50754911 0.64420259 -0.57218605 0.0018967069
0.023532482 -0.035265766 -0.022483172 0.9108851 -0.11189022 -0.39720121 0.003421145
0.023080075 -0.033244453 -0.022570262 0.92487615 -0.097440705 -0.36757225 0.0042378334
0.023959937 -0.033315025 -0.021459254 0.92487663 -0.097405456 -0.36758041 0.0042402525
0.023974208 -0.030627199 -0.021608653 0.92892343 -0.13871129 -0.343308 0.0029183161
0.024656322 -0.027514454 -0.021771625 0.93798208 -0.12571822 -0.32308596 0.00082721107
0.024921363 -0.024564324 -0.021722075 0.93025935 -0.011116165 -0.36673418 0.0012913132
-0.0044456329 -0.021397157 -0.022325741 -0.83927047 0.53234994 -0.11058352 0.00042450769
0.024764515 -0.021796186 -0.021696026 0.91440028 0.096666776 -0.39310014 0.0013937711
-0.0037792716 -0.020078203 -0.021770271 -0.83448362 0.53489119 -0.13239506 0.0011862769
-0.0026601648 -0.018144587 -0.02152684 -0.82835597 0.54053319 -0.14714028 0.0013429956
0.023062024 -0.017568795 -0.022898735 0.78357065 0.3276332 -0.52789539 0.0017231944
0.02419797 -0.018762533 -0.021538027 0.86830086 0.24672204 -0.43032759 0.0014378504
-0.001410224 -0.016369347 -0.021574002 -0.77433759 0.60116524 -0.19748834 0.0018816737
-8.0504164e-05 -0.014758722 -0.021597439 -0.70838863 0.65950155 -0.25148222 0.001522506
0.022648804 -0.015260913 -0.02183884 0.78282577 0.38576812 -0.48822814 0.00080616074
0.023755232 -0.016268317 -0.020801125 0.81398594 0.3545253 -0.46015069 0.001629931
0.0013408718 -0.013104927 -0.021242931 -0.64638937 0.69632971 -0.31193855 0.0014366563
0.003066272 -0.011958529 -0.022073032 -0.61683542 0.70836049 -0.34313184 0.001129339
0.019642813 -0.011834731 -0.022706799 0.57408786 0.58367103 -0.57423973 0.000675652
0.021359503 -0.012801174 -0.021566123 0.66661209 0.51871276 -0.53531802 0.0013803473
0.0043261331 -0.010613261 -0.021239666 -0.53372645 0.75130379 -0.38817346 0.002169953
0.0067115654 -0.0093773408 -0.021608863 -0.39944652 0.80274099 -0.44277465 0.0025668277
0.009519767 -0.0087190196 -0.022307051 -0.17594787 0.8235864 -0.53921032 0.0022271539
0.012874536 -0.0085402336 -0.022633931 0.037083805 0.83146477 -0.55433851 0.0038783757
0.016024234 -0.0089766812 -0.022300383 0.26219478 0.76285022 -0.5910275 0.0030574803
0.018610287 -0.0098536117 -0.021499166 0.4951098 0.6525079 -0.57367218 0.0038967319
0.020636475 -0.010985171 -0.020680578 0.62581462 0.56548882 -0.53719503 0.00081694504
0.0079071987 -0.0079950448 -0.020221682 -0.37794921 0.78946602 -0.48362991 0.0010559178
0.010013221 -0.0076959943 -0.020880774 -0.23112822 0.82229894 -0.52000409 0.0035056567
0.012829025 -0.0075311596 -0.021176761 0.0025802173 0.83507919 -0.55012357 0.003608369
0.015535819 -0.0076743951 -0.020838544 0.24361311 0.78495973 -0.56964093 0.0037678962
0.01735504 -0.0079938229 -0.020303817 0.42322645 0.71592087 -0.55528069 0.0008555376
0.024947399 -0.03314995 -0.019366415 0.91536957 -0.054776061 -0.39887118 0.0019024609
0.025082089 -0.030846329 -0.018604865 0.94520819 -0.083397716 -0.31563646 0.002909129
0.025437444 -0.027507467 -0.019092144 0.94428879 -0.11496584 -0.30838546 0.002466907
0.025954429 -0.024907364 -0.0185737 0.95645338 -0.064785607 -0.28460467 0.0015901732
0.025853373 -0.021422267 -0.01893515 0.93888575 0.070313133 -0.33697128 0.0015197665
-0.0038083745 -0.019759169 -0.018769415 -0.85358304 0.5056994 -0.12515628 0.00053277391
-0.0031276718 -0.0183885 -0.019159423 -0.8501687 0.51203227 -0.12262227 0.00062204624
0.02555584 -0.018740784 -0.018633522 0.9096626 0.18644309 -0.37115088 0.0015936128
-0.0016799148 -0.015827367 -0.01864961 -0.82314759 0.5429675 -0.16617557 0.0017914838
-0.00064588268 -0.014549 -0.019296737 -0.77263188 0.59705186 -0.21579869 0.0013519902
0.024654252 -0.015700039 -0.018603355 0.84462291 0.3247968 -0.42558107 0.00078421057
0.00070747547 -0.012629633 -0.018534832 -0.73523724 0.6195873 -0.27484116 0.0017192838
0.022681464 -0.012516879 -0.019381292 0.74793965 0.45017704 -0.48777741 0.0012575585
0.023746211 -0.012891944 -0.017998563 0.789599 0.41540197 -0.45163545 0.0012319272
0.0019151556 -0.011045238 -0.017981522 -0.65349835 0.68513292 -0.32176518 0.0013953329
0.0038896296 -0.0096093882 -0.018637322 -0.57184488 0.72147882 -0.39046332 0.0018431941
0.0060040536 -0.0085692834 -0.019509012 -0.40065742 0.78848219 -0.46665767 0.0023526719
0.019644551 -0.0089081051 -0.019452229 0.56639445 0.63352007 -0.52711445 0.00079298654
0.021514155 -0.010012299 -0.018486306 0.66088343 0.56201261 -0.49736792 0.0023843003
0.0052369474 -0.0080333557 -0.017683001 -0.50903249 0.75385064 -0.41544572 0.0011131656
0.0069694598 -0.0073673967 -0.018328208 -0.44367534 0.78355169 -0.43496999 0.0016119411
0.0097284447 -0.0063764453 -0.018630816 -0.23836832 0.82252753 -0.51636142 0.002820485
0.012846749 -0.0060073519 -0.018919516 -0.019264478 0.82192379 -0.56927168 0.0025609706
0.015848521 -0.0061947117 -0.018673122 0.19519238 0.78772211 -0.58428919 0.0028716505
0.018540874 -0.0072189188 -0.018347282 0.46224359 0.68821722 -0.55918503 0.0031170426
0.020647995 -0.0080383625 -0.017351242 0.60242963 0.61309928 -0.51106536 0.002754194
0.012947415 -0.0048670731 -0.017250231 -0.07347206 0.81548345 -0.57409799 0.0037829662
0.014763519 -0.0048677232 -0.017164601 0.13371252 0.82268459 -0.55254948 0.0022037516
0.026056031 -0.030141849 -0.016604217 0.94954449 -0.083080217 -0.30242822 0.0034126176
0.026676159 -0.029708495 -0.015155884 0.96135753 -0.054207347 -0.26991335 0.0033582393
0.026080521 -0.028087361 -0.015587093 0.9661082 -0.073606722 -0.24742061 0.0039068968
0.026706669 -0.02860052 -0.014667721 0.96135813 -0.054232441 -0.26990631 0.0033369248
0.026615368 -0.02441857 -0.016128507 0.96933198 -0.069654204 -0.23567745 0.0014221112
0.026855124 -0.021607617 -0.015662286 0.96810347 0.0076892842 -0.25043264 0.0024170997
-0.0031498023 -0.018042503 -0.016466143 -0.85825956 0.4940483 -0.13894935 0.00060784537
0.026125744 -0.01780591 -0.016700896 0.92750734 0.16553415 -0.33515453 0.0013881677
0.026776925 -0.018995231 -0.01536967 0.95413828 0.1059458 -0.27999207 0.0012178465
-0.0020181406 -0.015621711 -0.015860127 -0.83573467 0.51974976 -0.17722239 0.0014736053
0.025862603 -0.015546399 -0.015865674 0.87931073 0.27938944 -0.38568664 0.0010645309
0.026610978 -0.016183158 -0.014372209 0.91803962 0.2321427 -0.32142338 0.0020893675
-0.0011100296 -0.013762547 -0.015246691 -0.81889677 0.54101992 -0.19158681 0.0017394038
6.6280947e-05 -0.01219655 -0.015647555 -0.78037196 0.56869245 -0.26001635 0.0015522966
0.024780516 -0.01252609 -0.015688807 0.82826942 0.36742708 -0.42304504 0.001559398
0.0016218942 -0.010095827 -0.015359612 -0.7054652 0.63789815 -0.30887657 0.0019501772
0.0029838551 -0.0089684781 -0.015940927 -0.67140412 0.65265256 -0.35108575 0.0013236541
0.022563608 -0.0091546644 -0.016123049 0.71405435 0.50480163 -0.48507905 0.0010829985
0.023821803 -0.010100995 -0.015107919 0.74159503 0.48431358 -0.46419528 0.0014413323
0.0044040224 -0.0074106045 -0.015332585 -0.59123546 0.70477241 -0.39209247 0.0016803243
0.0066928845 -0.0059926566 -0.015705567 -0.4225626 0.77314484 -0.47295654 0.0014535318
0.0089705242 -0.005416044 -0.01667284 -0.26432726 0.81808931 -0.51074547 0.0019175275
0.017038314 -0.0053228196 -0.016961934 0.24868457 0.77880877 -0.57585841 0.0030781901
0.019174181 -0.0059509408 -0.016189143 0.42828977 0.71203381 -0.55639529 0.0024158484
0.021433592 -0.0071172211 -0.015246948 0.61051375 0.60382068 -0.51251692 0.0024858608
0.0076671732 -0.0047726501 -0.01464461 -0.44083631 0.77378404 -0.45488644 0.001290862
0.01003482 -0.0042428756 -0.015394805 -0.2563687 0.80981714 -0.52770382 0.0020487043
0.012724788 -0.0037864861 -0.015580811 -0.069924593 0.84241253 -0.53427684 0.0031691631
0.015745267 -0.0039384402 -0.015530374 0.18960388 0.81476724 -0.54790938 0.0053425753
0.018356934 -0.0044610593 -0.014926165 0.39689767 0.71440315 -0.57628155 0.0034727619
0.027089998 -0.027382422 -0.012932073 0.97307956 -0.044965718 -0.22604041 0.0026321604
0.027166512 -0.025242608 -0.012201659 0.97346836 -0.063249089 -0.21990681 0.0021786317
0.027633186 -0.02157283 -0.012089374 0.97854012 -0.025669372 -0.20445159 0.0010672882
0.027562113 -0.0185783 -0.0123285 0.96542227 0.061495464 -0.25333399 0.001182127
-0.0022647236 -0.015214583 -0.012557687 -0.88762403 0.43739012 -0.14426848 0.0022661882
0.02711777 -0.015491059 -0.012495503 0.92726481 0.20344092 -0.31431153 0.00096116419
-0.0013483746 -0.013154949 -0.012421128 -0.85040236 0.48593786 -0.20169319 0.00095580431
-0.00047725003 -0.011683509 -0.012626346 -0.83570677 0.49970886 -0.22778319 0.0018041781
0.025749516 -0.012021661 -0.013249736 0.86171192 0.33012304 -0.38531983 0.00089990813
0.02654358 -0.01315595 -0.012389734 0.89095998 0.28874514 -0.3504518 0.0014049497
0.00091048714 -0.0096484367 -0.012593357 -0.76287568 0.5737282 -0.29808831 0.0018820019
0.024929672 -0.0096531399 -0.012628309 0.80811143 0.41051927 -0.42240953 0.00064393471
0.0019388717 -0.0079663601 -0.011978827 -0.70646685 0.62550014 -0.33114064 0.0017636629
0.0037344615 -0.0064430619 -0.012595633 -0.6247732 0.68320233 -0.37801206 0.0015942281
0.0055169566 -0.0053540152 -0.01334426 -0.559084 0.71031201 -0.42764691 0.0010633447
0.022349227 -0.0061580669 -0.012969822 0.65824002 0.57930803 -0.48075184 0.0034245078
0.023979612 -0.0074753985 -0.012052244 0.71884829 0.5159412 -0.46589902 0.0014356032
0.0048483536 -0.0049087461 -0.011725368 -0.58473617 0.69010574 -0.42642426 0.0018377918
0.0068502477 -0.0039327051 -0.012448867 -0.46411228 0.75310045 -0.46630406 0.002285732
0.0095436936 -0.003013022 -0.013161425 -0.26751724 0.80944175 -0.52272218 0.0020025144
0.012822617 -0.0026081903 -0.013808323 -0.074812353 0.84282815 -0.53295767 0.0031992912
0.0160519 -0.0027099869 -0.013685076 0.15805593 0.82204759 -0.54704309 0.0034092891
0.019034136 -0.0032964307 -0.012863369 0.3901816 0.74603325 -0.5396226 0.0028243575
0.021047106 -0.0042924993 -0.01228143 0.5465973 0.65826583 -0.51760739 0.0012009845
0.010144616 -0.0019059785 -0.011800092 -0.31503758 0.80441326 -0.50365722 0.0026762926
0.012881201 -0.0015139524 -0.012170853 -0.090172097 0.837147 -0.53949404 0.002932257
0.015739737 -0.0015788854 -0.012141207 0.14226449 0.82531077 -0.54646391 0.0034648988
0.018243875 -0.0020003496 -0.011687395 0.38324356 0.7592575 -0.52597755 0.0031441804
0.027880143 -0.026786027 -0.010624932 0.97411495 -0.035287 -0.22328208 0.0021709749
0.027753538 -0.024991872 -0.0097316708 0.98240012 -0.041742895 -0.18206468 0.0012498625
0.027883166 -0.021493575 -0.010578128 0.98238564 -0.05098829 -0.17977397 0.00053204718
0.027862847 -0.017338013 -0.010892453 0.95998204 0.082318909 -0.26769045 0.0022777996
-0.0025218863 -0.015121793 -0.0081935842 -0.91265786 0.38028732 -0.14979033 0.0014483812
0.027926188 -0.015758932 -0.0099127367 0.95457262 0.13587764 -0.26519519 0.0013074795
-0.001589542 -0.012691866 -0.0096383365 -0.88920897 0.41855735 -0.18470842 0.0036225028
0.027390324 -0.012676885 -0.0096462173 0.91912735 0.23915634 -0.31306395 0.0013735556
-0.0011324215 -0.010951912 -0.0083201248 -0.91748083 0.35654524 -0.17636424 0.0012577464
-5.1797892e-05 -0.0096140839 -0.0097313868 -0.83508962 0.48534408 -0.25897199 0.0013835594
0.025910217 -0.0091442894 -0.010208515 0.84253079 0.3763541 -0.38535622 0.00086155068
0.026753057 -0.010179501 -0.0093102548 0.87355882 0.33481219 -0.35326433 0.0013368025
0.0015088649 -0.0071340846 -0.0094968192 -0.75432068 0.56905138 -0.32738474 0.0021422347
0.0028248439 -0.005843204 -0.010015698 -0.67323637 0.6353389 -0.37828186 0.0018473731
0.023266722 -0.0053759273 -0.010800036 0.71914333 0.51996738 -0.46094123 0.0016990833
0.024950409 -0.0067712786 -0.0095473733 0.78792191 0.45418954 -0.41580158 0.00056697096
0.0040658386 -0.0041182879 -0.0092792157 -0.62440783 0.66350657 -0.41215748 0.0019166066
0.0059792856 -0.0030383845 -0.010107947 -0.57781309 0.6903308 -0.43540251 0.00067818316
0.022041431 -0.0034225779 -0.010018565 0.57429874 0.6588605 -0.48588461 0.0021687911
0.023648843 -0.0044084857 -0.0090713929 0.68545103 0.55462563 -0.47174922 0.0016360452
0.0072381566 -0.0016394322 -0.0092487317 -0.46738398 0.73362267 -0.49330515 0.0016681643
0.0097465003 -0.00056688488 -0.0095217358 -0.29073116 0.80523503 -0.51678997 0.0023085265
0.012596456 3.6411453e-05 -0.0097691696 -0.11893541 0.81882179 -0.56159168 0.002935919
0.015807336 1.9733561e-05 -0.0098252054 0.1451216 0.81028664 -0.56778097 0.0036057425
0.018715385 -0.00077013904 -0.0096217394 0.35889459 0.75277406 -0.55183876 0.0038996141
0.021057028 -0.0016938486 -0.0089206006 0.5349223 0.67342138 -0.51025653 0.0015109918
0.013215823 0.0010828264 -0.0083517693 -0.12387016 0.8057965 -0.57909256 0.0028973545
0.015530382 0.0010828173 -0.0083517637 0.13649434 0.79715163 -0.58814859 0.00410095
0.028419811 -0.023667933 -0.007068716 0.98950613 -0.038965221 -0.13913806 0.0013773827
0.028399441 -0.022626683 -0.0061943852 0.99236137 -0.027587324 -0.12024089 0.00064719748
0.028544534 -0.018157205 -0.0075215572 0.98712045 -0.042863566 -0.15412988 0.00081809348
0.028557623 -0.015612198 -0.0073224418 0.96806931 0.096135162 -0.23151657 0.00083413441
-0.0018802794 -0.012375631 -0.0068923142 -0.92339081 0.3486276 -0.16064917 0.0014023704
0.02837708 -0.012617366 -0.0065396079 0.95174742 0.14750035 -0.26911056 0.0021959331
-0.001255331 -0.010297453 -0.0063126558 -0.9003318 0.38621211 -0.20060611 0.0022651325
-0.00058065623 -0.008851748 -0.0065242853 -0.867562 0.42160073 -0.26379731 0.0017157469
0.02759813 -0.0097358832 -0.0067050159 0.89183545 0.304396 -0.33462313 0.0009161646
0.00069432904 -0.0066757165 -0.0067257062 -0.80118161 0.50170028 -0.3261975 0.0021375075
0.025772793 -0.0061345389 -0.0073423581 0.80500263 0.43539384 -0.40299237 0.0011277766
0.026774552 -0.0070225 -0.0061389259 0.84256399 0.39402735 -0.36718982 0.0010930147
0.0018514317 -0.0044858465 -0.0060439473 -0.74196565 0.54962909 -0.38392037 0.0020902164
0.0032425392 -0.0032868437 -0.0067132264 -0.68638027 0.59480357 -0.41843867 0.0016615958
0.022960708 -0.0026209706 -0.0078797359 0.64699113 0.61149734 -0.45549262 0.0043754769
0.02465372 -0.0037852307 -0.0066333599 0.73976696 0.52198011 -0.42459586 0.0018372509
0.0044428506 -0.0016939053 -0.0061531328 -0.60766608 0.64994162 -0.45641848 0.0013964348
0.0065941038 -0.00041580875 -0.0067371801 -0.47658077 0.71959841 -0.5050236 0.0020744004
0.0091431234 0.00046963966 -0.007584122 -0.29534799 0.77705956 -0.55583096 0.002237987
0.019529309 0.00036714296 -0.0074853124 0.34086618 0.7523818 -0.56367707 0.0029186371
0.021951703 -0.00070805894 -0.0065729786 0.57174164 0.66536832 -0.47999632 0.0034872438
0.023651209 -0.0018103139 -0.0058246129 0.64854836 0.61382103 -0.45012072 0.0015564571
0.0078265527 0.0012175238 -0.0055418336 -0.45368713 0.7141825 -0.53302091 0.0010719884
0.0099520516 0.001677972 -0.0063114711 -0.29495373 0.79043806 -0.53685194 0.002414888
0.012725332 0.0021792639 -0.0066399281 -0.12503883 0.82755017 -0.54728973 0.0028306774
0.015870048 0.0022101903 -0.0066399598 0.10748939 0.82452947 -0.55551529 0.0031667207
0.018547246 0.0016499748 -0.0063440111 0.34220544 0.77238548 -0.53508514 0.0033411575
0.020532481 0.0013356006 -0.00531322 0.50628394 0.70979953 -0.4897562 0.0014387955
0.028775424 -0.021095952 -0.0040090256 0.99160761 -0.058690272 -0.11519445 0.00080010272
0.028864499 -0.019984817 -0.0026538991 0.99305362 -0.056813475 -0.10303778 0.00071794679
0.029269915 -0.014797226 -0.0036054277 0.98970491 -0.027489312 -0.14045796 0.0028356283
0.029288452 -0.015742099 -0.0033279979 0.98970556 -0.027492158 -0.14045294 0.0028315138
-0.002083234 -0.011753729 -0.0036712312 -0.92926514 0.3245863 -0.17638026 0.00051255745
0.028725479 -0.011728412 -0.0047688209 0.95843935 0.12787612 -0.25503302 0.001532876
0.029317072 -0.012943104 -0.0028996253 0.96947712 0.11118746 -0.21852097 0.0006841431
-0.0014981721 -0.0095877107 -0.0038021826 -0.92828661 0.31356996 -0.19989447 0.0010557291
0.028507965 -0.009458771 -0.0038139515 0.92761523 0.24219367 -0.28438058 0.0015243612
-0.0011504691 -0.0077899452 -0.002737435 -0.93228412 0.28579003 -0.22174403 0.00086000556
-0.00021201052 -0.0063295439 -0.0037562437 -0.85259742 0.42063397 -0.31007215 0.0017449935
0.027633717 -0.0066082375 -0.0035879212 0.86868483 0.3653329 -0.33454233 0.00069776666
0.0011916612 -0.0037310235 -0.0035941554 -0.77463323 0.49857011 -0.38906434 0.0019102599
0.0025900928 -0.0026277804 -0.0047090971 -0.70760918 0.56190187 -0.42843384 0.0042179534
0.025678549 -0.0031548587 -0.0040052594 0.78936988 0.47988024 -0.3828969 0.000616337
0.026751259 -0.00429628 -0.0031328788 0.8203755 0.44581512 -0.35809612 0.0011311533
0.0020147027 -0.0018112229 -0.0026980438 -0.71043223 0.56891042 -0.41427878 0.0019317993
0.0036928491 -0.00064978935 -0.0036859547 -0.66077578 0.60508925 -0.44411984 0.0012819881
0.0057420046 0.00052351714 -0.0045975023 -0.56686616 0.65402722 -0.50091034 0.0011973303
0.022686884 0.00037530833 -0.0042244517 0.61345428 0.63832963 -0.46498302 0.0018298787
0.024441184 -0.0010433845 -0.0034873094 0.69917977 0.57484609 -0.42508775 0.0016924868
0.004790883 0.0012768451 -0.002541902 -0.59672695 0.61946028 -0.51008409 0.0010413066
0.0069036311 0.0021923555 -0.0034172111 -0.44876802 0.71413857 -0.53722751 0.0020276958
0.0096300645 0.0030078411 -0.0042657205 -0.27706999 0.78420705 -0.55520397 0.0018153746
0.012853933 0.0034382881 -0.0048735039 -0.1050396 0.82175386 -0.56007797 0.0024589892
0.015887396 0.0034382634 -0.0048768893 0.11017339 0.82489169 -0.55445069 0.0030725645
0.018922213 0.0030090066 -0.004159071 0.31365737 0.77681088 -0.54606217 0.002200559
0.021497328 0.0019669856 -0.0033587755 0.5002017 0.71486551 -0.48863646 0.0014395848
0.0082373451 0.003939474 -0.0021995627 -0.42189953 0.72174883 -0.54870713 0.001277509
0.010100545 0.004256051 -0.0028340588 -0.2809276 0.7516374 -0.59675866 0.0016943262
0.012782811 0.0045700511 -0.0032966398 -0.095967658 0.81711775 -0.56842661 0.0024153413
0.015673772 0.0046009133 -0.0032614481 0.10090172 0.80664062 -0.58236569 0.0029080925
0.018352583 0.0042129532 -0.0028199367 0.33319542 0.78130555 -0.52777129 0.0022209377
0.028901802 -0.019539034 -0.0020863735 0.99305362 -0.056813519 -0.10303786 0.00071793783
0.029375412 -0.011557197 -0.0020264112 0.97069144 0.11180563 -0.2127385 0.00072154729
-0.0019644834 -0.0093645593 -0.00078639621 -0.92864811 0.28717768 -0.23482256 0.00086937397
0.028937018 -0.0085116681 -0.0015506768 0.94405687 0.22036858 -0.24534525 0.0008840973
0.029472388 -0.010175139 -0.00057487143 0.94405645 0.22036989 -0.24534599 0.00088374561
-0.0013671611 -0.0067201564 -0.00057257432 -0.92331988 0.2905716 -0.25109458 0.0012434998
-0.00068401481 -0.0056901257 -0.0016034865 -0.89929491 0.32035416 -0.29772782 0.003904908
0.028581344 -0.0064588608 -0.0005967808 0.91792011 0.29718959 -0.26287058 0.0013529992
-0.0011612258 -0.0050016399 0.00058999425 -0.9222396 0.27977595 -0.2668325 0.0015816346
-5.819439e-05 -0.0037031453 -0.00083190249 -0.83211827 0.43322578 -0.34625804 0.0012569868
0.027446672 -0.0036732415 -0.00057053193 0.86045247 0.41058823 -0.30172649 0.0012925864
0.0013334294 -0.00090785499 -0.00034463638 -0.74622345 0.5188148 -0.41711122 0.002014477
0.0029216572 0.000344306 -0.0013356977 -0.63111991 0.59608078 -0.49636218 0.0012759196
0.02542557 -0.00042781082 -0.00078747468 0.75567895 0.53223228 -0.38167801 0.001079771
0.026845029 -0.0020089005 0.00012803823 0.82935584 0.44302809 -0.34043354 0.0013254187
0.0021463772 0.0011409766 0.00064041978 -0.67719048 0.53983092 -0.49999559 0.0019873134
0.0039644013 0.0021379113 -0.00053449813 -0.60458708 0.61128747 -0.51068783 0.0024075257
0.0059592975 0.0031860915 -0.0013607279 -0.53233099 0.64675456 -0.54619795 0.0012256713
0.022187745 0.0030531592 -0.0009842068 0.55029166 0.70136136 -0.45306885 0.0028130931
0.023872068 0.0018821361 -0.00029893685 0.6650334 0.6194514 -0.41714579 0.00081373908
0.0049802847 0.003974596 0.00051781302 -0.56361735 0.63169098 -0.53226107 0.0012036728
0.0070737866 0.0047437968 -0.00034879288 -0.42089486 0.71271104 -0.56115103 0.0024304762
0.0097139031 0.0056455433 -0.00083393091 -0.27475992 0.75633925 -0.59368163 0.0020750382
0.012632207 0.0060138945 -0.0013104379 -0.078732453 0.8102743 -0.58073807 0.0022820137
0.015929727 0.0059809461 -0.0012572655 0.11898151 0.81669754 -0.56466663 0.002835298
0.018964816 0.0054131672 -0.00065290788 0.38137013 0.7543546 -0.53432757 0.0038538456
0.021208072 0.0043988582 -0.00013876706 0.51388246 0.71522075 -0.47369191 0.0020158552
0.01037886 0.0069439691 0.00051178876 -0.26851967 0.76360953 -0.58719474 0.002083709
0.012898798 0.007138975 0.00012995722 -0.066465601 0.80328459 -0.59187514 0.0023108688
0.015631573 0.0070725214 0.00018291781 0.14221928 0.80905527 -0.57026583 0.0029476278
0.017978866 0.0068125594 0.00069951778 0.33570573 0.78146678 -0.52593845 0.0020429308
-0.0021091481 -0.0083173122 0.0011384166 -0.96302968 0.19868365 -0.18193035 0.0020995149
0.029609874 -0.0085590538 0.0014829612 0.9470101 0.23747838 -0.21627744 0.0005267433
-0.0019976157 -0.0064381845 0.0024095564 -0.96024972 0.18121532 -0.21232387 0.0036381239
0.029206757 -0.0059649302 0.0025528846 0.93158889 0.29228151 -0.21613328 0.00072402897
0.029708777 -0.0078698155 0.002963332 0.94592929 0.25737634 -0.19742154 0.00029213386
-0.0014705105 -0.0039381706 0.0026798602 -0.92215782 0.2842226 -0.26237831 0.003406133
-0.00069040281 -0.0031138812 0.0013605631 -0.86852038 0.36354053 -0.33691323 0.0033566211
0.028362582 -0.0038613901 0.0020704502 0.91526747 0.33393645 -0.22532615 0.0016487701
-0.0011710869 -0.0019320154 0.0036403663 -0.89513355 0.29210371 -0.33676597 0.0014827794
8.9615001e-05 -0.00057940395 0.0022711237 -0.80673772 0.40231994 -0.4327966 0.0013577985
0.026053369 0.00019942434 0.0013892031 0.79601955 0.51043129 -0.32528877 0.00094008574
