# .PCD v0.7 - Point Cloud Data file format
VERSION 0.7
FIELDS x y z normal_x normal_y normal_z curvature
SIZE 4 4 4 4 4 4 4
TYPE F F F F F F F
COUNT 1 1 1 1 1 1 1
WIDTH 554
HEIGHT 1
VIEWPOINT 0 0 0 1 0 0 0
POINTS 554
DATA ascii
-0.0038337207 0.034292847 -0.034420632 0.56387764 0.32355088 -0.75983995 0.0026169051
-0.041150101 0.038557705 -0.034709685 -0.41951343 -0.25649491 -0.87075764 0.012686943
-0.038869523 0.038446069 -0.035624154 -0.36919531 -0.17457108 -0.91280872 0.011450297
-0.035964645 0.038426206 -0.036790825 -0.36588812 -0.055677522 -0.92899191 0.0048319683
-0.01119853 0.038938217 -0.036843389 0.39085534 0.40019798 -0.82889909 0.0018765716
-0.0088048726 0.038337395 -0.035812128 0.45759928 0.43833965 -0.77360272 0.0047337981
-0.0065390868 0.037617173 -0.034780696 0.52188128 0.45852482 -0.7193017 0.0030082541
-0.041563049 0.041168489 -0.034767382 -0.29084426 0.091722913 -0.95236373 0.013532721
-0.038831912 0.041342583 -0.035604406 -0.29206455 0.2450936 -0.92446059 0.01349869
-0.035910606 0.041444719 -0.036478892 -0.29035693 0.25128514 -0.92333561 0.0071466947
-0.033295441 0.042060602 -0.037058942 -0.25105399 0.32660297 -0.91120929 0.0077863387
-0.031115737 0.042679068 -0.037336096 -0.22477432 0.4600251 -0.85898393 0.016392153
-0.017144663 0.042588614 -0.037018679 0.23405255 0.65135008 -0.72177726 0.0034375135
-0.014601884 0.041764434 -0.036618374 0.32664421 0.54863614 -0.76961154 0.0026236165
-0.011890965 0.041178774 -0.03568431 0.39720452 0.58379418 -0.70810515 0.0044418201
-0.0094220862 0.040381685 -0.03484229 0.47069377 0.60157233 -0.64541316 0.002841729
-0.040967382 0.043118641 -0.034486458 -0.23257664 0.49552006 -0.83687991 0.011815204
-0.038564775 0.043483082 -0.034903817 -0.21804482 0.56336623 -0.79691589 0.011874136
-0.035770949 0.044058114 -0.035236388 -0.22738236 0.5958035 -0.77026969 0.0084840665
-0.032863416 0.044248555 -0.035829447 -0.17229749 0.62184244 -0.76395386 0.00744686
-0.029967619 0.044412937 -0.036313802 -0.1414142 0.61864102 -0.77284235 0.0042069042
-0.026864229 0.044717394 -0.036439765 -0.051975768 0.65528673 -0.75359005 0.0037753035
-0.023835327 0.044711784 -0.036491897 0.042300157 0.75221765 -0.65755546 0.0026745088
-0.020726258 0.044545427 -0.036152773 0.17647904 0.71786141 -0.67344642 0.0047653024
-0.017896688 0.044055078 -0.035813123 0.24965714 0.73069334 -0.63541991 0.0039185169
-0.014913488 0.043495063 -0.035121147 0.33125886 0.69589537 -0.6371792 0.0028975271
-0.01287842 0.042964894 -0.034573063 0.38914004 0.73586917 -0.55413592 0.0032704757
-0.029809659 0.045998558 -0.034626264 -0.096178748 0.77487731 -0.62475187 0.0026813576
-0.026960528 0.045954768 -0.035020806 -0.036711589 0.79367626 -0.60723168 0.0028581819
-0.023925507 0.045957509 -0.034996089 0.053737987 0.80495965 -0.59089094 0.0029456685
-0.021781178 0.046006776 -0.034552298 0.14023721 0.83887935 -0.52594191 0.0050271833
-0.013850641 0.015713912 -0.031614169 -0.29394418 -0.72170419 -0.62668967 0.0039683967
-0.011719873 0.015369657 -0.031890236 -0.15440902 -0.68838483 -0.70872021 0.0040865415
-0.0087632257 0.015068833 -0.031991329 -0.025526037 -0.6273728 -0.77830058 0.0038868568
-0.0058592688 0.015127275 -0.031876244 0.11366455 -0.55443919 -0.82442558 0.002680683
-0.0033770252 0.015471455 -0.031596623 0.2519784 -0.468321 -0.84686619 0.001821016
-0.01996563 0.018768217 -0.031790808 -0.45333871 -0.74429756 -0.49041316 0.0018273372
-0.017734041 0.018084744 -0.032441333 -0.36428177 -0.72942889 -0.57899249 0.002981002
-0.014893211 0.017407915 -0.032971621 -0.19981584 -0.69103229 -0.69465679 0.0029375583
-0.011827597 0.017172348 -0.033431247 -0.083243579 -0.61074287 -0.78744125 0.0020535223
-0.0087188259 0.017269954 -0.033534341 0.065780096 -0.53156877 -0.84445691 0.0036831833
-0.0057344958 0.017400382 -0.033175126 0.1843797 -0.44640762 -0.87562799 0.0028287249
-0.0026903702 0.017433453 -0.032349136 0.29792383 -0.38759446 -0.87235993 0.0020834813
-0.00034804596 0.017990308 -0.031676028 0.37668306 -0.32302883 -0.86819482 0.0018900719
-0.023375565 0.021253597 -0.032362383 -0.49402678 -0.74028242 -0.45598179 0.0031213202
-0.020947007 0.020251542 -0.033079818 -0.39338499 -0.73648727 -0.55030423 0.0029050638
-0.018227797 0.019436765 -0.033772416 -0.28347671 -0.71468168 -0.63943028 0.0041128057
-0.016148349 0.019096684 -0.034252033 -0.22990286 -0.69097531 -0.68534493 0.0041587995
-0.0052620461 0.019611128 -0.034085952 0.221255 -0.37913039 -0.89850235 0.0015268252
-0.0026547411 0.020410404 -0.03345608 0.37967572 -0.25853905 -0.88825887 0.0011280886
0.00012099836 0.020528167 -0.032222643 0.45067534 -0.20923157 -0.86782128 0.0007746304
0.0017654616 0.02131789 -0.03151013 0.48322865 -0.19561018 -0.85336202 0.001407312
-0.028479319 0.024660673 -0.031960472 -0.557446 -0.74107021 -0.37425774 0.0018077445
-0.026578788 0.023753013 -0.032881927 -0.51838279 -0.73602206 -0.43537438 0.0049268883
-0.024227561 0.022606988 -0.033607721 -0.42472106 -0.729882 -0.53561586 0.0035205127
-0.0020575582 0.023305323 -0.03391657 0.43824556 -0.14777856 -0.88662416 0.0010462819
0.00012144912 0.023490332 -0.032793894 0.49703249 -0.099767648 -0.86197746 0.00061714958
0.0019466174 0.023448989 -0.031682514 0.54052418 -0.088732347 -0.83663619 0.0016178503
-0.031597555 0.027459912 -0.032599628 -0.59355778 -0.70897973 -0.38083729 0.0019887642
-0.029800024 0.026267849 -0.033055656 -0.55640143 -0.72055328 -0.4137879 0.0046228147
-0.027684573 0.025197703 -0.033964768 -0.48837477 -0.66541815 -0.56454295 0.0022021686
-0.0016344953 0.026408909 -0.034068312 0.5023886 -0.037729379 -0.86381835 0.0012688286
0.00013155257 0.026384464 -0.032986425 0.53176254 -0.0078174984 -0.84685743 0.0013282445
0.002011803 0.026050478 -0.031727403 0.5942055 0.041997842 -0.80321604 0.0015573204
-0.034772661 0.030310886 -0.032827146 -0.59447145 -0.69746494 -0.40018284 0.0031027761
-0.032990623 0.028949492 -0.03314849 -0.57584924 -0.69695276 -0.42738086 0.0046309675
-0.0016844373 0.029512195 -0.034011342 0.55090523 0.088316813 -0.82988167 0.001409209
0.00019184826 0.02926201 -0.032735489 0.58230519 0.11211017 -0.80520314 0.00099613785
0.0018236265 0.028839784 -0.031565174 0.62403876 0.16872983 -0.76295853 0.0016001731
-0.038208164 0.033162456 -0.032682788 -0.56934851 -0.67315054 -0.47192234 0.0044007893
-0.036163341 0.031753361 -0.033225685 -0.59310257 -0.69593847 -0.40484449 0.0024317217
-0.0020276324 0.032410681 -0.033698317 0.59453732 0.22124906 -0.77302927 0.0015846533
-8.3869323e-05 0.032102391 -0.032244749 0.62651402 0.2715469 -0.73057681 0.0021923161
-0.043793105 0.036547683 -0.031801436 -0.36806187 -0.69590944 -0.61663651 0.0066091423
-0.041605696 0.035884842 -0.032793052 -0.49551105 -0.61410391 -0.61428434 0.0077153235
-0.039363481 0.03469418 -0.033500731 -0.52531111 -0.58092946 -0.62174684 0.015701607
-0.004525084 0.036164649 -0.034125425 0.57910568 0.34190148 -0.7400946 0.0036630139
-0.0026538474 0.035292275 -0.032996118 0.60821354 0.35422847 -0.71035093 0.001905969
-0.00080059608 0.034583081 -0.031769607 0.62721252 0.41550487 -0.65875649 0.0025258856
-0.052588411 0.039791103 -0.031409308 -0.1652489 -0.53997111 -0.82530242 0.051777542
-0.050532285 0.039527934 -0.031700365 -0.17423393 -0.37960178 -0.90859509 0.026998565
-0.047687545 0.038944341 -0.032144301 -0.22249864 -0.58340108 -0.78111303 0.011240995
-0.044821985 0.038455755 -0.032971568 -0.40059456 -0.47954041 -0.7807464 0.024267338
-0.042446863 0.037855722 -0.033847019 -0.47380427 -0.38445398 -0.79227817 0.017108269
-0.0074594277 0.03953376 -0.034123108 0.5382598 0.58147025 -0.61005634 0.002820635
-0.005447417 0.038526628 -0.033200286 0.5698306 0.49836648 -0.65339422 0.0025658188
-0.0035037387 0.037727058 -0.032119188 0.58649278 0.5521332 -0.59260029 0.0020270189
-0.059688766 0.041731033 -0.032013148 0.015698953 -0.21207529 -0.97712725 0.033782382
-0.056882311 0.04170179 -0.031993404 -0.018155383 -0.34951526 -0.9367547 0.01794517
-0.05381472 0.041476667 -0.032058649 -0.063076004 -0.23284815 -0.97046548 0.014892553
-0.05070382 0.041435536 -0.032475024 -0.13787903 -0.20228419 -0.96957231 0.023735614
-0.047798142 0.041378684 -0.033050463 -0.2115252 -0.1699886 -0.96247649 0.032137118
-0.044882454 0.041305676 -0.033789035 -0.27962232 0.016286924 -0.9599719 0.017007466
-0.043017663 0.041548073 -0.034267534 -0.35965401 0.047682211 -0.93186665 0.014242822
-0.011017039 0.042459987 -0.033847585 0.4280614 0.71718347 -0.54991943 0.0013689119
-0.0087158829 0.041458376 -0.033109121 0.46751633 0.70567107 -0.53240669 0.0020185967
-0.006503704 0.040550835 -0.03219384 0.54973316 0.62344503 -0.55597645 0.0018656459
-0.059494004 0.044391997 -0.032325089 -0.064624377 0.15470435 -0.98584497 0.038719844
-0.056854799 0.044303928 -0.032187417 0.063450776 0.22649029 -0.97194451 0.025860917
-0.053806603 0.044311441 -0.032118343 0.019705309 0.24141845 -0.97022104 0.015614199
-0.050733138 0.044298675 -0.032240961 -0.06375812 0.26034328 -0.96340865 0.03767027
-0.047789332 0.044323061 -0.032446772 -0.086293317 0.34038946 -0.93631643 0.044885393
-0.044873618 0.044211596 -0.032915175 -0.17788975 0.60458958 -0.7764191 0.023278808
-0.041973427 0.044303179 -0.03343147 -0.25038794 0.61887276 -0.74451488 0.018993787
-0.038930509 0.045052283 -0.033428408 -0.18049695 0.7645691 -0.61875272 0.0041107638
-0.035989847 0.045506567 -0.033713877 -0.176035 0.79897314 -0.5750249 0.0047910223
-0.033749506 0.045606803 -0.034240395 -0.14338936 0.82453519 -0.54734015 0.004347635
-0.017650884 0.045538276 -0.03367693 0.24475345 0.83773077 -0.48816276 0.0019817397
-0.014842056 0.04481129 -0.033157974 0.31539664 0.82412881 -0.47046444 0.0016306674
-0.012035633 0.043781541 -0.032708764 0.40445083 0.77043128 -0.49280348 0.0028511633
-0.0099109113 0.043259513 -0.031724945 0.45502827 0.75200981 -0.47689685 0.002475685
-0.059159756 0.046428807 -0.031735852 0.082990386 0.2540122 -0.96363401 0.025728824
-0.057176117 0.046056028 -0.03160087 0.073031023 0.34613872 -0.93533659 0.025710251
-0.055216506 0.045919817 -0.031392619 0.056813989 0.33158025 -0.94171482 0.019250536
-0.041183721 0.045889735 -0.031666353 -0.1360628 0.78034669 -0.61036551 0.0039212457
-0.038659416 0.046207204 -0.031762093 -0.15053587 0.81702065 -0.55661142 0.0046648416
-0.035638224 0.046412587 -0.032328539 -0.14362983 0.85560822 -0.49729773 0.0040227766
-0.032617524 0.046540283 -0.033023782 -0.1341493 0.86679101 -0.48028874 0.0036077511
-0.029656382 0.046937648 -0.032978401 -0.096696839 0.85860443 -0.50343645 0.0033385339
-0.026806474 0.047051519 -0.033002719 0.0015468947 0.88470834 -0.46614239 0.0031540736
-0.0239312 0.046925973 -0.033204615 0.058453038 0.88728333 -0.45750582 0.0049733026
-0.020874199 0.046606518 -0.033080585 0.16421761 0.89268577 -0.41969591 0.002462412
-0.018404776 0.046350591 -0.03243918 0.23472075 0.87793893 -0.41728815 0.0026659172
-0.015811652 0.045875352 -0.031797275 0.32383958 0.85164708 -0.41209865 0.0018893313
-0.011158827 0.012583019 -0.028834431 -0.33445466 -0.76489407 -0.55052441 0.0034446835
-0.0087017715 0.01218213 -0.029252278 -0.17148985 -0.73490483 -0.65612972 0.0044222083
-0.0057542678 0.011861707 -0.02931514 -0.055912498 -0.69406062 -0.71774197 0.0027177655
-0.0027818531 0.011894392 -0.029120749 0.1278863 -0.60210472 -0.78810853 0.0030650415
-0.00010246225 0.012291176 -0.028765347 0.27213782 -0.50860167 -0.81686312 0.0024564993
0.0016879779 0.01274201 -0.02840255 0.28441069 -0.50260532 -0.81639361 0.0017889008
-0.016873218 0.015510034 -0.029091049 -0.45561478 -0.78414196 -0.42135078 0.0026147736
-0.014752468 0.014926446 -0.029981131 -0.3424204 -0.7713896 -0.53638273 0.0024259028
-0.01196746 0.013950586 -0.030210968 -0.2260648 -0.75732201 -0.61266476 0.0031109543
-0.0089011937 0.013594251 -0.030689862 -0.093415275 -0.70699167 -0.70102519 0.0031015691
-0.0056609754 0.013660295 -0.030812001 0.050520275 -0.59830374 -0.79967511 0.0025642479
-0.0025503619 0.014191834 -0.030621795 0.20871064 -0.50569367 -0.8370865 0.0036837081
0.00014624372 0.014455831 -0.02990956 0.31607172 -0.42675644 -0.84733564 0.0024179267
0.0026837061 0.014810586 -0.028967593 0.41053352 -0.37222689 -0.83241177 0.0015378159
-0.020354584 0.018071402 -0.029959733 -0.5073725 -0.78644061 -0.35225597 0.0026048447
-0.017996062 0.0167215 -0.030135876 -0.48315048 -0.79255998 -0.37204075 0.0018807803
-0.016062951 0.016174186 -0.030990524 -0.35662892 -0.77544272 -0.52106082 0.0051785647
0.0005560671 0.017053246 -0.030908976 0.38202715 -0.3358759 -0.86095452 0.0026570153
0.0029556141 0.017477497 -0.029841956 0.46965578 -0.28328604 -0.83616525 0.0016567253
0.005065409 0.017655514 -0.028637938 0.52190226 -0.24243356 -0.81782889 0.0011420985
-0.025591739 0.021517005 -0.029259784 -0.58285385 -0.77433252 -0.2463547 0.0017172048
-0.023765443 0.020397227 -0.029948073 -0.5515275 -0.76535618 -0.33173382 0.0019545716
-0.021899292 0.019265827 -0.030411584 -0.53030568 -0.78113329 -0.32955509 0.001441555
0.001240795 0.019225817 -0.031329677 0.4294686 -0.20032823 -0.88058227 0.0028092158
0.0031482433 0.020238124 -0.030446943 0.53867662 -0.14440805 -0.83004451 0.00085047033
0.0053778565 0.02029472 -0.028977787 0.58092344 -0.11971159 -0.80510688 0.0012276068
-0.02907457 0.024420839 -0.029775802 -0.5963316 -0.76852387 -0.23186141 0.0038178114
-0.02695312 0.022856651 -0.030156242 -0.56456703 -0.78071076 -0.26787063 0.0027511157
0.0034610392 0.023163781 -0.030638462 0.58494747 -0.035516962 -0.81029314 0.0010347551
0.0054264278 0.023281854 -0.02916595 0.62025374 -0.00184731 -0.78439897 0.0016977083
-0.032069635 0.027139571 -0.030779753 -0.63541806 -0.74341482 -0.20875396 0.0018636244
-0.030289674 0.025539689 -0.03030614 -0.59994572 -0.76898819 -0.22073127 0.0035050518
0.0035181907 0.026359571 -0.030548306 0.6216324 0.076184772 -0.77959543 0.0012777316
0.0053179073 0.026260203 -0.029037453 0.6652649 0.12291218 -0.73642051 0.0019938168
-0.035158247 0.029785758 -0.030541457 -0.62948269 -0.74842471 -0.20883477 0.0018202019
-0.03343609 0.028203087 -0.030167334 -0.62885123 -0.749529 -0.20676646 0.0019475133
0.0032639732 0.029474316 -0.030142602 0.66121888 0.23007993 -0.7140398 0.0025336195
0.0049355985 0.028865688 -0.028751316 0.68641913 0.271292 -0.67470694 0.0020209861
-0.038669955 0.032748681 -0.030512063 -0.56905019 -0.6905055 -0.44652435 0.0045604082
-0.036405284 0.031045984 -0.031306073 -0.59783179 -0.70761347 -0.37667012 0.0025762282
0.00099844998 0.033074908 -0.030864483 0.64305574 0.32380098 -0.69399732 0.0021671094
0.0025500935 0.032251108 -0.02967334 0.68901575 0.35843137 -0.62990814 0.0032204697
-0.044630039 0.036498159 -0.030447705 -0.39028147 -0.59399933 -0.70345223 0.01953239
-0.041500099 0.034815371 -0.030718191 -0.48531118 -0.70233679 -0.52076495 0.0042630797
-0.0015326033 0.036611792 -0.031064503 0.63710648 0.48824304 -0.59641767 0.0011026827
0.00020934595 0.035383798 -0.030103941 0.65754837 0.44505385 -0.60791218 0.0019367421
0.0019806363 0.03453663 -0.028755842 0.67980176 0.5092023 -0.52780926 0.0021290462
-0.059593718 0.039299492 -0.030023973 0.12334327 -0.46251351 -0.87799072 0.032367036
-0.056817852 0.03922604 -0.030057115 -0.032724973 -0.74919295 -0.66154295 0.014307419
-0.053806908 0.03910834 -0.030300127 -0.12169107 -0.73890245 -0.66273254 0.018955752
-0.050841197 0.03853891 -0.03032022 -0.24018548 -0.66160583 -0.71034408 0.016700003
-0.047884583 0.037744075 -0.030480169 -0.29015577 -0.6145997 -0.7335372 0.011101245
-0.045999929 0.037112907 -0.030341379 -0.3545194 -0.73803502 -0.57412565 0.0050695958
-0.0044546444 0.039839264 -0.030901415 0.57488126 0.6779024 -0.45821372 0.002474013
-0.0024675149 0.038452409 -0.030170437 0.63293433 0.62864119 -0.45188987 0.0017874704
-0.00066155824 0.037441466 -0.029117677 0.64463842 0.57172686 -0.50751334 0.0018475546
-0.060119681 0.04025216 -0.031163966 0.017953971 -0.26897934 -0.9629786 0.025655061
-0.056980073 0.040239111 -0.031301156 -0.05261815 -0.4324998 -0.90009731 0.015511244
-0.0076693995 0.042329937 -0.030827098 0.51777405 0.74619442 -0.41845417 0.0037958322
-0.0057829777 0.04143019 -0.029974027 0.51976061 0.7691564 -0.37181637 0.0015671473
-0.0037410541 0.040292103 -0.029222686 0.58803385 0.68736237 -0.42632046 0.0018371359
-0.013875771 0.04553682 -0.030890344 0.35921803 0.85616314 -0.37141228 0.002433622
-0.011814797 0.044968463 -0.029878605 0.3965967 0.85982245 -0.32158437 0.0008989317
-0.0090295924 0.043592006 -0.02982155 0.46444216 0.81758207 -0.34037215 0.0019899155
-0.059038747 0.047610309 -0.030388514 0.012558527 0.33937013 -0.94056904 0.025210842
-0.056902219 0.047116172 -0.030295754 0.072972044 0.34614944 -0.93533719 0.025713447
-0.053897172 0.046334185 -0.030618066 0.081136927 0.38676795 -0.91860074 0.017584529
-0.050916474 0.045986783 -0.030783338 -0.020740755 0.36879078 -0.929281 0.021151984
-0.048801702 0.04605655 -0.030148618 -0.021851329 0.4802314 -0.87686968 0.018257571
-0.043936856 0.046019904 -0.030481987 -0.092170112 0.77408659 -0.62633437 0.001858284
-0.041817117 0.04618207 -0.030605335 -0.17165108 0.70569563 -0.68740791 0.016620805
-0.038740698 0.046611588 -0.03068449 -0.1475269 0.8553707 -0.49656495 0.0014881301
-0.035824154 0.047120735 -0.03044658 -0.13488853 0.89183784 -0.43177581 0.00088474515
-0.033064164 0.047521405 -0.030395854 -0.13110472 0.89700305 -0.42213404 0.00045600731
-0.030317768 0.047741458 -0.030770762 -0.10507546 0.89894873 -0.42526504 0.00068433245
-0.023085836 0.047743946 -0.030748924 0.10087129 0.92009729 -0.37847835 0.0021451467
-0.020617491 0.047545627 -0.030181291 0.18991131 0.91913903 -0.34513342 0.00094477227
-0.017843476 0.04690998 -0.030371748 0.22630887 0.91445458 -0.33549538 0.0012950153
-0.015253281 0.046254944 -0.030056873 0.33301908 0.87952346 -0.33990714 0.0015023175
-0.0083162906 0.0095802797 -0.025902215 -0.34217459 -0.80080509 -0.49155653 0.0034364269
-0.0057318201 0.0091124848 -0.026347883 -0.17409001 -0.76999336 -0.61384273 0.0042588469
-0.0027359552 0.0088100266 -0.026390927 -0.014191508 -0.71862799 -0.69524986 0.0046419902
6.9989357e-05 0.0089119347 -0.026220635 0.14980933 -0.64136606 -0.7524671 0.003120329
0.0027319887 0.0092900256 -0.025797192 0.28737038 -0.56086677 -0.7764321 0.0015255973
-0.013813796 0.012546092 -0.026346888 -0.46740553 -0.81221294 -0.34905896 0.0023117147
-0.011741234 0.011715731 -0.026951104 -0.37532881 -0.82393992 -0.42456019 0.0040532127
-0.0090732109 0.010750514 -0.027227111 -0.28180453 -0.80000913 -0.52969003 0.0066247378
-0.005904289 0.010374256 -0.027810186 -0.093867689 -0.72079808 -0.68675977 0.0032429164
-0.0025865794 0.010410921 -0.027899148 0.059872925 -0.67001414 -0.73992991 0.0026384871
0.00029753754 0.010892761 -0.027698472 0.19595523 -0.57402718 -0.79504359 0.0020930546
0.0030476758 0.011424054 -0.027056217 0.35505798 -0.48672944 -0.79814047 0.0028446885
0.0057304311 0.011836417 -0.025988493 0.43386304 -0.41808382 -0.79810321 0.0013892993
-0.017327311 0.014990538 -0.027061537 -0.4941296 -0.81118113 -0.31276372 0.0019184273
-0.01507326 0.013690628 -0.027303062 -0.50242686 -0.80961311 -0.30346972 0.0018028631
-0.013304221 0.013185036 -0.0283287 -0.40693852 -0.80755371 -0.42691693 0.0031014658
0.0037489855 0.013783127 -0.027991273 0.40557081 -0.36692598 -0.83718437 0.0014278954
0.0060682739 0.014401402 -0.026934726 0.49288997 -0.32092285 -0.80874473 0.0016274464
0.0081762131 0.014770429 -0.025693728 0.55164844 -0.2825821 -0.78474915 0.001231188
-0.020771045 0.017418656 -0.027184218 -0.56281066 -0.79643738 -0.22120482 0.0015307217
-0.0189602 0.016031267 -0.026831193 -0.56801701 -0.79046351 -0.22918172 0.0014588539
0.0065265684 0.017084293 -0.027505212 0.55086994 -0.20948562 -0.80787253 0.0021479737
0.0085168015 0.017325308 -0.026094135 0.61345053 -0.15572809 -0.77422678 0.0014717729
-0.026211223 0.021654632 -0.026483012 -0.61023206 -0.77866644 -0.14592966 0.0011434018
-0.023504458 0.019490829 -0.027323361 -0.58469766 -0.79096448 -0.18028812 0.00076922122
0.0069116834 0.020168556 -0.027803726 0.61408502 -0.079119399 -0.78526413 0.0012355701
0.0087867379 0.020336147 -0.026257977 0.66094011 -0.042485517 -0.74923503 0.0016551391
-0.02932179 0.024320032 -0.026344998 -0.6410746 -0.75809461 -0.11964945 0.00064908934
-0.0265551 0.02202126 -0.027990116 -0.62607467 -0.75760102 -0.18458408 0.0020334639
0.0069875154 0.023352288 -0.027860686 0.65761995 0.039454121 -0.752316 0.0013576557
0.008638043 0.02336251 -0.026299551 0.70480913 0.086595565 -0.70409179 0.0020037489
-0.033213492 0.027788889 -0.027518673 -0.63825506 -0.75410676 -0.15476933 0.0015589677
0.0068273558 0.026518105 -0.027530173 0.69094175 0.15922008 -0.70515847 0.0013207207
0.0082912836 0.026220353 -0.026066156 0.72762269 0.21652761 -0.65090787 0.0021111669
0.0062916628 0.029375482 -0.027027518 0.71572614 0.30469787 -0.62840688 0.0014446856
0.0079110637 0.028355246 -0.02562711 0.74157542 0.35153574 -0.57139164 0.0020434808
0.0040463577 0.032714304 -0.027635273 0.71610224 0.39666411 -0.57433021 0.001821188
0.0053938278 0.031957481 -0.026431538 0.72176909 0.45074821 -0.52523857 0.0025924186
0.0011011236 0.036444373 -0.027912838 0.65340555 0.62534636 -0.42661822 0.0024635906
0.0028188443 0.035233598 -0.026768092 0.70490199 0.55223089 -0.44514513 0.0032179542
-0.054151721 0.038359623 -0.027884467 -0.10818563 -0.75972432 -0.64118242 0.016284818
-0.0016959731 0.03941894 -0.02757331 0.62356311 0.70422167 -0.33947149 0.0012656262
0.000157692 0.038000517 -0.026968667 0.65118647 0.65612912 -0.38138017 0.0030024322
0.0016968031 0.037228372 -0.025672717 0.65475315 0.65939093 -0.36946172 0.0021550658
-0.005232011 0.042156536 -0.027436532 0.53868884 0.78217137 -0.31308487 0.00085203105
-0.002952808 0.040715899 -0.026906451 0.59454191 0.72847003 -0.34036946 0.00098803674
-0.011556163 0.045433041 -0.027787073 0.42460999 0.85534883 -0.29679066 0.00092740665
-0.0080356207 0.043873858 -0.02721291 0.48350513 0.82304919 -0.29801473 0.00095751783
-0.0065730866 0.043212749 -0.026463959 0.49975327 0.8213985 -0.2748656 0.0010272204
-0.0050714994 0.0064924406 -0.0228552 -0.34187061 -0.80981904 -0.47677836 0.0038870275
-0.0025971225 0.006128096 -0.023290895 -0.16071256 -0.79053164 -0.590958 0.0040166173
0.00014224555 0.0059648482 -0.023359975 0.011631068 -0.74145734 -0.67089909 0.0042995457
0.0029382254 0.0060488954 -0.023056524 0.17329197 -0.66503823 -0.72642547 0.0031425145
0.0054107024 0.0064521274 -0.022677911 0.29837081 -0.58248872 -0.75609642 0.0021295713
-0.010795739 0.0095383013 -0.02323672 -0.48751423 -0.8100822 -0.32572493 0.0014953536
-0.0087817535 0.0087276548 -0.023941722 -0.41009453 -0.81393772 -0.41149458 0.0039580553
-0.0059291278 0.0076500932 -0.024185997 -0.23606646 -0.80565071 -0.54332274 0.0028977734
-0.00274879 0.0072844839 -0.024721373 -0.08052364 -0.75015485 -0.65634108 0.0028126186
0.00027641142 0.0074159452 -0.024849683 0.082754426 -0.70111388 -0.70823097 0.0023741655
0.0032081599 0.0078681307 -0.024536941 0.21789911 -0.61630547 -0.75676125 0.0017372612
0.0061347107 0.0084399777 -0.023760583 0.34393501 -0.52703983 -0.77713436 0.0013817947
0.0086079389 0.0090495916 -0.022835568 0.45669428 -0.44086555 -0.77270168 0.002352952
-0.014271457 0.012097484 -0.024132479 -0.536924 -0.8076539 -0.24373733 0.0013810927
-0.012067561 0.010674248 -0.024138581 -0.49791735 -0.82131487 -0.27842462 0.0033262947
0.006838379 0.010889335 -0.024857827 0.44520953 -0.39610407 -0.8030504 0.0020320909
0.0091608446 0.011462411 -0.023705661 0.5386169 -0.33239508 -0.77421272 0.00087019766
0.011210568 0.01212439 -0.022510497 0.58023852 -0.30318099 -0.75591308 0.0013075599
-0.01770569 0.014632138 -0.024477929 -0.56497014 -0.79984891 -0.20260917 0.0013831961
-0.015829805 0.013165218 -0.023891333 -0.56912583 -0.7996636 -0.19139983 0.0008959173
0.0096413009 0.014127929 -0.024386089 0.58095688 -0.2494753 -0.77475882 0.002337392
0.011534402 0.014413491 -0.022949025 0.63849401 -0.19321042 -0.74497998 0.0014396795
-0.022756165 0.018620398 -0.024903877 -0.59117126 -0.78617698 -0.18011758 0.00079718564
-0.020338744 0.016640279 -0.024335874 -0.58497292 -0.79338694 -0.16835602 0.00065434125
0.010073101 0.017193809 -0.024795651 0.65661085 -0.11365213 -0.74561751 0.0011279216
0.011748753 0.017348912 -0.023289029 0.68920618 -0.082451262 -0.71985877 0.0015598139
0.010372952 0.020404693 -0.024781305 0.70003545 0.0004772823 -0.71410781 0.0013872939
0.011721136 0.020419396 -0.023394015 0.73586261 0.047098231 -0.6754908 0.0020590615
0.010179397 0.023497608 -0.024677131 0.74034786 0.12637022 -0.6602391 0.0014363334
0.011528902 0.02318532 -0.023158487 0.76975483 0.18212242 -0.611808 0.0022107994
0.0098712556 0.026362373 -0.024064481 0.76434833 0.25382915 -0.59274149 0.0017285319
0.011182003 0.025505045 -0.022748973 0.77873105 0.31432724 -0.54293311 0.0021038314
0.0073304358 0.030472832 -0.024971329 0.75171793 0.47447893 -0.45802838 0.0022289939
0.0088014342 0.029153308 -0.023797344 0.76445925 0.41373301 -0.49439567 0.0033295432
0.006556354 0.032466535 -0.024083795 0.73421568 0.55110574 -0.39649677 0.0012827559
0.0079612043 0.03143945 -0.022890029 0.74903953 0.49694851 -0.43815747 0.0015936459
0.0038792915 0.035677075 -0.024173975 0.68983912 0.64313424 -0.33241588 0.0045108264
0.005273934 0.034487687 -0.02348059 0.70566601 0.61625659 -0.34966162 0.0020596371
0.00036590127 0.038949408 -0.024317682 0.6355781 0.71990091 -0.27889627 0.0013931681
0.0023728968 0.037408814 -0.02360682 0.66583741 0.69448543 -0.2726728 0.0011974516
-0.0029683532 0.041283105 -0.025050489 0.57454467 0.76639134 -0.28730261 0.0007695625
-0.00096998806 0.040004205 -0.024468107 0.62988061 0.72139591 -0.28781644 0.001591288
-0.0018860407 0.0035305 -0.01970645 -0.3030853 -0.8172695 -0.49011204 0.0029401579
0.00026882626 0.0032073027 -0.019991912 -0.1306764 -0.79705667 -0.58959687 0.0036438648
0.0030647744 0.0030784444 -0.020040005 0.042958688 -0.74651307 -0.66398263 0.0038632506
0.0059408289 0.0032876148 -0.019773625 0.20840946 -0.66878253 -0.71364933 0.0027042681
-0.007884698 0.0065290751 -0.019933306 -0.51743877 -0.7974118 -0.31046996 0.0039772619
-0.0057918867 0.0057681487 -0.02089034 -0.36877546 -0.82321036 -0.43165889 0.0025603953
-0.0028301459 0.0046891817 -0.021069089 -0.21584909 -0.81320024 -0.54047608 0.0026404806
0.00014106836 0.0044167414 -0.021541096 -0.053990215 -0.7772516 -0.62686932 0.0026005963
0.0031669689 0.004528617 -0.021560347 0.10075931 -0.71485692 -0.69197333 0.0022649269
0.0063253385 0.0051230378 -0.02125746 0.24205002 -0.62978792 -0.73809147 0.0016375259
0.008996157 0.0055421391 -0.020398712 0.39180136 -0.53452212 -0.748851 0.0027517201
0.011018399 0.0063806018 -0.019818081 0.47890308 -0.46823835 -0.74256629 0.00044019637
-0.011248672 0.0091898656 -0.021011205 -0.56205881 -0.79393584 -0.23185292 0.0013983452
-0.0089355782 0.0076425765 -0.021135842 -0.53334153 -0.80539507 -0.25862244 0.0019626813
-0.0072424579 0.0070970031 -0.022237046 -0.44371802 -0.82292181 -0.35484365 0.0024291123
0.0075255423 0.0070968987 -0.022243185 0.41011614 -0.48602161 -0.77174342 0.0013778382
0.0095508173 0.0081031043 -0.021735631 0.48329544 -0.4166021 -0.7699793 0.0013271797
0.011930101 0.0085722469 -0.020381581 0.57059187 -0.36313218 -0.73658669 0.00086672523
0.013882248 0.0098399641 -0.019411488 0.63838077 -0.2807242 -0.71670353 0.0008075076
-0.014443975 0.011690319 -0.021068215 -0.58971012 -0.79814756 -0.12329799 0.00081765052
-0.012862351 0.010471364 -0.021417482 -0.59009027 -0.79492652 -0.14101508 0.0010649229
0.010658087 0.010453184 -0.022244705 0.56525505 -0.31235608 -0.76349223 0.0015488191
0.012380222 0.011274237 -0.021237649 0.62065792 -0.2549938 -0.74145937 0.001145912
0.014181742 0.011632577 -0.019792547 0.66385645 -0.22976704 -0.71168935 0.0015268794
-0.017542474 0.01426245 -0.022072477 -0.5648337 -0.80539572 -0.17972401 0.00088847266
0.012851523 0.014111151 -0.021693397 0.67401636 -0.1489511 -0.72354364 0.0011036941
0.014451014 0.01442886 -0.020197151 0.71549839 -0.11569982 -0.68896705 0.0015822494
0.013129538 0.017402176 -0.021918621 0.72090095 -0.040364545 -0.69186169 0.0012971673
0.014500812 0.017411776 -0.020384174 0.76061416 0.0036325557 -0.64919412 0.0019328907
0.013133215 0.020319048 -0.021799538 0.76096636 0.086915344 -0.64294314 0.0014552566
0.014328348 0.020237271 -0.020308184 0.79413223 0.14149749 -0.59104353 0.0020395794
0.012863666 0.023420859 -0.021296963 0.7925927 0.21171011 -0.57181787 0.0015080523
0.014035044 0.022712059 -0.019909067 0.81112456 0.29434255 -0.50541019 0.0025319806
0.01066103 0.02768993 -0.022126002 0.78182244 0.4447754 -0.43695372 0.0024269603
0.012079509 0.026277481 -0.020798229 0.81442291 0.36429924 -0.45166519 0.0029074
0.0098639466 0.029692981 -0.021401525 0.78618187 0.45716235 -0.41583735 0.0021998344
0.011006946 0.028782109 -0.020272139 0.78832185 0.46290818 -0.40529558 0.0015275748
0.0073143276 0.033110026 -0.021495959 0.75186795 0.58645004 -0.30128214 0.002485137
0.0086469464 0.031759903 -0.020883165 0.75099903 0.58548146 -0.30530638 0.0031135655
0.0041821008 0.036529858 -0.020815833 0.67735416 0.70372754 -0.21438038 0.00037001533
0.0057477527 0.034918807 -0.021300048 0.71622676 0.64550614 -0.26521865 0.00093508471
0.0017106403 0.038498845 -0.021392358 0.65912503 0.71073818 -0.24577504 0.00039146087
0.0008187769 0.00082570035 -0.016612671 -0.24682048 -0.82997167 -0.50022668 0.0025002509
0.0031889859 0.00061674789 -0.016963238 -0.081763417 -0.80433619 -0.5885219 0.0036764236
0.0062578632 0.00059926137 -0.016920002 0.081036516 -0.75277841 -0.65326703 0.0029864777
0.0085293315 0.00082572084 -0.016640864 0.26304784 -0.66961008 -0.69457054 0.0022772565
-0.0048471722 0.0035454975 -0.016922144 -0.485576 -0.81678319 -0.31157848 0.0042141397
-0.0025952435 0.002779224 -0.017816981 -0.35204449 -0.82645375 -0.4393619 0.0023286273
0.0001068688 0.0019242801 -0.018042121 -0.17996001 -0.81920296 -0.54453743 0.0023071561
0.0030751363 0.0017305035 -0.018406564 -0.016684813 -0.77838069 -0.62757069 0.002329581
0.0063616908 0.0020105736 -0.018394027 0.15914263 -0.69803023 -0.69816005 0.0039108791
0.0091852564 0.0024087052 -0.017826356 0.29177973 -0.63877004 -0.71192515 0.00092829898
0.011598179 0.0029244493 -0.017043568 0.42504346 -0.55107057 -0.71809429 0.0018634815
-0.0082950648 0.0061261961 -0.017696807 -0.57774454 -0.78501558 -0.2235214 0.0023660178
-0.0059617911 0.0047005066 -0.018142212 -0.51399058 -0.81272984 -0.27437907 0.0021253601
-0.0039183749 0.0039847167 -0.019091262 -0.36306617 -0.86191905 -0.35394698 0.0042496808
0.0098359827 0.0042427429 -0.019028302 0.34138614 -0.59047544 -0.73129636 0.0015544221
0.012261456 0.0051979236 -0.018218569 0.46710658 -0.49230781 -0.73446888 0.0012382044
0.01446661 0.0058637029 -0.017009925 0.57338291 -0.4057731 -0.71174449 0.0019181396
-0.011237473 0.0086630257 -0.018100504 -0.63614464 -0.76003844 -0.13289714 0.001175579
-0.0095685795 0.0072996784 -0.018518142 -0.5886007 -0.78369522 -0.19842125 0.0025932181
0.01318825 0.0075939079 -0.018956844 0.57937837 -0.35684329 -0.7327916 0.00071758253
0.014982432 0.0083863195 -0.017793952 0.64145786 -0.28989789 -0.71027541 0.00092254736
0.01669631 0.0092178779 -0.016558347 0.68581009 -0.26257199 -0.67876399 0.0014113316
-0.013663601 0.010782775 -0.017570479 -0.63045454 -0.76463234 -0.13365833 0.0011923538
-0.012788733 0.0098974528 -0.016603244 -0.64704829 -0.75569886 -0.10123091 0.00033946068
0.015656114 0.011205241 -0.01821964 0.7148692 -0.18439302 -0.67450809 0.0011932658
0.017051829 0.01125484 -0.016747234 0.7422539 -0.15753929 -0.65133744 0.0023372215
0.016060723 0.014264219 -0.01840381 0.76120037 -0.071776845 -0.64453244 0.0012023856
0.017365485 0.014425829 -0.016841622 0.78729242 -0.030455718 -0.61582708 0.0017958948
0.016177118 0.017316597 -0.018308803 0.79772192 0.052798487 -0.60070968 0.0015242451
0.01725292 0.017146694 -0.016820924 0.81960404 0.1052935 -0.5631718 0.0019327853
0.015789462 0.020278687 -0.018175194 0.81837827 0.1725875 -0.54815197 0.0013737652
0.016804583 0.019985948 -0.016690804 0.84033281 0.2606523 -0.47529057 0.0024021622
0.01496459 0.023305491 -0.017931208 0.829368 0.32533225 -0.45421097 0.0013462646
0.013192346 0.026763875 -0.018035242 0.8232981 0.46151635 -0.33042845 0.0034834538
0.014255216 0.02551041 -0.01722594 0.81745929 0.42937562 -0.38392311 0.0029071085
0.010289244 0.030599829 -0.018926395 0.76776969 0.57795089 -0.27659085 0.0025568155
0.011801697 0.028896499 -0.018074181 0.78817844 0.54446876 -0.28692952 0.0017466194
0.0075972178 0.033822652 -0.018086029 0.73088813 0.63321143 -0.25464839 0.0010539078
0.0092845336 0.032106541 -0.017710738 0.75534344 0.60635161 -0.24858402 0.00096293056
-0.001801413 0.00070902798 -0.014258465 -0.4490419 -0.81672543 -0.36238229 0.0019988338
0.00021334505 -1.613982e-06 -0.01474776 -0.31036565 -0.82719696 -0.46842113 0.0024087417
0.0031860238 -0.00082275551 -0.014905801 -0.15540336 -0.83091766 -0.53425241 0.0043517584
0.0062841815 -0.00099838711 -0.01502757 0.005009782 -0.79332268 -0.60878086 0.003086407
0.0092515629 -0.00058078021 -0.014938672 0.24353191 -0.68494493 -0.68668962 0.0019842684
0.012016613 -1.5965663e-05 -0.014342778 0.36865747 -0.61790854 -0.69446439 0.0012904631
0.014220279 0.00067021698 -0.01366559 0.47249559 -0.55362028 -0.68574965 0.0010318344
-0.0052307625 0.0031009028 -0.014853878 -0.54847062 -0.7919389 -0.26835212 0.0021778946
-0.0030818114 0.0017991299 -0.015080544 -0.48547313 -0.81769425 -0.30934113 0.0016758653
-0.00099643134 0.0012792619 -0.016288294 -0.29000601 -0.83956087 -0.45938444 0.002658471
0.012639338 0.0019903742 -0.015686281 0.42451999 -0.55946964 -0.71188241 0.0029549531
0.015013462 0.0025853617 -0.014522611 0.52024651 -0.4783009 -0.70751101 0.0023787406
0.016811963 0.0033350261 -0.013577057 0.60001826 -0.42912969 -0.67514879 0.0012172442
-0.0082919635 0.0054936525 -0.014689425 -0.61118579 -0.76849383 -0.18939179 0.0012019335
-0.0064573707 0.0041598952 -0.01545361 -0.54935402 -0.79586262 -0.25458348 0.0016258565
0.015570225 0.0050253728 -0.015593801 0.58471948 -0.39919776 -0.7062183 0.0024185786
0.017462764 0.0056762034 -0.014217666 0.65176237 -0.34663484 -0.67457402 0.0011471112
-0.011224587 0.0083240019 -0.015739014 -0.6422084 -0.7519576 -0.14875491 0.00083415949
-0.010103945 0.0071966918 -0.015120579 -0.64066929 -0.74956858 -0.16640219 0.00053617556
0.016255211 0.0074081542 -0.016225858 0.65096599 -0.29415211 -0.69979841 0.0007275978
0.017983282 0.0083525451 -0.014846442 0.69298202 -0.26253784 -0.67145354 0.0011944105
0.018569401 0.011219748 -0.014929606 0.76487654 -0.13698435 -0.62944359 0.001537174
0.018777329 0.014382362 -0.014868919 0.8438406 0.030812552 -0.53570849 0.0029052179
0.018439265 0.017302223 -0.014880972 0.86063713 0.16703556 -0.48104349 0.0026733319
0.017573444 0.020307995 -0.014971368 0.85904288 0.312278 -0.40562022 0.0028514862
0.016014524 0.023757223 -0.015070671 0.84547704 0.43701184 -0.30690265 0.0024580234
0.01689595 0.02259808 -0.014354704 0.84120899 0.41139382 -0.3508881 0.0033712506
0.013572926 0.027694385 -0.014891787 0.81591111 0.51158661 -0.26938489 0.001199207
0.014746757 0.02600717 -0.014819115 0.81846648 0.50893724 -0.26663741 0.0013137293
0.011958253 0.029466372 -0.015638946 0.78806531 0.54411286 -0.28791374 0.0016347737
0.0010550427 -0.0023997901 -0.010762258 -0.46740231 -0.79620802 -0.38417161 0.0024046227
0.0033370503 -0.0028955825 -0.011627758 -0.3155542 -0.82605356 -0.46697006 0.0024462731
0.0061363592 -0.0032756943 -0.012023275 -0.089492321 -0.80299556 -0.58922768 0.0046488242
0.0090795606 -0.0033081919 -0.011929655 0.097508654 -0.76017582 -0.64235878 0.0032193088
0.011945616 -0.0030738367 -0.011391236 0.27572846 -0.69157255 -0.6676085 0.0028959573
0.014161959 -0.0026627192 -0.010762973 0.40903336 -0.61706352 -0.67225319 0.0015865698
-0.0023878939 0.00011408143 -0.011748093 -0.51624525 -0.79772794 -0.31164214 0.0012402399
0.00010302896 -0.0013086759 -0.011990988 -0.45329458 -0.82111108 -0.34684372 0.0025091427
0.0022870158 -0.0018323958 -0.012892671 -0.26832119 -0.83239686 -0.48489085 0.0066412087
0.01019494 -0.001921053 -0.013263507 0.16151027 -0.73930871 -0.65371025 0.0022784634
0.012624653 -0.0014677811 -0.01269557 0.31136891 -0.66194826 -0.68181664 0.0019580994
0.015303819 -0.00058140606 -0.011885669 0.49428955 -0.54547983 -0.6768527 0.0015882174
0.01736993 0.00035993755 -0.011047034 0.57792699 -0.47507423 -0.66355473 0.0011290204
-0.0054382524 0.0025770981 -0.012326541 -0.60570997 -0.78063518 -0.15402652 0.0034902135
-0.004065739 0.0014318256 -0.012158209 -0.58118713 -0.78200871 -0.22513081 0.0014584984
0.016071098 0.0015841471 -0.013024681 0.54531091 -0.48216277 -0.6856786 0.00073986838
0.01807685 0.0024604257 -0.011817666 0.629282 -0.40522277 -0.6631732 0.00050962804
0.019922195 0.003350039 -0.010506017 0.68257552 -0.360075 -0.63595337 0.0012472182
-0.0069520888 0.0040233107 -0.013122363 -0.61538202 -0.77185124 -0.15984587 0.0029839054
0.018957172 0.0050964346 -0.012416516 0.70535076 -0.30268091 -0.64098722 0.0011516233
0.020421986 0.0057431799 -0.011064107 0.74095225 -0.26285556 -0.61797798 0.001898286
0.019502388 0.0079884501 -0.013013083 0.75599462 -0.18927659 -0.62661517 0.0016492839
0.02073133 0.0084778909 -0.011534587 0.80226892 -0.12887114 -0.58288664 0.0021473102
0.020778915 0.011370791 -0.011852998 0.84926581 -0.0054085832 -0.52793783 0.0017239562
0.02059642 0.014291508 -0.011877894 0.86988378 0.11038616 -0.48074648 0.0034382548
0.01948118 0.01776287 -0.012638757 0.88861632 0.23857479 -0.3917183 0.0036049755
0.02026106 0.016890263 -0.011463172 0.88579392 0.30852309 -0.34667373 0.0024377778
0.018753173 0.020278394 -0.012123545 0.8757 0.35165942 -0.3308855 0.001995272
0.019677505 0.019211974 -0.010827525 0.86988103 0.36059135 -0.33657211 0.0019387946
0.017568098 0.022686671 -0.01183234 0.85066813 0.45734811 -0.25922254 0.00069624855
0.015954513 0.025121506 -0.012041731 0.84318632 0.47115117 -0.25894663 0.00081289973
0.0041837567 -0.0053164093 -0.008011831 -0.38079959 -0.81590992 -0.43506613 0.0020084125
0.0062725418 -0.005681769 -0.0085021704 -0.20193733 -0.82751375 -0.52387244 0.0031964448
0.0091460496 -0.0058847591 -0.0086673088 -0.0016828192 -0.80735636 -0.59006172 0.0028724829
0.012060264 -0.0057909861 -0.0083323922 0.18609449 -0.75269163 -0.63152522 0.0024584269
0.014464546 -0.0054616276 -0.0077723628 0.34049574 -0.68697292 -0.64197421 0.0016016576
0.00040319376 -0.0029184027 -0.0086992197 -0.50597334 -0.79382795 -0.33738437 0.0035928895
0.0030131829 -0.0041638799 -0.0091147237 -0.38651499 -0.82317919 -0.41591141 0.0035160098
0.0059596621 -0.0046444247 -0.0099781072 -0.14182939 -0.8140837 -0.56316262 0.0026202938
0.0091147237 -0.0047070198 -0.010204898 0.048682779 -0.78482908 -0.61779714 0.0024161276
0.012348704 -0.004393423 -0.0098285321 0.2168787 -0.72746575 -0.65096635 0.001773546
0.015290132 -0.0037190001 -0.009063663 0.39266226 -0.63165498 -0.6684522 0.0033573732
0.017642913 -0.0030404152 -0.0080711879 0.50959253 -0.56358671 -0.65014273 0.0023389191
-0.0026163491 -0.00065344572 -0.0087875724 -0.59151143 -0.77157509 -0.23406425 0.003030336
-0.00067242305 -0.0018330989 -0.0096540283 -0.52312177 -0.79290617 -0.31247926 0.0040459922
0.016256075 -0.0019449173 -0.010099096 0.49707496 -0.53989726 -0.67928445 0.0016246908
0.018350936 -0.00085610151 -0.0092438171 0.57915169 -0.50392866 -0.64081138 0.0024045187
0.020231454 2.27727e-05 -0.0080882609 0.64794564 -0.44539073 -0.61789453 0.0011450833
-0.0058613638 0.0024323133 -0.0095006162 -0.66141051 -0.73717707 -0.13822469 0.00098767609
0.019250691 0.0015094923 -0.010080589 0.64556342 -0.39212474 -0.65535182 0.00084628811
0.020882506 0.0024419096 -0.0088649895 0.69147235 -0.36416951 -0.62389618 0.0011579484
-0.0074966182 0.0040540965 -0.0083628427 -0.67004502 -0.73147291 -0.12644011 0.00061543402
0.021803081 0.0052695209 -0.0090621933 0.79411483 -0.21321732 -0.56913978 0.00099036156
0.02306949 0.0061442861 -0.0075455885 0.83365411 -0.15751895 -0.5293473 0.0011980645
0.022182453 0.0082988897 -0.0093727307 0.84351331 -0.08253359 -0.53072923 0.0016319789
0.023048578 0.0084544467 -0.0079416018 0.8682248 -0.035171676 -0.49492288 0.002151795
0.022288406 0.011433314 -0.0092321131 0.88446927 0.098915137 -0.45599335 0.0043417234
0.023056462 0.011004284 -0.0077922596 0.91953671 0.12777378 -0.37165329 0.0035539709
0.021952424 0.014285028 -0.0090356003 0.90475851 0.19823655 -0.37698054 0.0031498645
0.02100243 0.017206792 -0.0091039641 0.89369249 0.31801096 -0.31651649 0.0019726327
0.019277431 0.020652603 -0.0094753336 0.87459314 0.38226435 -0.29826307 0.0005872359
0.019991517 0.019519228 -0.0090004634 0.88742614 0.36700603 -0.27889314 0.00091286236
0.0071316645 -0.0085203014 -0.004486246 -0.3084344 -0.79156816 -0.52753025 0.00398716
0.0094186552 -0.0087068118 -0.0048364829 -0.11089163 -0.80906403 -0.57716411 0.0039773816
0.012069808 -0.0086999051 -0.0047981814 0.11619425 -0.77652043 -0.6192857 0.0033920428
0.014130995 -0.0085199513 -0.0045013558 0.23539121 -0.74079144 -0.62914157 0.00075804954
0.0012980513 -0.0052496223 -0.004762752 -0.58196563 -0.73254991 -0.3531099 0.0035250522
0.003311119 -0.0060314424 -0.0058404179 -0.42915949 -0.79230171 -0.43368205 0.0026510728
0.0061570383 -0.0072403084 -0.0059768446 -0.28775841 -0.82440859 -0.48738647 0.0037141736
0.0091919973 -0.0075480361 -0.0064132116 -0.038297739 -0.79892153 -0.60021472 0.002017468
0.012313867 -0.0074171219 -0.0063299527 0.14591828 -0.76885873 -0.62254655 0.0020810021
0.015274566 -0.0067612156 -0.0059382357 0.30582947 -0.7141974 -0.6295954 0.0015949069
0.01790669 -0.0059425812 -0.0051836222 0.47894517 -0.61527491 -0.62613755 0.0010734183
-0.0016541914 -0.0026042936 -0.0050816564 -0.64316195 -0.72970486 -0.2321066 0.0026597099
0.00013221242 -0.003836845 -0.005937668 -0.60687774 -0.73865736 -0.29340175 0.0016362304
0.001989244 -0.0047529889 -0.0069240164 -0.46837372 -0.80908126 -0.35498393 0.0063336291
0.016591949 -0.0047477363 -0.0072974991 0.44829288 -0.61739349 -0.64641988 0.0011512978
0.018638836 -0.0039863531 -0.0064148237 0.52798975 -0.57284516 -0.62695712 0.002411762
0.020566752 -0.0032812301 -0.0052725393 0.6124993 -0.49477461 -0.616476 0.0012172146
-0.0047491742 0.00081430096 -0.0060538482 -0.67734736 -0.71092111 -0.18918695 0.0013530316
-0.0030059821 -0.0010469882 -0.0059421267 -0.67177254 -0.70762265 -0.2190706 0.0018617047
0.021415854 -0.00087948237 -0.0061810967 0.68349361 -0.41870821 -0.5979296 0.0017764709
0.022912281 5.54258e-05 -0.0050079543 0.73287177 -0.36995387 -0.57099301 0.0013037936
-0.0052229129 0.0012792768 -0.0053747725 -0.7142995 -0.68792868 -0.12857024 0.00056883937
0.022382477 0.0022072066 -0.0068876608 0.76496094 -0.28937483 -0.57541025 0.0013147464
0.023536596 0.0024840152 -0.0054509751 0.80125195 -0.25602975 -0.5407809 0.0017629492
0.023912312 0.0052662948 -0.0058633303 0.84893113 -0.14603312 -0.50792748 0.0012200224
0.024114266 0.0083269039 -0.0058345702 0.91142511 0.036873445 -0.40981033 0.0021106752
0.023741197 0.01121268 -0.0060403044 0.9203462 0.16257283 -0.35571474 0.0014739423
0.022477502 0.014886551 -0.0070448946 0.90981424 0.23837793 -0.33972633 0.0013028211
0.023158479 0.013761744 -0.0058618221 0.91553384 0.23872752 -0.32373884 0.0011676537
0.021975053 0.01661497 -0.0062711667 0.90809536 0.31176686 -0.2795788 0.00053296884
0.011645414 -0.011410821 -0.0013717841 0.0011437923 -0.79341745 -0.60867679 0.0034864878
0.0042379736 -0.0086963736 -0.0018945839 -0.46626097 -0.76352412 -0.44680157 0.0020974495
0.0063393344 -0.0093109496 -0.0027116276 -0.32276946 -0.79888153 -0.50755107 0.0033366061
0.0091258138 -0.010049948 -0.0028658854 -0.14724141 -0.81052983 -0.56688756 0.0039320472
0.012257788 -0.010146052 -0.0029094294 0.087249801 -0.78733182 -0.61032456 0.0016671185
0.015076654 -0.0096695647 -0.0027557323 0.22851136 -0.75401729 -0.61582506 0.0019016094
0.017661311 -0.0090107247 -0.0021756338 0.40547013 -0.66040146 -0.6320315 0.001633351
0.00078183273 -0.0058060251 -0.0024422966 -0.62451208 -0.71820199 -0.3068724 0.0021104512
0.0031217006 -0.0073035359 -0.0031096684 -0.47881219 -0.77111548 -0.41966638 0.0018262164
0.0052699731 -0.0080630966 -0.0040487032 -0.31640387 -0.80793726 -0.49711767 0.0027806875
0.016009063 -0.0080602132 -0.0041820239 0.30513489 -0.69325477 -0.65290934 0.0015256765
0.018501529 -0.0073492043 -0.0033305958 0.44914088 -0.64445233 -0.61883253 0.0014619987
0.020820858 -0.0061363373 -0.0025251629 0.56788415 -0.56203026 -0.60135639 0.0013809432
-0.0019772835 -0.0029370813 -0.0027668411 -0.72475809 -0.66314536 -0.18698652 0.0023114791
-0.00043830043 -0.004474679 -0.0029125642 -0.6529786 -0.71401584 -0.25258735 0.0016231738
0.021773703 -0.0040044058 -0.0034317998 0.66396809 -0.4614307 -0.58841151 0.00099174201
0.023318786 -0.0032783318 -0.0021958034 0.70469922 -0.43169412 -0.56306231 0.0009345861
-0.0035703704 -0.0010641664 -0.0027085198 -0.74128658 -0.65922815 -0.12614505 0.00058962201
0.024081772 -0.00059397053 -0.0029635644 0.77480614 -0.33290014 -0.53745043 0.0018421924
0.02482935 0.0023149741 -0.0033382354 0.84062761 -0.21032037 -0.49910966 0.0013451626
0.025716458 0.0026873262 -0.0018706871 0.87518018 -0.16324908 -0.4554221 0.0023847348
0.025075726 0.0050860336 -0.0037018536 0.89440656 -0.064823419 -0.44253221 0.0020303468
0.025685644 0.0052647535 -0.0024002278 0.91904896 -0.0061723604 -0.39409503 0.0023963049
0.025165131 0.0082988692 -0.0033040605 0.93191928 0.08985506 -0.35135821 0.0036455612
0.025701366 0.0076135257 -0.002130067 0.94034582 0.12634502 -0.31589037 0.001739683
0.02463357 0.011173494 -0.0032525836 0.93309706 0.19332723 -0.30323973 0.00065618777
0.023719583 0.01342347 -0.0040796231 0.92808956 0.24316654 -0.28199264 0.00078756205
0.0067687086 -0.011738352 0.00085957162 -0.41264445 -0.77033317 -0.48611864 0.0016603105
0.0092151109 -0.012232613 0.00024514366 -0.21227694 -0.81761241 -0.5352087 0.0024895011
0.012167541 -0.012424255 4.8111193e-05 0.026677333 -0.79811269 -0.60191733 0.0041892119
0.015157606 -0.012261331 0.00037989765 0.20094201 -0.76430672 -0.61274576 0.0021600435
0.01763379 -0.011822401 0.00095643289 0.38167402 -0.69788617 -0.60603619 0.0014241164
0.0035569533 -0.0094073024 0.00034821499 -0.53889632 -0.74443924 -0.39420944 0.0028177048
0.0059509384 -0.010566449 -0.00033466145 -0.41201216 -0.77732021 -0.47541472 0.0045349831
0.0078900103 -0.010948274 -0.0011040401 -0.26145077 -0.79968208 -0.54051077 0.0030141298
0.016005294 -0.010832924 -0.001027843 0.22707894 -0.74398428 -0.6284287 0.0017126279
0.018368155 -0.010190578 -0.00039541069 0.40242541 -0.68600583 -0.60617626 0.0014460727
0.020963768 -0.0093107224 0.0007243026 0.52538526 -0.60165352 -0.60165054 0.0014699292
0.023081794 -0.0081859268 0.0016504098 0.67154199 -0.50405955 -0.54309791 0.0017386446
0.0002361876 -0.0063995384 0.00037983898 -0.73610634 -0.63455743 -0.23555146 0.0018008533
0.0021539135 -0.0077579841 -0.00074493419 -0.6420393 -0.69204193 -0.3299447 0.0014760611
0.021716328 -0.0071948096 -0.00066479761 0.59081268 -0.54630554 -0.59370917 0.0027747739
0.02362893 -0.0061696135 0.00055505987 0.6795072 -0.47630134 -0.55803859 0.0019735189
-0.0020695443 -0.0035117222 -0.00022956077 -0.75535268 -0.63324636 -0.16864611 0.0017202856
-0.0010489952 -0.0048495708 -2.8533861e-05 -0.76755428 -0.60849947 -0.20146662 0.0019743906
0.024613831 -0.0038623717 9.8068267e-07 0.77425587 -0.36993214 -0.51349592 0.0006551462
0.025890987 -0.0027387543 0.001128586 0.80468804 -0.33361593 -0.49109825 0.0024320004
-0.0038772528 -0.0010777442 -7.4191019e-05 -0.76606923 -0.62525308 -0.14898492 0.00096650008
0.025147332 -0.0014657751 -0.00087121408 0.81981224 -0.28060466 -0.49916834 0.0013643444
0.02620958 -0.00044244155 0.00039405283 0.87252319 -0.21389988 -0.43926075 0.00283344
0.026471123 0.0023668651 -0.00012537092 0.91830623 -0.10396033 -0.38197631 0.0027024667
0.026522813 0.0052856696 -0.00017010979 0.9447034 0.037182067 -0.32581145 0.0011102561
0.026125599 0.0081117246 -0.00024291221 0.94367772 0.12399635 -0.30675295 0.0016440958
0.025307324 0.010691327 -0.0008143615 0.94302744 0.17410932 -0.28352314 0.0009385533
0.0075083519 -0.014435325 0.004379319 -0.33318874 -0.77728754 -0.53367531 0.0053370935
0.0094009452 -0.014788585 0.0037961043 -0.27351412 -0.78019023 -0.56257719 0.0041080951
0.012189388 -0.015051091 0.0034962483 -0.037458211 -0.78421628 -0.6193558 0.0030496123
