# .PCD v0.7 - Point Cloud Data file format
VERSION 0.7
FIELDS x y z normal_x normal_y normal_z curvature
SIZE 4 4 4 4 4 4 4
TYPE F F F F F F F
COUNT 1 1 1 1 1 1 1
WIDTH 556
HEIGHT 1
VIEWPOINT 0 0 0 1 0 0 0
POINTS 556
DATA ascii
0.011078299 0.039472021 -0.042876747 -0.34095159 -0.59683603 -0.72631866 0.0020514098
0.013680134 0.038906571 -0.043177772 -0.12628075 -0.58615685 -0.80029577 0.0039739241
0.016534857 0.038800668 -0.043168943 0.11086006 -0.53051716 -0.84039366 0.0055240048
0.019053482 0.039289694 -0.042838119 0.37383866 -0.41314244 -0.83039623 0.0046121348
0.0081791757 0.041930851 -0.043124776 -0.50148696 -0.55517775 -0.66354239 0.0038449459
0.010518882 0.041400865 -0.044115089 -0.30986941 -0.59312344 -0.74309182 0.0044010533
0.013471846 0.041042816 -0.044679139 -0.084073596 -0.58272034 -0.80831218 0.0028421371
0.016594417 0.041299485 -0.044635538 0.15780006 -0.50288838 -0.84982497 0.0038772712
0.019536814 0.04150847 -0.043588985 0.43777102 -0.33860698 -0.83288765 0.005978425
0.021450488 0.042191636 -0.042644471 0.59707516 -0.21680823 -0.77233124 0.0046146708
0.0055269734 0.045087267 -0.043271057 -0.71691048 -0.52446276 -0.45932356 0.0088285273
0.007333538 0.044017512 -0.044304408 -0.5622195 -0.56235558 -0.60635418 0.0073147984
0.0095846243 0.043160882 -0.045128088 -0.30720314 -0.65431553 -0.69101185 0.0038273197
0.017618971 0.043185767 -0.04522853 0.26431194 -0.33578071 -0.90409654 0.010889896
0.019602172 0.044319764 -0.04442602 0.5622806 -0.16314659 -0.81069338 0.0030312689
0.021682156 0.044631027 -0.042923268 0.64718866 -0.10504372 -0.75505805 0.003188201
0.0045509185 0.047208231 -0.044314463 -0.72639132 -0.55545568 -0.40475255 0.0082264962
0.020026749 0.047286939 -0.044563014 0.67164701 -0.013257861 -0.74075258 0.0024829672
0.021676851 0.047482267 -0.043027218 0.70911145 0.047222015 -0.70351326 0.0043481831
0.0033218511 0.049965765 -0.044200171 -0.82702136 -0.4319706 -0.3597737 0.010513607
0.020042492 0.05047074 -0.044237729 0.73984098 0.19946079 -0.64253467 0.006710419
0.021425296 0.050138775 -0.042789336 0.74032956 0.25352028 -0.62260699 0.0044586947
0.017766375 0.054533083 -0.045090128 0.76756197 0.41509134 -0.48841354 0.011581886
0.019303882 0.053256948 -0.043859933 0.73590392 0.37361899 -0.56467187 0.0036889357
0.016907109 0.056134317 -0.044262584 0.77527785 0.4726283 -0.41900691 0.0038872806
0.018427705 0.055393737 -0.042914171 0.71981609 0.54862326 -0.42529666 0.0038713464
0.010878614 0.036369935 -0.039940622 -0.3990041 -0.64333999 -0.65338308 0.0015341206
0.013532001 0.035826035 -0.040546868 -0.21804313 -0.65372455 -0.72463876 0.0035235146
0.016389955 0.035559744 -0.040774275 -0.0031644623 -0.62790531 -0.77828336 0.004071435
0.019264592 0.035389118 -0.040371545 0.24941945 -0.52206749 -0.81561971 0.0033291737
0.021751268 0.036064163 -0.039919969 0.44062293 -0.42403728 -0.79122931 0.0030620147
0.0080224611 0.039048243 -0.040490229 -0.54787803 -0.5877924 -0.59525603 0.002576845
0.010348942 0.038074568 -0.041258775 -0.38358638 -0.61162663 -0.6919353 0.0023880163
0.013213805 0.037445825 -0.041919291 -0.16680692 -0.6310966 -0.75755697 0.002759808
0.016764097 0.037420806 -0.042201161 0.043438677 -0.5826835 -0.81153738 0.0036882486
0.019824717 0.038047079 -0.041849617 0.31532377 -0.45243165 -0.83419216 0.0087468559
0.022334304 0.038416527 -0.04071039 0.53604025 -0.29405272 -0.79132408 0.0024899491
0.024170654 0.039247286 -0.039646752 0.62302887 -0.2647185 -0.73604286 0.0037670757
0.0055223918 0.041899782 -0.040259011 -0.73683167 -0.45121989 -0.50346786 0.0059828744
0.0070489552 0.041104749 -0.041416623 -0.62669212 -0.50420761 -0.59416467 0.0055643362
0.022624189 0.04132637 -0.041485954 0.58977461 -0.21566287 -0.77823871 0.0052568703
0.024367239 0.041584216 -0.039974872 0.70302457 -0.12161256 -0.70069027 0.0029530681
0.0048081558 0.044280909 -0.040980693 -0.84237349 -0.37493771 -0.38707685 0.013739471
0.023016173 0.044371959 -0.041657988 0.6892966 -0.042431906 -0.72323561 0.0020749702
0.024428383 0.044434641 -0.040159345 0.75589418 0.0062190788 -0.65466434 0.0026511834
0.003927887 0.046737503 -0.041197538 -0.89966595 -0.34736177 -0.26446363 0.021706069
0.023022726 0.047503445 -0.041539378 0.74408352 0.09777838 -0.66089267 0.0019102143
0.024250545 0.0472758 -0.040042393 0.7899633 0.1536126 -0.59360015 0.0028690929
0.022647686 0.050475657 -0.040969364 0.77892143 0.33462116 -0.53038669 0.006711503
0.024025904 0.049226377 -0.039665569 0.77168649 0.34674889 -0.5331654 0.0062093735
0.020379258 0.053983606 -0.041584328 0.75009018 0.50023431 -0.43258581 0.0042449171
0.021588851 0.05302275 -0.040605728 0.763349 0.46294919 -0.45052898 0.0024304716
0.017686309 0.056460101 -0.041892488 0.71976346 0.54873025 -0.42524782 0.0038502426
0.019314844 0.05563011 -0.040633488 0.71843553 0.5494625 -0.42654586 0.0030520123
0.016820073 0.030812455 -0.036616415 -0.14825664 -0.68121099 -0.71691805 0.0022074038
0.019241907 0.030736776 -0.036662303 0.059358902 -0.65568358 -0.75269884 0.002893368
0.02138395 0.030929089 -0.036504839 0.25327468 -0.59934622 -0.7593655 0.0026786686
0.01096725 0.033496693 -0.036981825 -0.44040105 -0.66610962 -0.60195082 0.0013398885
0.013468098 0.032817237 -0.037625495 -0.30032337 -0.68820924 -0.66043466 0.001588662
0.016327815 0.032538287 -0.03815316 -0.10290541 -0.6625151 -0.74194628 0.0037253185
0.019354202 0.032536246 -0.038181983 0.1234092 -0.61328644 -0.78016019 0.0044341055
0.022332158 0.032696575 -0.037475619 0.34398291 -0.53619927 -0.77082175 0.0062126708
0.024528192 0.033464253 -0.036782403 0.52177143 -0.43089384 -0.73626429 0.0062961234
0.0079086274 0.036177587 -0.037326556 -0.5826534 -0.6073193 -0.54007238 0.0027556506
0.010068274 0.035227545 -0.038179722 -0.44163996 -0.66075861 -0.60692024 0.0033351025
0.012950959 0.034415994 -0.039012156 -0.25684777 -0.67380023 -0.69283658 0.0019368153
0.020382766 0.034179237 -0.039272655 0.25192353 -0.53036606 -0.80947286 0.004772245
0.022720728 0.035065409 -0.038803678 0.37603191 -0.48838735 -0.78745019 0.0037839161
0.025040139 0.035718508 -0.037522648 0.56777436 -0.36285648 -0.73889613 0.0028945666
0.0052657314 0.03923586 -0.037293132 -0.74904305 -0.49398479 -0.44149023 0.0053428253
0.0068267882 0.038132988 -0.038293459 -0.65121299 -0.56974751 -0.50130761 0.0034061871
0.023612175 0.037190218 -0.039360452 0.54981351 -0.34601083 -0.76025099 0.0066720126
0.025571315 0.038426764 -0.038000651 0.72670698 -0.17543866 -0.66416734 0.0011553457
0.0044962666 0.041406345 -0.038048748 -0.83248764 -0.39188644 -0.39164948 0.0052833413
0.005934909 0.040208761 -0.039355684 -0.68811339 -0.48484474 -0.53983843 0.0015232487
0.025952106 0.041435737 -0.038195431 0.76088637 -0.07801161 -0.64417857 0.0015427206
0.027244972 0.041348964 -0.036521364 0.80186987 -0.041909456 -0.59602714 0.001903906
0.0036133402 0.044243556 -0.038162917 -0.92631596 -0.22418039 -0.30279014 0.0044656773
0.026057735 0.044499531 -0.038048301 0.81352264 0.074334681 -0.57676274 0.0023274308
0.027249357 0.043309968 -0.036453549 0.83539683 0.11067453 -0.53838956 0.0015502776
0.0033527405 0.047423836 -0.038467079 -0.95663708 -0.087481536 -0.27783549 0.0054532574
0.025612611 0.047454972 -0.037962444 0.83209503 0.24579675 -0.4971939 0.0064748693
0.0033565629 0.049019638 -0.037757684 -0.97467548 -0.15153408 -0.16445418 0.0087034553
0.023515794 0.051523589 -0.038511354 0.83586878 0.41408059 -0.36036187 0.0041065547
0.024551667 0.049981162 -0.038042579 0.82120585 0.43026382 -0.37482539 0.0048576985
0.022554489 0.053212468 -0.037974879 0.78841251 0.51740348 -0.33271515 0.0023464567
0.017377321 0.027644442 -0.033528935 -0.12398642 -0.71466178 -0.68839371 0.0039294921
0.019555382 0.027631581 -0.033731144 -0.0009781922 -0.69154316 -0.72233444 0.0024113308
0.021750243 0.027642466 -0.033560038 0.22555535 -0.64117467 -0.73349833 0.0030934992
0.011392409 0.030396277 -0.033790648 -0.4731586 -0.66639966 -0.57622254 0.0011073614
0.013650631 0.029879458 -0.034575757 -0.33081117 -0.69760352 -0.63554162 0.0023346334
0.016400613 0.02930196 -0.034999203 -0.17385985 -0.69716001 -0.69551456 0.0024255202
0.019539798 0.029133024 -0.035168007 0.022519786 -0.67911601 -0.73368543 0.001660955
0.022519542 0.029477796 -0.034916423 0.23926435 -0.64817607 -0.72292483 0.0023184123
0.025053216 0.029939713 -0.034067493 0.45845938 -0.53978765 -0.70600587 0.0042032627
0.0081795352 0.033279583 -0.034189776 -0.60492975 -0.59518886 -0.52897096 0.001542269
0.010264713 0.032219626 -0.034978919 -0.49109203 -0.67390305 -0.55198127 0.002346593
0.012702199 0.031447452 -0.03580898 -0.32338139 -0.68190801 -0.65606862 0.0018354481
0.023537537 0.03139725 -0.036040064 0.38947275 -0.5487749 -0.73970068 0.0083365655
0.025574621 0.032270089 -0.035246786 0.55484039 -0.44233987 -0.70461881 0.0063647749
0.027378578 0.03275634 -0.033893455 0.67645305 -0.35999113 -0.64250892 0.0029959008
0.0053868215 0.036442392 -0.033975173 -0.74735785 -0.51758909 -0.41660273 0.003701994
0.00708905 0.035157844 -0.035065643 -0.68424833 -0.56689668 -0.45872912 0.001654457
0.0092319921 0.033995289 -0.036171544 -0.54130673 -0.64996386 -0.53341722 0.0027731457
0.026535505 0.035007544 -0.035836462 0.71234941 -0.26992163 -0.64784306 0.0024964248
0.027925737 0.035551455 -0.034439463 0.752065 -0.22872227 -0.61812973 0.0031210789
0.0046584015 0.038372021 -0.034909803 -0.83575177 -0.42408833 -0.34880963 0.005412749
0.0059731589 0.037258331 -0.036128808 -0.71066964 -0.54848748 -0.44057944 0.00072049879
0.026825322 0.037026871 -0.036292303 0.73483557 -0.20349336 -0.64699858 0.0042014429
0.028071485 0.038520653 -0.034990698 0.81734335 -0.10301644 -0.56686634 0.0019686716
0.0034327421 0.041397039 -0.035077818 -0.89298236 -0.33639789 -0.2990301 0.0025452862
0.028300364 0.041415922 -0.034869879 0.86616367 0.043676306 -0.49784818 0.0016865175
0.0029318023 0.044891451 -0.035873722 -0.95377678 -0.11762927 -0.27653795 0.0040959255
0.0029354547 0.043456759 -0.035026271 -0.9446401 -0.19691476 -0.26244918 0.0067298366
0.027923515 0.044462923 -0.035027679 0.87188077 0.14262146 -0.46849012 0.00094915187
0.0029318014 0.046631597 -0.035873849 -0.97072303 -0.11659001 -0.21000823 0.0045655579
0.0029351581 0.04758938 -0.035095084 -0.96816403 -0.096934989 -0.23078553 0.0042788708
0.026766049 0.04750362 -0.035856593 0.84505761 0.27297592 -0.45974118 0.0038713564
0.027648671 0.046783689 -0.034502439 0.85830885 0.27386346 -0.43394098 0.0040616184
0.025360707 0.050171871 -0.035360742 0.8206262 0.46949169 -0.32580692 0.0011800834
0.024308609 0.051993925 -0.034715582 0.82084793 0.46968037 -0.32497534 0.0012404878
0.017498309 0.024752356 -0.030495662 -0.21492861 -0.72686976 -0.65227753 0.0016881446
0.019498283 0.024644753 -0.030667553 -0.064110339 -0.72400355 -0.68681049 0.0025233419
0.022117162 0.024742702 -0.030667687 0.16818067 -0.70968127 -0.68415487 0.0034022017
0.011616345 0.027675804 -0.030725051 -0.485901 -0.6764034 -0.55351472 0.00085952325
0.013761835 0.027005287 -0.031406771 -0.38264638 -0.69422364 -0.60961896 0.0014078423
0.016551556 0.026395397 -0.031958736 -0.1949622 -0.70375973 -0.68316317 0.0017470855
0.019517755 0.026234981 -0.032320298 -0.022782486 -0.71919739 -0.69443214 0.0011909752
0.02242153 0.02626197 -0.032069325 0.21080707 -0.65899307 -0.72200316 0.0037138071
0.025167609 0.026798889 -0.031446692 0.39961657 -0.60883445 -0.68529361 0.0044917376
0.027331691 0.027681332 -0.030638415 0.62675029 -0.46186382 -0.62758738 0.0027497248
0.0083805686 0.030589733 -0.031043215 -0.61956871 -0.61112607 -0.492605 0.0022772204
0.010415415 0.029505692 -0.031870693 -0.52651268 -0.66259253 -0.53268713 0.0012399273
0.013079957 0.0285154 -0.032751795 -0.34546906 -0.6976102 -0.6276871 0.0014400828
0.015196356 0.02809345 -0.033349801 -0.25227961 -0.71573877 -0.651209 0.0037495058
0.025736636 0.028818399 -0.032742709 0.40637287 -0.56862479 -0.71521121 0.0029833138
0.027900945 0.029785963 -0.03154514 0.63327193 -0.43128806 -0.64261746 0.0026532593
0.0055960487 0.033763651 -0.030790377 -0.74264514 -0.54466355 -0.38964063 0.0025907375
0.0073243831 0.032499831 -0.032004986 -0.69523156 -0.57670891 -0.4290221 0.0010331379
0.009223354 0.031332087 -0.03294456 -0.5846929 -0.62586564 -0.51616502 0.00094625272
0.028746631 0.032448713 -0.032040447 0.75768834 -0.27800414 -0.59044224 0.0020131823
0.0049634818 0.035650264 -0.031931199 -0.78773516 -0.49562988 -0.36582017 0.0019510381
0.0061208927 0.034584336 -0.032902125 -0.723786 -0.57793546 -0.37699392 0.0026176262
0.029337479 0.035463016 -0.032430422 0.82113457 -0.17846431 -0.54211491 0.0016524262
0.030253546 0.035299677 -0.03085082 0.86235052 -0.13254297 -0.4886553 0.001536797
0.0037162525 0.038345795 -0.032070361 -0.87352961 -0.39419982 -0.28557402 0.0022921027
0.029478401 0.038328517 -0.032790288 0.86980987 -0.04811985 -0.49103492 0.0015086129
0.030211031 0.038328897 -0.031448636 0.89382952 -0.012114699 -0.44824335 0.0013702284
0.0029487838 0.040919259 -0.031933989 -0.90338057 -0.33120075 -0.2724143 0.0015894967
0.029529929 0.041531958 -0.032622803 0.89494479 0.078568526 -0.43920466 0.0022025167
0.030238433 0.04144476 -0.031063346 0.91029543 0.10347091 -0.40081903 0.0012275394
0.029320356 0.044419248 -0.032073945 0.90238625 0.15996405 -0.40013829 0.00066649704
0.028522344 0.046557467 -0.032589871 0.87479126 0.26267704 -0.40711293 0.0043196562
0.0196089 0.021805711 -0.027643232 -0.10060149 -0.74630147 -0.65796155 0.0022348373
0.022273038 0.021806758 -0.027621491 0.12944278 -0.73118973 -0.66978061 0.0030037018
0.01184424 0.024915107 -0.027591009 -0.476989 -0.68503463 -0.55064416 0.0013089511
0.013758114 0.024350461 -0.028315803 -0.40233308 -0.70134842 -0.58842033 0.00099875347
0.01643057 0.023597073 -0.028810391 -0.24600247 -0.73412699 -0.63288248 0.0018451517
0.019266555 0.023225145 -0.029120697 -0.088406593 -0.73341572 -0.67400718 0.0027224992
0.022447081 0.02331505 -0.029144056 0.13524413 -0.71794212 -0.68283826 0.0026653523
0.025321774 0.023796543 -0.02861076 0.36527839 -0.65398443 -0.6624772 0.0045884722
0.027561288 0.024464631 -0.027708059 0.60462648 -0.52548981 -0.598571 0.0034500454
0.0087365862 0.027575411 -0.02763449 -0.62178713 -0.62494355 -0.47204497 0.0024828387
0.010624875 0.026808862 -0.028756121 -0.50981587 -0.65254533 -0.5606001 0.0015322968
0.013182841 0.025773223 -0.029609971 -0.37166131 -0.70865226 -0.59973317 0.0013612499
0.015521917 0.025204174 -0.030300666 -0.24940383 -0.72502255 -0.64198124 0.0015034995
0.026045108 0.025601557 -0.029879816 0.38494626 -0.61002946 -0.69258964 0.0028734449
0.028309381 0.026697472 -0.028839029 0.64525932 -0.46912998 -0.60295725 0.0034013137
0.0077387285 0.029549744 -0.028752666 -0.67478049 -0.58759576 -0.44654506 0.0024693694
0.0094328253 0.028617956 -0.029786963 -0.61387086 -0.62720573 -0.47934905 0.0014865641
0.029234705 0.029353267 -0.029657448 0.76802254 -0.35134691 -0.53544074 0.0014240356
0.030336404 0.029501865 -0.028130068 0.81419677 -0.30521011 -0.49389324 0.0028430866
0.0052501839 0.032825451 -0.028626109 -0.81766003 -0.47764105 -0.32138938 0.0041399607
0.0063742357 0.031683307 -0.029387426 -0.74628478 -0.53872645 -0.39093834 0.003076395
0.029865431 0.031611606 -0.030105446 0.813613 -0.23482908 -0.53187335 0.0020029342
0.030791495 0.032481775 -0.028861428 0.87300736 -0.18915364 -0.44953194 0.0017386207
0.0041764197 0.035332691 -0.029104343 -0.89262235 -0.38567838 -0.23340409 0.002615643
0.031261601 0.035532586 -0.028821293 0.91396838 -0.081765361 -0.39746219 0.0019693901
0.0031265395 0.038481221 -0.029123053 -0.90183544 -0.3629559 -0.23442677 0.0013479559
0.031213498 0.0384183 -0.029145742 0.93065733 0.021916261 -0.36523509 0.00095939741
0.031026432 0.04131959 -0.029035317 0.93694788 0.12291223 -0.32714108 0.0010073138
0.029854659 0.04504982 -0.03025924 0.91694432 0.199808 -0.34538358 0.00096057722
0.030578243 0.043797188 -0.028956078 0.92991084 0.16574483 -0.32832074 0.00092702109
0.020647744 0.018831268 -0.024419073 -0.078249447 -0.748631 -0.65835303 0.0013665888
0.021542151 0.018831179 -0.024421114 0.09435121 -0.74125284 -0.66456169 0.0020136843
0.01382364 0.021516729 -0.025045699 -0.4290151 -0.68498611 -0.58884639 0.0014483134
0.016456304 0.02088863 -0.025721166 -0.27189034 -0.72563016 -0.63208902 0.0016070718
0.019429194 0.02036133 -0.025984298 -0.11340169 -0.74314225 -0.65945399 0.0019012217
0.02250921 0.020411341 -0.026048895 0.14279951 -0.73215175 -0.66600466 0.0025635189
0.025274413 0.020806961 -0.025616625 0.3524636 -0.66840601 -0.65498304 0.0036291848
0.027598407 0.021590265 -0.024917532 0.55423564 -0.59458363 -0.58248872 0.0026480188
0.010954811 0.023973549 -0.025618495 -0.53287119 -0.66309488 -0.52569324 0.0014824234
0.013268391 0.02298869 -0.026384203 -0.38485542 -0.70230222 -0.59888065 0.0009209729
0.015486405 0.022425376 -0.027081985 -0.2537432 -0.72842425 -0.63640589 0.0014063325
0.026083859 0.02253611 -0.026982509 0.34009683 -0.66772819 -0.66217303 0.003352721
0.028430434 0.023508823 -0.025926517 0.61897224 -0.51256067 -0.59510922 0.0039731464
0.030243456 0.02462969 -0.024708409 0.72338265 -0.45031971 -0.5233829 0.0035971254
0.0080377636 0.026736898 -0.025522763 -0.65108889 -0.59941316 -0.46560413 0.0011802485
0.0097441943 0.025648465 -0.026409028 -0.5997557 -0.62963629 -0.49381286 0.0023806288
0.029431749 0.025738548 -0.026776534 0.75727344 -0.40231878 -0.51446724 0.0023577523
0.030594084 0.026653945 -0.025721218 0.80166435 -0.35715306 -0.4793494 0.0031219646
0.0053755236 0.030340206 -0.025341235 -0.82122517 -0.45886511 -0.3391639 0.0025469474
0.0066924654 0.028945988 -0.026232719 -0.76206988 -0.51764894 -0.38895896 0.0014622913
0.031396583 0.029342506 -0.025999043 0.87217462 -0.25150868 -0.41958892 0.002380606
0.004587905 0.032458857 -0.026113683 -0.88799262 -0.38415807 -0.25276777 0.0041043526
0.03207656 0.032440569 -0.025979264 0.91355675 -0.14339116 -0.38059556 0.0014182031
0.003476101 0.035265531 -0.025831848 -0.91394413 -0.33845749 -0.22394788 0.0015897412
0.032306958 0.035304729 -0.02613695 0.94194674 -0.035460666 -0.33388445 0.0015522973
0.0029740471 0.037472863 -0.026072908 -0.92196876 -0.32935414 -0.20371416 0.0011142927
0.032348678 0.038565647 -0.025689099 0.95623565 0.080122486 -0.28141379 0.0011770693
0.031809047 0.041174814 -0.026500536 0.95144242 0.13975112 -0.27427503 0.00071663392
0.031492226 0.043275375 -0.025964785 0.95144355 0.13975467 -0.27426958 0.0007083416
0.01418363 0.018651431 -0.021939646 -0.39521223 -0.69212526 -0.60396183 0.00098812743
0.016636496 0.018065583 -0.022522166 -0.28949913 -0.72714889 -0.62245071 0.0012659864
0.019468412 0.017681897 -0.022935748 -0.14293294 -0.74446076 -0.65218729 0.0013406149
0.022358693 0.017514698 -0.022834552 0.10697268 -0.74478501 -0.65867454 0.0033022552
0.025260871 0.018020801 -0.022577435 0.28597832 -0.6979866 -0.65652955 0.0034532521
0.027596433 0.018638063 -0.02180534 0.54407072 -0.61914021 -0.56626183 0.0038170945
0.010952297 0.021228502 -0.022320347 -0.53659415 -0.64898849 -0.53933346 0.0014951716
0.013142815 0.02028502 -0.023095014 -0.43521443 -0.67901123 -0.59121239 0.0019238698
0.016050223 0.01950286 -0.02392236 -0.26996371 -0.72828263 -0.62986034 0.0012702529
0.025910797 0.019523378 -0.023918532 0.31346503 -0.69954634 -0.64216399 0.0027476863
0.028381858 0.020399103 -0.022915818 0.57767671 -0.59389788 -0.55997765 0.0056551136
0.030136652 0.021481745 -0.021952657 0.70114255 -0.50943238 -0.49887648 0.003351511
0.0082765967 0.023988321 -0.022416053 -0.67341912 -0.56436676 -0.47749004 0.0017409321
0.01012243 0.022758484 -0.023263711 -0.56223941 -0.64258295 -0.52055168 0.0025024107
0.02958695 0.022501182 -0.02368886 0.71601754 -0.48420095 -0.50286025 0.0024859165
0.030879306 0.023663435 -0.02276041 0.78230262 -0.42748097 -0.45305914 0.0036478727
0.0055775866 0.027586222 -0.022060651 -0.81131971 -0.46010244 -0.36064669 0.0025637189
0.0069430037 0.026227981 -0.023080798 -0.77110726 -0.50506723 -0.38768631 0.00084459916
0.031874113 0.026446838 -0.023021068 0.87837166 -0.2786034 -0.38838565 0.00080984051
0.0049921009 0.029397057 -0.022905542 -0.87173945 -0.38879058 -0.29818153 0.002835037
0.006114834 0.028239034 -0.024176586 -0.79620665 -0.45402959 -0.39989001 0.0036301767
0.032466594 0.029374236 -0.023542827 0.92106557 -0.18868898 -0.34063849 0.0019780782
0.033141568 0.029959686 -0.021879267 0.93317217 -0.16337249 -0.32015464 0.00085548754
0.0038850731 0.032155614 -0.022905471 -0.92486483 -0.32171384 -0.2027936 0.0036517237
0.033045504 0.032342292 -0.023134863 0.95547044 -0.085171498 -0.28252792 0.0023478109
0.0030990411 0.035490189 -0.023055997 -0.93643886 -0.30501166 -0.17334972 0.0014814954
0.033000909 0.035436515 -0.023717737 0.96367157 -0.019388819 -0.26638559 0.0009022975
0.033071358 0.037756149 -0.022796908 0.96793717 0.033650283 -0.24892804 0.0012485895
0.032302551 0.041226346 -0.024071518 0.95834649 0.10481032 -0.26568174 0.0006456002
0.014451847 0.015775297 -0.018785257 -0.39532852 -0.69889092 -0.59604269 0.00098165765
0.016645374 0.015333932 -0.019360842 -0.27253726 -0.73604512 -0.61964583 0.0012031914
0.019407341 0.014874029 -0.019648677 -0.11511526 -0.75903141 -0.64079624 0.0019215916
0.022388007 0.014876935 -0.019759936 0.082957685 -0.77040076 -0.63213968 0.0028907983
0.02520472 0.015242224 -0.019406199 0.3162961 -0.73578781 -0.59880966 0.0030670345
0.027180638 0.015736308 -0.01882102 0.50941664 -0.66425216 -0.54705006 0.0020718174
0.011161573 0.01814921 -0.018935187 -0.56045419 -0.61647767 -0.55303389 0.00092641765
0.013347815 0.017484685 -0.01998095 -0.42288291 -0.69257265 -0.58439136 0.001797105
0.016215542 0.01667323 -0.02071867 -0.26527074 -0.73551589 -0.62341624 0.0011393185
0.018995481 0.016258657 -0.021202508 -0.098128706 -0.74448574 -0.66038752 0.0019743526
0.023273993 0.016256334 -0.021269796 0.081210963 -0.76645958 -0.63713765 0.0026415377
0.025812773 0.016691424 -0.020795004 0.29814398 -0.72759408 -0.61783242 0.0030356676
0.02839179 0.017499859 -0.019725226 0.55841851 -0.63864702 -0.52943254 0.0046593728
0.030203892 0.018607982 -0.01880144 0.67012721 -0.5517714 -0.49646538 0.0035007067
0.0084379595 0.02109989 -0.019198585 -0.65357828 -0.5713467 -0.49638537 0.0011810983
0.010277197 0.019989967 -0.02014304 -0.5420292 -0.6379962 -0.54695988 0.00090048555
0.012015507 0.019197926 -0.020968724 -0.53359926 -0.63504946 -0.55855519 0.0014112515
0.029444365 0.019346258 -0.020654142 0.69171733 -0.53536242 -0.48467961 0.0020956469
0.03078654 0.020509219 -0.019866411 0.74805254 -0.47234693 -0.46616054 0.0026860966
0.0057256161 0.024729416 -0.018766496 -0.7983318 -0.45863461 -0.39028263 0.0019750989
0.0072351736 0.023348844 -0.019982409 -0.76563489 -0.49584144 -0.40981027 0.00066713145
0.032052662 0.023365743 -0.02013918 0.85552377 -0.34357712 -0.38734198 0.0012436216
0.032946911 0.024063922 -0.018494297 0.88457698 -0.30914682 -0.34921616 0.0019995579
0.0052021337 0.026561057 -0.019732323 -0.8621549 -0.41183019 -0.2951014 0.003117553
0.006303967 0.02544073 -0.020893196 -0.7976228 -0.47966942 -0.36567062 0.0019002019
0.032696687 0.025847314 -0.020616651 0.90328771 -0.24531478 -0.35198295 0.0012073254
0.033324532 0.026726097 -0.019487852 0.91860825 -0.22806919 -0.32271239 0.0004546821
0.0041677449 0.029298365 -0.019959657 -0.92574054 -0.31216669 -0.21343951 0.0047049583
0.033620588 0.029152868 -0.019760692 0.95779896 -0.12945205 -0.25663832 0.0019730974
0.0034515061 0.031884134 -0.020136226 -0.94610548 -0.27585757 -0.16966718 0.0026988073
0.033691917 0.032529473 -0.020585798 0.96967131 -0.057059474 -0.23765874 0.00082315656
0.0030003604 0.03460823 -0.019968223 -0.95759505 -0.2484169 -0.14594771 0.001460594
0.033758007 0.035080716 -0.019733999 0.97671974 -0.01753586 -0.21380134 0.00029651105
0.014667735 0.012798808 -0.015560139 -0.37860665 -0.691899 -0.61476237 0.00098618772
0.016704699 0.012427049 -0.016064292 -0.26462075 -0.72054619 -0.64092821 0.0017884009
0.019476414 0.01211679 -0.016446816 -0.093122788 -0.76358777 -0.63895369 0.0017157241
0.022388138 0.012090897 -0.016467445 0.098992705 -0.77271324 -0.62698871 0.0026471773
0.02503692 0.012449763 -0.016113104 0.31388447 -0.73599643 -0.59982145 0.0025152322
0.011330307 0.0154712 -0.016097449 -0.52006352 -0.62560135 -0.58151263 0.0015374088
0.013510873 0.01464405 -0.016858432 -0.37541789 -0.69620854 -0.61184555 0.00089289964
0.016280573 0.013843955 -0.017484121 -0.24875164 -0.73548567 -0.63022488 0.0011532225
0.019258255 0.01340213 -0.017899606 -0.098055094 -0.74414271 -0.66078502 0.0016028116
0.022730263 0.013380432 -0.017947651 0.084506921 -0.74922025 -0.65690756 0.0023350397
0.0257279 0.013831994 -0.017452946 0.28114247 -0.73764551 -0.61387128 0.002300601
0.02818045 0.014832372 -0.016775342 0.50525564 -0.6929909 -0.51427662 0.0024377587
0.02995578 0.01576066 -0.015778828 0.66546178 -0.57847083 -0.47173303 0.0026455703
0.0084144343 0.018409189 -0.016152546 -0.6413818 -0.575441 -0.50744164 0.0012143424
0.010155885 0.017314652 -0.01696565 -0.60970271 -0.5926246 -0.52636361 0.001091899
0.01224191 0.016518068 -0.018066633 -0.50499809 -0.65433651 -0.5628683 0.00089020585
0.029535318 0.016688954 -0.01751003 0.66605622 -0.58158112 -0.46704671 0.0024194154
0.030862285 0.017808666 -0.016746972 0.74128008 -0.522385 -0.42144737 0.0032110515
0.0057596425 0.021932535 -0.015608866 -0.78713185 -0.45899704 -0.41200146 0.0020324201
0.0074252943 0.020411801 -0.016876522 -0.72349143 -0.51989424 -0.45416972 0.001743015
0.0093653342 0.019090079 -0.01809885 -0.60131752 -0.59214216 -0.53645587 0.0010935877
0.032022797 0.020264924 -0.017177299 0.84678656 -0.38921949 -0.36257508 0.0013438844
0.033143088 0.021919034 -0.015893508 0.9135012 -0.27880505 -0.29628232 0.00064718875
0.0053627854 0.0236362 -0.016626792 -0.85325497 -0.38068768 -0.35641679 0.0035271468
0.0063734963 0.02265224 -0.017680354 -0.79539669 -0.45269448 -0.40300354 0.0022008647
0.032520626 0.02226717 -0.018126357 0.89242631 -0.30568182 -0.33186427 0.0023462917
0.033292174 0.023462793 -0.016937595 0.91402131 -0.27593204 -0.29736602 0.00058456557
0.004411289 0.02622648 -0.01695377 -0.88655525 -0.35197851 -0.30021811 0.0015269915
0.033860441 0.02615873 -0.017113039 0.95861006 -0.15950187 -0.23585136 0.00059251726
0.0035820308 0.02915005 -0.016994841 -0.95860052 -0.22514033 -0.174347 0.0022319779
0.034520969 0.029685438 -0.015784765 0.97357482 -0.095560148 -0.20741343 0.00026894364
0.0030132709 0.032793161 -0.016973026 -0.96883351 -0.21081363 -0.13007393 0.00035605143
0.03449899 0.031492308 -0.016064197 0.9745 -0.063266695 -0.21528368 0.00051605998
0.016778307 0.0094677731 -0.012799704 -0.23811461 -0.70468438 -0.66837209 0.0013906586
0.019491524 0.0092367288 -0.013145337 -0.069023758 -0.74103534 -0.66790891 0.0020303775
0.022247335 0.0092411013 -0.013070263 0.12344924 -0.75267094 -0.64671987 0.0026382783
0.024527647 0.0095373569 -0.012766283 0.32090867 -0.73115993 -0.60201567 0.0026519089
0.011253205 0.012509583 -0.012913041 -0.51910865 -0.59844691 -0.61023557 0.00098004891
0.013537342 0.011765029 -0.013751443 -0.38482666 -0.68269986 -0.62115157 0.0020703301
0.016243005 0.010928452 -0.014196103 -0.24232517 -0.71953267 -0.65080816 0.0014696512
0.01944063 0.010574532 -0.014654936 -0.082406893 -0.74215174 -0.66514659 0.0016086138
0.022482255 0.010534272 -0.014590058 0.099489518 -0.75135654 -0.65235358 0.002019766
0.025528666 0.011075299 -0.014134457 0.2877869 -0.74563938 -0.60099965 0.0021531002
0.027946213 0.012120527 -0.013571031 0.5327841 -0.6831072 -0.49950534 0.0038784274
0.0083643394 0.015260384 -0.012814226 -0.64124584 -0.54178178 -0.54339319 0.0017442433
0.010278513 0.014381956 -0.013956288 -0.55563253 -0.60831982 -0.56676233 0.002304923
0.012703768 0.013423659 -0.014980752 -0.40612927 -0.65567017 -0.63651848 0.0014222537
0.029007696 0.013702509 -0.014419032 0.60844737 -0.65082759 -0.4541094 0.003209366
0.030563598 0.014893644 -0.013590731 0.72589207 -0.55515891 -0.40605325 0.002609215
0.0057929438 0.0188585 -0.012518544 -0.77559322 -0.44334909 -0.4493292 0.0022023802
0.0074546211 0.017493024 -0.01382691 -0.71422696 -0.48579073 -0.50387222 0.0013783447
0.0092739668 0.01632203 -0.014939312 -0.63308686 -0.5645197 -0.52964002 0.00098023261
0.031763054 0.017221063 -0.01406754 0.82708973 -0.43639547 -0.35423389 0.0020214918
0.032941468 0.018400453 -0.01246636 0.88963997 -0.37448144 -0.2613509 0.0034629111
0.0054133781 0.020739907 -0.013644446 -0.83940631 -0.40235487 -0.36538693 0.0031982479
0.0064892811 0.019689258 -0.014640104 -0.7864989 -0.4394401 -0.43394929 0.0020218305
0.032780167 0.019689195 -0.014635751 0.88371634 -0.35825804 -0.30115885 0.0017576747
0.033442099 0.020843757 -0.013670549 0.91251153 -0.31494337 -0.26102388 0.0013778171
0.0044591529 0.023331933 -0.013892952 -0.87683618 -0.34648535 -0.33332589 0.0015781128
0.033985954 0.023370646 -0.014267055 0.95067877 -0.21465671 -0.22390279 0.00095642317
0.0036221426 0.026320014 -0.013957251 -0.95209712 -0.21032754 -0.22197597 0.002425296
0.034683079 0.027067263 -0.013724012 0.96468925 -0.14475775 -0.22004518 0.00099191477
0.0030285965 0.029840378 -0.013417371 -0.96617955 -0.19275779 -0.17129353 0.00067283527
0.034573093 0.028357439 -0.015122164 0.96974432 -0.12724935 -0.2083354 0.00064459309
0.0030222095 0.031345084 -0.014899243 -0.96984655 -0.19465789 -0.14664897 0.00068541884
0.016723301 0.0067601046 -0.0098109189 -0.20022528 -0.727786 -0.65592486 0.0015607318
0.01954042 0.0064903339 -0.010003211 -0.028926866 -0.76152694 -0.6474874 0.0020977568
0.022197306 0.0066772383 -0.0099725388 0.15998042 -0.7720229 -0.61513156 0.002443877
0.024356136 0.0069316686 -0.0095481165 0.35398445 -0.75369596 -0.55374855 0.0025241224
0.011317661 0.0094152922 -0.0099093355 -0.48385069 -0.59065449 -0.64576751 0.00096559525
0.013561174 0.0087356018 -0.010623014 -0.35264081 -0.65287828 -0.67036873 0.0017418832
0.01628926 0.0082225977 -0.011265501 -0.22636846 -0.72685832 -0.64840907 0.0015998954
0.019344712 0.0078779031 -0.011575738 -0.049068779 -0.76306719 -0.64445388 0.0017958143
0.022524863 0.0079464903 -0.011437481 0.12589213 -0.77259868 -0.62228793 0.0021557075
0.025435673 0.0085302256 -0.010941839 0.31128943 -0.75471872 -0.57749331 0.0022983593
0.027612709 0.0093398932 -0.01016935 0.53750294 -0.69519269 -0.47728175 0.0044703865
0.008236873 0.012428394 -0.0099895289 -0.64887655 -0.51459062 -0.56049585 0.0011888592
0.01031369 0.011381268 -0.01098883 -0.49176556 -0.60943449 -0.62189728 0.0012067051
0.012914378 0.010384258 -0.011931352 -0.36487457 -0.65841317 -0.6582998 0.0015308437
0.026509823 0.010121352 -0.012293506 0.43415833 -0.72021121 -0.54111212 0.0085486099
0.02874165 0.011124895 -0.011207579 0.6307264 -0.6481359 -0.42673644 0.0034799373
0.030506669 0.012562267 -0.010391332 0.73188341 -0.56743509 -0.37731171 0.0032460692
0.0058244425 0.015500731 -0.0095954277 -0.74799287 -0.42297691 -0.51146579 0.0021407404
0.0074006394 0.014510348 -0.010874525 -0.70802617 -0.4798902 -0.51807755 0.0010615969
0.0091764703 0.013505013 -0.012000252 -0.6236195 -0.54993302 -0.55558288 0.001184202
0.031310789 0.014336762 -0.011125377 0.79788852 -0.4953385 -0.3435311 0.0027019093
0.0052990136 0.017828094 -0.010664772 -0.82516688 -0.39029977 -0.40836966 0.0031908965
0.0065503861 0.016642973 -0.011720274 -0.70909089 -0.48484668 -0.51197058 0.0012025562
0.032461401 0.016489074 -0.011165928 0.86578542 -0.41970846 -0.27250764 0.0013190404
0.033276103 0.018015819 -0.010453619 0.90454412 -0.36004966 -0.22839472 0.0015526629
0.004366294 0.020480732 -0.010922845 -0.89115638 -0.28892636 -0.34980255 0.0025585881
0.033791993 0.02013463 -0.011369795 0.92317092 -0.31142506 -0.22532196 0.0015147468
0.0035841977 0.023366796 -0.011021392 -0.94360101 -0.21255952 -0.25384155 0.002436725
0.034408715 0.022595268 -0.011347095 0.95029306 -0.23997328 -0.19838348 0.00081863673
0.0030404208 0.026323913 -0.01067418 -0.96792138 -0.1735761 -0.18165764 0.0016713684
0.034858309 0.025586106 -0.011496413 0.96161854 -0.17742644 -0.2093078 0.0005585663
0.0030350601 0.028327219 -0.011917818 -0.96312451 -0.17894459 -0.20092277 0.00097067747
0.016819341 0.0037015332 -0.0065715653 -0.14711897 -0.70959955 -0.68907505 0.0016601302
0.019376073 0.0037005926 -0.0067892354 0.023537206 -0.74409175 -0.66766274 0.0023025519
0.021486117 0.0037017008 -0.0065344316 0.22894344 -0.76213956 -0.60558093 0.0037229513
0.011110381 0.0065284367 -0.0070461119 -0.43886372 -0.60173786 -0.66731566 0.0012042936
0.013607377 0.0058088279 -0.007717764 -0.30794379 -0.67802978 -0.66741747 0.001866007
0.016376019 0.005243029 -0.0081160301 -0.18196228 -0.7037155 -0.68678552 0.0016004548
0.019388404 0.0048646075 -0.0081323702 -0.011071786 -0.74110091 -0.67130238 0.0014742722
0.022436896 0.0051813936 -0.0080669746 0.16449569 -0.75661212 -0.63283443 0.0018062287
0.025195466 0.0060046073 -0.0077249785 0.41913885 -0.72371954 -0.54822689 0.004522976
0.027464084 0.0068100402 -0.0066855242 0.63373464 -0.6518082 -0.41656509 0.0032881913
0.0081817592 0.0090759164 -0.0070346417 -0.57787216 -0.52842659 -0.62195587 0.0018773129
0.010282258 0.0083694374 -0.0081345141 -0.49688619 -0.57480633 -0.65015525 0.001682872
0.012864167 0.0075556994 -0.0090684034 -0.32715526 -0.6787585 -0.65746194 0.0014019554
0.026362753 0.0075191767 -0.0089065917 0.40499789 -0.74009407 -0.53687751 0.0035270581
0.028379586 0.0084632058 -0.0078296326 0.63853627 -0.65506041 -0.40393984 0.0031963445
0.030099571 0.0097618168 -0.0067928922 0.72952318 -0.5777365 -0.36608258 0.0025491004
0.0057380926 0.012209593 -0.0067871627 -0.72473407 -0.41045466 -0.5534324 0.0025743542
0.0073104878 0.011343536 -0.0080095753 -0.64947551 -0.4929041 -0.57898802 0.0025588013
0.0092307432 0.010337915 -0.0090958867 -0.58757645 -0.5424884 -0.60038346 0.0014228196
0.029718274 0.010648242 -0.0090261884 0.7329002 -0.57928681 -0.35676876 0.0021027101
0.030764239 0.011407936 -0.007867042 0.79935688 -0.51065135 -0.3166444 0.0030993777
0.0051363548 0.014539501 -0.0076851738 -0.79505223 -0.35267255 -0.49347138 0.0028567889
0.0063897362 0.013622756 -0.0088090319 -0.73145646 -0.42967111 -0.52948487 0.0029837415
0.032339066 0.014386673 -0.0080648754 0.87150115 -0.4248293 -0.24496084 0.00052459561
0.0042255544 0.017276546 -0.0080093779 -0.85916418 -0.30057624 -0.41411459 0.0023569912
0.033516753 0.017183468 -0.0078564771 0.91512984 -0.35410345 -0.19273847 0.001362431
0.0033836942 0.020268654 -0.0079690367 -0.93236309 -0.19820809 -0.30234522 0.0039176056
0.03431851 0.020410599 -0.0085186949 0.95206589 -0.25592041 -0.16755667 0.0010410057
0.0030495527 0.02319511 -0.0085555986 -0.96928358 -0.11407366 -0.21789119 0.0027072679
0.016692301 0.00089617114 -0.0035853339 -0.092780195 -0.72895557 -0.67824453 0.0019618818
0.019040247 0.00089620688 -0.0036050451 0.11140196 -0.75976533 -0.6405828 0.0027360125
0.010712259 0.0032768673 -0.0039451993 -0.40226212 -0.58029836 -0.70812356 0.0014893839
0.013489121 0.0026830379 -0.0046180272 -0.25110835 -0.6522094 -0.71523941 0.0016287079
0.01634633 0.0023902142 -0.0050880895 -0.13099323 -0.72705448 -0.67396778 0.0016830508
0.019444546 0.0023024115 -0.0051626568 0.038903054 -0.75092685 -0.65923852 0.0016924108
0.022461612 0.0026418092 -0.0048462045 0.23638858 -0.74961334 -0.61822337 0.0024902364
0.02483757 0.0032812669 -0.0042458465 0.44423291 -0.71733832 -0.53673357 0.003906298
0.0080345366 0.005821106 -0.0042594606 -0.53131866 -0.51853752 -0.66993976 0.001755981
0.010208163 0.005237163 -0.0053141951 -0.41160154 -0.60864252 -0.67833495 0.0013132587
0.012870965 0.0043271165 -0.005939377 -0.27567422 -0.65757865 -0.70113766 0.0015873631
0.023595141 0.0041692024 -0.0063472283 0.25280914 -0.76741028 -0.58921051 0.0027878096
0.025804244 0.0047580991 -0.0054629003 0.46996528 -0.72491813 -0.50361335 0.0049887113
0.027817558 0.0058951955 -0.0047204783 0.62499326 -0.66226685 -0.41326272 0.0031246569
0.0054474277 0.0090059992 -0.0041305888 -0.6802879 -0.42232063 -0.59904385 0.0024221526
0.0071012024 0.0081429156 -0.0052444199 -0.59952641 -0.48888552 -0.6336869 0.0027721589
0.02934025 0.0077453521 -0.0050187563 0.75089109 -0.56777304 -0.33733723 0.0019337086
0.030418437 0.0091416156 -0.0048248125 0.79834694 -0.53385866 -0.27863431 0.0037287024
0.0047468822 0.01142747 -0.004863671 -0.75393289 -0.38776702 -0.5303036 0.0017651244
0.0063292771 0.010241768 -0.0060854447 -0.68671298 -0.45289391 -0.56860572 0.0017952987
0.031622101 0.011331625 -0.0050239456 0.86843973 -0.44327113 -0.22208826 0.0014944294
0.0037154411 0.014293229 -0.0049946941 -0.85100323 -0.26963872 -0.45065349 0.0023841935
0.032561824 0.013306125 -0.0049783033 0.89053416 -0.40608582 -0.20504415 0.002151079
0.033236139 0.015167414 -0.0053558392 0.90393949 -0.3828795 -0.19051716 0.0010404607
0.0025995343 0.017550658 -0.0041225841 -0.93560904 -0.13692006 -0.32540533 0.001954122
0.0031790424 0.017263873 -0.0056009446 -0.92368835 -0.20821209 -0.32163265 0.0043605198
0.034009404 0.017306574 -0.0044086468 0.92755204 -0.33726224 -0.16093914 0.00045807994
0.0025961115 0.020554289 -0.0051814681 -0.96876019 -0.11505905 -0.21969317 0.0044972599
0.0030594766 0.019108288 -0.0062532914 -0.94997448 -0.15510035 -0.27109471 0.0020155762
0.00259341 0.023554735 -0.0060170731 -0.98331469 -0.072905459 -0.16666433 0.0013011472
0.0025948358 0.025681403 -0.0055760038 -0.98331547 -0.072899319 -0.16666259 0.0013014817
0.0084028244 0.0007716816 -0.00067813369 -0.42440534 -0.53017998 -0.73402274 0.0010194908
0.010558373 0.00014278822 -0.0012112029 -0.31779438 -0.61479676 -0.72182524 0.0016030167
0.013509219 -0.00036355515 -0.0017489792 -0.20042963 -0.65453726 -0.72897804 0.0012955987
0.01648535 -0.00071493234 -0.0018831666 -0.047531057 -0.7252807 -0.68681061 0.0028459108
0.019325769 -0.00056660676 -0.001863328 0.15975113 -0.75070304 -0.64103395 0.002617883
0.022163009 0.0001840003 -0.0017778537 0.33222282 -0.76148814 -0.55656433 0.0042861216
0.024508994 0.00073264679 -0.00086362078 0.53627175 -0.71581674 -0.44723493 0.0033059723
0.0058018826 0.0033720387 -0.00071827741 -0.56550163 -0.44901967 -0.69180143 0.0019698055
0.007654693 0.0026355064 -0.001568966 -0.47730634 -0.51431745 -0.71249998 0.0018708318
0.010136319 0.0020705005 -0.002602828 -0.36747482 -0.5979827 -0.71230531 0.0027924096
0.012570282 0.0014594141 -0.0031481457 -0.23078734 -0.65519333 -0.71934617 0.0011668958
0.02320811 0.0014592085 -0.0029211771 0.27905598 -0.77432215 -0.56793749 0.0032901934
0.025611794 0.0023063584 -0.0019991277 0.54747045 -0.70265126 -0.45448571 0.0034783427
0.027353255 0.003346256 -0.001251675 0.66550559 -0.64355558 -0.37807226 0.0033976315
0.0050375657 0.0055413968 -0.0014242004 -0.62957805 -0.40390751 -0.66369426 0.0015399042
0.0069570504 0.004923665 -0.0027322029 -0.49376193 -0.52127892 -0.69603693 0.0013530115
0.028414842 0.0051330691 -0.0023012245 0.69879496 -0.624798 -0.34830028 0.0031450635
0.030028583 0.0065628649 -0.00077973725 0.78629464 -0.55579561 -0.26987383 0.0019333253
0.0026106774 0.0094008911 -0.00067566754 -0.8056621 -0.24275233 -0.54035163 0.0026335823
0.0041616992 0.008248196 -0.0020922686 -0.7657339 -0.31183603 -0.56250322 0.0012750542
0.029860968 0.0074753524 -0.0033296836 0.76627779 -0.57702357 -0.28259873 0.0033648184
0.030768132 0.0083744032 -0.0020744805 0.83346617 -0.49933344 -0.23664372 0.001094437
0.00239413 0.011624317 -0.0011919765 -0.86187303 -0.18739145 -0.47123167 0.0039979937
0.0033316819 0.011207254 -0.0026260018 -0.82447809 -0.27445993 -0.49488154 0.0029197119
0.032291856 0.011494565 -0.0021877331 0.87536597 -0.43401572 -0.21299002 0.00078696461
0.0022130206 0.014618257 -0.0019132007 -0.93067294 -0.099208884 -0.35214406 0.0041846707
0.0030726893 0.013118795 -0.0031879437 -0.85572195 -0.18101817 -0.48473939 0.0033010275
0.033206757 0.014076463 -0.0025664759 0.90415311 -0.39143056 -0.17114131 0.0010006899
0.0018994664 0.017406655 -0.001577076 -0.96527714 -0.058267504 -0.25464657 0.0034569628
0.0021331303 0.020419901 -0.0028596264 -0.9762978 -0.041762903 -0.2123642 0.0019887097
0.0021351383 0.022581555 -0.0019279909 -0.98032737 -0.022478441 -0.19609435 0.0010747171
0.008132183 -0.0028839326 0.0021627154 -0.36012876 -0.53992492 -0.76078141 0.0016062042
0.010568255 -0.0033779261 0.0016745385 -0.25735009 -0.59925103 -0.75806928 0.0013750585
0.013347373 -0.0035954332 0.0012604804 -0.06262055 -0.68912524 -0.72193152 0.002534026
0.016386956 -0.0036265752 0.0011802637 0.062976763 -0.71703422 -0.6941871 0.0024404665
0.019352084 -0.0032625631 0.0013315049 0.26725814 -0.752258 -0.60223001 0.0025978228
0.021856315 -0.0027095415 0.0019192803 0.44335392 -0.72158635 -0.53174287 0.0028708638
0.0048661768 3.7684105e-05 0.0020774431 -0.50910169 -0.43636954 -0.74188757 0.0028868085
0.0072670509 -0.00065491349 0.0010207547 -0.41560096 -0.52674025 -0.74149883 0.00079223834
0.010220012 -0.0014285162 0.00019456027 -0.26826787 -0.59996438 -0.75370753 0.0015762111
0.013025506 -0.0019511486 -0.000210942 -0.13561861 -0.66639596 -0.73316026 0.0015101981
0.019894747 -0.0019522432 -8.430006e-05 0.19136256 -0.74059105 -0.64413148 0.0023227816
0.022581233 -0.0013596247 0.00058079371 0.40029049 -0.74736428 -0.53029633 0.0048997188
0.025206035 -8.8834204e-05 0.0013681878 0.58520097 -0.7046873 -0.40119269 0.0022124208
0.0025011799 0.0033825887 0.0022804248 -0.707609 -0.32790184 -0.62591529 0.0038616224
0.0044106632 0.0024893023 0.00098177092 -0.6043703 -0.38771197 -0.69599998 0.0020599787
0.0065584462 0.00151988 -6.429269e-05 -0.45457819 -0.51774198 -0.72477716 0.001420393
0.026437223 0.0014799971 0.00047213165 0.68600237 -0.63998753 -0.34614554 0.0019698769
0.027977131 0.0027371738 0.0012456821 0.73820579 -0.60046071 -0.30740705 0.0027106269
0.0021425625 0.0055827019 0.0017110775 -0.75873315 -0.25170815 -0.60080528 0.0038405131
0.0035301254 0.0050898525 0.00036990922 -0.70173347 -0.33729723 -0.6275354 0.0022926787
0.029349517 0.0047616428 0.000917356 0.80863065 -0.53572804 -0.24312943 0.0012994352
0.030325364 0.0061104307 0.0013252804 0.80552411 -0.54319936 -0.23678118 0.0012548645
0.0018180027 0.0083673866 0.0010730042 -0.80851269 -0.21450168 -0.54799289 0.0022094988
0.0030852822 0.0072782622 -0.00026636245 -0.77997893 -0.28779885 -0.55570197 0.0023425024
0.031358592 0.0083805062 0.00069381483 0.84147656 -0.49416703 -0.21844061 0.00099535217
0.0012412312 0.01150865 0.0012406204 -0.91095597 -0.039716072 -0.41058731 0.0026218388
0.0011915846 0.014036468 0.0010913867 -0.94942641 -0.0081323162 -0.3138845 0.0040384317
0.0012597505 0.017512923 0.0014004898 -0.97888583 0.043291986 -0.19977091 0.0021556397
0.0016664016 0.020094883 0.00062824367 -0.98236477 0.0013378086 -0.1869695 0.0013028806
0.011262371 -0.0082346732 0.0055378187 -0.071096905 -0.64350516 -0.7621327 0.0023596655
0.013181025 -0.0082350159 0.0055532507 0.067569755 -0.67629313 -0.733527 0.0021163053
0.0051861228 -0.0056732511 0.0052999766 -0.38144532 -0.45658708 -0.8037585 0.001351381
0.0076184925 -0.0062890747 0.0047937115 -0.25399852 -0.54895818 -0.79632264 0.0028670589
0.010515508 -0.0065330043 0.0042359168 -0.15000409 -0.62034696 -0.76984966 0.0019650883
0.013377241 -0.0065281549 0.0039698719 0.016293881 -0.65919602 -0.75179458 0.0030794491
0.016332798 -0.0064079221 0.0041024936 0.18154639 -0.73901385 -0.64876759 0.0023940294
0.019260174 -0.0059904126 0.0046855393 0.35465708 -0.7414974 -0.56956124 0.0029005031
0.021319414 -0.0053527146 0.0052448916 0.42745718 -0.73995101 -0.51937735 0.0034456383
0.0024383487 -0.0028619259 0.0053449436 -0.52423501 -0.39988649 -0.75184333 0.0015301962
0.0043952758 -0.0035724114 0.0044787503 -0.42518023 -0.42718101 -0.79795873 0.0027516838
0.0070930314 -0.003954873 0.0033600666 -0.29456434 -0.54934591 -0.78195328 0.0014437949
0.010043964 -0.004701287 0.0028541368 -0.18987079 -0.62185371 -0.75976765 0.0013794255
0.017867979 -0.0048347502 0.0026758718 0.25434834 -0.74613941 -0.61529088 0.0021046032
0.019893259 -0.0046048779 0.0032402622 0.27415961 -0.75578481 -0.59466451 0.0030496807
0.022426022 -0.003809331 0.0040462664 0.50709492 -0.72744101 -0.46226001 0.0022511452
0.024310593 -0.0026287921 0.0044008801 0.59898406 -0.69424361 -0.3990539 0.0021752687
0.0018351466 -0.00037628529 0.0046372716 -0.60240293 -0.33934861 -0.72246331 0.0019393073
0.003856136 -0.00098825328 0.0033666054 -0.55901951 -0.38122219 -0.7363199 0.0020892378
0.025421906 -0.0012472627 0.0037746727 0.62343925 -0.68043661 -0.38513577 0.0047970563
0.027261158 0.00040032237 0.0044171694 0.72694933 -0.62635618 -0.28146493 0.0013549933
-0.0002463859 0.0032740599 0.0055173743 -0.76632965 -0.17713639 -0.61754477 0.0027589297
0.0012954141 0.0024476226 0.0040020593 -0.74202251 -0.23367938 -0.62832838 0.0014207454
0.0030980548 0.0013591263 0.0026968229 -0.60668302 -0.35611334 -0.71071726 0.0011967859
0.028640952 0.0024500573 0.0040744226 0.79192466 -0.56080443 -0.24156503 0.0012434663
-0.00024508868 0.0054284199 0.0051160962 -0.83754814 -0.088584781 -0.53913432 0.0033658512
0.000789457 0.0052532097 0.0036255699 -0.81531924 -0.16171819 -0.55596918 0.0025087753
0.029899344 0.0042278385 0.0045328247 0.81733316 -0.53825283 -0.20554902 0.00020561997
0.030600129 0.0056609199 0.0042786258 0.82594806 -0.52502573 -0.20532373 0.00042770107
-0.00024409429 0.0085380841 0.0048084832 -0.9002977 0.0063147703 -0.43522882 0.0032438692
0.00047616745 0.008515601 0.0033364617 -0.88265288 -0.07883732 -0.46336654 0.0032929922
-0.00024522905 0.011178817 0.0051595229 -0.95087743 0.088478215 -0.29665405 0.0022142939
0.00023682116 0.011627892 0.0038037854 -0.94542301 0.016107615 -0.32544726 0.0058289818
0.0004484223 0.014576663 0.0039245826 -0.96717578 0.098986983 -0.23403512 0.0022623718
0.00071401702 0.016658353 0.004241487 -0.97526371 0.11444607 -0.18911034 0.00086803664
0.0011921561 0.019035198 0.0038957107 -0.97973365 0.077654451 -0.1846395 0.00095307245
0.0055375756 -0.011200675 0.0085893683 -0.23601954 -0.48931542 -0.83956259 0.0019223745
0.0077286423 -0.011369251 0.0083500035 -0.11486595 -0.58029014 -0.80626869 0.0025049769
0.010600707 -0.011432886 0.0082750767 0.02242218 -0.63831526 -0.7694484 0.0023725838
0.013096773 -0.011275483 0.0083946697 0.17829825 -0.68617207 -0.70525002 0.0030508055
0.002103474 -0.0086734025 0.0083363429 -0.37131676 -0.42128399 -0.82743204 0.0028957587
0.0044300272 -0.0093557984 0.0077940957 -0.25877005 -0.50422615 -0.82388955 0.0016325531
0.0074469154 -0.0094729625 0.0070530144 -0.1338951 -0.57552063 -0.80675155 0.0011409218
0.010502702 -0.0095741032 0.0067310012 -0.019466285 -0.64588469 -0.76318675 0.001021596
0.013497378 -0.0096637802 0.0069271498 0.14394559 -0.6910153 -0.70836252 0.0023263458
0.016245775 -0.0092190709 0.0071818284 0.24051048 -0.72449523 -0.64595771 0.0016408081
0.018737879 -0.0086243907 0.007838618 0.44329461 -0.73332554 -0.5154838 0.0017623439
-0.00025565966 -0.0056448444 0.0083860569 -0.53649396 -0.31951439 -0.78107923 0.0017955331
0.0015272207 -0.0065011252 0.0076162773 -0.49032938 -0.34037125 -0.80232441 0.0013029185
0.0041385782 -0.0067491285 0.0063906596 -0.37778136 -0.43713921 -0.81620491 0.0018734916
0.0066842842 -0.007495949 0.0058782375 -0.24803264 -0.54339677 -0.80199736 0.0035120812
0.017268611 -0.0077622617 0.0058687734 0.22746475 -0.7450428 -0.62703347 0.0017353982
0.019687835 -0.0072427085 0.0066753714 0.4138093 -0.74198848 -0.52746081 0.005927782
0.022067867 -0.0060749664 0.0073378538 0.52562237 -0.72682446 -0.44209427 0.0014649422
-0.00081317406 -0.0033674939 0.0080305021 -0.63123584 -0.23491719 -0.73915851 0.0028152496
0.0012689164 -0.0038241367 0.0065781404 -0.51516849 -0.35761991 -0.77891552 0.0014874064
0.003271003 -0.0047209105 0.0057283551 -0.42302731 -0.45225379 -0.78518432 0.0014563756
0.023467939 -0.0045750155 0.006680584 0.61452985 -0.70631617 -0.35138366 0.0027644564
0.024856955 -0.0033598798 0.006888269 0.65558696 -0.68308413 -0.32187241 0.0027737019
-0.0010272915 -0.00038312119 0.0074151722 -0.74340212 -0.13624707 -0.6548205 0.0024913375
0.00052730355 -0.00097144826 0.0060541439 -0.66641206 -0.2396314 -0.70602536 0.0028784536
0.026278829 -0.0016246851 0.0065073953 0.74213231 -0.62282449 -0.24764752 0.0015745155
0.027535489 -0.00021050603 0.0070505696 0.74966794 -0.61393291 -0.24715251 0.0012936244
-0.0013228698 0.0024774554 0.0072300839 -0.82693976 -0.0816091 -0.5563367 0.0055860425
0.02883031 0.0018351142 0.0065879035 0.79167128 -0.5681262 -0.22469826 0.0013375813
