# .PCD v0.7 - Point Cloud Data file format
VERSION 0.7
FIELDS x y z normal_x normal_y normal_z curvature
SIZE 4 4 4 4 4 4 4
TYPE F F F F F F F
COUNT 1 1 1 1 1 1 1
WIDTH 554
HEIGHT 1
VIEWPOINT 0 0 0 1 0 0 0
POINTS 554
DATA ascii
0.032566637 -0.04010791 -0.036062289 -0.47534633 -0.86901611 -0.13732035 0.0029759072
0.026789419 -0.037190836 -0.034706417 -0.72211391 -0.67029196 -0.17105615 0.0019916194
0.028427618 -0.03845223 -0.035195559 -0.55233818 -0.82608545 -0.11182709 0.0066361744
0.03087618 -0.039735157 -0.035424221 -0.47548512 -0.86959958 -0.13308111 0.0025977176
0.024290107 -0.034202732 -0.033985734 -0.82860327 -0.52827245 -0.18532372 0.001785165
0.025526131 -0.035622098 -0.035229005 -0.77262819 -0.61109245 -0.17208029 0.0036551342
0.02347037 -0.032255124 -0.034906253 -0.89195466 -0.39472318 -0.22047786 0.0024604772
0.022417499 -0.029145313 -0.034784779 -0.93899709 -0.20868964 -0.2733736 0.0023116791
0.02207675 -0.026299194 -0.034817763 -0.95772052 -0.034027345 -0.28568071 0.0024692011
0.046480328 -0.025150903 -0.035816226 0.95420271 0.19109477 -0.23017412 0.0016147813
0.022394629 -0.023143981 -0.03480079 -0.90106696 0.20272633 -0.38338038 0.0040395022
0.045611322 -0.021894179 -0.035821427 0.90794927 0.32492581 -0.26467216 0.0022437661
0.046341002 -0.023432383 -0.03470875 0.93175119 0.2732307 -0.23913315 0.00093107286
0.02347889 -0.020252053 -0.034737047 -0.77918386 0.43872508 -0.44765249 0.0028357473
0.02498945 -0.018857449 -0.035757843 -0.67971992 0.56031895 -0.4733111 0.003034384
0.044978879 -0.01995426 -0.035086274 0.85511899 0.42058876 -0.30311161 0.0019887167
0.045782086 -0.021104269 -0.034236748 0.90248674 0.33996761 -0.26446131 0.0018513434
0.024153892 -0.018215971 -0.033813227 -0.69425577 0.53919381 -0.47673792 0.0022016291
0.025982983 -0.017010411 -0.034853622 -0.61171091 0.61321503 -0.49977714 0.0038248494
0.028134136 -0.015923776 -0.035817858 -0.52835655 0.66909319 -0.52264106 0.0012946654
0.042194463 -0.016084295 -0.035253339 0.61336464 0.6853826 -0.39247245 0.0048880423
0.04364625 -0.017526576 -0.034793552 0.74825704 0.56261832 -0.35152799 0.0024876618
0.027063578 -0.015203133 -0.033804752 -0.55608529 0.65255141 -0.51472878 0.0015372735
0.029299961 -0.014388263 -0.034663234 -0.44058016 0.72487283 -0.52957398 0.0017878262
0.032054644 -0.013481813 -0.035018321 -0.21660088 0.80696315 -0.54944932 0.0020700302
0.035228103 -0.013223357 -0.035357244 0.0018293656 0.82455915 -0.56577283 0.0024244026
0.038415361 -0.013445264 -0.034916181 0.30240753 0.82241118 -0.48186046 0.0051499559
0.040977295 -0.014622051 -0.034579061 0.52546287 0.73284501 -0.4322347 0.0044345413
0.032893926 -0.012329379 -0.033650685 -0.21022156 0.80510777 -0.55462444 0.0023448158
0.035359349 -0.012180857 -0.033755444 0.015194619 0.83437979 -0.55098051 0.0030171033
0.037773065 -0.012403429 -0.033606511 0.29571372 0.82610822 -0.47968596 0.0051504252
0.027371293 -0.038057771 -0.032368053 -0.67015469 -0.72286272 -0.16841067 0.0051566656
0.024116589 -0.034600258 -0.031810414 -0.81528616 -0.56283081 -0.13612477 0.0019536612
0.025372311 -0.036044627 -0.032854188 -0.75400358 -0.64118475 -0.14269118 0.00090651412
0.022791075 -0.032173622 -0.031996027 -0.89224452 -0.40869117 -0.19201906 0.0019346451
0.02139058 -0.028849835 -0.031159393 -0.93651009 -0.2621769 -0.23283492 0.0024002062
0.02197976 -0.029861817 -0.032460649 -0.93723971 -0.26072142 -0.23152997 0.0023793497
0.021096712 -0.026172535 -0.031766742 -0.95543331 -0.070320569 -0.28670928 0.0034364644
0.021098552 -0.023424249 -0.031674907 -0.93770903 0.10376262 -0.33156443 0.0027806961
0.021865422 -0.022039257 -0.033015747 -0.88343257 0.22313696 -0.41201553 0.0071106781
0.046725102 -0.023101173 -0.032263864 0.93462127 0.2876198 -0.20918413 0.00061125855
0.02137422 -0.020821791 -0.031062754 -0.86695832 0.30486885 -0.39425665 0.003408639
0.022284854 -0.01994225 -0.032262657 -0.83699983 0.3502852 -0.42039448 0.0020443578
0.045572184 -0.019237064 -0.032118071 0.89404476 0.38393426 -0.23082115 0.0022396683
0.04612897 -0.020664889 -0.03203452 0.91447067 0.34754848 -0.20725241 0.0011125577
0.023449309 -0.017325908 -0.031693853 -0.74936432 0.46923396 -0.46719655 0.0019154026
0.025092976 -0.016077502 -0.03264007 -0.64828992 0.59173685 -0.47913215 0.00057457702
0.044458035 -0.017089419 -0.031951021 0.82689697 0.48805752 -0.27935869 0.0019733249
0.024324827 -0.015271034 -0.030662674 -0.62307006 0.60211468 -0.49924096 0.0016335109
0.026316095 -0.014211113 -0.031684387 -0.52899539 0.68166351 -0.5054689 0.0017408668
0.028814793 -0.013160778 -0.032606006 -0.36625546 0.76139557 -0.53491479 0.0017918823
0.041545205 -0.013593247 -0.031977743 0.54673833 0.73829103 -0.39497289 0.004737651
0.043274358 -0.01523364 -0.031733528 0.71440995 0.61802644 -0.32811844 0.0019365987
0.02748266 -0.012488641 -0.03056531 -0.49751267 0.70267934 -0.50864804 0.0012683846
0.029578788 -0.011930849 -0.031380635 -0.35769847 0.7713539 -0.52636969 0.0018674916
0.032282457 -0.011300733 -0.031832177 -0.18824682 0.8238197 -0.53468156 0.0026055381
0.035249963 -0.01091208 -0.031714808 0.040381975 0.86182475 -0.50559604 0.003596016
0.038136736 -0.011454193 -0.031758361 0.31249881 0.83671772 -0.44971985 0.005198922
0.04040692 -0.01222166 -0.031127399 0.54624814 0.73777282 -0.39661586 0.0050541623
0.02621988 -0.037427712 -0.029603142 -0.75172526 -0.64813715 -0.12176774 0.00054628798
0.023827381 -0.034833483 -0.028977323 -0.81325352 -0.56526828 -0.13816838 0.0016167491
0.025332585 -0.036537681 -0.029693935 -0.77370977 -0.62080759 -0.12637687 0.0013362865
0.021654427 -0.031355176 -0.028244022 -0.88377982 -0.43525118 -0.17172541 0.0018537713
0.022344146 -0.032387469 -0.02920475 -0.87576801 -0.4515835 -0.17059509 0.0012228284
0.020970078 -0.029333802 -0.028689248 -0.93360758 -0.28793991 -0.21323121 0.0016405419
0.020238584 -0.026205057 -0.028702008 -0.94985139 -0.17037632 -0.2622104 0.0033869196
0.020124039 -0.023080129 -0.028834904 -0.94646102 0.034108993 -0.32101113 0.0022326503
0.020570485 -0.020220775 -0.028803749 -0.89569998 0.23644224 -0.37658554 0.0033895543
0.046562012 -0.02047772 -0.029045735 0.91076875 0.36257657 -0.19758171 0.00091919518
0.021284908 -0.017648935 -0.028348994 -0.79777831 0.40393758 -0.4476431 0.0028617531
0.022408942 -0.016792642 -0.029497661 -0.77057123 0.44330385 -0.45793194 0.0018222928
0.044988044 -0.016641878 -0.029325215 0.85203445 0.47451982 -0.22106181 0.0027245746
0.045937989 -0.018506125 -0.028689075 0.86913693 0.44578138 -0.21419609 0.0014874846
0.023565309 -0.014384728 -0.028530004 -0.6643768 0.55940109 -0.49565488 0.0025873878
0.025559202 -0.013209018 -0.029581187 -0.52550012 0.67795801 -0.51402587 0.0016238999
0.042334035 -0.012962736 -0.029390026 0.72206068 0.62672484 -0.2929922 0.001882842
0.043576546 -0.014257984 -0.028881349 0.75915241 0.59277111 -0.26890525 0.0017550762
0.024354335 -0.012577377 -0.027397502 -0.5975939 0.64850259 -0.47151449 0.0030324927
0.026412655 -0.011768232 -0.028505277 -0.51681876 0.69208544 -0.50390077 0.001592266
0.029057724 -0.010562127 -0.028983673 -0.3469376 0.78328836 -0.51584274 0.0018666397
0.031925488 -0.010028568 -0.029682051 -0.15952395 0.83164328 -0.53190374 0.0019574654
0.035233237 -0.0098633217 -0.029916769 0.051550619 0.87199694 -0.48678932 0.0035009405
0.038547888 -0.010287888 -0.029306676 0.34253013 0.83697188 -0.42679173 0.0070546083
0.040985502 -0.011479176 -0.028721847 0.58894432 0.73886687 -0.32744521 0.0034218396
0.030021658 -0.0093200644 -0.027714932 -0.31039065 0.79726511 -0.51771224 0.0019826498
0.032340199 -0.0090369582 -0.028208613 -0.13794598 0.85552537 -0.49904639 0.0021566448
0.035286069 -0.0090323547 -0.028442064 0.080975123 0.8774547 -0.47277504 0.0037553071
0.037853371 -0.0093351519 -0.028014241 0.35838887 0.84319043 -0.40073362 0.0054982896
0.023091765 -0.034406655 -0.026054798 -0.81745601 -0.56451446 -0.11440767 0.0010619963
0.021316841 -0.031522062 -0.025975276 -0.88153422 -0.44804281 -0.14884619 0.00099690328
0.022200868 -0.033070251 -0.026081244 -0.87620717 -0.45638049 -0.15484764 0.001175817
0.020238006 -0.029039571 -0.025776695 -0.91749895 -0.34567094 -0.19674182 0.002072315
0.019506937 -0.02630955 -0.025882684 -0.95072925 -0.18162943 -0.25124601 0.0021482108
0.018706439 -0.02292552 -0.024514753 -0.95776182 -0.07056471 -0.27877039 0.002600315
0.019300638 -0.023274433 -0.026324147 -0.94901985 -0.0099565247 -0.31505901 0.002632167
0.018709037 -0.020919617 -0.024449546 -0.92948151 0.11759003 -0.34962362 0.0025758399
0.019431677 -0.020020848 -0.026000401 -0.90964031 0.17161955 -0.37828726 0.0019378467
0.020105444 -0.017224893 -0.025686013 -0.83939332 0.33182254 -0.43047953 0.0040661381
0.045235422 -0.016139947 -0.026955176 0.85156411 0.47677481 -0.2180008 0.0026093675
0.021163527 -0.014904574 -0.025539948 -0.73164058 0.48363838 -0.48041227 0.0016192992
0.02243555 -0.01364971 -0.026136447 -0.71715254 0.50805992 -0.47704014 0.0013857301
0.044159107 -0.0140332 -0.02619083 0.76335269 0.59834272 -0.24347205 0.0013749637
0.023571931 -0.011742549 -0.025370993 -0.60023314 0.62115115 -0.50387639 0.0022649942
0.025814399 -0.010514231 -0.026217075 -0.46938437 0.71726418 -0.51498586 0.0012938965
0.027911162 -0.0099212155 -0.027229954 -0.3873792 0.75551414 -0.52833307 0.004006803
0.041495804 -0.010868812 -0.026230073 0.63468587 0.71882033 -0.28367436 0.0050551142
0.043143172 -0.012402505 -0.025678117 0.74504465 0.62245518 -0.23970406 0.0020185583
0.026765343 -0.0091048274 -0.025109364 -0.43878829 0.73661596 -0.51464719 0.0016820926
0.029308116 -0.0083721559 -0.025780808 -0.31169975 0.79929078 -0.51378739 0.0022923865
0.032349356 -0.0076064514 -0.025778443 -0.081956573 0.86861742 -0.48865822 0.0031172496
0.035126939 -0.0075531462 -0.025720434 0.12313375 0.88112104 -0.45657837 0.0037853038
0.038124826 -0.0084456308 -0.025861153 0.39720765 0.83539516 -0.3799223 0.0056047915
0.040209759 -0.0093684224 -0.025306631 0.57016063 0.75402915 -0.32612416 0.0025176075
0.023553241 -0.035458472 -0.021396 -0.80745566 -0.58247715 -0.093464971 0.00044622491
0.021100944 -0.031973589 -0.022907609 -0.85252619 -0.50975156 -0.11555272 0.0024440002
0.022110244 -0.033506919 -0.023344565 -0.83891451 -0.5345071 -0.10258946 0.001496273
0.019803397 -0.02937795 -0.0228494 -0.91334498 -0.3650234 -0.18044072 0.0015879333
0.018525872 -0.025588924 -0.022606669 -0.93936306 -0.23655836 -0.24826851 0.0021976759
0.018956302 -0.027144002 -0.022735305 -0.94756222 -0.23771536 -0.21358182 0.0017640155
0.018201234 -0.023436626 -0.022711841 -0.95334494 -0.11964677 -0.2771607 0.0017407585
0.018216392 -0.020163456 -0.022907579 -0.93914199 0.067740306 -0.33678421 0.0028824576
0.018345544 -0.017566506 -0.02229706 -0.8938489 0.21428481 -0.393848 0.0022713526
0.019157285 -0.016452396 -0.023303319 -0.85618412 0.27846852 -0.4352057 0.0015825978
0.019887598 -0.014218146 -0.022760367 -0.78855753 0.39979738 -0.46726766 0.0012345688
0.02101358 -0.011907972 -0.022227727 -0.67662287 0.54557806 -0.49449581 0.0012269942
0.022693215 -0.010806674 -0.023159008 -0.61446756 0.60841894 -0.50225091 0.0028460124
0.042046927 -0.010343898 -0.023184989 0.64381534 0.72778672 -0.23628037 0.0033511315
0.043377835 -0.012019835 -0.023306984 0.74663162 0.62421781 -0.22998551 0.0017497642
0.023834579 -0.009006313 -0.022221908 -0.52982301 0.67199653 -0.51740527 0.0018618002
0.026222793 -0.0078713782 -0.02286518 -0.40315923 0.75554228 -0.51635116 0.001308514
0.028989481 -0.0071110586 -0.02363674 -0.26664886 0.81244713 -0.51848626 0.0015998487
0.031006025 -0.00685969 -0.024175409 -0.11819384 0.86898804 -0.48051015 0.0029070175
0.036158398 -0.0068621458 -0.024000216 0.17526087 0.89206445 -0.41653904 0.0048227254
0.038358416 -0.0073593482 -0.023115875 0.39840335 0.8437019 -0.35978025 0.0038513951
0.040665448 -0.0087762559 -0.022516849 0.63376647 0.73173386 -0.25080982 0.004033756
0.027145429 -0.0064475983 -0.021494303 -0.36848482 0.77694899 -0.51045984 0.0018036795
0.029376471 -0.0061016707 -0.02218431 -0.2308715 0.84475887 -0.48278451 0.0022467049
0.032218542 -0.0059813065 -0.022848258 -0.051115554 0.87704659 -0.47767821 0.0020726686
0.035130188 -0.0060621323 -0.022707807 0.17570436 0.89195108 -0.41659474 0.0047097723
0.037229527 -0.006292644 -0.02188899 0.39874658 0.84379357 -0.35918462 0.0037292386
0.022314182 -0.03429148 -0.019089524 -0.82088012 -0.56248844 -0.098806165 0.00087470625
0.020523891 -0.031759914 -0.019688183 -0.84778607 -0.51958513 -0.10625417 0.0013179665
0.018490015 -0.028219081 -0.018586446 -0.89127374 -0.42468065 -0.15898916 0.0010351621
0.019207435 -0.029222028 -0.020029822 -0.89289665 -0.42219773 -0.15647556 0.0010179897
0.017995894 -0.026229836 -0.019672822 -0.93357241 -0.28371766 -0.21896754 0.0013109504
0.017265623 -0.023075955 -0.019690167 -0.9502427 -0.14941067 -0.27334082 0.002010613
0.017106978 -0.020316968 -0.019924127 -0.9455905 -0.009848956 -0.32521003 0.0018340915
0.017255548 -0.017288636 -0.019697236 -0.90356451 0.16933547 -0.39356908 0.0033908386
0.017920421 -0.014379796 -0.019487914 -0.83717912 0.30550969 -0.45364633 0.0025225456
0.019014457 -0.01329462 -0.020555163 -0.80510789 0.3665798 -0.46628374 0.0024275878
0.018338164 -0.012219968 -0.018607307 -0.75820792 0.42686224 -0.49285832 0.002389092
0.019950809 -0.011157359 -0.019962491 -0.71948344 0.47397846 -0.50762981 0.0012833845
0.042804852 -0.010528617 -0.019986648 0.70859474 0.67829674 -0.19444017 0.00030086338
0.021030892 -0.009040243 -0.019131536 -0.6218496 0.57399881 -0.53275555 0.002148544
0.023113633 -0.0078503033 -0.019980347 -0.5107376 0.68578076 -0.51850921 0.0011164257
0.025382554 -0.0069062933 -0.020849828 -0.41424015 0.74510986 -0.52270097 0.0013793351
0.03947828 -0.0070657358 -0.020180909 0.63598776 0.73335248 -0.24023689 0.0025429744
0.041080732 -0.0082877288 -0.019118387 0.63087845 0.73977226 -0.23394313 0.0026442907
0.024003012 -0.0063013621 -0.018795921 -0.47183886 0.70386809 -0.53097814 0.0015935166
0.026228501 -0.0056681121 -0.019617053 -0.36041027 0.78493053 -0.50397271 0.0020970195
0.029233688 -0.0047404701 -0.019772844 -0.20094815 0.84648758 -0.49302998 0.0010708338
0.032324776 -0.0044702878 -0.019934818 0.017411295 0.9043746 -0.42638412 0.0028774934
0.035200197 -0.0047583086 -0.019734057 0.24184674 0.89187747 -0.38218409 0.0050084903
0.037948422 -0.0058693113 -0.019610623 0.48943737 0.82131439 -0.29307631 0.0052322438
0.021749925 -0.033803914 -0.016635824 -0.82661849 -0.55161393 -0.1114632 0.00070985215
0.020148242 -0.031740841 -0.016851101 -0.83864135 -0.53046262 -0.1236529 0.0010137226
0.018331533 -0.028561525 -0.016809974 -0.88259548 -0.44667515 -0.14665091 0.00134212
0.019168697 -0.030159162 -0.01672102 -0.85963482 -0.49731505 -0.11707129 0.0020963007
0.017254211 -0.026126383 -0.016550994 -0.91500002 -0.34570202 -0.2080024 0.0021240592
0.016467704 -0.023273151 -0.016778031 -0.94213569 -0.20445558 -0.26566565 0.0017483975
0.015419003 -0.019299272 -0.015433946 -0.9427231 -0.11802308 -0.31199944 0.0018400805
0.016036822 -0.020249682 -0.016914761 -0.94077379 -0.076308295 -0.33033597 0.0029108634
0.015417796 -0.017244771 -0.015472575 -0.92189562 0.06029645 -0.38271767 0.0026126702
0.016151521 -0.017164418 -0.017178239 -0.9016093 0.10020921 -0.42078361 0.0017840699
0.01654752 -0.014098801 -0.016787617 -0.85787958 0.23182108 -0.45858657 0.0018449915
0.017538756 -0.011313142 -0.016583448 -0.75368065 0.41570193 -0.50907505 0.0024244855
0.019117747 -0.010271532 -0.017987369 -0.66145486 0.52494454 -0.53564036 0.0014939413
0.018309202 -0.0091967667 -0.015901901 -0.68058431 0.51398474 -0.52213478 0.0017145424
0.020121403 -0.008074644 -0.016957249 -0.6399048 0.54167962 -0.54507351 0.0014415999
0.022145968 -0.0069479272 -0.017877031 -0.53531975 0.6578778 -0.52974486 0.00035878169
0.040863678 -0.0074218288 -0.016548423 0.67483717 0.71457493 -0.18432984 0.0010272107
0.021206254 -0.0062327972 -0.016073707 -0.56260133 0.6307922 -0.53439778 0.001443106
0.023269858 -0.0052154958 -0.016650792 -0.42284235 0.74126995 -0.52127069 0.0010082028
0.026010614 -0.0042532217 -0.017298913 -0.31200182 0.80155212 -0.5100677 0.0011467902
0.028718404 -0.0037726534 -0.017938148 -0.16395333 0.85179907 -0.49755159 0.0017979823
0.035678592 -0.00394639 -0.017388143 0.33820301 0.88415736 -0.32231125 0.0072052139
0.038090412 -0.0049642324 -0.016515605 0.51594758 0.81503576 -0.26365638 0.0033500262
0.039928019 -0.006507881 -0.016832251 0.59791028 0.77445918 -0.20667897 0.0021370631
0.026589323 -0.0031643931 -0.015890928 -0.28350887 0.82526833 -0.48842078 0.0021047737
0.029267488 -0.0028715103 -0.016445484 -0.10835877 0.88502043 -0.45276618 0.0021495712
0.032142904 -0.002893267 -0.016655514 0.075392276 0.89881903 -0.43178749 0.0035761259
0.034780193 -0.0031982481 -0.016209422 0.3463304 0.87786609 -0.33076635 0.0069563189
0.019577272 -0.03125136 -0.014149655 -0.83692563 -0.53818345 -0.099569455 0.00093868008
0.018120144 -0.028976401 -0.013962407 -0.86787969 -0.48052365 -0.12602329 0.0010757444
0.016694302 -0.026193844 -0.013704755 -0.90716606 -0.37567985 -0.18951085 0.0014454616
0.015359409 -0.022871166 -0.013142106 -0.92824644 -0.27542642 -0.24999769 0.0024013722
0.015911117 -0.023692951 -0.014322612 -0.93356591 -0.26642075 -0.23973858 0.0020127241
0.014982859 -0.020313928 -0.013800588 -0.94404709 -0.15098709 -0.29322016 0.0017702557
0.01458806 -0.017251391 -0.013537561 -0.93164921 -0.040880945 -0.36105177 0.0012254799
0.014865967 -0.014443355 -0.01375499 -0.89285409 0.14943209 -0.42483124 0.0022371984
0.015887931 -0.012923636 -0.01503979 -0.82281077 0.25800428 -0.50637561 0.0039335852
0.015198376 -0.011471576 -0.013049125 -0.8188138 0.27877867 -0.50182313 0.0031205569
0.01619296 -0.010938097 -0.014303084 -0.78619182 0.33327308 -0.52041465 0.0022071179
0.015518408 -0.0093247667 -0.012252975 -0.74308044 0.39618695 -0.5393213 0.0025118757
0.017315537 -0.0083233193 -0.013778036 -0.70945048 0.44637436 -0.54537141 0.0016995419
0.019237855 -0.0071403505 -0.015002548 -0.61583644 0.56901181 -0.54495054 0.00036163957
0.018254278 -0.0061004832 -0.012824351 -0.60627174 0.55970025 -0.56495148 0.0031139585
0.020222835 -0.005129667 -0.013752651 -0.49951884 0.66707534 -0.55271274 0.0013729084
0.022487955 -0.0041146083 -0.014514334 -0.41233122 0.72912514 -0.54622293 0.00078402966
0.038613953 -0.0046409806 -0.013602926 0.57757324 0.78417915 -0.22687487 0.0025942072
0.040306285 -0.0061033443 -0.012602914 0.60244834 0.77124178 -0.20552871 0.001663962
0.021250924 -0.0033482907 -0.012534086 -0.449788 0.70839113 -0.54394192 0.0024157132
0.023554241 -0.0027451569 -0.013384498 -0.37098476 0.75828516 -0.53607273 0.0015162234
0.026298443 -0.0019849746 -0.013751564 -0.19545278 0.85439986 -0.48145524 0.001480979
0.02921004 -0.0015090553 -0.013771709 -0.029666154 0.9072606 -0.41952127 0.0032126715
0.032175776 -0.0016167138 -0.013739612 0.14893688 0.9097814 -0.38744751 0.0035411625
0.035094276 -0.0024603864 -0.013760173 0.43562755 0.86216569 -0.25864837 0.0034087356
0.037026495 -0.0033436341 -0.013398189 0.55322587 0.79763675 -0.24024324 0.0036268672
0.019219439 -0.030969044 -0.011648167 -0.83509713 -0.54358149 -0.084450059 0.00042097282
0.017408164 -0.028491642 -0.010806803 -0.84229767 -0.52598017 -0.11781073 0.0011250306
0.015581366 -0.025295772 -0.010238353 -0.88300461 -0.43706143 -0.17111474 0.0017837157
0.016197529 -0.026211392 -0.011159069 -0.89438182 -0.40582854 -0.18810725 0.0010167356
0.014815986 -0.023284901 -0.010553549 -0.91340607 -0.3277562 -0.24138206 0.0015017272
0.013963571 -0.020173818 -0.010826389 -0.92413229 -0.21687424 -0.31455541 0.0020082952
0.013383393 -0.017126894 -0.010614585 -0.91376525 -0.1162433 -0.38925636 0.0025903191
0.013389427 -0.014097517 -0.010773956 -0.8897202 0.041824583 -0.45458639 0.003188736
0.013867544 -0.011139023 -0.010766636 -0.80763406 0.26008981 -0.52922642 0.0027624608
0.014742605 -0.0082882438 -0.010467119 -0.73133212 0.38271445 -0.56452024 0.0027376916
0.016254958 -0.0074927593 -0.011814792 -0.69230938 0.43911135 -0.57261586 0.001315408
0.015410606 -0.0062290533 -0.0097827623 -0.65699625 0.4873623 -0.5751816 0.0017482046
0.017213339 -0.0050838888 -0.01070551 -0.59247273 0.5494374 -0.58914733 0.003255575
0.019403897 -0.0039054498 -0.011629486 -0.51817936 0.63836652 -0.56919086 0.00032652568
0.038048267 -0.0038101 -0.012148846 0.55386049 0.80164665 -0.22494696 0.0031965142
0.018027311 -0.003248207 -0.0096487068 -0.5332315 0.60157239 -0.59478974 0.0016231107
0.020319384 -0.0023905754 -0.010551766 -0.43488637 0.69308859 -0.57489312 0.0026331488
0.023038473 -0.0015361346 -0.011316219 -0.31846637 0.78344548 -0.5336594 0.0010476256
0.025646564 -0.0010517209 -0.011948018 -0.18493925 0.85032791 -0.49268645 0.0016048806
0.033252124 -0.0010517235 -0.011724193 0.33307037 0.89801484 -0.28746045 0.0063326936
0.035083178 -0.0016273612 -0.011097435 0.41154358 0.86991459 -0.27180976 0.0028481663
0.037247915 -0.0028963408 -0.0106873 0.54431212 0.81022292 -0.21740104 0.0033554027
0.023447653 -0.00043545198 -0.0099080196 -0.28001752 0.80944723 -0.51612538 0.0021164946
0.026186174 -0.0001281742 -0.010518057 -0.12984204 0.87424731 -0.46779549 0.0022520404
0.029240316 -0.00015335274 -0.011007878 0.015015572 0.90799564 -0.41871044 0.00380114
0.031941105 -0.00027023628 -0.010468497 0.26422533 0.90330732 -0.33796594 0.0069222362
0.016836785 -0.02825401 -0.0072518778 -0.83386385 -0.54435474 -0.09137293 0.00087636814
0.018875567 -0.03071568 -0.0086477287 -0.84094828 -0.53259885 -0.095626697 0.00072600582
0.015191471 -0.025430534 -0.0078442357 -0.87176937 -0.46301648 -0.16010612 0.00077482261
0.016336272 -0.02725821 -0.0083331205 -0.85536879 -0.49691507 -0.1463543 0.0022657944
0.013955977 -0.02288218 -0.0077320198 -0.89937568 -0.38076448 -0.21480645 0.0020383759
0.012428829 -0.019435912 -0.0068654907 -0.90737534 -0.26951492 -0.32253948 0.0012686412
0.013144694 -0.02050251 -0.0079835095 -0.91608936 -0.30278572 -0.26287112 0.0015020606
0.012103274 -0.017069517 -0.0075096958 -0.90619034 -0.17690858 -0.3840864 0.0028788832
0.012843569 -0.018190889 -0.0089103272 -0.91644049 -0.17216563 -0.36124206 0.0040611229
0.011892398 -0.014226049 -0.0078076832 -0.89885622 -0.039148606 -0.43649155 0.0025828127
0.011799832 -0.011387793 -0.0074851774 -0.84680498 0.084002443 -0.52522838 0.0031102304
0.012842738 -0.010546666 -0.0089438148 -0.8232742 0.16825761 -0.54213369 0.0021508907
0.012053803 -0.0084032174 -0.0069702002 -0.7711277 0.24623002 -0.58713955 0.0034252917
0.013290348 -0.0080366265 -0.008412648 -0.75576288 0.30141255 -0.58135438 0.0025203971
0.012437718 -0.0064086318 -0.0064904881 -0.69799232 0.39187253 -0.59936857 0.0021691865
0.014265163 -0.0052315695 -0.007728782 -0.67677408 0.42875421 -0.5984537 0.0016667012
0.016245637 -0.0039864555 -0.0087512918 -0.55807751 0.57743186 -0.59592116 0.001718439
0.015223082 -0.0029134627 -0.0068002981 -0.55189514 0.56469953 -0.61361724 0.001566169
0.017235361 -0.0021499398 -0.0078155799 -0.47449675 0.64599806 -0.59794581 0.0012753513
0.019543568 -0.0013091022 -0.0086763129 -0.42382675 0.6864084 -0.59094363 0.0021075988
0.035830978 -0.0013993604 -0.0081633888 0.44138551 0.8641063 -0.24186595 0.0011393889
0.018137006 -0.00046965061 -0.0066782502 -0.42928496 0.67961335 -0.5948447 0.0016130195
0.020503988 0.00011956063 -0.0074767251 -0.34043214 0.75027007 -0.56674576 0.001661144
0.02330819 0.00084391027 -0.0078581544 -0.19531056 0.83499825 -0.51442361 0.00091437605
0.026255585 0.0012464542 -0.0080396766 -0.055964362 0.88605505 -0.46018958 0.0031224366
0.029199885 0.001270826 -0.0078499038 0.12145683 0.91339439 -0.38853458 0.0044000307
0.032219738 0.00057421916 -0.0078211669 0.32251543 0.89901644 -0.29623181 0.004543189
0.034376159 -0.00043234415 -0.0079706898 0.38111469 0.88772148 -0.25826782 0.0028119402
0.014994895 -0.025821691 -0.0050619016 -0.85147798 -0.51082081 -0.11852162 0.0023198731
0.013584225 -0.023432687 -0.0049459641 -0.87960929 -0.43718746 -0.18749551 0.0015132832
0.01197807 -0.02002863 -0.0047214734 -0.89383787 -0.35454345 -0.27450466 0.0022511024
0.01291829 -0.021576189 -0.0058954847 -0.89396393 -0.37195274 -0.24995932 0.0024174938
0.011012228 -0.017108191 -0.0047814241 -0.90237719 -0.24347046 -0.35558057 0.0023587453
0.00969256 -0.013478719 -0.0036029336 -0.89066142 -0.17634845 -0.41907454 0.0022805298
0.010573532 -0.014439814 -0.0050867582 -0.89273787 -0.1263016 -0.43251249 0.0030666001
0.0095339352 -0.010896297 -0.00373076 -0.85165721 -0.010828978 -0.52398741 0.0032350696
0.010487441 -0.011163798 -0.005286702 -0.84883702 0.037742157 -0.5273056 0.0021538548
0.0096244095 -0.0084865158 -0.0036671055 -0.80806106 0.11723898 -0.57731467 0.0031399727
0.01073441 -0.0081949923 -0.005093209 -0.78971022 0.17418836 -0.58823138 0.0021162708
0.0096972566 -0.006682463 -0.003330518 -0.75069815 0.22167002 -0.6223461 0.0053306669
0.011363519 -0.0053138696 -0.0046127206 -0.71683741 0.30712941 -0.62595177 0.0021511603
0.013107218 -0.0042242622 -0.0057994677 -0.64642566 0.40848029 -0.6444205 0.0013418566
0.012074881 -0.0027984653 -0.0038127901 -0.59247005 0.47238019 -0.65256119 0.0013388908
0.014051199 -0.0020007195 -0.0049453522 -0.52250934 0.56304258 -0.64028668 0.0012043946
0.016413232 -0.0010517309 -0.0060003889 -0.48463786 0.62794608 -0.60894161 0.0003819346
0.014875028 -0.00018650992 -0.0039917352 -0.497585 0.60098964 -0.6254763 0.001124358
0.01730901 0.00073795661 -0.0046901396 -0.36393589 0.71039319 -0.60240543 0.00089352537
0.020015534 0.0016356702 -0.0051506814 -0.27887556 0.78281999 -0.55625653 0.0012655946
0.02290722 0.0020747234 -0.0057522221 -0.1614126 0.84076172 -0.51678401 0.001702425
0.026196413 0.0022113477 -0.0061853072 -0.0081689311 0.89464289 -0.44670713 0.0024382831
0.029447345 0.0021584504 -0.0054678735 0.18839729 0.91884154 -0.34675163 0.0041206274
0.03218225 0.0014628809 -0.0047238809 0.40386128 0.88913637 -0.21525005 0.0060696714
0.034630958 -0.000118203 -0.0056021106 0.4445855 0.87155133 -0.20674123 0.0033925802
0.020473272 0.0028161132 -0.0037091193 -0.23565587 0.79856962 -0.55385274 0.0022012133
0.023426648 0.0030528973 -0.004227079 -0.097196035 0.86959833 -0.48409873 0.0025228902
0.026153469 0.0030676988 -0.0044252626 0.056469962 0.9066633 -0.4180584 0.0030974622
0.028679755 0.0028282972 -0.0042328131 0.21215111 0.90524465 -0.36813587 0.0041814456
0.016316991 -0.027893789 -0.001767565 -0.82168543 -0.56121725 -0.099339142 0.00080260832
0.014199628 -0.02530764 -0.0016921652 -0.82893163 -0.53579831 -0.16060066 0.0019886261
0.012434999 -0.022603311 -0.0016319421 -0.84770477 -0.49327686 -0.19512732 0.0011063922
0.013166173 -0.023632459 -0.0022183352 -0.86059821 -0.47611788 -0.18078293 0.00098147627
0.011137044 -0.020164177 -0.001736804 -0.87862021 -0.41510144 -0.23604514 0.0017909145
0.0095572602 -0.01690791 -0.0011842442 -0.88022971 -0.34294903 -0.32799649 0.0028433665
0.010316745 -0.017709872 -0.0024531931 -0.89494431 -0.30217466 -0.3282761 0.0026983307
0.0089315018 -0.014173305 -0.0017582491 -0.8782475 -0.23318161 -0.41750175 0.002502887
0.0083515057 -0.011186593 -0.0017540192 -0.85032934 -0.075049482 -0.52087194 0.001240492
0.0082775149 -0.0083101504 -0.0017767791 -0.81880081 0.027534548 -0.57341713 0.0025642489
0.0086438423 -0.0053296303 -0.0015828148 -0.7580002 0.18970148 -0.6240586 0.00189622
0.010291172 -0.0042218529 -0.0029311371 -0.69600415 0.30448318 -0.6502831 0.0016012402
0.0092103742 -0.0025222076 -0.00096953241 -0.64469492 0.36027697 -0.67421728 0.0028120163
0.011032019 -0.0019732548 -0.0022665476 -0.60077488 0.44187 -0.66619855 0.0040850211
0.0097493306 -0.00057924492 -0.00031029104 -0.56021869 0.44517472 -0.69855177 0.00049577991
0.011657819 0.00032747921 -0.0011089749 -0.49378455 0.5345301 -0.68589681 0.0018026647
0.013931217 0.00092478772 -0.0022116352 -0.44486171 0.62170744 -0.64465326 0.002789635
0.016590394 0.0018441334 -0.002989793 -0.33344957 0.72265053 -0.6054647 0.0018648027
0.033016928 0.0015373458 -0.0020087701 0.44622532 0.86605084 -0.22547472 0.0034849646
0.035143483 -0.00011018617 -0.0019007218 0.4965423 0.85210663 -0.16540906 0.001151265
0.014522025 0.0026924261 -0.00083505036 -0.38013825 0.67416173 -0.63324636 0.0018434607
0.017327337 0.003341727 -0.0015363105 -0.28855288 0.74583125 -0.60039413 0.0020466051
0.020319834 0.004050917 -0.0017674408 -0.20299788 0.80851042 -0.55236101 0.0015380005
0.023137078 0.0044165449 -0.0017257187 -0.011605698 0.89783686 -0.44017532 0.0028683355
0.026299646 0.0042774775 -0.0016641752 0.14819287 0.91259098 -0.38107297 0.0044404287
0.029195568 0.0034856305 -0.0018801637 0.33568031 0.89692128 -0.2878384 0.0039660912
0.0313842 0.0025584877 -0.0017988376 0.41993764 0.87632018 -0.23604104 0.0054098442
0.011863817 -0.022582265 0.0013138818 -0.82837754 -0.53899187 -0.15257265 0.00082426163
0.013311245 -0.024478488 0.00042260767 -0.82028311 -0.5547896 -0.13908325 0.00098162028
0.0093259346 -0.019130461 0.0027266252 -0.84118766 -0.47971708 -0.24954958 0.00089389848
0.010367126 -0.020192552 0.0011671106 -0.857831 -0.45193359 -0.24470808 0.0011180073
0.0087599568 -0.017208047 0.0012759971 -0.8593359 -0.40908113 -0.3069109 0.0023571262
0.00646892 -0.012938745 0.0024711597 -0.85059786 -0.29484516 -0.43537289 0.0037332461
0.0075877002 -0.014246004 0.0011379942 -0.86700207 -0.32949564 -0.37381825 0.0017170908
0.0061861798 -0.011063951 0.0019073992 -0.84752816 -0.22541261 -0.48050517 0.002039344
0.0071120886 -0.011418023 0.00047881485 -0.84832585 -0.15682144 -0.50571752 0.001834087
0.0058899857 -0.0083114803 0.0015558841 -0.8228721 -0.088658974 -0.56126738 0.0031699387
0.0069190925 -0.0083825607 0.00012255291 -0.80657089 -0.016139457 -0.59091699 0.0029713791
0.0057488466 -0.0053234994 0.0017156005 -0.74105352 0.075361155 -0.66720331 0.0041426132
0.0070918808 -0.0050508399 0.00020299436 -0.73172915 0.1441353 -0.66618127 0.0031426155
0.0059899613 -0.0024208699 0.0021035427 -0.65829206 0.23543639 -0.71499741 0.0029094124
0.0077384552 -0.0020363743 0.00064319139 -0.6527158 0.28458044 -0.70212251 0.0024791865
0.0064691734 -0.00033841236 0.0024972963 -0.58019674 0.37449029 -0.72327644 0.0020104195
0.0083430316 0.00050406007 0.0015096366 -0.56509805 0.40958321 -0.71617442 0.0018133839
0.010551537 0.0013546823 0.00048421157 -0.50185996 0.50044101 -0.70547521 0.001123189
0.0090043265 0.0025935152 0.0024442035 -0.46953303 0.51251101 -0.71893758 0.0018681895
0.011429405 0.0033256337 0.001600811 -0.39016271 0.61459601 -0.68559808 0.002929077
0.014108242 0.0042328825 0.0010491242 -0.32614776 0.69397134 -0.64189672 0.0025294388
0.016998019 0.0047975909 0.00048145661 -0.22092608 0.77798593 -0.58815777 0.0016411275
0.019918604 0.0050943908 -3.7048449e-05 -0.11847325 0.84485424 -0.52171391 0.001734311
0.026562253 0.0050216843 0.00039871116 0.23464006 0.92150974 -0.3094573 0.005786716
0.02921824 0.0042999955 0.0012700154 0.36155343 0.89564776 -0.25902534 0.0014851794
0.031778216 0.0027355482 0.00055543659 0.44477999 0.86987931 -0.21326213 0.0030012159
0.014930008 0.0056989184 0.0023896026 -0.25491542 0.73470098 -0.62867522 0.0020103911
0.017284421 0.0059363851 0.0019312054 -0.15196516 0.80868518 -0.56827354 0.0023082234
0.020218976 0.0060658278 0.001527191 -0.047560859 0.87189162 -0.48738378 0.0025410671
0.02315258 0.0059681898 0.0013556886 0.076612413 0.8889457 -0.45155963 0.0034139613
0.025723299 0.0057304134 0.0017805505 0.26549217 0.90267038 -0.33867401 0.0055358103
0.011981427 -0.023262888 0.0044993269 -0.8019079 -0.58529365 -0.11989628 0.0008327231
0.0091977734 -0.019687407 0.0046483087 -0.79896289 -0.5710209 -0.18866234 0.0024727075
0.010178957 -0.020846784 0.0038702372 -0.81640917 -0.55362231 -0.16425115 0.0025388689
0.0064985193 -0.015893601 0.0055232751 -0.81032068 -0.48728913 -0.32546839 0.0023672332
0.0078063635 -0.017205657 0.0041287234 -0.83076239 -0.49310216 -0.25823247 0.0012253562
0.0060089668 -0.013944156 0.00432949 -0.83673936 -0.37972045 -0.39456263 0.0013494873
0.0069545722 -0.015108578 0.0034150886 -0.8526684 -0.36382669 -0.37494901 0.0011434997
0.0036265899 -0.010152735 0.0057363617 -0.7984038 -0.36251971 -0.48076075 0.0022890454
0.0049573891 -0.011267223 0.0042120549 -0.8293947 -0.26934755 -0.489445 0.0015052271
0.0033667407 -0.0079321256 0.0050808229 -0.79083753 -0.21461914 -0.57316196 0.0028875449
0.0044933595 -0.0083617615 0.0036229913 -0.80651587 -0.14174043 -0.57397026 0.002044217
0.0031450333 -0.0051142443 0.0047437935 -0.77258843 -0.065160632 -0.63155454 0.0036432776
0.0043333117 -0.0051012374 0.0033375702 -0.75236624 0.0069949804 -0.65870798 0.0030635977
0.0030088413 -0.0023496479 0.0049893721 -0.68049568 0.10778337 -0.72478163 0.0034626606
0.0046471702 -0.0020799276 0.0034598643 -0.68828785 0.163002 -0.70688766 0.0020962101
0.0033061372 0.0003044398 0.0053439075 -0.60736692 0.26323891 -0.74954033 0.0025785386
0.0052196514 0.00067483925 0.003984944 -0.59738791 0.30795366 -0.74046761 0.0019180105
0.0071096206 0.0016464174 0.0030793655 -0.54122829 0.40550339 -0.73664027 0.0016079884
0.0056081954 0.0032890076 0.0050957478 -0.48205987 0.45189875 -0.75060356 0.0028945936
0.0080080088 0.0039067212 0.0040459791 -0.42224985 0.54021037 -0.72792715 0.00050160778
0.010617111 0.00473799 0.0032804348 -0.33201027 0.6430065 -0.69015348 0.0017387825
0.029256882 0.004790612 0.0038293782 0.40674484 0.88773799 -0.2155921 0.001071453
0.0086758407 0.0059133698 0.0052830814 -0.3557817 0.59085578 -0.72409177 0.0019478129
0.011409673 0.0064497422 0.0045772311 -0.29368195 0.66528618 -0.68640018 0.0011575191
0.014261736 0.0070029758 0.0042021326 -0.18694736 0.76653183 -0.61439371 0.0026353416
0.017133424 0.0073645264 0.0040304428 -0.085439987 0.8408885 -0.53442174 0.0021582663
0.020173736 0.0075140502 0.0040982128 0.057522241 0.89379603 -0.44476941 0.0044796485
0.023164071 0.0072436826 0.004239894 0.18843411 0.90563327 -0.37989616 0.0044228514
0.026104227 0.0063440222 0.0039834636 0.3435989 0.90104222 -0.26469356 0.004730769
0.027976038 0.0056336601 0.0043697166 0.37411684 0.89946818 -0.22581773 0.0018544042
0.01799649 0.0085282102 0.0057339775 0.035836812 0.85537487 -0.5167684 0.0044102794
0.010843912 -0.02220789 0.0074445712 -0.78419554 -0.60877782 -0.12011181 0.00061388547
0.0084345611 -0.019307069 0.0070503661 -0.79096311 -0.59538507 -0.14104609 0.0015442226
0.0061333226 -0.016347386 0.0075926646 -0.80190527 -0.54515338 -0.24444976 0.0023709571
0.007313204 -0.017784912 0.007006323 -0.79872447 -0.57281774 -0.18417151 0.0014326685
0.003635878 -0.013104104 0.0086096041 -0.79886597 -0.46556038 -0.38087627 0.0010742297
0.0049691452 -0.014231639 0.0071445536 -0.82005829 -0.44781321 -0.35632545 0.0014835044
0.0030867576 -0.011119273 0.0075200349 -0.81018955 -0.37551454 -0.45009089 0.0017334702
0.0042279679 -0.012203589 0.0063343379 -0.81881189 -0.43076462 -0.37945873 0.0016920412
0.00074396166 -0.0070752501 0.0084063075 -0.78625906 -0.32060602 -0.52821249 0.0020128356
0.0021119008 -0.0082394676 0.0070850016 -0.78659576 -0.25917676 -0.56044132 0.0020290983
0.00035960693 -0.0050002467 0.0080546271 -0.76077765 -0.19323251 -0.61957926 0.0029155882
0.0017093841 -0.0051303674 0.0064808289 -0.76553792 -0.12168971 -0.63177794 0.002378945
8.8822329e-05 -0.002167349 0.0078617539 -0.71618813 -0.043129504 -0.69657338 0.0041006436
0.0016137264 -0.0021071059 0.006355918 -0.70848459 0.032498796 -0.70497751 0.0028491239
5.3721713e-05 0.00058136997 0.0080639701 -0.64066178 0.13123822 -0.75652432 0.003998497
0.0019890952 0.00078790425 0.0065381834 -0.62227964 0.17999505 -0.76181996 0.0019141539
0.00042257458 0.0032051755 0.0084155686 -0.51253647 0.29463539 -0.80653352 0.0031093659
0.0024289906 0.0037565245 0.0073422329 -0.52137303 0.33559531 -0.78456742 0.0015591835
0.0047474755 0.0045443694 0.0063347504 -0.40949255 0.48321897 -0.77383161 0.0014504608
0.0029464539 0.0062440755 0.0083217267 -0.39638308 0.45507246 -0.79736412 0.0028948379
0.0053715678 0.0068136938 0.0075189914 -0.33351755 0.56513411 -0.75457895 0.0010038657
0.0080201132 0.0071796542 0.0066394117 -0.30458075 0.616768 -0.72582901 0.0025759465
0.010939879 0.0078188339 0.00618512 -0.20968844 0.7094596 -0.67282808 0.0015659486
0.023865098 0.0079064723 0.0065674987 0.26120791 0.90884501 -0.32522506 0.0028312616
0.026431065 0.0068691969 0.0066971141 0.38427132 0.89134818 -0.24048688 0.0016572824
0.028625546 0.0056774397 0.0072714793 0.41145679 0.88987666 -0.19703506 0.00093176699
0.0062864721 0.0085881278 0.0085135959 -0.30558145 0.59912771 -0.74004459 0.0014058687
0.0083533507 0.0089650908 0.0081188492 -0.2215859 0.67232132 -0.70631695 0.0018902241
0.011270643 0.009223396 0.0076033711 -0.13604319 0.74014515 -0.65854192 0.0018997823
0.014314743 0.009318768 0.0072081266 -0.0536322 0.81227624 -0.5808019 0.0025242742
0.017293794 0.0093111843 0.0071165334 0.027014414 0.86279452 -0.50483268 0.0047143269
0.020082396 0.0089760162 0.0069799176 0.16804324 0.88367903 -0.43688995 0.0042166305
0.022476951 0.0087312469 0.0077021574 0.2796914 0.90712613 -0.31447572 0.0036611904
0.0084806057 -0.019926013 0.01035062 -0.75587171 -0.63655251 -0.15316263 0.00059831847
0.0099123679 -0.021324001 0.0091458671 -0.7627908 -0.63513464 -0.12146705 0.00045154005
0.0059239203 -0.017096529 0.010472284 -0.76080275 -0.60897338 -0.22434509 0.0013128148
0.0070357211 -0.018497787 0.010945659 -0.75154251 -0.63510835 -0.17838508 0.00054117973
0.00329622 -0.013780737 0.010600961 -0.77218699 -0.55663967 -0.30639777 0.0021328181
0.0044453721 -0.014990631 0.0098379022 -0.7813881 -0.56662261 -0.26147938 0.00071192719
0.00061397185 -0.010141704 0.011105571 -0.77570295 -0.46358195 -0.42822507 0.0018782149
0.0020278373 -0.011531744 0.010085233 -0.78476423 -0.50172198 -0.3638958 0.0016245359
-9.8645454e-05 -0.0079803383 0.010263043 -0.76821423 -0.37577608 -0.51830417 0.0016016616
0.0013449492 -0.0093768351 0.0090848245 -0.80322474 -0.36781156 -0.46855605 0.0018006641
-0.0026623008 -0.0044482322 0.011480432 -0.73823792 -0.33826125 -0.58359587 0.002833243
-0.0012723806 -0.0052015325 0.010186465 -0.74205965 -0.24889445 -0.62241393 0.0020064882
-0.0030821438 -0.0021426135 0.011054775 -0.69064575 -0.19305611 -0.69694889 0.0032384843
-0.001579392 -0.0023563246 0.0095807873 -0.70045495 -0.11285143 -0.70471787 0.0026739747
-0.0033836511 0.0006442375 0.010915924 -0.62118977 -0.028545609 -0.78314006 0.004646461
-0.0016237348 0.00070224074 0.0094281184 -0.62659073 0.047735348 -0.77788526 0.0033115754
-0.0033853673 0.0035535367 0.011065197 -0.53720009 0.13986841 -0.83177692 0.003595948
-0.0010276322 0.0038904836 0.0096020559 -0.55052584 0.18514599 -0.81402838 0.002328441
-0.003013968 0.0060039759 0.011368408 -0.43077227 0.29478037 -0.85295939 0.0030167818
-0.00077142916 0.0068606241 0.010530678 -0.4251405 0.35770443 -0.83144629 0.0032009266
0.0021015119 0.0073335888 0.0093594873 -0.34155127 0.48629668 -0.80427498 0.0015761586
0.0043602455 0.0081134737 0.0088728182 -0.31358257 0.54713076 -0.77608883 0.00086344179
0.025346225 0.0078732073 0.0089193545 0.40497029 0.88763112 -0.21934006 0.0018624684
-7.4163312e-05 0.0091666272 0.011342 -0.32338437 0.45247716 -0.83107579 0.0032512532
0.0024974102 0.0097376322 0.010729823 -0.25915253 0.56430328 -0.78383785 0.00088575843
0.0052751768 0.0098993471 0.0099173607 -0.21338348 0.62963808 -0.74700958 0.0014379798
0.0081255808 0.010406945 0.009611533 -0.15015395 0.71133053 -0.68663144 0.0015774838
0.011031489 0.010725361 0.0094139231 -0.07842131 0.76776683 -0.63591212 0.0018767347
0.014260996 0.010778395 0.0093129985 0.014329036 0.83441234 -0.55095434 0.0019804502
0.017418021 0.010792464 0.0098431623 0.12850982 0.88898933 -0.43952605 0.0038514948
0.020231828 0.010220638 0.01001184 0.26754376 0.89989477 -0.34439769 0.0040016528
0.023223136 0.0091025941 0.0099412166 0.3666918 0.90070176 -0.23296693 0.0033390624
0.0036459796 0.011570327 0.011734258 -0.21897617 0.62125361 -0.75239182 0.0029994023
0.0055851378 0.011722688 0.011398814 -0.1611962 0.66324288 -0.73083836 0.0020123408
0.0083419895 0.011849981 0.011061767 -0.084736921 0.73483157 -0.67293555 0.0025568267
0.011085154 0.012007179 0.011028625 -0.0095494865 0.79618323 -0.60498029 0.0022667723
0.014190605 0.011769277 0.01084694 0.086176656 0.84444821 -0.52865946 0.002278144
0.016739346 0.011655124 0.011296701 0.21417283 0.88203645 -0.4196924 0.0029783016
0.0048621204 -0.016358428 0.012167152 -0.74657446 -0.6368289 -0.19255032 0.00084468047
0.0026067204 -0.01398913 0.013058619 -0.7515949 -0.62015623 -0.22474748 0.0024199686
0.0041352557 -0.0156442 0.01261906 -0.74795657 -0.63572329 -0.19083178 0.00089436438
-3.798143e-05 -0.010831192 0.013355155 -0.75047433 -0.55530012 -0.35837135 0.0025775337
0.0014110757 -0.012337909 0.012656432 -0.74800599 -0.59283555 -0.29838401 0.0012493059
-0.0030154726 -0.0072324667 0.014038942 -0.70240164 -0.51015699 -0.49635845 0.0032799258
-0.0016194882 -0.0082689505 0.012996677 -0.75028884 -0.45707759 -0.47764698 0.0017487588
-0.003788393 -0.0050803041 0.013298889 -0.72558224 -0.38091275 -0.5730933 0.0016195808
-0.0021831661 -0.0063961968 0.012104701 -0.7536884 -0.39710632 -0.52369881 0.0041507818
-0.0060733948 -0.0019628915 0.014047268 -0.67904872 -0.32725051 -0.65711486 0.0028467248
-0.0045242766 -0.0023656667 0.012676602 -0.69277012 -0.24067567 -0.67981231 0.001925741
-0.0066490425 0.00075655326 0.013610892 -0.62643796 -0.19165352 -0.75554252 0.0036270537
-0.0048559043 0.00064864918 0.012129568 -0.64677602 -0.10952324 -0.75477517 0.0031471169
-0.0086280312 0.0037637495 0.014586898 -0.57335955 -0.10378835 -0.81270343 0.0039151483
-0.0068255672 0.0035770885 0.013390696 -0.57870883 -0.063329518 -0.81307167 0.0029807594
-0.0048543117 0.0035633026 0.012028951 -0.56433529 0.057740364 -0.82352394 0.0027763974
-0.0087359678 0.0064984383 0.014589001 -0.45891905 0.081118524 -0.88476723 0.0042027156
-0.0068300078 0.0067486567 0.013627324 -0.43930069 0.14707628 -0.88621861 0.0039378474
-0.0041926093 0.0069767097 0.012307022 -0.44070223 0.23417671 -0.86656952 0.0047680489
0.025497623 0.0081743523 0.011846762 0.40676609 0.89255762 -0.19463342 0.00082334434
-0.0085618971 0.0087223426 0.014742177 -0.35379207 0.20636821 -0.91227365 0.0029650689
-0.0066628726 0.0097532477 0.014241244 -0.3308554 0.24674934 -0.91085094 0.0028287398
-0.0038992742 0.0099077914 0.013216907 -0.35352555 0.33101377 -0.87489974 0.0022168919
-0.0010873873 0.010273012 0.012326858 -0.30202997 0.4475221 -0.84172559 0.0036798068
0.0017038442 0.011089611 0.011911344 -0.2238542 0.58071679 -0.78272426 0.0020017626
0.020681499 0.010918872 0.012800133 0.34365594 0.8988446 -0.27199081 0.0033871704
0.023098962 0.0096453009 0.012461415 0.42349768 0.88259745 -0.20413615 0.00088516629
-0.0057911836 0.011815253 0.014662505 -0.25635734 0.34847841 -0.90157837 0.0032314479
-0.0036922472 0.012315873 0.014272405 -0.26538169 0.44105962 -0.85734415 0.0017825973
-0.00067552947 0.012785098 0.013725071 -0.18429095 0.55858237 -0.8087166 0.00099217251
0.0023980483 0.012861175 0.01307704 -0.14539862 0.62654895 -0.76569945 0.0014164841
0.0052717477 0.013170456 0.012845934 -0.10673755 0.68655765 -0.71919793 0.0026438332
0.0082188277 0.013334419 0.012756014 -0.021158673 0.75641221 -0.65375292 0.0015418879
0.011262344 0.013506298 0.01311807 0.086428992 0.83018434 -0.55074865 0.0038865877
0.013954531 0.01314909 0.013161854 0.17492783 0.87367517 -0.45397362 0.0034884075
0.017109102 0.012338484 0.013061713 0.27919281 0.88712531 -0.36750525 0.0029845529
0.019252243 0.01178613 0.013631812 0.36471954 0.88196802 -0.29851654 0.0029751495
0.0007235189 0.014586367 0.014729928 -0.094021432 0.6351555 -0.76664042 0.0014012463
0.0024336276 0.01457847 0.01450061 -0.085677534 0.66914558 -0.73817581 0.0020190286
0.0053979876 0.014641709 0.014309715 -0.025861545 0.72723955 -0.68589646 0.0021799137
0.0082920389 0.014570272 0.01426293 0.048291571 0.78299242 -0.62015384 0.0022130515
0.010494368 0.014580674 0.014564496 0.14916791 0.83420306 -0.53089947 0.0025556523
-0.074979626 0.02581092 0.014471055 -0.26288149 -0.82408804 -0.50176924 0.07859122
-0.074028455 0.025820024 0.014624488 -0.044295881 -0.78622925 -0.61634523 0.082483523
-0.074871294 0.027528735 0.013833506 -0.41883239 -0.23600908 -0.87685746 0.12981664
-0.072718337 0.027744474 0.013099902 0.22244599 -0.35414135 -0.90835112 0.059413567
-0.070630006 0.028353902 0.014292325 0.53809983 -0.41395783 -0.73422581 0.037012506
-0.074567594 0.030659417 0.013961084 -0.50323182 0.12730937 -0.8547222 0.048371572
-0.072517827 0.030827343 0.012879865 0.24758135 0.1962959 -0.94877368 0.049012359
-0.070710704 0.030598309 0.014249045 0.52296638 0.23491597 -0.8193416 0.040847331
-0.074480571 0.033132549 0.014408997 -0.54876506 0.32616851 -0.76972139 0.075500816
-0.072976619 0.033198949 0.013849647 0.07361488 0.56739956 -0.82014549 0.13124321
0.0043935487 -0.016479105 0.015718859 -0.73391193 -0.65320939 -0.18625458 0.0010395002
0.00055375253 -0.012992072 0.016586127 -0.69764847 -0.67945337 -0.22722198 0.0014785753
0.0022587383 -0.01440933 0.015539806 -0.72722971 -0.65681398 -0.19932953 0.0014920954
-0.0024790317 -0.010143265 0.017276119 -0.69837552 -0.62724531 -0.34472448 0.0015048722
-0.0010535769 -0.011083275 0.016163537 -0.69239378 -0.65450871 -0.30365959 0.0034761017
-0.0037228309 -0.0081081009 0.016300792 -0.69931966 -0.60070473 -0.38743499 0.0013569189
-0.0022150313 -0.0093715563 0.015390348 -0.72611004 -0.58235437 -0.36555117 0.0012079012
-0.0063314401 -0.0048736492 0.016474022 -0.68628097 -0.50682467 -0.5216772 0.0019647251
-0.0048742746 -0.0059476281 0.015537865 -0.71033973 -0.53318417 -0.45949113 0.0014070692
-0.0090666227 -0.0017478943 0.017030474 -0.64834934 -0.461081 -0.60584444 0.0019483612
-0.0074216314 -0.0024985357 0.015817411 -0.65781337 -0.39112648 -0.64366269 0.001458155
-0.011697686 0.0015289974 0.017414782 -0.56595629 -0.3810463 -0.73109317 0.0029481226
-0.0097528435 0.00072161329 0.016263934 -0.59335268 -0.30286214 -0.74579293 0.0023243963
-0.0079819001 2.3942208e-05 0.015028321 -0.62507206 -0.2522248 -0.73869312 0.0028966803
-0.012474045 0.0037872228 0.017054267 -0.51553345 -0.24655314 -0.82063198 0.0034674918
-0.010084998 0.0035570706 0.015579408 -0.53725725 -0.16912606 -0.82628751 0.0027813744
-0.014668969 0.0070262244 0.017529091 -0.45109996 -0.16659206 -0.8767873 0.0031384113
-0.012778785 0.0065545626 0.016631683 -0.43840492 -0.092751466 -0.89397895 0.0042683147
-0.010152739 0.0066685881 0.015318943 -0.46814784 -0.023568276 -0.88333577 0.0026141179
-0.014963844 0.0096827392 0.017480601 -0.3776907 0.0094436985 -0.92588359 0.0026437743
-0.012777155 0.0097436756 0.016587246 -0.35551327 0.081610888 -0.9311015 0.0025589638
-0.0098854359 0.0098181013 0.015488248 -0.3744826 0.17001329 -0.91151428 0.0040169121
-0.0077520534 0.010845622 0.014952338 -0.3079873 0.26702148 -0.91315025 0.0014439347
0.022717157 0.010189541 0.014786314 0.41535544 0.88307583 -0.21830489 0.00099741924
-0.014889468 0.012227043 0.017618943 -0.29518059 0.1603777 -0.94188505 0.0023596676
-0.012793543 0.012948824 0.017090611 -0.26452523 0.19552816 -0.94434905 0.0021215696
-0.0098230699 0.012922177 0.01621874 -0.27242699 0.28780532 -0.91812402 0.0031487276
-0.0069630295 0.01299623 0.015489452 -0.21135153 0.38768333 -0.89723587 0.001821463
-0.004234123 0.013654237 0.015115662 -0.18466933 0.46901199 -0.86366951 0.0018720574
-0.001965567 0.01410228 0.014867242 -0.17887513 0.55087835 -0.81519115 0.0024294287
0.01481726 0.014022963 0.01541953 0.25822321 0.8928625 -0.36894089 0.0042363885
0.016951103 0.013404061 0.015957579 0.33937362 0.89499509 -0.28949863 0.0023082439
0.019497115 0.012175086 0.015814276 0.37544572 0.88433838 -0.27746353 0.0015690051
-0.012266626 0.01502705 0.017526209 -0.24615638 0.30112883 -0.92126465 0.0016464681
-0.0097388811 0.015638148 0.017210606 -0.17963196 0.39299908 -0.90182269 0.0019059367
-0.0068930956 0.015886612 0.016819429 -0.15221949 0.45753449 -0.87606585 0.0019390632
-0.0039412878 0.015869876 0.016364295 -0.094208285 0.54582131 -0.83258873 0.0012408806
-0.0007866089 0.015885474 0.01597547 -0.06640099 0.62251341 -0.77978718 0.0015974034
0.0024345184 0.016098103 0.015912171 -0.02167445 0.68863881 -0.72478056 0.0011358653
0.0053666634 0.016135393 0.015999615 0.061822016 0.77168781 -0.63298965 0.0030679714
0.0082421722 0.015956827 0.016161034 0.117557 0.82715738 -0.54953712 0.002677497
