# .PCD v0.7 - Point Cloud Data file format
VERSION 0.7
FIELDS x y z normal_x normal_y normal_z curvature
SIZE 4 4 4 4 4 4 4
TYPE F F F F F F F
COUNT 1 1 1 1 1 1 1
WIDTH 557
HEIGHT 1
VIEWPOINT 0 0 0 1 0 0 0
POINTS 557
DATA ascii
0.0069768433 -0.011117371 -0.008833793 0.10947901 -0.71302503 -0.69253856 0.0014120245
-0.010281973 -0.0084458552 -0.0097002583 -0.29853588 -0.89989865 -0.3178975 0.0035409455
-0.0077862288 -0.0089309495 -0.01025767 -0.2259579 -0.88212579 -0.41327593 0.002386739
-0.0047711846 -0.0096814577 -0.01009285 -0.17135487 -0.87137622 -0.4597182 0.0031466288
-0.0018402883 -0.0099090356 -0.010398638 -0.06200837 -0.80675024 -0.58763003 0.0020641466
0.0012527672 -0.009941278 -0.010554106 0.003877593 -0.77813411 -0.62808627 0.0013817456
0.0042862748 -0.0097786169 -0.010538151 0.067297779 -0.73517317 -0.67453051 0.0010477338
0.0072257468 -0.0095176902 -0.010268871 0.17233664 -0.64206105 -0.74703252 0.0016860501
0.010110654 -0.0093961973 -0.009634384 0.23147202 -0.59683061 -0.7682538 0.0018188367
0.012821455 -0.0088441931 -0.0091621187 0.318517 -0.53022188 -0.78575546 0.0011376431
-0.018598868 -0.0051440611 -0.010808008 -0.32782686 -0.91247934 -0.24476729 0.0015174662
-0.016551754 -0.0059673567 -0.010645147 -0.32972386 -0.91057336 -0.24927564 0.0017590587
-0.013737651 -0.0071133194 -0.010235195 -0.29406971 -0.9099288 -0.29249385 0.0028324614
-0.011067514 -0.0077678119 -0.010850286 -0.25531799 -0.8922537 -0.37241906 0.0027909959
0.008092856 -0.0078749862 -0.011374882 0.19997133 -0.60192633 -0.77310824 0.0013782842
0.010399804 -0.0072634355 -0.011074451 0.26644194 -0.54128599 -0.79750746 0.00087257288
0.013158599 -0.0065466729 -0.010401549 0.34686291 -0.45879334 -0.81804323 0.0016045391
0.015919339 -0.0062424359 -0.0092594409 0.41548902 -0.38030857 -0.82627732 0.0019611777
0.017754707 -0.0051574274 -0.0087399501 0.4872863 -0.30599517 -0.81787473 0.00068499485
-0.024715532 -0.0024057939 -0.011478307 -0.35569093 -0.87772095 -0.32107601 0.0010388538
-0.020183902 -0.0044586225 -0.011019932 -0.35273203 -0.90548474 -0.23596095 0.0012174434
0.013944622 -0.0037990431 -0.011268805 0.45542312 -0.26216194 -0.85080022 0.0017062392
0.016103765 -0.0033202865 -0.01025982 0.5034408 -0.19932383 -0.84072435 0.0011635069
0.018126484 -0.0031698919 -0.0090380376 0.54664373 -0.17551684 -0.81876403 0.0024822741
0.016193258 -0.00041393004 -0.010723639 0.55975401 -0.077218495 -0.82505322 0.0038692344
0.018242795 -0.00035675056 -0.0092756376 0.62064761 0.0077228919 -0.78405154 0.0036244616
0.016214689 0.0026894994 -0.01056554 0.63849235 0.18582855 -0.74685687 0.0041152039
0.018078776 0.0022988415 -0.0090917982 0.65204108 0.22331694 -0.72454953 0.004207877
0.014223784 0.0060539264 -0.011246594 0.64655393 0.27409476 -0.711927 0.0038244575
0.015901448 0.0054322942 -0.0099195987 0.65437883 0.30881903 -0.6902312 0.0023309407
0.013382405 0.0087276576 -0.010278078 0.63008869 0.47896853 -0.61120975 0.0024457313
0.015297929 0.0075217024 -0.0091262432 0.65111446 0.48603019 -0.58294475 0.00053885032
-0.049370546 0.01173286 -0.011077227 -0.62444961 -0.71470183 -0.3150619 0.00091838592
-0.047517866 0.010357453 -0.011314126 -0.59533554 -0.73392832 -0.32699376 0.00072601403
0.010502826 0.011869501 -0.010420418 0.60927927 0.59745377 -0.52137107 0.00053271063
0.012235528 0.010870419 -0.0094943158 0.62674928 0.56180787 -0.5399605 0.0011676237
-0.054693852 0.015934898 -0.0088208634 -0.73363632 -0.56728059 -0.37412617 0.00080952083
-0.052602433 0.014480924 -0.010774376 -0.68729764 -0.61042482 -0.39370474 0.0033094457
0.005357807 0.015821828 -0.011444213 0.55415905 0.68843549 -0.46793613 0.00085378683
0.0074916915 0.014890347 -0.010234228 0.56744814 0.68502486 -0.45688447 0.00030238842
0.0094875116 0.013614211 -0.0095741265 0.60123694 0.62339616 -0.49989143 0.00032596869
-0.055726208 0.017728478 -0.010263475 -0.73034436 -0.54369336 -0.41351491 0.0023682304
0.0020911223 0.018731326 -0.01097575 0.53768569 0.74209338 -0.40023941 0.00043725551
0.0042547467 0.017573182 -0.010211591 0.54785198 0.72054607 -0.42505473 0.00086227839
0.0061320816 0.016673278 -0.009402019 0.54471296 0.72508919 -0.42134726 0.00082906458
-0.05815671 0.020934552 -0.0096112862 -0.75308758 -0.39298597 -0.5276562 0.0035321773
-0.057026733 0.020214844 -0.010844871 -0.78798062 -0.38090068 -0.48373663 0.0042110034
-0.0012809942 0.021350255 -0.010378747 0.50841755 0.79729706 -0.32531357 0.0006513347
0.0011076364 0.020034106 -0.009886343 0.50942028 0.78163719 -0.35990858 0.0014252437
0.0030793543 0.019131852 -0.0090711135 0.52759671 0.77441454 -0.34917596 0.00076993729
-0.05871734 0.023644254 -0.010210263 -0.78288662 -0.19897714 -0.58948839 0.004725948
-0.007148772 0.024809375 -0.010573133 0.47234306 0.83183646 -0.29144481 0.00020461433
-0.0049183732 0.023645032 -0.01020573 0.48736921 0.81527638 -0.3127228 0.00017978139
-0.002786689 0.022432392 -0.010096656 0.52058399 0.7903412 -0.32303736 0.00043751794
-0.058997843 0.02654274 -0.0099956794 -0.73220998 0.1909049 -0.65377659 0.010601915
-0.012898533 0.027723921 -0.010682883 0.42207858 0.8720749 -0.2476591 0.00017575861
-0.010690581 0.026700204 -0.010401242 0.43876699 0.8530156 -0.28257373 0.00023739043
-0.0086136591 0.02564013 -0.010440024 0.45968679 0.83967483 -0.28919572 0.00036632197
-0.058229633 0.029011561 -0.0097400285 -0.64257687 0.4814468 -0.59607369 0.005699927
-0.05654813 0.030148463 -0.010540537 -0.65021849 0.5262537 -0.54797167 0.0083923405
-0.019507343 0.030447548 -0.010883296 0.35982469 0.90059578 -0.24383086 0.00039592112
-0.016840026 0.02937435 -0.010994913 0.38055304 0.89365369 -0.23782863 0.00013264875
-0.014490744 0.02839916 -0.01081522 0.39860922 0.88520575 -0.23983634 0.00038135084
-0.055200242 0.031687718 -0.0099622328 -0.51428753 0.7211951 -0.46409705 0.0028540196
-0.052933574 0.03286228 -0.01013084 -0.41484073 0.83426374 -0.36319578 0.0037351423
-0.050741237 0.033474859 -0.011056942 -0.32042682 0.87437648 -0.36440703 0.0019860186
-0.032011125 0.03405185 -0.011416497 0.17275243 0.95032674 -0.25891256 0.0013229193
-0.028877314 0.033431418 -0.010669487 0.22452006 0.94637382 -0.2323086 0.001045624
-0.025487958 0.032559857 -0.010169761 0.27924517 0.94259727 -0.18311886 0.00049242342
-0.022695281 0.031580307 -0.01098107 0.32024562 0.92075449 -0.22283153 0.00068816374
-0.049525555 0.034280531 -0.0098275384 -0.31027097 0.88708359 -0.34178144 0.0014797489
-0.046969999 0.034675103 -0.010545941 -0.22981417 0.92408353 -0.3053768 0.0014745927
-0.043910194 0.035002738 -0.010969963 -0.097968571 0.94515383 -0.31158698 0.0033779612
-0.038656745 0.034997586 -0.011028262 0.031636231 0.95522237 -0.29419279 0.0014375685
-0.034347087 0.034564212 -0.010767343 0.15607128 0.95980179 -0.2332857 0.0013687202
-0.004092962 -0.011288578 -0.0069068987 -0.26398915 -0.89271551 -0.36519685 0.0041568051
-0.0017680158 -0.011803476 -0.0071042618 -0.19779131 -0.88575751 -0.41989553 0.0021891512
0.0013270737 -0.012247041 -0.0073001161 -0.11737933 -0.8678512 -0.48275906 0.003598446
0.0042298208 -0.012532193 -0.0072370181 -0.040186703 -0.83779591 -0.54450244 0.0030594473
0.0072598304 -0.012493847 -0.0072303019 0.049522486 -0.77767909 -0.62670797 0.0030403649
0.010183139 -0.012273351 -0.0070573874 0.15808071 -0.69175881 -0.70461351 0.0013366921
0.013134256 -0.012000056 -0.006563467 0.23605107 -0.64271051 -0.72883683 0.0011826747
0.015924687 -0.011482069 -0.0060541872 0.31676686 -0.58211297 -0.74886799 0.0012483356
-0.013048191 -0.0079352576 -0.0067147631 -0.35557246 -0.9170301 -0.1806211 0.00051756267
-0.010341296 -0.0089327116 -0.007794668 -0.32474366 -0.91975105 -0.22045289 0.00084630313
-0.0077072047 -0.009972319 -0.0073557282 -0.28022474 -0.90662175 -0.31545392 0.0024103893
-0.005347311 -0.010602232 -0.0078092287 -0.24776019 -0.90530223 -0.34502572 0.0046445346
0.010881988 -0.010667315 -0.0083984751 0.18367314 -0.65664178 -0.73149562 0.0010270076
0.013465252 -0.010075493 -0.0080360919 0.27975014 -0.56246454 -0.77805752 0.0020593076
0.016194128 -0.0095390156 -0.0073112287 0.33913743 -0.52344376 -0.78166002 0.00095150614
0.018935006 -0.0089644827 -0.006293416 0.4263109 -0.44658238 -0.78665316 0.0018599929
0.021095829 -0.0079493243 -0.0056254286 0.52299643 -0.36097094 -0.77212346 0.0014943673
-0.018038642 -0.0056194081 -0.0082924981 -0.34527194 -0.91365105 -0.21454409 0.0011861935
-0.013903495 -0.0074547543 -0.0083768684 -0.35041627 -0.90795547 -0.2298376 0.0014729914
0.016854741 -0.0074568368 -0.0082107922 0.39745599 -0.39785513 -0.82688576 0.0027511225
0.019182393 -0.0063824761 -0.0073949844 0.51400721 -0.27700803 -0.81182706 0.0019643994
0.021441281 -0.0060981694 -0.006037367 0.55574155 -0.24815707 -0.79345411 0.0025758212
0.019741701 -0.0034140013 -0.0078783669 0.59072328 -0.11750115 -0.79827279 0.001883119
0.021758094 -0.0033283764 -0.006340398 0.62347871 -0.076488234 -0.77809 0.0033809305
0.01988042 -0.00032810727 -0.007938752 0.64966995 0.058543112 -0.75795883 0.0027179413
0.021658119 -0.00042932853 -0.0063661272 0.67497659 0.11970626 -0.72806394 0.0034773727
0.01961383 0.0027664923 -0.0074098157 0.67182016 0.28590608 -0.683312 0.0035240951
0.021252302 0.002036775 -0.0060220566 0.68492228 0.31793365 -0.65559095 0.0024937186
0.017055942 0.0063214693 -0.0080767544 0.67161477 0.41865772 -0.61127675 0.0014866366
0.018652944 0.0054608132 -0.0068646264 0.68123496 0.41933402 -0.60006493 0.0018423055
0.014409984 0.0098434919 -0.0080513479 0.63538957 0.56441665 -0.52698576 0.00069032446
0.01620109 0.0086440025 -0.007087626 0.66270828 0.52945626 -0.52961653 0.0011050063
0.018000679 0.0074391598 -0.0060702981 0.6669001 0.52362984 -0.53014714 0.00079819246
0.011338096 0.012735216 -0.0085411686 0.60777104 0.62482756 -0.49010703 0.00041231344
0.013308452 0.011698261 -0.0073561184 0.61604822 0.59878045 -0.51180708 0.00077461032
0.015227515 0.010664988 -0.0062206807 0.63368058 0.57839924 -0.51371515 0.00098268432
0.0084417127 0.015826095 -0.0077935476 0.57520181 0.72716856 -0.3746582 0.0017080621
0.010243747 0.014552806 -0.0073576844 0.58680069 0.69024462 -0.42335239 0.0021629408
0.012150623 0.013584197 -0.0062928814 0.5835951 0.69116038 -0.4262794 0.0023584934
-0.05755768 0.018725274 -0.0080283899 -0.74100518 -0.56146288 -0.36833516 0.00085149711
-0.056822266 0.018020464 -0.0083584655 -0.74271905 -0.53146249 -0.40732795 0.0024250012
0.0050099879 0.018372629 -0.007730945 0.5333274 0.794635 -0.29002953 0.002217279
0.0071010715 0.017178884 -0.0070306119 0.55937105 0.75103992 -0.35077503 0.0013981959
-0.060735665 0.021889944 -0.0062274057 -0.76510632 -0.44102958 -0.46915376 0.0031236876
-0.059224691 0.020675916 -0.0074821105 -0.77390337 -0.47364116 -0.42040175 0.0017220951
-0.00060328143 0.021991653 -0.0071393866 0.5006699 0.80488217 -0.31858191 0.00059852656
0.0013542566 0.020832984 -0.0072829183 0.51589024 0.81212598 -0.27259618 0.0013291008
0.003724325 0.019411149 -0.007191624 0.51998705 0.80235285 -0.29299024 0.0022623467
-0.061233953 0.023749273 -0.0068368483 -0.79583204 -0.2461229 -0.5532403 0.0086267171
-0.060084093 0.023575509 -0.0083389655 -0.78397769 -0.18719974 -0.59189117 0.0051654577
-0.0033468828 0.023299156 -0.0083574075 0.50464904 0.80274791 -0.31768692 0.00036091584
-0.0019739554 0.02263183 -0.0079947431 0.50881577 0.80014455 -0.31760851 0.0005406937
-0.06160919 0.026560443 -0.0068950122 -0.79683399 0.093757048 -0.59687954 0.013922376
-0.06026601 0.027430916 -0.0083505036 -0.73652971 0.12066128 -0.66555607 0.0096277799
-0.061104637 0.029077046 -0.0064791739 -0.66825849 0.52122211 -0.53080893 0.012760402
-0.059297532 0.029932547 -0.0076509933 -0.68188494 0.50803107 -0.5262484 0.0096722748
-0.058128852 0.03148903 -0.0067921854 -0.52425528 0.71470833 -0.46297777 0.0022313832
-0.055969514 0.032437395 -0.0074710641 -0.50829518 0.74140602 -0.4381246 0.0026317472
-0.053299755 0.033597197 -0.0078051109 -0.38802251 0.86031413 -0.33060288 0.0012412709
-0.051275503 0.034444958 -0.0068564136 -0.35318172 0.87635887 -0.32750225 0.0015861425
0.0018605958 -0.014184536 -0.0035682712 -0.22061932 -0.90126294 -0.37289709 0.0043074158
0.0043671648 -0.014486821 -0.0040723733 -0.1349519 -0.87331271 -0.468095 0.0042332252
0.0072499388 -0.014687441 -0.0042715142 -0.037952952 -0.83250701 -0.55271292 0.0039031648
0.010267539 -0.01492838 -0.0039667604 0.015001418 -0.79786187 -0.60265356 0.0020464326
0.013070595 -0.014717143 -0.0038498039 0.12436377 -0.74730253 -0.65274239 0.0025160913
0.016014606 -0.014528316 -0.0033141868 0.21475154 -0.68617177 -0.69501805 0.0015080791
0.018305941 -0.014145391 -0.0028678123 0.2938979 -0.64169985 -0.70841044 0.0012304238
-0.0044160425 -0.01175268 -0.004936262 -0.27789038 -0.90568113 -0.32018527 0.0020713147
-0.001659649 -0.012913916 -0.0041237129 -0.23752114 -0.90425169 -0.35484162 0.0011995228
0.00097061694 -0.013408983 -0.0048967423 -0.19569227 -0.8926329 -0.40609241 0.0033637718
0.011395585 -0.013494121 -0.0055772085 0.11116415 -0.71465546 -0.69058681 0.0031828589
0.013530172 -0.01336501 -0.0052068788 0.18173546 -0.68412143 -0.70636398 0.0016467927
0.016425762 -0.012782453 -0.0047790501 0.27875912 -0.61323899 -0.73907459 0.0021477249
0.019043554 -0.01234269 -0.004037078 0.33617473 -0.56476068 -0.75367886 0.001122379
0.021472843 -0.011862349 -0.0031647226 0.43192393 -0.4994863 -0.75096947 0.0025399323
-0.0080268905 -0.010272728 -0.0048836488 -0.3165229 -0.90892875 -0.27140716 0.0020293589
0.019883137 -0.010113962 -0.0051411646 0.38961199 -0.50067824 -0.77299666 0.00094053173
0.0222806 -0.0093947724 -0.0040906891 0.5203532 -0.35601285 -0.77620053 0.0017133856
0.02433187 -0.0087014418 -0.0030244552 0.56427044 -0.33203426 -0.75587845 0.0021498613
0.022787102 -0.0064862869 -0.004928465 0.60866004 -0.19120635 -0.77004737 0.0020660912
0.024637386 -0.006301723 -0.0034976946 0.64226812 -0.16522923 -0.74845904 0.0031773427
0.023198083 -0.0033308538 -0.0051279748 0.66658115 -0.022132328 -0.74510378 0.002548126
0.024697883 -0.0033819373 -0.0036973162 0.70316315 0.026072117 -0.71055037 0.0032638062
0.023071283 -0.00018428313 -0.0048745554 0.70656133 0.15732017 -0.68994308 0.0022278568
0.024512554 -0.00047495728 -0.0034224112 0.73072493 0.20883235 -0.64994627 0.0026170518
0.020637771 0.0040630833 -0.0055301208 0.69442457 0.35845426 -0.62392706 0.0016769167
0.022510985 0.0025928183 -0.0042700446 0.71211445 0.32612279 -0.62172091 0.0012543218
0.02411397 0.0016617537 -0.0029423479 0.72359121 0.36518973 -0.58570653 0.0012546896
0.020008048 0.0059625194 -0.0049024019 0.69188958 0.43056366 -0.57957196 0.00091313332
0.021497525 0.005240174 -0.0036308016 0.69861752 0.47105813 -0.53855157 0.0018144803
0.017268887 0.0094701881 -0.004940561 0.6572963 0.59936827 -0.45685801 0.0012210795
0.018844476 0.008343216 -0.0040479391 0.68566352 0.55689919 -0.4687525 0.0020398621
0.014277317 0.01249402 -0.0049183923 0.62588507 0.68650091 -0.370114 0.0032419343
0.016154915 0.011203084 -0.0040509645 0.63255125 0.66531855 -0.39652252 0.002883987
0.01795416 0.010144828 -0.0029557962 0.6536082 0.63153464 -0.41708562 0.0016146445
0.01104451 0.015284689 -0.0045755701 0.56195676 0.77836579 -0.27991292 0.00085453398
0.012946716 0.014082165 -0.003877284 0.59801316 0.73397678 -0.32195991 0.001708255
0.0053898082 0.018850384 -0.005504908 0.53843105 0.79787576 -0.2710835 0.0014597835
0.0076205782 0.017703099 -0.0043433388 0.53446633 0.81119466 -0.23729512 0.00072637311
0.0097541902 0.016318643 -0.0042183357 0.56522614 0.77650905 -0.27848354 0.00093857222
-0.061330423 0.021458102 -0.0043115783 -0.74742645 -0.50779283 -0.42836905 0.0033167775
-0.059549615 0.020011174 -0.0053971577 -0.76228189 -0.47555962 -0.43905514 0.0019575516
0.0040082769 0.01984469 -0.0041315872 0.5180285 0.82780761 -0.21536255 0.00033680585
-0.063999832 0.024322366 -0.0033683698 -0.6969294 -0.42589146 -0.57697994 0.0086878296
-0.062549189 0.023369666 -0.0046228943 -0.78856635 -0.36620516 -0.49402112 0.011348705
-0.064400993 0.026643684 -0.0037469687 -0.79156739 0.0015414308 -0.61107993 0.020036265
-0.063036159 0.026490802 -0.0052678306 -0.72501647 0.036382303 -0.68776983 0.01403437
-0.064223938 0.028923927 -0.0033576414 -0.57725364 0.48440734 -0.65736419 0.019162072
-0.06231115 0.029802663 -0.0044349688 -0.5967626 0.52305466 -0.60851312 0.016459376
-0.060241163 0.03087212 -0.0054095406 -0.53517067 0.6626724 -0.52388716 0.0071589886
-0.060743213 0.031478032 -0.0035826135 -0.52008653 0.71987659 -0.45966032 0.0015065083
-0.059154429 0.031953681 -0.0044070599 -0.51543933 0.72692394 -0.45376632 0.0016577526
-0.057023168 0.032731041 -0.0052855927 -0.50083125 0.75271183 -0.42730901 0.0024748126
0.0082311407 -0.017392831 0.00029825978 -0.23555127 -0.90388578 -0.35707989 0.0028749721
0.010357505 -0.017482234 -0.00012703612 -0.10377428 -0.85551822 -0.50726664 0.0023383796
0.013138177 -0.017611166 -0.0001589004 0.0059050033 -0.8335796 -0.55236781 0.0022073616
0.015903495 -0.017523244 6.0154125e-06 0.12018446 -0.77113712 -0.62522256 0.0017342361
0.019005898 -0.017161274 0.00037541799 0.22294256 -0.71773934 -0.65965664 0.0013139539
0.0012649721 -0.014693912 -0.0013010851 -0.30839759 -0.91592753 -0.25684181 0.0029122951
0.0043003163 -0.015763881 -0.0011416236 -0.24679461 -0.90351343 -0.35036534 0.0033504204
0.0072777015 -0.016353983 -0.0013627242 -0.15905219 -0.88569111 -0.43618071 0.0044293981
0.010182997 -0.016649794 -0.0014866493 -0.029171998 -0.83887041 -0.54354888 0.0018193856
0.013168732 -0.016416153 -0.0017996924 0.067314267 -0.78099829 -0.62089485 0.0016799254
0.016238434 -0.016148353 -0.0015169997 0.1608904 -0.74386895 -0.64867026 0.00097794307
0.019220591 -0.015540587 -0.0011989516 0.24806191 -0.69402605 -0.67586476 0.00066221773
0.021970343 -0.014914155 -0.0005528871 0.3421877 -0.62086475 -0.70529044 0.00090950757
0.0243064 -0.014268028 0.00020454172 0.45791122 -0.53033769 -0.71348387 0.001294888
-0.0011103568 -0.013578372 -0.0023193676 -0.27436405 -0.91939741 -0.281838 0.0036194292
0.020294547 -0.013572412 -0.0025495011 0.35030177 -0.56850797 -0.74437046 0.0020189236
0.02263502 -0.012789747 -0.0018354123 0.45344752 -0.48014137 -0.75089926 0.0013801478
0.025107749 -0.01228299 -0.00062586367 0.53389388 -0.43046111 -0.72777778 0.0016373018
0.026959773 -0.011302443 0.0002048593 0.57762843 -0.38773012 -0.71833879 0.0015947827
0.023551106 -0.010780605 -0.0025572795 0.48221803 -0.45205426 -0.75040835 0.0010875007
0.025518596 -0.0096400585 -0.0016757702 0.60722983 -0.27516714 -0.74535567 0.0019158792
0.027375802 -0.0092002675 -0.00029255264 0.65649217 -0.24482784 -0.71349657 0.0023919537
0.026076268 -0.0064536775 -0.0021868208 0.68109548 -0.11237437 -0.7235198 0.0020052553
0.027613424 -0.0063780067 -0.00066843536 0.71358192 -0.083416164 -0.69558799 0.0024992351
0.026145931 -0.0032294765 -0.0022232435 0.72964317 0.067022853 -0.68053573 0.0022354089
0.027587596 -0.0033921911 -0.00066647772 0.74351817 0.11296086 -0.6591059 0.0033362927
0.025926605 -0.00012897374 -0.0016341703 0.74706715 0.2284418 -0.62426353 0.0017438271
0.027188547 -0.00057699531 -0.00027754251 0.75836653 0.31132099 -0.57267737 0.0026201843
0.023563391 0.0036462978 -0.002298208 0.72765249 0.39776799 -0.55884022 0.0012074678
0.025140628 0.0024187537 -0.0010567512 0.74475449 0.41314614 -0.52407157 0.0023760544
0.022739243 0.0057385834 -0.0013516336 0.6984185 0.54016954 -0.46949813 0.0028458433
0.024309486 0.0045152502 -0.00037255511 0.71633875 0.50820023 -0.47811234 0.0013166317
0.019875316 0.0090719722 -0.0013669776 0.66975391 0.64938211 -0.36018401 0.0012361162
0.021296535 0.0078706769 -0.00086168852 0.68332773 0.60507941 -0.40858552 0.0010300764
0.016520031 0.012200929 -0.0012564678 0.60389829 0.75102615 -0.26695815 0.00079702341
0.018627279 0.010539227 -0.00086883316 0.63862985 0.70199215 -0.31521234 0.0019946827
0.011470638 0.015775306 -0.0017077941 0.57004565 0.77554715 -0.27124646 0.00074945693
0.013344619 0.014579047 -0.0013118582 0.57704085 0.78279912 -0.23291498 0.00071341573
0.014984954 0.013467742 -0.0010705907 0.59912765 0.7589044 -0.25516692 0.00074672868
0.0091326404 0.017150966 -0.0022136588 0.55447912 0.79266196 -0.25345606 0.00035424254
-0.062643729 0.021832494 -0.001764657 -0.69107938 -0.61512667 -0.37951076 0.0021937194
-0.066799268 0.024578491 -7.9882331e-05 -0.6375193 -0.56260985 -0.52634537 0.0097638937
-0.06496647 0.023723144 -0.0013228692 -0.71045041 -0.49908742 -0.49615714 0.0094936751
-0.063028045 0.022268085 -0.0022993106 -0.76322532 -0.47017357 -0.44319728 0.0049292371
-0.067316242 0.026741201 -0.00070991646 -0.74831951 -0.078417778 -0.658687 0.024497299
-0.065785676 0.02635061 -0.0021580625 -0.75881052 -0.059743091 -0.64856559 0.020098465
-0.067267671 0.029137675 -0.00047599617 -0.5822202 0.3695927 -0.72416914 0.025086036
-0.065171063 0.029932057 -0.0015045539 -0.62118971 0.46298754 -0.63227046 0.021514144
-0.063790448 0.031262904 -0.00037285872 -0.55558014 0.51916623 -0.64945906 0.017217917
-0.062478259 0.031304955 -0.0018328051 -0.50099373 0.70787233 -0.49791783 0.0018523824
0.0049600857 -0.016986858 0.0021658624 -0.33880574 -0.90176404 -0.26838812 0.0031476682
0.0071921409 -0.017720753 0.0018393556 -0.29318222 -0.89587039 -0.33385688 0.0025477519
0.010200493 -0.018505296 0.0018671583 -0.14722396 -0.88323516 -0.44521987 0.0014059951
0.013289072 -0.018997259 0.0019993214 -0.068513475 -0.85755473 -0.50980955 0.0025975336
0.016287232 -0.018920958 0.0019214293 0.056062102 -0.81371641 -0.57855213 0.0019127438
0.019280272 -0.018388811 0.0018805275 0.2012756 -0.73901552 -0.64291853 0.00092213921
0.022004044 -0.017803021 0.0022008354 0.29421404 -0.68538338 -0.66609883 0.0013242239
0.024488948 -0.017272016 0.0028641736 0.39302686 -0.63139933 -0.6684795 0.001248088
-0.00067305705 -0.014132069 0.00095453672 -0.35045916 -0.91354018 -0.20645261 0.0014983311
0.0016727452 -0.015301602 0.00084623508 -0.37655979 -0.90557039 -0.19530737 0.001157361
0.0037838067 -0.016385986 0.00175911 -0.3194893 -0.91588986 -0.24304786 0.0028848681
0.022567721 -0.016214361 0.00087535195 0.31992003 -0.64040232 -0.69823778 0.0013748681
0.025270872 -0.015433853 0.0017611114 0.41518331 -0.57684934 -0.70346832 0.0011713136
0.02756888 -0.014650619 0.0027144263 0.5309341 -0.4905389 -0.69099975 0.002713487
0.026212253 -0.013347059 0.00082129054 0.5428552 -0.44222468 -0.71396464 0.0019676506
0.028193425 -0.012491463 0.0018977281 0.62276012 -0.33818197 -0.70555133 0.0016047233
0.029943563 -0.011596257 0.0030430388 0.67413348 -0.31052175 -0.67016441 0.0019956306
0.028791033 -0.0096297413 0.0012147715 0.69026488 -0.19192827 -0.69763738 0.0016406422
0.030316744 -0.0093134195 0.002723977 0.72469091 -0.17597429 -0.66622525 0.0015288268
0.029111262 -0.006392743 0.00094448868 0.7335692 -0.045862585 -0.67806548 0.0014493483
0.030427821 -0.0063693491 0.002449749 0.77517611 -0.0085241813 -0.6316877 0.003102195
0.029072747 -0.0032499153 0.0010842541 0.76885694 0.13844708 -0.62425274 0.0027261637
0.030264094 -0.0036116662 0.0025087446 0.79276145 0.19696955 -0.57682949 0.0037204807
0.028501604 -0.00030205213 0.0017787423 0.76214898 0.33741069 -0.55252421 0.0017894477
0.029948007 -0.0014630272 0.0031154137 0.78962994 0.36365095 -0.49420899 0.0014274317
0.026258174 0.0031691627 0.0013147164 0.75974423 0.45321459 -0.46624586 0.0017426137
0.027499456 0.0020238531 0.0021705013 0.75555164 0.46914524 -0.45721373 0.0012456843
0.023262126 0.0069815204 0.0012472253 0.69081539 0.63295352 -0.34949097 0.0010087676
0.024972167 0.0053119389 0.0018316787 0.72355503 0.56814635 -0.39201772 0.0015589116
0.020447187 0.0097985994 0.0012788754 0.63519675 0.72715241 -0.26033553 0.0014003396
0.022005817 0.0085316543 0.0017939843 0.67522675 0.65933132 -0.33068246 0.0011257589
0.017422162 0.012407852 0.0020812135 0.61714613 0.74818045 -0.243632 0.0012353613
0.019194264 0.011022395 0.0018305928 0.61664826 0.75447714 -0.22474256 0.00087325752
0.015608354 0.013567824 0.0016653417 0.5920065 0.77983522 -0.20343366 0.00023425883
-0.069828048 0.024801848 0.0028822999 -0.55575162 -0.58467096 -0.59101617 0.0088108424
-0.067863777 0.024134625 0.0018585958 -0.58958876 -0.59417975 -0.54711562 0.0084814364
-0.065807074 0.023113061 0.0015374301 -0.64003479 -0.57247972 -0.51246697 0.0066611664
-0.072367005 0.027536949 0.003263725 -0.5899024 -0.17475735 -0.78833687 0.022410363
-0.070709236 0.026645292 0.0023371698 -0.5608722 -0.33427766 -0.7574172 0.018656431
-0.068864442 0.026277428 0.0009448193 -0.70403099 -0.23938699 -0.66860616 0.041382793
-0.072359592 0.028712818 0.0032207351 -0.57191157 0.1510101 -0.80629587 0.03280006
-0.070612051 0.029345779 0.0023037838 -0.38922304 0.42493403 -0.8172738 0.037494462
-0.068389125 0.030125847 0.0013347324 -0.60521281 0.36999652 -0.70485461 0.031372651
-0.06631846 0.030886395 0.00081795268 -0.52139735 0.59679353 -0.60990345 0.014757468
0.010664765 -0.020231865 0.0056359395 -0.30043045 -0.88307875 -0.3604351 0.0040008477
0.01339674 -0.020741209 0.0051722825 -0.16938341 -0.87740493 -0.44885403 0.0048680259
0.016093094 -0.020862406 0.0048330743 -0.03736259 -0.86255717 -0.50457823 0.0021474056
0.019077292 -0.020957487 0.0051333467 0.086908542 -0.81444705 -0.57369238 0.0014618721
0.022233313 -0.020706467 0.0056419 0.2134226 -0.76846975 -0.6032455 0.0015737107
0.024502631 -0.020113518 0.0058362717 0.33329979 -0.71073747 -0.61948657 0.0012326919
0.0052068257 -0.017538542 0.0045242142 -0.36052534 -0.90096068 -0.24143609 0.0015397265
0.0071354373 -0.018562218 0.0047943229 -0.34218171 -0.89523917 -0.28540933 0.0014909584
0.010064004 -0.019527126 0.0043141656 -0.27320734 -0.90313745 -0.33121058 0.0043475279
0.012519656 -0.019870566 0.0037100995 -0.11580067 -0.87551117 -0.46911654 0.0020566683
0.019530825 -0.019800989 0.0036551636 0.13933098 -0.78622931 -0.60202181 0.0011936576
0.022355549 -0.01941447 0.0041119931 0.24477544 -0.73732054 -0.62963742 0.0010580778
0.025239483 -0.018557902 0.0045947172 0.3579061 -0.67209774 -0.64821899 0.00098541623
0.027805701 -0.017777268 0.0054604858 0.47037041 -0.59719414 -0.64970058 0.0016416615
0.0026070499 -0.016102659 0.003973661 -0.3934904 -0.89867759 -0.19376245 0.00086028664
0.026674066 -0.016562628 0.0035926681 0.5001207 -0.55021054 -0.66869098 0.0014439381
0.028643474 -0.015678981 0.0043626213 0.57031018 -0.474684 -0.67038894 0.0016797989
0.030539788 -0.015069835 0.0055800462 0.61533874 -0.45770812 -0.64176434 0.0012333429
0.029506672 -0.013495924 0.0036133211 0.60543269 -0.43969122 -0.66341758 0.0015688159
0.031263009 -0.012474211 0.0048904233 0.72728544 -0.25988451 -0.63522905 0.0012530524
0.03299563 -0.010953324 0.0063463133 0.76575214 -0.18176757 -0.61691505 0.00095268153
0.031776264 -0.009499209 0.0045237439 0.75159132 -0.14542879 -0.64339787 0.00050318945
0.033090424 -0.0090488009 0.0059947092 0.78258252 -0.13227774 -0.60833156 0.0017850056
0.031930961 -0.0064638886 0.0041682981 0.78789538 0.022384284 -0.6154021 0.0032442107
0.033141356 -0.0066258055 0.0056968937 0.81573993 0.083396517 -0.57237524 0.0051668715
0.031654295 -0.0032900181 0.0047590714 0.8078602 0.23259035 -0.54153812 0.0027350909
0.032988247 -0.0045420839 0.0062375646 0.84899938 0.21805398 -0.48130295 0.0069853812
0.029405672 0.00054577598 0.0038944688 0.79561466 0.39541975 -0.45895594 0.001251488
0.030603439 -0.00054321997 0.0050411383 0.79311037 0.39714286 -0.46179393 0.0013228271
0.028549496 0.0026324964 0.0048067654 0.75424314 0.53943497 -0.37433559 0.00080073014
0.030141767 0.0013924376 0.0062699299 0.78552234 0.47841197 -0.39252594 0.00097724155
0.025526509 0.0062375041 0.0046283994 0.70158327 0.64038694 -0.31254679 0.0015993167
0.027125102 0.0045996234 0.004931353 0.7189948 0.60431772 -0.34328789 0.0013555196
0.022664413 0.0088727213 0.0043786233 0.63386166 0.74036366 -0.22378796 0.00089370355
0.024044683 0.0076829279 0.0045251334 0.66178185 0.70803827 -0.24642758 0.0017544054
0.019312318 0.01146444 0.0044591213 0.60734683 0.76879877 -0.20019574 0.00031841296
0.02110118 0.010399161 0.0057868343 0.6171279 0.76233482 -0.19493301 0.00017238758
-0.072991937 0.024621857 0.0057094544 -0.40284798 -0.6330936 -0.66098869 0.0093190176
-0.07086961 0.024284258 0.0047484459 -0.47421604 -0.63543779 -0.60937506 0.0095119039
-0.06847205 0.02356988 0.0039555859 -0.53380686 -0.66671515 -0.5201357 0.0053761369
-0.0762427 0.027056284 0.0058716768 -0.44180962 -0.36964637 -0.81741405 0.018815408
-0.07389082 0.026506357 0.0047541494 -0.48444626 -0.3892411 -0.78345591 0.0212972
-0.071825743 0.025604857 0.0037749689 -0.51967007 -0.55967635 -0.64552718 0.021953961
-0.076308154 0.029547224 0.005675015 -0.46236479 0.22347856 -0.85806537 0.052917719
-0.07386107 0.029573984 0.0044458481 -0.46115786 0.20964409 -0.86219645 0.022077965
-0.071804531 0.030473957 0.0036510704 -0.39545321 0.63296491 -0.66556156 0.032419465
-0.07595358 0.031295918 0.0061704498 -0.41941759 0.62978834 -0.65380085 0.068102732
-0.073970668 0.031496115 0.0056863856 -0.25398096 0.67669564 -0.6910693 0.018021582
-0.07104376 0.031431235 0.0045638336 -0.31968966 0.63943362 -0.69923031 0.027006609
-0.06906534 0.031655975 0.0046933424 -0.36651602 0.72101861 -0.58804601 0.012729172
0.01616988 -0.023140162 0.009025041 -0.18564717 -0.88608599 -0.42471954 0.0029641646
0.019082446 -0.023424851 0.0089855865 -0.0090076467 -0.86467105 -0.50225776 0.001921987
0.022187604 -0.023186283 0.0089896303 0.13064583 -0.82231426 -0.55383301 0.0020484652
0.024112089 -0.022960501 0.0092743319 0.2591145 -0.77124739 -0.58140963 0.0013846736
0.010356018 -0.020771448 0.0078276061 -0.38784683 -0.88074648 -0.2717728 0.0048257993
0.013340689 -0.021903265 0.0078023765 -0.26503956 -0.89488727 -0.35906932 0.00420452
0.016309813 -0.022299591 0.0073241163 -0.11264851 -0.88604647 -0.44970208 0.0033314929
0.019233551 -0.022424489 0.0073619783 0.041800551 -0.84399575 -0.53471845 0.0018394358
0.022195313 -0.022141363 0.0075104851 0.16406776 -0.79800165 -0.57989234 0.0013550991
0.025299907 -0.02136072 0.0077694729 0.30385697 -0.73624909 -0.6046555 0.0017556307
0.027914334 -0.020588029 0.0083997902 0.42164508 -0.66296029 -0.61862677 0.00086265907
0.029846024 -0.020090939 0.0092368107 0.49064609 -0.63082153 -0.6011079 0.0025337602
0.0075211232 -0.019221535 0.0073224381 -0.38076371 -0.89401031 -0.23614536 0.0026004324
0.028430846 -0.019091414 0.0071755182 0.43099588 -0.637169 -0.63895082 0.0010766897
0.030737314 -0.018142439 0.0081919525 0.56438774 -0.53464437 -0.62898481 0.001914509
0.032722268 -0.017227279 0.0093623083 0.62322646 -0.5036447 -0.59827322 0.0017137085
0.031840242 -0.015687168 0.0073468108 0.67220592 -0.39276481 -0.62759453 0.0018301
0.033346768 -0.015200526 0.0087041333 0.71920627 -0.36847574 -0.58903992 0.0025506557
0.03254443 -0.01333659 0.0067005139 0.73311901 -0.27487022 -0.62207943 0.0013297802
0.033842865 -0.012324056 0.0080109946 0.75452387 -0.25710553 -0.60381323 0.0010499844
0.034566168 -0.0093420018 0.0078864619 0.82057619 -0.076414332 -0.56640577 0.0048122462
0.034454953 -0.0064795404 0.0078261457 0.85713869 0.1617 -0.48904648 0.0052663293
0.032561183 -0.0024054758 0.0069512604 0.83027726 0.35755965 -0.42754039 0.0027028576
0.033617638 -0.0035673138 0.0080418829 0.8330493 0.32715109 -0.44609535 0.0013251213
0.031760141 -0.00016023032 0.0076845102 0.80170596 0.47542739 -0.36226574 0.0013332097
0.032952268 -0.00097180298 0.0092286449 0.79836178 0.45509556 -0.39434317 0.0023588173
0.029116608 0.003627274 0.0076695569 0.72677457 0.62545574 -0.28390822 0.00076638535
0.030350283 0.0022667558 0.0081070289 0.7653113 0.54148871 -0.34797791 0.00089655869
0.026448477 0.0066557066 0.0082573872 0.66624886 0.7133162 -0.21746832 0.0010525808
0.027729951 0.005105739 0.007475663 0.71890062 0.6368317 -0.27861664 0.001206848
0.0227676 0.0095015951 0.0076907352 0.62724906 0.75316745 -0.19823563 0.00038880011
0.025064338 0.0076737637 0.007587947 0.66158819 0.71867943 -0.21401159 0.00090107985
-0.076080523 0.024386335 0.0079106577 -0.49460182 -0.71014082 -0.50106782 0.034636244
-0.07410299 0.02408801 0.007350713 -0.39165723 -0.78444594 -0.48088366 0.02011024
-0.071793616 0.023740282 0.0068306904 -0.39773732 -0.72468793 -0.56270099 0.005660661
-0.076740004 0.025697172 0.006873169 -0.60913295 -0.58794796 -0.53223509 0.050316516
-0.07529977 0.025145663 0.0064979773 -0.46242169 -0.5932464 -0.65895742 0.018311031
-0.077708855 0.028483806 0.0066834074 -0.61682528 -0.091095261 -0.78181088 0.034399774
-0.07593032 0.032067385 0.0069264304 -0.41927335 0.62971503 -0.65396386 0.06813664
-0.073720038 0.03270869 0.0076146405 -0.24562505 0.79263479 -0.5580309 0.021943359
-0.071544655 0.032292053 0.0067653935 -0.16582233 0.83222073 -0.52906668 0.012128752
0.013906322 -0.023314584 0.011150546 -0.40067449 -0.87701744 -0.26514223 0.003687432
0.016271526 -0.023993708 0.010853719 -0.25562307 -0.89547008 -0.36440364 0.0034555441
0.019151436 -0.024475969 0.010902181 -0.037003562 -0.87255037 -0.48712081 0.0010723536
0.022195054 -0.024331739 0.010753565 0.078732915 -0.84896433 -0.52255219 0.0014645552
0.0251555 -0.023892149 0.011035364 0.23597738 -0.79843396 -0.55391139 0.0017853242
0.027879115 -0.023360513 0.011679018 0.37095931 -0.7356683 -0.56672859 0.0014721422
0.0083597936 -0.020167293 0.011151819 -0.44794729 -0.87124395 -0.20069182 0.0016993599
0.010594392 -0.021592772 0.010806678 -0.45310405 -0.86799818 -0.20316459 0.0018622308
0.012421153 -0.022407686 0.01026698 -0.37692159 -0.89493662 -0.23878565 0.0034359919
0.026281204 -0.022498066 0.0096182954 0.30886906 -0.72468805 -0.61597669 0.0018507598
0.028452367 -0.022001285 0.01039719 0.38404119 -0.71057016 -0.58957821 0.00093183928
0.030947071 -0.02102631 0.011215262 0.50669485 -0.63210094 -0.58626688 0.0019455251
0.032910816 -0.02020845 0.012184439 0.61488056 -0.54343009 -0.57149422 0.0012112091
0.031815622 -0.019168707 0.010124618 0.58158761 -0.55342269 -0.59622079 0.0043127234
0.033604961 -0.018297717 0.011272097 0.63431013 -0.49569684 -0.59324145 0.0012440688
0.034541436 -0.015808074 0.010607928 0.75561589 -0.33334339 -0.56384993 0.00076955452
0.035917744 -0.01470322 0.011945723 0.76377225 -0.3266837 -0.55671334 0.000651462
0.035153724 -0.012602635 0.0099271666 0.78362507 -0.24601939 -0.57044381 0.00049388548
0.036388434 -0.012124624 0.011372786 0.79397905 -0.21229064 -0.56967533 0.0031480312
0.035599105 -0.010535749 0.0094737988 0.82821125 -0.046817064 -0.55845702 0.0060178279
0.036660913 -0.0093615428 0.010861084 0.86388451 0.016117226 -0.50343204 0.0067081377
0.035539474 -0.006235667 0.0099662412 0.85880262 0.18163829 -0.47902563 0.0037151044
0.036309741 -0.0065831984 0.011305118 0.86850268 0.21964738 -0.44436267 0.0045596608
0.034727853 -0.0032274472 0.010665849 0.84391427 0.39342937 -0.3647218 0.0011635425
0.035754047 -0.0045679449 0.011588318 0.84271508 0.37713885 -0.38418421 0.0018137103
0.032293633 0.00070745358 0.010115026 0.79367334 0.5236963 -0.30955589 0.0020566531
0.033412624 -0.00043761777 0.011071606 0.80610132 0.48649415 -0.3369334 0.0013327523
0.031168062 0.0025511305 0.010826381 0.74982464 0.60004002 -0.27877396 0.0010621742
0.028417885 0.0054011885 0.01053388 0.6926772 0.68629408 -0.22180788 0.001075916
0.030019671 0.0043292777 0.012114344 0.72189057 0.65384722 -0.22662261 0.00088413479
0.025872272 0.0076696263 0.010951085 0.65998286 0.72178358 -0.20844953 0.00061057264
-0.07458894 0.023483632 0.010589479 -0.39158103 -0.78448999 -0.48087394 0.020099619
-0.073499084 0.033490345 0.0098297875 -0.22648437 0.78700721 -0.57386792 0.018558798
0.017609993 -0.026139157 0.01515591 -0.29509825 -0.8966167 -0.33014458 0.0079428265
0.019474059 -0.026297212 0.014480712 -0.1664879 -0.89796174 -0.40736523 0.0023871511
0.022167061 -0.026326042 0.014114119 -0.0049183834 -0.88401604 -0.46743065 0.002137335
0.024979319 -0.026328521 0.014573758 0.15228063 -0.83836621 -0.52340484 0.0018395047
0.027048722 -0.02613298 0.015038548 0.28279355 -0.7849499 -0.55125451 0.001469744
0.013225848 -0.023762681 0.014074204 -0.4294115 -0.87086326 -0.23917149 0.0019985398
0.016230632 -0.025143435 0.013882775 -0.34677002 -0.89118606 -0.29246882 0.0029389493
0.019225936 -0.025541911 0.01297288 -0.11121862 -0.88950676 -0.44317958 0.0022805817
0.02210753 -0.025528472 0.012713123 0.049303446 -0.86163145 -0.50513411 0.0019297473
0.025211751 -0.02535777 0.013138602 0.1923959 -0.81178492 -0.55135202 0.0013760148
0.028221611 -0.024691025 0.013677496 0.30969235 -0.77018762 -0.5575856 0.00090213463
0.030923113 -0.023861483 0.014425991 0.45556659 -0.67688364 -0.57817608 0.00088559079
0.010564767 -0.021963479 0.013797326 -0.4795506 -0.85809016 -0.18360952 0.00067348866
0.011752151 -0.022642331 0.012805639 -0.44386446 -0.86616433 -0.22966021 0.0020945116
0.031817891 -0.022221219 0.013264686 0.47843501 -0.65963477 -0.57963955 0.001082349
0.033888176 -0.021132788 0.014145421 0.59856188 -0.5648303 -0.56805837 0.0019956895
0.034953769 -0.018946497 0.013359975 0.70519125 -0.43331292 -0.56119978 0.0014358392
0.036296405 -0.018289227 0.014585905 0.73801965 -0.39406484 -0.54775906 0.0019022402
0.037018642 -0.015409051 0.013997886 0.77252936 -0.32463431 -0.54572052 0.0004892968
0.037786033 -0.012537334 0.013366822 0.81056374 -0.21169798 -0.54604983 0.0046852073
0.038880937 -0.012324208 0.014646066 0.84485137 -0.14750327 -0.5142653 0.0097348839
0.038068715 -0.0094028506 0.013534583 0.87870961 0.11305227 -0.4637765 0.0074295267
0.038907714 -0.01015231 0.014981855 0.89075273 0.16992348 -0.4215278 0.004637504
0.037477873 -0.0065803682 0.013917137 0.88051403 0.28481886 -0.37891063 0.0012944608
0.035388809 -0.0024058088 0.013184903 0.82321244 0.48309109 -0.29823533 0.00071222824
0.036300261 -0.0038055792 0.013767688 0.85201913 0.41135138 -0.32381088 0.0012340286
0.034509636 -0.00059462897 0.013823397 0.79793513 0.53086805 -0.28544471 0.0013743006
0.031823926 0.0029088245 0.013991768 0.73743111 0.63425273 -0.23220442 0.0015977495
0.033001836 0.0014551715 0.013546852 0.7492854 0.62105232 -0.22992486 0.0012219914
0.028863214 0.0055464194 0.012919066 0.68581432 0.70042467 -0.1976463 0.00058134482
0.016938414 -0.026477626 0.016955886 -0.40595055 -0.88070446 -0.24405712 0.0039758999
0.019337447 -0.027349669 0.017017189 -0.23750108 -0.90429139 -0.35475394 0.0041010976
0.022275576 -0.027677789 0.016668988 -0.033472814 -0.88806963 -0.45848867 0.0011060981
0.025262471 -0.027634244 0.016804887 0.094466873 -0.86429048 -0.49404252 0.0015435249
0.028099794 -0.027051238 0.01692351 0.26019594 -0.80682474 -0.53040731 0.0018379027
0.030645546 -0.026562598 0.017636614 0.39180645 -0.7401917 -0.54644674 0.0013045494
0.013770171 -0.024598079 0.016647307 -0.45519409 -0.86447692 -0.21325584 0.00088131579
0.015234988 -0.025582841 0.016896196 -0.43555909 -0.87343842 -0.21770069 0.0014941815
0.029257577 -0.025675328 0.015552429 0.29034263 -0.783768 -0.54900718 0.0016496484
0.031401873 -0.025173236 0.016399985 0.41202289 -0.71685553 -0.5624547 0.00080538547
0.033780493 -0.024186512 0.017217817 0.52622771 -0.6249209 -0.57667863 0.0018286747
0.035754427 -0.023376362 0.018248944 0.63294131 -0.56465214 -0.52967286 0.0022760197
0.034850594 -0.022080846 0.016067803 0.61868095 -0.53829318 -0.57225376 0.00087728881
0.036668543 -0.021255929 0.017419349 0.66655672 -0.48877689 -0.56284922 0.0013442861
0.037720967 -0.018422976 0.01671339 0.76826113 -0.35342664 -0.53372681 0.00053944549
0.039164443 -0.017034905 0.018201349 0.75576067 -0.35926285 -0.54749972 0.00091657467
0.038342893 -0.01569804 0.016268941 0.77488148 -0.32080635 -0.54464847 0.00083106599
0.039694685 -0.014945535 0.017306777 0.78308702 -0.30100286 -0.54421693 0.0042329412
0.040017035 -0.012368761 0.016693471 0.88295662 -0.068261482 -0.46446529 0.011892909
0.039581757 -0.0094368476 0.016861822 0.89519197 0.22714129 -0.38345549 0.001672886
0.038376167 -0.0062103164 0.016436605 0.88188952 0.33915371 -0.32748365 0.0016352134
0.039123341 -0.0069836308 0.017686311 0.87798101 0.34378865 -0.33310476 0.0016838119
0.037343826 -0.0037667523 0.016695352 0.85101128 0.44364843 -0.28099078 0.0014444574
0.034964807 2.4743378e-05 0.01673753 0.79571581 0.56945157 -0.20630382 0.0014400588
0.036179919 -0.0014315112 0.017401507 0.8058393 0.54135978 -0.23990142 0.0010714658
0.033399593 0.0017176331 0.0158682 0.75263172 0.62648308 -0.20264348 0.0012090614
0.030719999 0.0043831454 0.015684007 0.71478385 0.67843199 -0.16974702 0.00032539261
0.022354856 -0.029468648 0.020458752 -0.20209579 -0.90321523 -0.37862849 0.0043593324
0.025240563 -0.029617667 0.020357087 0.011315583 -0.88980681 -0.45619717 0.0023607765
0.028091297 -0.029542878 0.02079035 0.172833 -0.8439129 -0.50787771 0.0017190456
0.01653355 -0.026990078 0.019680088 -0.45905358 -0.85802662 -0.23034793 0.0018672108
0.019081458 -0.02829409 0.019816594 -0.32933325 -0.89462793 -0.30196086 0.0055516125
0.022130555 -0.028785381 0.019012824 -0.13247508 -0.90738451 -0.39887795 0.00448746
0.02529645 -0.028773036 0.018800668 0.063474581 -0.86896044 -0.49079397 0.0020049266
0.028456599 -0.028516192 0.019282002 0.22460103 -0.82509953 -0.51842558 0.001203782
0.031263456 -0.027832564 0.0198243 0.35872048 -0.75968939 -0.54239434 0.0017530206
0.033808887 -0.026835417 0.02038102 0.48572028 -0.67885309 -0.55066705 0.0010971559
0.035977259 -0.025974439 0.021335362 0.56464088 -0.63995349 -0.52119118 0.0021665525
0.014313869 -0.025363298 0.018963037 -0.45825344 -0.86357754 -0.21032722 0.0009462887
0.014834052 -0.025915207 0.02018982 -0.45937037 -0.85965747 -0.22353506 0.0017876382
0.034562569 -0.025335917 0.019222636 0.49139157 -0.66925955 -0.55733836 0.0010691686
0.036829945 -0.024106171 0.020247273 0.62260169 -0.55689323 -0.549761 0.0024500522
0.037742972 -0.021843048 0.019229205 0.72092032 -0.43217301 -0.54175687 0.0010603609
0.039185435 -0.020949516 0.020510366 0.75454152 -0.38808304 -0.52920556 0.001640367
0.039810415 -0.018286748 0.019844197 0.75892287 -0.37143931 -0.53485405 0.001177237
0.040718988 -0.015830353 0.019304413 0.80053818 -0.26818568 -0.53592455 0.0071486998
0.042026356 -0.015284393 0.020558558 0.84599686 -0.20026356 -0.49414957 0.012290729
0.041194223 -0.01242248 0.019144066 0.90113771 0.077539973 -0.42654237 0.0092320647
0.041879587 -0.012630651 0.020630784 0.90772116 0.12628098 -0.40011916 0.0073933965
0.040807635 -0.0095239691 0.019833485 0.89812261 0.26143891 -0.3535893 0.0012122266
0.039731357 -0.0065383571 0.01985156 0.87454921 0.37904593 -0.30246964 0.001186252
0.037897449 -0.0031883586 0.019478861 0.83801347 0.48700735 -0.24608411 0.0013286805
0.038801536 -0.0046075522 0.019786952 0.84470314 0.4633497 -0.26792476 0.00098386093
0.03517836 0.0007795007 0.020450441 0.78533679 0.58451092 -0.20394395 0.00122132
0.03662765 -0.0010587103 0.020168779 0.78888023 0.57790518 -0.20902996 0.001572116
0.033930406 0.0020014183 0.020114718 0.75599968 0.62965918 -0.1788678 0.0006803291
0.019502413 -0.029422726 0.022909442 -0.41558492 -0.86267 -0.28825274 0.0044367742
0.022170113 -0.030447032 0.022864738 -0.26730794 -0.89799094 -0.34951225 0.0048499787
0.025127623 -0.030921243 0.022895327 -0.042954113 -0.9062354 -0.42058572 0.0033303797
0.028052393 -0.030777425 0.022925554 0.10061136 -0.87714648 -0.46956512 0.0022615318
0.031136785 -0.029924732 0.022854185 0.30174735 -0.80293328 -0.51404941 0.0012427563
0.033602171 -0.029333569 0.023584733 0.43102551 -0.74862677 -0.50376087 0.0013244251
0.01624346 -0.027257618 0.022351636 -0.51041871 -0.83873087 -0.1897454 0.00035111845
0.018573342 -0.028722655 0.022168515 -0.39367482 -0.88024056 -0.26494685 0.0046728817
0.032546327 -0.028434966 0.021430669 0.3694472 -0.73237985 -0.57195157 0.002329156
0.034671582 -0.027846009 0.022419585 0.45066565 -0.72296125 -0.5236674 0.0010666745
0.036738314 -0.02689469 0.023225157 0.54120368 -0.6544131 -0.52805501 0.00087307527
0.038065985 -0.024841966 0.022424927 0.67268914 -0.52492261 -0.52148396 0.0012953465
0.039532799 -0.023817761 0.023330273 0.70297921 -0.48797697 -0.51739609 0.0012744835
0.040555056 -0.021415649 0.022946576 0.76158988 -0.40061933 -0.50939667 0.0014486408
0.041156754 -0.018737672 0.022420093 0.76931 -0.3726069 -0.51896644 0.0010974339
0.042640075 -0.017729256 0.023144411 0.80139905 -0.33275059 -0.49702772 0.0056790467
0.043180119 -0.015557244 0.022923881 0.89097065 -0.11447417 -0.43939394 0.014312418
0.042736564 -0.012504335 0.022837261 0.91715461 0.19647062 -0.34673735 0.0013441219
0.041452356 -0.0088008102 0.022215135 0.90204501 0.31905851 -0.29071701 0.0015895354
0.042164255 -0.010010744 0.023141796 0.90241504 0.2891441 -0.31944141 0.0010880297
0.040758558 -0.0067769573 0.022746911 0.87329853 0.41810295 -0.25007927 0.0018591405
0.038244832 -0.0026520132 0.022084652 0.822218 0.5243898 -0.22129819 0.0014045082
0.039429165 -0.004277213 0.022753248 0.85072511 0.47697747 -0.22081478 0.0012409954
0.037314922 -0.0011755503 0.022789782 0.78707427 0.58693248 -0.18980066 0.00091101183
0.023206014 -0.032223318 0.026852263 -0.37647706 -0.8871088 -0.26702634 0.003371567
0.025274597 -0.032406215 0.026187235 -0.10925075 -0.92190391 -0.37169534 0.0041748006
0.028133348 -0.032420944 0.026067341 0.049044926 -0.90405279 -0.42459771 0.0019944033
0.030689295 -0.032357909 0.026736038 0.24640036 -0.85700059 -0.45258918 0.001600374
0.019442705 -0.030092075 0.0258456 -0.42894277 -0.87153268 -0.23756908 0.0029206066
0.021974256 -0.031337306 0.025601408 -0.37340096 -0.89019191 -0.26101747 0.0033750976
0.024095591 -0.031581376 0.024572087 -0.13327384 -0.92382419 -0.3588689 0.0062551359
0.029044092 -0.031585168 0.024631707 0.1071815 -0.87909448 -0.46444046 0.0018719903
0.031355459 -0.031357139 0.025289906 0.27083701 -0.83285874 -0.48269406 0.0010808895
0.034107246 -0.03053024 0.025850756 0.4003759 -0.77345091 -0.49139881 0.0015686549
0.036403254 -0.02952408 0.026370713 0.50969231 -0.70366931 -0.49503872 0.00088100805
0.017192721 -0.028403852 0.025216265 -0.46561411 -0.86081731 -0.205419 0.0010875298
0.037545454 -0.027954929 0.025407409 0.54929668 -0.66970474 -0.49976864 0.001473695
0.039293151 -0.026713692 0.026030121 0.65723097 -0.57072747 -0.4922578 0.0018889476
0.040536541 -0.02474381 0.025688102 0.74960077 -0.458736 -0.47713727 0.0013249331
0.041820548 -0.023514943 0.02659571 0.78632891 -0.4148277 -0.45782626 0.0016887318
0.041415941 -0.021945307 0.024725286 0.79209429 -0.38742626 -0.4716858 0.0019460246
0.04231479 -0.021527411 0.02611384 0.78629142 -0.4171004 -0.45582131 0.0012949347
0.043472301 -0.018982032 0.025603427 0.80016863 -0.34556919 -0.49021628 0.0070925686
0.044799399 -0.01805106 0.026582008 0.8582738 -0.26796988 -0.43767354 0.015072
0.044195164 -0.015532486 0.025379388 0.92618394 0.017297212 -0.3766751 0.0092682736
0.04482374 -0.016071839 0.026850907 0.92239338 0.028237946 -0.38521817 0.010024912
0.043845374 -0.012671255 0.02589958 0.92528552 0.22723198 -0.3036648 0.0010960969
0.042894166 -0.0096319336 0.025879553 0.90127617 0.34565315 -0.2611995 0.0010439861
0.041079514 -0.0058752713 0.025640437 0.86454964 0.45726418 -0.20847893 0.0010228612
0.041921467 -0.0073642791 0.02582827 0.86595613 0.44183251 -0.23431607 0.001173935
0.039524976 -0.003397496 0.025830103 0.83589721 0.5160405 -0.18702443 0.00033005085
0.022703649 -0.032734994 0.029243873 -0.4360784 -0.87412673 -0.21386448 0.0021218711
0.025361571 -0.033492539 0.028928602 -0.21024077 -0.92288107 -0.32262886 0.0050855256
0.028270453 -0.033583097 0.028589958 0.043598287 -0.91141587 -0.40917021 0.0010564902
0.031365156 -0.033288207 0.028899888 0.21964091 -0.87618917 -0.42901087 0.0017264498
0.033958741 -0.032635182 0.029354637 0.37205875 -0.81843078 -0.43788499 0.0013936545
0.019417839 -0.03059281 0.02863547 -0.49266678 -0.84442025 -0.21031868 0.00063999812
0.021283403 -0.031832185 0.028516723 -0.43434545 -0.8753227 -0.21249524 0.0021515319
0.034901995 -0.031652506 0.028302426 0.38494542 -0.80408072 -0.45306876 0.0012045254
0.037192307 -0.030530702 0.028813118 0.51279974 -0.72634733 -0.45766354 0.0020242995
0.039476927 -0.029422473 0.02996069 0.64561307 -0.65954292 -0.3849504 0.0022997947
0.038416766 -0.028784458 0.027549682 0.62864363 -0.63366336 -0.45086372 0.0013023301
0.040260881 -0.027643133 0.02863119 0.71112615 -0.54959345 -0.43845937 0.00091285107
0.04212442 -0.026433529 0.030211 0.75308341 -0.5244987 -0.39719835 0.0022626398
0.041439321 -0.025571408 0.027987106 0.73167199 -0.4928861 -0.47087082 0.0026393237
