# .PCD v0.7 - Point Cloud Data file format
VERSION 0.7
FIELDS x y z normal_x normal_y normal_z curvature
SIZE 4 4 4 4 4 4 4
TYPE F F F F F F F
COUNT 1 1 1 1 1 1 1
WIDTH 555
HEIGHT 1
VIEWPOINT 0 0 0 1 0 0 0
POINTS 555
DATA ascii
0.030595312 -0.0058486322 -0.0070317788 -0.087125883 0.7693482 -0.63286054 0.0015547849
0.03374603 -0.005674345 -0.0069968477 0.020367572 0.82880229 -0.55917078 0.0017043811
0.03691962 -0.0058527449 -0.0066956701 0.17937824 0.86793178 -0.46316078 0.0043902076
0.039591983 -0.0064971866 -0.0064910604 0.31366169 0.87216872 -0.37541705 0.0031035556
0.041981269 -0.0074746176 -0.0062280754 0.42259237 0.84741837 -0.32139984 0.0019433417
0.025463942 -0.0049962909 -0.0050137201 -0.21407472 0.67578435 -0.70532799 0.0018023188
0.027895395 -0.0047767865 -0.0053194994 -0.12169938 0.74003375 -0.66146743 0.0020653249
0.030806685 -0.0047551785 -0.0056670345 -0.030175949 0.79741257 -0.60267949 0.0022600659
0.033743825 -0.0047736792 -0.0056152665 0.081913583 0.84325337 -0.53123802 0.0023491504
0.036226127 -0.0049006864 -0.0051883915 0.2294765 0.8702482 -0.43589973 0.0026634666
-0.065162621 0.030595934 -0.0052456469 0.35643202 -0.85121274 -0.38521823 0.010931359
-0.067114197 0.030992297 -0.0062419036 0.46404117 -0.7575106 -0.4591769 0.031904869
-0.06480474 0.031156052 -0.0069072945 0.46403188 -0.75750071 -0.45920259 0.031933554
-0.062517449 0.032555256 -0.0061611002 0.79178667 -0.39165813 -0.46869794 0.038079999
-0.06248698 0.035361841 -0.0062682014 0.87124044 0.24644144 -0.42450768 0.014270036
-0.064370014 0.037911925 -0.0063644117 0.79926735 0.3813118 -0.46451375 0.0071030962
-0.063403405 0.037199035 -0.0060568312 0.84570193 0.28753382 -0.44956931 0.013534527
0.027837448 -0.038305286 -0.0045218924 -0.67987496 -0.71058095 -0.18123148 0.00049723219
0.024973871 -0.03602631 -0.0037025432 -0.70650238 -0.67715645 -0.20570254 0.0013978089
0.022273436 -0.033245012 -0.0032074042 -0.74269825 -0.61557186 -0.26357263 0.0020734763
0.023673492 -0.034796238 -0.0034158491 -0.73583746 -0.63756233 -0.22816098 0.00076542469
0.019620774 -0.029815465 -0.0028979988 -0.78329879 -0.51787269 -0.3438763 0.0019741296
0.020749003 -0.031005057 -0.0036199372 -0.78464544 -0.52736336 -0.3259131 0.0024712731
0.017141497 -0.026255028 -0.0020675522 -0.79415226 -0.42799771 -0.43143958 0.00041941449
0.018584941 -0.027562719 -0.0034452472 -0.79935658 -0.43188056 -0.41774189 0.00045419048
0.01667106 -0.024261219 -0.0028779847 -0.79657382 -0.34564805 -0.4959814 0.0019826507
0.017686684 -0.024720686 -0.0042048455 -0.80267465 -0.30085793 -0.5149737 0.0011198211
0.015866587 -0.021526188 -0.0032430575 -0.78509271 -0.25543958 -0.56425172 0.0018376246
0.013840005 -0.017764978 -0.0020515383 -0.74303842 -0.19949083 -0.638825 0.0016463249
0.015290621 -0.018561486 -0.003513718 -0.74088448 -0.12682921 -0.65954876 0.0011010432
0.013618905 -0.01552733 -0.0022728089 -0.69580704 -0.084082223 -0.71329004 0.0024994791
0.015195181 -0.015580265 -0.0038185408 -0.69221282 -0.022403507 -0.7213456 0.0016152916
0.013472313 -0.012569364 -0.0022812523 -0.62849903 0.037627134 -0.77689976 0.0028328246
0.015383792 -0.01242123 -0.0037963334 -0.63611305 0.084818594 -0.76691985 0.0015554777
0.01368159 -0.0097444821 -0.0020895693 -0.53812766 0.18832225 -0.82155544 0.0032116619
0.015681349 -0.0094821677 -0.0033369353 -0.50622058 0.25792152 -0.82293206 0.0028770454
0.017946666 -0.0088830702 -0.0044624237 -0.50634027 0.30879793 -0.80514807 0.0021241943
0.016005052 -0.0068931817 -0.0025085958 -0.42014781 0.37590846 -0.82593513 0.0029274619
0.018691134 -0.0066211396 -0.0036874786 -0.40329576 0.43221879 -0.80656028 0.0015792736
0.021305649 -0.0059416732 -0.0043571135 -0.2757782 0.57765001 -0.76828825 0.0016995555
0.040081453 -0.0057897931 -0.003987845 0.38461131 0.88043594 -0.27732056 0.0051740967
0.041760027 -0.0066562085 -0.0036158275 0.46575725 0.84535044 -0.26163495 0.002567888
0.016908182 -0.0050287857 -0.0019978595 -0.3676627 0.45968798 -0.80840033 0.001030025
0.018992033 -0.0043732729 -0.002391451 -0.29461217 0.53694999 -0.79049879 0.001978846
0.021837747 -0.0039308155 -0.0029854851 -0.22958654 0.6093204 -0.75895894 0.0014505479
0.024762517 -0.0034725736 -0.0032914032 -0.17461894 0.68040395 -0.71172935 0.0016354466
0.027683228 -0.0032043094 -0.0034602324 -0.038852185 0.79150534 -0.6099261 0.0023128211
0.030695947 -0.00316033 -0.0034529392 0.038084023 0.83267051 -0.55245769 0.0025427532
0.033684619 -0.0034675184 -0.003409687 0.12308895 0.85859454 -0.49765906 0.0013891443
0.036650736 -0.0041831662 -0.0033777358 0.29251418 0.87686574 -0.38149947 0.0028185318
0.038774509 -0.0047842539 -0.0028197926 0.40646738 0.86301875 -0.29997137 0.0051415134
-0.064955547 0.030076366 -0.0029868511 0.26473242 -0.87548137 -0.40428844 0.012102056
-0.062426653 0.030326556 -0.0031055263 0.29090914 -0.82884085 -0.4779065 0.020261331
-0.060533259 0.030664537 -0.0020693601 0.46568546 -0.51409185 -0.72031009 0.037533551
-0.061272003 0.03201548 -0.0041410318 0.64432806 -0.30244413 -0.70240223 0.032125879
-0.059922248 0.032474503 -0.0027255253 0.77154166 -0.17817356 -0.61071903 0.022682527
-0.061267056 0.035789445 -0.0039865137 0.77477688 0.19963419 -0.59988904 0.015798844
-0.060013212 0.035087418 -0.002697685 0.71163094 0.32078299 -0.62504375 0.026313234
-0.062512286 0.037709326 -0.0033278104 0.67297953 0.58461607 -0.45312551 0.0056537674
-0.060683418 0.03694975 -0.0021200639 0.76383358 0.41158706 -0.49714625 0.021225287
0.024244945 -0.035730917 -0.0015518528 -0.70296872 -0.67932504 -0.21060002 0.00097716984
0.020090107 -0.032108951 0.00061108056 -0.76016819 -0.60492331 -0.23709108 0.0012666112
0.021411233 -0.033274278 -0.00013337296 -0.74226576 -0.63099462 -0.22558232 0.0014199108
0.018998321 -0.030348135 -0.00035349291 -0.77131653 -0.56342351 -0.29601485 0.0013456198
0.020489689 -0.031989295 -0.0010464054 -0.76016939 -0.604922 -0.23709042 0.0012657333
0.016698414 -0.027116362 -0.00019531313 -0.7837767 -0.50017476 -0.36812934 0.0021430927
0.017745215 -0.028388176 -0.000681923 -0.78689229 -0.52510595 -0.32413614 0.0011111605
0.013928321 -0.023342827 0.00087553146 -0.77574933 -0.4460867 -0.44634023 0.0014043414
0.015395946 -0.024718925 -0.00038599817 -0.78974879 -0.44082236 -0.42658225 0.001330357
0.013377437 -0.021195319 9.0725371e-05 -0.76533043 -0.34429872 -0.54380852 0.002323956
0.01459793 -0.022099081 -0.0011385786 -0.77776241 -0.29746065 -0.55371726 0.0013188818
0.011082251 -0.017411979 0.001011445 -0.73132527 -0.3164784 -0.60415614 0.0013895034
0.012667061 -0.018549545 -0.00038215006 -0.74172097 -0.2499035 -0.62241316 0.00099700806
0.010708774 -0.01531749 0.00066752383 -0.71372783 -0.20724919 -0.66905922 0.0022142448
0.012267076 -0.015731471 -0.00085633574 -0.70711857 -0.14019036 -0.69305837 0.0015358614
0.010372966 -0.012442674 0.00035813684 -0.66119385 -0.098626986 -0.74370384 0.0031022339
0.012127855 -0.012601895 -0.0011249571 -0.64019006 -0.0311938 -0.76758301 0.0023648688
0.010118358 -0.0095611829 0.00040372484 -0.57074279 0.031387217 -0.82052886 0.0027769248
0.012344139 -0.0094501991 -0.0011271939 -0.55226862 0.12565577 -0.82414192 0.0045268498
0.010228986 -0.0067972173 0.00063061318 -0.48146534 0.17711353 -0.8583833 0.0033711144
0.012696295 -0.0066980836 -0.00072714721 -0.45210999 0.26326033 -0.85222679 0.0042775418
0.014800451 -0.0059784339 -0.0015223277 -0.44322684 0.31658322 -0.83864474 0.0022141426
0.041341715 -0.0059914156 -0.00052480516 0.45634076 0.85925657 -0.23115203 0.0014564258
0.010710915 -0.0045325826 0.00093356497 -0.37091169 0.30486953 -0.87719959 0.002264848
0.012805651 -0.0037277914 0.00036368682 -0.3720932 0.36157495 -0.85487437 0.0024151341
0.015723292 -0.0035619512 -0.00067931495 -0.27863362 0.49537763 -0.8227784 0.0020904953
0.018615786 -0.0028540171 -0.0011693656 -0.22201879 0.59162277 -0.77504206 0.0015706421
0.021413736 -0.0023182798 -0.0014976722 -0.16255611 0.66727573 -0.72685528 0.0018295972
0.023288634 -0.0021990405 -0.0017795425 -0.1354474 0.71368802 -0.68724328 0.001469231
0.031784851 -0.0021989958 -0.0017818373 0.12997361 0.86037999 -0.4928014 0.0046491246
0.034015022 -0.002344029 -0.001017977 0.26801014 0.88334012 -0.38455263 0.0057933102
0.03667327 -0.0030572717 -0.00030288217 0.34946939 0.88182956 -0.31661931 0.0019502739
0.039252002 -0.0045668893 -0.0009597601 0.41049585 0.86966699 -0.27417612 0.0032687779
0.013696211 -0.0017361732 0.00105667 -0.30231541 0.46542922 -0.83185405 0.0016782284
0.01598729 -0.0012600739 0.00069141877 -0.2246937 0.55131209 -0.80347228 0.002001029
0.018907702 -0.00086918252 0.00030696392 -0.16557351 0.63026708 -0.7585175 0.0023513248
0.021717554 -0.00078376837 -8.6217304e-05 -0.095988452 0.70442593 -0.70325691 0.0022351411
0.024737952 -0.00081111828 -0.00041053083 -0.0030082169 0.75867826 -0.65145856 0.0018957789
0.027739404 -0.00081581029 -0.00033893832 0.10158046 0.83680272 -0.5379988 0.0019414914
0.030611867 -0.001162648 -0.00029707071 0.20072773 0.86226338 -0.46498427 0.0017006877
0.033165671 -0.0015552079 0.00013032067 0.33348289 0.87295669 -0.35599968 0.0027377589
-0.0645018 0.029294834 -0.00022402522 0.080550596 -0.92670673 -0.36705074 0.010196252
-0.062095374 0.029157804 -0.00041016133 0.044055182 -0.89754689 -0.43871257 0.011002933
-0.059210345 0.029655229 -0.00013513071 0.27728468 -0.63380939 -0.72207952 0.029987469
-0.056596018 0.030023869 0.00072993222 0.37792698 -0.33767587 -0.8620593 0.019972462
-0.058471452 0.032395314 -0.0012069461 0.67921114 -0.10152282 -0.72688746 0.020008735
-0.056310806 0.032384761 0.00031884084 0.4745262 -0.055465776 -0.87849212 0.017475337
-0.058639113 0.03559795 -0.00085337448 0.61611116 0.36305264 -0.69899905 0.028762415
-0.056833625 0.03519278 0.00045955693 0.46725935 0.4153586 -0.780478 0.017501896
-0.061590407 0.038243201 -0.00052390783 0.62879604 0.61920929 -0.47031415 0.0059699891
-0.059348255 0.037529532 0.00010177284 0.54443818 0.61262357 -0.57295662 0.0074767647
0.019975774 -0.032551099 0.003425299 -0.74828905 -0.62572843 -0.22028971 0.0011920766
0.016879076 -0.029460775 0.0036447782 -0.72562033 -0.63589895 -0.26288337 0.0013169107
0.018163832 -0.030502843 0.0025721726 -0.7468062 -0.62776023 -0.21953924 0.0012305995
0.014028236 -0.026147278 0.0041870018 -0.75380117 -0.55154437 -0.35718703 0.0011512431
0.015697591 -0.027487991 0.0026468534 -0.76244652 -0.57002407 -0.30618256 0.0021921964
0.013300817 -0.024130419 0.0028208874 -0.77207059 -0.47297838 -0.42449784 0.0013717071
0.014672729 -0.02553759 0.0018877226 -0.76956391 -0.5324682 -0.3524898 0.0014098824
0.010981131 -0.020930856 0.0034657952 -0.75873005 -0.45531046 -0.46585527 0.0011346947
0.012148522 -0.021664765 0.0022711486 -0.76653624 -0.39796308 -0.50403148 0.0012853367
0.010205609 -0.018544091 0.0027635659 -0.7429015 -0.33967102 -0.57681972 0.0010823146
0.011570848 -0.019573556 0.0015588987 -0.77485597 -0.34747419 -0.52807188 0.0018262763
0.0076413043 -0.01472887 0.0037111926 -0.69861573 -0.33423162 -0.63263357 0.0017349563
0.0092367809 -0.015675314 0.0023927095 -0.70722461 -0.25880638 -0.65791547 0.0014818759
0.0072812801 -0.012355424 0.0031359324 -0.66782892 -0.23024817 -0.70780677 0.0027476482
0.0089954706 -0.012639055 0.0016138046 -0.66354656 -0.16276398 -0.73021495 0.0018627725
0.0049370378 -0.0086826254 0.0041212132 -0.5942018 -0.20015073 -0.77901471 0.0026322275
0.0068658181 -0.0095832087 0.002826568 -0.59802866 -0.12143401 -0.7922219 0.003717429
0.0087149944 -0.0095831398 0.0014419991 -0.59664792 -0.042722065 -0.80136508 0.0023455503
0.0047359699 -0.0063281571 0.0039394535 -0.53269368 -0.057756376 -0.84433502 0.0033451924
0.0067784553 -0.0065704733 0.002684044 -0.53064442 0.00057904556 -0.84759426 0.0011041975
0.0088733658 -0.0064922222 0.0014375222 -0.51197803 0.093228981 -0.85392439 0.0028965315
0.0047180606 -0.003527863 0.003960805 -0.44447246 0.10201859 -0.88996422 0.0044769305
0.0068555893 -0.003517271 0.0029660703 -0.39645994 0.17712034 -0.9008041 0.0042977338
0.009644636 -0.0033616563 0.0017879356 -0.3394058 0.2947396 -0.89327055 0.0027622092
0.011724127 -0.0023709603 0.001350357 -0.28212416 0.43926975 -0.85290563 0.0024362931
0.037056476 -0.0026912778 0.0020520675 0.3827467 0.88093263 -0.27832121 0.00041147755
0.0049367528 -0.0017460005 0.0040918728 -0.32773611 0.24179104 -0.91330504 0.0032859726
0.0067809252 -0.00072484859 0.0037230311 -0.28480908 0.28385407 -0.91559303 0.0026251595
0.0096947877 -0.00054877321 0.00287877 -0.27002299 0.397515 -0.876966 0.0037092895
0.012717139 -0.00047823368 0.0020518773 -0.19670969 0.50609189 -0.83974773 0.0018707117
0.015458616 9.0093992e-05 0.0017916195 -0.14891127 0.6059705 -0.78142506 0.0017219371
0.018444959 0.00046739911 0.0015431156 -0.098360829 0.66150749 -0.74346006 0.0016294596
0.021787528 0.00063989894 0.0013702649 -0.036834568 0.73074275 -0.68165845 0.0014741494
0.024641158 0.00063992874 0.0013884443 0.039827682 0.77961254 -0.62499446 0.0022024415
0.028020715 0.00053513877 0.0017902956 0.12726264 0.84978521 -0.51153624 0.0021070912
0.030894691 0.00016612728 0.0024504161 0.2946054 0.88508785 -0.36031538 0.0020128069
0.033693686 -0.00092986983 0.0022826183 0.34753516 0.88025278 -0.32307026 0.002182751
0.035708837 -0.0017426254 0.0030580598 0.38588771 0.87660873 -0.28748539 0.00043380936
0.0078071831 0.0011241569 0.0041129729 -0.24574018 0.35060656 -0.90370721 0.0024627789
0.0099681159 0.0015171594 0.0038474549 -0.18828069 0.49175954 -0.85013121 0.0022042324
0.012813529 0.0018393146 0.0035204266 -0.14267245 0.56702393 -0.81125116 0.00205932
0.015712868 0.0020442884 0.0032727967 -0.092512205 0.64139873 -0.76160955 0.0024269468
0.018767422 0.0020764268 0.0030827208 -0.010726745 0.72337735 -0.69036967 0.0011582455
0.021785794 0.0019284158 0.0028664677 0.033134859 0.77219588 -0.63451993 0.0026391363
0.024620555 0.0017343304 0.0028900302 0.11656678 0.82409912 -0.55432194 0.0027094339
0.027469574 0.001462706 0.003227669 0.20219155 0.85745412 -0.47317117 0.002972736
0.029538421 0.0011224581 0.0035804051 0.29910386 0.85619462 -0.42126912 0.0037857266
-0.063867882 0.027877731 0.0035592455 -0.26845726 -0.89124978 -0.36551943 0.0057891048
-0.061838053 0.027359931 0.002928552 -0.27705154 -0.86741191 -0.41332683 0.01245168
-0.059163451 0.026945056 0.0028390342 -0.087443948 -0.76450008 -0.63866508 0.013321929
-0.056243293 0.026520595 0.0030641889 0.058673751 -0.62318385 -0.77987128 0.010119901
-0.053215455 0.026481934 0.0031668444 0.044481501 -0.49483955 -0.86784518 0.012546736
-0.050240189 0.026437953 0.003463832 0.10201605 -0.35083544 -0.93086368 0.0093281716
-0.04741792 0.026752234 0.0038685699 0.20791036 -0.20351897 -0.95674103 0.0099170189
-0.064284228 0.028575538 0.0020569502 -0.15171386 -0.93012816 -0.33443159 0.0084805889
-0.062385503 0.028224891 0.001538936 -0.088983245 -0.86877853 -0.48714057 0.010315726
-0.05926729 0.028212445 0.0013466743 0.082923293 -0.76451129 -0.63925451 0.01353433
-0.055940054 0.028825836 0.0015449254 0.23639935 -0.40378302 -0.88378423 0.021246063
-0.053171154 0.029447228 0.0020387061 0.27209574 -0.24665846 -0.93012017 0.013725277
-0.050168842 0.02950169 0.0028440661 0.25072691 -0.094729818 -0.96341175 0.0060805045
-0.047230791 0.029510835 0.0036879384 0.27017057 -0.0079371687 -0.9627797 0.0044509196
-0.054973472 0.033907559 0.0012235481 0.55944002 0.13596825 -0.81764269 0.013516118
-0.05315182 0.032292943 0.0018822567 0.38024536 0.11743286 -0.91740012 0.0058738203
-0.050192699 0.032379534 0.003053115 0.34813827 0.22977193 -0.90884799 0.0036521913
-0.047822364 0.032158319 0.003859991 0.31994763 0.2290998 -0.91931874 0.0034894331
-0.055620626 0.03598763 0.0016965109 0.47477135 0.44287157 -0.76056361 0.016033778
-0.053301144 0.035287969 0.0026644797 0.41735119 0.39158976 -0.82004607 0.0054015
-0.050550215 0.034804471 0.0036877461 0.35102692 0.40160364 -0.84586918 0.0039602914
-0.048646573 0.034135949 0.0041670343 0.3765648 0.41422477 -0.82862341 0.0042323121
-0.058990777 0.038528629 0.0021829309 0.46967843 0.72087014 -0.50965536 0.012605946
-0.056330711 0.037962332 0.0029452697 0.35545972 0.73358154 -0.57922918 0.018070539
-0.053561054 0.037271574 0.0037655558 0.33272254 0.59080756 -0.73501164 0.0063804565
0.016482711 -0.029611411 0.0059352452 -0.73102689 -0.65950918 -0.17506401 0.0014329241
0.017451907 -0.030587452 0.0061627766 -0.71939152 -0.67439461 -0.16633621 0.001024536
0.013702868 -0.026646266 0.0061550932 -0.74026769 -0.61225641 -0.27775142 0.0012413848
0.015157116 -0.027992403 0.0052818535 -0.73508817 -0.62814963 -0.25509509 0.001540694
0.011052238 -0.023557337 0.0065143444 -0.75020498 -0.5567798 -0.35663527 0.0012408167
0.012441363 -0.024706483 0.0054239742 -0.74648595 -0.59220386 -0.30340287 0.0015036302
0.010111501 -0.021600544 0.0056500128 -0.76862931 -0.49398911 -0.4064281 0.0020684302
0.011637877 -0.022801967 0.004263415 -0.76444858 -0.47773722 -0.43288058 0.0013534687
0.0073944423 -0.01795755 0.006210871 -0.71693265 -0.46612328 -0.51839828 0.0021952973
0.008751737 -0.019078232 0.0052128909 -0.7475608 -0.47693789 -0.46225867 0.0011406494
0.0048428401 -0.014629366 0.0068200221 -0.70028353 -0.43211299 -0.56822646 0.0014192172
0.0064915614 -0.015494963 0.0054806899 -0.70145476 -0.37011874 -0.60907573 0.0014822742
0.0082882075 -0.01705973 0.0042669317 -0.72403443 -0.35956568 -0.58863115 0.00094289694
0.0041351104 -0.012305789 0.0061687306 -0.67449462 -0.37302554 -0.63710982 0.0013816494
0.0057419455 -0.012847885 0.0047969902 -0.67123598 -0.29639077 -0.67940778 0.0020020658
0.0018079199 -0.0091876145 0.0067881718 -0.61392242 -0.31695038 -0.72293967 0.0020844634
0.0036786792 -0.009723993 0.0054446626 -0.62592369 -0.22133225 -0.74781793 0.0012385021
0.0054171905 -0.010839196 0.0042857071 -0.63030475 -0.20889196 -0.74771649 0.0012185493
0.0011263039 -0.0063572614 0.0063448735 -0.55252588 -0.21221797 -0.80602652 0.0034095722
0.0033465244 -0.0066204974 0.0048744604 -0.55030596 -0.13404208 -0.82413346 0.0027775874
-0.00097314658 -0.0031995927 0.0069419621 -0.48872882 -0.17052898 -0.85560739 0.0029919047
0.00087099453 -0.003433459 0.0059631923 -0.46030095 -0.087418891 -0.88344836 0.004813463
0.0033136217 -0.00337651 0.0046917042 -0.47029212 -0.0084497351 -0.88247037 0.0026522125
-0.0013445928 -0.00048828707 0.006872111 -0.39137736 -0.016015716 -0.92009091 0.0033272379
0.00087116123 -0.00055098417 0.0059392909 -0.35934252 0.081488773 -0.92964107 0.0035309203
0.0037115754 -0.00051604793 0.0048652431 -0.364427 0.20446244 -0.90850866 0.0050736768
0.0057374956 0.00032735703 0.0043992288 -0.3021515 0.26182497 -0.9165982 0.0016535418
0.031756278 0.00064673857 0.0045491895 0.31187338 0.88764381 -0.33885607 0.0022420478
0.033326555 -2.3026834e-05 0.0050691385 0.38846457 0.87720549 -0.28214505 0.00035619445
-0.0012942895 0.002153069 0.0069730384 -0.29163396 0.11470861 -0.94962704 0.002688214
0.00087161781 0.0023339223 0.0063882861 -0.2386356 0.20046477 -0.95019305 0.0035881284
0.0037512251 0.002329553 0.0056208326 -0.23939459 0.31594777 -0.91807801 0.0043029608
0.0065887263 0.0023602573 0.005002128 -0.21843925 0.37253225 -0.90194458 0.0019723524
0.0095601948 0.0028699967 0.004703789 -0.11407848 0.51647061 -0.84867197 0.0018247428
0.012842663 0.0032806825 0.0045761727 -0.073061138 0.62021559 -0.7810216 0.0018301995
0.015543156 0.0034511776 0.0045193192 -0.02195275 0.69286746 -0.72073066 0.0017295198
0.018590655 0.0035203034 0.0046092412 0.031505637 0.75803459 -0.65145296 0.0016356921
0.021970317 0.0033472676 0.0047256136 0.094608359 0.79876822 -0.59415364 0.0017694279
0.024994593 0.0031425119 0.0052356441 0.18863352 0.86226428 -0.47001901 0.0036928684
0.027679991 0.0026345931 0.0057603559 0.2850669 0.87950706 -0.38105682 0.0035911009
0.030442413 0.0015134497 0.0056576449 0.31938338 0.88305366 -0.3438175 0.0021453646
-0.00081328303 0.0040237736 0.0071417233 -0.20934652 0.19211596 -0.95878327 0.0027762593
0.001086159 0.004556899 0.006945611 -0.17645735 0.3259151 -0.92878532 0.002291848
0.0038273481 0.004912856 0.0066456478 -0.14031659 0.41414365 -0.89933103 0.0024199467
0.0066989185 0.0051490469 0.0064236084 -0.091809668 0.49950975 -0.86142957 0.0027363205
0.0097643239 0.0052179322 0.006251201 -0.027022455 0.5891481 -0.80757308 0.0012402677
0.01284278 0.0050208489 0.0059886994 -0.0076628723 0.63936645 -0.76886404 0.002275714
0.015722964 0.0049414323 0.006001153 0.047269005 0.71174926 -0.70084131 0.0022126003
0.01859499 0.0047028381 0.0060085068 0.097764857 0.7762602 -0.62278587 0.0024991613
0.021619793 0.0044157505 0.0062183561 0.15946315 0.82313997 -0.54498821 0.0021705767
0.024304783 0.0041158213 0.0067004645 0.2663857 0.85488313 -0.4452118 0.0026551802
-0.052783061 0.021664316 0.0067488626 -0.2155363 -0.71751499 -0.66235673 0.0033601336
-0.050017852 0.021237521 0.0065537887 -0.1086608 -0.64976054 -0.75233245 0.003764445
-0.047215935 0.021087755 0.0064410195 -0.02837511 -0.57501101 -0.81765342 0.0041234624
-0.044346727 0.020854793 0.0066012843 0.038927026 -0.4875184 -0.87224454 0.0037216491
-0.041323092 0.020951813 0.0067403922 0.10096845 -0.39354089 -0.91374552 0.0035493611
-0.038396768 0.021354772 0.0069816122 0.18341027 -0.29189241 -0.93870097 0.003046304
-0.05891614 0.024238352 0.0063100196 -0.35462543 -0.77352077 -0.52526796 0.0034813231
-0.056137562 0.023663096 0.0057586888 -0.26181903 -0.73756164 -0.62245774 0.0033170348
-0.053327192 0.023429561 0.0052828779 -0.12354926 -0.61987752 -0.77491128 0.0072013084
-0.050288405 0.023359865 0.0050072037 0.014164995 -0.49815547 -0.86697203 0.0050058826
-0.047193285 0.023471853 0.0050289286 0.07957571 -0.41917244 -0.90441257 0.0046128859
-0.04422833 0.023438048 0.0054282071 0.14268555 -0.35147682 -0.92525941 0.0058354125
-0.041268948 0.02341038 0.0059458381 0.18341039 -0.24488728 -0.95204562 0.0045071901
-0.038219769 0.023554955 0.0065741101 0.2190384 -0.1580804 -0.96282536 0.0026180977
-0.036254384 0.023717882 0.0070547154 0.23552363 -0.10820033 -0.96582675 0.0029569282
-0.064039566 0.027336618 0.0063916883 -0.42181408 -0.83345133 -0.356976 0.0031189718
-0.062047277 0.026148532 0.0055621779 -0.38031259 -0.82674813 -0.41454774 0.0068109245
-0.059334747 0.025414925 0.004826122 -0.27736205 -0.81063676 -0.51569223 0.0092626214
-0.056571946 0.02505962 0.0044089174 -0.11936101 -0.6803928 -0.72306198 0.0065569365
-0.046404433 0.025491429 0.0043520229 0.18096766 -0.27248764 -0.94498742 0.01112155
-0.044190064 0.026320551 0.0047288807 0.25356922 -0.11992224 -0.95985484 0.004735738
-0.041358516 0.026323011 0.0055246884 0.26692653 -0.042633362 -0.96277344 0.0026747077
-0.038317226 0.026376719 0.006420752 0.2767759 0.038279209 -0.96017176 0.00282847
-0.036254477 0.026222097 0.0070559131 0.29950166 0.084792778 -0.95032036 0.0017587884
-0.045783125 0.030552497 0.004235222 0.31112066 0.096585117 -0.94544977 0.0034066751
-0.044126511 0.029423175 0.0047101816 0.32608229 0.10020984 -0.94001508 0.0033809796
-0.041270256 0.029413948 0.0057485364 0.32370928 0.1658991 -0.93149865 0.0032218962
-0.038420402 0.02905624 0.0067117782 0.32019329 0.18511005 -0.92909127 0.0018406076
-0.046471894 0.032830704 0.004557264 0.36866555 0.27853855 -0.88684946 0.0025020381
-0.044222139 0.032550815 0.0053706281 0.36548883 0.30574927 -0.87916738 0.0012843324
-0.041354384 0.032329675 0.0065159984 0.36778045 0.34188649 -0.86478382 0.001695037
-0.039169166 0.031144552 0.0069810785 0.35854322 0.34904742 -0.86580175 0.0019996136
-0.049831659 0.03609303 0.00469393 0.34233132 0.48584512 -0.80421621 0.005112316
-0.047235701 0.035415735 0.0054288069 0.34961006 0.45077172 -0.82132685 0.0023460404
-0.044536285 0.035184156 0.0064666905 0.35591108 0.4813959 -0.80099016 0.0022024165
-0.042539824 0.03451515 0.0069854502 0.35172528 0.5012902 -0.79056787 0.0022893951
-0.058414947 0.03953328 0.0056720413 0.27950615 0.82351649 -0.49365652 0.0089220721
-0.055915251 0.039232969 0.0052346969 0.22708324 0.82013178 -0.5251829 0.0094351089
-0.053161465 0.038609035 0.0054589761 0.25952867 0.79376817 -0.55006999 0.0089791324
-0.05038077 0.037933022 0.0059196437 0.31871063 0.63714266 -0.70176411 0.0034478786
-0.04753156 0.037485089 0.0067368671 0.31111288 0.6011306 -0.73610508 0.0023120565
0.013440712 -0.02713743 0.0087418249 -0.71589416 -0.67299813 -0.18592721 0.0015550556
0.010370282 -0.023864798 0.0088902302 -0.72683513 -0.6326229 -0.26739287 0.0019175198
0.011835671 -0.025327548 0.0083568115 -0.72936708 -0.64426553 -0.23009938 0.00059353129
0.0075611966 -0.020456217 0.008857443 -0.72363234 -0.57460445 -0.38234267 0.0016142871
0.0089231273 -0.02188638 0.0084271077 -0.7376976 -0.58282727 -0.34075579 0.0022680943
0.0048278337 -0.017419171 0.0095161833 -0.70691228 -0.53787917 -0.45930496 0.0013401685
0.0063209748 -0.018534936 0.0084979441 -0.71550047 -0.56351042 -0.41293472 0.00077082141
0.002086095 -0.014370846 0.010102286 -0.68876028 -0.51603311 -0.50923383 0.00045740433
0.0039090915 -0.015420649 0.0087185865 -0.70712376 -0.5209645 -0.47809204 0.00113857
0.005452482 -0.016460942 0.0075607738 -0.71448588 -0.48407593 -0.50515378 0.00034062754
0.0014202755 -0.012301888 0.0090516834 -0.67366588 -0.45532778 -0.58210903 0.0019050945
0.0030034382 -0.013136746 0.0079122176 -0.67666107 -0.43924358 -0.59092718 0.00047986096
-0.0012652657 -0.0092296638 0.0095752645 -0.61762673 -0.4432278 -0.64968181 0.0013814979
0.00055924908 -0.0098977499 0.0083098896 -0.63376635 -0.3900699 -0.66797125 0.0025345196
-0.0043359501 -0.0055209412 0.0099301776 -0.55139238 -0.43335691 -0.71285921 0.0028657601
-0.0021271273 -0.0064747268 0.0087649543 -0.57902932 -0.34470063 -0.73885494 0.0032393883
-6.4768828e-05 -0.0073276986 0.0075305281 -0.58691138 -0.26678512 -0.76443493 0.001790149
-0.0051608607 -0.0032677017 0.0094292611 -0.49786326 -0.31930125 -0.8063367 0.0028578762
-0.0026153165 -0.0035135658 0.0079829879 -0.49374789 -0.22963016 -0.83873892 0.0019879718
-0.0077828513 -0.00020914967 0.009761123 -0.41638756 -0.28945065 -0.86188143 0.0030336098
-0.0054111145 -0.00055296137 0.0087410994 -0.40940383 -0.20406763 -0.88923842 0.0046581123
-0.0030160751 -0.00060453801 0.0076016495 -0.42129621 -0.10476372 -0.90085185 0.0032285792
-0.010408427 0.0030278994 0.0099697551 -0.33074152 -0.25703114 -0.90804464 0.0037430008
-0.0083233314 0.0023508929 0.0093551977 -0.31519797 -0.15911874 -0.93559146 0.0037652166
-0.0054052835 0.0023449915 0.0083280457 -0.31629929 -0.041773941 -0.9477393 0.0043520327
-0.0029163808 0.0024655941 0.0075109499 -0.3190088 0.02681867 -0.94737226 0.003174254
0.028169615 0.0033605201 0.008507981 0.34011182 0.8825292 -0.32475546 0.001305334
0.030076934 0.0023438095 0.0081359139 0.34301376 0.88530815 -0.3139604 0.0011232183
-0.01326596 0.0061530257 0.01007754 -0.23500778 -0.2106019 -0.94890368 0.0046968726
-0.011141761 0.0053552627 0.0097346567 -0.21741095 -0.099800251 -0.97096467 0.0039694388
-0.0083174091 0.0052517108 0.0090686288 -0.22280568 -0.0052274442 -0.97484887 0.003957185
-0.0054058898 0.0052434206 0.0083854552 -0.22366619 0.10479356 -0.9690159 0.0050871051
-0.0022980054 0.005265553 0.0077847699 -0.2332678 0.20742595 -0.95003188 0.0025229494
0.00079231453 0.0060475422 0.0075139618 -0.099145465 0.35372064 -0.93008167 0.0024475341
0.0036268437 0.0065747811 0.0074739046 -0.061267894 0.44469637 -0.89358342 0.0023242312
0.0064150495 0.0067978315 0.0074309958 -0.02002617 0.55708897 -0.83021122 0.0017713361
0.0097909505 0.006920042 0.0075416621 0.022504669 0.64270324 -0.76578468 0.0018961082
0.012922762 0.0066782814 0.0074874125 0.066549249 0.70660967 -0.70446718 0.0018326408
0.015990101 0.0063696485 0.0075746365 0.11080072 0.73974752 -0.66369927 0.0017623164
0.018818926 0.0061475718 0.0079565942 0.15697373 0.79521495 -0.58565557 0.0017364161
0.021648789 0.0058096643 0.0085478881 0.21832943 0.85120058 -0.47727326 0.0024201896
0.024565324 0.0049084215 0.0085904738 0.32218763 0.87016988 -0.3728264 0.0028704191
0.02674924 0.0042033824 0.0090219025 0.35744396 0.87255776 -0.33298159 0.0013172431
-0.016608745 0.0092635825 0.010068798 -0.11526824 -0.18291955 -0.97634715 0.0029852537
-0.014067001 0.0085104713 0.0098615186 -0.082237929 -0.091968752 -0.99236017 0.002844088
-0.011232325 0.0084053166 0.0095554478 -0.10574441 0.021960635 -0.99415082 0.0033977998
-0.0083206259 0.0083994633 0.0092409775 -0.1018168 0.13995022 -0.98490977 0.0052389097
-0.0054131718 0.0083938483 0.0089383908 -0.09617833 0.23288745 -0.96773607 0.004000511
-0.0022682857 0.0083891749 0.0086861486 -0.068941951 0.32990074 -0.94149482 0.0037189317
0.00081749179 0.008498868 0.0085843895 -0.0033522034 0.4414452 -0.89728194 0.0015934467
0.0037726297 0.0086296704 0.0086187739 0.00056692673 0.51690185 -0.85604453 0.0024575824
0.0066735661 0.0086321905 0.0087329708 0.028820395 0.58299309 -0.81196582 0.0017073092
0.0095697884 0.0085318517 0.0088918693 0.090070724 0.67730337 -0.73016942 0.0022664398
0.01269011 0.0081960671 0.0090409471 0.13415788 0.74510914 -0.65331012 0.0022152804
0.015762918 0.0075662159 0.009005446 0.18420641 0.77983046 -0.59827447 0.0023159676
0.018500049 0.0072150948 0.0094436193 0.23645993 0.81854069 -0.5235244 0.0023916247
0.020505654 0.006960033 0.010016634 0.31629986 0.85788435 -0.40495521 0.0028465672
-0.02252051 0.012659086 0.010136074 -0.084802635 -0.24425744 -0.96599531 0.0030026855
-0.019901631 0.011946578 0.010045097 -0.06003917 -0.11831332 -0.99115956 0.0026883907
-0.017057009 0.011562135 0.0099103805 -0.045086712 -0.045496441 -0.9979465 0.0020397739
-0.014145356 0.011559146 0.0097914971 -0.022025559 0.054628182 -0.99826384 0.0018182588
-0.011238129 0.011559049 0.0097826226 0.028491078 0.1161466 -0.99282336 0.003207186
-0.0083664283 0.011525316 0.0098102186 -0.0050605028 0.2146662 -0.97667438 0.0030726835
-0.005466179 0.011283575 0.0097843325 0.019259742 0.29117072 -0.95647722 0.0023303144
-0.0023288121 0.011046719 0.0097427852 0.019509964 0.41440132 -0.90988511 0.0025658323
0.00080265757 0.010803971 0.0097896056 0.045268033 0.49993563 -0.86487865 0.0023912606
0.0036711541 0.01056953 0.0098483218 0.077512428 0.57656199 -0.81336838 0.0021894667
0.0062060794 0.010353019 0.010010294 0.11647059 0.62947839 -0.76823926 0.0018243368
-0.041295517 0.015684308 0.0099905077 -0.11015016 -0.64618695 -0.75518829 0.0019134055
-0.038378458 0.015438346 0.0098899938 -0.055460073 -0.58139127 -0.81173176 0.0022432269
-0.035099078 0.015246175 0.00986683 -0.011653009 -0.50711298 -0.86180079 0.0024524492
-0.032080214 0.015196759 0.0099123856 0.013582218 -0.42434782 -0.90539742 0.0032081811
-0.029078417 0.015101336 0.0099559361 0.0074662096 -0.31528777 -0.94896674 0.0037688497
-0.026193859 0.014863305 0.0099729896 -0.016618103 -0.18494782 -0.9826079 0.0033491047
-0.023358796 0.014470855 0.0099438773 -0.017428886 -0.13292466 -0.99097288 0.0037330212
-0.020207446 0.014470251 0.0099210721 0.022154182 -0.016673565 -0.99961555 0.0020585794
-0.017059281 0.014472052 0.0099713746 0.026810475 0.10615011 -0.99398863 0.0026301178
-0.014314855 0.014029713 0.010033663 0.040959332 0.14065389 -0.98921114 0.0019184308
-0.011532999 0.013528606 0.010101289 0.05744306 0.23332384 -0.97070098 0.0016112088
-0.050062478 0.018255128 0.0096496483 -0.24888721 -0.74497771 -0.6189211 0.002084173
-0.047086876 0.017778266 0.0092305234 -0.17758964 -0.71378505 -0.67747533 0.0027073708
-0.044093214 0.01744245 0.0089531122 -0.10707466 -0.64857328 -0.75358325 0.0028320064
-0.041179799 0.017330967 0.0087504322 -0.013725393 -0.54662514 -0.83726501 0.0028567142
-0.038275871 0.017329529 0.0087088523 -0.0041628717 -0.48380667 -0.87516499 0.0025651243
-0.03538613 0.017334733 0.0088365776 0.070575267 -0.38386258 -0.92068923 0.0039286846
-0.032262102 0.017344886 0.0090904627 0.096263029 -0.29208827 -0.95153451 0.0036558793
-0.029139087 0.017357651 0.0094099771 0.095747381 -0.19088542 -0.97693157 0.004064294
-0.026248941 0.017367227 0.0096490476 0.073298596 -0.091139667 -0.99313688 0.003381819
-0.023353113 0.017374886 0.0098396335 0.074166611 0.010538517 -0.99719024 0.0022336515
-0.020461895 0.017154535 0.01002526 0.070272453 0.071925431 -0.9949314 0.0017906821
-0.017712181 0.016335897 0.010134045 0.081749797 0.18339394 -0.97963446 0.0017072122
-0.058039419 0.021508856 0.010157778 -0.49755669 -0.78857988 -0.36135745 0.002209018
-0.055943526 0.021254798 0.0087317768 -0.37384313 -0.77673554 -0.50687593 0.0039957399
-0.053196657 0.020246146 0.0085365912 -0.30330679 -0.7400288 -0.6003018 0.00296861
-0.050384436 0.019655947 0.008158477 -0.20526552 -0.72418869 -0.65834397 0.0033255266
-0.047352888 0.019461194 0.0077168653 -0.11309857 -0.66384101 -0.73927248 0.0023906156
-0.044206709 0.019215293 0.0076027373 -0.043831069 -0.59432745 -0.80302781 0.002681731
-0.040919159 0.019355629 0.0075059757 0.029215159 -0.44586086 -0.89462543 0.003276692
-0.03800898 0.019824905 0.0075559523 0.10925806 -0.32475093 -0.93946767 0.0052803666
-0.035302926 0.020429479 0.0078025591 0.19582112 -0.25264427 -0.94753629 0.0043571596
-0.032210596 0.020456908 0.0083900318 0.19733973 -0.15184291 -0.96850431 0.0035691455
-0.029147638 0.020291498 0.0090486715 0.19572069 -0.050064463 -0.97938091 0.0030716711
-0.026246158 0.02027142 0.0096052401 0.13584785 0.06822031 -0.98837811 0.0025316994
-0.023641409 0.020009981 0.010002541 0.14360471 0.098312058 -0.98473978 0.0021329836
-0.021671994 0.019083483 0.010136052 0.16881783 0.18844683 -0.96746492 0.0022797259
-0.061162706 0.024430549 0.0081952801 -0.46934852 -0.79650033 -0.38118145 0.0021868234
-0.059148114 0.022969201 0.0086341286 -0.47726586 -0.79301828 -0.37860197 0.0019789597
-0.057023026 0.02253872 0.0075380225 -0.30431268 -0.75309956 -0.5832966 0.003033781
-0.034885321 0.023472173 0.0074487403 0.26557133 -0.04030478 -0.96324837 0.0025417991
-0.032197483 0.023587184 0.008213493 0.27920878 0.015205278 -0.96011001 0.0026392597
-0.029090095 0.023429185 0.0091203265 0.26414672 0.077770039 -0.96134192 0.0016916995
-0.026488094 0.023182422 0.0098447772 0.22497986 0.1590309 -0.96129769 0.0020507223
-0.024579741 0.021991415 0.01011069 0.18424737 0.15223429 -0.97101885 0.00066466013
-0.062277246 0.025479225 0.0075374683 -0.45710239 -0.812756 -0.36122712 0.0030714062
-0.034893382 0.02651854 0.007550993 0.33277074 0.12784675 -0.93430126 0.001578788
-0.032218639 0.026501553 0.0085044783 0.32960248 0.15843074 -0.93073189 0.0014379119
-0.029245071 0.026470156 0.0095746135 0.34136426 0.23689611 -0.90958816 0.00099779433
-0.027365478 0.025747025 0.010077863 0.34378874 0.26592404 -0.90060741 0.0023421599
-0.037232883 0.030049622 0.0073996279 0.36629522 0.23101546 -0.90136546 0.001793808
-0.035316516 0.029365296 0.0079758484 0.36122677 0.25852421 -0.89592439 0.0011754917
-0.032307774 0.029419523 0.0092386194 0.35588765 0.30581909 -0.88307339 0.0018310939
-0.030084221 0.028829915 0.0099574393 0.37631527 0.33802882 -0.86262584 0.0020992174
-0.040328737 0.033340894 0.0073762722 0.37434289 0.36969483 -0.8504076 0.0021202189
-0.038111672 0.032351326 0.0079168733 0.38260117 0.37326115 -0.84515822 0.0014767033
-0.035306763 0.03229335 0.0091248425 0.37048748 0.42433006 -0.82624632 0.0018666673
-0.032853883 0.031452205 0.0098205544 0.38097194 0.43257296 -0.81715429 0.0021367176
-0.043658912 0.036449902 0.0076937331 0.34119534 0.61582506 -0.71017265 0.0015864134
-0.041145835 0.035446752 0.0082403459 0.37256065 0.51095307 -0.77467769 0.0018041456
-0.038497787 0.035031669 0.0092514455 0.37359834 0.53914219 -0.75481778 0.0016559075
-0.036198273 0.034373041 0.0098988982 0.37995976 0.53881717 -0.75186872 0.0020237549
-0.052133951 0.039684925 0.0073675355 0.16251408 0.88252532 -0.4412916 0.0050234417
-0.049982585 0.039470304 0.0079076104 0.21638972 0.85542816 -0.47055084 0.0069961031
-0.047230318 0.038968276 0.0084858872 0.26200306 0.79321522 -0.54969436 0.0042593963
-0.044422783 0.038137108 0.0088735549 0.33766443 0.67788565 -0.65303427 0.0030034354
-0.041388117 0.037430488 0.0096901646 0.34845233 0.63101697 -0.69310796 0.0014380696
-0.055363357 0.040237069 0.0081438068 0.13530931 0.87668359 -0.46164638 0.0046732631
-0.053209331 0.040251136 0.0082992259 0.16257675 0.88250721 -0.44130477 0.0050148373
-0.050192136 0.040348746 0.0093776295 0.19990903 0.85050386 -0.48649719 0.0071770283
0.014708602 -0.028464915 0.010648265 -0.70114398 -0.69777256 -0.14666523 0.00042753213
0.009868403 -0.024132041 0.011326631 -0.71699446 -0.65196294 -0.24670485 0.00084706646
0.011337587 -0.025615947 0.011781975 -0.70476002 -0.67977434 -0.2030275 0.0017028071
0.0070586419 -0.021105511 0.011294107 -0.71956784 -0.62430304 -0.30408522 0.00094048487
0.0084109725 -0.022676574 0.011387243 -0.71688128 -0.65320843 -0.24372104 0.00080081122
0.0042393003 -0.018108713 0.011652476 -0.70795661 -0.60189414 -0.36948723 0.0011327657
0.0056123361 -0.019384118 0.011126458 -0.7126773 -0.62450278 -0.31951132 0.00080378115
0.0013961648 -0.015127046 0.012031872 -0.68140894 -0.59369427 -0.4280293 0.002420234
0.0029531606 -0.016294425 0.011164811 -0.70585668 -0.60162449 -0.37391764 0.001224809
-0.0013162991 -0.01199667 0.01202323 -0.65321732 -0.54497004 -0.52565658 0.00096526375
0.00029716769 -0.013035992 0.011102309 -0.66328484 -0.55067331 -0.50676632 0.00044099017
-0.004403316 -0.0087562576 0.012315009 -0.60951865 -0.53722101 -0.58299279 0.0025747749
-0.0024273358 -0.0099323932 0.011289946 -0.62878364 -0.50788587 -0.58879805 0.0029756529
-0.0076577067 -0.0056746528 0.012671544 -0.54132009 -0.55174476 -0.6344685 0.0016986864
-0.0055502187 -0.0064612869 0.011492169 -0.56451935 -0.46974424 -0.67871809 0.0015603742
-0.0035738067 -0.0074277134 0.01048151 -0.59137374 -0.4455753 -0.67211592 0.00095235568
-0.010583933 -0.0027492782 0.012701379 -0.4882172 -0.52165884 -0.69965422 0.0023498018
-0.0083346581 -0.0034392406 0.011647212 -0.49873358 -0.43308255 -0.75080246 0.0013870923
-0.0063459156 -0.0041335486 0.010624404 -0.50801349 -0.38040748 -0.7727952 0.0022261834
-0.013717805 0.00010678131 0.012672206 -0.41199738 -0.5016005 -0.76069379 0.0028580001
-0.011255914 -0.00052024669 0.011743164 -0.42583865 -0.40828699 -0.80744237 0.0023112744
-0.008962648 -0.00093939912 0.010648672 -0.44273266 -0.34982723 -0.82559597 0.0018051572
-0.019252237 0.0034706204 0.012998103 -0.32571957 -0.54970706 -0.76923919 0.0022337001
-0.016955521 0.002749745 0.012529124 -0.32716164 -0.48522407 -0.8108778 0.0030310845
-0.014207382 0.0023640795 0.011660545 -0.34783769 -0.42771789 -0.83430588 0.0024546874
-0.011540601 0.0021339243 0.010670222 -0.36142644 -0.32405895 -0.87427497 0.0024305319
-0.024748057 0.0065220431 0.013114526 -0.31261432 -0.56218803 -0.76564801 0.0022376888
-0.022683671 0.0059976429 0.012710794 -0.30057591 -0.49047625 -0.81797749 0.0033557594
-0.020012122 0.0053613223 0.012189551 -0.28289643 -0.43787095 -0.853369 0.0028750144
-0.017112348 0.005278843 0.01130777 -0.27277854 -0.33589029 -0.9015373 0.0015657549
-0.014350404 0.0050925249 0.010608828 -0.28782934 -0.28291065 -0.9149403 0.0026859911
-0.012302215 0.0042158794 0.010281726 -0.24422549 -0.21374394 -0.94586861 0.004736179
0.022723254 0.0064864443 0.010754271 0.3529771 0.87992167 -0.31803316 0.0027680844
0.024597991 0.0058725607 0.011461264 0.37303489 0.88027066 -0.29320377 0.0017196538
0.027036455 0.0045494325 0.011182452 0.37744805 0.88195223 -0.28229973 0.0011562345
-0.028990358 0.0093189087 0.012678408 -0.2158659 -0.55345917 -0.80441582 0.0028856676
-0.026299048 0.0086740125 0.012291674 -0.2132218 -0.48521903 -0.84799701 0.002875977
-0.023373688 0.0083900373 0.01166788 -0.21174459 -0.4295564 -0.87786424 0.0019116298
-0.020190256 0.0084820352 0.010880806 -0.20656207 -0.32355362 -0.92338789 0.0020486973
-0.017359313 0.0079004094 0.010477248 -0.2227675 -0.23502468 -0.9461174 0.0028044032
-0.015210684 0.0071252324 0.010235433 -0.18581189 -0.19160685 -0.96372229 0.0022937928
0.010575675 0.0098756235 0.010334029 0.14957249 0.69294411 -0.70530599 0.0017378712
0.013070717 0.0096253306 0.010819538 0.1969309 0.77646524 -0.5985983 0.0020489583
0.01594674 0.0091703441 0.011368263 0.26097393 0.82805848 -0.49619728 0.0035326383
0.01886078 0.0083322562 0.011650799 0.30480936 0.85416502 -0.42129961 0.0031959703
0.021559933 0.0073437891 0.011836605 0.36996552 0.86343032 -0.34294838 0.002680867
-0.040824912 0.012735534 0.012789334 -0.22361146 -0.72882485 -0.64715707 0.0015511937
-0.037946075 0.012282783 0.012445597 -0.17563538 -0.68047029 -0.71141583 0.0020783376
-0.035097744 0.011934353 0.012175544 -0.14488436 -0.61873937 -0.77212054 0.0028596912
-0.032176699 0.011485292 0.012008957 -0.14430216 -0.5706498 -0.80841553 0.0034097196
-0.029328279 0.011513205 0.011484538 -0.14191939 -0.46044171 -0.87627184 0.0035293705
-0.02632511 0.01158819 0.01091637 -0.12005921 -0.36505857 -0.92321068 0.0035318537
-0.023496695 0.011441935 0.010537605 -0.14325693 -0.31291586 -0.93891484 0.0022114252
-0.020850264 0.010811044 0.010332507 -0.13327631 -0.21138835 -0.96827292 0.00306433
-0.0071276156 0.012782766 0.010220542 0.068338871 0.25048146 -0.96570641 0.0020295794
-0.0052583851 0.012716502 0.010323862 0.075095177 0.35635599 -0.93132758 0.0024321324
-0.0021825321 0.012498859 0.010465306 0.091431886 0.44976094 -0.88845664 0.0021069369
0.00093837432 0.012260018 0.010685665 0.11359994 0.52974176 -0.84051692 0.0018107928
0.0038377384 0.0120277 0.010960657 0.14062074 0.59632182 -0.79033285 0.0014192021
0.0067697614 0.011753339 0.011350788 0.20548493 0.66752553 -0.71567148 0.0018474
0.0095241964 0.011351058 0.011717968 0.19728309 0.7305252 -0.6537677 0.0016677429
0.012380013 0.010893235 0.012229272 0.2673054 0.78174835 -0.56339806 0.0018154531
0.015140389 0.010296138 0.01275391 0.32126734 0.81891465 -0.47556928 0.001858057
-0.049361587 0.015784418 0.012805446 -0.35586089 -0.80631727 -0.47245699 0.0015285912
-0.047132369 0.01530543 0.012188897 -0.30563712 -0.77601349 -0.55171466 0.0021605836
-0.044193424 0.014692169 0.011699843 -0.21325524 -0.73968983 -0.63826412 0.0015980888
-0.041321304 0.014271896 0.011310653 -0.19235165 -0.68861508 -0.69914949 0.0022435235
-0.038228728 0.014018307 0.010963449 -0.1112063 -0.6139636 -0.7814613 0.0017732062
-0.035198081 0.013865292 0.010726932 -0.072925217 -0.54240429 -0.83694655 0.0020631002
-0.032130819 0.013764555 0.01060639 -0.062602393 -0.45930296 -0.88607097 0.0028985997
-0.029329889 0.013699275 0.01045595 -0.082111292 -0.35863042 -0.92986125 0.0039498536
-0.026482739 0.013464449 0.010310992 -0.092615381 -0.2441555 -0.9653033 0.003118651
-0.01383921 0.015372628 0.010318356 0.10199181 0.19702816 -0.97507823 0.0016358766
-0.011130351 0.014906215 0.010481995 0.12638862 0.28430903 -0.9503653 0.0016028808
-0.0083495826 0.014496781 0.010711003 0.087137505 0.30729282 -0.94761705 0.001777583
-0.0052724592 0.014560297 0.01115919 0.14227039 0.42887968 -0.89208823 0.0017995826
-0.0021331469 0.014476165 0.011627674 0.14098828 0.53323007 -0.83413911 0.0016510249
0.00077316491 0.014363226 0.012133847 0.18158537 0.60170633 -0.77780211 0.0020586473
0.0036330905 0.013900753 0.012483753 0.2046766 0.66566455 -0.71763372 0.0020460782
0.0060942117 0.013442785 0.012788143 0.24104431 0.69517744 -0.67721933 0.0017816594
-0.055202 0.018706558 0.012703716 -0.48868814 -0.81202936 -0.31904906 0.00090255111
-0.052967522 0.018088913 0.011638797 -0.39128247 -0.81037515 -0.43610799 0.003081918
-0.050245043 0.017009899 0.01147299 -0.31047043 -0.78250915 -0.53971082 0.0021143351
-0.047486439 0.016463902 0.010814803 -0.23503946 -0.72951728 -0.64230907 0.0019181404
-0.045207474 0.016181437 0.010329201 -0.19016822 -0.70219356 -0.68611974 0.0022546686
-0.019308733 0.018228266 0.010298753 0.11943079 0.14448076 -0.98227364 0.0019451311
-0.0169494 0.017610086 0.010468934 0.14349747 0.23485281 -0.9613806 0.0015597631
-0.01417866 0.017413585 0.010813338 0.11705989 0.25339198 -0.96025491 0.0013215354
-0.011278334 0.017433492 0.011315637 0.17339548 0.34444776 -0.92265362 0.0012702775
-0.0083740251 0.017458437 0.011946189 0.1982865 0.42541814 -0.88300729 0.0016999211
-0.0054056766 0.017141884 0.012498701 0.20759597 0.49505863 -0.84369481 0.0025222765
-0.002392692 0.016519038 0.012884968 0.21534002 0.57472807 -0.78950375 0.0020959249
-0.058557682 0.021203427 0.011890962 -0.51804602 -0.78984439 -0.32828984 0.0017827718
-0.056258082 0.01990206 0.011412394 -0.48273647 -0.80812323 -0.33749411 0.0018167191
-0.054204356 0.019261731 0.01051937 -0.34794918 -0.82351387 -0.44805828 0.0037827441
-0.022651708 0.021032223 0.010330196 0.19382179 0.16663724 -0.96678084 0.0018116714
-0.020203698 0.020347482 0.010613765 0.16590437 0.22439417 -0.96027237 0.00079918117
-0.01710777 0.020345388 0.011210713 0.19495942 0.2991299 -0.93408358 0.0014431104
-0.014213065 0.020375457 0.011864074 0.213103 0.37716246 -0.9012965 0.0016009619
-0.011439713 0.020193398 0.012503361 0.22961707 0.43407351 -0.87112349 0.0018987724
-0.0089292452 0.019542858 0.012868353 0.25028354 0.50069052 -0.82865381 0.0017511654
-0.061275654 0.02372363 0.010772898 -0.48327148 -0.79862791 -0.35866708 0.0020374651
-0.059885904 0.022413423 0.011269881 -0.49361154 -0.79439443 -0.35395649 0.0024938358
-0.02550225 0.02430713 0.010342962 0.28870675 0.19872682 -0.93656611 0.0017599084
-0.023318853 0.023303239 0.010720817 0.21490265 0.23208301 -0.94865918 0.0022320542
-0.020244107 0.023246618 0.01149206 0.24442968 0.34996697 -0.90431035 0.0016810877
-0.017208977 0.02324835 0.012328031 0.26776186 0.41706586 -0.8685388 0.00091648439
-0.014552695 0.022579806 0.012794842 0.25969335 0.46177053 -0.84813172 0.0018123656
-0.028150007 0.02766226 0.01034291 0.33868232 0.27304587 -0.90041119 0.0020973892
-0.026149772 0.026691981 0.010825252 0.35298255 0.29915744 -0.88651454 0.001449401
-0.023244089 0.026247973 0.011732234 0.31032261 0.38524374 -0.86907262 0.0012866483
-0.020294489 0.025922434 0.012614811 0.31021169 0.45024523 -0.83728606 0.0013320936
-0.018032191 0.02518419 0.0129975 0.29652604 0.48594409 -0.82214999 0.0020803141
-0.030900849 0.030736415 0.010371461 0.41666248 0.43877792 -0.79615724 0.0012373566
-0.028973039 0.029745454 0.010833391 0.39043707 0.38202134 -0.83762676 0.0012417618
-0.026420671 0.029594054 0.011947956 0.37746066 0.43474308 -0.8176319 0.0014431708
-0.023724062 0.028701866 0.012684006 0.34784874 0.4743754 -0.80868363 0.0017849029
-0.03397629 0.033488438 0.010411396 0.40737647 0.53983772 -0.73662728 0.0012416875
-0.031967118 0.032739896 0.010987467 0.39247781 0.47944596 -0.7849158 0.0015859071
-0.029448723 0.032393895 0.012073333 0.40144044 0.52828866 -0.74816895 0.0017454262
-0.027109569 0.031698436 0.012826732 0.40505382 0.52858287 -0.74601042 0.0015732342
-0.0375068 0.036317471 0.010728959 0.35510856 0.66977465 -0.65215009 0.0021826795
-0.035089411 0.035533112 0.011392156 0.39749816 0.57602412 -0.71427679 0.0014445953
-0.03252269 0.034939226 0.012316989 0.40256047 0.62320352 -0.67049426 0.0017123292
-0.03035423 0.034334738 0.013018577 0.39948761 0.62475252 -0.67089039 0.0016459537
-0.043630123 0.039338786 0.010734036 0.24280803 0.80489272 -0.54147202 0.0059070922
-0.041191101 0.038848892 0.011487603 0.31193563 0.79218423 -0.52453816 0.001321011
-0.038459301 0.037808195 0.01176643 0.36118609 0.70656586 -0.60853028 0.0020733885
-0.036040854 0.037434638 0.012740149 0.36089295 0.69062787 -0.62672919 0.0021709146
-0.052567702 0.040985107 0.011040679 0.139428 0.89685768 -0.41976917 0.002502413
-0.050156172 0.041000068 0.011203844 0.15670304 0.90538359 -0.39461967 0.0016086976
-0.047203962 0.04064355 0.011388341 0.23199147 0.86143935 -0.45177662 0.0017386418
-0.044416528 0.040268652 0.011912866 0.23967355 0.85409129 -0.46161088 0.0022410441
-0.042306434 0.040187445 0.012986167 0.27910748 0.85346913 -0.44010156 0.0057032849
0.005050946 -0.020443441 0.015866412 -0.70045787 -0.67170513 -0.24118653 0.00055119226
0.0067399088 -0.021566968 0.013639767 -0.711371 -0.65327907 -0.2591866 0.00048377211
0.0021020013 -0.017465385 0.015022679 -0.66945732 -0.68662751 -0.28349531 0.0016708571
0.0037014426 -0.018775765 0.014370223 -0.6888833 -0.67504555 -0.26410851 0.0011833237
-0.0010046322 -0.014709048 0.015683912 -0.64824569 -0.69582814 -0.30919355 0.0011571856
0.00063102995 -0.015831282 0.01464267 -0.65435219 -0.69151926 -0.30598092 0.00096301403
-0.0041741868 -0.011491634 0.015255614 -0.62122822 -0.65354502 -0.43238217 0.0017737824
-0.002158677 -0.012890019 0.014384241 -0.64452976 -0.65903157 -0.38763228 0.0015329416
