# .PCD v0.7 - Point Cloud Data file format
VERSION 0.7
FIELDS x y z normal_x normal_y normal_z curvature
SIZE 4 4 4 4 4 4 4
TYPE F F F F F F F
COUNT 1 1 1 1 1 1 1
WIDTH 552
HEIGHT 1
VIEWPOINT 0 0 0 1 0 0 0
POINTS 552
DATA ascii
0.0053876038 0.036746927 -0.0028851896 0.12273549 -0.31452352 -0.94128156 0.0019578182
0.0084536672 0.036796719 -0.0023094544 0.240849 -0.23654628 -0.94129568 0.0021921943
0.010525282 0.037258174 -0.0017456106 0.37725297 -0.21213984 -0.90148598 0.0019444166
-0.0088946112 0.040430181 -0.002059506 -0.50271773 -0.54126072 -0.67402655 0.0021727064
-0.0066031632 0.039801743 -0.0028983208 -0.35602531 -0.52342707 -0.77412534 0.0040423707
-0.0036450881 0.039639365 -0.0038043321 -0.2053152 -0.48098505 -0.8523491 0.0014038616
-0.00048578088 0.039224349 -0.0040692389 -0.079398543 -0.43699086 -0.89595473 0.0015969236
0.0023998604 0.039309237 -0.00412639 0.040716913 -0.3816309 -0.92341751 0.0011557078
0.0054115192 0.039721508 -0.0038842345 0.20137678 -0.30934292 -0.92938387 0.002897132
0.0084408699 0.039785184 -0.0030826102 0.33158138 -0.21860287 -0.91775084 0.0032430303
0.010944284 0.039959665 -0.0020553246 0.45681855 -0.14343323 -0.87792015 0.002557622
-0.011638895 0.043322906 -0.0021784813 -0.57775241 -0.55440062 -0.59903437 0.0025687134
-0.0096369172 0.04273244 -0.0033301334 -0.44421908 -0.52961165 -0.72262084 0.0018459865
-0.0068781464 0.041768137 -0.0041118925 -0.29160714 -0.50841278 -0.81023562 0.0022804551
0.0064518945 0.041970622 -0.0042778309 0.2490477 -0.2283923 -0.94117594 0.0016769753
0.0084306719 0.042778127 -0.0037009986 0.3940894 -0.15220356 -0.90638155 0.0037508747
0.010998227 0.042780422 -0.0023578778 0.53619236 -0.064836308 -0.84160203 0.0036258129
-0.014506677 0.046824496 -0.002102741 -0.71400064 -0.53664494 -0.44968349 0.0040555983
-0.012779349 0.045697123 -0.0031860434 -0.61553305 -0.55476612 -0.55978 0.0077630454
-0.01087899 0.044768926 -0.0041131461 -0.53085935 -0.54467672 -0.6492424 0.0045950045
0.0087657962 0.045728374 -0.0039109364 0.48920709 -0.068184711 -0.86949831 0.0041052867
0.011026338 0.045748424 -0.0023979717 0.61443871 0.029205324 -0.7884239 0.0047062729
-0.015387453 0.048802968 -0.0029973472 -0.72596753 -0.52250546 -0.44716787 0.0037099838
-0.013690833 0.047577456 -0.0041555949 -0.62019604 -0.56130451 -0.5479911 0.0010040354
0.00886063 0.048751485 -0.0038754232 0.58301079 0.064018235 -0.80993825 0.0029266842
0.010706441 0.048699576 -0.0023345081 0.69377971 0.14252333 -0.705944 0.0047460771
-0.017563131 0.052229453 -0.0027796682 -0.82713091 -0.47924545 -0.29356146 0.0026075991
-0.016529821 0.050856635 -0.0035156794 -0.78595513 -0.51966196 -0.33500156 0.0025536823
0.0087508922 0.051872332 -0.0034449031 0.66991055 0.17845321 -0.72067624 0.003285228
0.010264254 0.051428124 -0.0020166123 0.72178727 0.26891127 -0.63773805 0.003040133
-0.018629629 0.054728836 -0.003375263 -0.85535353 -0.45012766 -0.25642806 0.0020458766
0.0066629862 0.055494297 -0.0042661438 0.68749684 0.25544575 -0.67977607 0.0042817509
0.0081921043 0.054625534 -0.002937648 0.71976054 0.30167475 -0.62524962 0.0021393113
-0.01967901 0.057092078 -0.0031166559 -0.84036189 -0.47402853 -0.26284766 0.0024131623
0.0060304212 0.057936415 -0.0034962511 0.71487969 0.38985142 -0.58048499 0.0031972094
0.0075470838 0.057057027 -0.0022016338 0.7299968 0.45939603 -0.50602359 0.0026783634
0.0031895484 0.061707463 -0.003704194 0.64466625 0.57492816 -0.5038482 0.0018521283
0.0048140706 0.060450315 -0.0028168429 0.68913931 0.52904052 -0.49517995 0.002576018
0.00021742872 0.064625219 -0.0037700022 0.59481639 0.69196981 -0.40911043 0.0017685867
0.0020965277 0.063401543 -0.0029505803 0.63188994 0.6349209 -0.44451156 0.0024856341
0.0039847293 0.062316451 -0.0016524877 0.68656898 0.61619949 -0.38590309 0.0032318446
-0.0054049152 0.068016544 -0.0043654526 0.44299135 0.81065822 -0.3828733 0.0020579249
-0.0032785931 0.067215361 -0.0034957216 0.46657291 0.79587001 -0.38587654 0.0024170731
-0.00092714455 0.066052586 -0.0027680525 0.55185109 0.74079192 -0.3829982 0.0030419838
-0.0066695879 0.068787143 -0.0034515942 0.44299361 0.81065553 -0.38287625 0.0020529437
0.0030444162 -0.066978455 -0.0010158505 0.77366471 -0.53748506 -0.33548865 0.0008957212
0.0046987594 -0.064876966 -0.00085324899 0.78678113 -0.51221877 -0.34439415 0.0011502942
-0.020120611 -0.060914468 -0.00046921626 -0.93500453 0.27257022 -0.2268746 0.0014097734
0.0063548079 -0.062550023 -0.00060742453 0.8029471 -0.47181618 -0.36423263 0.00058271934
0.0073052575 -0.061183173 -0.00023710087 0.82523066 -0.47084922 -0.31192213 0.00054942613
-0.01963117 -0.058740284 -0.00082010881 -0.92077589 0.31025231 -0.23646416 0.0016617629
0.008408268 -0.059203763 -0.00029874372 0.83891577 -0.42402536 -0.34120801 0.00097705098
-0.018875603 -0.055992607 -0.00012291328 -0.93018025 0.31363112 -0.1907886 0.00074040401
0.0094754789 -0.056932721 -0.00055066601 0.85017347 -0.35586542 -0.38802686 0.0028559305
0.010338979 -0.055494886 5.1638926e-05 0.85089231 -0.35619804 -0.38614163 0.0026799901
-0.017805167 -0.053277928 -0.00034740334 -0.90246516 0.3583608 -0.23902734 0.0017232902
0.011122528 -0.053191233 -0.00021007913 0.85158181 -0.30346718 -0.42745286 0.0022421463
-0.017337218 -0.051367689 0.00080212101 -0.86563283 0.40545523 -0.29374459 0.001709586
-0.01628172 -0.049833063 -0.0001989603 -0.84933758 0.41695029 -0.32369438 0.0010469235
0.012035378 -0.050298788 -0.00027192698 0.86751741 -0.2629424 -0.42222613 0.0018857013
0.013013953 -0.049013589 0.00095254823 0.876522 -0.29145205 -0.38309911 0.0043158294
-0.015045684 -0.047260702 8.287176e-05 -0.8100276 0.43019247 -0.3984842 0.0027744763
-0.013840228 -0.046091545 -0.00093057111 -0.6941939 0.49581787 -0.52178484 0.0019135578
0.012319546 -0.047413278 -0.0009212931 0.81698978 -0.12709925 -0.56247091 0.0039536604
0.01327683 -0.046865091 0.00043992093 0.8418901 -0.19730672 -0.50228602 0.0036141537
-0.014505888 -0.045242365 0.0011877929 -0.79045486 0.45384723 -0.41134393 0.0024895903
-0.012933431 -0.044037543 -0.00025739823 -0.74702555 0.47336408 -0.46677539 0.0013201544
0.012483172 -0.044055015 -0.001229995 0.679959 -0.042525783 -0.73201591 0.0040679104
0.013601568 -0.044088699 0.00014101469 0.79994327 -0.12565631 -0.58677191 0.0045155925
-0.011770935 -0.041540522 0.00038725138 -0.71713078 0.47200102 -0.51277518 0.0033584447
-0.010218733 -0.040693596 -0.00074272708 -0.66097027 0.47082627 -0.58432943 0.0020889698
0.012483172 -0.041222963 -0.0012300049 0.68263227 0.038733602 -0.72973484 0.0034701512
0.013891456 -0.041162461 0.00015423493 0.73720104 -0.0040297494 -0.67566139 0.004273518
-0.0093034245 -0.038382191 9.866152e-05 -0.61809075 0.47477534 -0.62653989 0.0035315834
-0.007188037 -0.037389893 -0.00097029068 -0.45559114 0.4579668 -0.76334989 0.0023968136
0.012124614 -0.037995972 -0.0011406345 0.52611721 0.10586555 -0.84379691 0.0031005344
0.013898637 -0.0381906 0.00020103611 0.64841861 0.045144647 -0.75994426 0.004495929
-0.008606066 -0.035982531 0.0011213763 -0.65323436 0.43722591 -0.61815715 0.0021208506
-0.0066208281 -0.035214931 -1.8596649e-05 -0.51761729 0.4424904 -0.73230773 0.0041773403
-0.0041433629 -0.034522302 -0.0010722994 -0.35580894 0.42507336 -0.83229357 0.0015360634
0.0096465284 -0.033888843 -0.0014743592 0.24681932 0.22214775 -0.94325531 0.002010681
0.011515137 -0.034983926 -0.00093851244 0.45970228 0.15384591 -0.87464577 0.0025105339
0.013950486 -0.035222881 0.00050854927 0.61546719 0.092986338 -0.78265804 0.0044714031
-0.0059909876 -0.032805305 0.00093401026 -0.5488826 0.41658306 -0.72469753 0.0022722932
-0.0036278861 -0.032159641 -9.2665199e-05 -0.40481547 0.40630555 -0.81917048 0.003409653
-0.00069541007 -0.031896934 -0.0010882642 -0.252536 0.38683474 -0.88689595 0.0011575285
0.0020991745 -0.031185178 -0.0013481091 -0.095755115 0.3635948 -0.92662275 0.0014668179
0.005578598 -0.031121455 -0.0014169562 0.043570068 0.32103819 -0.94606346 0.0015866794
0.0087277815 -0.031884175 -0.0011925149 0.22400127 0.24197851 -0.94407088 0.0023485529
0.011372316 -0.032225545 -0.00042386178 0.38858208 0.18148778 -0.90336376 0.0023687261
0.013800983 -0.032243483 0.00081306638 0.54428476 0.12643449 -0.82931811 0.0031606099
-0.002972499 -0.029445304 0.00086488796 -0.4464913 0.36064973 -0.81888789 0.0025339881
-0.00050136121 -0.029264165 -3.0337367e-05 -0.26214775 0.36148223 -0.89476764 0.00093930372
0.0023368727 -0.02922417 -0.00065073371 -0.12323488 0.34080607 -0.93202168 0.0015177415
0.0054073143 -0.029212616 -0.00083102559 0.018740607 0.3015399 -0.95326936 0.0017658473
0.0084830821 -0.029231453 -0.00054087379 0.1695724 0.26260293 -0.9498868 0.0017747263
0.011289703 -0.029208845 0.00020724954 0.34261206 0.20423806 -0.91700804 0.0025305722
0.013493349 -0.029283879 0.0011268366 0.48667327 0.15364262 -0.85996693 0.0023985549
-0.0021677134 -0.027454585 0.0013396655 -0.45496437 0.36615455 -0.81175017 0.0025332533
-0.00023122353 -0.026519105 0.00095877924 -0.33462662 0.35412797 -0.87328023 0.0020038048
0.002339643 -0.026213134 0.00040239573 -0.18844236 0.31875262 -0.92891669 0.0015698267
0.0054162918 -0.026195886 0.00010207656 -0.01810039 0.27056992 -0.96253014 0.001297431
0.0084965965 -0.026205739 0.00027174398 0.12456736 0.23806439 -0.96322805 0.0014763721
0.011352689 -0.026241234 0.00088636565 0.2852692 0.20565911 -0.93612278 0.0015712118
0.013143577 -0.027099539 0.0013573383 0.42495674 0.18223335 -0.88668078 0.0018442542
0.00068077462 -0.024607539 0.0013674413 -0.35237512 0.34589168 -0.86959231 0.0024797325
0.0025981355 -0.023742702 0.0011745928 -0.2004316 0.28077707 -0.93861139 0.0018478172
0.0054246569 -0.02316265 0.00097273139 -0.057363849 0.2545943 -0.96534508 0.0016145578
0.0084801409 -0.023199998 0.0010232514 0.10901692 0.22238348 -0.96884513 0.0017200118
0.010824411 -0.023753475 0.0012845312 0.23528984 0.20833148 -0.94933492 0.0018362494
0.0061415606 -0.021287389 0.0014392053 -0.048146632 0.2368625 -0.97034949 0.0022015194
0.0078037358 -0.02128778 0.0014473215 0.066908836 0.21691012 -0.97389591 0.0013426133
0.0059036086 0.022713909 0.0013943427 -0.095515609 -0.2380154 -0.96655333 0.0013596932
0.0083566718 0.022594431 0.0013802961 0.039686378 -0.21630061 -0.9755199 0.0012342924
0.010178637 0.022876531 0.0014750873 0.10281913 -0.18992797 -0.9763993 0.0016048165
0.0006807709 0.026194423 0.0013709579 -0.34746075 -0.31828153 -0.88202488 0.0016540536
0.0026156004 0.025268234 0.0011539684 -0.19770466 -0.28112289 -0.93908614 0.0012617387
0.0054239207 0.024742197 0.00090132619 -0.077677235 -0.25216097 -0.96456265 0.0014051262
0.0085066073 0.02474086 0.00087723078 0.075577877 -0.22302654 -0.97187817 0.0015202056
0.011136472 0.025054596 0.0011675068 0.20138018 -0.20241967 -0.95836961 0.0015237775
0.013026628 0.026197627 0.0014230226 0.34455851 -0.21295647 -0.91429156 0.0015249001
-0.0021684468 0.029047638 0.0014368807 -0.46066982 -0.36361507 -0.8096711 0.0026491794
-0.00023145217 0.028106999 0.0010236405 -0.33340439 -0.320066 -0.88679147 0.0025670605
0.0023396569 0.027793534 0.00041690608 -0.20371863 -0.31294072 -0.92766738 0.0015751646
0.0054156682 0.027769255 4.379882e-05 -0.040270194 -0.28771448 -0.95686924 0.0011515775
0.0084939674 0.027774127 0.00011782162 0.1124981 -0.25024995 -0.96162319 0.0015052075
0.011346329 0.027806567 0.00061476545 0.24885567 -0.19522518 -0.94866115 0.0022233673
0.01346626 0.028053921 0.0012212106 0.35038066 -0.17239325 -0.92060524 0.00095152284
-0.0029367632 0.031147415 0.00081498909 -0.44431472 -0.38575006 -0.80856746 0.0031829192
-0.00050150347 0.030843006 7.6052966e-06 -0.26396197 -0.37997112 -0.88653594 0.0014679993
0.0023369321 0.030797595 -0.00062313816 -0.13533613 -0.35054547 -0.92671573 0.0016402333
0.0054070656 0.030781178 -0.00085207878 -0.0034943826 -0.30207306 -0.95327836 0.0017513683
0.0084810965 0.03079539 -0.00065655581 0.13276829 -0.25777423 -0.95703971 0.0016079645
0.011331028 0.030839404 -4.8222253e-05 0.30780303 -0.19728203 -0.9307723 0.0025475558
0.013850763 0.030844482 0.00089587818 0.44338825 -0.14882243 -0.88388842 0.0026067507
-0.0062730694 0.034375805 0.00077320135 -0.52409577 -0.49363157 -0.69401109 0.0021867577
-0.0036722282 0.033757001 -0.00027770514 -0.3341105 -0.47229952 -0.81566125 0.0016846725
-0.00071070495 0.033305798 -0.0010786538 -0.22696888 -0.4390333 -0.86933017 0.001784588
0.0020991641 0.032750648 -0.0013575341 -0.097504757 -0.39271581 -0.91447645 0.0015090115
0.0054013729 0.032625936 -0.0014459831 0.028858732 -0.33397171 -0.94214129 0.0015703031
0.0087316977 0.033235934 -0.0012637587 0.16346517 -0.26157156 -0.95124102 0.0016457717
0.011315838 0.033863481 -0.00070760667 0.336629 -0.19424632 -0.92138445 0.0027669265
0.014209286 0.033841819 0.00062968105 0.49969721 -0.12215745 -0.85754311 0.0033245066
-0.0089184018 0.037262756 0.00068973086 -0.59951764 -0.52608269 -0.60317129 0.0041117794
-0.0067933984 0.03661222 -0.00050477323 -0.44256684 -0.5174607 -0.73237222 0.0018874502
-0.0045088707 0.035747319 -0.0011901897 -0.32359797 -0.48754841 -0.81091362 0.002225914
0.011750678 0.036581676 -0.0010842944 0.40400788 -0.16211769 -0.90027523 0.0040016831
0.014180524 0.036782481 0.00026758329 0.57666296 -0.051532492 -0.81535524 0.0034005516
-0.011447754 0.040493809 0.00045689393 -0.68142802 -0.53202903 -0.50259411 0.0020965233
-0.0097571826 0.039397087 -0.00041409687 -0.60587603 -0.51815027 -0.60368413 0.0054733874
-0.0078137796 0.038313437 -0.0011497225 -0.5264501 -0.54806918 -0.64997733 0.0025119979
0.01234136 0.039579533 -0.0012406255 0.51028728 -0.079902031 -0.85628414 0.0031922478
0.014127018 0.039769895 5.2722986e-05 0.62085992 -0.014127534 -0.78379428 0.0043217107
-0.012700301 0.042721823 -0.00010726228 -0.70332128 -0.53105581 -0.47256616 0.0045164083
0.01248028 0.042778965 -0.0013418333 0.66002834 0.0057359925 -0.7512188 0.0027918112
0.014054067 0.042786919 0.00010687253 0.70442247 0.081477404 -0.70508903 0.0045168088
-0.015007708 0.0460645 7.9097459e-05 -0.80461884 -0.49325013 -0.33059448 0.0030493932
-0.013770312 0.044853259 -0.00090551033 -0.72747475 -0.53273541 -0.43240437 0.0058458271
0.01236567 0.045977868 -0.0012127358 0.66544265 0.10218634 -0.73942137 0.0032980649
0.013638977 0.045683648 0.00015991344 0.76721328 0.18090628 -0.61535078 0.003903822
-0.017332831 0.050092828 0.00069773837 -0.86979377 -0.44318789 -0.21689442 0.0015954325
-0.016353065 0.048501801 -0.00010122044 -0.86303985 -0.44314522 -0.24245498 0.0020291714
0.012118744 0.048937522 -0.00071396487 0.79159141 0.22818998 -0.56684422 0.0043592695
0.013264704 0.048386365 0.00065462396 0.78111213 0.24032182 -0.57628924 0.0042811963
-0.017754804 0.051489342 -0.0005140315 -0.86690891 -0.44864136 -0.21723221 0.001869975
0.011524311 0.051745154 -8.2547427e-05 0.80218828 0.3363494 -0.49331853 0.0028856071
-0.018671192 0.053891186 -0.0011543419 -0.88207376 -0.42446247 -0.2043955 0.0010016598
0.0093905758 0.055425532 -0.00076098525 0.78013748 0.42087194 -0.46287388 0.0027247821
0.010497726 0.054321907 0.00022052322 0.79555565 0.43198586 -0.42482859 0.0026259667
0.0068177707 0.059056673 -0.0013532724 0.73986912 0.55221659 -0.38425314 0.0017895799
0.0083553316 0.05770373 -0.00012320699 0.76309115 0.48109445 -0.43155542 0.0019281763
0.0059904805 0.06077287 -0.00033232756 0.73067296 0.61025804 -0.30610812 0.001270647
0.0075621498 0.059636902 0.0011536394 0.75644296 0.5821442 -0.2981647 0.0025524085
0.0024807495 0.064428568 -0.00013179437 0.63794732 0.69696528 -0.32750973 0.0011078068
0.0042290674 0.062730126 -0.00042506412 0.69328034 0.6362558 -0.33843905 0.0012358339
-0.0035620793 0.068009108 -0.0014343943 0.47680148 0.8138746 -0.33206695 0.0012215786
-2.6253983e-05 0.066284329 -0.00037328259 0.57494777 0.75976205 -0.30363914 0.0013928144
0.0094769821 -0.058406357 0.0020496016 0.84381759 -0.41471666 -0.34056118 0.0010303922
-0.019076265 -0.055613067 0.0025413102 -0.92987007 0.31284797 -0.19356625 0.00065547385
0.010660729 -0.055998001 0.0018064295 0.85989922 -0.3701818 -0.35148099 0.001228382
-0.018132068 -0.052539509 0.0027096113 -0.91841358 0.34729546 -0.1894791 0.0010971582
0.012197883 -0.052842762 0.0024563349 0.89013284 -0.32811284 -0.31623641 0.0013752215
-0.017555695 -0.050684925 0.0031613549 -0.92226577 0.34390426 -0.17650975 0.00078250573
-0.016931051 -0.049416117 0.0024629151 -0.89762795 0.38709149 -0.21077056 0.0016694214
0.012554269 -0.051212724 0.0015191053 0.89594078 -0.27446473 -0.34922665 0.0025599401
0.01336376 -0.049997844 0.002872671 0.89895529 -0.27550077 -0.34055662 0.002671465
-0.016145678 -0.047289863 0.0030597663 -0.89695722 0.37633523 -0.23203349 0.001549838
0.014293461 -0.047106866 0.0027558422 0.88675821 -0.2751312 -0.37143338 0.0033138748
-0.014796929 -0.044287492 0.0031806673 -0.85970229 0.39878306 -0.3191928 0.0020662674
-0.013816933 -0.04340918 0.0018642609 -0.81900251 0.44823956 -0.3582125 0.0020877288
0.015036944 -0.044232264 0.0026133778 0.88777351 -0.23757309 -0.39422983 0.0015670205
0.015966069 -0.043150123 0.004128716 0.91326857 -0.24045241 -0.32882106 0.001512395
-0.01413314 -0.042195503 0.0041411435 -0.83020234 0.43298402 -0.35112527 0.0020813176
-0.012897667 -0.04093501 0.002828252 -0.80778867 0.44145191 -0.39063752 0.0010080653
0.015326329 -0.041287553 0.0020536962 0.84453654 -0.110966 -0.52387458 0.0038586473
0.01615772 -0.04110337 0.0035120035 0.87123686 -0.17570119 -0.4583399 0.0027234487
-0.011770803 -0.038506065 0.0032125828 -0.77535361 0.43263081 -0.46006235 0.0020475718
-0.010462514 -0.037488367 0.0021132785 -0.7198841 0.44067869 -0.53625464 0.00028711773
0.015659504 -0.038197916 0.0020639263 0.80078328 -0.040105972 -0.59760988 0.0038727727
0.016640436 -0.038213938 0.0035345848 0.83882517 -0.10454395 -0.53426862 0.0036287582
-0.011264469 -0.036695387 0.0040683066 -0.7795651 0.4169279 -0.46738565 0.001883015
-0.0095727425 -0.03512051 0.0028805826 -0.73257339 0.44430104 -0.51568663 0.0011798284
-0.0078714099 -0.034125652 0.0016650473 -0.65989536 0.42891443 -0.61690408 0.0022286454
0.015675886 -0.035211999 0.0020070677 0.75303096 0.0174619 -0.65775335 0.0042802365
0.016874958 -0.035144743 0.0034745997 0.79294634 -0.044612821 -0.60765594 0.0042230603
-0.008710877 -0.032455832 0.0037964773 -0.69884378 0.40589711 -0.58895242 0.0016896547
-0.0070758509 -0.031922836 0.0023771846 -0.5888133 0.41930956 -0.69099814 0.002065686
0.015446572 -0.032038536 0.002012731 0.67844677 0.070935689 -0.73121697 0.0033065211
0.016896652 -0.032111246 0.003416182 0.78067768 0.0098286197 -0.62485653 0.0042203488
-0.0064040874 -0.029408036 0.0032815961 -0.62564039 0.40697822 -0.66553944 0.0036430554
-0.0044388636 -0.028783089 0.0020387559 -0.47754875 0.39423448 -0.78519189 0.0024467336
0.01505057 -0.029112492 0.0020866683 0.53553104 0.10601036 -0.83783549 0.0030676115
0.01680327 -0.029157551 0.0034719026 0.65961987 0.058850471 -0.74929178 0.0038215274
-0.0057982462 -0.026931239 0.0041068345 -0.67892581 0.34422728 -0.64851159 0.0024094384
-0.0036619459 -0.026176982 0.0028098766 -0.48329717 0.37364522 -0.7917152 0.0017476439
-0.0012202625 -0.025575751 0.0017018471 -0.34755084 0.36217511 -0.86489171 0.002260234
0.014369166 -0.02620925 0.0021324866 0.46910778 0.14935175 -0.87042063 0.0027428989
0.016665978 -0.026161229 0.0036359918 0.6032728 0.07652507 -0.79385513 0.0031922022
-0.0030249003 -0.023330418 0.0036342861 -0.5527963 0.31962985 -0.76957977 0.0029967886
-0.00053944357 -0.023196934 0.0023389431 -0.36361274 0.32981849 -0.87120926 0.0016219708
0.0019660247 -0.022363795 0.001748066 -0.21476153 0.32083708 -0.92246473 0.0017019698
0.0097045917 -0.021766022 0.0015190755 0.085689619 0.22928931 -0.96957916 0.0019437823
0.011817327 -0.022728715 0.0017799366 0.2291083 0.22694594 -0.9465754 0.0018355933
0.014248963 -0.023244651 0.002587894 0.40562648 0.16162014 -0.89963663 0.0021794371
0.016531441 -0.023167666 0.0038904287 0.59949946 0.098280415 -0.79431814 0.0033146052
-0.0024881479 -0.020878216 0.0042124083 -0.55960608 0.28079766 -0.7797395 0.0021210222
-0.00051447726 -0.020184375 0.0033786087 -0.41889635 0.27557775 -0.86520678 0.0024131704
0.0023447273 -0.020138877 0.0023343214 -0.23317158 0.27731571 -0.93205529 0.0019111241
0.0053580124 -0.0199924 0.0018410316 -0.10111642 0.26003972 -0.96028894 0.0013085145
0.0085867811 -0.020007692 0.0017996427 0.053839501 0.24542762 -0.96791869 0.0011927404
0.011382861 -0.020132836 0.0021928805 0.22312297 0.20051451 -0.9539445 0.0021444745
0.014264644 -0.020173315 0.0031195157 0.40588215 0.15654421 -0.90041858 0.0030050883
0.016348923 -0.020361489 0.0041431701 0.55759257 0.11068401 -0.82270265 0.0028088153
-7.8500714e-05 -0.017503971 0.00396568 -0.43458733 0.24274866 -0.86729866 0.0026362538
0.002346721 -0.017312182 0.0030931565 -0.28409421 0.23264065 -0.93014449 0.0021870849
0.005439193 -0.017289519 0.0024826662 -0.11265024 0.23105918 -0.96639621 0.001374003
0.0085318172 -0.017286018 0.0023877313 0.045441862 0.21225379 -0.97615743 0.0013040584
0.011395965 -0.017299889 0.0027601114 0.21052927 0.18621357 -0.95968843 0.0011472682
0.014279213 -0.017331634 0.0036127144 0.35792527 0.14087459 -0.92306221 0.0018986576
0.01605265 -0.017756991 0.0043351767 0.51324904 0.11681415 -0.85025293 0.0018302947
0.00051824527 -0.015127663 0.004322282 -0.46129164 0.20523715 -0.86318463 0.0023650937
0.0023777839 -0.014270885 0.0038201441 -0.29668882 0.2032876 -0.93308628 0.0019810975
0.0054455427 -0.014215491 0.0031418651 -0.15044279 0.19581081 -0.96903306 0.0019674811
0.0085415915 -0.014210489 0.0029751374 0.073503591 0.17543584 -0.98174304 0.0033036941
0.011408486 -0.014220359 0.0033016107 0.20041941 0.15265457 -0.96774411 0.0015244863
0.014142308 -0.014358023 0.0040081977 0.32475618 0.1269501 -0.93723911 0.0014835903
0.0028848173 -0.011358485 0.0042252955 -0.30407092 0.15868068 -0.93934089 0.0025890246
0.0054509048 -0.011129992 0.0036987048 -0.16207145 0.1498113 -0.97534066 0.0020078919
0.0085501019 -0.0111251 0.0034862068 0.045578755 0.1425294 -0.98874056 0.0026891406
0.011418805 -0.011131213 0.0037483363 0.17375052 0.11987606 -0.97746634 0.001526972
0.013676235 -0.011238362 0.0042446125 0.30856013 0.10661519 -0.94521099 0.0017678213
0.0034263879 -0.0091151204 0.0044200039 -0.25516814 0.12277614 -0.95906997 0.00034809022
0.0054895631 -0.0083018346 0.0040815128 -0.15544704 0.10300706 -0.98245907 0.0015608683
0.008555931 -0.008268605 0.003836357 -0.026997183 0.10964955 -0.99360353 0.001860374
0.011425896 -0.0082722828 0.0040553296 0.14361238 0.087438643 -0.98576361 0.0012715894
0.01326581 -0.0085168807 0.0043861088 0.29710484 0.08460249 -0.95108944 0.0016437891
0.0059948 -0.0053492133 0.0043180566 -0.15982129 0.077304155 -0.98411447 0.0018240123
0.0085609825 -0.0051681967 0.0041397675 -0.011220056 0.069204219 -0.9975394 0.0025408629
0.011305657 -0.0052452451 0.0042971242 0.12174211 0.062697023 -0.99057961 0.0011592564
0.0065737204 -0.0023822736 0.0044228374 -0.070781283 0.036084354 -0.99683899 0.0013294154
0.0085639292 -0.0020632257 0.0043172431 -0.013739346 0.032290611 -0.99938405 0.0019303502
0.010945166 -0.0021985809 0.0043951189 0.11102913 0.030164581 -0.99335927 0.0013510623
0.0068929866 0.00080499932 0.0044634109 -0.075054638 0.0065267091 -0.99715811 0.001175497
0.0085649015 0.00080467487 0.0043759411 -0.014891521 0.002163976 -0.99988681 0.0016873642
0.010767442 0.0008677601 0.0044233357 0.10221623 5.2606414e-05 -0.99476218 0.0014153168
0.0068244422 0.0038442665 0.0044447994 -0.075352028 -0.029227508 -0.99672854 0.001414687
0.0085643334 0.0036724636 0.0043424857 -0.01579738 -0.027453871 -0.99949825 0.0019763072
0.011003482 0.0037208654 0.0044002915 0.100008 -0.031403713 -0.99449092 0.0013006256
0.0062222015 0.0070088552 0.0043469141 -0.17971529 -0.071246579 -0.98113519 0.0017350944
0.0085612638 0.0067760861 0.0041586845 -0.022106363 -0.07044027 -0.99727106 0.0023103477
0.011371212 0.0068379021 0.0042765937 0.10920221 -0.059077479 -0.99226242 0.001065198
0.013108345 0.0079766456 0.0044563776 0.26479602 -0.067444429 -0.96194297 0.001610192
0.0056678681 0.0099881906 0.0041689142 -0.17179805 -0.11040329 -0.97892624 0.001637641
0.0085566742 0.0098750461 0.0038837204 -0.050866496 -0.1109308 -0.99252552 0.0019071283
0.011424867 0.0098782014 0.0040133172 0.12199973 -0.10501291 -0.9869591 0.0012346277
0.013553549 0.010095464 0.0043456042 0.25684041 -0.10290494 -0.96095979 0.0016521389
0.0030990699 0.013055149 0.0042879777 -0.3252598 -0.17806543 -0.92870814 0.0025720345
0.0054517295 0.012737015 0.0037890915 -0.1896791 -0.18092419 -0.96503276 0.0018632378
0.0085500143 0.012727662 0.0034839734 -0.059755217 -0.16115843 -0.98511785 0.0026587751
0.011416253 0.012732512 0.0036409437 0.14272781 -0.14464538 -0.97913557 0.0014674624
0.014039113 0.012854983 0.0041384683 0.26754308 -0.1269919 -0.95514071 0.0014982664
0.00048636828 0.016911937 0.0043226755 -0.45983365 -0.23453136 -0.85647422 0.0020310411
0.0024283328 0.015939647 0.0038362946 -0.30924648 -0.22997195 -0.92275649 0.001700797
0.0054455767 0.015815744 0.0031496533 -0.16780467 -0.21605499 -0.96185333 0.0018052235
0.0085405 0.015806833 0.0029122368 -0.006220378 -0.20999341 -0.97768295 0.0010075895
0.011404213 0.01581472 0.0031201448 0.17459902 -0.17259224 -0.96939516 0.00198936
0.014283638 0.015839133 0.0037662312 0.29494867 -0.14847894 -0.94390637 0.0017093614
0.016092457 0.016338747 0.0043345457 0.44739881 -0.13458855 -0.88414937 0.0018948929
-7.8503042e-05 0.019110423 0.003970426 -0.43540877 -0.25679225 -0.86283076 0.0023586764
0.0023466824 0.018911429 0.0030835238 -0.29164863 -0.24931964 -0.92346132 0.001949808
0.0054385937 0.018882059 0.002425787 -0.12942086 -0.24573474 -0.96065843 0.0012150755
0.008529528 0.018874403 0.0022538006 0.023482908 -0.21632764 -0.9760384 0.0010407043
0.011390227 0.018886102 0.0025148862 0.16893756 -0.20206943 -0.96469069 0.0010714855
0.01426764 0.018917905 0.0032253126 0.32903111 -0.16194166 -0.9303298 0.0021529286
0.016469365 0.019089615 0.0040944004 0.47856858 -0.13203344 -0.86806643 0.0024992193
-0.0024550231 0.02233422 0.0042233481 -0.55828351 -0.28422403 -0.77944607 0.001978375
-0.0005143407 0.021784287 0.003340303 -0.42168102 -0.27870142 -0.86285031 0.0020952001
0.0023445755 0.021730224 0.0022830381 -0.24900742 -0.28096873 -0.92685056 0.0014349434
0.0053029843 0.021424526 0.0017933281 -0.11705505 -0.2616697 -0.95803291 0.0012550687
0.0085997377 0.021246143 0.0017167815 0.024112027 -0.24701834 -0.96871072 0.0010838078
0.011411058 0.021679269 0.0019482264 0.17097881 -0.22417085 -0.95943409 0.0010398119
0.014252448 0.02175229 0.0027110758 0.32478741 -0.15695903 -0.93267196 0.0019869392
0.016806221 0.021890549 0.0038544307 0.51191413 -0.1233836 -0.8501296 0.0030436292
-0.0030284678 0.024979299 0.0036089765 -0.55423462 -0.3080211 -0.77327031 0.0028485495
-0.00053942017 0.024790565 0.0023327391 -0.36947507 -0.31800881 -0.87313145 0.0013668847
0.0018978952 0.023960132 0.0017447759 -0.23018493 -0.3094514 -0.92263466 0.0014512778
0.01208211 0.023834912 0.001628915 0.20276205 -0.21623369 -0.9550553 0.0014228108
0.014304599 0.024816656 0.0021762401 0.35565412 -0.19023366 -0.91505265 0.0014120103
0.017015448 0.024772581 0.0035869665 0.55183136 -0.11526132 -0.82595217 0.0034648676
-0.0058055841 0.028749866 0.0040892791 -0.68623006 -0.34479675 -0.64047134 0.0031877425
-0.0036747484 0.027812855 0.0028769495 -0.48389024 -0.36818528 -0.79390794 0.0020527572
-0.0012205612 0.027168185 0.0017523711 -0.35774583 -0.35045329 -0.86556363 0.0021966719
0.015072569 0.027769351 0.0020039226 0.45062724 -0.13333179 -0.88269907 0.0026989246
0.017404469 0.02779701 0.0034808274 0.60513794 -0.098538689 -0.78999889 0.003895276
-0.0064043561 0.031010298 0.0032986253 -0.64552945 -0.44433182 -0.62117696 0.0021052633
-0.0043754294 0.030413611 0.0020256634 -0.48004922 -0.40535343 -0.77797252 0.0026358191
0.015550311 0.030602777 0.0018419625 0.57483292 -0.10632735 -0.81133324 0.0025541957
0.017365541 0.030834509 0.0031808424 0.67295516 -0.053781625 -0.73772544 0.0034584708
-0.0088001704 0.034242801 0.0033376059 -0.6793654 -0.49508953 -0.54161704 0.0017334202
-0.00709284 0.033232793 0.0023449375 -0.60851169 -0.47961527 -0.63220471 0.0052590114
0.015825223 0.033637851 0.0016896677 0.64412081 -0.063230902 -0.76230592 0.0030920645
0.017329751 0.033737537 0.0030378192 0.70957947 -0.022084124 -0.7042793 0.0044528246
-0.011413305 0.037712511 0.0036992198 -0.75842351 -0.50558305 -0.41131446 0.0024806731
-0.0099714212 0.036493164 0.0027085622 -0.733495 -0.49871477 -0.46181026 0.0013803644
0.015880272 0.036893353 0.0015603915 0.71830416 -0.00044679263 -0.69572908 0.0038990651
0.017245276 0.03668246 0.0030351607 0.76225269 0.066323958 -0.64387262 0.0046132822
-0.012360835 0.039828781 0.0028980277 -0.76215369 -0.50719124 -0.40234166 0.0023092935
-0.010718255 0.03855266 0.0015248571 -0.65540838 -0.53509772 -0.53302002 0.0023250626
0.015884789 0.039755937 0.0016955648 0.77296525 0.068331689 -0.63075787 0.0043855854
0.017026162 0.039725568 0.0032165293 0.84638685 0.13657188 -0.51475954 0.0028661233
-0.01450592 0.043323208 0.0031036353 -0.84229332 -0.46914908 -0.26540744 0.0015079075
-0.013591754 0.04221765 0.0022351826 -0.81045276 -0.49226207 -0.31756005 0.0012210662
0.015683968 0.042716481 0.0020056679 0.8162573 0.14918846 -0.55809212 0.0041006338
0.016549697 0.042711675 0.0034190766 0.84368575 0.21156682 -0.49339014 0.0028561284
-0.015515821 0.045470674 0.0027978849 -0.83923048 -0.47400597 -0.26647806 0.0017888545
0.015093896 0.045943424 0.0024343729 0.84640098 0.2665495 -0.46103877 0.0045118947
0.016048422 0.045051184 0.0037329053 0.87210095 0.30720249 -0.380876 0.003328929
-0.016624389 0.047867473 0.0027301325 -0.86830777 -0.43890828 -0.23108673 0.0016743785
0.014326164 0.048747607 0.0028930395 0.84695649 0.33503035 -0.41281885 0.0024738978
-0.018107969 0.051690023 0.0021727746 -0.86835223 -0.44685251 -0.21514463 0.00160954
0.012460925 0.05256385 0.0025048545 0.84289163 0.4153913 -0.3420288 0.0016511462
0.013217978 0.051110774 0.0026278114 0.84507018 0.38258985 -0.37347203 0.0025726785
0.011370001 0.054751631 0.0027688988 0.82007468 0.47693551 -0.31624383 0.0014589693
0.0090526119 0.058121193 0.0022387658 0.78226954 0.55144328 -0.28976655 0.0012487603
0.010460061 0.056626763 0.0035552597 0.8130573 0.50134116 -0.29596412 0.00065956509
0.0063888468 0.061454441 0.0022625639 0.73627049 0.61295819 -0.28668457 0.00072571845
0.0073589655 0.060688484 0.0035968041 0.7571429 0.60050344 -0.25715807 0.00094894896
0.004722097 0.063092947 0.0020779809 0.70111096 0.64407247 -0.30596396 0.0013942806
-0.017791532 -0.050514702 0.0058970517 -0.92172933 0.34597194 -0.17526697 0.00058264093
0.013603344 -0.050659548 0.0050591147 0.91190052 -0.32276386 -0.25349757 0.001177737
-0.016585028 -0.046993297 0.0057197008 -0.90125513 0.37826648 -0.2113141 0.0011089703
0.015042925 -0.047079306 0.0051610311 0.91847974 -0.31487763 -0.23926349 0.00092408253
-0.015453231 -0.044038422 0.0059062159 -0.89200342 0.3850629 -0.23676261 0.00083420868
0.015505202 -0.045352291 0.0046512401 0.92339391 -0.28484812 -0.25730368 0.001820354
0.016210699 -0.044019964 0.0057077147 0.92267507 -0.28594798 -0.25865909 0.0017052585
-0.014405297 -0.041449185 0.0060708565 -0.88908929 0.38776734 -0.24322158 0.001169172
-0.013703522 -0.040172633 0.0055826819 -0.86860865 0.40950298 -0.27897358 0.0016831956
0.017025381 -0.041093003 0.0056877797 0.91749841 -0.21720816 -0.33319253 0.0013864362
-0.012820851 -0.038062613 0.0059517459 -0.86597449 0.39611116 -0.30526084 0.0015518036
0.017676042 -0.037964147 0.0056254324 0.90370178 -0.16956672 -0.39315423 0.0022360273
-0.01163936 -0.035493053 0.006020145 -0.83888823 0.39470699 -0.37479714 0.0019910061
-0.010654285 -0.034461997 0.0050705886 -0.81230903 0.40925723 -0.41552687 0.0015962975
0.018177422 -0.035151742 0.0057265898 0.89757466 -0.12113003 -0.42389536 0.0033645879
0.01895643 -0.034305256 0.0072339987 0.91847908 -0.16957608 -0.35726762 0.0028363306
-0.011359139 -0.033599135 0.007447294 -0.88258898 0.35744643 -0.30539921 0.0014963421
-0.0099479463 -0.032258071 0.0058378763 -0.81065094 0.39804959 -0.42942005 0.0010068942
0.018212136 -0.032144252 0.0051888945 0.85923088 -0.052685831 -0.50886786 0.0031995778
0.019077143 -0.032110371 0.0068131685 0.88738096 -0.11108647 -0.44745374 0.0026521666
-0.008900797 -0.029515024 0.0063240146 -0.78121465 0.37673479 -0.49776956 0.0019008568
-0.0076823328 -0.02864353 0.0051806266 -0.75418371 0.38440466 -0.53239089 0.001963662
0.018427657 -0.029284507 0.0053417645 0.8178165 -0.0086776819 -0.57541358 0.0034396641
0.019424528 -0.028993256 0.0069164 0.85559535 -0.06366048 -0.51371598 0.0031226068
-0.0084673399 -0.027331367 0.0072714007 -0.78140569 0.35022363 -0.51647717 0.0017177466
-0.0069001243 -0.026040789 0.005873905 -0.75286794 0.37090042 -0.54371196 0.0013255302
-0.0050610425 -0.024778396 0.0045385277 -0.6748656 0.36097944 -0.6436227 0.0023827504
0.018375363 -0.02618243 0.0052641337 0.78017014 0.021360658 -0.62520266 0.004041736
0.019616878 -0.025915783 0.0069124522 0.81721514 -0.027146647 -0.57569313 0.0036524525
-0.0061247312 -0.023364563 0.0064540012 -0.71185195 0.32196191 -0.62418532 0.0026344664
-0.004622255 -0.022829229 0.0050981576 -0.63646233 0.32988718 -0.69720167 0.00087719294
0.018226441 -0.023055505 0.0052939649 0.73406005 0.051953711 -0.67709428 0.0038223674
0.019664651 -0.023223331 0.00690585 0.77814478 -0.003587049 -0.62807477 0.0042921286
-0.0053564804 -0.020622252 0.0068989201 -0.71459049 0.27453282 -0.64342219 0.0021040975
-0.003654283 -0.020087086 0.0054569077 -0.64413106 0.30184934 -0.7028386 0.0046061305
0.018031795 -0.020192716 0.0053877602 0.6052866 0.070196167 -0.79290646 0.0032250527
0.019666569 -0.020340806 0.0069523789 0.72801811 0.024748776 -0.68511105 0.0040052044
-0.0032916158 -0.017300801 0.0061846511 -0.6338976 0.26284215 -0.72738427 0.0035431599
-0.0013649078 -0.016787918 0.00486561 -0.48131835 0.2555356 -0.83847129 0.0025339774
0.017470056 -0.017128855 0.0053105834 0.55849421 0.088104129 -0.82481623 0.0024153031
0.019447897 -0.017141279 0.006891977 0.72468168 0.049035914 -0.6873368 0.0037234519
-0.0027853735 -0.014179476 0.0067221336 -0.66651464 0.2170352 -0.71319985 0.0026427011
-0.00064483611 -0.013988456 0.0052339705 -0.48595574 0.22428122 -0.84471595 0.0019439748
0.0011555576 -0.012823863 0.0045561111 -0.4023754 0.23059787 -0.88595635 0.0050026122
0.015408376 -0.013399358 0.0046143569 0.37059131 0.11039397 -0.92221212 0.0019646282
0.017177183 -0.014091359 0.0054620905 0.51170611 0.0890342 -0.85453486 0.0018404035
0.019288411 -0.014227552 0.0069414908 0.68330419 0.04799331 -0.72855473 0.0032386931
-0.0024035596 -0.011401011 0.0070908526 -0.67609245 0.16886522 -0.71720546 0.0027704455
-0.00052387372 -0.011178861 0.005811736 -0.48811126 0.17289613 -0.85548484 0.0017202612
0.0016020117 -0.010852118 0.0047783926 -0.35454398 0.17550929 -0.9184199 0.0027680544
0.015089838 -0.011034876 0.0047486974 0.3501156 0.096053615 -0.9317686 0.0018664295
0.017220441 -0.011178014 0.0057661855 0.46931136 0.074457094 -0.87988806 0.001626477
0.019189594 -0.011207765 0.0070487671 0.65188801 0.043198705 -0.75708383 0.002804151
-0.0022133267 -0.009290589 0.007386676 -0.68980527 0.13708477 -0.71089834 0.0025135078
-0.00052591099 -0.0083103403 0.0063393563 -0.54032391 0.13820998 -0.83002895 0.0031959994
0.0022171242 -0.0081827473 0.0049606347 -0.36196825 0.13182315 -0.92282259 0.0022327136
0.0040246742 -0.0070848302 0.0045255935 -0.25281674 0.1230243 -0.95966077 0.00040610315
0.014661505 -0.0082060648 0.0048601688 0.3374925 0.077977724 -0.93809289 0.0013739408
0.017228447 -0.008304636 0.0059890868 0.48013625 0.051537476 -0.8756786 0.0040197996
0.019196406 -0.0083251763 0.0072173961 0.62919366 0.033520814 -0.77652538 0.0023224419
-0.00032662018 -0.0052325372 0.0066464273 -0.53765142 0.098225109 -0.83742636 0.0030427515
0.0023524975 -0.0051792795 0.0052880612 -0.35183206 0.11378459 -0.92912179 0.0021935985
0.0044474667 -0.0048356047 0.0046515958 -0.2026332 0.088042364 -0.97528887 0.0019609467
0.012632707 -0.0044549839 0.0045520207 0.15941416 0.054641396 -0.98569852 0.0014705855
0.014319088 -0.0051762159 0.0049624429 0.30977589 0.047307443 -0.94963199 0.0015644239
0.017234255 -0.0051877643 0.0061511244 0.46775734 0.036036983 -0.88312191 0.0024951466
0.019101765 -0.0054873507 0.0072571877 0.61251956 0.018457698 -0.79023993 0.0020111233
-9.4510964e-05 -0.0021179456 0.0067794314 -0.5452469 0.055161886 -0.83645862 0.0033366303
0.0023531471 -0.0020664798 0.0055376557 -0.34976944 0.055415239 -0.93519545 0.0023060343
0.0050144815 -0.0019368157 0.0047316197 -0.21570233 0.053828638 -0.97497427 0.0017938582
0.012302722 -0.0018249035 0.0045937882 0.14866528 0.025224907 -0.98856574 0.0014751524
0.014322469 -0.0020653093 0.005077031 0.29876763 0.020146819 -0.95411325 0.0014963555
0.017236978 -0.0020684411 0.0062271738 0.44902492 0.0099360906 -0.89346403 0.0022401726
0.018955147 -0.0020710735 0.007201897 0.59970027 0.00087257626 -0.80022424 0.0020225616
-4.6639994e-05 0.00081409834 0.0068691401 -0.55219245 0.016476508 -0.83355391 0.0034572589
0.0023534009 0.00080944813 0.005636259 -0.40367681 0.016698413 -0.91474921 0.0028886781
0.0052220048 0.0008061488 0.0047637695 -0.22479787 0.01312593 -0.97431701 0.001656962
0.012183833 0.00073517632 0.0045985286 0.14273055 -0.0050598606 -0.98974866 0.0015104319
0.014322909 0.00080736371 0.0050924807 0.28806341 -0.011493694 -0.9575423 0.0016059495
0.017236497 0.00081158691 0.0062142834 0.44386744 -0.013669842 -0.89598823 0.0024789814
0.019118428 0.0010562686 0.0072726263 0.59592777 -0.018033639 -0.80283546 0.0023799448
-4.6644942e-05 0.0036983353 0.0068706758 -0.55388647 -0.030492324 -0.83203357 0.0036129002
0.0023533804 0.0036856413 0.0056307977 -0.41065782 -0.038271572 -0.91098601 0.0029383418
0.0051877527 0.003642529 0.0047546388 -0.22434764 -0.037263386 -0.97379649 0.0018192757
0.012416082 0.0035662206 0.0045804596 0.13589853 -0.033418182 -0.99015898 0.0015136705
0.014320835 0.0036794089 0.0050226608 0.28638324 -0.040085729 -0.95727628 0.0014340804
0.017233176 0.0036906435 0.0061226604 0.4440769 -0.040698558 -0.895064 0.0025191219
0.019196896 0.003701973 0.0072296727 0.59607738 -0.039569661 -0.80195135 0.0026154655
-0.00019665353 0.0069109285 0.0067453878 -0.54230064 -0.073373154 -0.83697456 0.0027863921
0.0023528566 0.0067980415 0.0054322239 -0.36490387 -0.077818662 -0.92778742 0.0019688392
0.0046634595 0.0065462473 0.0046944288 -0.22165124 -0.077837802 -0.97201437 0.0016492944
0.012632359 0.0055872961 0.0045384979 0.11580355 -0.075629957 -0.99038863 0.0014258741
0.014376065 0.0067285821 0.004869475 0.28866225 -0.071033746 -0.95479232 0.001468798
0.017226513 0.006806781 0.0059380461 0.45092455 -0.068148896 -0.88995659 0.0023176635
0.019281633 0.0069771451 0.0070933988 0.59505916 -0.054499261 -0.80183196 0.0023987491
-0.0004173381 0.010004863 0.0065338509 -0.54305375 -0.13162646 -0.82931727 0.0035390675
0.0023520291 0.0099048819 0.0051160171 -0.37599412 -0.13435268 -0.9168303 0.0022394813
0.0041844528 0.0092545049 0.0045845076 -0.21164556 -0.11665044 -0.97036022 0.0020065841
0.014910745 0.0097288955 0.0047576446 0.29825291 -0.098461598 -0.94939476 0.0016838385
0.017217003 0.0099184895 0.0056742397 0.42078665 -0.08439789 -0.90322506 0.0016970028
0.019426703 0.0099497493 0.0069632465 0.60030735 -0.066328727 -0.79701418 0.0024428165
-0.0023496463 0.013289517 0.0072283661 -0.68414462 -0.18258999 -0.70612109 0.0032009294
-0.00052474672 0.012805933 0.0060360893 -0.47877261 -0.18896139 -0.85736245 0.0014812287
0.0018161968 0.012553546 0.0048600365 -0.37037537 -0.19550996 -0.90807372 0.0023459031
0.015367383 0.012318444 0.0046145064 0.31226081 -0.11673569 -0.94279683 0.0019526805
0.017295761 0.012837335 0.0054070349 0.45633003 -0.10515016 -0.88357586 0.0018962559
0.019663827 0.012832337 0.0068806801 0.61669838 -0.077251516 -0.78339982 0.002578374
-0.0027655624 0.01587677 0.0067738984 -0.66313738 -0.24669482 -0.70667571 0.0024469288
-0.00061623123 0.015564208 0.0053279549 -0.48560855 -0.25466701 -0.83625901 0.0016604853
0.0013149483 0.014595619 0.0046023144 -0.33244288 -0.2166488 -0.91790253 0.0022544349
0.017667938 0.015589791 0.0052620964 0.49335393 -0.11200105 -0.86258775 0.0021751719
0.019899862 0.015712671 0.0067800647 0.64972687 -0.078780614 -0.75607443 0.0028352628
-0.0032557035 0.018925399 0.0061526732 -0.63478428 -0.27705237 -0.72131187 0.003684273
-0.0012971723 0.018333446 0.0048709689 -0.48227939 -0.26952237 -0.83352524 0.0022682562
0.018096147 0.018630782 0.0051080603 0.53067076 -0.10138731 -0.8414923 0.002872105
0.020047314 0.018868275 0.0066240523 0.70402998 -0.069557846 -0.70675564 0.0032738475
-0.0053348006 0.022087339 0.0069128834 -0.72024632 -0.27821273 -0.63548642 0.0022644522
-0.0037079109 0.02172347 0.005441559 -0.64296657 -0.30461481 -0.70271176 0.0043143569
0.018483391 0.021724483 0.0049690125 0.65687686 -0.090645716 -0.74852931 0.0031265353
0.020157671 0.021879179 0.0065033464 0.74974602 -0.051598839 -0.65971082 0.0027555702
-0.0061244853 0.024988739 0.0064393571 -0.7198875 -0.31016833 -0.62093282 0.0027817658
-0.0046220766 0.024443276 0.0050851321 -0.63884699 -0.31908697 -0.70004147 0.00086757081
0.018702127 0.024494287 0.0048544356 0.69628137 -0.069326326 -0.71441305 0.0029195733
0.020120647 0.024817355 0.0063092676 0.79344219 -0.018724676 -0.60835755 0.0024378973
-0.0084714657 0.028975353 0.0074627912 -0.78821421 -0.34820294 -0.5074181 0.0023139855
-0.0067907777 0.027682787 0.0058272695 -0.76172566 -0.36637151 -0.534365 0.0018360069
-0.005061355 0.026390389 0.0045608198 -0.67645651 -0.34196955 -0.6522755 0.0027939391
0.018856689 0.027836006 0.0047324556 0.74995494 -0.039446265 -0.6603117 0.0035648281
0.020050826 0.027603902 0.0062057371 0.80949098 -0.0022928331 -0.58712786 0.0042189993
-0.0087967254 0.031162782 0.0062103467 -0.78751731 -0.4030183 -0.46625394 0.0031573104
-0.0076837176 0.030263841 0.0052507734 -0.75686759 -0.38882101 -0.52532822 0.0024447255
0.018853357 0.030939801 0.0046488806 0.72647536 0.0050846157 -0.68717378 0.0031078698
0.019844437 0.030726688 0.0060260985 0.84318656 0.06228542 -0.53400081 0.0038693058
-0.011346923 0.035196457 0.007011286 -0.81252879 -0.49330115 -0.31056547 0.0031981778
-0.0099762632 0.03371112 0.0058160997 -0.80900955 -0.45763189 -0.36888558 0.0015742609
0.018860916 0.033824712 0.0048384485 0.84031355 0.062430684 -0.53849375 0.0038922573
0.019743849 0.033735059 0.0063281376 0.87219071 0.11156811 -0.47627294 0.0034431855
-0.01188508 0.036900371 0.0059714667 -0.84243655 -0.44381094 -0.30550355 0.0026269197
-0.01080986 0.035745639 0.0049252426 -0.80213332 -0.4767431 -0.35958043 0.0020095094
0.018717939 0.036970288 0.0052521806 0.88740849 0.16962548 -0.4286412 0.0022834081
0.019495256 0.036451623 0.0066848062 0.8905254 0.16519964 -0.4238793 0.0023261618
-0.014242801 0.040995885 0.0073212897 -0.87868285 -0.43187642 -0.20346826 0.001038613
-0.013175528 0.03946 0.0057140971 -0.87244457 -0.43394852 -0.22478704 0.0014839794
0.018315043 0.039729089 0.0055659451 0.89255631 0.21602809 -0.39582202 0.0042054802
0.018941499 0.039270271 0.0068595624 0.91631204 0.25235522 -0.31094882 0.003109247
-0.014663705 0.042514231 0.005620223 -0.87106049 -0.44890237 -0.19934957 0.0010929608
0.017621854 0.042613413 0.0058217584 0.90338558 0.26831111 -0.33451986 0.0016860632
-0.015841983 0.045336109 0.0051061874 -0.87705392 -0.44141719 -0.18954502 0.00051540585
0.016495183 0.045765493 0.0056082481 0.89798909 0.31865799 -0.30343464 0.00069988129
0.015151183 0.04897739 0.0055497563 0.87717104 0.35340706 -0.3250761 0.001046991
0.016063789 0.047703598 0.0070540821 0.89370543 0.34658551 -0.28490177 0.00068203209
0.013899493 0.051445205 0.005346105 0.86067796 0.38789055 -0.3298097 0.001453689
0.012652063 0.053739998 0.0053004539 0.84386003 0.46460423 -0.26840875 0.001115269
0.0097666429 0.057974014 0.0047181761 0.79826993 0.54165882 -0.26338354 0.001287045
0.015609562 -0.046639409 0.0078794276 0.91851985 -0.31309912 -0.24143364 0.00096156803
-0.015948024 -0.044470441 0.0078735566 -0.90125448 0.37844735 -0.21099263 0.00018182686
0.016804293 -0.043480929 0.0075995987 0.9226824 -0.2859109 -0.25867358 0.00172303
-0.014856936 -0.041180599 0.0087900572 -0.9022162 0.37604013 -0.21118654 0.00032193636
0.017784741 -0.040632989 0.0080655878 0.93157983 -0.2093208 -0.29722688 0.001023468
-0.01432653 -0.039331336 0.0097494042 -0.90740919 0.36492947 -0.20841084 0.00024624635
-0.013610256 -0.038023792 0.0085691307 -0.89577031 0.38252014 -0.22643736 0.00060075946
0.01838908 -0.038347922 0.0081136068 0.92903233 -0.21326499 -0.30235252 0.00097431551
0.019075477 -0.037192564 0.010219864 0.94444948 -0.18594825 -0.2709952 0.0004673262
-0.012536914 -0.035317779 0.0087428093 -0.89066428 0.36624849 -0.26940516 0.00172322
0.019228199 -0.035357289 0.008851788 0.93938905 -0.15791883 -0.30431873 0.0015792305
-0.011589517 -0.032639463 0.0091997338 -0.88722503 0.35975692 -0.28880215 0.0012561852
-0.010741629 -0.031334076 0.00835397 -0.86614072 0.38095209 -0.32353628 0.0012248869
0.019738447 -0.032241412 0.0086800698 0.93657744 -0.12899092 -0.32585898 0.0010568723
-0.0099822292 -0.029097516 0.0088315522 -0.85546774 0.35946131 -0.37277678 0.002538936
0.020199874 -0.028995831 0.0086964555 0.92846602 -0.1143886 -0.35336393 0.0020444514
-0.0089893369 -0.026373848 0.0090518985 -0.85845262 0.31696928 -0.40322402 0.0022048552
-0.008001782 -0.025207549 0.0080326712 -0.81711197 0.34245181 -0.46373999 0.0011907102
0.020612421 -0.026361577 0.0089519685 0.90547293 -0.09413597 -0.41383231 0.003690429
-0.0085233627 -0.024097517 0.0098707993 -0.85096061 0.30703977 -0.42613679 0.0022603374
-0.0075326338 -0.023126399 0.0086639794 -0.82483661 0.31769532 -0.46766895 0.0015140137
0.020897903 -0.023205932 0.0089710215 0.90310729 -0.063685365 -0.4246662 0.0021931021
-0.0065710586 -0.020182677 0.0088627804 -0.80388284 0.29755595 -0.51500756 0.0038580138
0.020975566 -0.020253286 0.0088175852 0.84882855 -0.044864245 -0.52676123 0.0057723741
-0.0057174535 -0.017224921 0.0090199765 -0.80773425 0.24444072 -0.53648305 0.0023482936
-0.0045045842 -0.016162587 0.0077937609 -0.70152766 0.24972379 -0.66745567 0.0022211731
0.020917684 -0.017124603 0.008630597 0.84101731 -0.012941773 -0.54085344 0.0034574002
0.021985965 -0.016854653 0.010318157 0.87483013 -0.023753291 -0.48384717 0.0033036096
-0.0053533842 -0.014281329 0.0096973749 -0.80960512 0.2022109 -0.5510447 0.0024541547
-0.0042091371 -0.01400778 0.0082405275 -0.77938581 0.20947452 -0.5904898 0.0024169085
0.020761065 -0.014048054 0.0084770154 0.79414129 0.01459904 -0.60755789 0.0022585036
0.02197887 -0.014185695 0.010165097 0.83056098 -0.019771062 -0.55657667 0.0028110892
-0.0051397211 -0.012006068 0.010154905 -0.80656534 0.16781633 -0.56682444 0.0019420002
-0.0038204584 -0.011170984 0.0086731082 -0.77677369 0.17105387 -0.60610491 0.0018096986
0.02069567 -0.011241106 0.0084858006 0.77249485 0.015504709 -0.63483173 0.0025650249
0.021975191 -0.01127825 0.010085659 0.8058129 -0.006779091 -0.59213138 0.0025915292
-0.0033940347 -0.0083605936 0.0088601792 -0.75801736 0.13454597 -0.63820612 0.004022615
0.020699089 -0.0083477264 0.0085651223 0.75039339 0.013547651 -0.66085255 0.0024959869
0.0219722 -0.0083721019 0.010021082 0.78713971 -0.0076176235 -0.61672771 0.0025728764
-0.0031028008 -0.005306825 0.0090827895 -0.76348382 0.095716394 -0.63869452 0.0045060338
-0.0017339307 -0.0049616755 0.0076763947 -0.70279521 0.10587303 -0.70346981 0.0025896868
0.020544682 -0.0051201168 0.0084769893 0.72508091 0.0094622113 -0.68859869 0.0019407367
0.021970933 -0.0052251271 0.0099937916 0.76558423 -0.010047487 -0.6432572 0.0024046861
-0.0029534358 -0.0020765271 0.0092899594 -0.74325389 0.061587468 -0.66616857 0.002609499
-0.0015159684 -0.0019631709 0.0078168102 -0.5981338 0.059340462 -0.79919624 0.0038989889
0.020450739 -0.0020743101 0.008394639 0.64327025 -0.0049302317 -0.76562333 0.0020261821
0.021968698 -0.0020785092 0.0099455081 0.750875 -0.010404729 -0.66036236 0.0024899598
-0.0029548658 0.00082381762 0.009444654 -0.74730343 0.0185635 -0.66422355 0.002574892
-0.0014947118 0.00081807998 0.0079229241 -0.60437572 0.018673044 -0.79648048 0.0038409368
0.02055921 0.00073968183 0.0084272977 0.64025217 -0.019790344 -0.76790982 0.0023517604
