# .PCD v0.7 - Point Cloud Data file format
VERSION 0.7
FIELDS x y z normal_x normal_y normal_z curvature
SIZE 4 4 4 4 4 4 4
TYPE F F F F F F F
COUNT 1 1 1 1 1 1 1
WIDTH 561
HEIGHT 1
VIEWPOINT 0 0 0 1 0 0 0
POINTS 561
DATA ascii
0.0027631489 -0.0068926145 0.00059741363 -0.78921658 0.25584716 -0.55828261 0.0029751689
0.030351227 -0.0078568766 0.0018816306 0.88495988 0.42045376 -0.20016176 0.0011160207
0.0018958871 -0.004927238 0.0025007371 -0.75401652 0.24379325 -0.60993773 0.0039421818
0.0033833333 -0.0044718259 0.0010508483 -0.70026118 0.32581294 -0.63520086 0.0022874856
0.02832891 -0.0044585285 0.0015783934 0.78594899 0.53783691 -0.30498478 0.0021457192
0.0022942782 -0.0026261662 0.0030696951 -0.65106857 0.31904915 -0.68870699 0.0031362553
0.0041924068 -0.0016739639 0.0018258346 -0.5907129 0.35661036 -0.7238006 0.001449981
0.00639978 -0.00080664502 0.00070080278 -0.42439559 0.52093256 -0.74061978 0.0018961496
0.025572229 -0.0011660185 0.0014486019 0.66382939 0.63612258 -0.39329201 0.0025311832
0.027152695 -0.0025062864 0.0020821877 0.72997051 0.58802903 -0.34837466 0.002103294
0.004976247 0.00084736443 0.0026737005 -0.51348561 0.43173358 -0.7415784 0.0031179397
0.0072466624 0.0012115289 0.0015813587 -0.40955496 0.52900791 -0.7432465 0.0027674232
0.0099070771 0.0018299897 0.00084699318 -0.24524072 0.60771656 -0.75533932 0.0012984467
0.012784226 0.0022845711 0.0004172544 -0.10171627 0.66837806 -0.73683423 0.0020116868
0.017215339 0.0023509408 0.00029572472 0.037532903 0.71363676 -0.69950974 0.0020045748
0.019362772 0.0021968216 0.00065553142 0.23057596 0.73197049 -0.64113492 0.0027738519
0.022377463 0.0014692665 0.0015190458 0.42874992 0.72680062 -0.53659517 0.0046562403
0.024495829 0.00030859266 0.0020734384 0.580549 0.66871119 -0.46453002 0.0021559177
0.007671467 0.003296826 0.0027706311 -0.36947128 0.53098333 -0.76259273 0.0021216392
0.010246609 0.0038627924 0.0022913073 -0.21588796 0.60527349 -0.76618296 0.0021551701
0.013229871 0.0040338649 0.0018797927 -0.067883253 0.65216899 -0.75502813 0.0026346864
0.016286466 0.0039995881 0.0018505938 0.082342722 0.71181095 -0.69752777 0.0031279167
0.019025411 0.0036003967 0.002101826 0.29086205 0.72810471 -0.62069535 0.0021936875
0.021432444 0.0030123787 0.0027141087 0.44126555 0.71587181 -0.5411213 0.0024160189
0.0013405522 -0.019087255 0.0033149086 -0.97863692 -0.10398717 -0.17735957 0.00078277529
0.00076606433 -0.016649708 0.0046676239 -0.97462708 -0.11683388 -0.19092394 0.00084320782
0.00026333943 -0.013395941 0.0047004148 -0.95316571 -0.1370385 -0.26962107 0.003182587
-0.00058012229 -0.0098304162 0.006137263 -0.95133275 -0.11851046 -0.28446665 0.0028424102
0.00014442854 -0.010758406 0.0044109337 -0.93948019 -0.027746476 -0.34147787 0.0048722983
0.031725351 -0.010282979 0.0045899563 0.91213167 0.37375629 -0.16829152 0.00028854082
-0.00057906983 -0.0076668141 0.0058931122 -0.89612734 -0.01456293 -0.44355786 0.0026494698
0.00017880808 -0.0076822178 0.0043263463 -0.88186979 0.07299237 -0.46580875 0.0028979264
0.030722296 -0.0073376996 0.005098707 0.88227671 0.43000025 -0.19154011 0.0010767881
-0.00057962851 -0.0045477897 0.0060227225 -0.83759338 0.081121601 -0.54023761 0.003374177
0.00052883371 -0.004591892 0.0044245073 -0.80441535 0.16759236 -0.56993747 0.0026183012
0.029195238 -0.0043019177 0.0046832883 0.83756733 0.49250525 -0.23647311 0.00077595067
0.030054661 -0.0059766476 0.0046523623 0.86787677 0.45045468 -0.20947683 0.0019933777
0.0010636449 -0.0016478047 0.0047315061 -0.7347973 0.21613806 -0.6429286 0.0016085822
0.0027724348 -0.0007171859 0.0034698658 -0.62172145 0.3442294 -0.70354003 0.001147242
0.026505135 -0.0006357237 0.0039443634 0.6949138 0.62883389 -0.3488017 0.00081510312
0.02777376 -0.0018604209 0.0049222163 0.79205006 0.54016483 -0.28439167 0.0023469303
0.0015125151 0.001083177 0.0053871265 -0.60125953 0.32257885 -0.73104709 0.0025604118
0.0035631033 0.0014768102 0.0039747721 -0.58072561 0.35719717 -0.73155171 0.0012475732
0.023303302 0.0023867185 0.0036154352 0.52183622 0.67995638 -0.51511782 0.0047688782
0.025021007 0.0013069732 0.004482918 0.65852523 0.6488018 -0.38131446 0.0031410435
0.026770441 1.1279742e-05 0.0058037601 0.74018401 0.595388 -0.31247538 0.0020094288
0.0020261351 0.0033720515 0.0059604477 -0.58058226 0.30383125 -0.75538796 0.0024323682
0.004296598 0.0042351186 0.0050051622 -0.43671167 0.4291642 -0.79063332 0.00093778619
0.0071258782 0.0047978922 0.0040006326 -0.28304878 0.52900517 -0.80002314 0.0015170699
0.0098902779 0.005467758 0.0035703387 -0.16289023 0.60007483 -0.78318387 0.0016519846
0.013269078 0.005723665 0.0033306228 -0.021784458 0.63772279 -0.76995784 0.0021413835
0.016548483 0.0056593791 0.0035426538 0.1364461 0.69135392 -0.70951551 0.0023680455
0.01947923 0.0052078981 0.0041448735 0.35410357 0.71112877 -0.60737669 0.0054300106
0.022065287 0.0041355425 0.004789032 0.50278878 0.6986205 -0.50905097 0.0040611369
0.0240435 0.003048216 0.0056446353 0.65828693 0.62321109 -0.42221594 0.0034141631
0.0051264265 0.0066240621 0.0059020082 -0.37596887 0.43206421 -0.81973654 0.0013675488
0.0074611688 0.0072336318 0.0054598972 -0.2497341 0.518484 -0.81780636 0.0026156753
0.01020045 0.0074313255 0.0049838899 -0.1323438 0.5767414 -0.80613559 0.0014160713
0.013196496 0.0073708328 0.0047385395 0.004655011 0.63565946 -0.77195555 0.0016144697
0.01616114 0.0073099346 0.0050737811 0.19734602 0.68677676 -0.69956571 0.0034780859
0.018946663 0.0066894572 0.0055496013 0.40382129 0.68189889 -0.60987073 0.0038549164
0.010705021 0.0091377636 0.0061955862 -0.08228182 0.58476079 -0.80702204 0.001797988
0.012625791 0.0091375327 0.0061863922 0.069948338 0.64816713 -0.75827873 0.0019486991
0.00037777639 -0.01610785 0.0072687678 -0.97034556 -0.1540405 -0.18628229 0.0010485451
-0.00058884791 -0.012758517 0.0081616156 -0.95888495 -0.18299815 -0.21691312 0.0011269582
-0.00010463351 -0.014191424 0.0075849108 -0.96367598 -0.16849931 -0.2072117 0.0014727542
-0.00082681311 -0.010814871 0.0074309073 -0.96179849 -0.15470141 -0.22585639 0.0020333349
-0.0014013215 -0.0075392569 0.0078304503 -0.9262358 -0.10930122 -0.36074999 0.0034379058
-0.0015511331 -0.0045561083 0.0076881032 -0.88749748 -0.057117935 -0.45725891 0.0029270733
0.029511889 -0.0038323782 0.0074304156 0.84228897 0.49196547 -0.22027104 0.00079227536
-0.0014835305 -0.0015956109 0.0077790255 -0.80393022 0.067067184 -0.59092993 0.0048291218
-0.00010066951 -0.00046616836 0.0063586794 -0.71962285 0.17681229 -0.67147624 0.0045568827
0.028221622 -0.0013026637 0.007995639 0.82711828 0.51968706 -0.21401125 0.00050047931
-0.001312518 0.00122944 0.0080702519 -0.71353775 0.13986884 -0.68651336 0.0042100307
0.00016030733 0.0015024795 0.0067180982 -0.67945462 0.22839187 -0.69726509 0.0023749962
0.026045177 0.0018104713 0.007560215 0.77380043 0.57331008 -0.26934823 0.0016583764
0.027035948 0.00050321675 0.0076409047 0.7921564 0.56407022 -0.23305152 0.0016248269
-0.001100742 0.0039965492 0.0086067477 -0.63094497 0.21594235 -0.7451694 0.0028225784
0.00087515946 0.0042839004 0.0071600666 -0.55796146 0.28556696 -0.77918577 0.0021601524
0.0030218835 0.0055385153 0.0063350163 -0.42076769 0.43332574 -0.79698396 0.0016291934
0.022818809 0.0051323129 0.0071758628 0.59796035 0.68920898 -0.40918747 0.0040750145
0.024578042 0.0037836169 0.0079316702 0.70625901 0.6196779 -0.34234118 0.0027518463
-0.00075381622 0.0063923737 0.0090488307 -0.57286417 0.26899913 -0.77425188 0.0036967802
0.0011589231 0.0071998085 0.0081688287 -0.48614901 0.31282318 -0.81596619 0.0014473208
0.0039436235 0.0076448177 0.0069907056 -0.32213455 0.45931754 -0.82780242 0.0015038851
0.0067061861 0.008503898 0.006457489 -0.19932684 0.53828567 -0.81885117 0.0016623272
0.017122928 0.0085076327 0.006609153 0.24759676 0.69103014 -0.67909741 0.0027777045
0.019598156 0.007934127 0.0075195506 0.4658514 0.67355043 -0.57385737 0.00562562
0.021811835 0.0065501411 0.0079355659 0.59131688 0.66584808 -0.45496222 0.0031275286
0.0018235478 0.0096902996 0.0088747796 -0.36618376 0.36625719 -0.85543269 0.0030511208
0.0042702798 0.010369848 0.0083027137 -0.25741756 0.47023404 -0.84416592 0.0015337933
0.0073607205 0.010376614 0.0075004175 -0.13200757 0.54270303 -0.82948619 0.0010151631
0.010186221 0.010520484 0.0072731422 -0.039008319 0.59737742 -0.80101103 0.0025898204
0.013199097 0.010525185 0.0074303225 0.15606539 0.64859837 -0.74495888 0.0025916146
0.016027115 0.010130489 0.0078475038 0.28925952 0.6974104 -0.65570384 0.0039392025
0.018605843 0.0095651271 0.0087089799 0.47601894 0.68489397 -0.55165768 0.0024369904
0.005110499 0.012209045 0.0090785883 -0.22783224 0.46406111 -0.85600215 0.0021197689
0.0075001456 0.012528454 0.0088676661 -0.10284083 0.53448498 -0.83889782 0.001836242
0.010205327 0.012557589 0.008780635 0.032121312 0.59469914 -0.8033064 0.0020513134
0.012935653 0.012266976 0.0088779461 0.18950987 0.6529628 -0.73329777 0.0028076584
-0.00084314554 -0.013058417 0.010711279 -0.95645994 -0.22123785 -0.19036362 0.00081354816
-0.0014989742 -0.010697058 0.010367219 -0.95162779 -0.2169546 -0.21756664 0.001384641
-0.0024196715 -0.0075217411 0.010732337 -0.92000085 -0.24091488 -0.30912527 0.0037140094
-0.0035206689 -0.004089572 0.011662144 -0.90141308 -0.22214371 -0.37162709 0.002477603
-0.0027786037 -0.0045688944 0.010221798 -0.91112894 -0.12262271 -0.39345631 0.0049375761
-0.0037599492 -0.0016595355 0.011306143 -0.85864508 -0.12179553 -0.49788997 0.0032601089
-0.0028958642 -0.0019034619 0.0098279938 -0.85190964 -0.02362543 -0.52315569 0.0034093163
0.028497003 -0.00093297707 0.010561999 0.83502847 0.51560348 -0.19204296 0.00024106953
-0.0040031117 0.0012551916 0.011311552 -0.80316734 -0.035524268 -0.59469342 0.0043810373
-0.002773854 0.0012425949 0.0097194379 -0.75677973 0.056087654 -0.6512593 0.003348327
0.026594784 0.0024687941 0.011231687 0.81243306 0.54656905 -0.203014 0.00063652568
0.027543411 0.00076619489 0.010837216 0.81218314 0.54701227 -0.2028202 0.00062248221
-0.0040030354 0.0041699219 0.011314384 -0.71784067 0.048169825 -0.69453907 0.0047222422
-0.0025066847 0.00428381 0.0099008577 -0.68963486 0.12881981 -0.71260738 0.0026176076
0.025102302 0.0044019157 0.010560732 0.77328598 0.58038467 -0.25530839 0.0025063443
-0.0040073213 0.007092264 0.011682023 -0.63118833 0.12233801 -0.76592076 0.0030830246
-0.0019550775 0.0074140136 0.010195948 -0.57383859 0.18985792 -0.79665756 0.0019895551
-0.00011036795 0.0084941601 0.0093587451 -0.4432734 0.30310509 -0.84358519 0.0015475553
0.020702234 0.0087451776 0.009731885 0.62663192 0.65904975 -0.41591573 0.0028485677
0.022552874 0.0073698857 0.010474395 0.70359945 0.62347412 -0.34092203 0.00060698646
0.02415736 0.0058651115 0.011051413 0.74535519 0.59492004 -0.3008582 0.0022421179
-0.003701031 0.0099952305 0.011980045 -0.53408253 0.18109672 -0.82580864 0.0024264937
-0.0018482995 0.010430269 0.011007991 -0.46627417 0.25000367 -0.84857917 0.0029601429
0.00081887544 0.010720286 0.0097795855 -0.34098175 0.37468842 -0.86217171 0.0015672717
0.002791571 0.01163873 0.009389367 -0.27438363 0.42421976 -0.86298966 0.0036610339
0.016745878 0.011484911 0.0096268812 0.33522075 0.69313824 -0.63811159 0.0029741242
0.019119693 0.010565895 0.010507238 0.57229817 0.67377359 -0.46744415 0.0021781616
0.021259412 0.0092719989 0.011386738 0.6266256 0.65905744 -0.41591302 0.0028479679
-0.0015597113 0.013223194 0.011740435 -0.3752493 0.28983581 -0.88044482 0.0023596489
0.0010974421 0.013381368 0.010792118 -0.32196382 0.35820869 -0.87637091 0.0018342712
0.0041285669 0.013504766 0.0100179 -0.20368955 0.43989888 -0.87464249 0.0018557139
0.0072955494 0.013976613 0.0098268874 -0.041042782 0.55361712 -0.83175933 0.001710957
0.010362457 0.014025146 0.00989947 0.089353435 0.61105782 -0.78652674 0.0019477978
0.013295125 0.013713535 0.010278207 0.22939199 0.64998537 -0.72449875 0.0014144174
0.015936755 0.013048774 0.010880403 0.40472046 0.67716277 -0.61453384 0.0036957336
0.018033087 0.012360061 0.011724389 0.56707788 0.66682249 -0.4834981 0.0023676651
-0.00076824508 0.015293563 0.012144423 -0.28898931 0.34853747 -0.8916316 0.0032260495
0.0012592894 0.01588955 0.01183381 -0.23049085 0.38415423 -0.89403552 0.0013885092
0.0043166615 0.016260164 0.011474089 -0.097232789 0.47517198 -0.87450409 0.0030094967
0.0073549906 0.016242465 0.011301074 -0.00079332379 0.5611524 -0.82771212 0.0025575287
0.010247757 0.01596684 0.011399719 0.1582974 0.61233819 -0.77458626 0.003581546
0.012928515 0.015439538 0.011730344 0.32184407 0.64845467 -0.68987173 0.0031564762
-0.0020780454 -0.010445842 0.013739336 -0.9385621 -0.31991121 -0.12945279 0.00089034037
-0.0035448866 -0.0065406044 0.013909485 -0.92268926 -0.32150325 -0.21279132 0.0049097664
-0.0029309993 -0.0080015967 0.013543833 -0.94358331 -0.27903226 -0.17830162 0.0038957344
-0.0040733106 -0.004562356 0.013499824 -0.90598261 -0.28441456 -0.31353444 0.0022391074
-0.0050091376 -0.0014687192 0.013756238 -0.88858753 -0.23087971 -0.39636707 0.0044189859
-0.0064940313 0.0017740573 0.014946628 -0.83826858 -0.23647222 -0.49131122 0.0031869959
-0.0054931478 0.0012723512 0.013479488 -0.85073727 -0.14190325 -0.5060727 0.0050172959
0.027183464 0.0020006443 0.013035592 0.82203662 0.53793705 -0.18676062 0.00018429526
-0.0067726411 0.004420503 0.014540534 -0.77955568 -0.14631255 -0.60900378 0.0037750388
-0.0054854285 0.0041939043 0.012976993 -0.75085104 -0.048310716 -0.65870231 0.0033048412
0.025749478 0.0044487957 0.013587352 0.79698426 0.56433272 -0.21527788 0.00096066756
-0.0070727291 0.0072478377 0.014440861 -0.6984722 -0.065534554 -0.71263021 0.0051197652
-0.005485001 0.0071188482 0.01295634 -0.6770345 0.032968462 -0.73521239 0.0032984554
0.023144506 0.0081888083 0.013536887 0.74950212 0.60260713 -0.27406412 0.0024442028
0.024275193 0.0066402215 0.013381083 0.76872951 0.59506321 -0.23442444 0.0010787298
-0.0072194892 0.010084675 0.014440609 -0.61885983 -0.022781542 -0.78517103 0.0018882313
-0.0051238383 0.010382757 0.012978395 -0.54323906 0.11159841 -0.83212805 0.0039216122
0.019954717 0.011353641 0.012736001 0.6417582 0.67051834 -0.37222505 0.00096984778
0.021638606 0.0099786483 0.013521792 0.68537349 0.64848369 -0.33125839 0.0013981662
-0.007221689 0.013268345 0.014563533 -0.51551288 0.079677448 -0.85316938 0.0024174023
-0.004758358 0.013467666 0.013266552 -0.43993559 0.16307397 -0.88309884 0.0033409861
-0.0027382164 0.014109803 0.012486652 -0.34255442 0.26030129 -0.90271795 0.0017982858
0.016750922 0.01433889 0.013081925 0.52252746 0.69151473 -0.49877089 0.0038522624
0.018842684 0.012935813 0.013633108 0.61139262 0.67573953 -0.41179505 0.0032659401
-0.0070596174 0.016293233 0.014860064 -0.42911693 0.151749 -0.89041054 0.0017077411
-0.0047667213 0.016421104 0.013899345 -0.35821438 0.22142895 -0.90700144 0.0024538506
-0.0019245239 0.016477082 0.012933653 -0.29152375 0.31952161 -0.90162063 0.0025151991
0.00077217404 0.017257197 0.012536117 -0.15905364 0.40788189 -0.89907408 0.0015835994
0.0030443512 0.017571181 0.012294766 -0.13868144 0.43199778 -0.89114839 0.0020022693
0.0083992919 0.017571352 0.012299057 0.071187414 0.58787978 -0.80580997 0.0021458338
0.010597962 0.017425789 0.012678824 0.22207253 0.63088262 -0.74341846 0.00239397
0.013460767 0.016849805 0.013440365 0.40158069 0.66323632 -0.6315462 0.0044026016
0.015673699 0.015854694 0.01397978 0.52335638 0.68018895 -0.51326519 0.0031122922
-0.0066192457 0.018552616 0.015105654 -0.32198951 0.22633357 -0.91929096 0.0016464695
-0.0046801348 0.019291621 0.014644321 -0.26628298 0.25808537 -0.92870086 0.0017617027
-0.0018353823 0.019353427 0.013918379 -0.20254101 0.34282285 -0.91730565 0.0020578215
0.0010963576 0.019329423 0.01341485 -0.10606379 0.42328471 -0.89976692 0.0027153885
0.004267286 0.019319795 0.013209898 0.0037105945 0.50091249 -0.86549002 0.0022412692
0.0074415659 0.019332023 0.013460066 0.17895703 0.60453045 -0.7762199 0.0024100102
0.010251934 0.019149665 0.014077051 0.30607179 0.64997244 -0.69559747 0.0025588423
0.012656349 0.018469751 0.01463186 0.43421721 0.67329645 -0.59843743 0.0025810692
-0.0039495365 0.021319488 0.015092965 -0.23484959 0.3019596 -0.92394048 0.001760304
-0.0017528757 0.021780062 0.014874065 -0.13876203 0.38655025 -0.91176969 0.0014869632
0.0010958288 0.02183428 0.014636818 -0.037999589 0.45970449 -0.88725859 0.0017876313
0.0040931017 0.021733047 0.014650218 0.078220159 0.53240418 -0.84286851 0.002697753
0.0070533175 0.021442231 0.014941001 0.21751511 0.59476811 -0.77391088 0.0030821066
-0.0038170796 -0.007054348 0.01636811 -0.9130131 -0.35782591 -0.19587678 0.0028868157
-0.0049955179 -0.0044091116 0.016715502 -0.89270723 -0.39168867 -0.22283114 0.0027752707
-0.0066545834 -0.0007889499 0.01711439 -0.86548096 -0.36503878 -0.34305879 0.0043349122
-0.0058893622 -0.0021078442 0.016506417 -0.89873189 -0.32183442 -0.29783139 0.0045127776
-0.0072931703 0.001390999 0.016711337 -0.85101587 -0.31490317 -0.4202475 0.00379097
-0.0095041879 0.0052527632 0.017991643 -0.78423119 -0.3535189 -0.50990772 0.0021651261
-0.0081531042 0.0042235013 0.016550912 -0.80142874 -0.22780086 -0.55300891 0.003114589
-0.0099516623 0.0075252526 0.01746643 -0.74317741 -0.25540721 -0.61842901 0.003631758
-0.0085372124 0.007059962 0.016006777 -0.7194283 -0.15907827 -0.67610437 0.0029363965
0.024415189 0.0071850042 0.01613475 0.78820139 0.5803721 -0.20471121 0.00090923574
-0.010397467 0.010227672 0.017093612 -0.68983585 -0.15237145 -0.70774955 0.0034121817
-0.0087123765 0.010116759 0.015614759 -0.65523446 -0.078208312 -0.75136632 0.0028317212
0.022272415 0.010387804 0.016521022 0.77155948 0.59586382 -0.22280554 0.0014389129
-0.012466461 0.013884683 0.018144663 -0.63802731 -0.14963244 -0.75533521 0.002646391
-0.010709415 0.013103331 0.016918646 -0.61036015 -0.10106059 -0.78565085 0.0019879013
-0.0087094083 0.013299871 0.015481291 -0.54118764 0.0093932152 -0.8408494 0.0023925479
0.01946054 0.013634142 0.016114714 0.70407504 0.63913774 -0.30948555 0.0026084965
0.021003282 0.012113965 0.016716119 0.76231939 0.5976783 -0.24829379 0.001963886
-0.012626408 0.016344303 0.017997606 -0.56595784 -0.05573608 -0.82254803 0.0026690818
-0.010656076 0.016220272 0.016771503 -0.52058339 0.00315652 -0.85380495 0.001117403
-0.0084669506 0.016678834 0.015600603 -0.46065122 0.081274271 -0.8838523 0.0021520939
0.016563429 0.01665841 0.016238129 0.61075187 0.67605597 -0.41222638 0.0036773966
0.018461842 0.01522537 0.017102238 0.68287516 0.65028608 -0.33288053 0.0019923232
-0.012689535 0.0191881 0.017995175 -0.48757616 0.024622794 -0.87273324 0.0019845371
-0.010763799 0.019411726 0.017034115 -0.42285872 0.09792652 -0.90088892 0.0023450169
-0.0078737093 0.019550741 0.015803583 -0.32906461 0.21851355 -0.91867751 0.001496659
-0.0058470643 0.02048187 0.01531983 -0.25735229 0.23949265 -0.93616933 0.0015194763
0.011070427 0.020505462 0.015788188 0.37951872 0.676081 -0.6315695 0.0016573829
0.013390743 0.019513182 0.016517647 0.52450985 0.67880654 -0.51391739 0.004340529
0.015490398 0.018283118 0.017268669 0.60651803 0.66895169 -0.42969689 0.0022573653
-0.012630655 0.022102946 0.018138153 -0.39925912 0.11029947 -0.9101792 0.0016619499
-0.010722339 0.022475606 0.017431591 -0.34857246 0.16621947 -0.92242527 0.0018522075
-0.0077481493 0.022421032 0.016426014 -0.24858877 0.26902395 -0.93049973 0.00090714218
-0.0049255993 0.022549845 0.015740475 -0.20791195 0.33515894 -0.9189347 0.0025190464
-0.0019865804 0.023248179 0.015542435 -0.07788799 0.4148849 -0.90653408 0.0015178084
0.0010954749 0.023347499 0.015441125 0.023843406 0.48957974 -0.87163246 0.0018234038
0.004178138 0.023254566 0.015654674 0.14360335 0.57491994 -0.80550927 0.002269862
0.0074092741 0.022867786 0.016252303 0.26465857 0.62076706 -0.73797297 0.0014944128
0.010172503 0.022058571 0.01691119 0.42161167 0.68750864 -0.59124905 0.0042794645
0.012676238 0.021104598 0.017903652 0.55864078 0.67538434 -0.48143169 0.0018601913
-0.010449903 0.025173388 0.017894266 -0.27125525 0.22368228 -0.93615532 0.0016090943
-0.0077653714 0.025421694 0.017297152 -0.18616275 0.28401732 -0.94057298 0.002031947
-0.0048051579 0.025390545 0.016783165 -0.11915108 0.37176344 -0.92064923 0.0020167327
-0.0018534688 0.025376035 0.016542396 -0.030368278 0.44105649 -0.89696544 0.0022534593
0.0010949643 0.025382543 0.016646121 0.068733305 0.51103526 -0.85680723 0.0015792712
0.0039388132 0.02526967 0.017064746 0.23233174 0.58058411 -0.7803486 0.0036752874
0.0066924128 0.024665564 0.017554227 0.34501731 0.64887011 -0.67818177 0.003196598
-0.0095090978 0.027202159 0.018198725 -0.16800714 0.31530973 -0.93399864 0.0012683404
-0.0076315566 0.027584556 0.018012034 -0.13553259 0.34968555 -0.92701179 0.0015690407
-0.0047660633 0.027888343 0.017870745 -0.051275313 0.42515665 -0.9036662 0.0016959386
-0.0019269609 0.027720459 0.017788203 0.046231043 0.49922371 -0.86523885 0.0020859274
0.00080295181 0.02745402 0.017934212 0.15711084 0.56939167 -0.80691344 0.003249527
0.0028201265 0.027203694 0.018222447 0.28696069 0.61032987 -0.73834342 0.0030048641
-0.0031004366 -0.008802549 0.018456038 -0.91116047 -0.38104171 -0.15682425 0.0010307946
-0.0055896253 -0.0043688621 0.019942688 -0.88273561 -0.43471768 -0.17832099 0.00096826244
-0.0071269167 -0.0014531933 0.019739032 -0.87046576 -0.4372668 -0.22602443 0.0025822504
-0.0095650246 0.0025693025 0.020557817 -0.79468846 -0.45652881 -0.40006456 0.0023126884
-0.0084685776 0.0013210374 0.019493526 -0.85015881 -0.39368752 -0.34962851 0.0027458949
-0.010248368 0.0044833901 0.019878583 -0.8096655 -0.40091729 -0.42861059 0.0037227799
-0.0090256045 0.003288805 0.01862618 -0.85447598 -0.3670879 -0.36758298 0.0031607347
-0.012668647 0.0081499172 0.02073412 -0.76984978 -0.39416882 -0.50195849 0.0020232608
-0.011295795 0.0070824893 0.01947763 -0.76994663 -0.32683286 -0.54805332 0.0025320803
-0.013207466 0.010461685 0.020020071 -0.73419368 -0.31049246 -0.60378313 0.0037578698
-0.011865717 0.0099540986 0.018685713 -0.70180237 -0.24022667 -0.670645 0.0023355982
0.023556044 0.0089667877 0.018673595 0.78565353 0.58987761 -0.18652864 0.00050328544
-0.015654458 0.014110914 0.021017183 -0.68014109 -0.31425613 -0.66230738 0.0023555844
-0.013824293 0.013162069 0.019561164 -0.65266287 -0.20746051 -0.72869146 0.0014955678
0.020368928 0.013674571 0.019191545 0.73429585 0.6340487 -0.24247046 0.0008046623
0.021585701 0.011931955 0.018772479 0.76384544 0.5998894 -0.23806059 0.0016994553
-0.016065285 0.016422113 0.020574506 -0.63776636 -0.21329123 -0.74010861 0.0033716273
-0.014087963 0.016059611 0.019093059 -0.58616626 -0.12784095 -0.80004114 0.0022825364
0.017493062 0.017225891 0.01939651 0.71571869 0.64859098 -0.25899151 0.00079352269
0.018646603 0.015906513 0.019389784 0.72742403 0.63755316 -0.25373262 0.0010516974
-0.01656146 0.019269394 0.020345371 -0.55021966 -0.13111688 -0.82466161 0.0035060486
-0.014216946 0.019095736 0.018857645 -0.50809729 -0.045826793 -0.86007971 0.0022165675
0.014516049 0.020175198 0.019043978 0.64779186 0.68491161 -0.3335591 0.0012962158
0.01606313 0.018761719 0.01934691 0.68521935 0.66383779 -0.29965621 0.0024040653
-0.018651493 0.022637589 0.021066202 -0.47247609 -0.1523679 -0.86807281 0.0028826059
-0.016737068 0.022127204 0.020137088 -0.44344258 -0.061165445 -0.89421326 0.0040721614
-0.014018794 0.022251114 0.018788129 -0.44424221 0.019789476 -0.89568812 0.0019715163
0.011036351 0.02311638 0.018996831 0.51378155 0.71413207 -0.47544074 0.0059288144
0.013292837 0.021727275 0.019927697 0.61583388 0.6902445 -0.37988311 0.0034260792
-0.019078355 0.025315862 0.020928372 -0.36407152 -0.075914375 -0.92827207 0.0024610455
-0.016732791 0.025092686 0.020034004 -0.34102476 0.020466171 -0.93983155 0.0030134786
-0.01373345 0.025316086 0.018968185 -0.29168996 0.15248699 -0.94427991 0.0016717173
-0.011488266 0.026230197 0.018427722 -0.24308901 0.19757661 -0.949669 0.0013667252
0.0049184263 0.026604716 0.018498022 0.31494597 0.67251289 -0.66972786 0.0015745473
0.0073287371 0.025778506 0.019100854 0.45574203 0.67395413 -0.58145082 0.0048031607
0.0097570522 0.024748933 0.019969204 0.5299325 0.70068294 -0.47771841 0.0022092746
-0.01946074 0.028163686 0.020899827 -0.27406356 0.0092608929 -0.96166706 0.0019141432
-0.016737547 0.028071979 0.020159399 -0.25246659 0.08803606 -0.96359235 0.0025025441
-0.013742487 0.028354846 0.019451525 -0.23155259 0.17425242 -0.95708907 0.0030237252
-0.010795086 0.02851554 0.018863289 -0.14417303 0.29577661 -0.94431472 0.0014429543
-0.0078973444 0.029063299 0.018623624 -0.071781695 0.37899306 -0.92261136 0.0014543263
-0.0049244496 0.029393326 0.018612582 0.012112089 0.45983663 -0.88792092 0.0020653848
-0.0017958947 0.029239697 0.018715009 0.11907194 0.56605393 -0.81572348 0.0023798705
0.0011385242 0.028804839 0.019013895 0.2199648 0.59330434 -0.77434194 0.0020809888
0.0040350687 0.028254626 0.019723909 0.33369231 0.6683166 -0.66483253 0.0029872034
0.0065659531 0.027341703 0.020352939 0.44850594 0.70072222 -0.55482507 0.004397891
-0.019407809 0.030985793 0.0210068 -0.20023504 0.098401353 -0.97479385 0.0015116881
-0.016751738 0.031070316 0.020524204 -0.1518129 0.15626669 -0.97597826 0.001983528
-0.013825205 0.031193426 0.020088557 -0.14107175 0.25396371 -0.9568705 0.0025565329
-0.010783105 0.03126153 0.019749496 -0.089247383 0.34233898 -0.93532819 0.0025446038
-0.0078103347 0.031248288 0.019567246 -0.020794062 0.41367826 -0.91018564 0.0024430209
-0.004843357 0.031254057 0.019644005 0.058920857 0.49180594 -0.86870897 0.0017670182
-0.0019206977 0.031252977 0.020093678 0.206494 0.57960337 -0.78830212 0.003946885
0.00095515855 0.030627508 0.020491969 0.30108935 0.65528339 -0.69278342 0.0037538402
0.0029942542 0.030024687 0.020928668 0.42332679 0.6693778 -0.6105144 0.0033550684
-0.01888665 0.032978743 0.021174196 -0.16249354 0.18579158 -0.96906006 0.0013237899
-0.016664336 0.033480104 0.021009168 -0.11220845 0.25721163 -0.95981842 0.0014886713
-0.013717208 0.0337511 0.020846682 -0.06489116 0.33151385 -0.94121611 0.0020111073
-0.01088015 0.033743173 0.020744257 -0.012070808 0.41529143 -0.90960836 0.0022464709
-0.0079230079 0.033494771 0.020698661 0.059384342 0.49863219 -0.86477715 0.0027169695
-0.0050086342 0.033228137 0.020866888 0.14472476 0.57366014 -0.80620641 0.0032876185
-0.0028774012 0.032844894 0.021046501 0.26086205 0.62310046 -0.73735803 0.0029910512
-0.064277351 0.043900982 0.020458732 -0.39618364 -0.41854343 -0.81722689 0.10221418
-0.062198754 0.04417276 0.020780308 0.11744423 -0.43636802 -0.89207047 0.088170946
-0.06389714 0.046218526 0.019875471 -0.40857524 0.004962883 -0.91271108 0.082664333
-0.061818454 0.046406168 0.020245535 0.38369739 -0.052663397 -0.921956 0.026918741
-0.060210068 0.046505254 0.021177661 0.49856105 -0.033728786 -0.86619812 0.02333682
-0.063655548 0.048981749 0.020385521 -0.24005809 0.34223512 -0.90843117 0.091422863
-0.062201153 0.049140226 0.020502593 0.22340104 0.4885594 -0.84344631 0.045655835
-0.0061217081 -0.0038802479 0.022205945 -0.86315233 -0.46535599 -0.19598942 0.00094399566
-0.007877104 -0.0012661149 0.022883359 -0.84391451 -0.49633721 -0.20361146 0.0010929793
-0.0099467626 0.0020105261 0.022646125 -0.81569737 -0.52048922 -0.25244555 0.0019106913
-0.0089407787 0.00059696985 0.022203522 -0.83085603 -0.5000478 -0.24419339 0.0029226097
-0.012626165 0.0055931951 0.023437675 -0.78181875 -0.52968454 -0.3289282 0.0020000238
-0.011398433 0.0042509069 0.022618225 -0.79814112 -0.52876019 -0.28876171 0.0011161314
-0.01348606 0.0074862554 0.022780502 -0.79788804 -0.44819006 -0.40311334 0.0028098573
-0.012074573 0.006058767 0.021623608 -0.80175817 -0.45194948 -0.39105687 0.0018073698
-0.015927615 0.011014834 0.023345917 -0.75624746 -0.44060254 -0.48369327 0.0030881683
-0.014613487 0.0099831177 0.022233395 -0.75778013 -0.42178079 -0.49786571 0.0046561128
-0.01864366 0.014598786 0.024174508 -0.70425141 -0.42041403 -0.57208568 0.001036183
-0.01676221 0.013319356 0.022720629 -0.73598647 -0.37573236 -0.56315988 0.003975783
-0.01504684 0.012013256 0.021374103 -0.7048651 -0.30884302 -0.6385774 0.0018045416
-0.019141166 0.016659243 0.023413246 -0.6756565 -0.3778196 -0.63304073 0.0031265141
-0.017502034 0.016039658 0.022036083 -0.67070967 -0.29322371 -0.68129897 0.0026752108
0.018238965 0.016995698 0.021768089 0.7157135 0.64858663 -0.25901666 0.00080065354
-0.02182615 0.020179609 0.023873445 -0.54679602 -0.43683264 -0.71427685 0.0031335317
-0.019791942 0.019312173 0.022726286 -0.61240381 -0.29114467 -0.73498052 0.0043085129
-0.017932529 0.018574044 0.021504309 -0.60697609 -0.21964276 -0.7637651 0.0033127079
0.016012996 0.019743413 0.022078265 0.71047831 0.66415858 -0.23262395 0.00057713903
-0.024628878 0.023581624 0.023995217 -0.51095438 -0.40064219 -0.76053363 0.0032483295
-0.022664964 0.022481168 0.023349388 -0.46738458 -0.35581443 -0.80928838 0.0031467406
-0.020057233 0.022112433 0.021951923 -0.48282203 -0.22415616 -0.84654415 0.0025716468
0.013207955 0.022920819 0.022579696 0.66922528 0.68344188 -0.29162431 0.0021260653
-0.025510082 0.025580121 0.023682492 -0.42757329 -0.30729803 -0.85014647 0.0032406023
-0.022802876 0.025239021 0.022487853 -0.39636764 -0.21338865 -0.89294904 0.0015719628
-0.020517649 0.024993086 0.021547144 -0.39801282 -0.15799473 -0.90367222 0.0022499333
0.010248533 0.025679188 0.022348475 0.60739255 0.7156291 -0.34489015 0.0032613091
0.011958631 0.024157176 0.022419767 0.67563933 0.680053 -0.28467429 0.0018670643
-0.028235687 0.028715361 0.023889164 -0.38955808 -0.27589107 -0.87870854 0.0030189925
-0.025821136 0.028261498 0.023026546 -0.34915909 -0.20355003 -0.91468859 0.0031172764
-0.022773888 0.028189456 0.021936644 -0.32749104 -0.11002418 -0.93842649 0.0027227753
-0.020933546 0.027973019 0.021344811 -0.30544254 -0.053064495 -0.9507308 0.0017345898
0.0050684395 0.029422142 0.021784764 0.50963151 0.71327132 -0.48116508 0.0043034959
0.0071281055 0.028353583 0.022525359 0.58755076 0.73023766 -0.34862161 0.0015207368
0.0089855939 0.027194912 0.023224806 0.61827826 0.71781099 -0.32012409 0.0021900127
-0.030796513 0.031997103 0.024113452 -0.36072171 -0.21520486 -0.90750581 0.0037347216
-0.028808389 0.031324062 0.023529327 -0.29651165 -0.15360053 -0.94259626 0.0024983955
-0.025794649 0.031219343 0.022578228 -0.28689498 -0.066118822 -0.95567757 0.0020952031
-0.02276548 0.031161325 0.021778828 -0.20827194 0.037969705 -0.97733366 0.0011372475
-0.020783748 0.031488325 0.021343738 -0.22250874 0.051559221 -0.97356641 0.0013735406
-0.00064600032 0.0323769 0.021420952 0.27216873 0.6358732 -0.7222116 0.0019670813
0.0014074023 0.031967178 0.02213937 0.40530807 0.71644765 -0.56782758 0.0057448801
0.003913987 0.030814359 0.022706261 0.48499283 0.73385221 -0.47564989 0.0044452413
0.0058334614 0.030061007 0.023809608 0.55105698 0.75090039 -0.36398467 0.0035664809
-0.031411856 0.034484416 0.023982283 -0.2641229 -0.063047171 -0.96242613 0.0023266994
-0.028828498 0.034263361 0.023292765 -0.23599185 0.0074847899 -0.97172618 0.001673077
-0.025794148 0.034206361 0.02257167 -0.23428163 0.055314299 -0.97059387 0.0025499656
-0.022776449 0.034160458 0.021990802 -0.17523351 0.13598709 -0.97509015 0.0021844127
-0.019882483 0.034267355 0.021576028 -0.15215714 0.17382607 -0.97295058 0.001258097
-0.016936639 0.034961235 0.021442659 -0.058820926 0.29227757 -0.95452285 0.0016079388
-0.014054718 0.035231493 0.021407496 -0.0044669574 0.37247327 -0.92803216 0.0019828358
-0.010579986 0.035236422 0.021467812 0.055232447 0.45837536 -0.88704079 0.002223867
-0.0077094301 0.035019439 0.021634398 0.12907867 0.53522766 -0.83478749 0.0023168349
-0.0047696526 0.03477316 0.022098279 0.21030235 0.60543621 -0.76760662 0.0022617332
-0.0019456178 0.034146052 0.022634754 0.29996899 0.67704988 -0.6720283 0.0021186359
0.00061569049 0.033382326 0.023327632 0.42201626 0.72678757 -0.54192436 0.0049821897
-0.031587526 0.037273869 0.024011087 -0.19537315 0.070729494 -0.97817522 0.0022148923
-0.028842492 0.037274096 0.02350937 -0.15542987 0.13889799 -0.97803319 0.0025121924
-0.025818989 0.037230246 0.022996388 -0.14225449 0.21589084 -0.96599936 0.0023195888
-0.022808457 0.037196834 0.022605199 -0.10041791 0.27964672 -0.95483714 0.0022510637
-0.019809691 0.037175979 0.022360491 -0.0574007 0.31745151 -0.94653565 0.0021804436
-0.016819378 0.037166674 0.022250261 -0.014067095 0.38261369 -0.92380136 0.0024112535
-0.013836237 0.037172467 0.022316018 0.043023154 0.45617875 -0.88884753 0.0018833888
-0.010858551 0.03719892 0.022622064 0.10025038 0.54364115 -0.83330911 0.0027442074
-0.0080124885 0.037019398 0.023048677 0.21512046 0.64127022 -0.736543 0.0033938354
-0.0052110935 0.036491446 0.023495777 0.29571638 0.66935545 -0.68155348 0.0037415326
-0.0031549511 0.036073744 0.024077114 0.38033843 0.66814643 -0.63947088 0.0037400117
-0.030968379 0.039413974 0.024190297 -0.16494809 0.20704469 -0.96432596 0.0019118065
-0.028765408 0.039703455 0.023970924 -0.11741699 0.27372023 -0.95461541 0.0019505618
-0.025866166 0.04004487 0.0238015 -0.086273707 0.32498714 -0.94177502 0.001785586
-0.022859614 0.040025219 0.023585839 -0.04162072 0.38391414 -0.92243028 0.0019175897
-0.019864259 0.040022481 0.023554958 0.0082014119 0.45088136 -0.89254618 0.0024686025
-0.016921539 0.039825141 0.023580499 0.060910262 0.51375484 -0.85577214 0.0029187428
-0.014020843 0.039565425 0.023714295 0.11922777 0.57818079 -0.80715036 0.0033900852
-0.011357344 0.039201852 0.023947166 0.19169149 0.63924301 -0.74473006 0.0029900796
-0.06660267 0.043323994 0.024153333 -0.56092113 0.40344059 -0.72291291 0.074098639
-0.064866051 0.042911034 0.022490913 -0.63647181 -0.29000488 -0.71470332 0.086783297
-0.061342347 0.043131173 0.022205038 0.29013562 -0.52162594 -0.80232644 0.020473851
-0.058692556 0.043446377 0.022874603 0.38385743 -0.44872043 -0.80703372 0.017597742
-0.056042071 0.043752842 0.023771873 0.33792022 -0.36081988 -0.86926347 0.035515454
-0.065392606 0.046167716 0.022689685 -0.87910348 0.099696733 -0.46608761 0.0049939551
-0.058726083 0.046099968 0.022105128 0.47364193 -0.06749133 -0.87812763 0.019623335
-0.05597616 0.046080813 0.023603525 0.45825392 0.058533251 -0.88689184 0.01790924
-0.064573802 0.049387373 0.022535376 -0.70101172 0.36012647 -0.61554164 0.063405953
-0.060943875 0.04982733 0.022020163 0.36611354 0.58327734 -0.72508508 0.047788039
-0.058913931 0.048702296 0.022818381 0.52758771 0.45983896 -0.71428245 0.0095127616
-0.056905713 0.048203323 0.023848509 0.56126338 0.39472061 -0.72744691 0.024785601
-0.064031214 0.051278733 0.022746053 -0.69849539 0.44436765 -0.5609293 0.060779601
-0.062153466 0.051146679 0.022680912 0.095120057 0.96052265 -0.26143536 0.068373464
-0.010677433 0.002119218 0.025220232 -0.80138969 -0.55382997 -0.22593565 0.00084256224
-0.0091803204 0.0001171972 0.025463101 -0.81890512 -0.5257988 -0.23006535 0.00085991644
-0.013093366 0.0052299225 0.025618127 -0.78200424 -0.57475173 -0.2411014 0.0016149948
-0.011946395 0.0036285252 0.025827792 -0.78498101 -0.58413655 -0.20637199 0.00054267788
-0.015727766 0.0084051406 0.026405465 -0.77765006 -0.52762467 -0.34186628 0.0012396887
-0.014492578 0.0071816868 0.025508435 -0.77310312 -0.56197977 -0.29409242 0.0038926522
-0.016881483 0.01046736 0.0256839 -0.75991696 -0.52762717 -0.37965223 0.0024192797
-0.019385317 0.013759319 0.026092127 -0.73262703 -0.51282704 -0.44751102 0.0029716981
-0.018010307 0.012708703 0.024959486 -0.75766122 -0.48560542 -0.4360469 0.0023237269
-0.02205739 0.016992811 0.026488271 -0.65593547 -0.53027302 -0.53717703 0.0044859932
-0.020441692 0.016194493 0.025220109 -0.68348837 -0.43969095 -0.58267957 0.0028708894
-0.02489665 0.020145845 0.026531596 -0.58352518 -0.5602147 -0.58792669 0.0014605201
-0.022933936 0.019361837 0.025366887 -0.59989655 -0.45263562 -0.65973109 0.0019041628
-0.021160653 0.018113315 0.024565574 -0.64168698 -0.43860161 -0.62917924 0.0020531691
-0.027844394 0.023169702 0.026604781 -0.55947256 -0.51277131 -0.65119588 0.0015250775
-0.025767494 0.02245551 0.025495239 -0.54331309 -0.45470729 -0.70572805 0.0017678919
-0.0238312 0.021450158 0.024632053 -0.57891548 -0.4683257 -0.6674788 0.0019683077
0.014843441 0.021617338 0.02464002 0.71148801 0.67076778 -0.20941655 0.00034315002
-0.030861791 0.02618668 0.026663436 -0.53247911 -0.52234423 -0.66604996 0.0025485563
-0.028747419 0.025510224 0.025632927 -0.50581855 -0.45132288 -0.73515666 0.0026238256
-0.026716068 0.024759013 0.024723258 -0.50027221 -0.39321044 -0.77143592 0.0035297868
0.010871113 0.026202643 0.026018079 0.67597848 0.70292199 -0.2212552 0.000798263
-0.033709642 0.029201701 0.026684482 -0.50719178 -0.46815112 -0.72359592 0.0030453554
-0.031717148 0.028490087 0.02582984 -0.49843916 -0.37405819 -0.7820735 0.0029035911
-0.029489268 0.028020244 0.024748167 -0.42427832 -0.34325191 -0.83795351 0.0020855966
0.0075575206 0.029295422 0.025764318 0.64406937 0.72377574 -0.24763523 0.00039695253
0.0093621109 0.027693609 0.025797959 0.6454854 0.72235501 -0.24809663 0.00032755893
-0.036727518 0.032219257 0.026733924 -0.46395832 -0.45090613 -0.76251316 0.0053427331
-0.034696929 0.031415369 0.026060319 -0.45802799 -0.3823303 -0.80251724 0.0054106447
-0.032112759 0.031289127 0.02484422 -0.41508585 -0.26787451 -0.86945218 0.0023317109
-0.030143892 0.030096158 0.024311628 -0.42252308 -0.21490997 -0.88050437 0.0044322144
0.0041781729 0.031994354 0.025197847 0.56374961 0.74574214 -0.35504231 0.0031808461
0.0063545112 0.030365516 0.025774008 0.60415536 0.73432004 -0.30946773 0.0013731006
-0.039535556 0.035053782 0.026929723 -0.44816965 -0.39209256 -0.80337256 0.0069050989
-0.037679467 0.034419905 0.026265703 -0.44215184 -0.3527436 -0.82466578 0.0036949548
-0.034878623 0.03446373 0.025082393 -0.34248266 -0.19508055 -0.91904795 0.0027824531
-0.032820236 0.034022447 0.024460198 -0.32438448 -0.14113535 -0.93533713 0.0033855967
-0.0010364505 0.035522923 0.024977367 0.44247773 0.77162647 -0.45695308 0.0027787895
0.00098261703 0.03451632 0.025574902 0.50544947 0.75341451 -0.42057997 0.0029859818
0.0030143114 0.033428524 0.026484337 0.5795874 0.74578947 -0.32844561 0.0013892605
-0.04257353 0.038174048 0.027169591 -0.39306536 -0.34925544 -0.85059988 0.010429431
-0.040400326 0.037450135 0.026548263 -0.36040425 -0.21848951 -0.90684676 0.0090018967
-0.037747849 0.037451766 0.025588272 -0.31550497 -0.10581275 -0.94300598 0.0039950009
-0.034927301 0.03738131 0.024763968 -0.26187766 -0.022769531 -0.96483243 0.0045097801
-0.033072326 0.03752261 0.024329202 -0.22725309 0.028238244 -0.97342628 0.0023771389
-0.007244356 0.038453963 0.024635321 0.27477562 0.72587436 -0.63055897 0.0044930312
-0.0047818874 0.037883896 0.025425775 0.39153558 0.76270121 -0.5147686 0.006110318
-0.0022457219 0.036720179 0.025820788 0.45470238 0.75938535 -0.46538121 0.0028906062
-0.057787422 0.041707583 0.025546478 0.31005764 -0.56940222 -0.76134437 0.026260331
-0.055461578 0.041512944 0.025900332 0.17706859 -0.76095277 -0.62417758 0.0077626435
-0.052724518 0.041332781 0.026540594 0.10865238 -0.79906166 -0.5913502 0.021534057
-0.049676824 0.041341532 0.026986878 0.031659435 -0.63111657 -0.77504164 0.017869132
-0.046321478 0.041101247 0.027105784 -0.066585667 -0.41561279 -0.90710104 0.016385922
-0.043451026 0.040259302 0.026880195 -0.19783784 -0.15863468 -0.96731341 0.01162048
-0.040561311 0.040349897 0.026224069 -0.21704584 -0.011809654 -0.97608995 0.0047808792
-0.037746783 0.040457845 0.025577078 -0.21202813 0.12652619 -0.96903831 0.0063506868
-0.034946244 0.040405538 0.025007959 -0.18110007 0.16879477 -0.96887106 0.0032102116
-0.0320975 0.040551793 0.024605248 -0.1626205 0.20396058 -0.96537799 0.0018007369
-0.029054327 0.041204836 0.024461441 -0.076931238 0.31546652 -0.94581312 0.0017634241
-0.025900172 0.041597132 0.024381723 -0.040726196 0.45636755 -0.88885885 0.0021674659
-0.022897715 0.041590951 0.024316525 0.011588219 0.51764101 -0.85551947 0.002037907
-0.019904111 0.041601434 0.024427053 0.061723817 0.57190686 -0.81799299 0.0018099784
-0.016798541 0.041392025 0.024614818 0.12581326 0.6434809 -0.75505191 0.0028715204
-0.013785833 0.041129414 0.025016746 0.18855298 0.69893706 -0.68988031 0.0036323131
-0.010847749 0.040502544 0.025375193 0.27832517 0.74009168 -0.61220866 0.0039338288
-0.0081572188 0.039783817 0.025815003 0.3440764 0.74563605 -0.5706473 0.0038085629
-0.0055249245 0.039141901 0.026746159 0.43184826 0.78769946 -0.43935922 0.0030412371
-0.066695839 0.044387355 0.024789121 -0.87214053 0.16041368 -0.46221021 0.0064710481
-0.058890954 0.042098515 0.024397966 0.3768011 -0.52596223 -0.76248586 0.024489779
-0.055513881 0.042541735 0.024609054 0.24280159 -0.59260052 -0.76803124 0.031555515
-0.05270553 0.043390263 0.02524394 0.27837142 -0.36353898 -0.88901561 0.044559121
-0.049660575 0.043169513 0.026310951 0.18876834 -0.10081519 -0.97683311 0.035446588
-0.0466391 0.043079812 0.02677322 0.072897598 -0.049690854 -0.99610072 0.0177975
-0.043621868 0.043077014 0.026742306 -0.038178843 0.023648255 -0.99899107 0.012267562
-0.040647097 0.043208733 0.026482664 -0.12112568 0.2009149 -0.97209144 0.0072041415
-0.037584256 0.043301411 0.026114034 -0.12879512 0.29642054 -0.94633329 0.0051153009
-0.034753136 0.043230955 0.025747428 -0.10627895 0.36405289 -0.92529476 0.0038911512
-0.031820551 0.043361332 0.025526214 -0.043428235 0.42233142 -0.90540063 0.0033429274
-0.028882749 0.043449081 0.025413115 -0.014681259 0.48414695 -0.87486351 0.0037440599
-0.025983717 0.04327856 0.025271416 0.0026539601 0.50005752 -0.86598814 0.0022345129
-0.022949239 0.043187834 0.025304005 0.052058257 0.55747187 -0.82856202 0.0017799486
-0.019904137 0.043256227 0.025669193 0.10134584 0.63511461 -0.76574045 0.0035329899
-0.017050009 0.043025643 0.025994351 0.16650175 0.69152224 -0.70290405 0.0036430389
-0.014222519 0.042641915 0.026437223 0.24995768 0.72407335 -0.64283669 0.0031964388
-0.011524219 0.042036168 0.026891055 0.32803199 0.7623896 -0.55781454 0.0028153539
-0.066698901 0.046510257 0.025949722 -0.90013105 0.20378943 -0.38501164 0.00011794116
-0.066173807 0.046372712 0.024639513 -0.88292664 0.14518069 -0.44650111 0.0072807553
-0.054987401 0.047274299 0.024497246 0.47057593 0.42828697 -0.77144581 0.034355517
-0.052820578 0.046342984 0.02527062 0.3879683 0.47034115 -0.79262847 0.031193564
-0.049613025 0.046104643 0.02647957 0.23798256 0.40562585 -0.88251454 0.025631305
-0.0467651 0.045502774 0.026951941 0.10840455 0.30929908 -0.94476587 0.012259378
-0.043653607 0.04512009 0.027072692 0.010924157 0.37631157 -0.92642874 0.010526715
-0.040631991 0.045114033 0.027013149 -0.050548136 0.44273683 -0.89522564 0.0069270395
-0.037533253 0.045325097 0.02690733 -0.067405127 0.49338281 -0.86719662 0.0044996571
-0.03457531 0.045332659 0.026692025 -0.054486152 0.53597474 -0.84247398 0.0035986034
-0.031701144 0.045470953 0.026641572 -0.024392575 0.58015829 -0.81413841 0.0036767563
-0.028549794 0.045587674 0.026730554 0.020682806 0.62632555 -0.77928722 0.0035547013
-0.025534645 0.045334496 0.026709666 0.061705839 0.6700629 -0.73973525 0.0034516593
-0.022724902 0.045040037 0.026779294 0.10374248 0.65660763 -0.74706358 0.0030900056
-0.020275915 0.044867013 0.027056273 0.16876794 0.70452076 -0.6893242 0.0028448123
-0.066471122 0.048848026 0.026683258 -0.89360505 0.21732739 -0.39273244 0.00023489013
-0.065652512 0.049421772 0.025069859 -0.83221579 0.29395378 -0.47011489 0.022881513
-0.058552399 0.049998168 0.025008565 0.52359432 0.53335595 -0.6643647 0.010654599
-0.055659477 0.048697203 0.025312001 0.44666162 0.61766511 -0.64728916 0.0090715596
-0.052749507 0.048287414 0.026610948 0.31760138 0.67975563 -0.66110641 0.0075039207
-0.050695896 0.047889046 0.027109679 0.22083318 0.64688659 -0.72991127 0.0036031578
-0.065228179 0.051167503 0.025020357 -0.84894305 0.32396752 -0.41754124 0.023012539
-0.013295348 0.0046780403 0.028875604 -0.77127284 -0.60046101 -0.21115135 0.00058469689
-0.016103102 0.0080984849 0.028384205 -0.76047516 -0.60442704 -0.23737212 0.00070885278
-0.01476431 0.0066711898 0.027581777 -0.77196676 -0.59409553 -0.22609276 0.00080248597
-0.018671645 0.011149237 0.028723907 -0.74559253 -0.5844987 -0.3200829 0.0011091311
-0.017427681 0.009619548 0.028728142 -0.7620452 -0.56865531 -0.30970669 0.00072399818
-0.021592198 0.014381848 0.029295031 -0.68993729 -0.63148588 -0.35385334 0.0016081199
-0.020248694 0.013147821 0.028638635 -0.72456574 -0.60839307 -0.32382438 0.001010181
-0.024701519 0.017333224 0.029799607 -0.6366238 -0.64792848 -0.41820905 0.0016476744
-0.022831075 0.016296202 0.0284275 -0.66189784 -0.62989932 -0.40634727 0.00209807
-0.027648374 0.020196453 0.029755499 -0.61269546 -0.65446842 -0.44302976 0.00089066988
-0.025673786 0.019117529 0.028591819 -0.62001699 -0.63689584 -0.45819509 0.0028946113
-0.023809293 0.018235072 0.027321871 -0.61386794 -0.56598932 -0.55029291 0.0023206791
-0.030662294 0.023214335 0.029465642 -0.60325569 -0.61792541 -0.50423294 0.0014256865
-0.028694635 0.022139495 0.028510377 -0.58037317 -0.64462841 -0.49761561 0.0026205597
-0.026849246 0.021019652 0.027685996 -0.5744372 -0.57483816 -0.58273757 0.0013725163
-0.033882342 0.026093539 0.029727545 -0.58801937 -0.64647251 -0.48611385 0.0017192576
-0.031739678 0.025083847 0.02849579 -0.57458293 -0.608603 -0.54722661 0.0030707715
-0.029866362 0.024037287 0.027637821 -0.5393979 -0.55168611 -0.63615435 0.0012503241
-0.036894839 0.029109772 0.029469959 -0.55668682 -0.62514198 -0.54708076 0.0039086025
-0.034803256 0.028038997 0.028552756 -0.57439375 -0.54751927 -0.60851824 0.0036585466
-0.032712877 0.026968503 0.027558472 -0.52057385 -0.52617675 -0.6724143 0.0022210444
-0.040092506 0.032187484 0.029436894 -0.58708227 -0.57595348 -0.56886911 0.0044283159
-0.037815783 0.031053631 0.028393436 -0.53096509 -0.55826247 -0.63751018 0.0057266694
-0.035732165 0.029987866 0.02755584 -0.54601222 -0.56306654 -0.62034404 0.0031822142
0.0053701331 0.031863645 0.027972158 0.5990321 0.74528408 -0.29276651 0.00085949863
0.0061209109 0.031075312 0.027513575 0.6141066 0.7322064 -0.29452845 0.00091497868
-0.043139733 0.035015594 0.029603075 -0.54940921 -0.58000678 -0.60144961 0.006733798
-0.040901888 0.034070686 0.028510435 -0.53379488 -0.52061254 -0.66635233 0.0083197709
-0.038750846 0.033006638 0.027546303 -0.53536141 -0.51830256 -0.66689622 0.00273234
0.0018442757 0.034931511 0.028537657 0.55768532 0.76111984 -0.33118531 0.0012966515
-0.048742905 0.038589567 0.030009981 -0.36271346 -0.80010355 -0.47777945 0.0090447906
-0.046550706 0.037989203 0.029284317 -0.42741966 -0.63333213 -0.64513773 0.0085223075
-0.043843146 0.037122965 0.028377723 -0.397324 -0.50873679 -0.76375413 0.0081780311
-0.041602965 0.03619412 0.027550455 -0.4055813 -0.34738362 -0.84547526 0.010494303
-0.0020449136 0.037734333 0.02846084 0.50290674 0.78850639 -0.35403734 0.0012836017
8.1180769e-05 0.036144651 0.027965125 0.50450164 0.776236 -0.37806842 0.0014091947
-0.055522237 0.041056115 0.02752115 0.17973076 -0.79267621 -0.58254719 0.0085669793
-0.052536789 0.040352196 0.028544571 -0.029049717 -0.83910972 -0.54318601 0.017674042
-0.049681205 0.04008415 0.028266991 -0.1907783 -0.75365597 -0.62897241 0.020549517
-0.046889029 0.039778452 0.02788135 -0.22222556 -0.49804547 -0.8381924 0.020148292
-0.044618413 0.039210003 0.027510332 -0.35411349 -0.38238522 -0.85345489 0.026760601
-0.0077814651 0.041058403 0.028265908 0.42381614 0.82847869 -0.36606401 0.0017374251
-0.0050460696 0.039632991 0.028483527 0.4389331 0.80790973 -0.39321715 0.0024476401
-0.016066296 0.044295136 0.027800446 0.27804181 0.79147542 -0.5442971 0.0057361689
-0.013552617 0.043805309 0.028516963 0.31695303 0.84158927 -0.43734235 0.0045101931
-0.01062539 0.042587824 0.028539479 0.36806273 0.82469338 -0.42943063 0.0029128019
-0.0087650744 0.04207696 0.0294418 0.42290637 0.83012903 -0.36336744 0.0017809968
-0.06706284 0.047405839 0.027293321 -0.90012896 0.20383252 -0.38499379 0.00010659625
-0.048715748 0.047417007 0.027397912 0.1930804 0.38010469 -0.90456641 0.019692624
-0.046576146 0.047039226 0.027629584 0.13707629 0.4261618 -0.89420146 0.015477668
-0.043722529 0.046703808 0.027788045 0.058827683 0.46946585 -0.88098866 0.0095670205
-0.040708233 0.046711542 0.027861159 -0.010900666 0.52096581 -0.85350794 0.0058701294
-0.037757542 0.04691596 0.027915698 -0.03367066 0.56412643 -0.82500166 0.0040110983
-0.034663253 0.046960361 0.027834309 -0.020452037 0.60055882 -0.79931891 0.0039622979
