# .PCD v0.7 - Point Cloud Data file format
VERSION 0.7
FIELDS x y z normal_x normal_y normal_z curvature
SIZE 4 4 4 4 4 4 4
TYPE F F F F F F F
COUNT 1 1 1 1 1 1 1
WIDTH 557
HEIGHT 1
VIEWPOINT 0 0 0 1 0 0 0
POINTS 557
DATA ascii
0.022240393 -0.022127848 -0.02540876 0.25382316 0.729213 -0.63547009 0.0030057426
0.024867704 -0.022738352 -0.02472849 0.42887351 0.64111441 -0.6364274 0.0038876869
0.026977383 -0.02365108 -0.023943456 0.64579946 0.53096765 -0.54864955 0.0025410191
0.016537266 -0.020555547 -0.023967724 -0.19443779 0.77613825 -0.59983623 0.0029996042
0.019217344 -0.020439161 -0.024065403 0.020252952 0.75139147 -0.65954572 0.0020912625
0.021683734 -0.020668847 -0.023937616 0.22985387 0.74503642 -0.62616915 0.0022575378
0.030770054 -0.042781737 -0.022007298 0.93153584 -0.26430994 -0.2497623 0.0011589836
0.031489804 -0.040387146 -0.022613637 0.9372648 -0.2247676 -0.26648489 0.0011549871
0.032119665 -0.037410472 -0.022326341 0.95123911 -0.13091488 -0.27929458 0.003009795
0.0031268767 -0.033563334 -0.022066113 -0.92211658 0.34802791 -0.16904898 0.00096723792
0.032154709 -0.034202281 -0.022522176 0.94296426 0.042752266 -0.33013746 0.0026485813
0.0038953475 -0.031137902 -0.022315999 -0.88416278 0.41995755 -0.20467487 0.0032433723
0.03187786 -0.031380061 -0.022226339 0.90217471 0.17654012 -0.39359155 0.0020612227
0.0050007361 -0.028517075 -0.021910926 -0.85905564 0.45914367 -0.22629765 0.0035010851
0.0059260936 -0.027447877 -0.022840794 -0.79483545 0.53083205 -0.2940307 0.0041295374
0.031024933 -0.028450452 -0.022162439 0.82411432 0.33753049 -0.45487222 0.00081325404
0.0071880906 -0.02545576 -0.022214508 -0.73133689 0.59655297 -0.33056143 0.0018903866
0.0089436471 -0.02427846 -0.023382884 -0.57222301 0.66807348 -0.47564554 0.001558859
0.029000472 -0.02530705 -0.022864396 0.72580808 0.45195153 -0.51859665 0.0015720008
0.03016353 -0.025867982 -0.02153407 0.77567273 0.41512531 -0.47539744 0.00085654465
0.0082325395 -0.023639718 -0.02135041 -0.65330923 0.61669588 -0.43917337 0.0020410519
0.010089766 -0.022466065 -0.022184046 -0.5557673 0.68361753 -0.47306406 0.0021355411
0.012269667 -0.021475619 -0.022974294 -0.50059569 0.6987018 -0.51109672 0.00058614142
0.025674958 -0.021580458 -0.022925319 0.40846825 0.66580009 -0.6243909 0.0024868064
0.027901376 -0.022735599 -0.021939157 0.63302439 0.54654396 -0.54824245 0.0042412071
0.011018638 -0.020807607 -0.020942997 -0.55811816 0.67410499 -0.48382491 0.002033547
0.013311032 -0.019997332 -0.021773195 -0.38554087 0.73371994 -0.5594759 0.0026870046
0.016120797 -0.019216491 -0.022183863 -0.16345473 0.76157773 -0.62712187 0.0021678116
0.019166447 -0.018986844 -0.022353647 0.011382149 0.76210117 -0.64735788 0.0018864257
0.022100979 -0.019263508 -0.02215877 0.20888345 0.73677999 -0.64305758 0.0023333977
0.02488065 -0.020000756 -0.021698095 0.40705165 0.67927897 -0.61064643 0.0032710414
0.027012886 -0.020805506 -0.020988446 0.60722715 0.58762336 -0.53476536 0.0030430935
0.01756335 -0.017663596 -0.020676654 -0.089126669 0.76840883 -0.63372254 0.0010360128
0.019136632 -0.017659256 -0.020788815 -0.026346102 0.75949574 -0.64997846 0.0038424754
0.020720186 -0.017664013 -0.020666223 0.094718166 0.76050556 -0.6423859 0.00081906881
0.032491889 -0.038462263 -0.020031761 0.96167606 -0.15046173 -0.22921713 0.0019514633
0.033064924 -0.036562849 -0.018444564 0.96103436 -0.034454104 -0.27427346 0.0017598676
0.032955159 -0.034410108 -0.019879242 0.96321821 -0.0023182083 -0.26871052 0.0015952513
0.0035939123 -0.031059353 -0.019339751 -0.9158414 0.36322233 -0.1711842 0.0015778082
0.032464746 -0.030308632 -0.020391565 0.92668456 0.15567781 -0.34208208 0.0018707153
0.032993264 -0.031508356 -0.019381171 0.95663232 0.09027496 -0.27695683 0.0015259397
0.0044432897 -0.028468238 -0.019184936 -0.90917188 0.37613779 -0.17868058 0.0024386668
0.032227498 -0.028256856 -0.019545469 0.87493384 0.29100204 -0.38705125 0.0012704779
0.032975469 -0.02898976 -0.018130597 0.90825707 0.24034066 -0.34249875 0.0020381706
0.0052599353 -0.026277363 -0.018608805 -0.86307555 0.4346813 -0.25720155 0.0021874295
0.006307513 -0.024882264 -0.01934959 -0.81421083 0.49306417 -0.30650997 0.0021607142
0.03122133 -0.02532855 -0.019173613 0.82242101 0.37278566 -0.42971447 0.0012127991
0.0078127664 -0.022587961 -0.019015742 -0.71044952 0.56898248 -0.41415021 0.0022356999
0.0093101254 -0.021603664 -0.020003574 -0.58574373 0.65221322 -0.48116761 0.0013858502
0.028938336 -0.021888867 -0.019765003 0.71078849 0.48629472 -0.50822943 0.0024392321
0.030147457 -0.022892585 -0.018783256 0.74747044 0.47046199 -0.46899188 0.0011790741
0.0085944906 -0.020944549 -0.017987829 -0.69949907 0.57237852 -0.42788312 0.0034099396
0.010404904 -0.019883487 -0.018982887 -0.55778515 0.6637342 -0.49832991 0.0020391615
0.012695554 -0.018735137 -0.019673809 -0.38368693 0.71666259 -0.58239084 0.0021725358
0.015091452 -0.018124064 -0.020436984 -0.24757576 0.74675709 -0.61730069 0.0026086986
0.02321187 -0.018123595 -0.020449009 0.26609677 0.73056436 -0.62886268 0.0034881996
0.025436129 -0.018704845 -0.019857265 0.38278088 0.70145613 -0.60119724 0.0020594695
0.027781634 -0.019759938 -0.018939422 0.60076332 0.59139895 -0.53789467 0.0039155199
0.013453054 -0.017273264 -0.018430477 -0.40655872 0.69808543 -0.58939511 0.0021373867
0.016218346 -0.016670743 -0.019118538 -0.23282583 0.75178385 -0.61693859 0.0030843406
0.019094545 -0.016091904 -0.018954564 0.00096679962 0.77562374 -0.63119477 0.002695879
0.02209864 -0.016582433 -0.019044997 0.21699129 0.75028038 -0.62449521 0.0024911987
0.024927907 -0.017244102 -0.018498827 0.40059125 0.70470339 -0.58559346 0.0020452843
0.02676007 -0.017776398 -0.017768901 0.53439248 0.64262635 -0.54905015 0.0055895825
0.033684824 -0.033780918 -0.016297391 0.97085047 0.0071685384 -0.23957887 0.0015943816
0.00361175 -0.03034333 -0.016580965 -0.93761832 0.31701821 -0.14272839 0.00085309165
0.033641178 -0.031461753 -0.016859954 0.96522576 0.058987066 -0.25467566 0.00214301
0.0041804407 -0.028064864 -0.016615693 -0.93182129 0.3262873 -0.15888916 0.0011471098
0.033497728 -0.028477076 -0.016102888 0.92910326 0.21274124 -0.30250344 0.00087032717
0.0049830424 -0.025504131 -0.016008588 -0.91050148 0.34284523 -0.23118006 0.0029879618
0.0058826581 -0.024171112 -0.017060827 -0.82586455 0.45013177 -0.33960146 0.0046500191
0.032129157 -0.024715848 -0.016798403 0.87230539 0.3269445 -0.3635802 0.0015096364
0.032950465 -0.026052959 -0.015969872 0.88695341 0.31216395 -0.34039298 0.00075662404
0.0054486473 -0.023818208 -0.015131395 -0.85929239 0.43369678 -0.27115247 0.0030749133
0.0066218781 -0.022304188 -0.016172199 -0.80312347 0.4859772 -0.34470111 0.0021983173
0.031358838 -0.02247146 -0.016021689 0.81909031 0.42183313 -0.38877746 0.0007831931
0.0079339324 -0.02009999 -0.015935972 -0.72918105 0.53282762 -0.42940634 0.0035463904
0.0095031131 -0.018855743 -0.016662965 -0.65042073 0.56822944 -0.50405174 0.0039869328
0.028903408 -0.019050846 -0.016752347 0.71802717 0.51997936 -0.46266448 0.0016145186
0.030077813 -0.019830626 -0.015745379 0.73665261 0.50295675 -0.45208132 0.0024973499
0.010529879 -0.016911639 -0.015640263 -0.54338759 0.61237621 -0.5742172 0.0026359549
0.012961527 -0.01589575 -0.016537601 -0.41509497 0.66569626 -0.62011659 0.0035620828
0.015879977 -0.015181362 -0.017286468 -0.218357 0.72812045 -0.64973915 0.0027016508
0.022569066 -0.015197665 -0.01728512 0.21055251 0.73961502 -0.63924742 0.0020864066
0.025327094 -0.01578499 -0.016492486 0.40963763 0.70290095 -0.58148712 0.0032027282
0.027670875 -0.017048754 -0.015940353 0.57555336 0.64319646 -0.5050115 0.0028647098
0.013728729 -0.014249541 -0.015275287 -0.38452244 0.66691393 -0.63825411 0.0019259554
0.01623621 -0.013730448 -0.015822323 -0.22983961 0.70938706 -0.66629106 0.002303194
0.019116553 -0.013511271 -0.016025454 0.012206255 0.74743503 -0.66422284 0.0025414662
0.022023158 -0.013809595 -0.015865946 0.25438851 0.73451066 -0.62911081 0.002124425
0.024551319 -0.014369986 -0.015322178 0.39995578 0.70301908 -0.58804727 0.0015920633
0.0039329384 -0.028144328 -0.014136475 -0.95576596 0.26737437 -0.12256605 0.0021625035
0.033860646 -0.027311644 -0.014031213 0.92453784 0.24601567 -0.29104304 0.0015175176
0.0044368273 -0.025415691 -0.013139781 -0.92913651 0.29536074 -0.22241226 0.0024688833
0.033619732 -0.025399355 -0.01319894 0.8985163 0.31049541 -0.31025958 0.00093245856
0.0051442161 -0.022721356 -0.012902971 -0.91185731 0.31662893 -0.26127076 0.0044573504
0.0060344604 -0.021476975 -0.013910387 -0.84649217 0.39567503 -0.3562192 0.0032917412
0.032244556 -0.021900751 -0.013431728 0.85416228 0.39274058 -0.34082505 0.00060000288
0.033134382 -0.023392897 -0.012733709 0.88396627 0.34437945 -0.31623784 0.001137436
0.0054846406 -0.020540854 -0.011791181 -0.84156364 0.36424515 -0.39886868 0.0034562601
0.006782278 -0.019370483 -0.013239451 -0.8149057 0.39385974 -0.42520958 0.0013537983
0.031066705 -0.019597735 -0.013390061 0.80989939 0.45699164 -0.36772472 0.001362976
0.0077480553 -0.017005719 -0.01260417 -0.700984 0.45272696 -0.55105329 0.0025481745
0.0094028646 -0.016039101 -0.013651281 -0.60103297 0.5546881 -0.57539588 0.0037857222
0.028505722 -0.015988175 -0.013619447 0.61552101 0.61963493 -0.48701787 0.0032197067
0.030077672 -0.01730524 -0.01279081 0.74385238 0.5239979 -0.41486117 0.0022175338
0.010530561 -0.013839042 -0.012621997 -0.52118403 0.58474076 -0.62164736 0.0022756795
0.012910887 -0.01309821 -0.013627917 -0.37942743 0.66596079 -0.64228582 0.0022407973
0.01583075 -0.012491744 -0.014383352 -0.19737892 0.71365279 -0.67211694 0.0023133962
0.022398002 -0.012533228 -0.014254965 0.23028819 0.73338342 -0.63962191 0.0022920114
0.025319953 -0.013246576 -0.013409572 0.41988981 0.69156587 -0.58773232 0.0028585207
0.027451299 -0.01417303 -0.012638699 0.57218963 0.63535243 -0.51858097 0.0026683544
0.013559475 -0.011449655 -0.012338294 -0.35612208 0.65855032 -0.66293931 0.0016029732
0.016148772 -0.010988568 -0.012871559 -0.19231123 0.71223712 -0.67508125 0.002551517
0.019134587 -0.010892354 -0.01314644 0.029708767 0.73236513 -0.6802637 0.0033057902
0.021965427 -0.011093592 -0.01278021 0.26310197 0.73288405 -0.62742209 0.0024171681
0.024270991 -0.011680764 -0.012296403 0.41127947 0.70683175 -0.57553279 0.0013840133
0.0036560646 -0.028498119 -0.0097269174 -0.97690117 0.15904672 -0.14271712 0.0027467106
0.0039176634 -0.025474781 -0.010053671 -0.96764642 0.18182041 -0.1749333 0.0035802606
0.034159143 -0.024541063 -0.010183951 0.90620768 0.32448259 -0.27110636 0.00070200383
0.004384893 -0.022271311 -0.010132944 -0.93783361 0.19165817 -0.28937057 0.0027866047
0.03337628 -0.022267478 -0.010605447 0.88849294 0.35904247 -0.28577745 0.0010296898
0.0050409525 -0.019463826 -0.010016042 -0.88452399 0.25244188 -0.39228871 0.0031202065
0.0060669202 -0.018375667 -0.011233035 -0.84772235 0.33976015 -0.40734479 0.0030804435
0.03191106 -0.019023877 -0.010593249 0.85083532 0.42173865 -0.31339392 0.00025862633
0.032916985 -0.020514177 -0.0097995289 0.887501 0.36302695 -0.28381923 0.0010655992
0.0054212678 -0.017094228 -0.0090656923 -0.81409109 0.34084961 -0.47018856 0.0028250681
0.0066539613 -0.016214304 -0.010387728 -0.75995016 0.40439019 -0.50886577 0.0018772644
0.029460136 -0.015260171 -0.011334699 0.74958163 0.51601899 -0.41455024 0.0021392854
0.030707352 -0.016397396 -0.010230962 0.7997995 0.47762534 -0.36358598 0.0022068487
0.0076190531 -0.01384356 -0.0097041773 -0.66700941 0.4838236 -0.56658024 0.0026785869
0.0094956877 -0.01281636 -0.010763664 -0.57588822 0.54645723 -0.60806024 0.0036408957
0.025998313 -0.012031395 -0.01141369 0.44441938 0.69034851 -0.5708856 0.0024498731
0.028275106 -0.01325407 -0.010383732 0.64884466 0.61541128 -0.44751483 0.0030778772
0.029916814 -0.014250021 -0.0091202762 0.74443448 0.5297718 -0.40639776 0.0037524831
0.0083014555 -0.011635702 -0.0086632781 -0.61601114 0.50424027 -0.60520416 0.0045182379
0.010418533 -0.010716058 -0.0096459864 -0.49209937 0.5659669 -0.66145277 0.0022963244
0.012918306 -0.010113074 -0.010693975 -0.35522449 0.65277332 -0.66910577 0.0032387055
0.015749944 -0.0095000165 -0.011222091 -0.15919182 0.72217888 -0.67313868 0.00192591
0.01908621 -0.0092666186 -0.011384523 0.043300826 0.72019625 -0.6924178 0.0031452414
0.022429036 -0.0096811373 -0.010962966 0.27083138 0.7146185 -0.64495796 0.0027642194
0.025149021 -0.010444136 -0.010138225 0.44345015 0.70350516 -0.55536681 0.0032594819
0.027123278 -0.011310611 -0.0093446188 0.5742532 0.63004768 -0.52275527 0.002032245
0.011546389 -0.0088511966 -0.0087449662 -0.44903466 0.58999163 -0.67102748 0.0010903454
0.01344686 -0.0084091146 -0.0092980256 -0.31056195 0.67329383 -0.67098939 0.0017076124
0.016217673 -0.0079635037 -0.0097629232 -0.14546457 0.71999466 -0.678563 0.0021447926
0.019149102 -0.0079050679 -0.0099079544 0.06341403 0.74427271 -0.66485846 0.0033781277
0.021939781 -0.0082890997 -0.0095960917 0.28042382 0.73283333 -0.61993366 0.0025234942
0.02429199 -0.0088486783 -0.0088917129 0.44465092 0.70233017 -0.55589384 0.0015001816
0.0036649317 -0.024872063 -0.0083554275 -0.9749434 0.094748631 -0.20126589 0.0017504675
0.003668915 -0.022580979 -0.0077394703 -0.95770562 0.11079337 -0.26556492 0.003888468
0.03407941 -0.022261066 -0.0076142894 0.90437537 0.34849766 -0.24628146 0.00042640814
0.0039910544 -0.019431913 -0.0073147174 -0.92412424 0.17505391 -0.33963302 0.0028924651
0.032462023 -0.018382972 -0.0081132762 0.88240868 0.39086932 -0.26187038 0.00078436686
0.033216197 -0.019576084 -0.0073469244 0.89377683 0.37525243 -0.24565962 0.00037243389
0.0046516387 -0.016521581 -0.0071755992 -0.87613171 0.25771785 -0.40739986 0.004478706
0.031828187 -0.016555429 -0.0072396742 0.86456078 0.42710859 -0.26478842 0.00048898038
0.032631576 -0.017306892 -0.0057993941 0.89525962 0.39144307 -0.21279694 0.00028271717
0.0051997402 -0.013893604 -0.0064780721 -0.79587537 0.34186321 -0.49971178 0.0031085613
0.0065548541 -0.013050538 -0.0077814097 -0.7004059 0.42824668 -0.57099587 0.0034052436
0.029069124 -0.012272901 -0.0079161134 0.67975247 0.60234165 -0.41847464 0.0011014893
0.030385043 -0.013640501 -0.0071392627 0.81012446 0.47426227 -0.34463558 0.0033286938
0.0073507954 -0.010647431 -0.0068202196 -0.64855111 0.44647408 -0.6164757 0.0016398949
0.0093690706 -0.0097514819 -0.007964679 -0.56683844 0.53570592 -0.62587011 0.0017043566
0.026077893 -0.009443175 -0.0080832578 0.56868833 0.64472866 -0.51080179 0.00077293569
0.028013283 -0.010541314 -0.0071182372 0.66079664 0.59420127 -0.45855501 0.0028948437
0.029840574 -0.011707392 -0.0056404285 0.76009119 0.55132818 -0.3439458 0.0017263308
0.0081612691 -0.0085255913 -0.0059623411 -0.55191994 0.55322576 -0.62395966 0.0013773126
0.01033449 -0.0076714596 -0.0068718912 -0.4147988 0.61185831 -0.67347711 0.0011421645
0.013035555 -0.0069400105 -0.0077011865 -0.27383643 0.65526682 -0.70401633 0.0014706124
0.016061073 -0.0063945251 -0.0081158318 -0.11741695 0.69446385 -0.70988262 0.0020363834
0.019223491 -0.0063069728 -0.0081617618 0.079834886 0.71685344 -0.6926381 0.0025770967
0.022242295 -0.0067860391 -0.007750853 0.27793142 0.7194373 -0.63652503 0.0021743467
0.024942096 -0.0077016586 -0.0069328677 0.48591176 0.68518567 -0.54259604 0.0024523961
0.027179761 -0.0087450761 -0.0058700652 0.63775742 0.59521699 -0.48885804 0.0031395638
0.011387058 -0.0056339093 -0.0057501458 -0.40328461 0.58801138 -0.70114493 0.0012569171
0.013420517 -0.0051628007 -0.0061935978 -0.26862046 0.64525205 -0.71518731 0.0015644828
0.016132537 -0.0049074264 -0.0066577299 -0.099602334 0.69108152 -0.71588099 0.0023186849
0.019055983 -0.0048591052 -0.0066197999 0.10689619 0.71385467 -0.69208717 0.003180655
0.021789744 -0.0053173611 -0.0063121207 0.31395191 0.71386838 -0.62596017 0.0026145682
0.0032199826 -0.025067119 -0.0047856905 -0.9815284 0.060496334 -0.1814997 0.0013280357
0.0031148784 -0.02222514 -0.0049087317 -0.97859371 0.039037935 -0.20206504 0.0012229646
0.0029892365 -0.019482061 -0.0040114531 -0.9639219 0.057059921 -0.25999758 0.0041104397
0.033633783 -0.0192116 -0.0048952363 0.90435153 0.36924699 -0.21402089 0.00039501677
0.0033603117 -0.016456401 -0.0041869427 -0.9050436 0.17349218 -0.38832524 0.0019698574
0.032283753 -0.01572652 -0.0041495375 0.89524233 0.39336899 -0.20928946 0.00024325964
0.032997131 -0.017137846 -0.0040116049 0.89559674 0.3918263 -0.21066216 0.00022498712
0.0040743821 -0.013381892 -0.0041954801 -0.84458286 0.2755734 -0.45906323 0.0029762322
0.031244751 -0.013473708 -0.00426686 0.86569792 0.43058667 -0.25526887 0.0007899708
0.0048757722 -0.010708614 -0.0038807385 -0.76095754 0.34866381 -0.54715365 0.0030944499
0.0062915985 -0.0098493267 -0.0050963145 -0.68883163 0.41289908 -0.59583998 0.0028770757
0.02908783 -0.0099135749 -0.0044499813 0.76496941 0.53528446 -0.358179 0.0018178256
0.030143807 -0.011091431 -0.0039101294 0.79540288 0.52769303 -0.29811803 0.0046088938
0.0054221018 -0.0084008733 -0.0030537606 -0.68571061 0.39441863 -0.61174744 0.0032886101
0.0071332776 -0.0074432115 -0.004137205 -0.58268636 0.47136608 -0.66203529 0.003111386
0.0093556922 -0.006399659 -0.0051406659 -0.46204108 0.57065046 -0.67887849 0.0031136656
0.025766715 -0.0066631916 -0.0048550153 0.54375798 0.67634416 -0.49687606 0.0035749893
0.027642244 -0.0077365744 -0.0038329721 0.66897327 0.59843683 -0.44084933 0.0025124194
0.0079270145 -0.0051894085 -0.0031201113 -0.52055848 0.50982863 -0.68490416 0.0024782212
0.010069095 -0.0044977665 -0.0039971229 -0.3821761 0.610349 -0.69384122 0.0016450954
0.012865695 -0.0038726488 -0.0047624065 -0.2334175 0.67243731 -0.70238471 0.0013546087
0.01596842 -0.0035135336 -0.0052428409 -0.073661871 0.71651226 -0.69367427 0.0021871259
0.019225579 -0.003517213 -0.0051572481 0.12436343 0.73751509 -0.66378099 0.0028025985
0.022343986 -0.0040449011 -0.0045365156 0.34478235 0.69912827 -0.6263743 0.0031421892
0.024688354 -0.0049487315 -0.0037721281 0.51503718 0.66880995 -0.536125 0.0019793021
0.010844954 -0.0026530705 -0.0029047898 -0.35025516 0.60173643 -0.71779841 0.001791785
0.013262555 -0.0022326282 -0.0034227544 -0.21523428 0.66390759 -0.71617103 0.0020044565
0.016130174 -0.0018992525 -0.0036586355 -0.051222585 0.7088291 -0.70351803 0.0025181714
0.019051252 -0.0020774687 -0.003653904 0.15915549 0.72922099 -0.66551208 0.0031576843
0.021757122 -0.0025790958 -0.003205254 0.38144559 0.71137077 -0.59029716 0.0033838386
0.002764663 -0.022871779 -0.0018369069 -0.98261833 -0.015697563 -0.18497241 0.0013921724
0.0022976045 -0.019626422 -0.00055352459 -0.97978258 -0.019555693 -0.19910707 0.0023079559
0.033850551 -0.01838736 -0.0020198037 0.90746069 0.37805057 -0.18328324 0.00013942875
0.0022961197 -0.016537923 -0.0010127705 -0.9683041 0.0099935746 -0.24957404 0.0021827728
0.0027622159 -0.015783994 -0.0024046039 -0.94339699 0.07084918 -0.3240101 0.0031597237
0.032406472 -0.015076857 -0.0024498214 0.90182525 0.39133394 -0.1832187 0.00022239311
0.033098828 -0.016204251 -0.0015673747 0.90185297 0.39127943 -0.18319869 0.00019101278
0.0022978366 -0.013483553 -0.00048169587 -0.92396337 0.090715654 -0.37156752 0.0027379442
0.002921429 -0.013210266 -0.0018657622 -0.89178914 0.18036979 -0.4149445 0.0031629598
0.031952281 -0.01333096 -0.00089359784 0.90725535 0.38184863 -0.17629319 0.00028068869
0.0022999533 -0.011371763 0.00017301133 -0.85780919 0.1701614 -0.48498294 0.0034939854
0.0033124597 -0.010468707 -0.0013211432 -0.82898468 0.24485044 -0.50282466 0.0023445284
0.030651234 -0.010568355 -0.0014506502 0.86897671 0.43005165 -0.24481647 0.0018143925
0.004222109 -0.0075541362 -0.0010722629 -0.72038931 0.33306307 -0.6083653 0.0017222142
0.0060566985 -0.0063724779 -0.0023781618 -0.58652568 0.44029093 -0.67980254 0.0022546113
0.028583592 -0.0072163981 -0.0013964167 0.74704993 0.55948865 -0.35901105 0.0015355875
0.029872319 -0.0085214395 -0.00044917176 0.79941285 0.51582217 -0.30800414 0.0020951566
0.0050814101 -0.004713201 -0.00044281059 -0.61922413 0.37620643 -0.68922436 0.0027000366
0.0069705476 -0.0042224042 -0.0017051738 -0.49688679 0.50432473 -0.70622945 0.0012805749
0.008880442 -0.0033134781 -0.0023782065 -0.472936 0.524858 -0.70771158 0.0016756932
0.025557868 -0.0039455537 -0.001524215 0.57053035 0.66555858 -0.48117235 0.0031780284
0.027221166 -0.0051560127 -0.00087021221 0.68651646 0.59396839 -0.41940045 0.0021862371
0.0056134909 -0.0028510801 0.0001660774 -0.5523231 0.4345623 -0.71140349 0.0010114791
0.0074667856 -0.0017810345 -0.00044115074 -0.45548487 0.48316985 -0.74771672 0.0025548493
0.0099687008 -0.0012641187 -0.0014058977 -0.33725709 0.56961167 -0.7495333 0.0011726536
0.012957588 -0.00065801374 -0.0019739857 -0.16962299 0.6547417 -0.73657405 0.001625605
0.016185902 -0.00025348132 -0.002069422 -0.015891243 0.67536891 -0.7373088 0.0019943821
0.019136306 -0.00042954378 -0.0019094439 0.17566241 0.69662547 -0.69559729 0.0023177082
0.022182398 -0.0011869521 -0.0012936846 0.41336909 0.67608684 -0.60994482 0.0049660243
0.024500813 -0.0023754355 -0.00071660476 0.54303825 0.65293795 -0.52799767 0.0012405408
0.010420682 0.00077697623 -6.9495058e-05 -0.29577792 0.55154228 -0.77994645 0.0020897714
0.013248969 0.0012483433 -0.00043918588 -0.13323562 0.61871475 -0.77423525 0.0022960214
0.016170623 0.0013377669 -0.00057559181 0.025073929 0.6684677 -0.74331838 0.0025688761
0.018916199 0.0010074404 -0.00047720736 0.23963551 0.69758469 -0.67524087 0.0036920886
0.021108748 0.00058010576 1.5238766e-06 0.39332604 0.69596589 -0.60077125 0.0026904109
0.002303659 -0.021364538 0.0013193081 -0.98228478 -0.042372551 -0.18254073 0.0010734552
0.0018309556 -0.018789826 0.0022033269 -0.98040712 -0.055306826 -0.18905817 0.00078489125
0.0016706727 -0.016149266 0.0014965225 -0.96623617 -0.01849536 -0.25699353 0.0023268466
0.033369206 -0.015896475 0.0010336975 0.91255856 0.3751412 -0.16280669 0.00016353825
0.0015918099 -0.013541529 0.0016109112 -0.95596409 -0.018993238 -0.29286829 0.0032916926
0.032430694 -0.013528313 0.0011773894 0.90663397 0.38999853 -0.16098419 0.00044311126
0.032807335 -0.013820764 0.0031024108 0.91250384 0.3823438 -0.1454304 0.0002106763
0.0017500246 -0.010296717 0.0016346963 -0.90870357 0.067610167 -0.41193041 0.0052734432
0.031146135 -0.010213573 0.001467217 0.9067654 0.39041612 -0.15922222 0.00064182549
0.0018303687 -0.0073746168 0.0021663217 -0.82593304 0.13903511 -0.54635495 0.0047375844
0.0029115051 -0.0069164825 0.00082201371 -0.76481646 0.24143152 -0.5972994 0.0037245848
0.029209936 -0.006337197 0.0014988373 0.80676651 0.51344925 -0.29239988 0.0024638362
0.030078817 -0.0078401566 0.0014791081 0.81949937 0.49868533 -0.2823714 0.0017316429
0.001967934 -0.0046617379 0.0027472309 -0.74941701 0.20466819 -0.62967068 0.0041733515
0.0035284832 -0.0043567657 0.0012157264 -0.69453126 0.29178548 -0.65763789 0.0024347133
0.026462147 -0.0033259653 0.00051947334 0.68678331 0.59574515 -0.41643298 0.0011477233
0.027991891 -0.00445065 0.0017266974 0.73921871 0.56926626 -0.35984933 0.0017335026
0.0023096446 -0.002384058 0.0031708868 -0.66149384 0.26703456 -0.70079851 0.0031811674
0.0042049624 -0.001668055 0.0018831503 -0.58423889 0.35015923 -0.73215681 0.0026052305
0.0066353357 -0.00068614807 0.00075804954 -0.41644189 0.49682203 -0.76140928 0.001779684
0.02266738 -1.0069639e-05 0.000422735 0.43178958 0.67977619 -0.5928424 0.0040863692
0.02534491 -0.0015210975 0.0015150041 0.64888024 0.63078117 -0.42552274 0.001589144
0.027236139 -0.00270109 0.0029037388 0.72603178 0.58733267 -0.35765672 0.0012270134
0.0046336837 0.00089466234 0.0028503744 -0.4893547 0.38490313 -0.78254819 0.0026150499
0.0070058438 0.0014818521 0.0018557061 -0.40631181 0.45861965 -0.79030293 0.0016222277
0.0099703521 0.0020871903 0.0010325378 -0.25807852 0.56193554 -0.78589052 0.0029781135
0.013006065 0.0026375456 0.00074980059 -0.090250894 0.64027345 -0.7628268 0.0019014875
0.016520977 0.0027163699 0.00073220604 0.06300123 0.68426293 -0.7265088 0.0024863915
0.019324599 0.002364286 0.0010941795 0.24369605 0.70884633 -0.6619283 0.0024639673
0.021997454 0.001561661 0.0018150199 0.42280173 0.68599349 -0.59215844 0.0022202653
0.024126558 0.00033652072 0.0024280522 0.58815044 0.6420899 -0.49173141 0.0022977842
0.0076124063 0.0037775917 0.0029646663 -0.34325767 0.46849185 -0.81405753 0.0020596799
0.010239219 0.0042965603 0.0025288204 -0.22045065 0.55368203 -0.8030178 0.0014943532
0.013008084 0.0045155087 0.002260064 -0.043808926 0.63642347 -0.77009481 0.0024942288
0.01602398 0.0043899934 0.0022387968 0.11555883 0.67790103 -0.72601396 0.0035544471
0.018991435 0.0038573619 0.0025333783 0.30404422 0.70246899 -0.64350158 0.0030323858
0.020889554 0.0033332296 0.0030022154 0.44859803 0.6859498 -0.57291603 0.0012627174
0.0011664787 -0.016544078 0.0047309054 -0.97401941 -0.15467916 -0.16540998 0.0020329333
0.00068807276 -0.013437052 0.0047665788 -0.96009243 -0.096366704 -0.26255646 0.003807703
0.0004512782 -0.010389038 0.0045613525 -0.93361723 -0.064250655 -0.35246375 0.0055482709
0.031749837 -0.01076192 0.0050378032 0.9066003 0.38942069 -0.16256531 0.00055620651
-0.00055971078 -0.0069493167 0.0061816759 -0.88207072 -0.044006463 -0.46905723 0.0025666503
0.00040124121 -0.0074058669 0.0044587012 -0.85728395 0.055123121 -0.51188439 0.0026518826
0.030377977 -0.007282842 0.0041888468 0.8865962 0.41969213 -0.19443686 0.0021121374
-0.00055959425 -0.0045497203 0.0061456496 -0.82371622 0.019872798 -0.56665391 0.0039860024
0.00057484198 -0.0044515813 0.0045514563 -0.80287331 0.1102615 -0.58586407 0.0026007076
0.028945608 -0.0043668491 0.0044721086 0.84862548 0.47516906 -0.23248467 0.001342015
-0.00056007481 -0.0021508895 0.0062942915 -0.75660908 0.10323992 -0.64566571 0.0030667223
0.0010090399 -0.0016047027 0.0047510676 -0.71031338 0.1929224 -0.6769312 0.00235975
0.0027877688 -0.00047701242 0.003523607 -0.64397275 0.29251945 -0.70691687 0.0021419593
0.026018368 -0.00063538196 0.0038278492 0.7068308 0.61666024 -0.34658393 0.001064647
0.027343664 -0.0016700382 0.0049726106 0.76414281 0.56366688 -0.31363252 0.0015182012
0.0013305815 0.0013062855 0.0053500505 -0.61762702 0.22305711 -0.75417656 0.0015381627
0.0035342257 0.0017970868 0.0039730296 -0.53498405 0.32483634 -0.77991891 0.0022012703
0.023006288 0.0025487903 0.0040452518 0.60963517 0.64805979 -0.45646852 0.0013963775
0.024896756 0.0012246036 0.0048503038 0.66451979 0.62265748 -0.41317213 0.0025259343
0.0018788819 0.0040449086 0.0059787519 -0.49169722 0.33402038 -0.80415434 0.0017231744
0.0039897715 0.0045518996 0.0049973298 -0.41089264 0.37953508 -0.82892722 0.0023112223
0.0067860871 0.0049534417 0.0039832946 -0.30005938 0.48054916 -0.82403696 0.0033071798
0.0097842496 0.005644971 0.0035664679 -0.15512887 0.56795764 -0.80830628 0.0014907093
0.016863123 0.0057256185 0.0036384354 0.163394 0.67890638 -0.71581322 0.0026201974
0.019487064 0.0052051945 0.0042589176 0.32014105 0.69438231 -0.64447105 0.0022861122
0.021814195 0.0041920394 0.0049227169 0.53364384 0.68104517 -0.5013997 0.0025895997
0.0043434515 0.0068558846 0.0059662331 -0.37780267 0.38850218 -0.84043521 0.0015496954
0.0071405354 0.0074009104 0.0053327316 -0.20962259 0.51030326 -0.83405572 0.001560563
0.010206327 0.0074184579 0.0047365045 -0.10535538 0.56193072 -0.8204475 0.0023990169
0.013072683 0.0074159754 0.0046038665 0.026650885 0.61308503 -0.78956723 0.0013220528
0.015991813 0.0073024142 0.0049071191 0.23783585 0.68607086 -0.68756151 0.0027637635
0.018789599 0.0067752674 0.0055636931 0.40166274 0.68110311 -0.61218095 0.0024709813
0.0079822121 0.0092226965 0.0062246211 -0.18071756 0.50731218 -0.84260041 0.0023729391
0.010235077 0.0093637276 0.0061012022 -0.046742175 0.57211727 -0.81883883 0.0018264678
0.012873819 0.009283728 0.0060998853 0.1004573 0.63196719 -0.76845676 0.0027430383
0.015038957 0.0091283284 0.0062940009 0.23606926 0.65406567 -0.71865803 0.0030147445
0.00087983347 -0.016330106 0.0068949051 -0.96886444 -0.20726126 -0.13544218 0.0012936713
-0.00056804414 -0.012048777 0.0087594576 -0.93947583 -0.25974974 -0.22341721 0.0029684713
0.00010929545 -0.01366125 0.0077221757 -0.95980066 -0.23654765 -0.15108894 0.0013383923
-0.00075803581 -0.010149066 0.0078383153 -0.94410115 -0.20062841 -0.26157463 0.0024602902
-8.0913422e-05 -0.011759099 0.0066692121 -0.94769216 -0.21690418 -0.23416254 0.0018868615
-0.001288758 -0.0074523464 0.0079292357 -0.90813339 -0.15002659 -0.39087823 0.0028845684
0.030650761 -0.0071931146 0.0064862259 0.88658679 0.41970798 -0.19444588 0.0021181204
-0.0016672597 -0.004458833 0.0079122102 -0.8587175 -0.057169564 -0.50925034 0.0016568268
0.029231241 -0.0038336478 0.006816674 0.84856361 0.47715583 -0.22860916 0.0010478824
0.029722966 -0.0047960244 0.0069897957 0.84865963 0.47406474 -0.23460492 0.0011074742
-0.00167727 -0.0015978643 0.0077813882 -0.80155867 0.038988579 -0.59664363 0.0048507131
0.028009731 -0.0015269869 0.0072758142 0.81120819 0.52637118 -0.25470531 0.00094967108
-0.0017117967 0.0014002728 0.008088788 -0.71077371 0.074542902 -0.69945979 0.0023189427
5.6361838e-05 0.0021374135 0.0066363271 -0.6421575 0.179216 -0.74532902 0.0026092131
0.025524303 0.0021308041 0.0075543234 0.7395243 0.58213544 -0.33796754 0.0019319059
0.0270257 0.00037687999 0.0081311874 0.78372651 0.55641001 -0.27600825 0.001219963
-0.001463294 0.004528604 0.0084217107 -0.5889551 0.19150606 -0.78514802 0.0022663067
0.00073914835 0.0048382366 0.0069699176 -0.46836963 0.31156281 -0.82677597 0.001644919
0.022809166 0.0051000747 0.0074342657 0.6173951 0.6476565 -0.44650218 0.0030989777
0.024279466 0.0038689459 0.0079496177 0.6964165 0.61164868 -0.37535316 0.0014516091
-0.001105134 0.0072859707 0.008897068 -0.49942863 0.25018644 -0.82944417 0.0021604472
0.0011197979 0.0074772481 0.0077095274 -0.42488262 0.32158259 -0.84620297 0.0028091304
0.0036559147 0.0080460683 0.00680367 -0.3282612 0.40130731 -0.85510057 0.0031825383
0.005680487 0.0086503811 0.0063832887 -0.21342848 0.46907067 -0.85698366 0.0025048698
0.016967557 0.0086538158 0.0065348037 0.27950481 0.69147676 -0.66613585 0.0021950402
0.019321235 0.0079617612 0.0073119234 0.47702983 0.67472434 -0.56319588 0.0051014312
0.021447472 0.0069652232 0.0082243942 0.59714156 0.65931982 -0.4568581 0.0022912482
-0.00056949502 0.0094390176 0.0092082806 -0.39474973 0.30099529 -0.8680867 0.0019617556
0.0012841828 0.010260517 0.0087240012 -0.33285505 0.37431121 -0.86550492 0.0011847615
0.0040099332 0.010369604 0.0078312354 -0.28518158 0.41403261 -0.86443532 0.0014569686
0.0070150024 0.010502425 0.0072013577 -0.15588035 0.49279058 -0.85607171 0.0019096545
0.0102571 0.010832062 0.0071444949 0.01005514 0.59062678 -0.80688214 0.0013325949
0.013226956 0.010702981 0.0073003406 0.13052541 0.63475579 -0.76160896 0.0018030748
0.016052824 0.010371131 0.0078732437 0.28685668 0.64772928 -0.70580453 0.0024381909
0.018447282 0.0096240807 0.0085410764 0.45828101 0.68281507 -0.56898332 0.0048520002
0.00216825 0.012258578 0.0092550106 -0.30413985 0.36807999 -0.87864447 0.0016499133
0.0041870768 0.01269206 0.0089499196 -0.18812916 0.4474526 -0.87429607 0.0017610918
0.0071959444 0.013018784 0.008721238 -0.070155628 0.51376206 -0.8550595 0.002087594
0.010239544 0.01285025 0.0086017735 0.055280685 0.57887727 -0.81353867 0.0022850155
0.013003566 0.012566762 0.0088017313 0.19949067 0.63268369 -0.74827451 0.0028495961
0.015128119 0.012092743 0.0090980865 0.3535814 0.667449 -0.65535641 0.0030590312
0.00039567737 -0.015471499 0.010179538 -0.95359254 -0.25685257 -0.15712437 0.001735624
-0.00073752936 -0.012586968 0.011021961 -0.93627864 -0.29422188 -0.19187446 0.00055804814
-8.7313267e-05 -0.014003899 0.0096387453 -0.94822192 -0.26397073 -0.17662004 0.0012903808
-0.0014744992 -0.010224221 0.01064944 -0.93474048 -0.264651 -0.23710765 0.0013420524
-0.0024270306 -0.0073825857 0.010909278 -0.90093905 -0.28134298 -0.33038604 0.0030791052
-0.0036309208 -0.0041376394 0.011666772 -0.88102329 -0.26652598 -0.39084771 0.0029141633
-0.0028327061 -0.0048207864 0.010238295 -0.89245337 -0.19255273 -0.40798324 0.0055394112
-0.003999949 -0.0015389795 0.011164661 -0.84185928 -0.15137906 -0.51803225 0.0045280005
-0.0029884365 -0.0016730218 0.0096020037 -0.82774174 -0.075547636 -0.55600017 0.0031318744
0.028446175 -0.0014307016 0.0096844323 0.82623017 0.51635426 -0.22521532 0.00039478196
-0.004331409 0.0015731187 0.01098998 -0.76836783 -0.04731122 -0.63825744 0.0021198113
-0.0029867885 0.0026773103 0.0094108023 -0.70870739 -0.016166605 -0.70531726 0.0022374378
0.026210129 0.0024414298 0.010051955 0.77749163 0.56438076 -0.27745456 0.001721638
0.027083734 0.001481795 0.011211652 0.79935205 0.55110061 -0.23942526 0.00051709975
-0.0044566751 0.0046321154 0.011005737 -0.67922604 0.043537118 -0.73263669 0.002304415
-0.002867701 0.0048551657 0.0096140467 -0.65570557 0.1015202 -0.74816036 0.0029673809
0.024725672 0.004724659 0.010655034 0.759821 0.58551067 -0.28257602 0.0011432492
-0.0045511341 0.0074875732 0.01129857 -0.59864765 0.098318554 -0.79495555 0.0032499356
-0.0024532143 0.007734275 0.009841891 -0.54269749 0.16609135 -0.82334268 0.0021010102
0.022170957 0.007744527 0.01060271 0.70381844 0.62169439 -0.34370881 0.0010174974
0.0237152 0.006586004 0.011759672 0.76345617 0.57882762 -0.28651938 0.0031834445
-0.0043941564 0.010399678 0.011621779 -0.51091206 0.16729571 -0.84319687 0.0021351615
-0.0018552208 0.010489522 0.010231123 -0.40544516 0.27371651 -0.87217748 0.0015028012
0.00010621143 0.011236639 0.0095653543 -0.39474759 0.30099085 -0.86808914 0.0019609858
0.017084289 0.011629228 0.0097673126 0.39667481 0.69067878 -0.6046586 0.001969638
0.019207945 0.010734105 0.010715543 0.59534246 0.6558975 -0.46407524 0.0017215306
0.020988207 0.0096435202 0.011618156 0.65661317 0.63425869 -0.40813625 0.0019931179
-0.0040355581 0.013179778 0.012001485 -0.42745087 0.22091031 -0.87663245 0.0016383921
-0.0017889548 0.013365779 0.01107789 -0.38414115 0.25936282 -0.88609624 0.0011339283
0.0010262016 0.013429779 0.010122503 -0.28397018 0.34557071 -0.8943947 0.00147662
0.0038120109 0.014077051 0.0097344555 -0.1305383 0.46452394 -0.87588656 0.0012778669
0.006984741 0.014465849 0.0096198767 -0.016494177 0.52150881 -0.85308647 0.0018313134
0.010420875 0.014309402 0.0097011626 0.11302119 0.60436982 -0.78864658 0.0019390411
0.013391573 0.013985701 0.010172337 0.24869318 0.64542258 -0.72220594 0.0021294882
0.016033059 0.013255343 0.010862295 0.41435951 0.65190107 -0.63508356 0.0025071343
0.018275533 0.012368835 0.011803008 0.53769714 0.6639182 -0.51970595 0.00287383
-0.0034979121 0.015107159 0.012276877 -0.31466022 0.27419871 -0.9087376 0.0016428978
-0.001550465 0.01604774 0.011901078 -0.26296505 0.30557302 -0.91513634 0.0016424803
0.0011222215 0.016285975 0.011313053 -0.16790833 0.41641796 -0.89353395 0.0012044756
0.0040315092 0.016268624 0.010867988 -0.064677969 0.48494008 -0.87215239 0.0006238955
0.0069849994 0.016230624 0.010730062 0.019751348 0.53209436 -0.84645468 0.0016903193
0.010073103 0.016247097 0.011106588 0.14852573 0.58349973 -0.79841602 0.0014189283
0.013047496 0.015619704 0.011530178 0.32588455 0.65327632 -0.6833955 0.003892852
0.014979529 0.015099678 0.012072939 0.43393362 0.66389525 -0.6090523 0.00089644722
-0.00057973317 0.018029885 0.012375254 -0.22939861 0.33272019 -0.91469866 0.0017880404
0.0013173752 0.018215626 0.012170426 -0.1391575 0.41660944 -0.89837176 0.0020309249
0.0041786893 0.018361811 0.012016332 -0.030456014 0.48909843 -0.87169677 0.0013947394
0.006845898 0.018234689 0.011998434 0.089190498 0.55172557 -0.82924306 0.0023409766
0.0091479104 0.018023105 0.012217789 0.24365114 0.59164459 -0.76849902 0.0031888199
-0.0020468237 -0.010088313 0.013508659 -0.92322093 -0.33835518 -0.18215097 0.0010825407
-0.0036404817 -0.0066842958 0.014356073 -0.90077448 -0.36061692 -0.24199326 0.0035737734
-0.0028994558 -0.0080143586 0.013409007 -0.92218715 -0.3234058 -0.21208408 0.0029861282
-0.0043105218 -0.0045358846 0.013688713 -0.88835049 -0.33303213 -0.31610608 0.0030756614
-0.0064637889 -0.00045185926 0.015208054 -0.85808891 -0.34985194 -0.37588158 0.0022499026
-0.0053348648 -0.0016914582 0.013766367 -0.87319738 -0.30671626 -0.37874979 0.0018467754
-0.0068095154 0.0018593002 0.014403477 -0.82004476 -0.25108194 -0.51428062 0.0031164563
-0.0057647 0.0012263556 0.013056617 -0.82060635 -0.16517939 -0.54710233 0.003364549
-0.0072460342 0.0047993748 0.014002174 -0.75882947 -0.12376798 -0.63942105 0.0021575086
-0.0059331032 0.0046518561 0.012483015 -0.72567433 -0.075674258 -0.68386412 0.0031298038
0.025508747 0.0046654046 0.013469357 0.79036683 0.57316488 -0.2163385 0.00097093458
-0.0075926138 0.0076575112 0.013900269 -0.68082947 -0.045528356 -0.73102558 0.0020942723
-0.0059323432 0.0080574155 0.012432683 -0.63696575 0.015305452 -0.77074015 0.0026308291
0.022937577 0.0084264586 0.013740122 0.77856278 0.57942033 -0.24106437 0.0016917572
0.024153553 0.0068698111 0.013988165 0.7772125 0.58689171 -0.22693346 0.0016772274
-0.0094010932 0.010808091 0.015201677 -0.64788753 -0.079815447 -0.75754291 0.0025748638
-0.0076635033 0.010528039 0.013860414 -0.58699888 0.037160527 -0.80873448 0.0021002709
-0.0058124885 0.010736867 0.012550924 -0.56522393 0.088131428 -0.82021624 0.0022366284
0.020225648 0.011574619 0.013474006 0.68909711 0.63548183 -0.34829301 0.0014307618
0.02156505 0.010224001 0.013882123 0.73613703 0.60887945 -0.29558071 0.0023306087
-0.0093985274 0.01349711 0.015088353 -0.56638843 0.0016230204 -0.82413679 0.0022621294
-0.0076661496 0.013461962 0.014015185 -0.52299649 0.056765247 -0.85044247 0.0012225808
-0.005396842 0.01363809 0.012789 -0.45596913 0.14558588 -0.87800741 0.001953179
0.017124096 0.014326064 0.013118822 0.59839988 0.66422689 -0.44801828 0.0024283777
0.018815836 0.013315049 0.013992622 0.62527752 0.65622991 -0.4223628 0.0019970094
-0.0094019976 0.016439913 0.015241716 -0.47734353 0.080489978 -0.87502253 0.0015571101
-0.0076726871 0.016405798 0.014370864 -0.41873991 0.14075062 -0.89713222 0.0019476422
-0.0047596889 0.016391315 0.013115162 -0.36856398 0.24351551 -0.89714038 0.002630169
-0.0025273329 0.017118895 0.012567632 -0.24352886 0.31760415 -0.91641766 0.0009775837
0.011343402 0.017549315 0.012516875 0.26419976 0.62809575 -0.73191136 0.0017454796
0.013526605 0.017037611 0.013218794 0.3733817 0.66304582 -0.64881152 0.0025937073
0.015896669 0.016027922 0.014061401 0.54348278 0.67589027 -0.497794 0.0028974093
-0.0075849411 0.019262994 0.014841404 -0.33806282 0.19879451 -0.91988814 0.0019553148
-0.0047344719 0.019316293 0.013895506 -0.26704976 0.2692742 -0.92529768 0.002404551
-0.0018358607 0.019318184 0.013175044 -0.20082575 0.36815715 -0.90781569 0.002470237
0.0010483507 0.019663431 0.012887169 -0.061130617 0.44650146 -0.89269227 0.00120545
0.0039570783 0.019821556 0.012846107 0.028485332 0.50898534 -0.8603037 0.0017083184
0.0070192604 0.019715775 0.01304171 0.14562057 0.56930685 -0.80912572 0.0019939933
0.010109413 0.019345917 0.013640555 0.26794514 0.60935766 -0.74624968 0.0017448631
0.012673051 0.018825514 0.014519019 0.42816976 0.66282487 -0.61427498 0.0038791504
-0.0069523309 0.021575786 0.015142918 -0.24343862 0.26509738 -0.93298501 0.0012003358
-0.0047108559 0.022258855 0.014823962 -0.18192191 0.29546443 -0.93787265 0.0019481073
-0.001808006 0.022269838 0.014361927 -0.11666192 0.38416329 -0.91586494 0.0017659104
0.0011240515 0.022259906 0.014169088 -0.029179834 0.44750193 -0.89380682 0.0014217023
0.0040559829 0.022267548 0.014311895 0.099932991 0.52369493 -0.84602427 0.0028453316
0.0068277111 0.021830814 0.014538262 0.21889955 0.59366101 -0.77437043 0.0029173407
0.0092791915 0.021238647 0.014927069 0.35144863 0.63506889 -0.68787456 0.0026875723
-0.0037723084 0.024033273 0.015321899 -0.1442211 0.34120661 -0.92885858 0.0017401731
-0.0017017336 0.024250971 0.015234383 -0.062186681 0.42216042 -0.90438557 0.0017671788
0.00092875585 0.024222651 0.015205652 0.04502346 0.49666038 -0.86677635 0.0019431784
0.0030831967 0.024029883 0.015261579 0.16794464 0.55892026 -0.81203628 0.0023573278
-0.0040366845 -0.0070018885 0.017090974 -0.89248955 -0.42140555 -0.16087165 0.0011495766
-0.0030557672 -0.0088102482 0.017412324 -0.89176917 -0.41661501 -0.17657797 0.0013738431
-0.0051770043 -0.0045408648 0.016583683 -0.87815464 -0.42449448 -0.22056483 0.0023578664
-0.0068749627 -0.0012127225 0.016970137 -0.86266452 -0.3908177 -0.32104757 0.0027436474
-0.0059873452 -0.0024124794 0.016078511 -0.87309754 -0.41325247 -0.25869483 0.0015342635
-0.0079636509 0.0014647453 0.016774921 -0.83609742 -0.38094234 -0.39474553 0.0018092182
-0.0097545246 0.004888305 0.01743238 -0.79186594 -0.35711232 -0.49539784 0.0024454759
-0.0086868331 0.0042918618 0.016145708 -0.79086226 -0.23900409 -0.56339496 0.0027116092
0.025401538 0.0054350831 0.016005475 0.80600476 0.56003255 -0.19162433 0.00023469362
-0.010406894 0.0077699726 0.016911265 -0.74442601 -0.22371778 -0.62911063 0.0018499184
-0.0089171417 0.0066514798 0.015462268 -0.71124977 -0.16173054 -0.6840812 0.0033174432
0.023954647 0.0078971274 0.016487468 0.80536652 0.56402612 -0.1823712 0.00025085072
-0.012562605 0.01109627 0.018064326 -0.69361341 -0.25214931 -0.674775 0.003182872
-0.010858082 0.010558994 0.01654326 -0.67004395 -0.20129009 -0.71450925 0.0033820174
0.021981714 0.010641054 0.016286863 0.76020592 0.60007697 -0.24898709 0.0011799004
-0.012981852 0.013751585 0.017710391 -0.62943155 -0.1589061 -0.76063442 0.0035951303
-0.010895282 0.013532089 0.016156374 -0.58445984 -0.071976945 -0.80822402 0.0025328854
0.01960378 0.013794267 0.016642906 0.76196808 0.60438138 -0.23265389 0.00094167562
0.021054508 0.012346838 0.017519195 0.7582019 0.61092877 -0.22780697 0.00099624333
-0.013321115 0.01660057 0.01754225 -0.54795033 -0.060497519 -0.83432037 0.0024293528
-0.010892679 0.016472129 0.016063029 -0.48096636 0.017780555 -0.87655878 0.0033828565
0.01672891 0.016963137 0.01661706 0.67061979 0.65078574 -0.35601547 0.0012243757
0.018084843 0.015775176 0.017068397 0.70701438 0.6314857 -0.31836522 0.0023322441
-0.01363858 0.01948416 0.017571861 -0.44801074 -0.012080684 -0.89394653 0.002306571
-0.010648723 0.019417409 0.016110059 -0.40878999 0.11032156 -0.90593594 0.002799246
-0.0087538622 0.020448871 0.015461264 -0.32083222 0.18086565 -0.92970651 0.0015595793
0.013397492 0.019841021 0.016417021 0.53928399 0.66719759 -0.51382899 0.0043463958
0.015265732 0.018795477 0.017292291 0.62451988 0.66289717 -0.41296753 0.0022396042
-0.015388783 0.02321841 0.018375862 -0.40956038 0.0094370022 -0.91223419 0.0013833058
-0.013640377 0.022440253 0.017633496 -0.36673388 0.027754236 -0.92991179 0.0029107959
-0.010658483 0.022381272 0.016502248 -0.32732555 0.14411514 -0.93385696 0.0026556498
-0.0079802759 0.022622835 0.015715424 -0.27518815 0.20293239 -0.93972862 0.0013176784
-0.0059783738 0.023552479 0.015483845 -0.17927283 0.27429393 -0.94478786 0.0018355129
0.0073353746 0.023246169 0.015854964 0.27689308 0.61766773 -0.73608208 0.002176208
0.0099929487 0.022506721 0.016627576 0.45867929 0.64769047 -0.60836697 0.0046238741
0.01225206 0.021586288 0.017505035 0.52353603 0.66847169 -0.52825713 0.0019959924
-0.013576454 0.025351586 0.017907413 -0.2961418 0.11449865 -0.94825637 0.0026890503
-0.010672585 0.025360204 0.017064394 -0.23981977 0.21100157 -0.94761002 0.0022618766
-0.0077105211 0.025321353 0.016400624 -0.19192338 0.3086367 -0.93161625 0.0021628223
-0.0048175827 0.025368553 0.015974956 -0.12269661 0.34147394 -0.93184817 0.0013045581
-0.0018663032 0.025737161 0.015967248 0.01271399 0.45689625 -0.88942915 0.0014163292
0.0012006352 0.025699256 0.016088597 0.10541294 0.51951367 -0.8479349 0.0018944601
0.0041291118 0.025399158 0.016485594 0.21311596 0.58482438 -0.7826634 0.0015515264
0.0068191546 0.025030371 0.017237063 0.38464123 0.65462124 -0.65078574 0.0019603535
0.0091299228 0.024303773 0.01795109 0.48505181 0.65706259 -0.57705581 0.0022686028
-0.012987911 0.027853137 0.018163754 -0.19892418 0.23543453 -0.95131475 0.001233784
-0.010691988 0.02836003 0.017835516 -0.15151866 0.24832526 -0.95675319 0.0015188035
-0.0077297105 0.028333481 0.017426066 -0.10546061 0.34442389 -0.932872 0.0017608942
-0.0047755926 0.02832213 0.017249461 -0.031084262 0.41065836 -0.91125935 0.0015812765
-0.0018253248 0.028328164 0.017339675 0.073567413 0.48678344 -0.87041926 0.0027510223
0.00099352503 0.027961623 0.017528163 0.18201908 0.56555748 -0.80437171 0.0029897753
0.003560985 0.027403254 0.017851844 0.30109316 0.61338729 -0.73013628 0.0029026717
-0.0099641234 0.030114947 0.018298943 -0.12168889 0.32419994 -0.93812919 0.0013354906
-0.0076323217 0.030332817 0.018209023 -0.038485158 0.4062835 -0.91293627 0.0013719798
-0.0049845572 0.030305568 0.018203683 0.042531233 0.47628286 -0.87826294 0.0018868672
-0.0025703341 0.030113814 0.018282322 0.14431068 0.54470891 -0.82611537 0.0022159
-0.0040604775 -0.007359352 0.019343454 -0.87905926 -0.4416455 -0.17945495 0.0011761651
-0.0065419087 -0.003410127 0.020041097 -0.84779537 -0.48250619 -0.22006994 0.00048385304
-0.0058805672 -0.0043990328 0.019917745 -0.85507739 -0.47087017 -0.2170805 0.00083029683
-0.007471703 -0.0017055055 0.019746574 -0.84426963 -0.47020036 -0.25713888 0.0012592124
-0.0096773319 0.0019499274 0.020114217 -0.82198578 -0.46505001 -0.3287366 0.0024763811
-0.0087554026 0.00079208473 0.019413088 -0.84460992 -0.44449776 -0.29842225 0.0024885982
-0.010856654 0.0045016566 0.019702109 -0.80442774 -0.43909052 -0.40011942 0.0010959669
-0.012917938 0.0079109352 0.020219689 -0.76080817 -0.401292 -0.51003498 0.0029052757
-0.011837036 0.00708722 0.019180469 -0.7871986 -0.34128496 -0.51365644 0.0044932025
-0.015482257 0.011708181 0.021004472 -0.70892704 -0.41582942 -0.56965631 0.0018045089
-0.01390089 0.010637876 0.0197677 -0.71961236 -0.31608453 -0.61826253 0.0021032121
0.022098092 0.011152741 0.018810708 0.77612126 0.59562939 -0.20702995 0.00049898063
-0.016089719 0.0139478 0.020481132 -0.6832431 -0.31871781 -0.65696102 0.0031381436
-0.01442585 0.013438465 0.019055791 -0.64228547 -0.234372 -0.72975284 0.0020978332
0.01992061 0.0143972 0.01985744 0.76183599 0.61235011 -0.21126592 0.00069610891
0.020676076 0.013416205 0.020155448 0.76183599 0.61235011 -0.21126592 0.00069610891
-0.018589621 0.017542301 0.021203961 -0.62928867 -0.30278802 -0.71576196 0.003261735
-0.016646922 0.016659517 0.019939458 -0.61168742 -0.23631574 -0.75497907 0.001254405
-0.01478012 0.016324963 0.018596068 -0.58895105 -0.1598631 -0.79219979 0.002465683
0.017197797 0.017853873 0.019763548 0.73163188 0.63986516 -0.23513265 0.00064647483
0.01838037 0.016367298 0.019663043 0.74619728 0.62430978 -0.23114264 0.00094430032
-0.019021306 0.019799821 0.020767236 -0.55995327 -0.22368498 -0.79775769 0.003748598
-0.016657125 0.019562524 0.019287614 -0.49478182 -0.11474494 -0.86140847 0.0026157834
0.014208729 0.020783814 0.019001741 0.6718033 0.66310483 -0.33010954 0.0017291595
0.015524697 0.019702936 0.019637574 0.6746574 0.67713284 -0.2938171 0.0021946533
-0.021446312 0.02387196 0.021297354 -0.5106945 -0.22613877 -0.82948917 0.002430924
-0.019602334 0.022648303 0.020504443 -0.45781025 -0.1587785 -0.87475663 0.0026206011
-0.016681269 0.022490555 0.019003905 -0.41299012 -0.047031421 -0.90952027 0.0031554573
0.011081509 0.023579525 0.018967846 0.59020007 0.69813347 -0.40530661 0.0023177094
0.012786476 0.0224644 0.019670535 0.60587066 0.68897903 -0.39777958 0.0021816902
-0.021782128 0.025847109 0.021139812 -0.43404442 -0.1266167 -0.8919493 0.0025027362
-0.019661941 0.025544539 0.020210803 -0.37929186 -0.081487045 -0.92168194 0.0023170675
-0.016644606 0.025471883 0.018970823 -0.36065075 0.061180983 -0.9306922 0.0031847626
-0.014897559 0.026425989 0.018427033 -0.31419459 0.088703327 -0.94520551 0.0013990848
0.0075965999 0.026372742 0.019171543 0.47357649 0.71192193 -0.51854855 0.0029192241
0.0097253323 0.02528015 0.019907404 0.56006235 0.7011556 -0.44126073 0.0037112962
-0.022071846 0.028675117 0.021045359 -0.36132202 -0.026835497 -0.93205482 0.0016122217
-0.019659875 0.028511707 0.020168092 -0.32034788 0.042965494 -0.94632506 0.0017535081
-0.016653962 0.028449962 0.019218944 -0.27679831 0.1116919 -0.95441484 0.0024168093
-0.014096841 0.028746439 0.018609198 -0.20775998 0.18681419 -0.9601751 0.0024950933
0.0014721394 0.029405262 0.018737981 0.24906735 0.62779075 -0.73745799 0.0025735961
0.0042251116 0.028749986 0.019437835 0.37002048 0.66153723 -0.65226781 0.0023757673
