# .PCD v0.7 - Point Cloud Data file format
VERSION 0.7
FIELDS x y z normal_x normal_y normal_z curvature
SIZE 4 4 4 4 4 4 4
TYPE F F F F F F F
COUNT 1 1 1 1 1 1 1
WIDTH 553
HEIGHT 1
VIEWPOINT 0 0 0 1 0 0 0
POINTS 553
DATA ascii
-0.031831864 0.050248712 -0.03662898 0.13923272 0.87675327 -0.46034548 0.0033120757
-0.029469751 0.050062776 -0.036376823 0.17528057 0.87277758 -0.45556128 0.0026704143
-0.016311882 0.01654556 -0.033552188 -0.3080461 -0.75073659 -0.58438182 0.0024950851
-0.01367323 0.016031137 -0.033939105 -0.17586476 -0.70170492 -0.69042146 0.0049813567
-0.010672763 0.015692577 -0.034029778 -0.055724423 -0.65681213 -0.7519924 0.0025556248
-0.0077173542 0.015634334 -0.033812389 0.12167702 -0.55019552 -0.82612324 0.0039710826
-0.0047777668 0.016023286 -0.033422675 0.25584939 -0.46226546 -0.84902984 0.0018644047
-0.0025459197 0.016747389 -0.033033524 0.35643321 -0.36439919 -0.86033052 0.0012814502
-0.022101462 0.019611206 -0.033646829 -0.44862121 -0.76503265 -0.46202165 0.0020248212
-0.019719407 0.018772826 -0.034421492 -0.37113354 -0.76484263 -0.52656966 0.0046436363
-0.016918313 0.01790135 -0.034886587 -0.25715002 -0.74855804 -0.61117488 0.0058356863
-0.013816752 0.017586486 -0.035407234 -0.093645163 -0.66926986 -0.73709464 0.0034091878
-0.010538128 0.017649252 -0.035494812 0.053116266 -0.5488562 -0.8342275 0.0032015378
-0.0074465256 0.018220078 -0.035270836 0.18063264 -0.47044289 -0.86374491 0.0023789348
-0.0045994124 0.018536944 -0.034540657 0.2835055 -0.38813326 -0.87691337 0.001681512
-0.0017629217 0.018742513 -0.033481047 0.39811659 -0.29082459 -0.87001389 0.00073308434
0.00018224213 0.019917034 -0.032930586 0.44353691 -0.22545339 -0.86743629 0.0020675911
-0.025394831 0.022149503 -0.034301799 -0.51660657 -0.75604236 -0.40189251 0.0028110757
-0.023018865 0.020865878 -0.034777761 -0.49119473 -0.76406819 -0.41824344 0.0019099277
-0.020850783 0.020225264 -0.035639364 -0.33661923 -0.70025009 -0.62955326 0.0022207836
-0.0063176579 0.020216681 -0.035820369 0.27692023 -0.30837312 -0.9100666 0.0021205167
-0.0042752735 0.021297954 -0.035385698 0.39525133 -0.23642652 -0.8876254 0.00090169959
-0.0015565627 0.021598823 -0.034202032 0.45092493 -0.19276989 -0.87149662 0.0007269776
0.00048470218 0.021652792 -0.033142388 0.47479931 -0.1802341 -0.86144137 0.0012213241
-0.030313628 0.025756134 -0.03383911 -0.61147749 -0.73772621 -0.2861037 0.0019511209
-0.028554056 0.024542883 -0.034384795 -0.59802371 -0.74986202 -0.28297469 0.0011904589
-0.026654832 0.023567617 -0.035330288 -0.52443165 -0.74358374 -0.41479474 0.0035330069
-0.0034813418 0.024205105 -0.035682417 0.44348633 -0.13478521 -0.88608849 0.001018901
-0.00159984 0.024559259 -0.034737464 0.48180211 -0.10846779 -0.86954099 0.0014274314
0.00078699947 0.024345851 -0.033307534 0.52868086 -0.066247292 -0.84623152 0.00088830566
-0.033280086 0.028738124 -0.034829292 -0.65130335 -0.69650137 -0.3011474 0.0021597235
-0.031642333 0.027227815 -0.034657035 -0.62200886 -0.71892899 -0.31023565 0.0039849537
-0.030191226 0.026309988 -0.035438929 -0.60139638 -0.73141319 -0.32149225 0.0037010747
-0.0032826373 0.026501087 -0.035849322 0.50444543 -0.020224933 -0.86320662 0.0010155502
-0.001552793 0.027432725 -0.034854993 0.52417594 0.004264011 -0.85159934 0.00093902601
0.00072824513 0.027200891 -0.033395998 0.58179677 0.10772476 -0.80616862 0.0070911199
-0.036378972 0.031610005 -0.034210537 -0.67795026 -0.67350429 -0.2945767 0.0010451123
-0.03478647 0.030247116 -0.034996804 -0.65933752 -0.68176711 -0.3169663 0.0017477027
-0.0032833391 0.030624775 -0.035776947 0.54266828 0.13896857 -0.82837117 0.0075757606
-0.0015352505 0.030305501 -0.034587774 0.65033251 0.34273911 -0.67793632 0.015940882
0.00050005177 0.029738082 -0.033263262 0.64582372 0.41403449 -0.64147264 0.025086273
-0.037307076 0.032872714 -0.034759134 -0.66553628 -0.66382283 -0.3411755 0.0018429355
-0.0039321799 0.033489093 -0.034681227 0.63910592 0.50950456 -0.57614988 0.010839012
-0.0022522537 0.032340504 -0.034333311 0.64293128 0.52181667 -0.56066632 0.013743694
-0.03926779 0.035391696 -0.035804961 -0.58104181 -0.68401939 -0.44103059 0.0021085658
-0.0073032323 0.036908627 -0.034634318 0.62518525 0.55139011 -0.55236965 0.00130881
-0.0054571005 0.035937637 -0.033558704 0.64453387 0.53949827 -0.54177266 0.0019364369
-0.04452689 0.040209614 -0.035299275 -0.60543972 -0.6690203 -0.43110865 0.0080908481
-0.009933996 0.039793432 -0.035120796 0.58246738 0.53935689 -0.60813314 0.0015600601
-0.0081548458 0.039062232 -0.033998821 0.61844486 0.52388018 -0.58572656 0.00084389187
-0.013157887 0.043189548 -0.034888558 0.52405083 0.65239894 -0.54749095 0.0039155362
-0.011046213 0.041972153 -0.03418855 0.57589293 0.61088914 -0.54328799 0.002017023
-0.018798187 0.046592787 -0.035476308 0.43416113 0.75452513 -0.49213406 0.0050610397
-0.016603548 0.045777455 -0.034623738 0.45306998 0.77058166 -0.44825384 0.0014484914
-0.014310029 0.044655167 -0.034045033 0.50162655 0.71816629 -0.4822945 0.0014298679
-0.025653128 0.049632967 -0.035152126 0.27688292 0.89978713 -0.33722228 0.0013047495
-0.022768909 0.04888767 -0.034490608 0.31671613 0.88886774 -0.33106655 0.0013029594
-0.01992685 0.047766596 -0.034304716 0.38376933 0.83364499 -0.39718658 0.00359669
-0.017707869 0.047176316 -0.033205409 0.46075964 0.80053955 -0.38319311 0.0024987031
-0.03131225 0.050668016 -0.034974221 0.16338059 0.88703567 -0.43182704 0.002180506
-0.027848216 0.050253674 -0.034809168 0.19478875 0.92461324 -0.32733414 0.0015765227
-0.02511452 0.049991034 -0.033384178 0.29078674 0.89751065 -0.33153832 0.0011948929
-0.015204858 0.013888082 -0.030239139 -0.37890285 -0.7878617 -0.48549637 0.0028359089
-0.013366378 0.013458144 -0.030876875 -0.31537274 -0.78471404 -0.53363276 0.0027652862
-0.010675055 0.012895864 -0.031232532 -0.21865699 -0.76142782 -0.61025971 0.0034383996
-0.0076828049 0.012564605 -0.03132889 -0.017538909 -0.7013585 -0.7125929 0.0046802862
-0.0046439562 0.012543209 -0.031124447 0.10731785 -0.61471176 -0.78141689 0.0052829259
-0.0017114726 0.012838898 -0.030641641 0.29160568 -0.50083065 -0.81494468 0.0017664303
0.00066787959 0.013548435 -0.0301634 0.37905279 -0.42462572 -0.82219946 0.0012799281
-0.018896326 0.016401902 -0.031171996 -0.45095736 -0.78554147 -0.42374766 0.00260242
-0.016803274 0.015478882 -0.031597614 -0.39854324 -0.79175186 -0.46291718 0.0040873908
-0.013973505 0.01460037 -0.032143839 -0.242626 -0.77294707 -0.58624697 0.0033267038
-0.010959243 0.014248254 -0.032694556 -0.095288463 -0.6868338 -0.72054118 0.0030461166
-0.0070252605 0.01424555 -0.032778103 0.048479192 -0.60022503 -0.79836071 0.0033686189
-0.0043174927 0.014639493 -0.032518324 0.19008975 -0.51510721 -0.83578128 0.0029784357
-0.0014812185 0.015475717 -0.032007854 0.34740645 -0.39096645 -0.85232264 0.001024575
0.0012229534 0.015622746 -0.030879378 0.42911208 -0.34579846 -0.83443767 0.00084051484
0.0030687877 0.016091349 -0.030085839 0.45805001 -0.33477905 -0.82347625 0.0011709268
-0.022470633 0.018888956 -0.031468049 -0.57374895 -0.77144724 -0.27510226 0.0015455181
-0.020206727 0.017466223 -0.031672671 -0.4849337 -0.797194 -0.35961246 0.0030789541
-0.00052819168 0.017801881 -0.032599598 0.42429298 -0.28338236 -0.86004066 0.0011323756
0.0012878857 0.018433079 -0.031876121 0.44078398 -0.28120679 -0.8524273 0.00098196405
0.003609108 0.018441692 -0.030516483 0.5197863 -0.23019707 -0.82269776 0.00077120983
-0.027428005 0.022614576 -0.0314602 -0.61597353 -0.75077957 -0.23855093 0.00084972713
-0.025664005 0.02129098 -0.03163033 -0.57461298 -0.77232546 -0.27080113 0.0014817249
-0.023907399 0.019973882 -0.031704549 -0.56203717 -0.78174466 -0.27016586 0.0014848632
0.0017206499 0.021144662 -0.032300096 0.49731436 -0.17536977 -0.84966099 0.0009143239
0.0040139928 0.02138791 -0.030862097 0.55512536 -0.13487191 -0.820759 0.00072188961
-0.030733025 0.025477244 -0.031221945 -0.64495587 -0.73707992 -0.20185423 0.00040502992
-0.029066749 0.02408967 -0.031531055 -0.62230402 -0.7476899 -0.23172735 0.00094062358
0.002067026 0.024172639 -0.032480545 0.56019801 -0.038502585 -0.82746345 0.00093006797
0.0041300291 0.024393093 -0.031011872 0.64571017 0.056486178 -0.7614904 0.0045806188
-0.03371067 0.028473614 -0.032307703 -0.66322231 -0.7177074 -0.21220817 0.00028525278
-0.03220563 0.026963055 -0.031987384 -0.65107113 -0.72891408 -0.21163833 0.00030765086
0.0020033505 0.027515274 -0.032474961 0.60647005 0.1284157 -0.78466773 0.005470742
0.0038211371 0.027260002 -0.031050712 0.67707819 0.28851348 -0.67699707 0.019201068
-0.034796678 0.029561087 -0.032392215 -0.66749495 -0.70301366 -0.24540244 0.00099223945
-0.00025884318 0.031861849 -0.030871842 0.65508902 0.58569735 -0.47730181 0.0060291719
0.0012882736 0.030331546 -0.031707983 0.64337111 0.51132113 -0.56975818 0.014981634
0.0029596405 0.029375672 -0.030862622 0.64921832 0.51279044 -0.56174862 0.014686664
-0.0034900378 0.034450442 -0.032485083 0.66803932 0.53329492 -0.51896036 0.0051933085
-0.0015729648 0.033640977 -0.031123333 0.67088884 0.52248704 -0.52622765 0.0052981745
0.00017915736 0.032582164 -0.030067939 0.65211242 0.51684809 -0.55463266 0.0043565165
-0.0042617824 0.036642049 -0.031788938 0.64052367 0.52227277 -0.56299245 0.0017198308
-0.0024155925 0.03572093 -0.030532643 0.64776087 0.51429826 -0.56205255 0.0014865097
-0.0070282761 0.039921492 -0.03190434 0.62346774 0.59049457 -0.51244915 0.0025475244
-0.0052570812 0.038863063 -0.030835889 0.64343321 0.57984436 -0.49977407 0.002672263
-0.010184177 0.043042235 -0.031690188 0.55371988 0.72941375 -0.40168396 0.00085667241
-0.0081801349 0.041686609 -0.031097971 0.60882753 0.6679275 -0.42802095 0.0018408812
-0.015795531 0.046664469 -0.031932402 0.46780157 0.82396144 -0.31976429 0.0011501099
-0.013730553 0.045614704 -0.031529322 0.48745444 0.79978538 -0.35033068 0.0022484125
-0.011604141 0.044389673 -0.031201765 0.5258103 0.76042277 -0.38115716 0.0018900316
-0.02237436 0.049535736 -0.031714711 0.32876843 0.88841641 -0.32035533 0.0012231838
-0.019441705 0.048412263 -0.031958487 0.3836734 0.86811131 -0.31492457 0.00090061489
-0.017035998 0.047470294 -0.031447981 0.4425028 0.83663476 -0.32285199 0.00097695424
-0.025838843 0.05034101 -0.03229462 0.24823759 0.91252863 -0.3250685 0.0022175838
-0.012220919 0.010881699 -0.027266297 -0.37746301 -0.81883812 -0.43246481 0.0021700661
-0.010372772 0.01045249 -0.027951036 -0.33447805 -0.81001866 -0.48165777 0.0021948908
-0.0076437835 0.0099448878 -0.028418012 -0.21479623 -0.79173523 -0.57185471 0.003263056
-0.0046317969 0.009583829 -0.028445978 -0.017239664 -0.69871563 -0.71519178 0.0051504942
-0.001617329 0.0095609101 -0.02817532 0.10027217 -0.63767797 -0.76374882 0.004858769
0.0011646498 0.0099564828 -0.027710874 0.29922944 -0.54961491 -0.77999055 0.0015698414
0.0033249313 0.010537972 -0.027234398 0.35695794 -0.50146705 -0.78810644 0.0026233611
-0.015877862 0.013422653 -0.028414663 -0.48644745 -0.81079209 -0.3255536 0.0024395292
-0.013758214 0.012301367 -0.028520975 -0.44406736 -0.81810111 -0.36539665 0.0020794086
-0.011171038 0.011498095 -0.029146109 -0.2508854 -0.8017686 -0.54242378 0.0036376214
-0.0090628061 0.011262945 -0.029748652 -0.17103313 -0.76399153 -0.62214518 0.0057337121
-0.001054032 0.011488016 -0.029547818 0.23291063 -0.55191123 -0.80071628 0.0043069716
0.0014472518 0.012332782 -0.029128846 0.37177333 -0.44273308 -0.81594843 0.001230155
0.0040081218 0.012589045 -0.028008915 0.43413731 -0.41237262 -0.80092055 0.0021371166
0.0061115939 0.013189501 -0.027076755 0.48379922 -0.37796786 -0.78935325 0.0013485618
-0.01935876 0.015742889 -0.028638486 -0.5370422 -0.7999897 -0.26758572 0.0013498424
-0.017367098 0.014381614 -0.028554659 -0.52012885 -0.8070547 -0.27951506 0.0014348303
0.0023791858 0.014343373 -0.029751603 0.37922969 -0.37405339 -0.84632677 0.0026884826
0.0044072596 0.015194112 -0.02895065 0.47047833 -0.33121118 -0.81789321 0.0010679499
0.006660616 0.015465988 -0.027576711 0.53600824 -0.28711128 -0.7938906 0.0010332018
-0.024554478 0.01968997 -0.02830008 -0.57298386 -0.78095937 -0.24857977 0.00083999039
-0.022528773 0.018109225 -0.028553922 -0.57559764 -0.78552163 -0.22725141 0.00065549201
-0.020981377 0.017010756 -0.029057536 -0.57208556 -0.7875542 -0.22907752 0.00060017995
0.0050472831 0.018022042 -0.029471643 0.55387032 -0.19799551 -0.80871838 0.0009433105
0.0071628541 0.018434245 -0.028019417 0.5911448 -0.18711141 -0.78456181 0.00089911389
-0.025372442 0.02052445 -0.029321615 -0.59631974 -0.76724291 -0.23609574 0.0013800249
0.0054597566 0.020724576 -0.029747132 0.5750851 -0.10529327 -0.81128937 0.0018673688
0.0072434433 0.021451375 -0.028400853 0.65735596 -0.049851671 -0.75192946 0.0016659888
-0.028879918 0.023595488 -0.029559646 -0.63426423 -0.75225419 -0.17838863 0.00024356645
0.0071341395 0.024448929 -0.028488163 0.71480387 0.25747919 -0.65019989 0.021455726
0.0052187797 0.027796155 -0.028814726 0.74917197 0.41849977 -0.51341927 0.014046511
0.006411165 0.026568634 -0.028652061 0.74368721 0.4119091 -0.52655512 0.013175512
0.001941296 0.031107588 -0.029187195 0.65585345 0.56580347 -0.49972269 0.0060874182
0.0037341102 0.030269098 -0.027772658 0.70619667 0.51975125 -0.48077524 0.0039399047
-0.00037191925 0.034279473 -0.029473152 0.66473132 0.46972784 -0.58093721 0.00083837268
0.0012544424 0.033305857 -0.028383087 0.66669196 0.46921 -0.57910603 0.0010087664
0.0029803833 0.032282192 -0.027256085 0.67998266 0.50483328 -0.53175837 0.0017920163
-0.0033421987 0.037671216 -0.029707883 0.65425777 0.54325336 -0.52613926 0.001931477
-0.0014849777 0.036441691 -0.02865814 0.65496439 0.54579198 -0.52262092 0.0013227025
0.00032401388 0.035356656 -0.02755503 0.66043884 0.5482977 -0.51302058 0.0014444757
-0.0044065649 0.039582171 -0.028629865 0.63535255 0.66750932 -0.38827613 0.00084294379
-0.0027703333 0.038423821 -0.027884793 0.64754122 0.63188869 -0.42591906 0.0014762075
-0.0095259976 0.043926142 -0.028816018 0.57138997 0.76781303 -0.28978711 0.0016165578
-0.0077046417 0.042634256 -0.028510191 0.58483446 0.75456589 -0.29765591 0.0011289929
-0.0056873397 0.041413508 -0.027452093 0.623344 0.71359044 -0.31973553 0.0026088459
-0.013292492 0.046410568 -0.028285835 0.4886682 0.83306104 -0.25925401 0.00018363856
-0.010976865 0.044941701 -0.028746977 0.51640242 0.80686414 -0.2868776 0.0010023986
-0.0091097904 0.044035815 -0.027766738 0.57145238 0.76774669 -0.28983998 0.0016443875
-0.016122315 0.047619626 -0.029306713 0.46130195 0.83356297 -0.30392972 0.00072643982
-0.014609808 0.047049522 -0.028496537 0.47727606 0.83673143 -0.2684921 0.00030319853
-0.0092015974 0.0078369742 -0.023894165 -0.38656229 -0.85148042 -0.35433128 0.0049212868
-0.0073227929 0.007523661 -0.024893653 -0.33241808 -0.82391405 -0.45898131 0.0019607909
-0.0046361759 0.0070065148 -0.025320295 -0.20394433 -0.80944431 -0.55064201 0.0025104315
-0.0016051944 0.0066998196 -0.025351617 -0.032943603 -0.74050057 -0.67124778 0.0042976057
0.0012549737 0.0067356215 -0.025077406 0.16804028 -0.67055225 -0.72258031 0.0043838159
0.0039444296 0.0071568885 -0.024587877 0.30627805 -0.58483648 -0.75110596 0.0021718713
0.0061225872 0.0076860553 -0.024024997 0.39027998 -0.51708418 -0.76177776 0.00047113062
-0.012860688 0.010438208 -0.025303919 -0.48486626 -0.82019866 -0.30360973 0.0018258081
-0.010718158 0.00936535 -0.025556143 -0.41844901 -0.83085972 -0.36684141 0.00070327136
-0.0081347134 0.0085303038 -0.026110796 -0.25095925 -0.81940675 -0.51535624 0.0033765724
-0.0058094668 0.0082344925 -0.026727233 -0.14980926 -0.79459727 -0.58836412 0.0071092295
-0.00026763417 0.0082333749 -0.026792828 0.174082 -0.65983391 -0.73096836 0.0041293264
0.0015800458 0.0085333101 -0.026540056 0.22578998 -0.62332791 -0.74865294 0.0025305445
0.0043614982 0.0093574962 -0.025951972 0.34126166 -0.52733946 -0.77810895 0.0016686376
0.0069999015 0.0097720008 -0.024790961 0.45695159 -0.44173419 -0.77205324 0.0018148577
-0.016380943 0.012803453 -0.025403628 -0.57367146 -0.79116702 -0.21202809 0.0021435441
-0.014269129 0.011436411 -0.025725711 -0.52336383 -0.81491643 -0.24900083 0.0012590067
0.005347874 0.011485728 -0.026721172 0.42472744 -0.40514889 -0.80960548 0.0017968267
0.0074907951 0.012295727 -0.025753217 0.53702086 -0.32752606 -0.77739006 0.00085761969
0.0095588565 0.012614688 -0.024424344 0.56943595 -0.31488401 -0.75933582 0.0011515545
-0.019877946 0.015570207 -0.026126511 -0.57350147 -0.79655421 -0.19130488 0.0014298558
-0.018062156 0.01404 -0.025378022 -0.58640975 -0.79053253 -0.17658426 0.00091975468
0.0081398413 0.015095238 -0.026385855 0.59808403 -0.23501962 -0.76619923 0.0009492329
0.010107911 0.01545848 -0.02491517 0.62337941 -0.22208411 -0.74971777 0.00093148672
0.0085991444 0.017544948 -0.026713792 0.63209385 -0.1368334 -0.7627148 0.00088014203
0.010380176 0.018519055 -0.025293276 0.6786657 -0.065367691 -0.73153257 0.002935139
0.010277151 0.021435764 -0.025583632 0.74595159 0.14943914 -0.64901793 0.016168045
0.008622488 0.025374932 -0.02551024 0.78064108 0.43929064 -0.4445484 0.0041997656
0.0096437251 0.023770072 -0.025762748 0.74099219 0.39643824 -0.54200304 0.010755838
0.0054953126 0.028626477 -0.026747409 0.73765343 0.50980616 -0.44267952 0.0026391414
0.0072098132 0.027636146 -0.025167443 0.75485629 0.48184669 -0.44498959 0.0021684677
0.0049730204 0.030839825 -0.02587853 0.73139638 0.49092147 -0.47334501 0.0018231324
0.0063726455 0.029834116 -0.024788043 0.72762465 0.48335972 -0.48675027 0.0013094475
0.0020394295 0.034520723 -0.026222751 0.67482746 0.58465171 -0.45032233 0.0015568219
0.0036668859 0.033239551 -0.025293995 0.70347595 0.54553747 -0.45553315 0.0024141839
-0.00071207015 0.037341237 -0.02631012 0.65513825 0.66930395 -0.35046554 0.00096494902
0.0011387102 0.036092192 -0.025256805 0.65772629 0.64220911 -0.39365414 0.0028164273
0.0028500592 0.03505493 -0.024035279 0.68767709 0.61456317 -0.38653892 0.0016776479
-0.0037339944 0.040318012 -0.025942512 0.63083833 0.72246975 -0.2829847 0.00093207916
-0.0020494591 0.039040584 -0.025415126 0.63421351 0.70428348 -0.31899515 0.0021586455
-0.0069299275 0.04287941 -0.026091132 0.59440446 0.77349025 -0.21999131 0.00025942316
-0.0051625627 0.041699901 -0.025439654 0.61009109 0.75247389 -0.24813698 0.0011811438
-0.010765679 0.045349114 -0.02651814 0.52371234 0.81844574 -0.23637265 0.00077592261
-0.0082865842 0.044113792 -0.024886463 0.57194889 0.79039568 -0.21942915 0.00041842565
-0.0040693581 0.0044824192 -0.021599336 -0.33188865 -0.83148605 -0.44551194 0.003124597
-0.0015151949 0.0041350857 -0.022124156 -0.16896617 -0.81165451 -0.55916673 0.0041754758
0.0013302143 0.003861113 -0.022071358 0.016632825 -0.76457947 -0.64431483 0.0046015331
0.0040844399 0.0040025036 -0.021804817 0.19022958 -0.68358183 -0.70464784 0.0037187587
0.006703834 0.004408001 -0.02127606 0.32888955 -0.59678155 -0.73190403 0.0017434841
-0.0098185251 0.0075440984 -0.022189055 -0.50008893 -0.8196525 -0.27942944 0.0024232806
-0.0076662935 0.0065145213 -0.022544546 -0.38156781 -0.83176261 -0.40320823 0.0021423351
-0.004909955 0.005510631 -0.022851702 -0.27091816 -0.83397436 -0.48071831 0.0054049375
-0.0016153341 0.0051623052 -0.023516802 -0.086041674 -0.79238528 -0.60392243 0.0030434576
0.0014485957 0.0052255308 -0.023574624 0.092170425 -0.71105629 -0.6970678 0.0028693706
0.0044678655 0.0057476028 -0.023258146 0.24110687 -0.64319783 -0.72674888 0.0019217338
0.0074166991 0.0064374502 -0.022448994 0.40965986 -0.50670266 -0.75857174 0.0011100331
0.0098986216 0.0071275351 -0.021466985 0.48713937 -0.45714545 -0.74411911 0.0020840643
-0.013272957 0.0098793469 -0.022286035 -0.58346212 -0.79725814 -0.15476234 0.00093410915
-0.011189156 0.008583541 -0.022701066 -0.53360742 -0.81656021 -0.22021031 0.0014846232
0.0082152234 0.0087372307 -0.023477513 0.48616296 -0.40650639 -0.77356189 0.00099724589
0.010249644 0.0094265407 -0.022492919 0.53348154 -0.38183507 -0.75471812 0.0014840488
0.012175963 0.0098801358 -0.021273816 0.57849282 -0.34458214 -0.73933029 0.001019815
-0.016175501 0.012113127 -0.022508297 -0.59432769 -0.79243374 -0.13719802 0.00084247621
-0.014803372 0.011199116 -0.023298804 -0.55756241 -0.81055814 -0.17921996 0.0026283546
0.010765782 0.012045482 -0.023258619 0.59387141 -0.28300753 -0.75314242 0.0018484057
0.012691744 0.012478802 -0.021816391 0.63516057 -0.23781121 -0.73485839 0.0010811439
-0.019497825 0.014999366 -0.02328879 -0.5830577 -0.793657 -0.17364381 0.00085515849
0.011638897 0.015288266 -0.023550723 0.66058338 -0.17757089 -0.72945058 0.0011212804
0.013172051 0.015486226 -0.022129308 0.67978072 -0.16252087 -0.71518189 0.00094080926
0.011780657 0.017214112 -0.023815397 0.70491534 -0.053828999 -0.70724595 0.0016460469
0.013240842 0.018420327 -0.022405948 0.75588787 0.016215444 -0.65450031 0.0021956468
0.011788435 0.022139929 -0.023526642 0.82925624 0.30496407 -0.468328 0.014996176
0.012746088 0.020847209 -0.022525072 0.79988682 0.26264 -0.53963065 0.016448421
0.010478629 0.024728103 -0.022284374 0.80157459 0.44221181 -0.40240148 0.0020326716
0.011853821 0.023161627 -0.021099541 0.81232584 0.42843524 -0.39568925 0.0023439538
0.0084177488 0.027965387 -0.023265302 0.76877546 0.43072715 -0.47271377 0.0014852094
0.0095551126 0.027082454 -0.022132255 0.7835272 0.43999195 -0.43873939 0.0013099673
0.0074508106 0.030390507 -0.022463737 0.75231445 0.50816393 -0.419276 0.0020912131
0.0091611957 0.029016068 -0.020916019 0.77859968 0.48996949 -0.39206192 0.00050741265
0.0047855703 0.033681259 -0.022734147 0.70810276 0.6096366 -0.35627759 0.0027326511
0.0063021109 0.032396909 -0.021798734 0.72667497 0.57578921 -0.37471369 0.00090106437
0.0015154856 0.037078258 -0.022423703 0.6366896 0.72460639 -0.26376456 0.00098823814
0.0032183041 0.035559319 -0.022256866 0.67012709 0.66831923 -0.3229228 0.0010790172
-0.0010225766 0.039111011 -0.022790615 0.63067192 0.73348939 -0.25346833 0.0010153063
0.00017073518 0.038338043 -0.022252236 0.63943422 0.72293895 -0.261693 0.0010304736
-0.006526758 0.043121867 -0.023692582 0.58432466 0.78309208 -0.21291178 0.00047590004
-0.0043040458 0.041647539 -0.022779431 0.60527545 0.76758093 -0.21085826 0.0002046377
-0.00082917348 0.0015030806 -0.018255219 -0.3273752 -0.81816596 -0.47268376 0.0034504386
0.0014324819 0.0012312285 -0.018656228 -0.12861386 -0.81273025 -0.56826758 0.0040947692
0.0042349109 0.001140784 -0.01869853 0.054955445 -0.76128221 -0.64608765 0.0043398691
0.0070817852 0.0013025794 -0.018325951 0.22891189 -0.68074363 -0.69583565 0.0028544026
-0.0069514024 0.0046435921 -0.018743094 -0.51380652 -0.8109284 -0.27999634 0.0031031726
-0.0047958968 0.0037188316 -0.019395381 -0.39667165 -0.83383399 -0.3838912 0.0041077416
-0.0016949814 0.0026304852 -0.019687312 -0.22343358 -0.82793748 -0.51438987 0.0026930068
0.0012079107 0.0023189895 -0.020139733 -0.051518578 -0.79605126 -0.60303253 0.0026705265
0.0044020535 0.0024919314 -0.020196218 0.11634393 -0.73118818 -0.67218137 0.0026369651
0.0075712726 0.0030976497 -0.019783322 0.29398504 -0.62581575 -0.72244549 0.0029817002
0.010196134 0.0036182478 -0.018929604 0.40203539 -0.54469383 -0.73598653 0.0020553714
0.012230477 0.0044586472 -0.018316422 0.50995678 -0.45893136 -0.727548 0.001128814
-0.010314059 0.0071087563 -0.019284628 -0.56140548 -0.80003321 -0.21159099 0.0010493069
-0.0077952212 0.0055481726 -0.01986599 -0.4956657 -0.82530874 -0.27052009 0.0037131791
0.010676146 0.0059441486 -0.020252321 0.44586536 -0.47353122 -0.75958693 0.0020093867
0.013082732 0.0067105917 -0.019028943 0.55853951 -0.37463272 -0.74005669 0.00057057908
0.015105143 0.0079315966 -0.018038843 0.6129241 -0.34899449 -0.70889127 0.001703175
-0.013369231 0.0095644807 -0.01946382 -0.5918591 -0.79162908 -0.15174395 0.00075447391
-0.012019745 0.0083632534 -0.019259725 -0.59495634 -0.78604275 -0.16782084 0.00065850938
0.013603246 0.009326471 -0.019878395 0.61883491 -0.28285474 -0.73282778 0.00077442185
0.015446631 0.0097337915 -0.018446466 0.64859033 -0.26261544 -0.71439743 0.0011392672
-0.01517901 0.011071271 -0.019270185 -0.59224993 -0.79180402 -0.14928612 0.00084227161
0.014238615 0.012143472 -0.020324145 0.67003381 -0.19727491 -0.71563774 0.00090140704
0.015829779 0.012510864 -0.018882535 0.71124357 -0.15007292 -0.68673921 0.0027056395
0.014562776 0.015309755 -0.020723237 0.73575771 -0.049034055 -0.67546731 0.0047752517
0.015893476 0.01542412 -0.019277789 0.7537995 -0.0066440338 -0.65707088 0.0028351159
0.014586734 0.019165026 -0.020006035 0.85727257 0.26637149 -0.44060183 0.0058608968
0.015581379 0.017803961 -0.019347981 0.80671215 0.26050204 -0.53042823 0.010257983
0.013608649 0.021680195 -0.019222718 0.81255394 0.38803044 -0.43495804 0.0020309098
0.011309301 0.025560213 -0.020430524 0.81237423 0.43012413 -0.39375293 0.0021117574
0.012501873 0.024178796 -0.019405186 0.81002522 0.40180174 -0.42710009 0.0013202111
0.010692563 0.027481206 -0.019585472 0.80555695 0.44677964 -0.3891862 0.0016982143
0.011923868 0.02623838 -0.018499393 0.79662275 0.441625 -0.41274637 0.0019395505
0.0082279453 0.031068841 -0.019718166 0.7603212 0.58656526 -0.27902132 0.00083827524
0.009500185 0.029666448 -0.01907194 0.77892393 0.53381479 -0.329119 0.0011993099
0.0051223757 0.03446617 -0.020225547 0.6983909 0.67887396 -0.2266722 0.0011494053
0.0067057926 0.032927155 -0.019734967 0.72660661 0.64620185 -0.23337941 0.0020436514
0.0035496706 0.036094248 -0.019613784 0.67121625 0.71114016 -0.20916143 0.00095560559
-0.00073077087 0.039381586 -0.020644996 0.62804663 0.73870981 -0.24467394 0.00074661348
0.00084411236 0.038353115 -0.01956569 0.64221609 0.72351706 -0.25314325 0.00084319967
0.0019862202 -0.0011379654 -0.01513233 -0.26650012 -0.83696616 -0.47798041 0.0039665662
0.0043675611 -0.0013465174 -0.015470072 -0.076065101 -0.81336272 -0.57676262 0.0036912707
0.0072244797 -0.0013644472 -0.015397236 0.093870178 -0.76445061 -0.63781154 0.0031022988
0.0092789102 -0.0011377512 -0.015171839 0.26567662 -0.68843818 -0.67488426 0.0027034439
-0.0037063712 0.0015964499 -0.015649263 -0.4712306 -0.82272601 -0.31790522 0.0024742784
-0.001546039 0.00077243103 -0.016266458 -0.36778188 -0.83692676 -0.40532717 0.0040841992
0.001254733 -6.3379295e-05 -0.016575404 -0.17630503 -0.82815486 -0.53204894 0.0024620034
0.0042494414 -0.00022073835 -0.016987579 -0.0091480436 -0.79220611 -0.61018491 0.0025152923
0.0074969884 7.5620599e-05 -0.016932158 0.17734206 -0.70902646 -0.68251842 0.0041746744
0.010276817 0.00043965178 -0.016261252 0.29778317 -0.65740955 -0.6921978 0.0011685523
0.012830526 0.0011125114 -0.015502314 0.42285085 -0.56743246 -0.70655328 0.0023316958
-0.0071859397 0.0040959483 -0.016217805 -0.5546751 -0.79890829 -0.23255345 0.0008580063
-0.0048330645 0.0026085819 -0.01655031 -0.50976366 -0.81965286 -0.26136225 0.0013908796
-0.0030060494 0.0020474112 -0.017647181 -0.34289742 -0.86108094 -0.37544775 0.0025445293
0.011044423 0.0023066634 -0.017497338 0.35528672 -0.59335697 -0.72228718 0.0014322603
0.013485061 0.0032633161 -0.0166509 0.49487841 -0.48982733 -0.71774966 0.00034698463
0.015677324 0.0039588115 -0.015485079 0.56403053 -0.43149713 -0.7040453 0.0016770218
-0.01006072 0.0063669262 -0.016375374 -0.58034003 -0.79079664 -0.19454081 0.00016360871
-0.0087710759 0.0053813774 -0.016507857 -0.54789656 -0.80589694 -0.22436464 0.0007865525
0.014411811 0.0056738877 -0.017490858 0.5782907 -0.3665109 -0.72886872 0.0011371642
0.016250657 0.0064432165 -0.016343052 0.64042008 -0.31559289 -0.70018804 0.0006539349
0.017939065 0.0072943335 -0.01516332 0.67411983 -0.29603821 -0.67670071 0.0011908425
0.016764859 0.0091698803 -0.016997341 0.67099291 -0.24154375 -0.70101714 0.0019667721
0.018302519 0.0094891712 -0.015560783 0.72677654 -0.18596166 -0.66122168 0.0020363438
0.017204948 0.012286429 -0.017408777 0.7389468 -0.1019999 -0.66599822 0.0022539957
0.018538734 0.012515405 -0.015920671 0.80691528 -0.0027622979 -0.59066069 0.0090517653
0.017335571 0.015590623 -0.017244896 0.83249086 0.13458805 -0.53744298 0.0091797039
0.018150289 0.014984544 -0.016180044 0.82144278 0.20074649 -0.53379083 0.0088325646
0.016512517 0.018645175 -0.016213233 0.83944243 0.35306501 -0.4131363 0.00040305746
0.014493492 0.022270408 -0.017370645 0.82441264 0.40014499 -0.40028468 0.0012626093
0.015592435 0.021085378 -0.016228799 0.82285482 0.39840582 -0.40519476 0.0011602992
0.013825078 0.024427878 -0.016475961 0.82144243 0.42770594 -0.37722665 0.0012089228
0.015205661 0.023021303 -0.015123877 0.79900795 0.46831715 -0.3771807 0.0020481215
0.011153031 0.02847418 -0.016792711 0.79782683 0.53387523 -0.28008854 0.0018401266
0.012378987 0.026877396 -0.016371969 0.79067016 0.53181845 -0.30333135 0.0025405167
0.0097053619 0.030447271 -0.016507782 0.77193499 0.58584154 -0.24679177 0.00075774355
0.0056216642 0.034796201 -0.016087983 0.71129 0.67091268 -0.20962532 0.00078632799
0.007195239 0.033112843 -0.017286468 0.73289502 0.64301038 -0.22226666 0.0017974385
-0.00064192293 -0.0012655267 -0.012745748 -0.44095922 -0.82404828 -0.35566756 0.0021523684
0.001365571 -0.0018952573 -0.013336991 -0.30041936 -0.83642149 -0.45841831 0.0023105491
0.0043911422 -0.0027425801 -0.01339059 -0.15394258 -0.83733851 -0.52456254 0.0038374683
0.007255896 -0.0029796073 -0.013375937 0.0021275962 -0.81714398 -0.57642967 0.0029393728
0.010231487 -0.0024895975 -0.013363041 0.21940738 -0.71732306 -0.66129267 0.00096557126
0.01307242 -0.0018771775 -0.012748412 0.37092799 -0.63580191 -0.67688137 0.0014887822
0.015002081 -0.0013070833 -0.012153698 0.45990896 -0.56962222 -0.6811859 0.0011343177
-0.0040879021 0.001140892 -0.013510932 -0.53113192 -0.80308944 -0.27008569 0.0011434646
-0.0018804052 -0.00023165066 -0.013563173 -0.47633079 -0.82546467 -0.30284828 0.0016331973
0.00016276632 -0.00068330113 -0.014857086 -0.28188336 -0.84912306 -0.44668993 0.0025359173
0.011571173 -0.0006842101 -0.014651927 0.30538321 -0.65771526 -0.68858671 0.0013742374
0.013609705 8.8054687e-05 -0.014181978 0.42411745 -0.57560587 -0.69914407 0.0031422337
0.016023705 0.00061934162 -0.012951907 0.51087362 -0.50744009 -0.69391114 0.0016528142
0.018068045 0.0016003614 -0.012013468 0.57839423 -0.4670209 -0.66884339 0.0011631846
-0.0072206547 0.0035576667 -0.01371404 -0.58940846 -0.78736377 -0.18070976 0.00077983685
-0.0056392876 0.0022093426 -0.013202432 -0.58722818 -0.78649837 -0.19126767 0.001399687
0.016790139 0.0030916287 -0.014043628 0.59219128 -0.41300106 -0.69191015 0.0010423008
0.018636543 0.0037116064 -0.012741745 0.63346529 -0.3967174 -0.66433215 0.001113001
0.017502552 0.0052480018 -0.014679703 0.6438446 -0.32499582 -0.69270623 0.00073184812
0.019187171 0.0063823094 -0.013498543 0.7056917 -0.2550928 -0.66100442 0.00098063785
0.020821253 0.0073395884 -0.012054044 0.7448675 -0.22774677 -0.62713945 0.001956298
0.019891962 0.0093578547 -0.013709666 0.77222037 -0.13447946 -0.62095976 0.0019534566
0.021143798 0.0094037168 -0.012167657 0.82638538 -0.075365365 -0.55803889 0.0082442546
0.020056263 0.012260301 -0.01373241 0.8534559 0.1141336 -0.50851393 0.0080942689
0.021043083 0.01169709 -0.012218806 0.8637104 0.13415484 -0.48580536 0.0064553902
0.01923787 0.015529216 -0.013284687 0.85194516 0.277933 -0.44378227 0.0011655028
0.017428415 0.019321285 -0.014249614 0.84051394 0.38001582 -0.38616616 0.002053594
0.018445306 0.018021058 -0.013250806 0.8414008 0.35460627 -0.40779787 0.0010673562
0.016731553 0.021468984 -0.013541616 0.82920265 0.41533437 -0.37405947 0.001713261
0.018053344 0.019952007 -0.012372497 0.85159713 0.38802963 -0.35244188 0.0033192837
0.014330182 0.025136093 -0.014004323 0.81513453 0.50970304 -0.27524263 0.0017980356
0.015472801 0.023847461 -0.013074878 0.81068051 0.51261443 -0.28288439 0.0021192934
0.013250254 0.026859531 -0.01345866 0.79763973 0.5557335 -0.23437378 0.00069535023
0.010909708 0.029723564 -0.013736176 0.77832133 0.58517122 -0.22757575 0.0005895241
0.0024672581 -0.0044039274 -0.009318891 -0.44334298 -0.80635768 -0.39145163 0.0021698836
0.0046165427 -0.004830705 -0.010047317 -0.29030871 -0.83394986 -0.46930647 0.0020443029
0.0073737176 -0.005171502 -0.010374102 -0.076612994 -0.81627798 -0.57255632 0.0035542299
0.010217188 -0.0052298922 -0.01017046 0.11031013 -0.77293736 -0.62481958 0.0029339348
0.013111547 -0.0049130302 -0.0096546905 0.28634673 -0.70040989 -0.65378243 0.0022134273
0.015179822 -0.0044058273 -0.009172502 0.38315493 -0.6541276 -0.65215755 0.00034882189
-0.0012249935 -0.0017919168 -0.010450488 -0.54179651 -0.78788996 -0.29272157 0.0031086903
0.0013097695 -0.0032367874 -0.010535886 -0.43232742 -0.82835913 -0.35625002 0.0024278716
0.0036407441 -0.0037862947 -0.011364297 -0.25825021 -0.84007287 -0.47705793 0.005715094
0.010960942 -0.0039148489 -0.011596027 0.17148864 -0.735928 -0.65498221 0.0020631428
0.013480345 -0.0034104018 -0.011040567 0.3116571 -0.67823935 -0.66547817 0.0015898166
0.016226657 -0.0024792906 -0.010269309 0.43075803 -0.60454005 -0.67005885 0.0010880288
0.018482478 -0.001476855 -0.0094169509 0.57219207 -0.50177091 -0.64870805 0.00085124117
-0.0042904774 0.00060352543 -0.010982685 -0.58864212 -0.78286934 -0.20153426 0.0018839677
-0.0029133414 -0.00054837111 -0.010599745 -0.59642798 -0.77300674 -0.21618119 0.0021064244
0.017171819 -0.00023840833 -0.011448258 0.55935609 -0.48742047 -0.670479 0.001126606
0.019198522 0.00051582418 -0.010220783 0.63641959 -0.41957948 -0.64724278 0.00072366098
0.020965265 0.0013722917 -0.0090166656 0.66600031 -0.39651954 -0.63183528 0.00096995453
-0.0065464033 0.0022968268 -0.0091439663 -0.6201005 -0.76768857 -0.16164669 0.00042573796
0.019920534 0.0031022704 -0.011137435 0.67546785 -0.34276664 -0.6528815 0.001042743
0.021413229 0.0037023695 -0.0097988648 0.72236723 -0.31199276 -0.61712736 0.0014472535
0.020376584 0.0052765077 -0.011741611 0.70258343 -0.28802878 -0.65070409 0.0019214634
0.021856919 0.0064161066 -0.010397358 0.76413888 -0.22029331 -0.60626954 0.0012996871
0.02211576 0.0091822669 -0.010521904 0.87041008 0.020251697 -0.49191079 0.0028296174
0.021608114 0.012502782 -0.010345742 0.88901818 0.20170587 -0.41104913 0.0012622497
0.020288408 0.015865121 -0.011164143 0.8674227 0.30696151 -0.39160243 0.0015369551
0.021172373 0.014941627 -0.0099628214 0.86907566 0.32153746 -0.375927 0.0014679449
0.019507932 0.018416936 -0.010616424 0.85618752 0.39169538 -0.33692387 0.0021393946
0.017309237 0.022089988 -0.010873797 0.82024556 0.50195408 -0.27429804 0.0016125516
0.01844776 0.020583713 -0.010255235 0.82806849 0.47755682 -0.29366997 0.0021946933
0.015834948 0.02438142 -0.010236594 0.80586213 0.54252338 -0.23718059 0.00046719261
0.014426628 0.025995096 -0.011020842 0.80662376 0.5380823 -0.2445927 0.0005494802
0.0052727442 -0.0072361957 -0.0062402715 -0.36409628 -0.81317818 -0.45406514 0.0023052287
0.0074988827 -0.0075989142 -0.0067335218 -0.17104241 -0.83533365 -0.52245784 0.0034303181
0.01037647 -0.0076874904 -0.0069525158 0.020821273 -0.81419015 -0.58022487 0.0028588304
0.013270346 -0.0076033147 -0.0065114745 0.19790721 -0.76122177 -0.61755496 0.002314761
0.015284952 -0.0072393799 -0.0060754148 0.33833092 -0.700885 -0.62792706 0.0010636969
0.0017406705 -0.0049340297 -0.0072662584 -0.47997934 -0.80481601 -0.34912902 0.0030874847
0.004242057 -0.0060620783 -0.0075795492 -0.30244064 -0.82716298 -0.47363591 0.0022162076
0.0071501099 -0.0065484196 -0.0082732467 -0.11827653 -0.82316893 -0.55534101 0.002535708
0.010621876 -0.0065927636 -0.0083801355 0.065565236 -0.79752171 -0.5997169 0.0023501276
0.013571795 -0.0062240055 -0.0079978351 0.2292098 -0.73594093 -0.63706648 0.0014701256
0.016183518 -0.0055323383 -0.0073893564 0.36345586 -0.66880554 -0.64853603 0.00090879842
0.018344864 -0.0049571767 -0.0065168436 0.46515927 -0.61155915 -0.64001739 0.001137364
-0.0014151558 -0.0026074266 -0.0075458456 -0.61132669 -0.75455689 -0.23858687 0.0027962252
0.00050270953 -0.0038408833 -0.0080693839 -0.47474778 -0.81250924 -0.33829454 0.0021333117
0.017444218 -0.0036441591 -0.0084013622 0.50704885 -0.57025886 -0.64630193 0.0011019309
0.019494746 -0.0026948527 -0.0075188139 0.59332073 -0.50516379 -0.62672174 0.0010158906
0.021375364 -0.0017079739 -0.0065018041 0.65490103 -0.44844466 -0.60827786 0.00063318759
-0.0047058314 0.00044611981 -0.0084201079 -0.63456863 -0.75498062 -0.1653088 0.00056567258
0.020411724 -0.00036370475 -0.008485782 0.6636833 -0.40741253 -0.62732726 0.001254022
0.022080511 0.00051062368 -0.0072038607 0.70865369 -0.37931529 -0.59492004 0.0020684907
0.022791861 0.0032273121 -0.0078436621 0.78656405 -0.25778475 -0.56112748 0.0013616729
0.02403459 0.0039320895 -0.0064250655 0.82732707 -0.20699662 -0.52218997 0.003575542
0.023242993 0.0063008517 -0.0084154587 0.85915852 -0.083702169 -0.50481743 0.0045602322
0.024091158 0.0064863828 -0.0068138321 0.88342464 -0.024245165 -0.46794552 0.0031842371
0.023183716 0.0097595397 -0.0081604384 0.88786155 0.085421368 -0.4521119 0.0020429655
0.02392675 0.0093369083 -0.0066267727 0.90938932 0.12553422 -0.39655042 0.0013201365
0.022926725 0.012526913 -0.0075549879 0.90151775 0.26517501 -0.34197646 0.0021161062
0.023907777 0.011388279 -0.0058984784 0.90903229 0.26482093 -0.32176107 0.0022591671
0.022004955 0.015313016 -0.007565856 0.8797403 0.35796615 -0.31291735 0.0020143688
0.020179372 0.018755142 -0.0079955254 0.85555363 0.45199183 -0.25245076 0.0021816958
0.021214979 0.01740128 -0.0070177442 0.85825729 0.45099199 -0.24495038 0.0018795597
0.017532354 0.022687733 -0.008129376 0.81456673 0.53633946 -0.22095481 0.00073577324
0.018932154 0.020844758 -0.007900822 0.8279556 0.51571912 -0.22028022 0.00067895901
0.0083536049 -0.010109404 -0.0031178473 -0.25196493 -0.82780641 -0.50124878 0.0020999864
0.01041161 -0.010291608 -0.0033257687 -0.086768262 -0.81952882 -0.56643081 0.0041292622
0.012991088 -0.010246847 -0.0032434342 0.14301011 -0.7927677 -0.59250939 0.0024011368
0.0024946968 -0.0072999531 -0.0029531149 -0.55039597 -0.75486374 -0.35671422 0.0028458608
0.0046298401 -0.0079896618 -0.0042174659 -0.40764001 -0.8045882 -0.43181872 0.0026677388
0.0073482264 -0.0089772735 -0.0044576256 -0.20205036 -0.81814182 -0.53834897 0.0022335064
0.010187979 -0.0091286916 -0.0049595512 -0.014225378 -0.814834 -0.57951975 0.0021048251
0.0133457 -0.0090173148 -0.0047371215 0.15204661 -0.77369392 -0.6150443 0.001519608
0.016233405 -0.0083812904 -0.0043061227 0.30491337 -0.72474396 -0.61787868 0.0012987962
0.018608995 -0.007717412 -0.0035754619 0.44799489 -0.64599937 -0.61804968 0.00037203933
-0.00047336868 -0.0046318304 -0.0037744269 -0.61476034 -0.74637151 -0.25494957 0.0019987987
0.0012865171 -0.0057690395 -0.0044711772 -0.56295568 -0.77233875 -0.29423392 0.0013978535
0.0031066013 -0.0066332202 -0.0052724113 -0.51710695 -0.7772361 -0.35847524 0.0019621216
0.017241905 -0.0066266591 -0.005631668 0.37610096 -0.66461056 -0.64563215 0.00098338281
0.019558258 -0.005820279 -0.0047062114 0.48074093 -0.60671175 -0.63307911 0.0011742468
0.021692244 -0.0049467795 -0.0035670782 0.59656155 -0.54023147 -0.5935185 0.0015155376
-0.0035766005 -0.0011896575 -0.0055384664 -0.67748415 -0.71393907 -0.17693543 0.0012671112
-0.0020581842 -0.0029383348 -0.0043921145 -0.6731025 -0.70992017 -0.20723499 0.0019777992
0.020660814 -0.0037529031 -0.0056075184 0.58518755 -0.52155018 -0.62091935 0.00055204617
0.022476306 -0.0027031163 -0.004506188 0.69937629 -0.42103919 -0.57758015 0.00078111648
0.02416805 -0.0015536146 -0.0032436876 0.75135612 -0.38941711 -0.5327459 0.0020413792
-0.0045136986 -0.00025801174 -0.0051769344 -0.67323178 -0.72318488 -0.1541512 0.00067595515
0.023318987 -0.00018062815 -0.0052850521 0.74373484 -0.33292043 -0.57967448 0.0013277539
0.024470566 0.00061806105 -0.0041428306 0.80588073 -0.28279147 -0.52017802 0.0027239129
0.024939846 0.0032559731 -0.0045551402 0.87879407 -0.13585421 -0.45745441 0.0040287664
0.025154334 0.0065156971 -0.0044531031 0.92117584 0.043704662 -0.38668448 0.0017736219
0.02480597 0.0092632305 -0.0045803995 0.92583162 0.16090275 -0.34197384 0.0012398371
0.023479564 0.01350481 -0.0051870523 0.90397292 0.32042998 -0.28312117 0.0031662793
0.024195721 0.012095268 -0.0042746733 0.9114539 0.26316369 -0.31622258 0.0022240195
0.022826221 0.015399951 -0.0042875237 0.88928229 0.38715085 -0.24349785 0.0011364465
0.020659465 0.018851466 -0.0056366054 0.85151547 0.47872189 -0.21388501 0.00068266876
0.021636393 0.017488115 -0.0047126142 0.85895509 0.44703841 -0.24970552 0.0017437938
0.019748552 0.020270817 -0.0051566688 0.83881366 0.50647813 -0.19967853 0.00070960273
0.0053330138 -0.010291481 -0.00064194482 -0.45318004 -0.78130049 -0.42918229 0.0026638533
0.0074554607 -0.010957137 -0.0012412556 -0.30111247 -0.81454545 -0.49582961 0.0027963417
0.0102685 -0.011647305 -0.0013285186 -0.11985598 -0.82410866 -0.55360591 0.0043134587
0.013373207 -0.011629527 -0.0013336847 0.075754568 -0.80537456 -0.5879057 0.0018762191
0.016313033 -0.010996312 -0.0012280568 0.26927957 -0.7478013 -0.60686207 0.0017146836
0.018747905 -0.010438232 -0.00053763017 0.41146103 -0.68270808 -0.60382909 0.0011186494
0.0018969581 -0.0076746447 -0.00098759215 -0.59216315 -0.73897648 -0.32133555 0.0020774566
0.0041331016 -0.0090437736 -0.0015340755 -0.50582325 -0.77900034 -0.37054202 0.0022947588
0.0062498003 -0.0096514169 -0.0026831655 -0.34047559 -0.82122171 -0.45789883 0.0047474205
0.017165422 -0.009537803 -0.0025341092 0.2883167 -0.73039246 -0.61919326 0.001485751
0.019449294 -0.0088721551 -0.0017408095 0.44531217 -0.65991545 -0.60515183 0.0012228383
0.021505058 -0.0079673342 -0.00095230807 0.56614155 -0.58169323 -0.58405203 0.0022368417
-0.00067547965 -0.0052150534 -0.0012517674 -0.65867597 -0.7152766 -0.23350675 0.0012041187
0.00073602353 -0.0064455196 -0.0015390841 -0.6708802 -0.69781601 -0.2509433 0.001322116
0.020793229 -0.0068347389 -0.0027498333 0.57210034 -0.56441951 -0.59508979 0.0010153152
0.022729797 -0.005915666 -0.0015840167 0.67120403 -0.48899171 -0.55711067 0.0011879794
0.024389889 -0.0048960298 -0.0004542321 0.70673603 -0.45192146 -0.54432636 0.0019627912
-0.0038498328 -0.0014455253 -0.0016442118 -0.71994358 -0.67557693 -0.15898718 0.00096402696
-0.0022066291 -0.0035672216 -0.0011729226 -0.73312151 -0.66261923 -0.15319447 0.0010489329
0.023464376 -0.0038660644 -0.0025130641 0.67095828 -0.46467781 -0.57783175 0.00089705345
0.025000416 -0.0026055863 -0.0012862664 0.76497388 -0.37191719 -0.52582562 0.0014094878
0.02591911 0.00033093244 -0.0015682075 0.86297524 -0.20794712 -0.46046895 0.0018084247
0.026236888 0.0034911172 -0.00193498 0.91320634 -0.055698823 -0.40367299 0.0031240874
0.027062206 0.0035022115 6.3315034e-05 0.95067298 -0.0044262493 -0.31016344 0.0047047352
0.026255468 0.0065513118 -0.0016203206 0.93534976 0.093412161 -0.34116706 0.0023697526
0.025758743 0.0093421023 -0.001490064 0.93673426 0.18455388 -0.29743692 0.00052246795
0.024888724 0.011632072 -0.0022233948 0.92554933 0.25992876 -0.27530998 0.0015660059
0.0080014374 -0.013361065 0.0022994084 -0.36845058 -0.79231346 -0.48629567 0.002693607
0.010461723 -0.013979601 0.002069463 -0.18226701 -0.82368761 -0.53695202 0.0035109369
0.013183801 -0.01403188 0.0018640319 0.038669106 -0.81422883 -0.57925475 0.0021499933
0.016205817 -0.013758171 0.0021836208 0.21977584 -0.76007074 -0.61154819 0.0018373579
0.018752296 -0.013270427 0.0027574617 0.36015615 -0.71218991 -0.60255545 0.0012679496
0.0043799821 -0.010933895 0.0018564677 -0.52244604 -0.76360852 -0.37941021 0.0021590577
0.0068331575 -0.012177031 0.0012877518 -0.37988275 -0.79690784 -0.46970955 0.0045590741
0.010074765 -0.012924749 0.0006191032 -0.14353466 -0.80480188 -0.5759269 0.0033002235
0.01337973 -0.012970066 0.00045455527 0.064427629 -0.7901727 -0.60948849 0.0021579121
0.016343512 -0.012573529 0.0007263096 0.23676988 -0.75220567 -0.61491996 0.0015800716
0.019454002 -0.011683332 0.0013601342 0.40404916 -0.6882813 -0.60250574 0.0025077506
0.021655666 -0.010880191 0.0022015106 0.52820718 -0.6135444 -0.58699274 0.0015469163
0.0015664313 -0.0084854569 0.0017611291 -0.68311489 -0.68238002 -0.2602143 0.0015310519
0.0031423869 -0.0095841829 0.0009617079 -0.6178652 -0.71096057 -0.3358238 0.0014832405
0.022549303 -0.0089565814 0.0010865172 0.54509288 -0.59614879 -0.58947462 0.0010207432
0.024307087 -0.0080734249 0.0022404986 0.6696853 -0.51271987 -0.53725213 0.0012218251
-0.0011714068 -0.0054415334 0.0016495362 -0.72696042 -0.65680218 -0.20034841 0.0013852088
0.00014532241 -0.0069094682 0.0013307603 -0.7059806 -0.67311555 -0.22024265 0.0014426768
0.023777854 -0.0068935687 0.00046220142 0.67280453 -0.50299668 -0.54252052 0.0012305885
0.025442503 -0.0055728871 0.0016761767 0.76744443 -0.39667314 -0.50366598 0.0012141843
-0.0029346659 -0.0031252587 0.0016367259 -0.74272197 -0.64656502 -0.17412005 0.00075812847
0.026330808 -0.002802724 0.0010087509 0.82846081 -0.31597248 -0.46240029 0.00090725563
0.027334742 -0.0019782297 0.0023301048 0.86587119 -0.26598948 -0.42369404 0.0028380677
0.026599383 -0.0007483298 0.00022154767 0.85171181 -0.20689392 -0.48143733 0.0053142612
0.027377557 0.00043018488 0.0013592737 0.92509192 -0.10103168 -0.36605674 0.0028071674
0.027494045 0.0033315332 0.0013287449 0.94341695 0.01187129 -0.33139613 0.0050394284
0.027314968 0.005800778 0.0016277358 0.9535405 0.10481469 -0.28244364 0.0018736904
0.026402976 0.0089473715 0.00089892466 0.94612741 0.16769204 -0.27698785 0.00069765944
0.0087553058 -0.016088897 0.0060123475 -0.31730172 -0.76285356 -0.56335956 0.0056686886
0.010422456 -0.016393831 0.0056540994 -0.21130838 -0.81785136 -0.53522688 0.0028151318
0.01329308 -0.016794171 0.0056951111 -0.003114901 -0.80222607 -0.59701234 0.0021934716
0.016263423 -0.016416209 0.0056432365 0.19457543 -0.78332293 -0.59037757 0.0026727899
0.018082829 -0.016083473 0.005872515 0.32443905 -0.74789417 -0.57913184 0.0012782275
0.0050165346 -0.013391256 0.005477014 -0.57921666 -0.70932978 -0.40169558 0.0035582734
0.0072984705 -0.014439769 0.004633435 -0.37607083 -0.78302979 -0.49541414 0.0023248571
0.010389761 -0.01538256 0.0041720765 -0.1820257 -0.80209881 -0.56877434 0.0023652765
0.01324279 -0.015532335 0.0039326875 0.01890911 -0.81837463 -0.5743739 0.0021011878
0.016345816 -0.015236463 0.0041251285 0.18513632 -0.77162755 -0.60853553 0.0015557917
0.019422133 -0.014481956 0.0046522683 0.32998493 -0.73013961 -0.59833616 0.0010406072
0.021645389 -0.013673233 0.0053240443 0.50489336 -0.64818013 -0.57003975 0.001418117
0.0023378946 -0.010702323 0.0050168419 -0.68967265 -0.65583318 -0.30697638 0.0016575732
0.0039890176 -0.011992384 0.0045118826 -0.60620266 -0.69233549 -0.39139491 0.0023801376
0.020597339 -0.012653479 0.0032883557 0.50565982 -0.65016258 -0.56709492 0.0013485546
0.022667401 -0.01184991 0.0042516952 0.57802784 -0.6022985 -0.55056369 0.0031673545
0.024396336 -0.010853915 0.0051340861 0.64397746 -0.55565172 -0.52587473 0.0010883249
-0.00033611525 -0.0074538672 0.0049823793 -0.77427107 -0.60345912 -0.19063453 0.0015736824
0.0009893782 -0.0089830756 0.004579504 -0.73793489 -0.63116777 -0.23891276 0.0015828119
0.025424562 -0.0087809321 0.0045318389 0.72702008 -0.47690549 -0.49396649 0.0017656484
0.026927406 -0.0074688876 0.0057561668 0.77208084 -0.42858696 -0.46925938 0.00083601527
-0.0012893572 -0.0060156072 0.0045981379 -0.77177221 -0.61389709 -0.16582525 0.001049992
0.026326774 -0.0062858127 0.003654304 0.79460686 -0.3776997 -0.47533438 0.0013603382
0.027472939 -0.0053039836 0.0048850169 0.84462923 -0.32402253 -0.42615825 0.0024457984
0.028184736 -0.0025041979 0.0045365645 0.91167879 -0.20071499 -0.35854605 0.0036182986
0.028526274 0.0004255767 0.0045526503 0.9483375 -0.043152466 -0.31431508 0.0014683497
0.028270634 0.0032879845 0.0042876871 0.95892763 0.022381693 -0.28276646 0.0026904955
0.027511694 0.0066143563 0.0035651894 0.96055454 0.14320812 -0.23838304 0.00048519674
0.011704252 -0.019101644 0.0091300281 -0.15141581 -0.82568634 -0.54342932 0.0032155823
0.013385424 -0.019092634 0.008930576 -0.029075561 -0.82344002 -0.56665796 0.0022146376
0.015315829 -0.019097218 0.0090316655 0.12306 -0.81824142 -0.56154883 0.002639998
0.0076516243 -0.01674662 0.0079561239 -0.45057353 -0.7522524 -0.48072836 0.0030040767
0.010397295 -0.01768731 0.0075709233 -0.19787592 -0.79840875 -0.5686726 0.0023843043
0.013344163 -0.018067334 0.0074850367 -0.013536096 -0.7951259 -0.6062932 0.0015241681
0.016273327 -0.017779307 0.0074749542 0.1620585 -0.79489851 -0.58469945 0.0015598343
