# .PCD v0.7 - Point Cloud Data file format
VERSION 0.7
FIELDS x y z normal_x normal_y normal_z curvature
SIZE 4 4 4 4 4 4 4
TYPE F F F F F F F
COUNT 1 1 1 1 1 1 1
WIDTH 554
HEIGHT 1
VIEWPOINT 0 0 0 1 0 0 0
POINTS 554
DATA ascii
0.019959612 -0.00038123142 -0.0011030931 0.45253092 0.13877283 -0.88088477 0.0022847233
0.021969695 -0.00047045678 0.00021440466 0.63257545 0.12236165 -0.76477182 0.001662564
0.0048237136 0.0024659003 -0.00012346008 -0.47018841 0.070940584 -0.87971038 0.0021091718
0.0078852316 0.0024552161 -0.0014499481 -0.3189595 0.10710834 -0.94169664 0.0020518387
0.010772155 0.0026692788 -0.0021491766 -0.14244413 0.14657828 -0.97888941 0.0014954741
0.013965255 0.003370913 -0.0022723109 0.041644655 0.15994592 -0.98624694 0.0025961355
0.016950265 0.002530148 -0.0019185644 0.27016079 0.15620053 -0.95006025 0.0035526541
0.019979374 0.0024617671 -0.00065033045 0.48895523 0.14070565 -0.86088598 0.0028372342
0.021768924 0.0020749199 0.00047313259 0.63687456 0.12593693 -0.76061213 0.0015329173
0.0050162133 0.0052747969 -1.7730054e-05 -0.45108366 0.038080875 -0.89166886 0.0020382348
0.0078899572 0.0055331504 -0.0011602493 -0.31994757 0.07629256 -0.94435847 0.0020532461
0.010949897 0.0055227084 -0.001853751 -0.1404359 0.10859954 -0.98411578 0.0014323076
0.013779837 0.0055203093 -0.0020152272 0.06032097 0.12659968 -0.99011815 0.0023725927
0.016868379 0.0055279462 -0.0015118518 0.28530845 0.14091451 -0.9480201 0.0023345558
0.01989508 0.0053029153 -0.00025191251 0.48063591 0.12951379 -0.86730343 0.0028830005
0.0050632786 0.0083989482 9.0952031e-05 -0.41085544 0.030990336 -0.91117364 0.0015605855
0.0078933993 0.008613212 -0.00095117709 -0.29541424 0.052500248 -0.95392573 0.001946175
0.01095646 0.0085995533 -0.0015717512 -0.12133404 0.064894475 -0.99048811 0.0013382823
0.013790056 0.008597373 -0.0016718092 0.085655026 0.12290542 -0.98871511 0.0021463931
0.016884029 0.0086103575 -0.0010864129 0.31934297 0.11979916 -0.94003636 0.0036441369
0.019620162 0.0083136251 6.0699647e-05 0.49013719 0.13318095 -0.86141074 0.0031475669
0.0050639268 0.01148502 0.00015323167 -0.38193682 0.0089970324 -0.92414469 0.0016896973
0.0078955563 0.011457263 -0.0008204123 -0.26943809 0.034271814 -0.96240777 0.0018818612
0.010960933 0.011441316 -0.0013796388 -0.092715226 0.081327148 -0.99236572 0.0015126087
0.013798626 0.011441248 -0.0013840264 0.16860822 0.096977055 -0.980901 0.0050143925
0.016898492 0.011461029 -0.00069369352 0.33152357 0.11803624 -0.93603396 0.0034916999
0.019172318 0.0113537 0.00029971427 0.51028174 0.14420597 -0.84783089 0.0031658218
0.0050179223 0.014370527 0.00014657783 -0.37257835 -0.013394849 -0.92790407 0.0020345987
0.0079471003 0.0144771 -0.00075227662 -0.23741235 0.019789131 -0.97120738 0.0017867594
0.010965107 0.014521707 -0.0012014513 -0.057078872 0.070908315 -0.99584836 0.0016688918
0.013807527 0.014525896 -0.0010856885 0.19268319 0.087254375 -0.97737396 0.0038616664
0.016880292 0.01435571 -0.00029058591 0.35282412 0.12488311 -0.92731839 0.0030875942
0.01884119 0.013632165 0.00049722777 0.53591001 0.15603893 -0.82973027 0.0024579875
0.0048263539 0.017416421 0.00013612933 -0.32978138 -0.037599567 -0.94330823 0.001782479
0.0078438716 0.017543066 -0.00069382624 -0.20501332 -0.0088327955 -0.97871929 0.0023695796
0.010969091 0.017604128 -0.001032541 0.04943746 0.053425085 -0.9973473 0.005719516
0.013816656 0.017614923 -0.000780478 0.22384554 0.096803613 -0.9698053 0.0037426588
0.016650686 0.01730036 4.4503715e-05 0.39104414 0.13290742 -0.91072506 0.0034164742
0.0031682809 0.020759817 0.00056916871 -0.36268115 -0.075136386 -0.92887944 0.0037807766
0.004825186 0.020494292 -2.2747554e-06 -0.2886878 -0.046791073 -0.95627922 0.0019750886
0.0078976257 0.020459883 -0.00070542993 -0.16341901 0.0077210674 -0.98652649 0.0025545752
0.010972833 0.02045171 -0.00087402167 0.085296698 0.058132868 -0.99465823 0.0048316191
0.013826048 0.020471774 -0.00046651298 0.24939144 0.1016825 -0.96304965 0.0030688201
0.016058709 0.020345299 0.00026722508 0.43320817 0.14718919 -0.88919401 0.0038140558
0.0028754026 0.023458015 0.00046566338 -0.37118489 -0.069914505 -0.92592317 0.0017027252
0.0048242044 0.023334322 -0.00011829776 -0.26869199 -0.065852031 -0.96097249 0.0013305388
0.0079485197 0.023479426 -0.000682957 -0.11503986 0.019252455 -0.99317431 0.0033283557
0.010922699 0.023430739 -0.00068197062 0.1269327 0.067841321 -0.98958862 0.0035825064
0.01383727 0.023336077 -9.164121e-05 0.28898039 0.12272871 -0.94943559 0.0028643974
0.01561102 0.022750311 0.00048119226 0.47674534 0.17494391 -0.86145717 0.0027306345
0.0024912197 0.026610328 0.00034216139 -0.31419256 -0.063779503 -0.94721442 0.0015048168
0.0048231464 0.026409656 -0.00023835874 -0.18881977 -0.020788856 -0.98179168 0.0019031977
0.0078456709 0.026548373 -0.00060490356 -0.059478085 0.036144253 -0.99757499 0.0040952461
0.011038796 0.026509466 -0.00039532955 0.17442746 0.092208914 -0.9803431 0.0033620498
0.013498345 0.026217224 0.00022353115 0.35345447 0.14720659 -0.92379665 0.003512451
0.0020874366 0.029590875 0.00025728927 -0.25658324 -0.058017671 -0.96477926 0.0015000026
0.0048225019 0.029485974 -0.0003209766 -0.13941348 -0.0055186804 -0.99021882 0.0025922074
0.0079016965 0.029475205 -0.00047761609 0.072520472 0.050615273 -0.99608177 0.0040435912
0.010992452 0.02950564 -4.1433377e-05 0.22200938 0.11750374 -0.96793842 0.0032290022
0.012930666 0.029041326 0.00049326755 0.42333668 0.18043609 -0.88782257 0.003231447
0.00015981785 0.032632805 0.00053426879 -0.32448819 -0.091991052 -0.94140589 0.0015487128
0.0019791303 0.032362908 0.00010811305 -0.19897155 -0.041111726 -0.97914255 0.0016569259
0.0048225652 0.032330036 -0.00032600341 -0.078548267 0.021963669 -0.99666834 0.003272251
0.0079052737 0.032334741 -0.00026573427 0.12405185 0.080027252 -0.98904335 0.0034304648
0.010692126 0.032209259 0.0002814203 0.28963315 0.14889625 -0.94548541 0.0039833426
-0.00035767088 0.035638932 0.00043566735 -0.25550082 -0.066878147 -0.96449298 0.0016766698
0.0019788835 0.035435941 -2.9809307e-05 -0.13746494 -0.0077488166 -0.99047637 0.0021013638
0.0048235729 0.03541958 -0.00022886321 0.0471927 0.058591355 -0.99716592 0.0043403632
0.0078814737 0.035416257 8.6505199e-05 0.21136321 0.14819735 -0.96610725 0.0015614746
0.01008868 0.034530081 0.00049993698 0.37642086 0.19580966 -0.90551978 0.0047501675
-0.00079902564 0.038608164 0.00033562072 -0.18393607 -0.0351662 -0.98230898 0.0017949685
0.0019789932 0.038518932 -3.6141835e-05 -0.078748807 0.029448433 -0.99645948 0.0025269687
0.0048258929 0.038523156 9.5516443e-06 0.11322309 0.081021167 -0.9902606 0.0030694827
0.0072032725 0.038318396 0.00037248805 0.26902172 0.15994665 -0.94976014 0.0046567218
-0.0030073975 0.042139914 0.00060878787 -0.20558183 -0.040205203 -0.97781366 0.001096288
-0.0011061842 0.0413999 0.00032427791 -0.11317211 0.011370011 -0.99351031 0.0019987009
0.0019795166 0.041380018 0.00011677644 0.014464415 0.087976918 -0.99601752 0.0027734493
0.0046548713 0.041227616 0.00034150784 0.15979061 0.14993526 -0.97569788 0.0040774564
0.0064937724 0.040475752 0.00059314165 0.30534145 0.23211755 -0.92351937 0.0027452039
-0.0032053234 0.044514861 0.00060453848 -0.17891008 0.0034159371 -0.98385948 0.0015581598
-0.0011063843 0.044495348 0.00041494938 -0.026933128 0.053027954 -0.9982298 0.002006141
0.0018267768 0.044231627 0.00043018442 0.072113581 0.12781815 -0.98917246 0.0027127515
0.0039601326 0.043404397 0.00058485661 0.25962359 0.24053881 -0.93527359 0.0049215741
-0.0030075274 0.04641718 0.00062383804 -0.11012755 0.055998091 -0.99233872 0.0010276427
-0.0012767406 0.04668555 0.00059496588 0.027985752 0.13794769 -0.99004406 0.0016567535
0.019338552 -0.045789357 0.0010245005 0.87643754 -0.33981055 -0.3411541 0.0010756564
0.020805689 -0.042784493 0.0019277418 0.90151471 -0.32160798 -0.28955054 0.00047306393
0.021235015 -0.041024264 0.00090904627 0.89739829 -0.29828736 -0.32511666 0.00085518253
0.021989651 -0.03943618 0.0017756629 0.91072851 -0.27755448 -0.30583829 0.00073876861
-0.010639409 -0.037294414 0.0018040696 -0.83124125 0.52156639 -0.19237065 0.0010239193
0.02288207 -0.036457434 0.0017576003 0.90700179 -0.21609388 -0.36145714 0.0019437326
-0.008720546 -0.033913564 0.0011806646 -0.83987832 0.46414086 -0.28138527 0.0025600649
-0.008258367 -0.032771211 0.0018402943 -0.85325581 0.45178956 -0.26046249 0.0024852962
0.023630003 -0.033604436 0.0019559148 0.91133982 -0.19558558 -0.36222363 0.0010051932
-0.0071438141 -0.030404098 0.0016611046 -0.87486637 0.3991107 -0.27444375 0.0020625156
0.023856025 -0.030487277 0.0013762985 0.88634509 -0.12016932 -0.44715959 0.0031886862
0.024673073 -0.030225277 0.00295643 0.89713538 -0.15387712 -0.41408929 0.0023190097
-0.0061988207 -0.027680559 0.0021246001 -0.89961034 0.34949359 -0.26183107 0.0021762913
-0.0053889463 -0.026295243 0.0010517696 -0.86807907 0.37439972 -0.32598093 0.0058243838
0.024040982 -0.027669743 0.001316095 0.86702824 -0.063465431 -0.49420056 0.0010935601
0.024877839 -0.027475778 0.0027250941 0.88192284 -0.08129587 -0.46433082 0.0015723186
-0.0058987103 -0.025946779 0.0033199349 -0.9181217 0.29863638 -0.26051638 0.0017103858
-0.0049617933 -0.024438892 0.0019299639 -0.89205831 0.32800001 -0.3108826 0.0024475588
0.024102304 -0.024638498 0.0011919101 0.85790813 -0.053844109 -0.51097399 0.00045868158
0.02490606 -0.02458006 0.0025081518 0.87763441 -0.062448628 -0.47524512 0.00081533002
-0.0038926934 -0.02142019 0.0019049454 -0.88107681 0.29125252 -0.37266013 0.0023579188
0.024079632 -0.02247691 0.00076254806 0.82439941 -0.041748773 -0.56446666 0.0006769523
0.024998436 -0.021331172 0.0023447322 0.86593455 -0.033433642 -0.49903861 0.00090558571
-0.0032846499 -0.018788965 0.0025419644 -0.86083478 0.28615698 -0.42080602 0.0031297309
-0.0023587698 -0.018039361 0.0012353444 -0.82814443 0.31430364 -0.4641014 0.0025949152
0.025104558 -0.018490339 0.0021044752 0.85467893 -0.017888585 -0.51884866 0.0015997894
-0.0030317006 -0.016629677 0.0034279088 -0.91117889 0.23418278 -0.33898589 0.0020126044
-0.0018396596 -0.015521524 0.0019153459 -0.82401532 0.28386173 -0.49032778 0.002073725
0.025092594 -0.015623013 0.001888922 0.84013683 -0.0049670679 -0.54235178 0.0021311122
-0.00096089451 -0.012469369 0.0020762035 -0.79099864 0.23765042 -0.56377608 0.0027059037
0.024076989 -0.011307669 0.00071248505 0.71801114 0.056137599 -0.69376397 0.0020142263
0.025357373 -0.012538133 0.0023587504 0.82240164 0.021662183 -0.56849474 0.0032480841
-0.0004000545 -0.0094374111 0.0023500668 -0.79040086 0.17458084 -0.58718646 0.0030975565
0.00087235961 -0.0090155918 0.00097893272 -0.67259675 0.19966252 -0.71256483 0.0020649959
0.024086829 -0.0094103161 0.00089879916 0.71292853 0.066325195 -0.69809306 0.0017625854
0.025212264 -0.0095329639 0.0023282003 0.81917799 0.03597831 -0.57240987 0.0025985404
-0.00016196707 -0.0065804096 0.0027191797 -0.77333307 0.11574723 -0.6233446 0.0026733845
0.0012091773 -0.006443629 0.0012650387 -0.65438241 0.14950356 -0.74123698 0.0019583476
0.023906639 -0.0063702343 0.0010867396 0.69051182 0.092496328 -0.71738261 0.0016087111
0.025126843 -0.0065780021 0.0025139824 0.79845619 0.073854521 -0.59750593 0.0018424912
7.6562632e-05 -0.0034791948 0.0029814062 -0.74544346 0.091778822 -0.66022015 0.0020418367
0.0015475834 -0.0034220214 0.0014993872 -0.64502072 0.11364356 -0.75566751 0.0015104443
0.023683183 -0.003345072 0.0013112018 0.67353129 0.10907576 -0.73106641 0.0018559381
0.025030836 -0.0036470487 0.0028136969 0.78205299 0.092159197 -0.61636013 0.0017050975
7.6030585e-05 -0.00037417153 0.003318646 -0.7250185 0.052667528 -0.68671274 0.0019789275
0.0017907468 -0.00033845496 0.0016885768 -0.61917377 0.092462994 -0.7797913 0.0015567394
0.023439817 -0.00032523531 0.0015706709 0.73370719 0.11980228 -0.66882074 0.0012851461
0.024873221 -0.00056566449 0.0031216722 0.76661456 0.10869449 -0.63284093 0.001506104
0.00031526329 0.0024928877 0.0032251882 -0.74970949 0.019747224 -0.6614725 0.0024978416
0.0019827206 0.0024810464 0.0017559291 -0.64426172 0.050547481 -0.76313293 0.002679507
0.02316823 0.0025610256 0.0018253466 0.69723809 0.13487858 -0.70403606 0.0026278046
0.024697447 0.0020164095 0.0034088278 0.75487351 0.12428255 -0.64398742 0.0010720495
0.00031520709 0.0053609321 0.0032773423 -0.66608918 -0.0062978626 -0.74584556 0.0017683998
0.0019831308 0.0053407345 0.0018849606 -0.61263168 0.0077076354 -0.79033095 0.0026991016
0.0036445116 0.0055619301 0.00075549283 -0.50865257 0.023799876 -0.86064279 0.0036357807
0.021228218 0.0062748371 0.00076234434 0.63855535 0.13850227 -0.75701016 0.0012462771
0.022889042 0.0052876202 0.0020829109 0.69799423 0.13925043 -0.70243388 0.0022193773
9.4382209e-05 0.0085794348 0.0033507459 -0.64216411 -0.03702651 -0.7656725 0.0016737232
0.001983209 0.0084375478 0.0018849517 -0.55934227 -0.013116947 -0.82883304 0.00090925919
0.0036449516 0.0084147099 0.0008235306 -0.53785247 0.0090452982 -0.84299052 0.00098026847
0.020984692 0.0087119397 0.0010303578 0.64687753 0.14830963 -0.74803329 0.0014519708
0.022614583 0.0083573218 0.0024344809 0.69972622 0.15379328 -0.69766098 0.0024220506
2.1080428e-05 0.011663769 0.0031968765 -0.6136443 -0.066818878 -0.78675026 0.0017940049
0.0019831031 0.011532335 0.001813604 -0.53442913 -0.03802751 -0.84435743 0.0010229509
0.0036449395 0.011504062 0.00082165585 -0.50898051 -0.0154166 -0.86063999 0.001083252
0.020605614 0.011605019 0.0013197656 0.56905705 0.16117969 -0.80634677 0.0030656969
0.022305371 0.011428643 0.00281893 0.68774086 0.17688431 -0.70407706 0.001553389
-0.00021296681 0.014498763 0.0031084451 -0.62561822 -0.089509211 -0.77497739 0.001995268
0.0019827038 0.014384238 0.0016340986 -0.49469176 -0.048751768 -0.86770004 0.0013636049
0.0036441803 0.014114138 0.00070426846 -0.43032521 -0.028393967 -0.90222722 0.0037032217
0.020186968 0.014449099 0.0016236282 0.59077817 0.17341484 -0.7879774 0.0022683011
0.021977952 0.014200134 0.0031905165 0.69260949 0.18733734 -0.69656062 0.0017360939
-0.00045887288 0.017532136 0.0028933939 -0.58987665 -0.11025512 -0.79993087 0.0018201016
0.0019821373 0.017469201 0.0013945012 -0.4662841 -0.066316128 -0.88214588 0.0014237445
0.018145876 0.018020477 0.00093011349 0.56356293 0.17786168 -0.8066982 0.0020884371
0.019979393 0.017346662 0.0021490888 0.6329605 0.20234293 -0.74727398 0.0035334872
0.021839518 0.016128438 0.0036321441 0.75835449 0.20383228 -0.61915326 0.0019413085
-0.00088501419 0.020621821 0.0027325554 -0.55296183 -0.13397691 -0.82236445 0.0015644701
0.0017900455 0.020514738 0.0011977549 -0.42445087 -0.092720658 -0.90069103 0.001743688
0.017491819 0.020653747 0.0010910854 0.49745557 0.18390723 -0.84777117 0.0031953217
0.019499917 0.020445781 0.002576971 0.64237124 0.22928019 -0.73129326 0.0033958578
-0.0030324187 0.024253024 0.003511216 -0.59797609 -0.17320082 -0.78257662 0.0014587058
-0.0011160839 0.023473911 0.0024005892 -0.51812685 -0.14312242 -0.84324402 0.0013660772
0.0014751874 0.023346739 0.001037905 -0.41069838 -0.10877603 -0.90525937 0.0014459556
0.016914463 0.023519607 0.0014174383 0.53318423 0.20331365 -0.82120526 0.0019187297
0.018942004 0.023322329 0.0029510437 0.68922371 0.23928837 -0.68389452 0.0019918007
-0.0034124795 0.026530795 0.0032316963 -0.55392092 -0.18044131 -0.81278074 0.0018295236
-0.0010515153 0.026447995 0.0018718564 -0.44776046 -0.14125191 -0.88292611 0.00099006714
0.0011495848 0.026212089 0.0008789869 -0.36226636 -0.10758778 -0.92584443 0.0016867949
0.014738789 0.027037648 0.00093164388 0.42778751 0.19684976 -0.88218361 0.0031273903
0.016730065 0.026361819 0.0020802687 0.59302527 0.2442598 -0.7672407 0.0037250957
0.018601762 0.0255618 0.0034050802 0.66010737 0.26339972 -0.70347625 0.0020373515
-0.003982692 0.029624574 0.0028880895 -0.5055573 -0.1872621 -0.84222609 0.0016936752
-0.0011751599 0.029497862 0.0014528611 -0.41084209 -0.14239696 -0.90051764 0.0010824261
0.00079315132 0.028845606 0.00072118244 -0.3021279 -0.099947967 -0.94801331 0.0015316847
0.014187029 0.029766437 0.001302745 0.48267019 0.22043651 -0.84760672 0.0021959236
0.016369574 0.029335905 0.0027297088 0.62767875 0.25275823 -0.73629659 0.0035696223
-0.0061384253 0.03294462 0.0033620335 -0.54320747 -0.2210533 -0.80997598 0.0014941145
-0.0042158179 0.032534715 0.0023727585 -0.46077034 -0.18524234 -0.86797231 0.0011800154
-0.0014558267 0.032376524 0.0011417617 -0.36653879 -0.13636298 -0.92035562 0.001452326
0.011938035 0.032924294 0.00089002587 0.36825868 0.21258231 -0.90509361 0.0041641458
0.01389774 0.032501873 0.0019295416 0.5538615 0.25569171 -0.79237568 0.0038504743
0.01574441 0.032156684 0.0032298299 0.67658031 0.28825656 -0.67760402 0.0019423072
-0.0067799157 0.035621393 0.0030592307 -0.4888517 -0.20641753 -0.84759414 0.0018096467
-0.0041769501 0.035393629 0.0017910935 -0.38768733 -0.15742524 -0.90824878 0.0010558995
-0.0019560358 0.035328142 0.00091404794 -0.30768818 -0.11952233 -0.94395041 0.0016478078
0.009346881 0.036925275 0.0007374147 0.41843775 0.25970644 -0.87032318 0.0025376724
0.011167497 0.035570182 0.0012157054 0.44012105 0.24450189 -0.86400938 0.002982999
0.013609913 0.035253473 0.0026674769 0.60882026 0.30255055 -0.73334926 0.0025221601
-0.0089280391 0.038988452 0.0034122574 -0.51747251 -0.23044994 -0.8240844 0.0015292666
-0.0070514623 0.038476668 0.0025393199 -0.42939821 -0.18227769 -0.88452917 0.0015302746
-0.0042328117 0.038438633 0.001332503 -0.34768954 -0.13239582 -0.92821515 0.0013480553
-0.0024146028 0.038351994 0.00075045321 -0.23773077 -0.087867372 -0.96734858 0.0015566803
0.0087099001 0.038872078 0.00098052272 0.34357792 0.24490552 -0.90662861 0.0041717985
0.011035112 0.038430825 0.0020585195 0.4681448 0.30235827 -0.83031309 0.0021859629
0.013006209 0.037831098 0.0032347036 0.63655353 0.32812545 -0.69794941 0.0023779818
-0.0096068643 0.041653536 0.0031214855 -0.45585844 -0.19906944 -0.86750472 0.0016695742
-0.0071026739 0.041513953 0.0019776397 -0.38174528 -0.14370388 -0.91302788 0.0015105824
-0.0043081259 0.041401934 0.0010185626 -0.29379278 -0.10082618 -0.95053655 0.0014630997
0.0057042809 0.042316321 0.00079172943 0.251582 0.22662832 -0.94092834 0.0051475759
0.0080057075 0.041560348 0.0014899955 0.40890849 0.28469324 -0.86703151 0.0024273875
0.010604819 0.041258186 0.0029033581 0.56467962 0.34781501 -0.74843943 0.0025486925
-0.011796542 0.045203492 0.0034110951 -0.4806214 -0.21188779 -0.85094458 0.0015986523
-0.0099469535 0.044491351 0.0026871348 -0.39467248 -0.15664352 -0.90537095 0.0018340701
-0.0070631942 0.044377327 0.0015779203 -0.30052257 -0.090381436 -0.94948268 0.0021204902
-0.0045548063 0.04444113 0.00087751332 -0.17165236 -0.0025461451 -0.98515427 0.0015139941
0.0025356889 0.045559745 0.00075210235 0.16117942 0.20221555 -0.96598667 0.0034313044
0.005011132 0.04451013 0.0011694094 0.32408598 0.2919881 -0.89983958 0.002507488
0.0077819498 0.044355657 0.0024266024 0.50051951 0.34650999 -0.79335433 0.0030818966
0.0098787239 0.043619368 0.0035036067 0.60751843 0.38894108 -0.6925649 0.00353073
-0.012388523 0.047572147 0.0032126666 -0.42159906 -0.15687189 -0.89310998 0.0021886402
-0.0098876916 0.047470391 0.0022144839 -0.33375055 -0.090730697 -0.93828487 0.0018246467
-0.0070593255 0.047448996 0.0013672691 -0.23370674 -0.029023049 -0.97187388 0.0026285059
-0.0042816512 0.047573756 0.00086504687 -0.13668886 0.028162116 -0.99021363 0.0024271382
-0.0010230326 0.048084371 0.00081437174 0.08947771 0.16220893 -0.98269123 0.0045902864
0.0020327442 0.047578074 0.001170266 0.23708941 0.27977636 -0.93032992 0.0026352694
0.0048454469 0.047289524 0.0020782724 0.41259801 0.35399303 -0.83931637 0.0036856935
0.0070044044 0.046906862 0.003119159 0.52806461 0.41185683 -0.74264514 0.0034848561
-0.012906541 0.05055666 0.002976615 -0.34970033 -0.096689813 -0.93185872 0.0018218771
-0.009980456 0.050529554 0.0020099981 -0.27649426 -0.031833146 -0.96048814 0.0026552724
-0.0070595145 0.050544411 0.0013845954 -0.1548195 0.058665436 -0.98619944 0.0028698053
-0.0042009307 0.050514128 0.0011242961 -0.0044147768 0.15858957 -0.98733473 0.0048063193
-0.0011099377 0.050539225 0.0013373923 0.14531256 0.24656753 -0.95816946 0.0045891758
0.0019515337 0.050602943 0.0021720328 0.3359206 0.34993243 -0.87447399 0.0045596007
0.0043759067 0.049898889 0.0030107088 0.47961858 0.41410127 -0.77361882 0.0034830826
-0.015161292 0.053683974 0.0035126014 -0.37921357 -0.086874813 -0.92122191 0.0017971869
-0.013086682 0.053537 0.0028124806 -0.2797606 -0.026525145 -0.95970333 0.0025188804
-0.0099305082 0.053478837 0.0020246496 -0.19739975 0.064155959 -0.97822154 0.0032714421
-0.007064403 0.053434964 0.0016678558 -0.029615713 0.2070857 -0.9778744 0.0066617201
-0.0042073531 0.053439919 0.0017067096 0.094932221 0.27442026 -0.9569124 0.0045091482
-0.0011138589 0.053516176 0.0023228587 0.25259218 0.34693778 -0.90323383 0.0049141385
0.0015398622 0.052981436 0.0030744867 0.42057151 0.45194438 -0.78668034 0.005751967
-0.015436252 0.056597289 0.003477186 -0.30002874 0.017998623 -0.95376033 0.0023654755
-0.013054633 0.056446824 0.0028594495 -0.19589417 0.094706297 -0.97604108 0.0031527798
-0.0099386377 0.056382984 0.0023664329 -0.086958028 0.1992109 -0.97609085 0.0043925038
-0.0070756134 0.056375559 0.0023080991 0.035203349 0.27970147 -0.95944142 0.0035521162
-0.0042524161 0.056391139 0.0026892498 0.20569868 0.34871802 -0.9143762 0.0053318255
-0.0017363655 0.055884339 0.0031809229 0.34370542 0.4455148 -0.82666987 0.0052849795
-0.015193332 0.05882382 0.0035402123 -0.20833851 0.1545521 -0.96576852 0.0036198436
-0.013032331 0.059339132 0.003272377 -0.094396912 0.21458413 -0.9721331 0.0036472508
-0.0099907536 0.059312694 0.0031135231 -0.0022461778 0.30279902 -0.95305175 0.0034916953
-0.0072506042 0.058919266 0.0031918245 0.1335254 0.40577304 -0.90416765 0.0056579341
-0.0048642913 0.058353085 0.003426359 0.27408448 0.49161467 -0.82655472 0.0055453349
0.022800015 -0.038407307 0.0037096301 0.91678464 -0.26892465 -0.29527169 0.00063452165
0.023528222 -0.036270428 0.0039148042 0.91484362 -0.21231923 -0.34348461 0.0015133843
0.024260763 -0.03389832 0.0041929344 0.90802169 -0.21608086 -0.35889503 0.0013021698
0.024780715 -0.032515291 0.0049543092 0.94283688 -0.19926773 -0.2671161 0.0012203752
0.025139123 -0.030421451 0.0044881087 0.94033229 -0.14637357 -0.30716419 0.0029159768
-0.00663721 -0.027696682 0.0045963535 -0.9075973 0.35278574 -0.22761655 0.00086143095
0.025845459 -0.027486414 0.0051109083 0.93784815 -0.13438444 -0.31997135 0.0029804769
-0.00592326 -0.025317958 0.0049472461 -0.92512304 0.30465919 -0.22656156 0.00052722846
-0.0054421732 -0.023633776 0.0048513175 -0.92505157 0.30156732 -0.23094758 0.00042397919
0.026090465 -0.024319367 0.0047728354 0.90854979 -0.062598132 -0.41306013 0.0014239848
-0.0048002284 -0.021466423 0.0046518403 -0.91072392 0.29386666 -0.29021412 0.0015251115
0.02631449 -0.021622721 0.0049179671 0.90860909 -0.075350598 -0.41079411 0.0010382866
-0.0040043117 -0.018467406 0.0049101007 -0.92159462 0.25773281 -0.2902365 0.001773503
0.026462412 -0.018603934 0.0049931617 0.91253412 -0.046448361 -0.40635446 0.00048114121
-0.0032865407 -0.015488965 0.0051286649 -0.92606717 0.21454149 -0.31043753 0.0020755962
-0.0025567829 -0.014491034 0.0038506547 -0.89827293 0.24650641 -0.3637861 0.0024662877
0.026606832 -0.015391243 0.0048903385 0.91230774 -0.02575586 -0.40869457 0.00049272017
-0.0030544018 -0.013114679 0.0060612522 -0.91417664 0.20426369 -0.35008201 0.0033793447
-0.0023886987 -0.012335549 0.0046561789 -0.90391648 0.20653309 -0.37453857 0.0031830552
0.026966721 -0.012377153 0.0054096044 0.91974247 -0.0080593964 -0.39243957 0.0016176682
-0.002087553 -0.009490666 0.005174343 -0.89757091 0.13290155 -0.42036125 0.0030141002
0.026758635 -0.0093667265 0.0049239295 0.88626403 0.010193504 -0.46306825 0.0021761132
-0.001605799 -0.006607092 0.0048729358 -0.86724061 0.096191339 -0.48850897 0.0053120139
0.026704317 -0.0066090748 0.0050204801 0.88373697 0.04143317 -0.46614626 0.00097298634
-0.0013670418 -0.0034901681 0.005007382 -0.87451494 0.056843676 -0.48165593 0.0025613136
0.0265001 -0.003470357 0.0050923852 0.87021309 0.065771997 -0.48826554 0.00086625956
-0.00136815 -0.00037112006 0.0052489401 -0.84990245 0.019298607 -0.52658647 0.0020934059
0.026128918 -0.00027559604 0.005025303 0.86220336 0.10261919 -0.49605909 0.00084294082
-0.0011271016 0.0025065464 0.0049227467 -0.82504904 -0.0076260739 -0.56500959 0.0019791848
0.025694933 0.0025408918 0.0049450002 0.83021504 0.12473492 -0.54330856 0.001340996
-0.0011734279 0.0054232785 0.0048994492 -0.77626711 -0.032563396 -0.62956268 0.0036716829
0.024237292 0.0063247262 0.0037484178 0.74739319 0.14224853 -0.64897519 0.00097392104
0.025410783 0.0052858349 0.0051780432 0.82955194 0.13899128 -0.54085582 0.0015477283
-0.0015390004 0.0084239347 0.0050769565 -0.78247136 -0.084243655 -0.61696148 0.0019830326
0.024085958 0.0087485043 0.0041782148 0.75110692 0.15945587 -0.64063424 0.0011638504
0.025133358 0.0082605118 0.0055488124 0.82818234 0.16104937 -0.53682131 0.0015360706
-0.003057274 0.01166294 0.0063944366 -0.79217708 -0.12069082 -0.59823835 0.003132923
-0.0016699815 0.011522412 0.0048325658 -0.71183509 -0.094317779 -0.69598496 0.0039138356
0.023779983 0.011747134 0.0046611982 0.80104023 0.17960884 -0.57103008 0.0011393632
0.024985882 0.011073783 0.0062090866 0.82788157 0.18139599 -0.53076142 0.0011342729
-0.0033353583 0.014740409 0.0060828533 -0.74047583 -0.15307289 -0.654419 0.0018763583
-0.0018750743 0.014435062 0.0045746919 -0.71905601 -0.12309159 -0.68396413 0.0019797056
0.023386352 0.014513955 0.0050605312 0.80377293 0.19998011 -0.56031871 0.00080718944
-0.0036284791 0.017506061 0.0057017757 -0.75364494 -0.17932007 -0.6323477 0.0014433103
-0.0021411574 0.017231356 0.0042829486 -0.68695247 -0.14619023 -0.71184593 0.0017172592
0.021367969 0.018287355 0.0037784139 0.72455847 0.22283587 -0.65219569 0.0036123421
0.022683719 0.017334491 0.0051330421 0.80709887 0.22095411 -0.54751313 0.00079102709
-0.0039947247 0.020540804 0.0052743675 -0.70020974 -0.1833829 -0.68998337 0.0021581121
-0.0023979575 0.019969463 0.0039393432 -0.64944047 -0.16596003 -0.74208111 0.0014807949
0.020955646 0.020651605 0.0041799974 0.76700175 0.23453665 -0.59724432 0.0017679232
0.022070212 0.020326484 0.0055077309 0.78930104 0.25683284 -0.55771029 0.0013805103
-0.0060797017 0.024131639 0.0062024072 -0.69130796 -0.24215809 -0.68077374 0.0014468244
-0.0044016205 0.023450924 0.0048302622 -0.65209424 -0.20884241 -0.7288059 0.0026545471
0.020380465 0.023771074 0.0047879582 0.77508301 0.27099416 -0.57079637 0.0012752214
0.021636166 0.022878261 0.0061048828 0.79812765 0.28427652 -0.53120536 0.0010501347
-0.0066137416 0.026698651 0.0057864208 -0.69622773 -0.2586695 -0.66959476 0.0013382504
-0.0048190067 0.026351381 0.0043075867 -0.58116889 -0.22234346 -0.78281933 0.0014505198
0.019627204 0.02651496 0.0051316265 0.7731058 0.28518778 -0.56654692 0.0028690174
-0.0088329511 0.030434128 0.0063962052 -0.68870246 -0.30052406 -0.65982896 0.0010923292
-0.0070575867 0.029445518 0.0051958105 -0.60992283 -0.25196847 -0.75133622 0.00080932415
-0.0052497666 0.028883537 0.0039255479 -0.601623 -0.23028593 -0.76486474 0.0014434289
0.017776793 0.029609993 0.0042766654 0.74767464 0.28667977 -0.598997 0.0021247577
0.01894646 0.029175507 0.0055738315 0.77325469 0.30892524 -0.55375296 0.0014084009
-0.0093280058 0.032684248 0.0059259022 -0.63344431 -0.29916716 -0.71361566 0.0015092673
-0.0074145431 0.032275639 0.004482545 -0.57083952 -0.25408652 -0.78075743 0.00093878363
0.017049897 0.032486282 0.0048871753 0.75697464 0.31803748 -0.5708254 0.001205163
0.018600445 0.031395074 0.0063712457 0.77740663 0.34972849 -0.52280873 0.0012661801
-0.011843581 0.036577988 0.00648217 -0.64833748 -0.34899935 -0.67665207 0.0011175562
-0.0099991281 0.035539836 0.0053418474 -0.60679084 -0.31654799 -0.72911054 0.0016598984
-0.0080372458 0.035027716 0.0040266574 -0.57970887 -0.25635758 -0.77344579 0.001391335
0.014896274 0.036055651 0.0042279586 0.71897393 0.32075712 -0.61659658 0.0025271054
0.016267158 0.035367865 0.0055429339 0.74397004 0.34866774 -0.57003456 0.0016575484
-0.01237252 0.038793333 0.005943466 -0.63347185 -0.31922448 -0.70484692 0.001452952
-0.010197469 0.038315482 0.0044522909 -0.54511327 -0.26819962 -0.79430509 0.0009790248
0.014227851 0.038596112 0.0049779979 0.72481221 0.36551017 -0.58399445 0.0014924029
0.015708627 0.037640933 0.0062470892 0.75410688 0.3850067 -0.53206444 0.0013879731
-0.01472721 0.042341452 0.0063454146 -0.63603485 -0.33828017 -0.69356048 0.0015756058
-0.012822357 0.041471448 0.005220151 -0.58418214 -0.29933286 -0.75440776 0.0015997865
-0.010856204 0.04095751 0.0040125907 -0.51757419 -0.24697521 -0.81921929 0.0023001751
0.011809926 0.041777648 0.0042375419 0.68687874 0.38279226 -0.61779255 0.0026586186
0.013312456 0.041088875 0.0054994011 0.71120876 0.41491482 -0.5674749 0.0017079284
-0.015583384 0.044724312 0.00599021 -0.6002177 -0.30965978 -0.73746163 0.0016333868
-0.013324856 0.044352144 0.0045520104 -0.50894469 -0.25179467 -0.82314926 0.00088086282
0.0089284796 0.045567278 0.003838391 0.55320555 0.39840043 -0.73160148 0.0022702299
0.010818241 0.044419471 0.0049838782 0.67204261 0.43437311 -0.59973216 0.0035206066
0.01282991 0.043203983 0.0065496126 0.71766609 0.46374935 -0.51951122 0.0013130931
-0.018097116 0.048480324 0.0063718716 -0.60095435 -0.31939501 -0.73269415 0.0022764257
-0.016225668 0.047511376 0.0054126768 -0.54698908 -0.28730378 -0.78629482 0.0014481439
-0.013997097 0.047295354 0.0040848991 -0.45839155 -0.21927068 -0.86127675 0.0017507499
0.0081155663 0.047808386 0.0046326159 0.6120494 0.44807145 -0.6516344 0.0042394637
0.0099267345 0.04683467 0.0058349827 0.67181885 0.48297966 -0.56159604 0.0016044428
-0.018712286 0.050690938 0.0060138209 -0.55665493 -0.26538244 -0.78721493 0.0021530341
-0.016223827 0.050436139 0.0045617614 -0.47281313 -0.19816089 -0.85859197 0.0010065525
-0.01439871 0.049508248 0.0037772218 -0.46499282 -0.16792312 -0.86924303 0.002262742
0.0054652896 0.050867647 0.0044023069 0.56471634 0.46941486 -0.67878205 0.0042568105
0.007252641 0.050099291 0.0055643348 0.64107192 0.5058288 -0.57720369 0.0021534578
-0.020986227 0.054379802 0.0064021433 -0.57177305 -0.2518515 -0.78079855 0.002154914
-0.019142535 0.053428765 0.0055155614 -0.50029838 -0.19855805 -0.84277892 0.0021581682
-0.016570488 0.053408168 0.0041460958 -0.42297733 -0.13621023 -0.89584434 0.0014459518
0.002371155 0.053956591 0.0041833785 0.46334368 0.47484425 -0.74822158 0.0017215912
0.0044950871 0.05314846 0.005341168 0.5933854 0.51505798 -0.61855394 0.0023796717
-0.021410212 0.056555636 0.0061366595 -0.51861584 -0.15892242 -0.84010786 0.0031430535
-0.019117277 0.056478668 0.0049549295 -0.40953043 -0.083165735 -0.90849781 0.0018561719
-0.01686804 0.056527503 0.0039668321 -0.35805297 -0.04942061 -0.93239248 0.0023264261
-0.0030339267 0.05775002 0.0036861459 0.27807081 0.46223208 -0.84203213 0.0050044479
-0.00076868711 0.056982625 0.0043373317 0.40468961 0.50002223 -0.76563972 0.0022193235
0.001774218 0.056101102 0.0054335864 0.5224238 0.55504447 -0.64730132 0.0034769461
0.0036807971 0.055217776 0.0063676396 0.60123503 0.52595943 -0.60156715 0.0024205341
-0.02174779 0.059492327 0.0059493398 -0.46291083 -0.045610253 -0.88523072 0.002883784
-0.019108735 0.059571777 0.0047673658 -0.34682718 0.026092568 -0.93756598 0.0029366037
-0.016439039 0.059600178 0.0039461483 -0.27648559 0.072717406 -0.95826298 0.002445309
-0.014515769 0.060622782 0.0037037889 -0.15589648 0.15189798 -0.97602427 0.0038706816
-0.0087750256 0.060623422 0.0037084678 0.084698781 0.38208401 -0.92023802 0.0040744664
-0.0067867152 0.060347248 0.004016907 0.22629775 0.47168976 -0.85223126 0.0045153131
-0.0041488027 0.059721757 0.0045892075 0.31956074 0.52520096 -0.7886982 0.001596428
-0.0014283495 0.05906878 0.0056277178 0.43176511 0.59348506 -0.67923081 0.0022753656
0.00079315132 0.058117244 0.0064568082 0.52914083 0.56833255 -0.63008577 0.0036701909
-0.021840245 0.062572584 0.0060122684 -0.3832581 0.083750851 -0.91983646 0.0036193302
-0.019121245 0.062489688 0.0050501437 -0.26341769 0.18285666 -0.94719303 0.0056007686
-0.016218053 0.062400848 0.0044267867 -0.12198205 0.28777266 -0.9498986 0.0060869195
-0.013096645 0.062371477 0.0042195083 -0.022146711 0.38626942 -0.92212003 0.006892208
-0.0099909017 0.062417634 0.0045405477 0.1979343 0.53476173 -0.82149369 0.003346727
-0.0072339624 0.062394395 0.0053230794 0.32532442 0.6056239 -0.72621191 0.002988759
-0.0045763282 0.061704494 0.0060071955 0.40381357 0.61867332 -0.67392725 0.0024679049
-0.021629261 0.065278649 0.0063519673 -0.2345175 0.26559997 -0.9351247 0.0065113832
-0.019157417 0.065490507 0.0058632605 -0.16942151 0.32738718 -0.92957729 0.0034105256
-0.016177762 0.065516628 0.0056971898 0.0084300246 0.45120707 -0.89237946 0.0069661485
-0.013188697 0.0650995 0.0056839352 0.11589179 0.58884788 -0.79989201 0.0076127402
-0.010267408 0.064644955 0.00602555 0.27450711 0.64999789 -0.70862448 0.0016328988
-0.0083544459 0.064386219 0.0065329829 0.32910195 0.65976959 -0.67557085 0.0025939983
-0.018709425 0.067288041 0.0066186497 -0.063398309 0.48676977 -0.87122667 0.0076432414
-0.017506134 0.067290217 0.0066329101 0.048800532 0.55426538 -0.83090824 0.012696715
0.025905987 -0.029584719 0.0079126218 0.94572008 -0.16590884 -0.2794421 0.001163139
0.026851567 -0.024978435 0.0075637707 0.94351417 -0.12825882 -0.30550069 0.0015837695
0.027327945 -0.021354802 0.0074594421 0.92511541 -0.062934488 -0.37443393 0.00082209765
-0.0045093773 -0.01892711 0.0070856968 -0.93044949 0.25934961 -0.25884655 0.00051106513
0.027292028 -0.018677061 0.0068534622 0.93023205 -0.02572025 -0.36606929 0.001088189
0.027880687 -0.018263567 0.0086242268 0.94220012 -0.036681075 -0.3330366 0.00043425904
-0.00378763 -0.01555669 0.0072181681 -0.92606634 0.21454321 -0.31043893 0.0020754535
0.027283987 -0.016263325 0.0067177424 0.94597727 -0.031897657 -0.32266033 0.00047138508
0.027852163 -0.015345708 0.0081515918 0.9459815 -0.031906094 -0.32264695 0.0004557301
-0.003261948 -0.012387711 0.0076895338 -0.94424134 0.13759248 -0.29912645 0.0010399545
0.027839562 -0.01244125 0.0079427622 0.94877368 -0.021508867 -0.31522352 0.00041443473
-0.0030719894 -0.0095458124 0.0081014046 -0.93986094 0.089763127 -0.32955113 0.001286424
0.027818423 -0.0095368661 0.007592421 0.94732177 -0.00095447077 -0.32028198 0.00044125496
-0.0030790493 -0.0066571971 0.0089204125 -0.92410505 0.054190472 -0.37827674 0.0011111371
-0.0025808709 -0.006633969 0.0070440527 -0.89601564 0.083616048 -0.43607837 0.0032258602
0.027817292 -0.0066407491 0.0075736847 0.94149995 0.022214785 -0.33628014 0.00092058041
-0.0030800018 -0.0035122135 0.0090308478 -0.93069768 0.032571174 -0.36433634 0.0018108943
-0.0025836807 -0.0035032877 0.0074165156 -0.93069786 0.03257107 -0.36433581 0.0018110175
0.027286371 -0.0022955211 0.0067579607 0.90067852 0.077751413 -0.42747271 0.0028067529
0.027838107 -0.003505704 0.0079186633 0.94264495 0.039484754 -0.3314535 0.0010612858
-0.0030770614 -0.00036586786 0.0086897574 -0.92261046 -0.0080552176 -0.38564879 0.0040777205
-0.0025836388 -0.0003678099 0.0074109789 -0.91947776 -0.013614557 -0.39290625 0.0039201896
0.027311258 -0.0003677255 0.0071778605 0.91537213 0.10038985 -0.38989192 0.0020317
0.027883727 -0.00036522455 0.008674657 0.93627822 0.083037667 -0.3413032 0.0017777025
-0.0032377844 0.0027783418 0.008599665 -0.92058909 -0.075605258 -0.38314432 0.0040421016
-0.0025814658 0.0025242546 0.0071228947 -0.89505821 -0.037333224 -0.44438386 0.0037860034
0.027114196 0.0026377405 0.0075488063 0.90516043 0.12017051 -0.40772989 0.0015145255
0.027929056 0.0018162311 0.0094257947 0.95400226 0.10794283 -0.27969256 0.00086723641
-0.003371794 0.0055272039 0.0083234264 -0.89112812 -0.075538121 -0.44741997 0.0041125691
-0.0025796152 0.0051722378 0.0068775816 -0.8537581 -0.052941374 -0.5179714 0.0056549772
0.026692063 0.0056649726 0.0075832102 0.90078735 0.13647684 -0.41225749 0.0010032993
0.027424157 0.0049615121 0.0090827728 0.91900271 0.13175781 -0.3715829 0.0012771258
-0.0035551742 0.0083282311 0.0080363741 -0.87818879 -0.13273957 -0.45952657 0.0025090289
0.026427971 0.0083766486 0.008020564 0.8997649 0.16039006 -0.40583023 0.00082802319
-0.0040788092 0.011508938 0.008044444 -0.85457724 -0.16677454 -0.49181709 0.0026628973
0.025829684 0.011525906 0.0080603203 0.88574564 0.18950744 -0.42372355 0.0010611856
-0.0046749273 0.014585502 0.0080042779 -0.85114497 -0.19520719 -0.48728472 0.0021915203
0.024402553 0.015290724 0.0068782726 0.8291803 0.21192063 -0.51725203 0.00068659417
0.025173588 0.014517877 0.0080979988 0.88983327 0.2104893 -0.40483457 0.0010997194
-0.0061055366 0.017788706 0.0090027461 -0.83300519 -0.239778 -0.49860698 0.0017191048
-0.0050579244 0.017365118 0.0075320015 -0.79344547 -0.20919159 -0.57156211 0.0037817901
0.02385648 0.017873997 0.0071884999 0.86145228 0.24121569 -0.44689482 0.0014275888
0.024649249 0.017284699 0.0084944721 0.88198078 0.24558133 -0.40224335 0.0015289646
-0.0065343538 0.020583702 0.0083117327 -0.80465752 -0.25892249 -0.53430825 0.0023781911
-0.005391757 0.019953096 0.0069838874 -0.73294252 -0.23182079 -0.63957369 0.0013201865
0.023428304 0.020480728 0.007927807 0.86651862 0.28755468 -0.40799245 0.00073687092
0.024542434 0.019265221 0.0095274011 0.91624355 0.26127964 -0.30369514 0.0012469068
-0.0072184391 0.023422778 0.0079298737 -0.77427047 -0.27587929 -0.56955755 0.0031238834
0.022471119 0.023398213 0.0079480587 0.85419804 0.29691473 -0.42683423 0.0011733258
-0.0091961809 0.026836148 0.0088069681 -0.7749036 -0.33096275 -0.53850538 0.0015336084
-0.0080133649 0.026231509 0.0075356038 -0.75906748 -0.30160877 -0.5769304 0.0023668492
0.020920362 0.027100926 0.0075044958 0.84610355 0.31723854 -0.42833215 0.0014022544
0.021885836 0.02604863 0.0086845793 0.85658175 0.31828678 -0.40615416 0.0009897647
-0.00994159 0.029659681 0.0081392024 -0.76776451 -0.33298966 -0.54740798 0.0017841064
-0.0083602844 0.028536843 0.0068181315 -0.67459393 -0.31036186 -0.66977507 0.0013466973
0.020205142 0.029549953 0.0079845851 0.8477785 0.33112007 -0.41428387 0.0011187457
-0.012115678 0.032874022 0.008965441 -0.74705577 -0.37702408 -0.54750383 0.0016575502
-0.010736543 0.032235917 0.0076173851 -0.73519951 -0.33153537 -0.591241 0.0019963651
0.01814566 0.033372823 0.0070541957 0.82419765 0.35147539 -0.4440307 0.0012164229
0.01919275 0.032287195 0.0081616342 0.83700991 0.33915925 -0.42940122 0.0012770625
-0.012842971 0.035464205 0.0082181934 -0.72049689 -0.37421402 -0.58382207 0.0024563542
-0.011256252 0.034333866 0.0070189694 -0.67821497 -0.35090917 -0.64566815 0.0037203832
0.017660964 0.035472441 0.0078869667 0.82766408 0.38900918 -0.40452942 0.00080769858
0.018712336 0.034505088 0.0091776261 0.83217746 0.38246399 -0.40149969 0.00089867396
-0.015068933 0.038821619 0.0087115755 -0.71351933 -0.3948532 -0.57877558 0.0017465407
-0.013656808 0.038117696 0.0075061321 -0.70347142 -0.35031915 -0.61838859 0.0022370943
0.015259071 0.039654512 0.0072242627 0.79680878 0.4285672 -0.42594126 0.0016356135
0.016424539 0.038245037 0.0080392864 0.80725724 0.39363366 -0.43975931 0.0011091805
-0.017613269 0.042502578 0.009249256 -0.690036 -0.42865255 -0.58318716 0.0028708396
-0.015908366 0.041457262 0.0079819141 -0.71053833 -0.36742753 -0.60011017 0.0014207601
-0.014140147 0.040336523 0.0067805806 -0.65361369 -0.32204577 -0.68489099 0.0028328607
0.014498766 0.041774631 0.0079644555 0.79132473 0.45711777 -0.4060154 0.00076110946
0.015794933 0.040284794 0.0088306526 0.79680628 0.42856929 -0.42594376 0.0016368057
-0.018590139 0.044825047 0.0088061737 -0.69389659 -0.41792607 -0.58638328 0.0023806347
-0.016928658 0.044227347 0.0074003525 -0.66906148 -0.3587026 -0.65091413 0.0022245192
0.012095228 0.045218933 0.0074078003 0.75653958 0.49775514 -0.42413163 0.0014739712
0.013265373 0.044204749 0.0083497232 0.76706499 0.48850068 -0.41590667 0.0015351026
-0.021126939 0.048440598 0.0092877159 -0.69371003 -0.40972057 -0.59236431 0.0023683924
-0.019275384 0.047409918 0.0079603009 -0.64442301 -0.34980738 -0.67996603 0.0014182538
-0.017514622 0.046364311 0.0068401704 -0.64622831 -0.36621651 -0.66953295 0.0011986125
0.010851085 0.047518823 0.0079464829 0.75337547 0.52664745 -0.39378661 0.00061140361
0.01242355 0.046399478 0.0094538489 0.7892043 0.51050895 -0.34137538 0.0013607966
-0.021696622 0.050697431 0.0085584149 -0.68346381 -0.38476589 -0.62034863 0.0023721417
-0.020002536 0.050083317 0.007240192 -0.61591631 -0.30748197 -0.72532886 0.00093382329
0.008312067 0.050881531 0.007806113 0.71757567 0.53563529 -0.44517407 0.0014700174
0.0098233679 0.049540188 0.0086548785 0.73206323 0.53347951 -0.42365459 0.00074949104
-0.024065629 0.054033499 0.0091390619 -0.68171161 -0.35099065 -0.64193058 0.0022818435
-0.022291889 0.053388353 0.0078019127 -0.631549 -0.29452184 -0.71721882 0.0022846011
0.0056191795 0.05406829 0.0075815981 0.68792892 0.5861153 -0.42804524 0.0011507698
0.0070777796 0.052906111 0.0083505018 0.69526809 0.57071209 -0.43690965 0.0012332427
-0.024590624 0.056589101 0.0085812965 -0.66249651 -0.26295817 -0.70139247 0.0023594212
-0.02283016 0.056335524 0.0071369642 -0.56897599 -0.20803431 -0.79560548 0.0021156713
0.0026697859 0.0572378 0.0075048497 0.63503706 0.62938619 -0.44788495 0.001205708
0.004385394 0.056135643 0.0084394505 0.66062516 0.61446416 -0.43128672 0.0015424131
-0.026832787 0.060703509 0.0095147798 -0.7069512 -0.32915533 -0.62600052 0.011512914
-0.025047969 0.05954136 0.008190386 -0.63885039 -0.135777 -0.75725478 0.0030248677
-0.023226611 0.059198815 0.0068289367 -0.58838952 -0.10979313 -0.80108887 0.0029826097
-0.00045314548 0.060161989 0.0076202434 0.55344194 0.65325546 -0.51668102 0.0026870142
0.0015997171 0.059002813 0.0085136052 0.59477574 0.65965629 -0.45945123 0.0020606637
-0.027262922 0.062897861 0.0091555612 -0.59440374 -0.22279964 -0.77268648 0.0088055888
-0.025035352 0.062391073 0.0077435449 -0.48768634 -0.064947188 -0.87059969 0.0064768186
-0.023288216 0.062483549 0.0066953506 -0.43883413 0.0059041753 -0.89854866 0.0038891593
-0.0064340951 0.063713215 0.0068723122 0.36673003 0.64450258 -0.67091388 0.001822856
-0.0040612379 0.062962726 0.007797813 0.47403961 0.69282633 -0.54339498 0.0034147373
-0.0018994962 0.061818928 0.0083301822 0.54260325 0.68274069 -0.48933315 0.0018617384
-0.029739922 0.066517614 0.0095020989 -0.55901915 -0.2868329 -0.77796179 0.0078008808
-0.027929211 0.065503493 0.0088170096 -0.40747234 -0.19317393 -0.89255261 0.0097388308
-0.024974927 0.06542635 0.0075394576 -0.34266484 0.027378092 -0.93905872 0.010469745
-0.022780914 0.066085957 0.0068589775 -0.18218723 0.21953727 -0.95844203 0.0070445114
-0.012704081 0.066717863 0.0070923921 0.19642831 0.68427902 -0.70226651 0.0028994291
-0.0098778643 0.065975174 0.0074955998 0.31949916 0.71630895 -0.62034005 0.0036174515
-0.0072459904 0.065223359 0.0081929043 0.37563893 0.7320447 -0.56833619 0.0023455063
-0.0051101185 0.064428031 0.0087984065 0.45157799 0.72048664 -0.52628541 0.001100959
-0.030213946 0.06861724 0.0093458453 -0.48170093 -0.091569453 -0.8715384 0.0085948762
-0.027946558 0.068345331 0.0084893489 -0.2646836 -0.027513461 -0.96394271 0.011735188
-0.025089862 0.06859044 0.0078208782 -0.16120318 0.24418496 -0.95623595 0.017972466
-0.022125708 0.06863071 0.0075055128 -0.07866767 0.35388175 -0.93197596 0.011921405
-0.019344581 0.068578914 0.0074598761 0.043788865 0.51453161 -0.85635263 0.010686383
-0.01610619 0.068439856 0.0078282421 0.16141453 0.64487034 -0.74705255 0.0015285482
-0.013151872 0.068127349 0.008441194 0.28255573 0.73754376 -0.61334461 0.003627744
-0.01060518 0.067408271 0.0088084731 0.36533046 0.74583226 -0.55701697 0.0015782656
-0.03028563 0.07116206 0.0092759952 -0.47644594 0.097129986 -0.87382209 0.013720317
-0.02803383 0.071287133 0.0088073341 -0.18560226 0.20450819 -0.96110785 0.011331813
-0.025135949 0.071457542 0.0087836282 0.064548314 0.3811084 -0.92227435 0.015899559
-0.022362551 0.071102023 0.0089003947 0.098835699 0.60309136 -0.79152536 0.011254498
-0.019248141 0.070457645 0.0089820679 0.16564512 0.66421908 -0.72895455 0.0048873792
-0.016650908 0.070139237 0.0094181756 0.2420059 0.71056002 -0.66070986 0.0037195915
-0.029737301 0.07305406 0.0094635049 -0.39225781 0.43653059 -0.80967581 0.047950026
-0.028234838 0.073247485 0.0094605274 -0.094407104 0.45008394 -0.88798189 0.021652291
-0.026108647 0.073070481 0.0095629999 0.14075094 0.60017192 -0.78738976 0.0084349401
0.028478924 -0.014691703 0.010488894 0.95021534 -0.018534999 -0.31104234 0.00026264484
0.028447187 -0.012492579 0.0099722007 0.9565143 -0.017904032 -0.29113543 0.00017153924
0.028450601 -0.0095825857 0.010027777 0.95502722 -0.0065890481 -0.29644486 0.0003679565
0.028445862 -0.0066703055 0.009950649 0.94814605 0.0070193084 -0.31775755 0.00049795012
0.028462026 -0.0035179975 0.010213791 0.94499969 0.045899931 -0.32383469 0.00096842658
-0.0035839605 -0.00036301429 0.011073948 -0.93304104 -0.042620756 -0.3572365 0.0024921738
0.028518079 -0.00036091323 0.011126375 0.95834029 0.082791619 -0.27336669 0.00073005812
-0.0038250627 0.002555493 0.010822525 -0.93804055 -0.093341172 -0.33371735 0.0013881371
0.028217252 0.0026020233 0.010968355 0.95400363 0.10794257 -0.2796883 0.00086114951
-0.0042512668 0.0055937842 0.010910478 -0.94166857 -0.10382266 -0.3201268 0.0010003416
0.027908422 0.0057179891 0.011093051 0.95415801 0.12908071 -0.27003837 0.00089052593
-0.004715737 0.0086294739 0.010799517 -0.94160295 -0.17319776 -0.28876719 0.0018535381
0.026987247 0.0095803617 0.0098954597 0.93283635 0.17326635 -0.31590357 0.0018373493
0.027546898 0.0083953887 0.011153744 0.94825512 0.152509 -0.27848387 0.00071607955
-0.0052840039 0.011304954 0.010886697 -0.92702568 -0.2091341 -0.31126574 0.0021570337
0.026900779 0.011407069 0.010792147 0.93368065 0.20247182 -0.29537353 0.00077678094
-0.0061937449 0.014738321 0.0111383 -0.91340125 -0.22810586 -0.33714378 0.0032805675
-0.0055163633 0.013468909 0.010147349 -0.9178142 -0.246554 -0.31117213 0.0020982318
0.026215145 0.014560144 0.01082084 0.92456973 0.22726995 -0.30580905 0.000821097
-0.0069494341 0.017646624 0.010958281 -0.90037102 -0.26493341 -0.34517002 0.0031466337
0.025483632 0.017601751 0.010973393 0.92443687 0.23258489 -0.30219322 0.0009051775
-0.0089671053 0.021845283 0.012620942 -0.91378915 -0.3202275 -0.2498875 0.0010173296
-0.0078535657 0.020471944 0.010874229 -0.88413668 -0.32621363 -0.3344951 0.0017807889
0.02409168 0.021479303 0.010183305 0.90635145 0.31238627 -0.2845031 0.0010450372
0.02479334 0.020233227 0.011204527 0.92011327 0.27840459 -0.27546784 0.0010335424
-0.0092621595 0.023802141 0.011242127 -0.86477607 -0.34035078 -0.36922035 0.0024028877
-0.0083081657 0.022571696 0.010193438 -0.85782337 -0.3590638 -0.3677122 0.0024786727
0.023640579 0.023457106 0.010854025 0.90828031 0.30353701 -0.28790995 0.00099490583
-0.010270246 0.026474293 0.01100514 -0.83902305 -0.38020384 -0.38921121 0.0033910153
0.022682615 0.026391873 0.011148707 0.90133095 0.32608834 -0.28507718 0.0011189071
-0.012108291 0.029967833 0.011526293 -0.84850228 -0.40462691 -0.34105876 0.0036783991
-0.011080732 0.028754283 0.010510874 -0.83448356 -0.40912795 -0.36912259 0.0024163399
0.021002715 0.030291609 0.010569296 0.88655376 0.35055596 -0.30188257 0.00091968698
0.021805825 0.028677022 0.011125128 0.89748073 0.3368881 -0.28466594 0.0010614432
-0.013184837 0.032469507 0.011118544 -0.81805545 -0.40472409 -0.40863651 0.0037448483
0.020076169 0.032773964 0.010856485 0.8790102 0.36735991 -0.30395356 0.0013025219
-0.015100082 0.035964496 0.011236077 -0.80385655 -0.42557406 -0.41557345 0.0036221268
-0.014129095 0.034790434 0.010600667 -0.80759484 -0.44487101 -0.387144 0.0023764195
0.018271392 0.036535654 0.010295303 0.86576778 0.40356076 -0.29594734 0.00098569109
0.019144729 0.035263695 0.011296808 0.87951034 0.38628557 -0.27792987 0.00081276294
-0.017727487 0.039849062 0.012038575 -0.7929405 -0.47249684 -0.38469741 0.0015414285
-0.016299089 0.038367115 0.010981489 -0.80367613 -0.46318164 -0.37358719 0.001869646
0.017478175 0.03843331 0.010715947 0.85392463 0.42022294 -0.30696157 0.00061324687
-0.018383317 0.041667659 0.011265836 -0.80629605 -0.44884521 -0.38525924 0.0015918768
