# .PCD v0.7 - Point Cloud Data file format
VERSION 0.7
FIELDS x y z normal_x normal_y normal_z curvature
SIZE 4 4 4 4 4 4 4
TYPE F F F F F F F
COUNT 1 1 1 1 1 1 1
WIDTH 551
HEIGHT 1
VIEWPOINT 0 0 0 1 0 0 0
POINTS 551
DATA ascii
0.019889556 0.038748015 -0.029230623 0.81513262 0.55573189 -0.16346548 0.0019061678
0.0074817371 0.01145923 -0.025303537 -0.39972097 -0.79128247 -0.46270427 0.0014781345
0.010215843 0.010624973 -0.025825936 -0.27307004 -0.81467849 -0.51159722 0.0026385593
0.013027178 0.010009937 -0.02574541 -0.067506343 -0.83887082 -0.54012841 0.0023796936
0.016068732 0.010234383 -0.025818659 0.17872167 -0.79148233 -0.58447784 0.002425293
0.018989183 0.011034235 -0.025422908 0.4197416 -0.68449455 -0.59605712 0.00348224
0.021148793 0.011798134 -0.024527796 0.57774884 -0.59381574 -0.55999029 0.0031236401
0.0022579913 0.014632141 -0.024274616 -0.67672777 -0.67788577 -0.2872462 0.0013917419
0.0042868806 0.013675774 -0.025754677 -0.54696262 -0.74930155 -0.37333494 0.0010512769
0.0064467043 0.012594132 -0.026371941 -0.4586581 -0.78395277 -0.41839072 0.0017588414
0.019885818 0.012742586 -0.026704848 0.44331002 -0.65524495 -0.61166191 0.0024588944
0.021855842 0.013619029 -0.025593111 0.64325529 -0.53573102 -0.54700547 0.0033289737
-0.00041871952 0.01772902 -0.025038747 -0.73132759 -0.64008266 -0.23548673 0.0013040565
0.0012889741 0.016217697 -0.025769101 -0.67848957 -0.67489392 -0.29012084 0.0012904407
0.0028425232 0.015154407 -0.026582835 -0.58987206 -0.73449248 -0.33551717 0.0017078384
0.022950137 0.016058674 -0.026355395 0.7542876 -0.40513527 -0.51663876 0.0011414309
0.02416848 0.016687974 -0.025057692 0.77929026 -0.38096923 -0.49756327 0.0013750959
-0.001373973 0.019233281 -0.02596557 -0.73254991 -0.6428405 -0.22388968 0.0012662755
0.023538195 0.018096214 -0.02706307 0.75106621 -0.37421736 -0.54393095 0.0010908823
0.024890857 0.01950343 -0.025700552 0.83097148 -0.28483865 -0.47786334 0.0010526588
-0.0039682933 0.023010101 -0.026346911 -0.80669892 -0.57544637 -0.1345298 0.0006815333
-0.0029336014 0.0213874 -0.026231168 -0.78398609 -0.59948808 -0.16118282 0.0023632236
0.025645483 0.022596922 -0.025745185 0.88716495 -0.15366621 -0.43511489 0.00094269222
0.025915453 0.02534683 -0.025902193 0.91027975 -0.056927681 -0.41006103 0.00076796213
0.026071565 0.028395439 -0.02552551 0.91504449 0.01483328 -0.40308002 0.0003601271
0.025499981 0.030634725 -0.026399869 0.91455042 0.049879629 -0.40138444 0.00097556127
0.0083350046 0.0088717472 -0.021521149 -0.43487754 -0.78807151 -0.43568879 0.00062902528
0.010288653 0.0084111225 -0.022227276 -0.33633155 -0.81916463 -0.46459699 0.0022157826
0.013102962 0.0080383066 -0.022751639 -0.084722579 -0.82579404 -0.55757171 0.0036733006
0.01608929 0.0080089122 -0.022729175 0.12331636 -0.81448328 -0.56693035 0.0039603035
0.018897539 0.0083627775 -0.022127096 0.35494256 -0.75552982 -0.55062747 0.003477159
0.020696795 0.0088719185 -0.021510331 0.46548 -0.687388 -0.55751783 0.0011750412
0.0051217307 0.011432282 -0.022565214 -0.5578711 -0.73400891 -0.38731223 0.0010988102
0.0071390751 0.010214122 -0.022722697 -0.44676766 -0.77619678 -0.44487876 0.0020098218
0.0098615782 0.0094331997 -0.023668546 -0.28358227 -0.81778622 -0.50080621 0.0015067157
0.01744557 0.0092761721 -0.024135379 0.33721459 -0.74093306 -0.58077914 0.0020563211
0.019559715 0.0097644003 -0.023481671 0.36566123 -0.72596353 -0.58246785 0.0030866344
0.021831391 0.010737473 -0.022554863 0.57515502 -0.60521913 -0.55036938 0.0033241257
0.0018715741 0.014129917 -0.02231794 -0.68276674 -0.66458344 -0.30357611 0.0014074179
0.0035561773 0.012855419 -0.022918599 -0.64663112 -0.69249934 -0.31986392 0.00065658579
0.023032047 0.012737682 -0.023243997 0.72034705 -0.47893751 -0.50171608 0.00091061374
0.02426808 0.013740778 -0.022405798 0.73713893 -0.46173787 -0.49338058 0.0015398376
-0.00072538655 0.01729475 -0.022676088 -0.78143108 -0.59315425 -0.19373575 0.0019682664
0.00052030408 0.015912257 -0.023057826 -0.72308975 -0.639507 -0.26109752 0.0013969273
0.025350718 0.01641532 -0.022803303 0.82817298 -0.33190212 -0.45163104 0.00074913522
-0.0022176162 0.019544188 -0.022934394 -0.81554264 -0.55930817 -0.14854167 0.00081501307
0.02614782 0.019268014 -0.023222882 0.86665982 -0.24942191 -0.43207574 0.00076561567
0.02696497 0.020091839 -0.021909522 0.89352286 -0.21669091 -0.39327097 0.0012262693
-0.0037840873 0.022282397 -0.023060052 -0.81880683 -0.55947101 -0.12863745 0.00049469306
0.026389582 0.021791121 -0.023965923 0.89478374 -0.15043578 -0.42039409 0.0014352698
0.027157515 0.022536701 -0.022422543 0.92496908 -0.10386666 -0.36557335 0.00074031198
0.027122449 0.025421344 -0.02297947 0.93320501 -0.032264173 -0.35789299 0.00072266144
0.027071217 0.027945515 -0.022904063 0.92989719 -0.0071953773 -0.3677493 0.00079032191
0.011108269 0.0057523828 -0.018376483 -0.33326578 -0.80321449 -0.49374133 0.0020533914
0.01331783 0.0055588437 -0.018949311 -0.16631857 -0.83090055 -0.53098255 0.0038156137
0.016064016 0.0055198828 -0.019102719 0.066193774 -0.83690453 -0.54333162 0.0029962375
0.018191475 0.0055988561 -0.018672122 0.2954573 -0.77798468 -0.55447704 0.0030559225
0.0054475893 0.0089230891 -0.01834601 -0.55462074 -0.71807486 -0.42043346 0.00077430392
0.0075418642 0.0081934631 -0.019540248 -0.46513903 -0.76523435 -0.44504172 0.0014330336
0.010122855 0.0069957268 -0.019750988 -0.33633041 -0.81222129 -0.4766323 0.0021962693
0.012929413 0.0065303985 -0.020357046 -0.11707104 -0.82446647 -0.55366898 0.0019803713
0.016380368 0.0064943824 -0.020478904 0.081561856 -0.8112278 -0.57901394 0.0027538422
0.01929982 0.0069346782 -0.019948803 0.33649144 -0.76955765 -0.5427289 0.0039835735
0.021793235 0.0081330687 -0.019442217 0.55773908 -0.64924264 -0.5171181 0.0025461765
0.0043148007 0.010620745 -0.01968581 -0.60279697 -0.7165761 -0.35093367 0.0014603733
0.0062362184 0.0095203454 -0.020421503 -0.55353212 -0.73178226 -0.39761403 0.0011657916
0.022876441 0.0099202776 -0.020367621 0.67931944 -0.55635303 -0.47853565 0.0010466342
0.024415307 0.010957338 -0.019333091 0.72712457 -0.50209504 -0.4681778 0.0019484282
0.0013397696 0.013569371 -0.019563476 -0.73163342 -0.62437552 -0.27361977 0.0017164375
0.0028719511 0.012197907 -0.020276247 -0.68131 -0.66044438 -0.31564221 0.001216814
0.02544325 0.013251812 -0.019915048 0.80308014 -0.40010196 -0.44156632 0.00090574508
0.026718041 0.014576374 -0.018618418 0.83223009 -0.36970851 -0.413169 0.001258741
-0.0010005175 0.016745709 -0.019678088 -0.82625037 -0.53841263 -0.16559632 0.001643393
0.0001671311 0.015347616 -0.020471333 -0.76047635 -0.60759318 -0.22914226 0.0015914555
0.026368733 0.016092971 -0.020639602 0.85510546 -0.31273353 -0.41351223 0.0010668192
0.02716748 0.016752668 -0.019329641 0.88480663 -0.27537423 -0.3758806 0.0012248936
-0.0024648502 0.019381767 -0.020107476 -0.83552128 -0.53204298 -0.13723847 0.001134988
0.027648879 0.019451572 -0.019862501 0.92518836 -0.17748745 -0.33544716 0.0009871776
0.028149083 0.022517568 -0.019644015 0.94708359 -0.072615027 -0.31266546 0.00069838669
0.028157534 0.025347119 -0.01990173 0.94652021 -0.044029254 -0.31962624 0.0009440101
0.027982742 0.027389353 -0.020059524 0.94861937 -0.0046824282 -0.31638488 0.00048077331
0.0080577685 0.0056229187 -0.015759328 -0.47416526 -0.74635315 -0.46703777 0.0014366795
0.010186104 0.005028381 -0.016532285 -0.33448631 -0.80329466 -0.49278456 0.0019705824
0.013206796 0.0042342632 -0.016819326 -0.17298855 -0.83494395 -0.52244002 0.0026513035
0.01610898 0.0039776978 -0.016766893 0.047803398 -0.83855116 -0.54272169 0.0030823515
0.019134147 0.0046067471 -0.016731141 0.3102479 -0.77893275 -0.54498631 0.0042693103
0.021590985 0.0054530259 -0.016106535 0.4928062 -0.70653385 -0.50788975 0.0030606482
0.0047482508 0.0084626451 -0.016314207 -0.61694932 -0.68735033 -0.3833054 0.001769513
0.0069908402 0.0070653441 -0.016941689 -0.51149768 -0.74883235 -0.42145005 0.0018552397
0.009084776 0.0062126126 -0.017619053 -0.38035434 -0.79058671 -0.47989923 0.0029844299
0.020399913 0.0062068012 -0.018216429 0.33483428 -0.76074833 -0.55601066 0.003565076
0.022435611 0.0068862857 -0.017120963 0.55113751 -0.67303795 -0.49322134 0.0029324153
0.024236973 0.0081158672 -0.016262518 0.68541503 -0.57086158 -0.45202136 0.0012765226
0.0019796952 0.011380717 -0.016415471 -0.7424171 -0.60952288 -0.27802649 0.0013446384
0.0034345596 0.010062685 -0.017003713 -0.69229114 -0.64420533 -0.32516509 0.00085562799
0.025490142 0.010383349 -0.016810592 0.78951961 -0.45887384 -0.40754583 0.00052786001
0.026912225 0.011705955 -0.015456973 0.81540531 -0.4248879 -0.39317226 0.0015405699
-0.00044764482 0.014650999 -0.016091181 -0.8391732 -0.51173323 -0.18416667 0.0024225183
0.00079417392 0.013159227 -0.016948314 -0.77677858 -0.58549416 -0.23197335 0.0014636819
0.026205255 0.012447899 -0.017737655 0.84039301 -0.37791005 -0.38848886 0.0013792836
0.027234884 0.013629747 -0.016556002 0.85480869 -0.35513076 -0.37839696 0.00070674269
-0.0012246707 0.016284946 -0.016835697 -0.85053039 -0.49523512 -0.17703211 0.0018741627
0.028056109 0.016362375 -0.016771568 0.91190994 -0.24106704 -0.33212489 0.00038491626
-0.0024880879 0.018934047 -0.017182646 -0.85811794 -0.49574772 -0.13367043 0.00084501482
0.028685577 0.019441241 -0.016813887 0.94986516 -0.13529478 -0.28187141 0.0011444612
0.02901583 0.022343732 -0.016592266 0.96234488 -0.062364299 -0.2645807 0.00040329417
0.028858313 0.025296306 -0.017065583 0.95905626 -0.04544856 -0.27954519 0.0006303814
0.01093493 0.0024350439 -0.012904667 -0.35199159 -0.79665893 -0.4913618 0.0013951783
0.013224912 0.0020631012 -0.013410529 -0.19465929 -0.83131588 -0.5205974 0.0023990294
0.016087161 0.0018738442 -0.013521073 0.03593608 -0.8482241 -0.52841693 0.0031022273
0.018851919 0.002128788 -0.013219271 0.27811033 -0.79654759 -0.53681147 0.0038998232
0.020887779 0.0025883522 -0.012643619 0.42551732 -0.7360332 -0.52648848 0.0038599544
0.0055068578 0.0058000442 -0.012845872 -0.58110976 -0.70644808 -0.40403271 0.0010581053
0.0072431327 0.0049202368 -0.013614541 -0.53243309 -0.73037893 -0.42785704 0.0013731293
0.009840386 0.003667749 -0.014037505 -0.3705782 -0.79297328 -0.48359606 0.0020508538
0.012854975 0.0031076937 -0.014926951 -0.15259486 -0.81957489 -0.55227876 0.003129889
0.017346242 0.0030419286 -0.015181361 0.085869253 -0.85490859 -0.51162261 0.0043673161
0.01954212 0.0032716785 -0.014549788 0.28289071 -0.78316861 -0.55373257 0.0032025659
0.022208963 0.0042590681 -0.013764242 0.50827992 -0.71556842 -0.47917995 0.0030005893
0.02415834 0.0054927599 -0.013002151 0.64843535 -0.61321062 -0.45111457 0.0027776961
0.0042971577 0.0074923132 -0.013771744 -0.64670372 -0.65063053 -0.39806288 0.0015399748
0.0060956194 0.0063927928 -0.014728853 -0.57457966 -0.70561826 -0.41468197 0.0027942765
0.025132837 0.0074157245 -0.013883552 0.74118733 -0.51502001 -0.43057603 0.0014999666
0.026635557 0.0085585769 -0.012484608 0.78448129 -0.47833142 -0.39470002 0.0012529766
0.0015899794 0.010497433 -0.013504161 -0.77450687 -0.55918175 -0.2957277 0.0015856841
0.0027474533 0.0094448887 -0.014314491 -0.73485714 -0.59728646 -0.32130006 0.0011077741
0.026384395 0.009524582 -0.014121447 0.79675364 -0.46075594 -0.39100829 0.00081229309
0.027371718 0.010835409 -0.013407454 0.84974927 -0.39763305 -0.34614184 0.0018253929
-0.00068390329 0.014260953 -0.013803175 -0.87249732 -0.45704171 -0.17280416 0.0010183163
0.00030844574 0.012722641 -0.014300171 -0.82468098 -0.52620137 -0.20739648 0.0016412077
0.02829163 0.013575395 -0.013772482 0.89324105 -0.31359228 -0.32214957 0.00074546924
-0.0015239916 0.016020156 -0.013676224 -0.8847689 -0.44302729 -0.14460556 0.00031524323
0.029072 0.016549338 -0.013837343 0.93792725 -0.1987491 -0.2842381 0.0014847193
-0.0022755715 0.01809915 -0.0152252 -0.88256872 -0.45435056 -0.12098754 0.00025748901
0.02924866 0.018807171 -0.014614625 0.95791471 -0.12175541 -0.25995195 0.00072051276
0.029845688 0.020266021 -0.012551134 0.95791811 -0.12175329 -0.25994039 0.00072344037
0.029822279 0.021857386 -0.01289594 0.96727306 -0.078222685 -0.24137929 0.00070547056
0.013398015 -0.00033597741 -0.0097191017 -0.19709998 -0.8342241 -0.51499695 0.0027966632
0.016162891 -0.00041163713 -0.0099639026 0.029036317 -0.85030335 -0.52549142 0.0025491151
0.018576587 -0.00027450966 -0.0096836314 0.27112982 -0.81960994 -0.50470608 0.003527713
0.0077884784 0.0023022927 -0.01003206 -0.51185173 -0.71594638 -0.4747932 0.0011542807
0.01014073 0.0014365136 -0.010727121 -0.36470398 -0.78647363 -0.49844784 0.0020442146
0.01300973 0.00068938453 -0.011188492 -0.16108155 -0.82916605 -0.53529084 0.0020841258
0.01611142 0.00051772594 -0.011410991 0.026149279 -0.82906884 -0.5585348 0.0023159641
0.019279184 0.00081892451 -0.011004485 0.26679027 -0.80846006 -0.52460968 0.0038534559
0.02184402 0.0018351729 -0.010593805 0.4438037 -0.75420445 -0.48395643 0.0021101416
0.0048258887 0.0050323633 -0.010517178 -0.62035507 -0.67248088 -0.40364471 0.0010486485
0.006852767 0.0036734976 -0.011129241 -0.50151551 -0.7262941 -0.47008422 0.0011931476
0.0087310914 0.0030484255 -0.01217371 -0.46718374 -0.75449288 -0.46095529 0.0010066011
0.02317108 0.0033567701 -0.011406211 0.62259769 -0.64005107 -0.45022964 0.0014527417
0.024930583 0.0046431096 -0.01055086 0.68668127 -0.58935511 -0.4255929 0.0023181089
0.0020390763 0.008129443 -0.010305284 -0.75377554 -0.56357974 -0.33793539 0.0019631144
0.0033632335 0.0069487132 -0.01110532 -0.72303361 -0.59316301 -0.35409039 0.0012240347
0.025934208 0.0065797893 -0.011397623 0.76887417 -0.52368766 -0.3668566 0.0021559913
0.027127616 0.0078043975 -0.010453229 0.81827509 -0.45163411 -0.35560161 0.0014375807
0.00084129581 0.010273501 -0.010844887 -0.8163321 -0.52166754 -0.24792108 0.00156017
0.028158518 0.010264964 -0.010727061 0.86920786 -0.37257063 -0.32506728 0.0011364656
-0.00079452788 0.013393243 -0.010748951 -0.90387428 -0.39947566 -0.15307009 0.0020300962
-1.4358957e-06 0.012247493 -0.011850415 -0.87081701 -0.44990498 -0.19814955 0.0012983052
0.029203309 0.013299817 -0.010698631 0.91984469 -0.26435569 -0.2898306 0.00067582302
-0.0016111297 0.015697284 -0.011816917 -0.90117955 -0.41337585 -0.1303681 0.0013428312
0.029440282 0.015469826 -0.011746515 0.95627236 -0.16908653 -0.23864797 0.00087078061
0.030000549 0.016669068 -0.010270008 0.96622634 -0.14339663 -0.21411219 0.00028962194
0.029885918 0.018681984 -0.011958508 0.9667663 -0.12623921 -0.22232084 0.0006621668
0.0081344368 -0.00019850768 -0.0066159503 -0.48028025 -0.72763097 -0.48977959 0.0011808401
0.010439965 -0.00074274186 -0.0075953943 -0.35017461 -0.7818023 -0.51590985 0.0015619971
0.013155131 -0.001641131 -0.0076318895 -0.17066187 -0.82745534 -0.53496927 0.0023275716
0.016130866 -0.0017819498 -0.0078462884 0.029902834 -0.83976585 -0.54212469 0.0029171179
0.019137096 -0.001354943 -0.0076860199 0.27694052 -0.82099926 -0.49926355 0.0035597347
0.021630626 -0.00053390348 -0.0071757231 0.46028069 -0.74636924 -0.48070225 0.0023160297
0.005260325 0.0022841622 -0.0069249803 -0.60064733 -0.65256673 -0.46193025 0.0013292893
0.0071089314 0.0013159293 -0.0077660717 -0.48096937 -0.72881889 -0.48733088 0.0012192961
0.0093378453 0.00042980979 -0.0085549336 -0.40038607 -0.75176191 -0.52397054 0.0024779914
0.022482926 0.0007707458 -0.0083026299 0.48095635 -0.74376786 -0.46420941 0.0035208496
0.024401011 0.0019144448 -0.0074688019 0.64342713 -0.64071542 -0.41890952 0.0012838915
0.0023139536 0.0056179743 -0.0069637285 -0.77486467 -0.52326888 -0.35464701 0.002689919
0.0039856047 0.0042478889 -0.0078863148 -0.69765967 -0.60332835 -0.38634944 0.0010292234
0.0060091671 0.0030548777 -0.0091791134 -0.55271089 -0.69339377 -0.46229401 0.0015190721
0.025784688 0.0038529029 -0.007912579 0.74714094 -0.54037029 -0.38701469 0.0012141047
0.027106501 0.0053053284 -0.0072499597 0.79078656 -0.50248504 -0.34952158 0.001504069
0.0014818056 0.0074362527 -0.0077176592 -0.79467297 -0.50839353 -0.33170903 0.0015999399
0.0027708972 0.0062974151 -0.0088754874 -0.73158991 -0.56570941 -0.38045907 0.0031638083
0.027993824 0.0073801638 -0.0077457437 0.83997929 -0.42861772 -0.33274856 0.00079898606
-0.00056858629 0.011328011 -0.0074895606 -0.89768469 -0.39815992 -0.18876155 0.0017130959
0.00028028814 0.0098410519 -0.0081626568 -0.85704827 -0.43852752 -0.2704843 0.0022411651
0.02905043 0.010133092 -0.0080335867 0.90028572 -0.31833923 -0.29689357 0.00084061176
0.029758461 0.011432127 -0.0069841035 0.92552519 -0.27752316 -0.257651 0.0013060643
-0.0011695997 0.013264993 -0.008059172 -0.9119125 -0.371984 -0.17333038 0.0016839908
0.030012032 0.013503678 -0.0078243995 0.95949417 -0.18270855 -0.21444958 0.00055365235
-0.0018598812 0.016020691 -0.0089470726 -0.92264849 -0.36274531 -0.13090308 0.00085667853
0.03054882 0.016888114 -0.0073345811 0.96565753 -0.14868924 -0.21306558 0.00027849755
0.010330856 -0.0032801246 -0.0038692639 -0.343003 -0.7762059 -0.52901173 0.0017959109
0.013211755 -0.0039071073 -0.0042615472 -0.16211899 -0.82389194 -0.54306495 0.002400266
0.01612296 -0.0039530154 -0.0045097223 0.051035911 -0.84745395 -0.52840996 0.0031072299
0.018995782 -0.0036781626 -0.0040540798 0.27552027 -0.82049239 -0.50088006 0.0030775275
0.021072602 -0.0030264352 -0.003698884 0.44434386 -0.76214802 -0.47083855 0.0016507586
0.0054510967 -0.00037163426 -0.0035091625 -0.58007723 -0.6552366 -0.48391664 0.00076177053
0.007425522 -0.0011252654 -0.004605209 -0.49156973 -0.70413613 -0.51239777 0.0022861573
0.0098164054 -0.0020221178 -0.0052997223 -0.36131936 -0.77625889 -0.51659507 0.002262505
0.012769514 -0.0028633391 -0.0056572631 -0.17278406 -0.8056286 -0.56666428 0.0021286698
0.016071487 -0.0029994193 -0.0059783794 0.04046363 -0.82607967 -0.56209862 0.0030391952
0.01931531 -0.0026547983 -0.0055345804 0.25917661 -0.80421811 -0.53484648 0.00264848
0.022236569 -0.0015879562 -0.0048184395 0.50042737 -0.73661119 -0.45494652 0.0033607753
0.02418413 -0.00052540936 -0.0039500827 0.62500107 -0.66545522 -0.40809685 0.0019290822
0.0044063185 0.0014661709 -0.0045897984 -0.63030231 -0.62255073 -0.46384212 0.0013614442
0.0064001437 0.00037968345 -0.0056968615 -0.51507956 -0.69388735 -0.50320321 0.0015230096
0.025193771 0.0011650268 -0.0049206526 0.68369263 -0.62386101 -0.37863138 0.0013120967
0.026689369 0.0023633447 -0.0038281367 0.76258641 -0.54797214 -0.34378561 0.001512905
0.0017660056 0.0047892919 -0.0045106881 -0.77413177 -0.5138458 -0.36970603 0.0020472512
0.0030775145 0.0035878066 -0.0053934664 -0.74627572 -0.54459143 -0.38274375 0.0019997433
0.026592389 0.0032960605 -0.005464463 0.77395517 -0.53137916 -0.34442633 0.0011002555
0.02776289 0.0045756046 -0.0045397999 0.83345437 -0.45402619 -0.31498253 0.00057542889
-0.00048843201 0.0086944904 -0.0034743831 -0.90734345 -0.34782138 -0.23611063 0.0029276866
0.00048635257 0.0073075364 -0.0048017651 -0.85853893 -0.4270052 -0.28386149 0.0014250533
0.029022329 0.0074463394 -0.0048895576 0.89411664 -0.35907266 -0.26762331 0.0013357459
-0.0008360605 0.010490811 -0.0045623914 -0.92356157 -0.32569072 -0.20238483 0.0011533631
-1.4065037e-05 0.0091227945 -0.005990474 -0.88219661 -0.38360935 -0.27308068 0.003766642
0.029366754 0.0091247763 -0.0058665858 0.89693314 -0.34925827 -0.27116343 0.0013456235
0.030124065 0.01054965 -0.004514033 0.94737166 -0.23844554 -0.21361327 0.00074458373
-0.0014184241 0.012877987 -0.0049399519 -0.93027788 -0.32371512 -0.17260239 0.00068058143
0.030651249 0.013630968 -0.0048242314 0.95772421 -0.18499172 -0.22032337 0.00066088233
0.030782832 0.0158944 -0.0056203888 0.96519363 -0.16350941 -0.20412226 0.00017365914
0.013188181 -0.0063655181 -0.000700498 -0.13238955 -0.82161289 -0.55445933 0.0027305677
0.016086744 -0.0064324578 -0.00072907424 0.10821193 -0.82998157 -0.54719353 0.0044757761
0.017922392 -0.0063727144 -0.00032955268 0.31048444 -0.80386829 -0.50734127 0.0032627999
0.0074484115 -0.0036613913 -0.0012939246 -0.46504596 -0.69762176 -0.54502851 0.0012643357
0.010108295 -0.0047425376 -0.0017208057 -0.32744181 -0.74732602 -0.57817435 0.0020735709
0.013045539 -0.0053155087 -0.0021482781 -0.13188842 -0.81075841 -0.57032996 0.0023308333
0.016200578 -0.0053946897 -0.0022954349 0.055513415 -0.8209511 -0.56829351 0.0022746273
0.019129191 -0.0050618369 -0.0017679888 0.31284711 -0.8145501 -0.48850262 0.0033417675
0.021815952 -0.0037958594 -0.0015753978 0.50420004 -0.74765611 -0.43219516 0.0029255811
0.0045796842 -0.001169065 -0.001451388 -0.62038428 -0.60822159 -0.49516654 0.0019755138
0.0065979273 -0.0021801651 -0.0024216683 -0.46323967 -0.70383912 -0.5385347 0.0015286161
0.023104135 -0.0023831399 -0.0024666772 0.61757439 -0.68138289 -0.39283484 0.0011501261
0.024881149 -0.0012702895 -0.0014065616 0.68194073 -0.64200246 -0.35041368 0.001644104
0.0019892652 0.0018715764 -0.0012771119 -0.74287009 -0.51000357 -0.43363619 0.0015504608
0.0032308211 0.00091353618 -0.0021393336 -0.71324492 -0.53504169 -0.45278257 0.0016354194
0.026127251 0.00062388438 -0.0022066459 0.72283494 -0.60208392 -0.33912331 0.0009025397
0.027233426 0.0018344148 -0.0016044476 0.79576486 -0.52845782 -0.29578805 0.0013146668
0.00081317651 0.0043522492 -0.0017761509 -0.82386196 -0.43784583 -0.35992014 0.0020701124
0.028604526 0.0043420326 -0.0017071827 0.86187953 -0.42422795 -0.27783859 0.00077156542
-0.00067164307 0.0076638833 -0.0014973232 -0.91870427 -0.3050195 -0.25088942 0.0017841252
-2.1792686e-05 0.0065950435 -0.0024048672 -0.9044438 -0.32314381 -0.27849513 0.0027192363
0.029417191 0.0068269772 -0.0027199374 0.9098568 -0.3404927 -0.23711875 0.0008265606
0.02999422 0.0077785011 -0.0016908036 0.93255138 -0.29677197 -0.20560718 0.00080385891
-0.0012786344 0.010367336 -0.0018067197 -0.92816067 -0.29659566 -0.22483066 0.00072320114
0.03055314 0.010125324 -0.0021302388 0.94963002 -0.2351428 -0.20714921 0.00063744624
0.031049984 0.012721473 -0.0017466904 0.96132839 -0.19604897 -0.19342332 0.00042386921
0.0078319488 -0.0066846944 0.0021429411 -0.41948974 -0.68271321 -0.5982734 0.0014989824
0.01028835 -0.0071850158 0.0014055539 -0.28395826 -0.74826795 -0.59955209 0.0018580853
0.01312727 -0.0077276155 0.0011998625 -0.057130378 -0.82324868 -0.56479883 0.0027217467
0.016072577 -0.00776227 0.0012951968 0.12361634 -0.83654791 -0.53376645 0.0041133533
0.019064574 -0.0070316819 0.0014372123 0.31985164 -0.8072058 -0.49609855 0.0029287112
0.021106798 -0.006421024 0.0021616532 0.47998244 -0.74468666 -0.46374407 0.0021709322
0.0045466698 -0.0038447697 0.001700901 -0.57232803 -0.61852336 -0.53839529 0.001964682
0.0068138014 -0.0050834743 0.0010204175 -0.4492273 -0.68587887 -0.57250762 0.002000879
0.0093107074 -0.0057903808 0.00011477014 -0.29344517 -0.74683481 -0.59676433 0.0018215657
0.020074561 -0.0059115309 0.00027887663 0.37753278 -0.7984423 -0.46899778 0.0048949127
0.02216021 -0.0050911056 0.0011149151 0.53385538 -0.73374951 -0.42025 0.00323089
0.024219967 -0.0036173202 0.0016442682 0.65159696 -0.6660015 -0.36313003 0.0016192355
0.002009779 -0.00090874964 0.0017825053 -0.71146405 -0.5156247 -0.47744125 0.0016044262
0.0034044445 -0.0018674498 0.00085909991 -0.66841638 -0.5474987 -0.50345272 0.0013575304
0.025736134 -0.0017058109 0.0011673286 0.72510272 -0.60389632 -0.33096111 0.00095049111
0.02704259 -0.00048346259 0.0021316274 0.77208716 -0.5656448 -0.2897023 0.0012805855
0.00099246076 0.001355965 0.0011502658 -0.79007596 -0.43092632 -0.43598446 0.0019069829
0.027740939 0.001240747 0.00092550507 0.83390439 -0.48899442 -0.25590596 0.00098584942
-0.0006774097 0.0047587445 0.0015586112 -0.91456592 -0.28760275 -0.28434807 0.0034107473
0.0001293566 0.0036278819 0.00059870537 -0.87124079 -0.34260327 -0.35151464 0.0024987711
0.0291108 0.0037874412 0.0010513677 0.89578646 -0.38365066 -0.22445242 0.0011922811
0.029837167 0.0054468913 0.0012898259 0.90524417 -0.37323385 -0.20305055 0.00067920674
-0.0012744835 0.0074624717 0.0012820452 -0.95734912 -0.2096556 -0.1988143 0.0035005847
0.030531822 0.0078156162 0.0010405048 0.93329775 -0.30217049 -0.19403186 0.0008216101
-0.0014457575 0.0094580483 0.00013309857 -0.96219611 -0.20973749 -0.17374948 0.0017398699
0.03095237 0.010407401 0.00026366254 0.95582139 -0.23189969 -0.18063231 0.00046978463
0.0080148503 -0.0095125092 0.0053258953 -0.35958296 -0.69834977 -0.61887622 0.0020005605
0.01039926 -0.0098923352 0.0047672014 -0.22124687 -0.75208426 -0.62082124 0.0024801975
0.013092227 -0.010045551 0.0043806224 -0.016842049 -0.81509364 -0.5790844 0.0029475763
0.015948735 -0.0098773688 0.004473886 0.16260661 -0.82797867 -0.53666598 0.0047611818
0.018323738 -0.0095380582 0.0050836639 0.377244 -0.80751383 -0.45344076 0.001651844
0.0045223767 -0.0069556702 0.0050612702 -0.5508526 -0.58190352 -0.59828889 0.0012779388
0.0069567664 -0.0078769485 0.0041437852 -0.37331876 -0.69754964 -0.61160249 0.0016830922
0.0099236043 -0.0085648084 0.0033031418 -0.24702999 -0.76285928 -0.5975132 0.0015936068
0.012098425 -0.0088128913 0.0028383448 -0.07479386 -0.80510759 -0.58839405 0.0024382209
0.01686657 -0.008820029 0.0031259074 0.15104362 -0.82513756 -0.54436558 0.0027915868
0.019426217 -0.0083649289 0.0039934828 0.34059167 -0.80166972 -0.49124616 0.0019221113
0.021664772 -0.0071980422 0.0043231971 0.53103191 -0.74557585 -0.40264356 0.0027742009
0.0018738346 -0.0038265912 0.004841086 -0.67450964 -0.52443635 -0.51961845 0.0010418638
0.003679523 -0.0049642147 0.0038345405 -0.61833066 -0.55719346 -0.55425864 0.0018891883
0.0056769648 -0.0059602652 0.0029400005 -0.49648723 -0.63323915 -0.59372443 0.00089974742
0.022966279 -0.0058554765 0.0037234812 0.60264933 -0.71865934 -0.34690422 0.0020128435
0.024829431 -0.0043558609 0.004390676 0.69839793 -0.64755744 -0.30481103 0.0013415312
-0.00051735737 -0.00026364066 0.0054731979 -0.80749744 -0.3680391 -0.46097189 0.0024065182
0.00096091966 -0.0015353342 0.0040326067 -0.77038705 -0.43078139 -0.47003326 0.0013478732
0.026170334 -0.0023973081 0.0034924014 0.77959096 -0.56382185 -0.27265903 0.0013087983
0.027164822 -0.00129116 0.0041942657 0.81530774 -0.52974951 -0.23374943 0.0014513971
-0.00079355086 0.0016111812 0.0046112151 -0.88252276 -0.2738533 -0.38230616 0.0031563251
0.00012442519 0.00077943574 0.0033674655 -0.84393013 -0.35122734 -0.40548891 0.0023711543
0.028574191 0.0013110694 0.0038384511 0.86952686 -0.45013645 -0.20322463 0.0011359497
-0.0014283952 0.0044755717 0.0042172358 -0.94168961 -0.20323493 -0.26817191 0.0036227931
0.029541403 0.0033214223 0.0040477528 0.89291143 -0.41132095 -0.18309616 0.0011329143
0.030273108 0.0052321013 0.0042895987 0.90969944 -0.37592211 -0.1764355 0.00080984505
-0.0018783092 0.0074497582 0.0044147386 -0.96421778 -0.16662256 -0.20620599 0.0041554458
0.030418932 0.0064116325 0.0029016151 0.92684054 -0.32338867 -0.19075209 0.0012051311
-0.0019493718 0.0095379259 0.004894109 -0.97700524 -0.11125918 -0.18188514 0.0017533574
0.0081448518 -0.012323875 0.0084296577 -0.29092062 -0.70363683 -0.64827496 0.0019434494
0.010397667 -0.012608555 0.0080649611 -0.12966728 -0.77743059 -0.61545765 0.0027755394
0.013052284 -0.012651853 0.0079315305 0.057362784 -0.81866091 -0.57140511 0.0029357937
0.015642891 -0.012457441 0.0083015952 0.2778827 -0.81821561 -0.50329351 0.0030881285
0.0045623928 -0.0099729653 0.0080158133 -0.49111071 -0.60025346 -0.63127327 0.001518178
0.0070788274 -0.010716308 0.0071897316 -0.32400686 -0.71402121 -0.6206395 0.0014155044
0.010090695 -0.011305219 0.0065887603 -0.16777809 -0.77093834 -0.6144141 0.0018073397
0.013148259 -0.011539518 0.0064146281 0.011410552 -0.79971856 -0.60026658 0.0023916322
0.016161209 -0.011373295 0.0068549882 0.23963544 -0.81806445 -0.52282435 0.0045087524
0.018947277 -0.010432399 0.0072177933 0.39474958 -0.81286639 -0.42827678 0.0023166325
0.021142486 -0.0095876642 0.0081961267 0.55584162 -0.72777307 -0.4017292 0.0016779214
0.0017027949 -0.0069103548 0.0077793268 -0.63548636 -0.51772767 -0.57281333 0.0022808432
0.0037565941 -0.0081203049 0.006877054 -0.52165926 -0.59721893 -0.60926282 0.0018768078
0.005710681 -0.0088929627 0.0060688867 -0.47276577 -0.63382518 -0.61217493 0.0014698999
0.02056529 -0.0088921431 0.0060358956 0.51965517 -0.76447475 -0.38149291 0.00120803
0.022501096 -0.0079263626 0.0070898305 0.60336739 -0.72334969 -0.33572751 0.0017521428
0.024394866 -0.0064338837 0.0077788546 0.69875211 -0.64588255 -0.30754048 0.001237585
-0.00064648845 -0.0035282392 0.0081598032 -0.77490538 -0.38048971 -0.50472689 0.002378372
0.00075043726 -0.0046368665 0.007050131 -0.73459691 -0.43323672 -0.52218127 0.0012963362
0.002834084 -0.0060123745 0.0057837977 -0.6236614 -0.53079295 -0.57385129 0.003028627
0.025509842 -0.0046981331 0.0068579693 0.74222094 -0.61927092 -0.25614747 0.0019568277
0.026874596 -0.0031580869 0.0074073686 0.79837686 -0.56254238 -0.21480323 0.0010570424
-0.0010615686 -0.0014056386 0.0074321148 -0.85320675 -0.31825387 -0.41322234 0.003072541
7.9592253e-05 -0.0023041796 0.0061133667 -0.80807519 -0.37144089 -0.45721549 0.0025442955
0.02768122 -0.0016454719 0.0071165278 0.85686344 -0.48365197 -0.17851016 0.0015062647
-0.0017427669 0.0013162767 0.0071447161 -0.89196861 -0.24341236 -0.38097566 0.0023526037
0.029017106 0.00092675351 0.0070910766 0.89223129 -0.42411512 -0.15507953 0.00055953616
0.029822094 0.0026110318 0.0083890874 0.89223194 -0.42411458 -0.15507734 0.00055992708
-0.0022459759 0.0043321992 0.0073340102 -0.97197109 -0.078477636 -0.22161554 0.0040868274
-0.0024525111 0.0064633097 0.0082319397 -0.98063731 -0.045359928 -0.19050713 0.0016582364
0.0081973905 -0.015340293 0.011672081 -0.15655875 -0.73171252 -0.66338986 0.0054285652
0.010133138 -0.015330486 0.011419272 -0.054165505 -0.76907831 -0.6368553 0.0041940929
0.012561545 -0.01533531 0.011543613 0.11703873 -0.79448956 -0.59589279 0.0045893118
0.0044174432 -0.013026124 0.010987988 -0.42270899 -0.60853547 -0.67156655 0.0015122633
0.006965037 -0.013593853 0.010265268 -0.27130112 -0.6898644 -0.67118007 0.0033404832
0.0099981641 -0.01404609 0.0098819248 -0.078798167 -0.77425104 -0.62795389 0.0022269515
0.01333619 -0.01413545 0.010051878 0.13301386 -0.81226975 -0.56791294 0.0048969099
0.016085098 -0.013546512 0.01030395 0.29583013 -0.80916607 -0.50767601 0.0019998264
0.018415725 -0.012704132 0.010818498 0.4633244 -0.78367692 -0.41374025 0.0024025564
0.0015074312 -0.010316961 0.010825804 -0.56890833 -0.51136452 -0.64408833 0.0022441556
0.0037288463 -0.011091185 0.009679731 -0.45203021 -0.61344296 -0.64757729 0.0014860092
0.0059830076 -0.011858875 0.0089664031 -0.31734142 -0.67071414 -0.67040062 0.0017278342
0.019496677 -0.0115091 0.0097931568 0.4726699 -0.78526253 -0.39993253 0.0035819812
0.021503448 -0.01031889 0.010342285 0.58670163 -0.73775178 -0.33392143 0.0019347538
-0.00085806526 -0.0069947941 0.010903643 -0.72099119 -0.3927229 -0.57091206 0.0019816076
0.00074215559 -0.0079742875 0.0097511113 -0.65508425 -0.46514717 -0.59540135 0.0027756211
0.023149706 -0.0086241718 0.0098376293 0.69966549 -0.65831119 -0.27765921 0.0013507969
0.024638798 -0.0073106578 0.010578765 0.73784578 -0.63069743 -0.24042527 0.0020716037
-0.0015221181 -0.0044533703 0.010217298 -0.78970838 -0.33180058 -0.51601267 0.0026468297
0.026058286 -0.0052433964 0.0099887941 0.79315919 -0.57586503 -0.19818658 0.0012504674
0.027287142 -0.003434198 0.010331811 0.83965975 -0.51179934 -0.18174987 0.0030004291
-0.0024113166 -0.001569605 0.010213537 -0.89998305 -0.18089287 -0.39662126 0.0036501398
0.028050181 -0.0022311751 0.01095766 0.869102 -0.46440062 -0.17027539 0.0016170647
-0.0027291644 0.0012942717 0.0099048689 -0.94607782 -0.075244561 -0.31507942 0.0044048978
0.0294603 0.0011617447 0.010275515 0.89151394 -0.43218148 -0.13572799 0.0002644881
-0.0029562141 0.0040670363 0.010800596 -0.97955966 0.028433699 -0.19913417 0.0050740456
-0.00245954 0.0071963649 0.0091637243 -0.98698181 -0.00086724112 -0.1608295 0.0021106347
0.0022204304 -0.015611121 0.014456036 -0.43712339 -0.53572106 -0.72244453 0.0017944491
0.0042872899 -0.016135989 0.013884531 -0.32654738 -0.62301564 -0.71078712 0.0018286244
0.0070368187 -0.016547199 0.013323227 -0.19833122 -0.69285101 -0.69326925 0.0020527118
0.0099969907 -0.016783761 0.013215983 0.033395153 -0.79828751 -0.60135007 0.0028886741
0.013154204 -0.016377995 0.013288114 0.23109397 -0.81400597 -0.53290707 0.0037966853
0.015760278 -0.015691554 0.013739124 0.37980181 -0.80221528 -0.46065289 0.0026811645
-0.00093710562 -0.012420929 0.014452901 -0.59896028 -0.45121172 -0.66155469 0.0035312437
0.0012947767 -0.013540331 0.013462899 -0.48062199 -0.52865243 -0.69966358 0.0015465458
0.0037270098 -0.014265349 0.012497121 -0.36061388 -0.63913536 -0.67931122 0.0013470011
0.0060163811 -0.014864149 0.011913957 -0.23912618 -0.68300128 -0.6901651 0.0016102972
0.016752787 -0.014623601 0.012693632 0.37438563 -0.80968004 -0.45194429 0.004460284
0.019102534 -0.013555206 0.013351424 0.53322905 -0.7702049 -0.34993014 0.0014371217
0.021162663 -0.012261288 0.014037253 0.62097418 -0.71644258 -0.31796402 0.0016174413
-0.001356283 -0.01023345 0.013528485 -0.68093693 -0.35956541 -0.637995 0.0015744523
0.00050145551 -0.011272741 0.012419984 -0.5650211 -0.49753243 -0.65818894 0.002093273
0.020335812 -0.011948342 0.011829259 0.58225811 -0.74734676 -0.3200756 0.0021586872
0.022283033 -0.010767377 0.012966624 0.66138405 -0.69917136 -0.27153382 0.0011151737
0.023809837 -0.009316856 0.013329433 0.72798318 -0.64466405 -0.23334272 0.0013959081
-0.0034756637 -0.0069032665 0.014422143 -0.801103 -0.23346168 -0.55111665 0.0032909776
-0.0022051446 -0.0075229658 0.012954287 -0.76406252 -0.29913712 -0.57159901 0.0015746345
0.025278987 -0.0074190712 0.013465377 0.7697686 -0.60315126 -0.20896137 0.00076305459
-0.0037145796 -0.0044545424 0.013889903 -0.87375039 -0.13285449 -0.46787804 0.0034213003
-0.0028080919 -0.0046757101 0.012399195 -0.84098977 -0.22833802 -0.49050784 0.0025406876
0.026935829 -0.0046796296 0.012642907 0.80598307 -0.56147474 -0.1874498 0.00054111925
-0.00370793 -0.001523009 0.013231501 -0.9362579 -0.037245229 -0.34933349 0.0039229337
-0.0029658328 -0.0027259979 0.011916371 -0.89386314 -0.1394814 -0.42609102 0.0034243881
-0.003657351 0.0012041848 0.013030341 -0.96128184 0.026893994 -0.27425155 0.0056792684
-0.0034646634 0.0035906788 0.013287904 -0.97938424 0.10487513 -0.17264895 0.0026842894
-0.0029669285 0.0055289473 0.012043478 -0.9850961 0.075515419 -0.15454163 0.0019630392
-0.0029838791 0.0060315635 0.014009776 -0.98047602 0.15965535 -0.11479109 0.00080217363
-0.00055706792 -0.018035436 0.017757 -0.42416531 -0.51609302 -0.74413162 0.00052581413
0.0014913953 -0.018795099 0.017338747 -0.34059632 -0.57039863 -0.74742198 0.0019495393
0.0042102188 -0.019238988 0.01675098 -0.20891376 -0.667427 -0.71477014 0.003105121
0.0070058983 -0.019415678 0.016435826 -0.032473315 -0.74796903 -0.66293883 0.0036812334
0.009898481 -0.01912934 0.016270999 0.097678602 -0.79119581 -0.60371196 0.0025089607
0.012653247 -0.018751847 0.016798947 0.32132173 -0.81976908 -0.47405788 0.0015414074
0.01517138 -0.018021489 0.017440559 0.45403373 -0.79506189 -0.40215668 0.0018584823
-0.0014307367 -0.01606337 0.01709098 -0.50356966 -0.44513798 -0.74045241 0.0027708597
0.0011016185 -0.016795913 0.016019186 -0.37156954 -0.56711936 -0.73505902 0.0019459435
0.0037835629 -0.017509069 0.015328348 -0.25602689 -0.64821315 -0.71712625 0.0020912606
0.0062943087 -0.017908478 0.014883064 -0.11292671 -0.72394508 -0.68055207 0.0022607474
0.011180243 -0.017905751 0.014820935 0.065531753 -0.80394191 -0.59108627 0.0030766514
0.013298633 -0.017688502 0.015437616 0.2629714 -0.81279653 -0.51981515 0.0023827511
0.016109284 -0.016781045 0.016098002 0.45055699 -0.80070144 -0.39481083 0.0017471933
0.018508544 -0.015624614 0.016886778 0.56979322 -0.75192213 -0.33158529 0.0028049736
-0.0037766078 -0.012828993 0.017293604 -0.65192652 -0.31699958 -0.68884182 0.0020612481
-0.0019113418 -0.013532298 0.01597815 -0.60971206 -0.37895891 -0.69616187 0.001820673
0.00033157974 -0.014786441 0.015037628 -0.46698472 -0.4915159 -0.73507649 0.0017537259
0.019718817 -0.014282186 0.015967453 0.59134322 -0.73912352 -0.32250506 0.0024927421
0.021657553 -0.012724359 0.016478311 0.66812539 -0.69834626 -0.25675085 0.0011554764
-0.0041672015 -0.010293498 0.01666978 -0.73428875 -0.24213582 -0.63418472 0.0032385937
-0.0027500964 -0.010686076 0.015249642 -0.71248996 -0.30358914 -0.63260704 0.002027292
0.022952739 -0.011090938 0.015737336 0.71030319 -0.65886402 -0.24772495 0.0021805291
0.0241755 -0.0096229706 0.015725615 0.74249619 -0.63524294 -0.21252245 0.0007084494
-0.0045935749 -0.0074606789 0.016329467 -0.83286881 -0.14414632 -0.53437006 0.0046751755
0.025411617 -0.0079123471 0.015933694 0.77165198 -0.60497874 -0.19635175 0.00069493963
-0.0049671037 -0.0044911476 0.016431415 -0.90696901 -0.025800303 -0.42040643 0.0039839912
-0.0047156732 -0.0015444509 0.015957609 -0.94140375 0.072088763 -0.32948762 0.0046519013
-0.0043067825 0.0013942054 0.015913965 -0.96148455 0.16549234 -0.21945332 0.0030936135
-0.0037367656 0.0038431343 0.01604663 -0.9720034 0.18082654 -0.15003738 0.00098034681
-0.0011428901 -0.021284675 0.020390369 -0.3481065 -0.55918938 -0.75241548 0.0020240101
0.0012549617 -0.021768238 0.019880632 -0.2270579 -0.6462661 -0.72854978 0.0031953978
0.0041702883 -0.022031536 0.019544797 -0.069632284 -0.72957498 -0.68034685 0.0041058841
0.0071953433 -0.021921324 0.019491039 0.094686449 -0.79174954 -0.60346252 0.0039709918
0.0098085115 -0.021471471 0.019664632 0.25378051 -0.81766635 -0.51673698 0.002395059
0.012049397 -0.021121869 0.02043158 0.39765501 -0.80717474 -0.43627912 0.0019196945
-0.0039172256 -0.018696513 0.020277727 -0.49296474 -0.44654509 -0.74671495 0.00121296
-0.001796952 -0.019341994 0.01938034 -0.39839399 -0.53094709 -0.74791539 0.0015787478
0.00089222647 -0.019907927 0.018467175 -0.27364105 -0.61600053 -0.73869067 0.0019835411
0.0037066143 -0.020423559 0.017978154 -0.13463661 -0.70215523 -0.69917893 0.0028430095
0.0068247495 -0.020882523 0.018133918 0.025505133 -0.76971304 -0.63788038 0.0028195356
0.010272563 -0.020393813 0.018205484 0.18910202 -0.81942993 -0.54108673 0.002632373
0.013077981 -0.019926036 0.019154925 0.38752088 -0.81866157 -0.42381701 0.0021327615
0.01568529 -0.018642467 0.019387078 0.48432276 -0.79197079 -0.37177107 0.0022462686
-0.006507182 -0.015197078 0.020741375 -0.66545182 -0.2508125 -0.7030412 0.0042734323
-0.0046221921 -0.016279886 0.019571861 -0.57752341 -0.33552852 -0.74423605 0.002394764
-0.0025697928 -0.016870659 0.01832163 -0.52979439 -0.40148571 -0.74707907 0.0016281486
0.017010447 -0.017411191 0.018488925 0.53074592 -0.78427148 -0.32128954 0.0016800154
0.018728057 -0.016371986 0.019174164 0.61637223 -0.73775321 -0.27532792 0.0023895225
-0.0066652107 -0.013202855 0.020313662 -0.72024339 -0.1772822 -0.6706866 0.0025091299
-0.0050712465 -0.013573073 0.018827138 -0.66485906 -0.26968148 -0.69658762 0.0029175535
0.021408547 -0.013916431 0.019524755 0.66365874 -0.70897979 -0.23854724 0.00058188592
-0.0067399936 -0.010469937 0.019850336 -0.79515368 -0.075472333 -0.60169303 0.0031158736
-0.0056267814 -0.010573638 0.01850458 -0.77035296 -0.15030921 -0.61964786 0.00240484
0.023065193 -0.011650929 0.018061401 0.72377759 -0.65477103 -0.21776344 0.0012702065
-0.0067380341 -0.0075026369 0.019729497 -0.86015213 0.04327821 -0.50819808 0.0036145293
-0.0059061623 -0.0076500168 0.018374475 -0.84452295 -0.048589583 -0.53331041 0.0031439194
-0.0066190036 -0.004789968 0.02000642 -0.90462726 0.17972523 -0.38645622 0.0041338
-0.0059804814 -0.0045228773 0.018642597 -0.91887116 0.063764706 -0.38937113 0.0050103362
-0.0056911507 -0.0017666258 0.019059174 -0.92289448 0.22923023 -0.30938533 0.0033862754
-0.004917149 0.001143091 0.018958824 -0.94773823 0.26390395 -0.17929587 0.0023549974
-0.0040053739 0.0036064144 0.018271567 -0.96301514 0.20472489 -0.17518443 0.0011260868
-0.0035646425 -0.024270872 0.023596825 -0.34223428 -0.55952901 -0.75485289 0.0037812633
-0.0015701605 -0.02463829 0.023180103 -0.22534159 -0.62535423 -0.74709654 0.0031732048
0.0012574804 -0.024906911 0.022848126 -0.080796972 -0.71402252 -0.69544494 0.004140507
0.0041496679 -0.024713784 0.022640012 0.07893794 -0.78195119 -0.6183213 0.0030675321
0.0069378507 -0.024434313 0.022972139 0.21919581 -0.81417668 -0.53765184 0.0023720155
0.0088903205 -0.024277696 0.023716571 0.36575839 -0.80979139 -0.45875776 0.0020248247
-0.0067192824 -0.021447802 0.023588382 -0.50113696 -0.37714759 -0.77885902 0.0039781206
-0.0046185274 -0.022304403 0.022820869 -0.41986203 -0.47752464 -0.77180701 0.0031792419
-0.0019429816 -0.022644686 0.021749478 -0.27900401 -0.59185135 -0.7562201 0.0020856042
0.0010244222 -0.023290461 0.021304548 -0.14953324 -0.67555225 -0.72198957 0.0025498862
0.003962934 -0.023570459 0.021249117 0.0064768479 -0.75770956 -0.6525597 0.0028517814
0.0071174637 -0.023408791 0.021522695 0.1529562 -0.80343372 -0.5754118 0.0021210152
0.010104112 -0.022863356 0.022122147 0.29347783 -0.81770426 -0.49520755 0.0014093142
0.012802124 -0.02176206 0.022436555 0.44373509 -0.80615306 -0.3914285 0.0029264602
-0.007230428 -0.019284256 0.022960942 -0.56733853 -0.33538687 -0.75209212 0.0016992572
-0.0050703087 -0.019674543 0.021586491 -0.53440648 -0.37324354 -0.75835282 0.0017360226
-0.0030430711 -0.020649159 0.020875992 -0.41215181 -0.46407971 -0.78406692 0.0031718567
0.014062484 -0.020686494 0.021628963 0.51808172 -0.78672433 -0.33564299 0.0014821342
0.015953597 -0.019678738 0.022240296 0.56187278 -0.76836002 -0.30646682 0.0022309902
0.017802611 -0.018231088 0.02218491 0.61812234 -0.74446481 -0.25238261 0.0015050967
-0.0077389604 -0.01647778 0.022361649 -0.69315702 -0.19871806 -0.69285238 0.0013714159
-0.0058928733 -0.01731378 0.021041917 -0.6002084 -0.29843947 -0.74208075 0.00074779463
0.019274494 -0.016723268 0.021740314 0.63648611 -0.73049659 -0.24750783 0.0010889702
0.020789383 -0.01525783 0.022352071 0.66440034 -0.70970368 -0.23429212 0.0005827992
-0.0095439358 -0.013315169 0.023680892 -0.77502984 -0.061612681 -0.62891376 0.0023121475
-0.0081291348 -0.013591819 0.022055112 -0.75224668 -0.12469888 -0.64697379 0.00083198486
-0.0095440503 -0.011571536 0.023686009 -0.80466008 0.080564141 -0.58824444 0.0041686897
-0.0082646832 -0.010527088 0.021938559 -0.80628431 -0.016841456 -0.59128845 0.001410136
-0.0081628524 -0.0076602641 0.022168426 -0.87909001 0.12097599 -0.46104842 0.0034885912
-0.0074866922 -0.0045941989 0.022223324 -0.8956545 0.25934717 -0.36130607 0.0036653578
-0.0066942391 -0.002255742 0.022060188 -0.90234572 0.32668778 -0.28115347 0.0042187697
-0.0060268594 -0.00059897639 0.02171682 -0.93054199 0.28264463 -0.23281668 0.0044095921
-0.0052780495 0.001137523 0.021356272 -0.93567151 0.29109392 -0.19945708 0.0024017664
-0.00437999 -0.027583733 0.026442805 -0.24370946 -0.60261017 -0.75991219 0.0030587947
-0.0018356621 -0.027662544 0.025995361 -0.083367109 -0.70190942 -0.70737052 0.0035640658
0.0011689204 -0.027661698 0.025981618 0.059498206 -0.77201378 -0.63281494 0.0028930728
0.0037579339 -0.027516546 0.026324501 0.21069524 -0.80640256 -0.55255985 0.0021617475
-0.0074282838 -0.025247239 0.026071342 -0.3925049 -0.48352695 -0.78239477 0.0037014736
-0.0048651751 -0.025644528 0.025128411 -0.289799 -0.57399905 -0.76586008 0.0015696421
-0.0019860156 -0.026120469 0.024586523 -0.14070535 -0.67607826 -0.72327048 0.0024325426
0.0010256381 -0.026465334 0.024558764 -0.0060106339 -0.74879563 -0.66277367 0.0024923536
0.0041651726 -0.026338868 0.024817873 0.16138473 -0.80056375 -0.57710707 0.0031359016
0.0070667868 -0.025814088 0.025220344 0.28896752 -0.82000417 -0.49405548 0.0030237476
0.0099215265 -0.024742041 0.025474174 0.41532266 -0.8173641 -0.39927816 0.003293698
-0.0099354517 -0.02233371 0.026219426 -0.55629551 -0.3210046 -0.76647979 0.0024366935
-0.0079242997 -0.02270114 0.024997752 -0.5322265 -0.35916162 -0.76664066 0.0012805784
-0.0057305186 -0.023468914 0.02410564 -0.41807827 -0.43189043 -0.79917532 0.00343848
0.011023509 -0.023694469 0.02442413 0.41746801 -0.82959509 -0.37079981 0.0037453151
0.013049369 -0.022815133 0.025146076 0.51307267 -0.787938 -0.34045589 0.0016025985
0.015172571 -0.021376768 0.025464954 0.56909645 -0.77076447 -0.28644606 0.0014526921
-0.010481337 -0.019556731 0.025754383 -0.64691907 -0.2067614 -0.73399282 0.0026656289
-0.0085933376 -0.019887062 0.024283035 -0.60933733 -0.26239824 -0.74823469 0.0017516392
0.016415292 -0.020265633 0.025241913 0.57970756 -0.76622969 -0.27718416 0.0010840297
0.018159537 -0.018609958 0.025105866 0.61971533 -0.73828256 -0.26625511 0.0010870149
-0.010580438 -0.016617112 0.025250519 -0.72787637 -0.093234599 -0.67934042 0.0029038503
-0.0090499585 -0.017558249 0.023877235 -0.6822232 -0.17662174 -0.70949018 0.0011371489
-0.010782353 -0.013670037 0.025332378 -0.81201047 0.064042203 -0.58011866 0.0023944979
-0.010326389 -0.010613949 0.025094384 -0.85257995 0.16861218 -0.49464875 0.0023438672
-0.0099199889 -0.0079580918 0.025543233 -0.87700921 0.25983027 -0.40415722 0.0037776155
-0.0090592876 -0.006850386 0.024310045 -0.88271964 0.24739832 -0.39949983 0.0056281309
-0.0096099395 -0.0058923159 0.026597681 -0.86752933 0.41609359 -0.27250499 0.0018392263
-0.0085752504 -0.0047291717 0.025018083 -0.87339443 0.36803541 -0.31895462 0.0033862814
-0.0072652013 -0.0018063728 0.025094865 -0.87729341 0.4400751 -0.19154674 0.0028948861
-0.005695838 0.0010060798 0.024573455 -0.91663277 0.3638311 -0.1655632 0.0022151277
-0.0074407575 -0.030297965 0.029449856 -0.21796107 -0.59924877 -0.77032065 0.0031426086
-0.0048776721 -0.030378055 0.029045662 -0.082402945 -0.69894707 -0.71041024 0.0034027509
-0.0018528611 -0.030371722 0.028954146 0.046461232 -0.76103413 -0.64704585 0.0027558771
0.00091866415 -0.030271668 0.029329831 0.19421282 -0.79953873 -0.56834775 0.0023499865
-0.010655165 -0.027969671 0.029144345 -0.39731255 -0.4165369 -0.81770396 0.0038628131
-0.0079507995 -0.028471697 0.028304251 -0.26998997 -0.55578852 -0.78625983 0.0010748818
-0.0050020302 -0.028783638 0.027629843 -0.18327145 -0.62999457 -0.75466436 0.0050327238
-0.0018439459 -0.029010072 0.027424643 -0.012244668 -0.73654658 -0.67627597 0.0021101385
0.0011700451 -0.029029947 0.027720736 0.10289676 -0.78462088 -0.61137748 0.0012735437
0.0041380818 -0.028660361 0.028206879 0.27289841 -0.81408423 -0.51263362 0.002391285
0.006959354 -0.027708037 0.028487412 0.37783414 -0.81922305 -0.43141046 0.0025739165
0.0089911474 -0.027134413 0.029564532 0.51000917 -0.80006337 -0.31589445 0.0010348894
-0.013094007 -0.025103033 0.029333355 -0.50122678 -0.2704446 -0.82196814 0.0029520197
-0.010966466 -0.025443155 0.028151797 -0.47673211 -0.35390028 -0.80466211 0.003026067
-0.0083863176 -0.026209388 0.027116334 -0.36519775 -0.45957971 -0.8095783 0.0033939034
0.0076961843 -0.026738795 0.027250575 0.36333022 -0.83426398 -0.4147225 0.0019957791
0.010107676 -0.025803579 0.02801601 0.48784509 -0.79865688 -0.35235542 0.0027648679
0.012501269 -0.024392782 0.028672179 0.53150225 -0.79439217 -0.29401785 0.00055355474
-0.013475888 -0.022364428 0.02895665 -0.60118252 -0.14976758 -0.78495175 0.0030431245
-0.011295327 -0.022799535 0.027412226 -0.56875533 -0.25521737 -0.78190887 0.0044204043
0.013604484 -0.023242703 0.027586544 0.53471988 -0.78907275 -0.30238861 0.00054888491
0.014962148 -0.021945694 0.026795151 0.56786442 -0.77070642 -0.28903583 0.0012608893
-0.01344197 -0.019453872 0.028560115 -0.7040326 -0.047937546 -0.70854795 0.0045714756
-0.011966159 -0.01995852 0.027194599 -0.67845416 -0.13235165 -0.72262222 0.0024559994
-0.013382904 -0.016632589 0.02847694 -0.78204089 0.064575784 -0.61987257 0.0042205406
-0.012126532 -0.01668557 0.026949083 -0.74653101 -0.02245789 -0.66497153 0.0023148451
-0.013117517 -0.013857054 0.028606316 -0.82683229 0.1911993 -0.5289529 0.0034914063
-0.012133762 -0.013683571 0.027207075 -0.81959116 0.099947982 -0.56416374 0.0028447562
-0.012794733 -0.011381853 0.029202664 -0.84373087 0.31730109 -0.43294153 0.0030127068
-0.01179192 -0.010544125 0.027804656 -0.86345881 0.24908958 -0.4386265 0.0041149911
-0.010901211 -0.0076782033 0.028073536 -0.88133955 0.34270415 -0.32526067 0.0030465315
-0.0098527512 -0.0052187927 0.02842691 -0.86148721 0.42957446 -0.27074993 0.0016525914
-0.0089632059 -0.0039000604 0.027618004 -0.86573935 0.45901856 -0.19949266 0.0011807538
-0.0078811273 -0.0018937979 0.027940439 -0.86477906 0.47255751 -0.16984263 0.0014442678
