# .PCD v0.7 - Point Cloud Data file format
VERSION 0.7
FIELDS x y z normal_x normal_y normal_z curvature
SIZE 4 4 4 4 4 4 4
TYPE F F F F F F F
COUNT 1 1 1 1 1 1 1
WIDTH 555
HEIGHT 1
VIEWPOINT 0 0 0 1 0 0 0
POINTS 555
DATA ascii
0.0008824321 -0.034340497 -0.03009665 0.58576596 -0.17481761 -0.79140198 0.0099142622
-0.034915 -0.029807407 -0.032069542 -0.67749125 0.70011806 -0.22547801 0.00054435828
-0.00097923703 -0.030858744 -0.031802882 0.55669093 -0.17193587 -0.81273198 0.0017785694
0.00097328867 -0.030482903 -0.030350909 0.58289951 -0.15060414 -0.79846513 0.0025229636
-0.03360777 -0.028499031 -0.032008145 -0.66269219 0.71672606 -0.21712388 0.00028937164
-0.032120332 -0.027001847 -0.031475566 -0.65437251 0.73126584 -0.1924758 0.00069268572
-0.00068524014 -0.027985161 -0.032190401 0.55723596 -0.093602479 -0.82506156 0.0014520856
0.0015149687 -0.027671648 -0.030696385 0.58998907 -0.14280297 -0.79468238 0.0018736044
-0.030541852 -0.025489567 -0.031117149 -0.63343817 0.74504137 -0.20897241 0.00089372607
-0.028787529 -0.024205625 -0.032126464 -0.60862797 0.7528041 -0.25071496 0.0027602324
-0.00065265782 -0.024912693 -0.032253761 0.51050615 0.033644203 -0.85921568 0.0010410302
0.0016787082 -0.024876582 -0.03081201 0.54917908 -0.0009749388 -0.83570415 0.0018658208
-0.027315898 -0.022777647 -0.031273708 -0.60664946 0.75725061 -0.24196674 0.0020369303
-0.025390211 -0.021418735 -0.031606276 -0.56279165 0.77302653 -0.29273793 0.0015762994
-0.02350096 -0.020589296 -0.032769419 -0.51562357 0.77116537 -0.37341166 0.0039301128
-0.0029799992 -0.020809133 -0.032736637 0.34441984 0.24630751 -0.90592915 0.0023472216
-0.0010968749 -0.021843143 -0.032104984 0.46563479 0.15341415 -0.8715781 0.00098998554
0.001679044 -0.02205712 -0.03063228 0.50237066 0.1234258 -0.85579771 0.0017789602
-0.024294948 -0.020256449 -0.030529745 -0.54129308 0.80312914 -0.24896836 0.0031487837
-0.022164248 -0.019150764 -0.031416479 -0.51209033 0.78794974 -0.34190467 0.0025932004
-0.019557474 -0.017946975 -0.031976517 -0.37770262 0.79721856 -0.47093862 0.0070838267
-0.017386025 -0.017530981 -0.032818355 -0.20130944 0.71709102 -0.66727424 0.0055255303
-0.0063642887 -0.017643869 -0.03272415 0.19454165 0.47630933 -0.85748643 0.0022218514
-0.0039735427 -0.018539859 -0.032332283 0.29187709 0.37692401 -0.87905401 0.0015376627
-0.0012398683 -0.018902261 -0.03137568 0.39101487 0.28274304 -0.87587887 0.00041538349
0.0011698247 -0.019184954 -0.030311845 0.45016712 0.25180709 -0.85670459 0.0012094069
-0.018658509 -0.016800651 -0.030811641 -0.40696248 0.7922985 -0.45458171 0.0037718713
-0.016062031 -0.015997486 -0.031374097 -0.2670058 0.78254068 -0.56243932 0.0027973989
-0.013157535 -0.015435536 -0.03166306 -0.11265334 0.70825285 -0.69691259 0.0031135839
-0.010193533 -0.01551856 -0.031953886 0.0036074934 0.62615532 -0.77969003 0.0022230798
-0.0073184809 -0.015763061 -0.031824909 0.118829 0.55388457 -0.8240701 0.0018043867
-0.0043095611 -0.015841937 -0.031180438 0.22909157 0.47956619 -0.84707338 0.0012230591
-0.0015215996 -0.016196057 -0.030411974 0.32774991 0.40010944 -0.85585773 0.0016630921
0.00051024603 -0.016986456 -0.029932939 0.39740896 0.37000459 -0.83973968 0.0012542611
-0.012671814 -0.01397403 -0.030189469 -0.23759231 0.75137055 -0.61562335 0.0047356407
-0.010184946 -0.013700832 -0.030384406 -0.070085548 0.70139724 -0.70931649 0.0046171122
-0.0073952666 -0.013676022 -0.030351747 0.066165313 0.62968397 -0.7740286 0.0029652382
-0.0046534166 -0.013903312 -0.030107178 0.19923617 0.54614878 -0.81365007 0.0019304266
-0.016432747 -0.048685294 -0.029571421 0.35163757 -0.89492989 -0.27468422 0.00050345418
-0.013744026 -0.047812179 -0.028862804 0.41743442 -0.87202752 -0.25557068 0.00081444072
-0.012283924 -0.047255237 -0.028588422 0.43059149 -0.86457241 -0.25904709 0.00090647396
-0.0099821715 -0.046089586 -0.028490659 0.46981984 -0.84643209 -0.25064301 0.00044707424
-0.007703959 -0.044827282 -0.02818881 0.51362067 -0.80998838 -0.28304169 0.0017422565
-0.0066168597 -0.043841854 -0.02889258 0.55075628 -0.77686638 -0.30519849 0.0009397525
-0.0044956729 -0.0424737 -0.028177649 0.60706121 -0.71561474 -0.34550285 0.0010351099
-0.0031621919 -0.040884674 -0.029083468 0.63787472 -0.68304062 -0.35576862 0.0012159335
-0.0014527456 -0.039580755 -0.028368913 0.64706302 -0.64033729 -0.41385701 0.0040446888
-0.00010704319 -0.037582971 -0.029220112 0.69747967 -0.44056615 -0.56517577 0.0235506
0.0015026059 -0.03652022 -0.028256018 0.67188627 -0.53734261 -0.5097369 0.0062711728
0.002129561 -0.033728108 -0.02918293 0.57076752 -0.18131451 -0.800843 0.0083773071
0.0041486714 -0.033517644 -0.027735956 0.67803627 -0.33157974 -0.65598917 0.010762096
0.0023754903 -0.031113058 -0.028951228 0.59964085 -0.11706325 -0.7916609 0.0015982244
0.0046353955 -0.031037223 -0.02761814 0.63464981 -0.18627299 -0.75001472 0.0093562892
0.0029308565 -0.028119357 -0.029463314 0.6255849 -0.15360583 -0.76488483 0.0018798213
0.0045678485 -0.02777067 -0.028090719 0.6378603 -0.14019154 -0.75728494 0.0025667506
-0.029244514 -0.024078745 -0.028894909 -0.62599403 0.75260907 -0.20423304 0.00079607358
0.0031491865 -0.025569785 -0.029772617 0.59237891 -0.043572731 -0.80448037 0.0015189658
0.0049236445 -0.024769193 -0.028390303 0.63712299 -0.086301446 -0.76591527 0.0021549163
0.006707645 -0.024187397 -0.026942961 0.67232138 -0.10944512 -0.73212415 0.0011668844
-0.025709456 -0.020986814 -0.029029272 -0.60266721 0.77320313 -0.19735546 0.0015825023
0.0031497309 -0.021615952 -0.029671688 0.55647647 0.088011995 -0.82618868 0.0014092305
0.0049823746 -0.021797448 -0.028381541 0.59049392 0.06594836 -0.80434304 0.0015642105
0.0067065116 -0.021747248 -0.027023835 0.64902508 0.026504811 -0.76030511 0.0024426607
-0.02464531 -0.020059183 -0.028439671 -0.58310556 0.78414327 -0.21238472 0.0011734511
-0.022377051 -0.018333666 -0.028656013 -0.56017494 0.79133898 -0.24492176 0.0026231783
0.0025771798 -0.018719912 -0.029397532 0.49140036 0.21756288 -0.84332204 0.001107107
0.0048380764 -0.018986251 -0.028064478 0.56373936 0.17135102 -0.80798316 0.00076704501
0.0067088893 -0.019762252 -0.026854105 0.59860224 0.15459843 -0.78598636 0.0016711471
-0.02112777 -0.017273832 -0.028193511 -0.56036943 0.78610539 -0.26081493 0.0023826563
-0.019266248 -0.016105024 -0.028445646 -0.49949905 0.80620641 -0.31706753 0.0031653468
-0.016771715 -0.014822648 -0.028876681 -0.39782318 0.81798756 -0.41549134 0.0070126066
-0.0005589521 -0.015084922 -0.029506527 0.3246544 0.39741197 -0.85829091 0.0015758753
0.0018888887 -0.015881103 -0.028769348 0.43597195 0.32332906 -0.83987314 0.0011674833
0.0044613713 -0.016195446 -0.027476896 0.47674924 0.31168777 -0.82192504 0.0010857689
-0.015763246 -0.013893539 -0.028023317 -0.45540816 0.81052732 -0.36830539 0.0051035243
-0.013129428 -0.012866741 -0.02837668 -0.32424128 0.80658346 -0.49425781 0.0039313808
-0.010119676 -0.012218286 -0.028757755 -0.13550441 0.74713409 -0.6507144 0.0031872527
-0.0072018094 -0.01217289 -0.029046394 -0.0020100316 0.70179522 -0.71237594 0.0026797191
-0.0042309696 -0.012477512 -0.029001929 0.11565605 0.61324561 -0.78137916 0.0018342808
-0.0012555497 -0.01284824 -0.02851003 0.2342629 0.52659684 -0.81720054 0.001355077
0.0016137075 -0.013142526 -0.027580306 0.33567417 0.46596482 -0.81865722 0.00095734349
0.0037542044 -0.014070747 -0.02706014 0.43367702 0.36898687 -0.82205409 0.0027195322
-0.0096706199 -0.010965538 -0.027305244 -0.25444895 0.78609443 -0.56330383 0.0039582988
-0.0071664704 -0.010690523 -0.027560633 -0.083207749 0.73521733 -0.67270494 0.0047630481
-0.0043569459 -0.010664918 -0.02754448 0.062267922 0.66691446 -0.74252802 0.0037814234
-0.001579028 -0.010830429 -0.027223043 0.19221033 0.59601289 -0.77963054 0.0024606984
0.00050692167 -0.011123974 -0.026848055 0.29401484 0.5471639 -0.78368801 0.0032172587
-0.011019652 -0.047039602 -0.026556708 0.46244305 -0.85129273 -0.24788545 0.00040797997
-0.0071572717 -0.045137599 -0.025678977 0.53108531 -0.82146668 -0.20770405 0.00064669456
-0.004160109 -0.043146536 -0.025602851 0.59024698 -0.76718771 -0.25106093 0.00057503505
-0.0022765805 -0.041877259 -0.024953403 0.61594212 -0.74050933 -0.26881438 0.00090223859
-0.00075198314 -0.040238027 -0.02581775 0.64184618 -0.70156872 -0.30957198 0.0013702618
0.00080199819 -0.039024755 -0.025326056 0.64915574 -0.68249422 -0.33585492 0.0010868625
0.0022529543 -0.037318122 -0.025859145 0.66851395 -0.6536864 -0.35465926 0.00066906825
0.0039155409 -0.035923976 -0.025184322 0.68776608 -0.61314124 -0.38863316 0.00096446485
0.0051846588 -0.034129754 -0.025598697 0.71440172 -0.49329019 -0.49628112 0.010841819
0.0065473886 -0.032990254 -0.024774257 0.71902192 -0.45798147 -0.52274328 0.0081152329
0.0061022351 -0.030574264 -0.02665906 0.646873 -0.178131 -0.74150163 0.0099232541
0.0076357247 -0.030616267 -0.025338396 0.69432169 -0.25722122 -0.67212689 0.013500214
0.0094288485 -0.029492203 -0.023827113 0.73476934 -0.23439467 -0.63653219 0.016622577
0.0059370184 -0.028142247 -0.026574556 0.65114695 -0.097674884 -0.75264031 0.0017863717
0.0076526767 -0.028028395 -0.025272449 0.65321231 -0.014219621 -0.75704128 0.0039246157
0.009550957 -0.028072627 -0.024090018 0.74013597 -0.14544711 -0.65653932 0.017292198
0.0079305721 -0.024971047 -0.0254866 0.67660809 -0.10075188 -0.72941798 0.0045265281
0.0094237309 -0.024123464 -0.024077047 0.71709692 -0.056265764 -0.69469857 0.0040238472
0.0080570346 -0.021808237 -0.025796384 0.68449098 -0.023094801 -0.7286554 0.0011297633
0.0096258437 -0.021781491 -0.024260564 0.70887119 -0.050455831 -0.70353103 0.00096907152
-0.024325505 -0.019558448 -0.0264538 -0.58838713 0.78568119 -0.1910648 0.0006769335
0.0062667001 -0.017771248 -0.02679161 0.58463067 0.16900021 -0.79350233 0.0010334175
0.0079421364 -0.018715262 -0.025686935 0.62733829 0.11535172 -0.77015632 0.0024050216
0.0096436394 -0.018764876 -0.024229197 0.67906404 0.056548849 -0.73189765 0.0019596219
-0.02125483 -0.016921051 -0.025825538 -0.56618428 0.79158598 -0.2298412 0.0013082613
-0.019266658 -0.015373709 -0.025637252 -0.53300244 0.81214386 -0.23734093 0.00064820942
0.0056903055 -0.015666898 -0.026536308 0.53738016 0.25733152 -0.80312079 0.0013284497
0.0076537002 -0.015862437 -0.025259739 0.56607586 0.24021235 -0.78857863 0.0018855667
0.0094239647 -0.01631882 -0.024065636 0.6132828 0.18874459 -0.76698095 0.0015786462
-0.018217027 -0.014304418 -0.024305977 -0.55580306 0.80661291 -0.20114337 0.0011518891
-0.016108023 -0.013136747 -0.025556941 -0.50725007 0.8132453 -0.28518301 0.0022885185
-0.013703693 -0.011837152 -0.025896164 -0.43278936 0.83729601 -0.33410895 0.0038950231
0.0026026287 -0.011978187 -0.026514497 0.33346993 0.46252307 -0.82150483 0.00087085826
0.0047989534 -0.012831376 -0.025876509 0.45767218 0.36350635 -0.811418 0.0011890326
0.0072631845 -0.01318823 -0.024580007 0.505844 0.33193418 -0.79620451 0.0016461627
-0.012595535 -0.010918401 -0.025083043 -0.43401682 0.83017707 -0.34990755 0.0035710151
-0.010131559 -0.0099389786 -0.025394019 -0.32824576 0.82406634 -0.46170273 0.0037527012
-0.0073140245 -0.0091963122 -0.025662586 -0.20247857 0.80072463 -0.56377518 0.0068175672
-0.0043762531 -0.0091445586 -0.026067227 -0.0020739119 0.70796895 -0.70624053 0.0024831495
-0.0011429217 -0.0093936566 -0.025963459 0.12998614 0.63947397 -0.75774437 0.0017843224
0.0018673718 -0.0097950203 -0.02542568 0.25912467 0.56982166 -0.77984464 0.0014293103
0.0045427782 -0.010171775 -0.024555655 0.3695491 0.48087886 -0.79510313 0.002140332
0.0064499117 -0.011039946 -0.024120588 0.44109705 0.41594461 -0.79525054 0.00036782675
-0.0064382395 -0.0079378206 -0.024228837 -0.26675561 0.80593824 -0.52849311 0.0037165927
-0.0040399376 -0.0077040717 -0.024506465 -0.08271154 0.75958055 -0.64513266 0.0043815193
-0.0012780862 -0.0076165535 -0.024399847 0.07456819 0.69996786 -0.71027076 0.0034789552
0.0014406999 -0.0078885872 -0.024120368 0.21644616 0.61821342 -0.75562102 0.002348467
-0.0037449973 -0.0434114 -0.022984006 0.58743739 -0.78050816 -0.21383232 0.0005413678
-0.0015124256 -0.041889045 -0.022551976 0.62031913 -0.75712949 -0.20483918 0.00052341726
-0.00039132242 -0.040971745 -0.022774361 0.6231702 -0.75466216 -0.20528977 0.0005387722
0.0017339371 -0.039269622 -0.022433568 0.64145118 -0.73266113 -0.22748187 0.0009038237
0.0030371307 -0.037900805 -0.022937892 0.66129017 -0.70771694 -0.24866046 0.00099327357
0.004575626 -0.036510933 -0.022623232 0.68552011 -0.67028576 -0.28421682 0.0013116294
0.0056431377 -0.035123911 -0.023169257 0.70937431 -0.63358563 -0.30879959 0.00069499348
0.0072209127 -0.033695862 -0.02230425 0.7390129 -0.57523298 -0.35066631 0.0015220729
0.0086567048 -0.031558324 -0.022695659 0.78072423 -0.50564945 -0.36713529 0.0033725037
0.0098132938 -0.030308139 -0.022083994 0.7820437 -0.48869628 -0.38676038 0.003455797
0.0089845126 -0.026374374 -0.023727931 0.72188264 -0.093790315 -0.68563026 0.0099898037
0.010756036 -0.027510975 -0.02265108 0.77245396 -0.14077309 -0.61927205 0.014608416
0.010895502 -0.024929011 -0.022366134 0.71645004 -0.037251726 -0.69664317 0.0062524448
0.012629522 -0.025186203 -0.021083793 0.77608371 -0.12214106 -0.6186887 0.0089865122
0.011168837 -0.021931835 -0.022506356 0.72365028 -0.057965469 -0.68772835 0.0026335728
0.012631423 -0.020921949 -0.02101595 0.77072132 -0.036461487 -0.63612825 0.0037889278
0.011242859 -0.01882942 -0.02269811 0.70943516 0.014610386 -0.70461923 0.00098112947
0.012624727 -0.018890154 -0.021254949 0.72884607 -0.026486114 -0.684165 0.0013239832
0.010994609 -0.015765594 -0.022601234 0.64044392 0.1454774 -0.75410068 0.0026335486
0.012627752 -0.015750304 -0.021146949 0.6836074 0.087975502 -0.72452831 0.0023707242
-0.017800501 -0.01387817 -0.023660399 -0.55765861 0.80398774 -0.20644785 0.0011967429
-0.016235203 -0.012566022 -0.022653256 -0.54541451 0.81427526 -0.19869284 0.0016446076
-0.014672883 -0.011644308 -0.023727931 -0.5454163 0.81427175 -0.19870242 0.0016404063
0.0085757058 -0.012417274 -0.023426928 0.5379954 0.28995746 -0.79150838 0.0011093064
0.010686943 -0.012986764 -0.022132631 0.59467942 0.23619653 -0.768484 0.00069640967
0.012635997 -0.013962869 -0.020852722 0.65534902 0.18508136 -0.73229945 0.001992096
-0.014752981 -0.011248279 -0.021604158 -0.55454427 0.8049078 -0.21119705 0.0011849962
-0.013090085 -0.010330429 -0.022544861 -0.49571359 0.82736301 -0.26408052 0.0018875943
-0.010480811 -0.0088621322 -0.022740589 -0.43485948 0.83537328 -0.33622709 0.0052264407
0.0052947858 -0.0089302314 -0.023461986 0.32008928 0.52674079 -0.78745604 0.0013429766
0.0077407062 -0.009801209 -0.022701209 0.41781491 0.43753061 -0.79623979 0.0015107193
0.010142208 -0.010192385 -0.021443475 0.50273567 0.36458844 -0.78379345 0.0011780303
-0.0094363866 -0.0079529695 -0.021924529 -0.41166458 0.82393903 -0.3894313 0.0027951489
-0.0070755016 -0.0070556295 -0.02235572 -0.3443132 0.82424361 -0.449523 0.0044748452
-0.0042326991 -0.0062322263 -0.022524513 -0.15110302 0.7986787 -0.58247763 0.0029248537
-0.001287039 -0.0060748244 -0.022776216 0.0093550561 0.74472886 -0.6673016 0.0024423203
0.001948192 -0.0064476705 -0.022741226 0.16391803 0.64966029 -0.74234247 0.0037237653
0.0047310302 -0.0067853192 -0.022210848 0.25717184 0.59223157 -0.7636258 0.0012363549
0.0073497444 -0.007344706 -0.021482024 0.3724404 0.49946907 -0.78218848 0.0022761065
0.0094894283 -0.0081195869 -0.020868249 0.42626148 0.45274028 -0.78315222 0.0012655403
-0.0033180474 -0.0049719177 -0.02104754 -0.27005923 0.80179489 -0.53309768 0.0042607221
-0.0011080413 -0.004782673 -0.021283127 -0.070901006 0.76762289 -0.63696796 0.0046663904
0.0017445667 -0.0047629923 -0.021227777 0.073181748 0.70725107 -0.70316452 0.0034807438
0.0040951492 -0.0049723275 -0.020998497 0.23271215 0.62857878 -0.74211437 0.0024352886
-0.00040067011 -0.041445542 -0.020171352 0.62208426 -0.76392573 -0.1715479 0.0003063363
0.0014006279 -0.040138278 -0.019703723 0.64243078 -0.74440956 -0.18203612 0.00035619494
0.0036568257 -0.038372193 -0.019288309 0.65496171 -0.73756856 -0.16437122 0.0004880873
0.0050023496 -0.036950413 -0.020092253 0.6928364 -0.69404876 -0.19563766 0.00096607185
0.0063508684 -0.035583843 -0.020282604 0.7063148 -0.67694908 -0.20702484 0.00055185769
0.0081602158 -0.033710051 -0.019776344 0.74610281 -0.6214276 -0.23907802 0.001539208
0.0095376344 -0.032564823 -0.018513776 0.74074256 -0.62865031 -0.23685281 0.0014755225
0.010609893 -0.030732224 -0.019402627 0.79010642 -0.52048141 -0.32377619 0.00232917
0.01195732 -0.028477855 -0.019811438 0.8241604 -0.44861391 -0.34569508 0.0031949538
0.012963562 -0.027153103 -0.019241203 0.82530648 -0.37612158 -0.42119095 0.014867014
0.012189355 -0.023631927 -0.020747937 0.73006922 -0.10820431 -0.67475247 0.0055893962
0.013784208 -0.024534751 -0.019601217 0.78488517 -0.15568747 -0.59976375 0.010378246
0.013874457 -0.021943292 -0.01931743 0.75294846 -0.032796554 -0.65726167 0.0048871147
0.015429708 -0.022418782 -0.018041864 0.79999584 -0.12712036 -0.58638465 0.0086823897
0.013996243 -0.018917445 -0.019662231 0.75652379 -0.070778698 -0.65012467 0.0015636794
0.015430425 -0.018347383 -0.018021084 0.7762984 -0.050712489 -0.62832236 0.0029694557
0.014018596 -0.015797278 -0.019790255 0.7121284 0.021745201 -0.70171237 0.0011055375
0.015614896 -0.015665652 -0.018141385 0.73804849 -0.020051744 -0.67444974 0.0016827927
-0.016586114 -0.012618918 -0.020687737 -0.55762595 0.80843192 -0.18839087 0.0010757694
0.012191619 -0.011945028 -0.020663865 0.60413611 0.20226194 -0.77078515 0.0017371749
0.013832972 -0.012842502 -0.019553274 0.64315802 0.16880029 -0.74689645 0.0025538732
0.01554205 -0.013141949 -0.018066108 0.69824165 0.095222399 -0.70950073 0.0020023629
-0.013025366 -0.0096726958 -0.019606687 -0.56011844 0.8107937 -0.16994356 0.0012254121
-0.011434768 -0.0085833035 -0.02004113 -0.55305713 0.81317115 -0.18132961 0.0015874379
0.011565308 -0.0096294945 -0.020253379 0.54454285 0.31144992 -0.77876318 0.0011003281
0.013714508 -0.010064848 -0.01886934 0.60574406 0.25111324 -0.75499427 0.00095084647
0.015436796 -0.011337612 -0.01783631 0.65974665 0.13818517 -0.73867399 0.00084163091
-0.0098751169 -0.0073639136 -0.019396113 -0.52783704 0.81003845 -0.25539345 0.0027287125
-0.0072940141 -0.0058856485 -0.019609725 -0.46864954 0.82871038 -0.30595222 0.0014709565
-0.0053452821 -0.0054247864 -0.020673193 -0.28504971 0.83750695 -0.46618527 0.0018753461
0.0058945986 -0.0054235198 -0.020804979 0.23901013 0.60495108 -0.75954491 0.0016708315
0.0081103574 -0.006062346 -0.020298325 0.33207181 0.54254395 -0.77160507 0.0014862816
0.010876072 -0.0067906869 -0.01929323 0.45190278 0.43254918 -0.78018278 0.00061744539
0.013161746 -0.0075008781 -0.018236689 0.50508088 0.38517538 -0.77235562 0.0011591974
-0.0061654625 -0.0048789009 -0.018724449 -0.43086037 0.82650149 -0.36229089 0.0025133363
-0.0041846689 -0.0042556967 -0.019303299 -0.29706597 0.82729822 -0.4767909 0.0026050399
-0.0013358721 -0.0035070288 -0.019519225 -0.13669533 0.80163085 -0.58198136 0.0030350466
0.0018976287 -0.003443561 -0.019825594 0.01258154 0.73492318 -0.67803359 0.001930908
0.0048425477 -0.0037532542 -0.019701863 0.14413844 0.6712501 -0.72708148 0.0017516039
0.0076665813 -0.0039165928 -0.018962916 0.26759917 0.60815233 -0.7473563 0.0012380031
0.010189043 -0.0044788318 -0.01826364 0.35547426 0.53727663 -0.76483452 0.0012418845
-0.00040747714 -0.0022827275 -0.018102247 -0.24507959 0.81197637 -0.52974558 0.0044471603
0.0019587532 -0.0020735222 -0.01825765 -0.057882793 0.77272236 -0.63209957 0.0039191982
0.0046139248 -0.0021015173 -0.018186545 0.092170849 0.71842009 -0.68947595 0.0028837658
0.00660716 -0.002283033 -0.017964609 0.24632354 0.6457392 -0.72273481 0.002119784
0.0032140322 -0.038962025 -0.017737426 0.654975 -0.73755354 -0.16438527 0.00050177297
0.0070829755 -0.035680827 -0.016330861 0.7001425 -0.69111258 -0.17934319 0.00083587691
0.0084410394 -0.034291547 -0.016656138 0.73478597 -0.64758748 -0.20179214 0.0005896081
0.0098326122 -0.033035841 -0.0152395 0.7488429 -0.63983536 -0.17275681 0.00042115044
0.0112963 -0.030873023 -0.016853318 0.78161919 -0.58129233 -0.22620913 0.0011995563
0.012316584 -0.029795054 -0.016025193 0.79210454 -0.56729108 -0.22528046 0.00088419823
0.013671667 -0.027683038 -0.016340598 0.82076591 -0.50097764 -0.27452627 0.0030000885
0.014749012 -0.025706911 -0.016735038 0.84773684 -0.37358862 -0.37652865 0.013077212
0.01577731 -0.024158301 -0.016212244 0.83041751 -0.30285016 -0.46764141 0.014194214
0.014985803 -0.020846982 -0.017784752 0.78216064 -0.074949563 -0.61855263 0.0055092289
0.016499676 -0.021498669 -0.016561056 0.81959426 -0.12131615 -0.55995315 0.0053732879
0.016739693 -0.018954791 -0.01622613 0.80426162 -0.097457297 -0.5862298 0.0053413645
0.017114468 -0.015902627 -0.016333103 0.77496487 -0.057585154 -0.62937534 0.0008585552
0.017187241 -0.012747673 -0.016347788 0.71173686 0.087530583 -0.6969713 0.001952071
-0.012428021 -0.0088603757 -0.017110981 -0.60713178 0.78523242 -0.12165982 0.00032048114
0.0148786 -0.0089649707 -0.017605223 0.58154625 0.27203721 -0.76668096 0.0020421359
0.016681708 -0.0099070845 -0.01636078 0.66556972 0.19087216 -0.7215156 0.00054113712
0.018273635 -0.010039721 -0.014892318 0.71222901 0.15075262 -0.68556798 0.0015223176
-0.011795213 -0.0082056411 -0.015545228 -0.58550358 0.79710388 -0.14768581 0.0015088971
-0.0097139552 -0.0065959953 -0.016815886 -0.57487476 0.80286634 -0.15787508 0.0020258171
-0.0084332498 -0.005615104 -0.016625632 -0.57880533 0.79448193 -0.18380094 0.0024023498
0.01226887 -0.0054526962 -0.017796375 0.45494846 0.43958101 -0.77446139 0.0028094184
0.014181542 -0.0065072509 -0.017061526 0.53373629 0.36036867 -0.76502287 0.00041132464
0.016314145 -0.0070497179 -0.015722124 0.61270654 0.28731799 -0.73623306 0.00078484922
-0.006774093 -0.0043926532 -0.016337775 -0.50585783 0.81209099 -0.29088828 0.0013868554
-0.0044238735 -0.0030803545 -0.016590856 -0.46606782 0.8270365 -0.31431106 0.0022174504
-0.0026733889 -0.0027366318 -0.017651059 -0.30315241 0.81921458 -0.48681211 0.0021249733
0.0088765724 -0.0027367137 -0.017619468 0.2569848 0.60059375 -0.75713015 0.000957896
0.011008006 -0.0034797154 -0.017175891 0.35102952 0.54329926 -0.76262981 0.0015966587
0.013587485 -0.0039534611 -0.01605285 0.44897497 0.48297623 -0.75176829 0.0011366395
0.015644604 -0.0046812147 -0.01511372 0.52809429 0.41391599 -0.7414782 0.0010579899
-0.003486678 -0.0021740571 -0.015701562 -0.41438332 0.82591659 -0.38229346 0.0023294063
-0.0012494964 -0.0014860854 -0.016311524 -0.28002918 0.82333559 -0.49366209 0.0024615142
0.0018999514 -0.00059178425 -0.016290603 -0.15508755 0.812967 -0.56127751 0.004821884
0.0048669679 -0.00055342354 -0.016492821 -0.009278167 0.75519848 -0.65543044 0.0038600336
0.0077846926 -0.00089232111 -0.016348114 0.17061347 0.6809597 -0.71216923 0.0011205563
0.01060966 -0.0013467483 -0.015792757 0.33516502 0.57592112 -0.74564016 0.0012657602
0.012851492 -0.0020041857 -0.015200344 0.41929075 0.52203429 -0.74274862 0.00087367382
0.0052813105 0.0009018071 -0.014846147 -0.030921174 0.76883757 -0.63869607 0.0039678351
0.012835029 -0.029719282 -0.013748803 0.79944682 -0.56189972 -0.2124934 0.00082991534
0.014213464 -0.027906267 -0.01351225 0.81806928 -0.53509271 -0.21080431 0.00028105453
0.016415365 -0.024778437 -0.013077436 0.8308816 -0.48934588 -0.26490819 0.0033899832
0.017554278 -0.022399649 -0.013864798 0.87807411 -0.34672371 -0.3298007 0.0089506796
0.018505611 -0.021147557 -0.012959429 0.84004712 -0.31950104 -0.43845171 0.0089298682
0.017823791 -0.018251751 -0.014740744 0.80195338 -0.12619127 -0.58390635 0.0032219561
0.01907781 -0.018640431 -0.013481824 0.82722044 -0.22284245 -0.51579803 0.0072925608
0.019319739 -0.015922312 -0.013321187 0.80697352 -0.10851157 -0.58053333 0.0022569001
0.019651061 -0.012744638 -0.013445636 0.79536742 -0.039323125 -0.60485077 0.00066362973
0.019584576 -0.009779444 -0.013384865 0.75151384 0.092185885 -0.65324473 0.0030323698
-0.010045098 -0.0064163245 -0.012747654 -0.62349272 0.76813591 -0.14568473 0.00045541479
0.01753228 -0.006321867 -0.014424047 0.6345911 0.26643813 -0.7254687 0.0013679435
0.019252101 -0.0069796275 -0.013055712 0.68665588 0.23299061 -0.68863559 0.0017890349
-0.0069574844 -0.0037958468 -0.013470607 -0.58980274 0.78220588 -0.2007156 0.0024280522
-0.0054458156 -0.0027483888 -0.014009275 -0.54126734 0.80013162 -0.25849363 0.0035910001
0.014939825 -0.0028984882 -0.014610418 0.51171535 0.42757395 -0.74520326 0.0013352003
0.016850259 -0.0037915073 -0.013739686 0.55992621 0.40441558 -0.72313952 0.0023992446
0.018803099 -0.0042602979 -0.012368055 0.6284498 0.34856185 -0.69538146 0.0011465416
-0.0041604722 -0.0016827188 -0.013308605 -0.51946253 0.80413699 -0.28900248 0.0029794034
-0.0013642559 -0.00014006905 -0.013553705 -0.43794936 0.8269881 -0.35254931 0.0023806358
0.00094974483 0.00044793542 -0.014369179 -0.27344123 0.83811426 -0.47201103 0.0047002267
0.0091581503 0.00044618174 -0.01477597 0.20643552 0.65444112 -0.72738653 0.0028723078
0.011067567 0.00014366116 -0.014393398 0.27081284 0.63248491 -0.72568816 0.0019652697
0.01391961 -0.00070781866 -0.013670029 0.38361844 0.56045586 -0.7339797 0.00098233495
0.016412592 -0.0013243863 -0.012558362 0.49911475 0.48350698 -0.71910048 0.0014786023
-0.00012012059 0.0010681115 -0.012382963 -0.44531748 0.78373522 -0.43295667 0.0036740303
0.0020438575 0.0014684834 -0.013211622 -0.27859372 0.82624924 -0.4895893 0.0045082592
0.0048395349 0.0020551924 -0.013323869 -0.15086734 0.80835003 -0.56904256 0.0028761246
0.0078131929 0.0020552464 -0.013361674 0.067741618 0.74301881 -0.66583335 0.0026418399
0.010720165 0.0018441435 -0.012961178 0.25718924 0.6530472 -0.71230817 0.0015561515
0.013270064 0.001343078 -0.012417661 0.36475497 0.59147948 -0.71910071 0.0010557558
0.015210225 -0.027138416 -0.011066594 0.81994796 -0.53115267 -0.21345329 0.00033306159
0.017393926 -0.024274865 -0.010120688 0.83510578 -0.51250082 -0.19985341 0.00046684011
0.017957732 -0.022982378 -0.011381366 0.84672421 -0.47268635 -0.24418381 0.0030789825
0.019017508 -0.021658251 -0.010232678 0.85702837 -0.44585097 -0.25830072 0.0023460865
0.020465877 -0.018800396 -0.01044997 0.87640566 -0.38401017 -0.2906017 0.0033342929
0.021286441 -0.018016834 -0.0090399766 0.86312145 -0.39986634 -0.3084287 0.00320802
0.020957951 -0.015866255 -0.011121664 0.8591333 -0.14444025 -0.49094501 0.0027893714
0.021872642 -0.015685534 -0.0096578812 0.86894822 -0.21631315 -0.4451265 0.0050247232
0.021076987 -0.013127329 -0.011304691 0.83005208 -0.060713921 -0.55437112 0.0010595998
0.02202672 -0.012766786 -0.0098536434 0.85842228 -0.094764099 -0.50411403 0.0014391009
0.021169618 -0.0098792203 -0.011503849 0.79233259 0.040301297 -0.60875684 0.0020563169
0.022161936 -0.0099085979 -0.010037518 0.8332321 -0.0053857327 -0.55289716 0.0017609721
0.020877143 -0.0066506085 -0.011210967 0.75224024 0.18042888 -0.63370353 0.0016405063
0.022153083 -0.0069839461 -0.0097480584 0.79292995 0.12820934 -0.59567159 0.0028047415
-0.0073303683 -0.0036776131 -0.011036601 -0.63031965 0.7587325 -0.16438401 0.00035485296
0.020269347 -0.0037648487 -0.010730931 0.69898576 0.29447517 -0.65169251 0.00098707085
0.021794539 -0.0041492321 -0.0092851268 0.72802854 0.25792307 -0.63517725 0.002378711
-0.0059620906 -0.0022994764 -0.010332146 -0.59174186 0.77518338 -0.22120665 0.0009286399
-0.0039511621 -0.00066582672 -0.010393113 -0.58117247 0.78105932 -0.22844018 0.0014696725
-0.0020392067 0.00046146289 -0.011232295 -0.48468712 0.8143397 -0.31926349 0.0024064598
0.017392023 -0.00025645923 -0.011157152 0.49207857 0.50086296 -0.71203583 0.0010388577
0.019448156 -0.0011004489 -0.010040042 0.61187661 0.39358243 -0.68607575 0.00089035224
0.021288468 -0.0023023523 -0.0089971805 0.68005025 0.36439565 -0.63619769 0.0018497207
-0.00096474763 0.0014939755 -0.010287469 -0.4919371 0.80400592 -0.33402458 0.0038034928
0.0017164813 0.0027663941 -0.010676449 -0.33661324 0.81828856 -0.46593505 0.0024616253
0.0043955594 0.0032166056 -0.011586421 -0.16690136 0.80861717 -0.56416512 0.0026282154
0.011211477 0.0031402195 -0.011572434 0.18056811 0.7004236 -0.69050848 0.0016250199
0.014121392 0.0024734549 -0.011029179 0.34250614 0.61013281 -0.71444207 0.0025677849
0.016734365 0.0019254861 -0.0099923508 0.44986281 0.54459286 -0.70784324 0.001914416
0.018623658 0.0012791231 -0.0091656307 0.52549696 0.5061686 -0.68384665 0.0010990883
0.002719179 0.0038538883 -0.0095750578 -0.39721999 0.81176579 -0.42808011 0.0017586533
0.0049665831 0.0042861374 -0.010179305 -0.2227685 0.80307609 -0.55266893 0.0051837638
0.0078614363 0.0046134647 -0.010356305 -0.049374159 0.77906305 -0.62499839 0.0033321052
0.010862361 0.0046165977 -0.010120103 0.12674585 0.725115 -0.67686325 0.0028509875
0.013564791 0.0042485138 -0.0096764695 0.28215092 0.66839367 -0.68821561 0.0021454555
0.015740659 0.0038604802 -0.0090256613 0.399609 0.59954268 -0.69344151 0.00097176008
0.019983787 -0.021030568 -0.0071437345 0.85775411 -0.48490572 -0.1706586 0.00048105544
0.020899422 -0.019471604 -0.007417568 0.88376224 -0.40621117 -0.23228596 0.0050396468
0.021686628 -0.018090792 -0.0071325982 0.88314641 -0.40685201 -0.23350337 0.0048334789
0.022635149 -0.015873961 -0.0074997889 0.89403617 -0.29651055 -0.3358286 0.0049367622
0.023374677 -0.012887338 -0.0074188905 0.90012193 -0.15908882 -0.40555048 0.0059118243
0.023684304 -0.0099613341 -0.0074081453 0.88479084 -0.062966898 -0.4617146 0.0018305316
0.023634028 -0.00687999 -0.0075606597 0.85087597 0.062571779 -0.52162707 0.0024732884
0.023166232 -0.0038863635 -0.0074666613 0.77123451 0.222204 -0.5965088 0.00091243652
-0.0042910036 -0.00025131367 -0.0071208603 -0.6266861 0.75318462 -0.19994362 0.00143841
0.020591348 1.1046417e-05 -0.0083602285 0.59160179 0.44026998 -0.67540336 0.00094950473
0.022318203 -0.0010728315 -0.0071866289 0.69093889 0.35578924 -0.62929928 0.001543605
-0.002920121 0.0010990808 -0.0070077959 -0.63355356 0.74605709 -0.20496012 0.0018238868
-0.0011564668 0.0024412237 -0.0073809135 -0.61218315 0.74652404 -0.2606408 0.0015312432
0.00048703491 0.0032510273 -0.008393147 -0.53624135 0.77927554 -0.32430667 0.0024690325
0.017703163 0.0030650012 -0.0084835971 0.50035876 0.5292266 -0.68524468 0.00089969538
0.019832516 0.0021687848 -0.0075343382 0.57235122 0.45847434 -0.67986417 0.0013159564
0.021706376 0.0014712196 -0.0063176537 0.64669502 0.4291594 -0.63056147 0.0013238727
1.989142e-05 0.0037373118 -0.0064198161 -0.58676577 0.74204832 -0.32414517 0.0038139271
0.0019507746 0.0045815622 -0.0073551508 -0.49170759 0.78771037 -0.37112802 0.0014366073
0.0047021415 0.0058756769 -0.0075036115 -0.34927529 0.81298912 -0.46589223 0.003238206
0.007664457 0.0062633269 -0.0082055908 -0.10064138 0.78817284 -0.60716957 0.0025876581
0.010672401 0.006261182 -0.0083244909 0.072889134 0.74594849 -0.66200292 0.0023037472
0.013838341 0.0058459751 -0.0080120042 0.22595975 0.68910539 -0.68853176 0.0017173751
0.016728252 0.0051199766 -0.0073158075 0.36370257 0.6268459 -0.68904614 0.0010574014
0.019192705 0.0043098126 -0.0064311684 0.51997197 0.53584141 -0.66520911 0.00099408254
0.0057185451 0.0071128011 -0.0062150145 -0.36593184 0.79383975 -0.48570818 0.0032713923
0.0078042531 0.0073939934 -0.0067005334 -0.17195971 0.78880024 -0.59010506 0.0035333796
0.010726167 0.007530259 -0.0068370812 0.020692492 0.76045597 -0.64905971 0.0031014499
0.013619655 0.0073980559 -0.0064960578 0.19673666 0.70232701 -0.68412828 0.0023329861
0.015727805 0.0071165003 -0.0060247639 0.32313335 0.66214138 -0.67613143 0.00057230139
0.021530572 -0.019152094 -0.0038910294 0.88452429 -0.42684853 -0.18819457 0.0013942291
0.023480147 -0.015495882 -0.0041714516 0.89659315 -0.39068094 -0.20854031 0.0020625365
0.024248837 -0.013027329 -0.0055277729 0.91521442 -0.20944798 -0.34425876 0.003582899
0.024599377 -0.012782929 -0.0042238557 0.92693204 -0.18881328 -0.32426298 0.0033670976
0.025123166 -0.0097260252 -0.0043423679 0.92145836 -0.11094587 -0.37229753 0.0029532802
0.02520097 -0.006832242 -0.0047436003 0.89113444 0.0061204685 -0.4536981 0.0026841285
0.024239233 -0.0030080788 -0.0057059908 0.80074972 0.18110944 -0.57096344 0.002194349
0.025246983 -0.0039473064 -0.0043581212 0.86842406 0.1114291 -0.48313892 0.0026271781
-0.0041984459 0.00049425289 -0.0036201859 -0.69161665 0.70565009 -0.15402712 0.0010340058
0.02366779 -0.00053002592 -0.0053017358 0.74056667 0.29872033 -0.60193616 0.0017184702
0.024905542 -0.0010330505 -0.003857878 0.80527747 0.24446869 -0.54015124 0.0026732497
-0.0032561854 0.0014260178 -0.0042698369 -0.67248213 0.71655744 -0.18523823 0.0008615249
-0.0016188091 0.0029412173 -0.0046223709 -0.68611091 0.69885164 -0.20213386 0.0011121529
0.020975685 0.0032792799 -0.0057717348 0.58738637 0.48325956 -0.64918214 0.000730214
0.022884853 0.0022723796 -0.0045344275 0.67894995 0.41144368 -0.6080634 0.0026029826
0.024491495 0.0013159998 -0.0031993845 0.7393617 0.34545705 -0.57793057 0.0017476379
-0.00035782671 0.0041333996 -0.0045461738 -0.63596994 0.72346443 -0.26859149 0.0021564045
0.0016038173 0.0057234401 -0.0044369525 -0.56421936 0.75957304 -0.32358205 0.0018003845
0.0035136857 0.0065469481 -0.0053542191 -0.49131775 0.77395362 -0.39950305 0.0022949127
0.017842798 0.0064277649 -0.0055017555 0.4030087 0.58876508 -0.7006709 0.0023869437
0.020125784 0.0055299606 -0.004667501 0.52772349 0.54705501 -0.64979905 0.0023143687
0.022140011 0.004602544 -0.0036580032 0.63141751 0.45833418 -0.62549323 0.0012718808
0.0028223514 0.007048022 -0.0035527134 -0.5110507 0.75188398 -0.41653049 0.0016911152
0.0048649097 0.0079531316 -0.0041337744 -0.40459287 0.80200499 -0.43942302 0.0033833687
0.0076269116 0.0088022724 -0.0046259947 -0.19202235 0.79615432 -0.57381684 0.0024346747
0.010719824 0.008932475 -0.0051335432 -0.017967995 0.78122956 -0.62398529 0.0022422601
0.013875539 0.008794954 -0.0049308669 0.14779687 0.72401559 -0.67376363 0.0017380964
0.016807657 0.0082282573 -0.0043912502 0.30028805 0.67015219 -0.67876589 0.0013929885
0.019272923 0.0076746028 -0.0034520747 0.45863068 0.59305274 -0.66177517 0.0023094031
0.0083668306 0.01002099 -0.0032411106 -0.25080958 0.79567969 -0.55135125 0.0022473233
0.010936778 0.010247726 -0.0035301549 -0.062974244 0.76913762 -0.63597298 0.002941001
0.013692715 0.010194488 -0.0034329016 0.12064052 0.7481004 -0.65252703 0.0024462752
0.015828703 0.0099862739 -0.0030743713 0.28331393 0.68537015 -0.67082113 0.001633791
0.025240652 -0.012348229 -0.0016630972 0.93527478 -0.239503 -0.26057521 0.001465939
0.0260593 -0.0095681734 -0.0018366063 0.94111788 -0.1551473 -0.30037713 0.0012186277
0.026563708 -0.0066804462 -0.0014590817 0.93547165 -0.076776765 -0.34496108 0.0017858299
0.02656539 -0.0039627454 -0.0017933082 0.92056793 0.014807631 -0.39030164 0.0033425235
0.02630719 -0.0006833435 -0.0014297152 0.86727369 0.16443348 -0.46989149 0.002857466
-0.0030466798 0.0021481328 -0.001644277 -0.72824383 0.66669232 -0.15868914 0.0011435215
-0.0021846811 0.0031670397 -0.0016668625 -0.72293615 0.67072612 -0.1658005 0.0012251599
0.023933144 0.003312584 -0.0026815319 0.70166886 0.37853438 -0.60363287 0.00084503333
0.025435785 0.0022019865 -0.0013587205 0.75927025 0.3398973 -0.55495816 0.0010819887
-0.00082623994 0.0046285158 -0.0017399807 -0.70547771 0.68041855 -0.19832267 0.0024142493
0.00085585681 0.0062362608 -0.0018013082 -0.64983851 0.70927 -0.27321425 0.0016589471
0.023204379 0.0055909827 -0.0017870907 0.634179 0.4727602 -0.61181277 0.0019301031
0.024828497 0.0046708668 -0.00060408376 0.71428269 0.41290295 -0.56507647 0.0012296455
0.0021043101 0.0075639822 -0.0012266068 -0.60725987 0.72338212 -0.32856309 0.0026932186
0.0041686343 0.0089675318 -0.0015805699 -0.52836066 0.75129455 -0.39546376 0.0024431925
0.017832445 0.0094081722 -0.0027616704 0.32220638 0.65896749 -0.67966527 0.0015589842
0.020176649 0.0086859744 -0.001902584 0.47916433 0.58744854 -0.65215468 0.0022767468
0.022469111 0.0078672953 -0.00067200977 0.58029985 0.52903801 -0.61916947 0.0013229309
0.0054714149 0.010257073 -0.00082986616 -0.47613487 0.75868243 -0.44463071 0.002991915
0.0077714836 0.01108999 -0.0013816115 -0.30404961 0.77417499 -0.55516386 0.002828975
0.01070436 0.011667984 -0.0017047944 -0.12404807 0.77825809 -0.61557007 0.0044037462
0.013960478 0.011611912 -0.0017940123 0.076674223 0.75829935 -0.64738184 0.0017220696
0.016776545 0.011187349 -0.0014313934 0.25858107 0.71414644 -0.65048504 0.001776738
0.019393528 0.010536419 -0.00070857722 0.42709342 0.64166182 -0.63707238 0.0023151271
0.011012303 0.012877587 -0.00023131724 -0.15769407 0.78745919 -0.59585285 0.0034081703
0.013685574 0.013008829 -0.00022657029 0.051904496 0.74861377 -0.66097158 0.0025193812
0.016050946 0.012779217 -2.9344112e-05 0.23387411 0.72230887 -0.65082467 0.0019187981
0.026716406 -0.0091783293 0.00078173634 0.94909883 -0.15049693 -0.27669853 0.0015383626
0.02692268 -0.0079891123 0.0002756631 0.94909877 -0.15049191 -0.27670139 0.0015390237
0.027472243 -0.0063515268 0.0015571108 0.95586973 -0.091817342 -0.27907452 0.0008888517
0.027693324 -0.0039817044 0.0012904126 0.94646251 -0.032574728 -0.32116616 0.00225844
0.027695164 -0.00090394635 0.001323076 0.9136675 0.10158578 -0.39356315 0.0037632182
-0.0033057104 0.0021688603 0.00086428877 -0.75809258 0.63498652 -0.14861956 0.00068755209
0.026799817 0.0024055224 0.00086023565 0.84087259 0.25804231 -0.47575989 0.0015740652
0.027673678 0.0019431273 0.0022718124 0.87906182 0.1964622 -0.43434185 0.0027465483
-0.00087635021 0.0054514138 0.0013009273 -0.73481023 0.64574689 -0.20752092 0.0017875716
0.026185639 0.0051033646 0.0016300958 0.79436558 0.3439844 -0.50065774 0.00052636833
0.027562369 0.0038495623 0.0030506467 0.81796598 0.31157508 -0.48358309 0.0022590405
9.1362745e-07 0.0069264062 0.002385891 -0.72837287 0.63975751 -0.24532276 0.0019112913
0.001644037 0.0083452165 0.0014618235 -0.67966646 0.6755209 -0.28587571 0.0023123247
0.0033127393 0.0094910674 0.00058262702 -0.62248313 0.69787133 -0.35424614 0.0019875632
0.023545185 0.0087666363 0.0011657262 0.62742472 0.51120067 -0.58737737 0.0024356423
0.025163962 0.0076866094 0.0021588616 0.69979352 0.46112016 -0.54557973 0.001194249
0.0028483539 0.010012697 0.0024799025 -0.63673514 0.67689359 -0.36930141 0.0018466894
0.0048251143 0.011239836 0.0016209707 -0.52880073 0.73465681 -0.42502853 0.0011407768
0.0071724365 0.012170594 0.00063422974 -0.34088564 0.76277924 -0.54951322 0.0025498371
0.017948898 0.012315731 0.00024016853 0.26831353 0.69363874 -0.6684857 0.0017289642
0.020033265 0.011752469 0.00089756399 0.38719827 0.65654987 -0.64731735 0.001610563
0.022398897 0.010930259 0.0020101611 0.53777134 0.58083105 -0.61109519 0.00098233658
0.0061724279 0.012865301 0.0026337123 -0.51709038 0.73411214 -0.44011009 0.0015859127
0.0080373967 0.013498595 0.0019503292 -0.3825677 0.75926334 -0.52646106 0.0034009025
0.010635088 0.014291681 0.0016726684 -0.19853227 0.76331186 -0.61476809 0.0043199677
0.01378392 0.014445115 0.0014716201 0.027551211 0.74833393 -0.66274971 0.0016856422
0.016826948 0.01405713 0.0016463203 0.22229345 0.71221089 -0.66583878 0.0029488085
0.019428 0.013494929 0.0022825496 0.39641228 0.64868474 -0.64966553 0.0018269737
0.021380883 0.012876283 0.0029729819 0.47758976 0.63149053 -0.61084187 0.0018681984
0.011881387 0.01573224 0.0031051254 -0.13177228 0.79834479 -0.58760667 0.0039202631
0.013778933 0.015727444 0.0029815864 0.027771428 0.7614283 -0.64765406 0.0036876344
0.015685648 0.015734579 0.0031654453 0.12768519 0.76486766 -0.63140631 0.0023266661
0.028105473 -0.0056655891 0.0041558361 0.95607883 -0.09120506 -0.27855879 0.00083765009
0.028603906 -0.0032854765 0.0045080995 0.95510572 -0.027244728 -0.29500979 0.0014837879
0.028805761 -0.00070187962 0.0045500146 0.95081776 0.018807862 -0.30917928 0.0030310671
0.028655512 0.0022178441 0.0047354745 0.9287594 0.13020612 -0.34706244 0.0034227609
-0.0016232511 0.0051998133 0.0043095564 -0.82532555 0.55273181 -0.11543496 0.0013765638
0.027127888 0.0059996508 0.0037380373 0.82339388 0.31333271 -0.47312275 0.0020139264
0.028077971 0.0049953824 0.0048097009 0.85420936 0.2873517 -0.43330759 0.001249277
-0.00032182434 0.0072071115 0.0046266736 -0.79245037 0.58381009 -0.17660186 0.0020132216
0.0010856569 0.0089737233 0.0044452166 -0.74595708 0.61807919 -0.24804476 0.0017337818
0.026439028 0.0083975103 0.0045379 0.7752831 0.40145221 -0.48761898 0.00045542629
0.027720008 0.0072271088 0.0056629395 0.80537832 0.37128338 -0.4620761 0.0022049369
0.0023275057 0.010601116 0.0047297357 -0.7086786 0.63109773 -0.31542087 0.0021298069
0.0038615244 0.011910997 0.0042186426 -0.65884411 0.65530056 -0.36946663 0.0018294414
0.023411669 0.011822442 0.0038318867 0.54885381 0.58245748 -0.59958559 0.00080713752
0.025120232 0.011059191 0.005039948 0.67377758 0.50205451 -0.54218543 0.0013447461
0.0054334318 0.013601173 0.0047220131 -0.56848198 0.70243251 -0.42827189 0.001732418
0.0075576687 0.014857531 0.0042984476 -0.45077348 0.7337144 -0.50839597 0.0042702574
0.0095114196 0.015269455 0.0034370041 -0.27078089 0.74650264 -0.60779238 0.003596196
0.017830238 0.015264634 0.0033087349 0.2684851 0.70845288 -0.65269452 0.0037808784
0.020090852 0.014786266 0.0040330207 0.37063056 0.67514837 -0.63781476 0.0014182656
0.022426944 0.013894994 0.0049362956 0.52406722 0.59955937 -0.60488182 0.0017946708
0.024388544 0.012972292 0.0059431707 0.60491371 0.56731588 -0.55877727 0.00093509594
0.0084025003 0.016155887 0.0053990697 -0.40304142 0.74488521 -0.53169882 0.0030951297
0.010756033 0.016716452 0.0047630006 -0.2435984 0.78185761 -0.57389766 0.0038002802
0.013742455 0.01718376 0.0047177384 -0.014271398 0.78895837 -0.61428088 0.0026429931
0.016769512 0.01691835 0.0048187366 0.21226396 0.72338021 -0.65701222 0.0023648732
0.019490227 0.01632655 0.005331778 0.38079315 0.68772852 -0.61808264 0.0014787397
0.021528909 0.015851047 0.006167612 0.52312249 0.62529564 -0.57909268 0.001432783
0.029630354 -0.00041428115 0.0081050405 0.95370275 0.061440624 -0.29440808 0.0013216552
0.029658088 0.0024652574 0.0079158647 0.94945443 0.096202366 -0.29879999 0.0014855968
-0.0014566765 0.0063232444 0.0087097501 -0.8527934 0.50243264 -0.14249562 0.0014646691
0.029238844 0.005126412 0.0076737693 0.92493516 0.18572892 -0.33166212 0.0029236064
-0.00049058767 0.0078240279 0.0075668516 -0.84598547 0.51248819 -0.14718837 0.0017989312
0.00047064666 0.0091662668 0.0068151569 -0.82583499 0.52779496 -0.19856763 0.0018372282
0.028345633 0.0079991687 0.007534544 0.85329461 0.32980824 -0.40387487 0.0016425272
0.001772518 0.011242315 0.0075871805 -0.77748746 0.57427305 -0.25636652 0.0021230511
0.0033431032 0.012502547 0.0062181866 -0.70667374 0.62807989 -0.32577285 0.0013708774
0.026350887 0.011738829 0.0073525039 0.73725486 0.46974605 -0.4855862 0.0016100256
0.027663257 0.010376357 0.0082597611 0.79200071 0.41407201 -0.44864142 0.0017037297
0.0028751965 0.013302561 0.0087072318 -0.72243565 0.60180342 -0.34046939 0.0020552713
0.0045483392 0.014410794 0.0073844558 -0.70054525 0.61359912 -0.36432484 0.00084571267
0.023486922 0.014925564 0.007024399 0.58143848 0.59174103 -0.55836529 0.002085997
0.025188971 0.013945242 0.007947647 0.65663695 0.54933804 -0.5167743 0.0012777813
0.0059167463 0.016247274 0.0081150355 -0.60222101 0.6636408 -0.44374624 0.0022827147
0.0078169731 0.017346455 0.0075684851 -0.4602223 0.7312957 -0.50339049 0.0029063553
0.01053304 0.018148774 0.0067242635 -0.25214207 0.76076323 -0.59804994 0.0024916148
0.017616747 0.018162446 0.006489859 0.18017845 0.74330735 -0.6442281 0.0020510971
0.020161949 0.017642489 0.0071978858 0.3438907 0.70293683 -0.62259048 0.00133226
0.0224542 0.016762987 0.007980627 0.51567799 0.64307719 -0.56615186 0.0016937589
0.0089728599 0.019000547 0.0087626493 -0.47832447 0.71344829 -0.51205194 0.0027717152
0.010971901 0.01941243 0.0081214635 -0.29691139 0.75672758 -0.58241487 0.00262447
0.013719733 0.019724227 0.0077788727 -0.043965422 0.76281124 -0.64512479 0.0033347842
0.016614491 0.019571913 0.0078548277 0.17564651 0.75597489 -0.63059509 0.0027502261
0.01939404 0.019231366 0.008546439 0.35293067 0.71117461 -0.60800546 0.0014953947
0.030536694 0.0034724139 0.012151322 0.96698725 0.087024868 -0.23950443 0.00082888384
-0.0019439447 0.0053744875 0.0096296882 -0.8761794 0.46489754 -0.12720044 0.00072042935
0.029901473 0.0056192391 0.0098283282 0.93507719 0.16897357 -0.31157443 0.002100365
-0.00050147926 0.0086127687 0.010718039 -0.88373852 0.44422045 -0.14722246 0.00054315943
0.029554291 0.008156592 0.010566465 0.9124099 0.2488738 -0.32491538 0.0021191759
-1.7508632e-05 0.0097476207 0.010933778 -0.86117405 0.4781287 -0.17254649 0.0013918867
0.0010098342 0.011426691 0.010452646 -0.84369004 0.49090242 -0.21726018 0.0015193123
0.028467063 0.011155812 0.01055682 0.8372491 0.37718317 -0.39591259 0.0012870892
0.0023469373 0.013776932 0.010874719 -0.77643603 0.54889202 -0.30962032 0.002281128
0.003686107 0.015202524 0.010193051 -0.71245819 0.59666151 -0.36932158 0.0020496394
0.026406441 0.014657199 0.010408391 0.72521001 0.50531209 -0.46768597 0.0016577501
0.027767887 0.013338313 0.011268566 0.78172481 0.44543162 -0.43645957 0.0019607355
0.0051542036 0.017133668 0.010566809 -0.65343773 0.62234652 -0.43093359 0.0022541997
0.0068998542 0.018241083 0.0097401449 -0.5388031 0.65837818 -0.5255754 0.0044940375
0.023481727 0.01777436 0.010096981 0.58818078 0.60198945 -0.54004824 0.0015914793
0.025132984 0.016741175 0.010874669 0.65218782 0.56356335 -0.50699836 0.0012987388
0.0058004372 0.018994268 0.012171826 -0.65360314 0.58874422 -0.4755871 0.0030810973
0.0079912227 0.019902932 0.010860573 -0.48000017 0.7072643 -0.51901555 0.0025561012
0.010636795 0.020863969 0.010133068 -0.26632291 0.7539084 -0.60057831 0.0025721712
0.01355907 0.02122215 0.0096341791 -0.061669353 0.76235813 -0.64421028 0.0025461656
0.016821405 0.021102553 0.0097207977 0.14881183 0.75071526 -0.64364707 0.0021369052
0.019887432 0.020497363 0.010353872 0.35093012 0.72485918 -0.59281296 0.0020786386
0.022303978 0.019643698 0.011138751 0.49503669 0.66494173 -0.55927736 0.001521053
0.011201667 0.022193929 0.011518805 -0.29072401 0.74754822 -0.59720284 0.0025535848
0.013878201 0.022474291 0.011143179 -0.066758737 0.7885446 -0.61134326 0.0027646287
0.016606823 0.022306757 0.011133532 0.1499633 0.77697265 -0.61141199 0.0024528992
0.018957485 0.022039864 0.011663423 0.35502821 0.73354381 -0.57954162 0.0019939842
0.030562719 0.005176208 0.012547282 0.956581 0.1453616 -0.25263172 0.00068798359
-0.00075313868 0.0088370629 0.013485602 -0.8855406 0.43961436 -0.15018962 0.0003674271
0.030096559 0.0090664811 0.012845687 0.93023998 0.22551429 -0.28947687 0.0013914119
0.030666614 0.0076352507 0.014127783 0.96033937 0.1520592 -0.23372282 0.00080665387
-0.0001855155 0.01029655 0.013468952 -0.8784247 0.43498129 -0.19789211 0.0014996392
0.0006252192 0.012079727 0.01344083 -0.87842441 0.43498203 -0.19789194 0.0014994924
0.029705333 0.011126518 0.013561423 0.90095991 0.30518314 -0.30843875 0.001729354
0.0017893591 0.014227489 0.013323917 -0.83219242 0.47270671 -0.28983462 0.0015670202
0.027168501 0.015615668 0.012615523 0.76550877 0.50323325 -0.40093961 0.0017938109
0.028506646 0.013981566 0.013507177 0.83088911 0.41850787 -0.36670753 0.0018689866
0.0027036953 0.016355461 0.014138195 -0.7875061 0.50982702 -0.34628105 0.0023044567
0.0040294835 0.01775212 0.01337137 -0.73794895 0.55471742 -0.38434359 0.0018987986
0.026216822 0.017538663 0.013434601 0.71655828 0.5346598 -0.44797668 0.0012845675
0.027769187 0.01627429 0.014557502 0.76549876 0.49682787 -0.40886885 0.0017885711
0.0052927695 0.019851035 0.014050736 -0.65610486 0.59345132 -0.46619946 0.0023871502
0.0069915652 0.020916136 0.013193985 -0.58100104 0.65679437 -0.48068604 0.0036810029
0.023046821 0.020773204 0.013264096 0.55453271 0.6513617 -0.51790094 0.0025189202
0.024866395 0.019616568 0.013962138 0.65012103 0.59504378 -0.47250992 0.0014414038
0.008357604 0.022667624 0.014026876 -0.46499389 0.68148756 -0.56511527 0.0026930049
0.010805858 0.023601688 0.013480603 -0.25401798 0.75518042 -0.60429907 0.0021463141
0.013683499 0.02399227 0.01306264 -0.056120306 0.78795737 -0.61316693 0.0023959789
0.01681138 0.02384704 0.013115375 0.13443992 0.77710629 -0.61484283 0.0017911069
0.019705569 0.023274954 0.013674458 0.36056563 0.72631359 -0.58520156 0.002277608
