# .PCD v0.7 - Point Cloud Data file format
VERSION 0.7
FIELDS x y z normal_x normal_y normal_z curvature
SIZE 4 4 4 4 4 4 4
TYPE F F F F F F F
COUNT 1 1 1 1 1 1 1
WIDTH 552
HEIGHT 1
VIEWPOINT 0 0 0 1 0 0 0
POINTS 552
DATA ascii
-0.016071334 -0.011535402 -0.045861088 0.086964086 0.52280623 -0.8480041 0.0014453456
-0.01313653 -0.011599258 -0.045397408 0.19355986 0.45138347 -0.87108403 0.0026385216
-0.010246575 -0.011644305 -0.044645023 0.25077051 0.44590244 -0.85923523 0.0014924246
-0.0078511294 -0.012194559 -0.044058699 0.3545242 0.37210029 -0.85781938 0.0025178674
-0.024664439 -0.0097933142 -0.043958165 -0.23049709 0.71209079 -0.66317248 0.0032948074
-0.021973357 -0.0095229503 -0.044312961 -0.12827325 0.68052381 -0.72141063 0.0024594471
-0.019062553 -0.0093110166 -0.044385936 -0.038158562 0.66195512 -0.74857157 0.0029661676
-0.0161203 -0.0093122795 -0.044321034 0.061039131 0.63331193 -0.77148581 0.0017984781
-0.013336243 -0.0094698612 -0.044092819 0.1448749 0.595272 -0.79035592 0.0017368146
-0.011016224 -0.0098136626 -0.043819971 0.23221964 0.55226052 -0.80067623 0.0018592092
-0.030630505 -0.028313221 -0.041764326 -0.16276763 -0.86659896 -0.4717128 0.0028541987
-0.028081791 -0.028626502 -0.042223085 -0.13878514 -0.8718071 -0.46977776 0.0035457495
-0.025029013 -0.029053615 -0.042342201 -0.088191532 -0.87055856 -0.484097 0.0032574935
-0.022196254 -0.029414583 -0.04212793 -0.029302429 -0.85560811 -0.51679415 0.0041018208
-0.019164996 -0.029225728 -0.042358257 0.075311951 -0.8443861 -0.53041506 0.0036542774
-0.016218385 -0.029035332 -0.042052075 0.15076229 -0.81686759 -0.55677468 0.0035605631
-0.013437741 -0.02863628 -0.041689016 0.2330167 -0.79773664 -0.5561648 0.0025402589
-0.011086611 -0.028343368 -0.040997155 0.32111403 -0.74868351 -0.57996446 0.002046173
-0.055003364 -0.027273821 -0.043099854 0.17656769 -0.65233064 -0.73708117 0.011439712
-0.052250311 -0.026620163 -0.042947344 0.16783594 -0.67525589 -0.71823436 0.011530263
-0.049118176 -0.026079364 -0.0429167 0.10126889 -0.7354418 -0.66997749 0.0033220544
-0.046132807 -0.025872467 -0.042726405 0.041802522 -0.53318709 -0.84496397 0.033143796
-0.043396618 -0.025851145 -0.042787585 -0.016055165 -0.75510973 -0.65540183 0.002291454
-0.040024862 -0.0261184 -0.042827908 -0.079554059 -0.75196707 -0.65438265 0.0018298492
-0.037209306 -0.026560318 -0.042705342 -0.098926231 -0.75262058 -0.65098077 0.0030701985
-0.034170266 -0.027257048 -0.042432271 -0.11799467 -0.81622636 -0.56555438 0.0053073354
-0.031516131 -0.02756132 -0.043008111 -0.1760079 -0.823654 -0.53908747 0.0053870208
-0.028101323 -0.027949814 -0.043513499 -0.14231522 -0.8229689 -0.54997146 0.0046532447
-0.015876267 -0.027953042 -0.043464825 0.16718778 -0.76396918 -0.62321687 0.0046624858
-0.012910867 -0.027390646 -0.043037176 0.26136598 -0.68295079 -0.68210417 0.002375189
-0.010139216 -0.026698416 -0.042380124 0.34241879 -0.65557092 -0.67303503 0.0018944041
-0.0076125395 -0.025980551 -0.041579679 0.44281679 -0.61402828 -0.65336239 0.00088091916
-0.0056570265 -0.025294505 -0.040889367 0.47882918 -0.59688842 -0.64377552 0.001728759
-0.0089867767 -0.024715357 -0.043547586 0.43613556 -0.56517357 -0.7002604 0.0024397981
-0.0069320137 -0.023827909 -0.042889353 0.48318985 -0.44533089 -0.75379568 0.0023137527
-0.0046251793 -0.023304516 -0.041633651 0.53183985 -0.48156345 -0.69659382 0.0026219969
-0.0026865653 -0.022327609 -0.04080613 0.55951697 -0.45622343 -0.69195443 0.0017701517
-0.0060360744 -0.021765448 -0.043522939 0.50001323 -0.30943853 -0.80884761 0.0042878659
-0.0042026029 -0.020650027 -0.042659637 0.55730146 -0.23525536 -0.79628509 0.0022817312
-0.0021293336 -0.020350888 -0.041243486 0.58776784 -0.2840403 -0.75752896 0.0027131655
-0.057482891 -0.018395238 -0.043458149 0.094017781 0.73289818 -0.67381078 0.011660935
-0.055208169 -0.017986394 -0.043145105 0.093951888 0.7329064 -0.67381096 0.011665707
-0.052228227 -0.018611304 -0.043335967 0.21909975 0.8513273 -0.47669393 0.0078915739
-0.048968669 -0.018748634 -0.042091213 -0.054367702 0.87891364 -0.47387233 0.022398103
-0.046145417 -0.018389313 -0.042467982 -0.25171462 0.79071426 -0.55804187 0.010769452
-0.043305498 -0.017580159 -0.042737216 -0.22165018 0.64954114 -0.72730154 0.0073775505
-0.040569294 -0.016584583 -0.043009821 -0.28300712 0.62341106 -0.72887975 0.0076834359
-0.0038819038 -0.017606532 -0.043051004 0.55105299 -0.046820793 -0.83315575 0.0021909368
-0.0016730293 -0.017576067 -0.041524827 0.5821442 -0.079767264 -0.80916339 0.0028361944
-0.039201997 -0.015886895 -0.042846352 -0.34294847 0.72052121 -0.60269028 0.0016045106
-0.037159804 -0.014935956 -0.04284798 -0.32832894 0.70611984 -0.62737149 0.0031162009
-0.034757633 -0.013718912 -0.042952724 -0.36229625 0.70745635 -0.60683352 0.0035386104
-0.0041400264 -0.014503079 -0.042949777 0.49369451 0.17513853 -0.85181701 0.0033312095
-0.0016736337 -0.014718154 -0.041439626 0.55173445 0.12493163 -0.82460976 0.0022260225
-0.033352494 -0.012668476 -0.042114742 -0.38097763 0.78719485 -0.48495397 0.0030478681
-0.031104309 -0.011525459 -0.042362463 -0.38130894 0.80118901 -0.46119383 0.0047180573
-0.028703384 -0.010627783 -0.042986445 -0.33994964 0.81441575 -0.47027785 0.0062416289
-0.0089854654 -0.010380157 -0.043600485 0.29459721 0.46868375 -0.83279532 0.0042281845
-0.006885522 -0.011232615 -0.04319004 0.35353953 0.39489409 -0.84797901 0.0037717926
-0.0043659145 -0.011679027 -0.042187296 0.44369751 0.35402751 -0.82328427 0.0027325328
-0.0021248756 -0.012035275 -0.041060336 0.49175686 0.32831708 -0.8064633 0.0023146353
-0.027664138 -0.0095717944 -0.041786786 -0.34642023 0.80950338 -0.47402251 0.0059401919
-0.025112163 -0.0088645713 -0.042407431 -0.27266264 0.81304085 -0.51441199 0.0036045802
-0.022205604 -0.0080925515 -0.042539831 -0.201123 0.81727648 -0.54000795 0.0047273966
-0.019137068 -0.007860925 -0.042917117 -0.074725084 0.77907103 -0.6224665 0.0027172714
-0.016177028 -0.0078596035 -0.043007731 0.02176673 0.73631859 -0.67628485 0.0017966341
-0.013100979 -0.0080645699 -0.042886399 0.10967082 0.69012791 -0.71532905 0.0011652044
-0.010168483 -0.0085521415 -0.04264646 0.19228396 0.60390258 -0.77351701 0.00151761
-0.0073784753 -0.0087760696 -0.041909315 0.27610004 0.58461344 -0.76288664 0.0015088458
-0.0047152084 -0.0093716094 -0.041184813 0.37676072 0.49844655 -0.7807703 0.0021115595
-0.021637052 -0.0069703567 -0.041030869 -0.24571106 0.83579582 -0.49099034 0.0028281666
-0.019071814 -0.0066825929 -0.04141327 -0.13197553 0.81025285 -0.57102776 0.0033194085
-0.016236657 -0.0066093965 -0.041626517 -0.027818739 0.77655035 -0.62944078 0.0030863944
-0.013276139 -0.0066112159 -0.04147635 0.075134471 0.73117059 -0.67804444 0.0021623475
-0.010451618 -0.0067480505 -0.041128598 0.16297933 0.70685256 -0.68832934 0.0015198342
-0.0082048867 -0.007043648 -0.040835384 0.25246549 0.64425707 -0.72193772 0.0017290883
-0.031593461 -0.028514475 -0.040345296 -0.16277079 -0.86662066 -0.47167188 0.0028775383
-0.028132055 -0.029429559 -0.040022302 -0.1404456 -0.88975292 -0.4342981 0.0024839276
-0.02496787 -0.030183168 -0.03951538 -0.10199252 -0.92278683 -0.37156689 0.0012754831
-0.022051401 -0.030636236 -0.039226521 -0.032383282 -0.93127704 -0.36286977 0.0014384533
-0.019317018 -0.030711859 -0.039359026 0.0084477831 -0.92727554 -0.37428421 0.0021047557
-0.016200181 -0.030583516 -0.039173938 0.10596992 -0.91095454 -0.39866298 0.0016871725
-0.013251218 -0.029994309 -0.039325263 0.18508799 -0.88776988 -0.4214347 0.0014832687
-0.010374798 -0.02923595 -0.039142027 0.29220587 -0.82016718 -0.49187553 0.0021085271
-0.007870717 -0.028663717 -0.038420714 0.38856617 -0.77074724 -0.50494051 0.0015801084
-0.0090642478 -0.027871929 -0.040421799 0.37918261 -0.6966188 -0.60905069 0.0013981155
-0.0070156916 -0.027379096 -0.039597988 0.40908387 -0.73340052 -0.54293108 0.0011543772
-0.0045862379 -0.026260508 -0.038995132 0.47446841 -0.66478699 -0.57700783 0.002144454
-0.0025686587 -0.0256117 -0.037943259 0.52544785 -0.62705207 -0.57507414 0.0026478693
-0.0036145342 -0.024423437 -0.040040456 0.52154624 -0.58388108 -0.62215132 0.0015089719
-0.0015178435 -0.023470111 -0.038933549 0.60752225 -0.48414436 -0.62969905 0.0020444507
-0.00055373274 -0.020862166 -0.039716262 0.63106835 -0.33273694 -0.70074171 0.0037914265
0.0011597276 -0.020432165 -0.038336761 0.64932883 -0.34260058 -0.67896754 0.0018806842
-0.04945365 -0.018528946 -0.040277138 0.061450712 0.88055182 -0.46994936 0.019251553
-7.5553544e-06 -0.017814212 -0.040214308 0.62656307 -0.11052158 -0.77149451 0.0023164225
0.001695639 -0.017673865 -0.038756803 0.65181965 -0.14210401 -0.74494129 0.0025066552
-7.5497665e-06 -0.014571499 -0.040229194 0.5972771 0.090128712 -0.79695481 0.0021258858
0.0017775553 -0.014749286 -0.03883855 0.62841153 0.060346887 -0.77553666 0.0029071015
-0.030329656 -0.010453471 -0.040199205 -0.38920957 0.82718933 -0.40530699 0.0020694714
-0.00060382066 -0.011524183 -0.039869316 0.54563677 0.26067355 -0.79644823 0.0014524516
0.0015891111 -0.011894619 -0.038429722 0.57681745 0.25112945 -0.77731305 0.0023802654
-0.028245337 -0.0091878287 -0.039617307 -0.36365798 0.86338174 -0.34974965 0.0025481766
-0.025345033 -0.0078128194 -0.039853029 -0.34161678 0.86386371 -0.37018567 0.0031661731
-0.0063001644 -0.0074725384 -0.040523723 0.27040935 0.63778096 -0.72118944 0.0011099371
-0.0040709125 -0.0081424005 -0.040048257 0.33870366 0.55002004 -0.76338577 0.0024340276
-0.0012847371 -0.0088370396 -0.03898681 0.43310279 0.46941015 -0.76946485 0.0016585535
0.00097711431 -0.0095926216 -0.037973866 0.51069748 0.41278461 -0.75418621 0.0018865549
-0.024241708 -0.0070677111 -0.038974285 -0.34005231 0.88113403 -0.32858369 0.0020759844
-0.022224901 -0.0063973479 -0.039274383 -0.29595861 0.88949567 -0.34814641 0.0028077478
-0.019266078 -0.0054943282 -0.039216373 -0.20813105 0.89083761 -0.40384388 0.0038452893
-0.016327655 -0.0051430077 -0.039522007 -0.096627094 0.86544919 -0.49159011 0.0047068507
-0.013339439 -0.0051417742 -0.039698996 0.031399939 0.80851907 -0.58763176 0.0014515041
-0.010300862 -0.0053047072 -0.03947749 0.11803722 0.76720643 -0.63044554 0.00086134009
-0.0073792073 -0.0057551679 -0.039217412 0.19884287 0.73065025 -0.65315515 0.00049353804
-0.0045502018 -0.0062172902 -0.038656641 0.32921758 0.6394918 -0.69474167 0.0020739553
-0.0021118831 -0.0067807804 -0.038009524 0.39985234 0.58280146 -0.70743239 0.0019304167
-0.015542855 -0.0040879883 -0.037878279 -0.16507261 0.87672102 -0.4517867 0.0032492282
-0.013393697 -0.0040863901 -0.038177773 -0.023222664 0.84098762 -0.54055566 0.0028490631
-0.010406752 -0.0040873545 -0.037997499 0.086356588 0.79697543 -0.59780651 0.0018461917
-0.0087049045 -0.0040892148 -0.037654057 0.090454385 0.80213284 -0.5902549 0.0033864817
-0.018401157 -0.031581849 -0.036249325 0.040834039 -0.95561188 -0.29178509 0.0017553868
-0.016042413 -0.031589225 -0.036150023 0.11713954 -0.93964392 -0.32147732 0.0010588353
-0.013050484 -0.031373471 -0.035750553 0.1702918 -0.93161553 -0.32108155 0.00067877414
-0.011133207 -0.03123422 -0.035132468 0.24040619 -0.91201526 -0.33231467 0.0012594548
-0.02244015 -0.031101279 -0.036946878 -0.028767489 -0.93974978 -0.34065041 0.0011306216
-0.013355036 -0.030936161 -0.037251685 0.18255049 -0.90405273 -0.38647643 0.0017324788
-0.0097904578 -0.030413575 -0.036423065 0.25520572 -0.89581412 -0.36385044 0.0016758414
-0.0069992226 -0.029458612 -0.036221094 0.37079296 -0.82532758 -0.42584851 0.00081775908
-0.0044501033 -0.028494775 -0.035706744 0.4444938 -0.77343917 -0.45190388 0.0018118375
-0.0037124746 -0.027390189 -0.036740642 0.48658815 -0.71686798 -0.49933183 0.0020857695
-0.0012239944 -0.026171425 -0.035866022 0.54748869 -0.67895675 -0.48915628 0.001442647
0.00070978561 -0.025214069 -0.034976825 0.60358053 -0.6111896 -0.51199383 0.00095253508
-0.00032574683 -0.024382176 -0.036997505 0.61686188 -0.5019455 -0.60624427 0.0012745992
0.0016294974 -0.023278173 -0.035906956 0.64319837 -0.50516284 -0.57541841 0.0021119511
0.0032947012 -0.022198014 -0.034982547 0.63855642 -0.50693673 -0.5790171 0.0019569905
0.0023666252 -0.02081334 -0.036931347 0.68128341 -0.3334204 -0.65167773 0.0013217338
0.0040157516 -0.02025757 -0.0354537 0.69564831 -0.3722358 -0.61442167 0.0017993915
0.0031512915 -0.01805483 -0.037296407 0.68389416 -0.16289149 -0.71116465 0.0019575639
0.004754418 -0.017426277 -0.035828687 0.71491927 -0.18741861 -0.67362064 0.0023896208
0.0032781283 -0.014791137 -0.037545934 0.66208839 0.031429105 -0.74876648 0.0022331865
0.0047921292 -0.01455022 -0.036131203 0.69277114 -0.009446919 -0.72109562 0.003123862
0.006315175 -0.014453852 -0.034644235 0.72352082 -0.012415599 -0.69019091 0.0030525599
0.0030050906 -0.011497291 -0.037192419 0.61370248 0.2183733 -0.75873739 0.0019414875
0.0046748319 -0.01155474 -0.035786133 0.65680605 0.19070171 -0.7295469 0.0015782902
0.00013884529 -0.0076592052 -0.037385944 0.48677722 0.44790828 -0.74995077 0.0023830726
0.0020306171 -0.0085057477 -0.036600374 0.53849661 0.42064992 -0.73011994 0.003830527
0.003938776 -0.0087470822 -0.035297371 0.57195091 0.39190859 -0.72061074 0.0014110566
-0.024577184 -0.0068783099 -0.037049174 -0.34899434 0.88920718 -0.295827 0.0010509858
-0.021859158 -0.0055534206 -0.036598764 -0.32744765 0.90672773 -0.26574966 0.00066912704
-0.019468673 -0.0045863348 -0.036365185 -0.25194982 0.91546577 -0.31375745 0.0013591454
-0.006140559 -0.0045184279 -0.037456855 0.18370149 0.74171466 -0.64506835 0.0011152982
-0.0037192621 -0.004925956 -0.036997907 0.26748198 0.72246838 -0.63756788 0.00090383302
-0.00086416351 -0.0056391852 -0.036285639 0.37343177 0.62266606 -0.68763047 0.0030452337
0.0014274977 -0.0061908667 -0.035426624 0.4469505 0.58037359 -0.68073624 0.0023532265
-0.018095484 -0.003990964 -0.035897098 -0.24190429 0.91710949 -0.31684753 0.0016076083
-0.01601471 -0.0035057974 -0.03617353 -0.21153912 0.91636282 -0.33989769 0.0018825044
-0.013045679 -0.00309913 -0.036362123 -0.10880747 0.9044804 -0.4124029 0.0042712139
-0.010081751 -0.0030440171 -0.036387168 0.07460881 0.83213896 -0.5495255 0.0013605542
-0.0070603937 -0.003262396 -0.036121085 0.15191086 0.80965418 -0.56690669 0.0022871469
-0.0041903453 -0.0035762575 -0.035564132 0.2412439 0.75470984 -0.61009377 0.0013062407
-0.0018028682 -0.0039596418 -0.035035074 0.32227752 0.70573914 -0.6309275 0.0013043736
-0.012463642 -0.031752877 -0.03394904 0.18899335 -0.94343626 -0.2724143 0.00093033817
-0.010109304 -0.031501353 -0.033178031 0.22391462 -0.94106531 -0.25349221 0.00045315005
-0.0084105302 -0.031481959 -0.031751737 0.2434874 -0.94498515 -0.21844207 0.00066237181
-0.0087804738 -0.030851655 -0.03446646 0.24993187 -0.91877955 -0.30557856 0.0010521854
-0.0069169383 -0.030570997 -0.033456363 0.33145347 -0.8914597 -0.3089307 0.0013786433
-0.0039715059 -0.029351937 -0.033397071 0.41079891 -0.83779418 -0.35964581 0.0011129148
-0.001817289 -0.028525369 -0.032680117 0.47984082 -0.78671438 -0.3883726 0.001803332
-0.00053651026 -0.027319752 -0.03334621 0.52622688 -0.73377597 -0.42971849 0.0014590403
0.0015284852 -0.025960486 -0.032907285 0.59907043 -0.65491903 -0.46064702 0.0010739634
0.0024385047 -0.024418568 -0.033801187 0.61359376 -0.62481415 -0.48281461 0.0010932544
0.0041416013 -0.023235746 -0.032920871 0.67849422 -0.53559941 -0.50277126 0.0016961095
0.0052858177 -0.020828228 -0.033586819 0.71567941 -0.36898977 -0.59300047 0.0013478909
0.0067507862 -0.020040937 -0.032318287 0.72092825 -0.40909621 -0.55937725 0.0010549525
0.0058884495 -0.018348739 -0.034299508 0.73035306 -0.20834582 -0.65052015 0.0020490154
0.0072290148 -0.017410081 -0.03306292 0.73690552 -0.22361796 -0.63793826 0.0015703503
0.0077295839 -0.014450261 -0.033107862 0.74903071 -0.062773019 -0.65955478 0.0022404161
0.0058865095 -0.01057728 -0.034449551 0.65853733 0.19826454 -0.72596127 0.0015201546
0.0075529977 -0.011529315 -0.033062283 0.68789941 0.17497359 -0.70439953 0.0018999164
0.0052200682 -0.0081004733 -0.033906944 0.61094528 0.34590283 -0.71210754 0.0017765876
0.0071113962 -0.0086534666 -0.032519072 0.63204038 0.35178092 -0.69048911 0.0021677988
-0.00015299674 -0.0041068774 -0.034374002 0.31849724 0.71336776 -0.62423241 0.0012469052
0.0020440468 -0.0048234677 -0.033774 0.38527656 0.67648196 -0.62764168 0.0009336184
0.0043916781 -0.0056752972 -0.032894738 0.50841421 0.53392804 -0.67560029 0.0027992928
0.0064979088 -0.006579929 -0.031932943 0.55141819 0.50476772 -0.6641894 0.0018506863
-0.01829177 -0.0036769295 -0.034022763 -0.27359232 0.9279592 -0.25305921 0.00087202672
-0.016159378 -0.0028143586 -0.033377856 -0.2326795 0.93803316 -0.25681514 0.0010060215
-0.013023732 -0.0019490314 -0.033365928 -0.17957728 0.9378953 -0.29682383 0.0035664979
-0.01008963 -0.001733256 -0.033919416 -0.057108432 0.91926295 -0.38947937 0.0053613954
-0.0069790492 -0.0017764647 -0.033920251 0.083014011 0.86789727 -0.48975804 0.0027679927
-0.0038961172 -0.0021317243 -0.033561695 0.21185778 0.80566138 -0.55319625 0.0014681942
-0.001071041 -0.0026780772 -0.033040322 0.28940687 0.75718188 -0.58559299 0.0010434282
0.0015194197 -0.0032788136 -0.032425478 0.37807232 0.70494062 -0.60009998 0.0012587749
0.0033153589 -0.0036865408 -0.03178753 0.42513731 0.67987394 -0.59751964 0.0032154988
-0.0099161975 -0.0010821228 -0.032315359 -0.14233772 0.92650354 -0.34832639 0.0035179034
-0.0070989244 -0.00086470461 -0.032199133 0.012819199 0.89396441 -0.44795442 0.0035633068
-0.0042264136 -0.0010272381 -0.032048658 0.14436233 0.84787768 -0.51015973 0.003400594
-0.0069194711 -0.031377491 -0.030202797 0.31350324 -0.91593075 -0.25057259 0.00072549196
-0.0066768406 -0.031061478 -0.031559929 0.31689522 -0.90701944 -0.27729619 0.0010665942
-0.003865551 -0.030365262 -0.030340072 0.36708578 -0.89323789 -0.25956514 0.00060844992
-0.0011342294 -0.029147806 -0.030199055 0.43755171 -0.84784818 -0.29950282 0.0018104848
0.00085543189 -0.028304774 -0.029410038 0.5205254 -0.78459972 -0.33683321 0.0018393943
0.00027457112 -0.028062366 -0.03090374 0.50742829 -0.79219568 -0.33903176 0.0017077549
0.0020174338 -0.027037166 -0.030398382 0.54250765 -0.7599988 -0.35789284 0.00069470808
0.0038847406 -0.025877653 -0.029717222 0.6073997 -0.67749566 -0.41480744 0.0013585096
0.0051630945 -0.024069019 -0.030539999 0.65415597 -0.61456066 -0.44090274 0.0015198633
0.0068231146 -0.022908121 -0.029587431 0.68708533 -0.55324179 -0.47099614 0.001718112
0.0078726038 -0.020757319 -0.03022958 0.73477226 -0.4509083 -0.50674593 0.0016532536
0.0094568022 -0.019662306 -0.028921304 0.74846613 -0.42655268 -0.50779045 0.00095937203
0.0086968988 -0.01792378 -0.031023599 0.76246375 -0.26000792 -0.59249038 0.0019985391
0.0099203084 -0.017459482 -0.029623738 0.77604276 -0.2994203 -0.55507207 0.0014232083
0.0089653675 -0.015636422 -0.03156285 0.76052773 -0.083409056 -0.64392585 0.0020182491
0.010278823 -0.014557241 -0.030110784 0.78405404 -0.097291797 -0.61301994 0.0032259705
0.0089675374 -0.010641782 -0.031456832 0.72394389 0.12326862 -0.6787563 0.0018602433
0.010410508 -0.011614425 -0.03000392 0.75247484 0.08816649 -0.65269309 0.0025468292
0.0085199736 -0.0081558321 -0.030958198 0.671229 0.29534528 -0.67986965 0.0020467832
0.010130456 -0.0086554196 -0.029534634 0.70186687 0.28334087 -0.65352958 0.0025831279
0.0053759557 -0.0045195185 -0.031141372 0.45747668 0.63823014 -0.61917478 0.0015411363
0.0076222732 -0.0055026589 -0.030119684 0.56331551 0.49615049 -0.66068929 0.0045843911
0.0096314363 -0.0064101839 -0.028938711 0.62129432 0.44773024 -0.64306372 0.0022441202
-0.015394202 -0.0021668011 -0.030860497 -0.25776741 0.94408667 -0.20556387 0.00042381135
-0.013880815 -0.001622607 -0.030606506 -0.22795352 0.94689322 -0.22678286 0.0011487146
-0.00024671899 -0.001601588 -0.031235274 0.26538947 0.7762714 -0.571814 0.0016030789
0.0019958443 -0.0021147532 -0.030644845 0.35530478 0.73077255 -0.58286363 0.0011077509
0.004487107 -0.0028075762 -0.029895565 0.43177745 0.68931109 -0.58173746 0.0016019865
0.0067438851 -0.0035234981 -0.0290213 0.50520879 0.62569755 -0.59436244 0.0020514566
-0.01236669 -0.00107778 -0.030302189 -0.22795407 0.94689298 -0.22678326 0.0011484418
-0.010077551 -0.0005325973 -0.030321974 -0.18363036 0.95326316 -0.2399358 0.0019499192
-0.0071434826 1.4025718e-05 -0.029932026 -0.072955348 0.93913925 -0.33570081 0.0031167266
-0.0040053464 -0.0001060986 -0.030293483 0.073085263 0.90055799 -0.42854846 0.0048670503
-0.0011181212 -0.00047255168 -0.030046701 0.19304545 0.84315658 -0.50181717 0.0033296407
0.0015444867 -0.00083698891 -0.029240068 0.3117255 0.78188765 -0.53988785 0.0014028674
-0.0054203165 -0.031286411 -0.028444631 0.34341392 -0.91212994 -0.22379877 0.00040370467
-0.0036778273 -0.030907743 -0.027612371 0.37832293 -0.89553523 -0.23428307 0.00066923822
-0.00073254993 -0.029801846 -0.027286509 0.42824543 -0.87154996 -0.23876034 0.00062416628
0.0015889355 -0.028701792 -0.026966995 0.48100325 -0.83786827 -0.25809437 0.0016296566
0.0027562943 -0.027676471 -0.027832441 0.52653128 -0.80186993 -0.28243464 0.0011463126
0.0047397376 -0.026415274 -0.027221952 0.59489846 -0.7229321 -0.351376 0.0013444051
0.0066534891 -0.025283076 -0.026225192 0.64574838 -0.67462957 -0.35760871 0.0013160836
0.0059640701 -0.024718069 -0.028451545 0.65028602 -0.65688086 -0.38162234 0.0016509494
0.0077776886 -0.023590907 -0.027097005 0.69475204 -0.60819048 -0.38395825 0.0013324938
0.0095163863 -0.022204705 -0.026156528 0.71080017 -0.56451327 -0.41962808 0.0010718525
0.0087707583 -0.021488294 -0.028237153 0.7151615 -0.47351396 -0.51412886 0.0026150225
0.010296961 -0.020410832 -0.026880953 0.74511802 -0.47315836 -0.47002167 0.0022085211
0.011370616 -0.017790638 -0.027346646 0.79411334 -0.33984685 -0.50387323 0.0020586371
0.012602679 -0.016925931 -0.026019696 0.79258037 -0.34273559 -0.50432998 0.0022058678
0.011842897 -0.014748314 -0.028037712 0.79185909 -0.13345677 -0.59594333 0.0017727361
0.012955189 -0.014561486 -0.026516747 0.80458766 -0.16446321 -0.5706054 0.002188853
0.01194288 -0.011350194 -0.028165342 0.77213347 0.050387319 -0.63345963 0.0021634668
0.013099339 -0.011642712 -0.026711721 0.80395871 0.017683119 -0.59442204 0.0025095334
0.011633636 -0.0083194468 -0.027753163 0.7264201 0.22922914 -0.64789498 0.0019208686
0.01296006 -0.0086975973 -0.026352065 0.74903047 0.2113627 -0.62791651 0.0027480191
0.0087407306 -0.0044316361 -0.028277058 0.52805829 0.60029572 -0.60066593 0.00168904
0.010803994 -0.0054984191 -0.027080681 0.66988117 0.42418274 -0.60936713 0.0027724912
0.012606913 -0.0065760845 -0.025874151 0.68471724 0.38636187 -0.61796993 0.0021673208
0.0053372565 -0.0017545354 -0.027982164 0.39128548 0.72208941 -0.5705108 0.00056051108
0.0077660256 -0.0025876625 -0.027106483 0.45302302 0.6733368 -0.58428407 0.00097308349
0.0098072551 -0.0034166507 -0.026281603 0.52222258 0.6133579 -0.59251636 0.002003473
-0.01266227 -0.0008536512 -0.027938856 -0.23125122 0.95309216 -0.19529004 0.00066427246
-0.0098309433 0.00017370703 -0.027198194 -0.23122209 0.95111638 -0.20472907 0.00059593766
-0.006958426 0.0008462742 -0.027124083 -0.15726998 0.95114434 -0.26568916 0.0032101448
-0.0040721311 0.0011498118 -0.027243342 -0.03212047 0.93774605 -0.34583348 0.0040202816
-0.00095128128 0.0010491544 -0.027235169 0.09221226 0.90228528 -0.42116296 0.0037567129
0.0018340466 0.00042308029 -0.027238531 0.29066968 0.80115247 -0.52313077 0.0012724155
0.0044301176 -0.00041021965 -0.026834598 0.3729206 0.75109923 -0.54477543 0.00067835127
0.006583991 -0.00092141703 -0.025938971 0.44113144 0.70926493 -0.5498603 0.00038815383
-0.0012757727 -0.030416116 -0.025214164 0.40827182 -0.88444728 -0.22598037 0.00082347839
0.0019249185 -0.029151727 -0.024327805 0.48103577 -0.8458333 -0.23058759 0.0013434177
0.0033665127 -0.028516762 -0.023875756 0.52873063 -0.81664509 -0.23137578 0.00069905212
0.0050439234 -0.027291324 -0.024367563 0.54027748 -0.80618149 -0.24118803 0.0011390898
0.0069622542 -0.025963176 -0.02401338 0.62618697 -0.72345555 -0.29069215 0.0014918604
0.0086718388 -0.024262995 -0.024303678 0.68723738 -0.65153992 -0.32124838 0.0014543264
0.010005912 -0.022996882 -0.023991223 0.69659376 -0.61503804 -0.36943918 0.0012491556
0.011573112 -0.020775763 -0.024254583 0.75929141 -0.52268183 -0.38766018 0.001533517
0.012858268 -0.019595832 -0.023336031 0.76810306 -0.47683913 -0.42736658 0.0012001577
0.012178481 -0.01871144 -0.025438709 0.78402138 -0.38551635 -0.48650545 0.0024299121
0.013565704 -0.017460022 -0.02404144 0.80971545 -0.34574804 -0.4741511 0.0015245738
0.014277242 -0.014772804 -0.024443761 0.82305181 -0.17621963 -0.53993726 0.0012880667
0.015353061 -0.014152483 -0.022996185 0.83626622 -0.23386231 -0.49595097 0.0019835166
0.01445049 -0.011644529 -0.024853172 0.81719315 -0.010551048 -0.57626724 0.0019426628
0.015566623 -0.011706294 -0.023231605 0.83616924 -0.040162742 -0.5469991 0.0021064647
0.014302485 -0.0084689772 -0.024587877 0.78299505 0.15975782 -0.60116237 0.0019610845
0.015510932 -0.0088456739 -0.02309645 0.80635291 0.1425411 -0.57400095 0.0026297073
0.01189124 -0.0044505084 -0.025195111 0.59933281 0.54656929 -0.58486086 0.0019664206
0.01365432 -0.0056108106 -0.024023509 0.72433054 0.33522838 -0.6024676 0.0016130236
0.015366439 -0.0068350518 -0.022619976 0.75127804 0.32088163 -0.57672906 0.0020236108
0.0087666139 -0.0016183713 -0.025106935 0.502783 0.66037893 -0.55777138 0.00078659039
0.010955226 -0.0025847508 -0.024224218 0.54917419 0.61033612 -0.57087433 0.0033257147
0.01298313 -0.0034280799 -0.023113696 0.58859742 0.58302426 -0.56003207 0.0017664393
-0.0098930346 0.00048077013 -0.024783207 -0.26834032 0.94952649 -0.16245909 0.00024137946
-0.0070308102 0.0014416073 -0.02432587 -0.21998712 0.95658976 -0.19115885 0.0017568842
-0.0054665837 0.0015798574 -0.025377793 -0.19620019 0.95711142 -0.21317431 0.0029604218
0.0021809782 0.0015073139 -0.025266005 0.20008567 0.86288583 -0.46410534 0.0026211154
0.0049584354 0.0010114033 -0.024499325 0.33017722 0.79743272 -0.50505835 0.0010230144
0.0076651932 -6.3408632e-05 -0.023938136 0.45002574 0.71464151 -0.5355038 0.00042731181
0.0099136736 -0.00095146615 -0.023166044 0.50409472 0.67774445 -0.53530455 0.00036043976
-0.0059522153 0.0020476794 -0.022627039 -0.26343665 0.95015776 -0.16673735 0.00051571784
-0.003894611 0.0021678377 -0.023959775 -0.12989509 0.95481521 -0.26731101 0.0039839665
-0.001059256 0.0022523012 -0.024366142 0.011164224 0.93412298 -0.35677686 0.0041370885
0.0018172502 0.0022574002 -0.023861691 0.12514472 0.90700257 -0.40210077 0.0025216716
0.004068769 0.0021698652 -0.023111127 0.27897021 0.83540243 -0.47358048 0.0033446723
0.0029355432 -0.029103749 -0.021682246 0.49783561 -0.84157681 -0.20954275 0.0014802611
0.00427088 -0.028432913 -0.02172838 0.54273844 -0.81443703 -0.20524913 0.0007181869
0.0058336216 -0.027570754 -0.021283669 0.54273552 -0.81443787 -0.20525363 0.00071453658
0.0078923739 -0.026174657 -0.021035573 0.59993112 -0.76477277 -0.23495811 0.00089371897
0.0087055415 -0.025048353 -0.022557182 0.6302343 -0.73296976 -0.25604704 0.00094147143
0.010867709 -0.023507649 -0.021082247 0.68789864 -0.67109585 -0.27645218 0.0010546583
0.012336113 -0.022519164 -0.019812448 0.70663911 -0.64478475 -0.29139972 0.0026973772
0.012053348 -0.021744959 -0.021968363 0.74698269 -0.57994884 -0.3250787 0.0017123707
0.013390394 -0.020510642 -0.020986384 0.77363563 -0.54141641 -0.32917517 0.0013345239
0.014664641 -0.018057387 -0.021490281 0.81668359 -0.39577648 -0.41998672 0.0024497886
0.015684368 -0.016874634 -0.020658646 0.81670493 -0.39231184 -0.42318377 0.0018224609
0.01633361 -0.014532738 -0.021092232 0.84699005 -0.26714128 -0.45961219 0.0018509581
0.016919579 -0.011614142 -0.02109205 0.85398477 -0.079492703 -0.5141896 0.00225661
0.016848102 -0.0085916445 -0.021100551 0.83258456 0.10426152 -0.54399675 0.0020361599
0.014684718 -0.0046172608 -0.022145966 0.66960561 0.48715159 -0.56063521 0.0023796726
0.01619425 -0.0056447298 -0.02086667 0.76232433 0.32492197 -0.55972075 0.0038996886
0.011938121 -0.001615976 -0.022122441 0.56544513 0.62081259 -0.54301351 0.0012051876
0.013936123 -0.0025432389 -0.021071754 0.63028169 0.56442529 -0.53307503 0.0027388788
0.015568107 -0.0034016231 -0.02009145 0.66574478 0.52178782 -0.53340536 0.0026355255
-0.0081915343 0.0013892269 -0.021723 -0.26343724 0.95015776 -0.16673665 0.00051582046
0.0083359033 0.0011959616 -0.021756705 0.40398419 0.75710833 -0.51340407 0.0010649759
0.01065737 0.00014252868 -0.021025583 0.47308612 0.70063466 -0.5341354 0.000325481
0.012620511 -0.00075818179 -0.020292459 0.55316108 0.64571935 -0.52636433 0.00046644613
-0.0066501778 0.0020647487 -0.02086891 -0.26745227 0.94847882 -0.16987436 0.00054875942
-0.004190878 0.0027284184 -0.021360086 -0.2001144 0.95749438 -0.20774671 0.0026351651
-0.00098315161 0.003218554 -0.021384783 -0.098272674 0.95216143 -0.28936335 0.0020700623
0.0018245829 0.0034016147 -0.021031905 0.043396465 0.93548834 -0.35068271 0.0016305228
0.0049336604 0.0029116599 -0.021161443 0.26399305 0.84334487 -0.46805674 0.0030752937
0.0075247013 0.0023952285 -0.02057234 0.34684938 0.80647701 -0.47884262 0.0030688851
0.0084833503 -0.026318746 -0.018569542 0.60894138 -0.76777631 -0.19927347 0.0006494947
0.009907309 -0.025278307 -0.018453402 0.63322365 -0.74680561 -0.20324664 0.0010465903
0.011256348 -0.024165306 -0.01829703 0.6292057 -0.73795444 -0.24397419 0.0020535926
0.012849575 -0.02285728 -0.017535014 0.70452559 -0.66871554 -0.23761998 0.00072266802
0.014372265 -0.020668644 -0.018477399 0.76370418 -0.57072014 -0.30171919 0.0016931593
0.015556781 -0.01972118 -0.017267359 0.76758367 -0.56143939 -0.30919436 0.0022325281
0.016420344 -0.017659843 -0.018240945 0.81890571 -0.44247314 -0.36552832 0.0015893042
0.017736256 -0.014620392 -0.018345306 0.85472971 -0.30295902 -0.42148903 0.0024870932
0.018716492 -0.013654087 -0.017027272 0.85861039 -0.32404801 -0.39721656 0.0015491747
0.018119218 -0.011742415 -0.019006453 0.86040413 -0.10250375 -0.49919713 0.0018294337
0.018893996 -0.011511714 -0.017654311 0.88010114 -0.13893838 -0.45400235 0.002212079
0.018121921 -0.0084999306 -0.019132411 0.83759922 0.08800035 -0.53915071 0.0023670513
0.019065989 -0.0087423045 -0.017621676 0.86682719 0.052365303 -0.49585125 0.0025586174
0.017732169 -0.0052905832 -0.018542016 0.78662825 0.30556267 -0.53651428 0.0028988561
0.018857121 -0.0059985137 -0.017246554 0.81398225 0.28210503 -0.50778908 0.0038406753
0.014899308 -0.0016506896 -0.018956913 0.59928602 0.5975998 -0.53266394 0.00053086027
0.016679704 -0.0027309693 -0.017992871 0.70867336 0.47593725 -0.52083182 0.0024989669
0.01141575 0.0012873262 -0.018904183 0.46133772 0.71786851 -0.52137542 0.0014541697
0.013665453 0.00017079292 -0.01797317 0.53658324 0.65960956 -0.5263018 0.00024398776
0.01571255 -0.00089924922 -0.017107699 0.61777705 0.60451227 -0.50290793 0.00059728266
-0.006012158 0.0025317883 -0.018918617 -0.26626751 0.94819474 -0.17328699 0.00048276104
-0.0038411743 0.0033707311 -0.018415831 -0.24114504 0.95303267 -0.18324217 0.00098357408
-0.0010042251 0.0040896004 -0.018272998 -0.15399423 0.9524284 -0.26299414 0.0014286952
0.0018331995 0.0045679538 -0.017690137 -0.04830128 0.95641655 -0.28798318 0.001271621
0.0046838182 0.004314892 -0.018106099 0.11546932 0.91676766 -0.38236606 0.0028601324
0.0079870522 0.0035700435 -0.018132851 0.30055973 0.8320722 -0.46617562 0.0023829755
0.010620102 0.0025939299 -0.017830674 0.41991189 0.75641775 -0.50150383 0.0024491602
0.01241792 0.0021033203 -0.016892536 0.51838547 0.6942057 -0.49935451 0.0011014687
0.0083745364 -0.026747234 -0.016377671 0.6169014 -0.76064914 -0.20210271 0.00074051414
0.0097326506 -0.025860094 -0.016121907 0.63195926 -0.75163805 -0.18885906 0.00073797494
0.011542713 -0.024519457 -0.015892688 0.64541894 -0.74180281 -0.1821072 0.0010633543
0.013835 -0.022656612 -0.014770089 0.71400046 -0.6668812 -0.21324334 0.00066115352
0.014809219 -0.021471377 -0.015426291 0.73289615 -0.64478898 -0.21704897 0.0015486813
0.016160002 -0.020050392 -0.014851515 0.77242064 -0.57772768 -0.26381245 0.0011392415
0.017426152 -0.017844992 -0.015521808 0.81079549 -0.48268571 -0.33109686 0.0018550694
0.018490195 -0.016785581 -0.014398178 0.83064651 -0.44308874 -0.33719233 0.0012392596
0.01919551 -0.014583118 -0.015185453 0.86536831 -0.34863168 -0.35999119 0.0018679788
0.020041361 -0.011628286 -0.015301118 0.89110512 -0.18532448 -0.41422993 0.0022953516
0.020473702 -0.0086354483 -0.0150613 0.89250648 0.0027663743 -0.45102611 0.0020931398
0.019979086 -0.0055144858 -0.015193047 0.81123 0.27266353 -0.5172624 0.0035586872
0.017561348 -0.0017988984 -0.015906114 0.65026057 0.55452484 -0.51929122 0.0022398063
0.019012883 -0.0027860282 -0.014888663 0.73943216 0.44323942 -0.50673348 0.0028770904
0.014587348 0.0012530498 -0.01568005 0.57988203 0.64254516 -0.50087184 0.00014010357
0.016564978 -6.9667585e-06 -0.014904164 0.61398077 0.61423254 -0.49572772 0.00060642918
0.018398035 -0.001042434 -0.01389317 0.64522278 0.58728653 -0.48865327 0.000755872
-0.0033502099 0.003914929 -0.016152186 -0.29720423 0.94086474 -0.16261393 0.00035566022
-0.0010980028 0.0046979673 -0.015543495 -0.22745457 0.95326442 -0.19887523 0.0020783548
0.0061180661 0.0048108613 -0.016542478 0.086990222 0.92290902 -0.37506208 0.0018736944
0.0079317018 0.0047079567 -0.015932487 0.22675498 0.86818051 -0.44141212 0.0024329354
0.01082596 0.0040982412 -0.015227409 0.34600359 0.81126213 -0.47131228 0.0018529984
0.013503138 0.0028019724 -0.014888575 0.51287222 0.69097519 -0.50942659 0.0014410769
2.9908493e-05 0.0053008413 -0.014262242 -0.2449996 0.94581425 -0.21309775 0.002334459
0.0020219986 0.005472254 -0.014839564 -0.087428674 0.94828725 -0.30513534 0.0031349428
0.0047810613 0.0055145239 -0.015007641 0.022908425 0.94313312 -0.33162498 0.0016703339
0.0075497045 0.0054792594 -0.014436365 0.16020212 0.90396929 -0.39645278 0.002398696
0.0095540639 0.0053072637 -0.01388946 0.30027229 0.8313272 -0.46768761 0.0024386551
0.013921136 -0.023127928 -0.012091679 0.71106541 -0.68215144 -0.17045672 0.00039816051
0.016544983 -0.020577112 -0.011892082 0.74113572 -0.64385068 -0.1901951 0.0017167509
0.018000105 -0.01855769 -0.012535093 0.81698459 -0.51392341 -0.2615698 0.0017858184
0.018938238 -0.017444136 -0.011883663 0.8157776 -0.51516163 -0.262898 0.0017293599
0.020324804 -0.014700748 -0.012175562 0.87117112 -0.37467945 -0.31729493 0.0019662159
0.021064132 -0.011748604 -0.012949966 0.89945179 -0.2432221 -0.36308339 0.0026077467
0.021843934 -0.011072551 -0.011495345 0.89669812 -0.24726824 -0.36713883 0.0025943664
0.022034295 -0.008419333 -0.011950422 0.89912647 -0.035527825 -0.4362447 0.002876875
0.021088706 -0.0051940763 -0.013186557 0.85168165 0.20112105 -0.48393041 0.0024304823
0.021994578 -0.0057387729 -0.011717055 0.8845036 0.14634368 -0.44298637 0.0027548978
0.020537017 -0.0024725893 -0.012301903 0.77099818 0.41891766 -0.47965583 0.0029657816
0.021712556 -0.0033189936 -0.011074794 0.79894072 0.39352602 -0.45478678 0.004137781
0.017393246 0.0010841619 -0.012553719 0.61108476 0.61821109 -0.49435866 0.00069874193
0.019145936 -0.00017610891 -0.011773565 0.69143945 0.53624898 -0.48409563 0.0007658634
-0.0029260346 0.0044131791 -0.013027711 -0.27943912 0.94764006 -0.15457046 0.00089894369
-0.0020199341 0.0048747873 -0.012586189 -0.28901544 0.94302344 -0.16485429 0.0013558639
0.011840412 0.0048651015 -0.013185544 0.31034252 0.83225352 -0.45939261 0.0026632189
0.014056038 0.0040308144 -0.012562025 0.45345309 0.74822879 -0.48428711 0.0015623635
0.016233556 0.0029308973 -0.011811867 0.56838256 0.6502533 -0.50409514 0.0015375683
-0.00042880466 0.0055666706 -0.012069626 -0.28901601 0.94302344 -0.16485292 0.0013557241
0.001905574 0.0061910991 -0.012176173 -0.20925109 0.95231861 -0.22204348 0.0044465316
0.0048065805 0.0064724796 -0.01233721 -0.041223265 0.94775921 -0.3163116 0.0022910046
0.0078980736 0.0063777072 -0.012204226 0.094128169 0.92707872 -0.3628566 0.0011329113
0.010612665 0.0058918586 -0.012008189 0.27014056 0.87095392 -0.4104428 0.0026456325
0.013217125 0.0053538987 -0.011186112 0.39314851 0.79343939 -0.46463764 0.0021597436
0.014440274 -0.023002915 -0.010053111 0.72391367 -0.66766971 -0.17368427 0.00090461568
0.017878044 -0.019575246 -0.0099297445 0.7686016 -0.61144185 -0.18812324 0.0024022583
0.019706737 -0.017344557 -0.0092450259 0.82532924 -0.52219582 -0.21480969 0.00050283625
0.021013157 -0.014926765 -0.009779715 0.86819011 -0.41009772 -0.27940255 0.0024354507
0.021697257 -0.014214195 -0.0087418007 0.86470348 -0.41429943 -0.28397867 0.0024268203
0.022621607 -0.011511048 -0.0091195554 0.90500033 -0.28489202 -0.31592861 0.0022058168
0.023254137 -0.0086664418 -0.0090746759 0.92181677 -0.10119865 -0.3741827 0.0024530776
0.023234572 -0.0054981178 -0.0091185765 0.90433919 0.098459966 -0.4153026 0.0024269333
0.02243547 -0.0025768005 -0.0091665043 0.83012152 0.35380644 -0.43095163 0.0047794594
0.020077376 0.00068679918 -0.0093933456 0.69413888 0.53438079 -0.48229498 0.00079092244
0.021639857 -0.00057130167 -0.0085742436 0.74075395 0.49878979 -0.44999164 0.00083005958
0.017319087 0.0036638174 -0.0095963133 0.56610507 0.66279519 -0.49013013 0.0030539886
0.019078588 0.0026428401 -0.0086365677 0.64395469 0.58891839 -0.48836204 0.0011836231
-0.00066914037 0.0058605932 -0.0084263319 -0.30056375 0.93900669 -0.16711661 0.0009505013
0.0019544167 0.0068285139 -0.0092620598 -0.25440601 0.94277817 -0.21551566 0.0020188999
0.0049408744 0.0074310098 -0.0093636988 -0.11806569 0.95434964 -0.27436689 0.0041708592
0.0078121708 0.0074439878 -0.0095708678 0.067623332 0.93327641 -0.35273546 0.0021728696
0.010918839 0.0071260994 -0.0092302915 0.20393357 0.89015299 -0.40747842 0.0015623756
0.013812998 0.006175613 -0.009185737 0.38969883 0.80127257 -0.45397919 0.0020269197
0.016115036 0.0052729836 -0.0086294161 0.49557462 0.72952139 -0.47138542 0.0016166273
0.007613434 0.0081758508 -0.0076769125 0.0059035919 0.94395709 -0.33001548 0.0036904712
0.020313554 -0.017286338 -0.0067336094 0.81987816 -0.54076397 -0.18808034 0.00027365412
0.022193998 -0.014655337 -0.0060241651 0.85694021 -0.4704726 -0.21049733 0.00187764
0.023433583 -0.011746716 -0.0063712662 0.90594709 -0.30565795 -0.29297277 0.0013230001
0.024327543 -0.010285177 -0.0050322842 0.90682942 -0.31928083 -0.27517283 0.0023365719
0.024160871 -0.0086388746 -0.0066681681 0.9259733 -0.12463693 -0.3564254 0.0019353639
0.024689503 -0.0085230405 -0.0051864935 0.93819958 -0.15469305 -0.30959922 0.0018943159
0.02422414 -0.0056376583 -0.0069138408 0.91191673 0.071688011 -0.40406522 0.0031259861
0.024758397 -0.0056491299 -0.0056076823 0.9379279 0.028411329 -0.34566465 0.0027104777
0.023778342 -0.0026412895 -0.0066356268 0.85341179 0.29040885 -0.43284062 0.0027466668
0.024562867 -0.0026441324 -0.0049649505 0.87864453 0.27428395 -0.39083511 0.0046094232
0.020827793 0.0015826738 -0.0072394842 0.68607748 0.55728418 -0.46768805 0.00054584467
0.022546358 0.00026052492 -0.0060201846 0.76166683 0.47270709 -0.4431836 0.0011446262
0.018209524 0.004497773 -0.0074208807 0.61525869 0.62229294 -0.48395073 0.0018252208
0.01999972 0.0035291491 -0.0062636212 0.68663031 0.55747193 -0.46665174 0.00054477889
0.021702813 0.002372589 -0.0050459635 0.7167334 0.53589576 -0.44621632 0.0010352526
0.0020033042 0.0073841373 -0.0059920438 -0.37757662 0.91633588 -0.13328359 0.0046560531
0.0034741978 0.0077259457 -0.0072204899 -0.26897439 0.9421882 -0.1998353 0.003758196
0.011992903 0.0077216765 -0.0074088555 0.17878376 0.88726109 -0.42521086 0.0017444205
0.01416987 0.007434166 -0.0065344926 0.32770565 0.84135598 -0.42980123 0.0013958078
0.01680053 0.0063277902 -0.0061071012 0.47620049 0.75632596 -0.44855773 0.0029542474
0.018992648 0.0053019458 -0.0052566016 0.59917939 0.66117769 -0.45147324 0.0018064644
0.0053268061 0.008363205 -0.0062784785 -0.19562034 0.94455117 -0.26373419 0.0032515111
0.0080652572 0.0087111332 -0.0061143404 -0.005582415 0.94170254 -0.33640033 0.0046160235
0.010711715 0.0085692275 -0.0060132435 0.12584658 0.9228974 -0.36389971 0.0019134857
0.013517044 0.0083114365 -0.0052148337 0.29002023 0.86846149 -0.40207326 0.0021184071
0.021120448 -0.016793616 -0.0043034386 0.83740199 -0.51779842 -0.17505078 0.00039343763
0.021672647 -0.016390599 -0.0024820995 0.85671329 -0.48539352 -0.17445733 0.00091341091
0.023038816 -0.014276777 -0.0030931961 0.86602712 -0.4657194 -0.18194081 0.0016238808
0.023783291 -0.012634395 -0.0036682021 0.88555473 -0.43057457 -0.17435114 0.0026607343
0.02462204 -0.010974722 -0.0030649975 0.91247773 -0.3282555 -0.24419817 0.0015256015
0.025307851 -0.0086365594 -0.0030735414 0.94140184 -0.21109922 -0.26305842 0.0030859455
0.025584612 -0.0056691701 -0.0033168271 0.95048732 -0.016945647 -0.31030104 0.0024429744
0.025406683 -0.0026295744 -0.0029897988 0.90759939 0.22981077 -0.35135502 0.0044842544
0.023485383 0.001050842 -0.0034482125 0.77672195 0.46256253 -0.42747974 0.0007676786
0.024714805 -0.00034515373 -0.0026973188 0.82899755 0.39785659 -0.39303061 0.0018414693
0.021020537 0.0042020781 -0.0039632972 0.69553 0.56376588 -0.44542786 0.0011709103
0.0223649 0.0032797586 -0.0028955434 0.7139129 0.54893798 -0.4347361 0.0013742779
0.0016407194 0.0075935936 -0.0027809571 -0.44373739 0.88396889 -0.1472957 0.0030734183
0.017232684 0.0075510442 -0.0035493113 0.43343607 0.79192537 -0.43010148 0.0014066671
0.019647025 0.0061840853 -0.0029609296 0.57122207 0.69346917 -0.43909675 0.0028567973
0.021706838 0.0050495034 -0.0017769765 0.69118834 0.58137178 -0.42926151 0.0017675819
0.0030357321 0.0082846647 -0.0030872654 -0.44373772 0.88396877 -0.14729583 0.0030733116
0.0048921178 0.0089129787 -0.0035496 -0.27506965 0.94198543 -0.19235405 0.0036375325
0.0078064133 0.009723084 -0.0029566325 -0.1173913 0.94481242 -0.30585742 0.0033727554
0.010853115 0.0097767413 -0.0029858295 0.068624243 0.93217051 -0.35545582 0.002484696
0.013811188 0.009162575 -0.0031409971 0.24570888 0.88975406 -0.38466209 0.0017593509
0.016287828 0.0085566174 -0.0025422201 0.40590879 0.81536627 -0.41281459 0.0018532887
0.023191364 -0.014596836 -0.00012545101 0.87138754 -0.46844575 -0.1457473 0.0012402557
0.025051452 -0.011311157 -0.0003817305 0.90079218 -0.39766312 -0.17446351 0.0013010249
0.026071183 -0.0086406916 -0.00010068156 0.94204998 -0.25072518 -0.22288722 0.0022668436
0.026648629 -0.0054418365 -5.8710575e-06 0.95618081 -0.064193673 -0.28565255 0.0028458133
0.026517861 -0.0026739277 -5.803816e-05 0.93437254 0.14253351 -0.32654566 0.0041875411
0.024054304 0.0017856127 -0.0015085768 0.77105761 0.48105374 -0.41720188 0.00038356666
0.025540862 0.00039297342 -1.5530735e-05 0.84750605 0.3785356 -0.37208098 0.0013935879
0.023549158 0.0036687944 -0.00033991784 0.76820058 0.49353537 -0.40778759 0.00063196296
0.024766479 0.0026273383 0.00081741996 0.78944999 0.46811932 -0.39703035 0.0011700554
-0.00022439798 0.0064581549 -0.0013216566 -0.52589923 0.8463248 -0.084642962 0.00084853213
0.0016469476 0.0078906631 6.0217455e-05 -0.53368956 0.84116775 -0.087247774 0.0010950945
0.020165114 0.0072129751 -0.00061229244 0.55196917 0.72318918 -0.41512337 0.0011913019
0.02213718 0.0058037154 6.4779073e-05 0.65245581 0.6336056 -0.41574678 0.0014260641
0.002817105 0.0085853413 -0.00029748492 -0.50794458 0.85299265 -0.11998316 0.0021790117
0.0048555858 0.0095513631 -0.00044077635 -0.36485347 0.9084245 -0.20407563 0.002878272
0.0076805162 0.0104838 -0.00030164234 -0.20344357 0.93440932 -0.29238674 0.0047931145
0.010768602 0.010682387 -0.00062019378 0.037758328 0.92624605 -0.37502337 0.0023215956
0.013965731 0.010369822 -0.0003159754 0.21348642 0.89629149 -0.38869691 0.0014931371
0.016938906 0.0094585661 -9.4024464e-05 0.39353245 0.8240633 -0.40749469 0.0013600857
0.019179242 0.0085457452 0.00049933605 0.51227254 0.75488961 -0.40953448 0.0011541946
0.0091642924 0.01120194 0.0010938812 -0.093211412 0.94886941 -0.30159315 0.0022408592
0.010801191 0.011192862 0.00079269893 -0.013906728 0.94572312 -0.32467601 0.0031600394
0.012922855 0.0112029 0.0011252631 0.15956496 0.90903473 -0.38496098 0.0038381349
0.025457479 -0.011377224 0.0026622433 0.91938567 -0.34571335 -0.18764943 0.0033590139
0.026751079 -0.0084594516 0.0030091163 0.95167595 -0.22811797 -0.20560916 0.0034077805
0.027062509 -0.0064201737 0.0019194055 0.9664675 -0.099705547 -0.23664191 0.0030640885
0.027641043 -0.0050210478 0.0036768634 0.97260076 -0.091559179 -0.21369295 0.0033091363
0.027050294 -0.001949274 0.0017169975 0.93593127 0.15419203 -0.31663463 0.0037237671
0.027626105 -0.0026573571 0.0034336373 0.96522486 0.095237836 -0.24345571 0.0045581707
0.026613567 0.00069913641 0.0028898492 0.87785238 0.33219627 -0.34499386 0.0017461902
0.027673207 -0.0010034377 0.0042005349 0.95160365 0.1626516 -0.26075837 0.0030507445
0.024235616 0.0044026664 0.0018565226 0.76098883 0.51827079 -0.39024529 0.00066318893
0.025428144 0.0033498611 0.0030971169 0.80612487 0.46534982 -0.3655301 0.0013760099
0.00023856666 0.0070036417 0.0025083292 -0.53637141 0.83761865 -0.10344402 0.0014357094
0.00070978561 0.0075057363 0.0039399434 -0.56066662 0.82059366 -0.11081045 0.00065343437
0.022916853 0.0065877745 0.0026408713 0.68035585 0.61778671 -0.39427847 0.003033214
0.024483852 0.0052929185 0.0035384856 0.74356097 0.54963785 -0.38080874 0.001330847
0.0022438136 0.008672066 0.0032939259 -0.55483478 0.82139218 -0.13218701 0.0011829151
0.0047151404 0.010066161 0.0024828278 -0.42940769 0.88551116 -0.17742345 0.0027339049
0.0065900055 0.010752216 0.0017798264 -0.26974806 0.93346292 -0.23639566 0.004080574
0.017297607 0.010538224 0.0025149602 0.35348445 0.84654188 -0.39801446 0.0012484383
0.019877277 0.0092854947 0.0028253179 0.49845338 0.77636671 -0.3857446 0.0024875128
0.021867437 0.0081569916 0.003474718 0.61738938 0.68320638 -0.38994798 0.001044327
0.00792557 0.011446463 0.0029382817 -0.27741486 0.93212163 -0.23278785 0.0041291788
0.010852171 0.011967568 0.0030024759 -0.06598451 0.95111793 -0.30169651 0.0022251951
0.013749762 0.011798766 0.0029856097 0.15224546 0.92219371 -0.35549983 0.0022797412
0.016119357 0.011452546 0.0035221968 0.31082526 0.86866492 -0.38575765 0.0016148253
0.027286671 -0.0081191445 0.0056340862 0.9544788 -0.24519284 -0.16985542 0.0021626567
0.028018989 -0.0055106254 0.0059591848 0.97157997 -0.15489389 -0.17899814 0.0012765843
0.028250419 -0.0026616063 0.0058671944 0.97690827 0.047516271 -0.20830859 0.003830408
0.027242672 0.0011304012 0.0049049426 0.90341246 0.28785568 -0.31778142 0.0032804939
0.02789928 0.00026807887 0.0061575044 0.93680549 0.24040288 -0.25416911 0.0033729002
0.026346002 0.0037906589 0.0057722181 0.84136266 0.41996068 -0.34020868 0.0009482904
0.027366493 0.0025727889 0.0069568027 0.86675686 0.37873048 -0.32449317 0.0018258083
0.023797108 0.0073803328 0.0054549836 0.72797441 0.58545768 -0.35678071 0.0012597805
0.02505487 0.0061262036 0.0060343221 0.75450939 0.55173796 -0.35538813 0.0011497833
0.0023735357 0.0092153288 0.0060672034 -0.60576844 0.78612262 -0.12270218 0.0016946621
0.0045017027 0.01047045 0.0051331632 -0.46064454 0.86454076 -0.20093744 0.0016469999
0.020201683 0.010383694 0.0054108743 0.46212822 0.79358137 -0.39581075 0.0013924647
0.022597317 0.0089150872 0.0061238315 0.61045337 0.70001894 -0.37056732 0.0018001802
0.0053043687 0.011202322 0.006364461 -0.46215826 0.86299926 -0.20406365 0.0016203672
0.008047007 0.012294423 0.0058198012 -0.31740582 0.91582507 -0.24600391 0.0030318943
0.01102763 0.01298834 0.0059157182 -0.10878423 0.93843275 -0.32788703 0.0030425626
0.013860429 0.012954872 0.0059043933 0.094017282 0.92800933 -0.36049867 0.0025893606
0.016736723 0.012268208 0.0059107561 0.3041867 0.87781662 -0.37001142 0.0018552967
0.019259183 0.01150357 0.0065860115 0.44515276 0.8106904 -0.38028955 0.0014736061
0.027949605 -0.0072062993 0.0087005068 0.969989 -0.17895406 -0.1646108 0.00057686243
0.028416112 -0.0055327127 0.008518355 0.98071343 -0.092199363 -0.17233829 0.0034970918
0.028935332 -0.0024282178 0.009171484 0.98101091 -0.035059001 -0.1907573 0.003551489
0.028560884 0.00061963266 0.0089146066 0.93804377 0.22784142 -0.26107877 0.0022939229
0.026965566 0.0044953292 0.0082236994 0.86349475 0.39998955 -0.30722162 0.0016321288
0.027698372 0.0035174247 0.0090600625 0.88939446 0.35698333 -0.28555277 0.0013232621
0.00023080502 0.0076301014 0.0097109545 -0.72764522 0.67494684 -0.12238918 0.0012577455
