# .PCD v0.7 - Point Cloud Data file format
VERSION 0.7
FIELDS x y z normal_x normal_y normal_z curvature
SIZE 4 4 4 4 4 4 4
TYPE F F F F F F F
COUNT 1 1 1 1 1 1 1
WIDTH 555
HEIGHT 1
VIEWPOINT 0 0 0 1 0 0 0
POINTS 555
DATA ascii
0.0012352476 0.038091857 -0.047350239 0.26887366 0.058839433 -0.96137655 0.0022917814
0.004131217 0.038028851 -0.046417847 0.31226924 0.1086939 -0.94375503 0.0035157115
0.0058761965 0.036755648 -0.045887861 0.40537277 0.10524091 -0.90807343 0.0052210982
-0.0065125753 0.042141419 -0.048781026 0.28147757 0.36893228 -0.88581002 0.035216454
-0.0043857954 0.041092586 -0.04844258 0.30782548 0.2403388 -0.92058718 0.0068836291
-0.0017042313 0.040999833 -0.047680069 0.26371056 0.2707108 -0.92583609 0.0047561466
0.0011911826 0.041043445 -0.046739269 0.31518048 0.35971543 -0.87821752 0.0058432086
0.0034038112 0.040492751 -0.046174835 0.34852183 0.33661371 -0.8747707 0.0042052553
-0.013011404 0.045102045 -0.048520237 0.34684062 0.59734106 -0.72310811 0.022166727
-0.010614354 0.044878367 -0.047888845 0.27622929 0.70704144 -0.65099138 0.014891517
-0.0076027354 0.044098791 -0.047688264 0.16989458 0.69966537 -0.69397712 0.016290005
-0.0047170105 0.043675017 -0.047171511 0.21700519 0.60510069 -0.76600379 0.011639155
-0.0018695111 0.043342862 -0.046567641 0.23580018 0.60115129 -0.76355445 0.0065880101
0.00030864702 0.043018509 -0.046092611 0.28407511 0.58481979 -0.75979418 0.0067821029
-0.00096973858 0.027367553 -0.043124385 -0.28955248 -0.69726145 -0.65573311 0.0056058634
0.0014087247 0.027009798 -0.043389387 -0.11299133 -0.64649642 -0.75450337 0.0048034834
0.0041637314 0.026823638 -0.043349985 0.053266145 -0.57340038 -0.8175419 0.0043291659
0.0067614312 0.027117671 -0.043139476 0.23786429 -0.4718391 -0.84899265 0.003136178
-0.0065474655 0.030280169 -0.043180108 -0.49778813 -0.73639625 -0.45817843 0.0042563723
-0.0044242837 0.029637899 -0.043929145 -0.36332914 -0.71217752 -0.60066217 0.0052060429
-0.0016993984 0.029078761 -0.044480555 -0.15444642 -0.61809522 -0.77078187 0.0039257905
0.0012373673 0.029025223 -0.044860214 0.0031815928 -0.52173018 -0.85310459 0.0047661019
0.0041999528 0.029040975 -0.044645615 0.15212856 -0.43279797 -0.8885622 0.0046149003
0.0071737305 0.029092237 -0.043937728 0.29476085 -0.36259079 -0.88410628 0.0032120042
0.0094434852 0.02947282 -0.043217711 0.37555698 -0.33237258 -0.86515057 0.0021939864
-0.0098965298 0.032937787 -0.044040553 -0.4131856 -0.78520983 -0.46121931 0.0094457464
-0.007650773 0.031819716 -0.044544578 -0.46119931 -0.727911 -0.50738621 0.0095877219
-0.0048773065 0.031081878 -0.045331873 -0.25580791 -0.70678121 -0.65956235 0.0062878933
-0.0021394999 0.030651491 -0.045729972 -0.095782928 -0.58840096 -0.80287606 0.0043818532
0.0018693404 0.030647438 -0.045783024 0.053044699 -0.48565564 -0.87253928 0.0038734095
0.0045557893 0.031493176 -0.045570992 0.20364793 -0.32479328 -0.92359996 0.003202646
0.0071588508 0.031986058 -0.044864263 0.33008435 -0.23938067 -0.91309434 0.002016736
0.010014907 0.032175902 -0.043575153 0.45890096 -0.13280399 -0.87850618 0.0032181316
-0.012857878 0.034942891 -0.044906694 -0.15030143 -0.86585933 -0.47717616 0.0051965872
-0.011023753 0.033974238 -0.044996701 -0.33165246 -0.83068323 -0.44718224 0.010335571
0.0054548201 0.033595152 -0.045851309 0.27972162 -0.15843819 -0.94691771 0.0022565091
0.0072657997 0.034859497 -0.045219418 0.44636238 -0.025864052 -0.89447844 0.0016987585
0.010119605 0.035017677 -0.043748617 0.49878407 0.0050535379 -0.86671156 0.0021382477
0.0054560821 0.038878653 -0.045744885 0.4021858 0.14796133 -0.90352315 0.0041491515
0.0072090602 0.037929498 -0.04510615 0.4436051 0.17851149 -0.87826431 0.0022920568
0.0098043457 0.03792055 -0.043638002 0.51518756 0.19630346 -0.83429414 0.0039462387
0.0022916154 0.042471264 -0.04568911 0.32572368 0.57649457 -0.74937177 0.0033605415
0.0045754751 0.041186512 -0.045346607 0.40610555 0.36577207 -0.83743012 0.0029384291
0.0070956596 0.040859893 -0.044227429 0.4473747 0.38041833 -0.8094058 0.0025442718
0.0092124129 0.040226746 -0.043291096 0.52046454 0.3895776 -0.75983286 0.0036902258
-0.0065716207 0.045429926 -0.045649786 0.13271591 0.81161773 -0.568914 0.009963939
-0.0046757539 0.04521583 -0.045411892 0.14414364 0.83636218 -0.52888638 0.0063215848
-0.0015095912 0.044689722 -0.045144446 0.20813721 0.77778745 -0.59306449 0.0023229069
0.0013320046 0.044162098 -0.044615902 0.25930086 0.69201082 -0.67370915 0.0078564947
0.0040594428 0.043506298 -0.044063095 0.36615676 0.58746004 -0.7216785 0.0030770812
0.0063874945 0.042991649 -0.043299891 0.41595018 0.61685658 -0.66818666 0.004925712
-0.010169211 0.045893341 -0.045291126 0.18442936 0.83549762 -0.51761913 0.0058585694
-0.007644393 0.045948427 -0.044813413 0.15085763 0.8626703 -0.4827441 0.0040523042
-0.0044608312 0.045859866 -0.044247374 0.12342648 0.86011243 -0.49494711 0.0038452859
-0.0019618999 0.045811616 -0.043660216 0.17656586 0.82132065 -0.54245454 0.0032328577
0.00017728403 0.045723978 -0.043075401 0.22623768 0.79435128 -0.5637576 0.0026464742
0.0017411835 0.023933722 -0.040342979 -0.28626704 -0.73410386 -0.6157456 0.003387497
0.0043160352 0.023607386 -0.040670402 -0.094519824 -0.69196707 -0.71571469 0.0050317412
0.0072120121 0.023523463 -0.040631101 0.091412447 -0.61890644 -0.78012723 0.0041007339
0.0099431667 0.023820763 -0.040242765 0.29367489 -0.51928133 -0.80255967 0.0031438258
-0.0039427169 0.026933959 -0.040525604 -0.48764205 -0.7495839 -0.4475815 0.0050089299
-0.001655878 0.026232637 -0.041393179 -0.33037266 -0.7426706 -0.58248973 0.0020237137
0.0011456735 0.025456762 -0.041815493 -0.22815646 -0.72166264 -0.65356535 0.0056581935
0.0042653442 0.025214601 -0.042120922 -0.019730205 -0.64814842 -0.7612583 0.0031302879
0.0073448676 0.02564507 -0.042103313 0.14113474 -0.55449861 -0.82012945 0.0025682778
0.010159971 0.02592965 -0.041387472 0.32395211 -0.45041126 -0.83197641 0.0015997466
0.012637965 0.02630464 -0.040369444 0.47084573 -0.34730744 -0.81097585 0.002785532
-0.0071077803 0.029658094 -0.041270245 -0.56553525 -0.7359677 -0.37218454 0.0034305758
-0.0049417079 0.028336931 -0.041680999 -0.5203774 -0.74494869 -0.41744334 0.0030703549
-0.0030148022 0.02770862 -0.042484257 -0.409192 -0.73755163 -0.53719604 0.0032884171
0.010737783 0.028717082 -0.042320989 0.41817141 -0.28494105 -0.86252028 0.0028436133
0.01312012 0.028956097 -0.04102065 0.55496722 -0.21312599 -0.80410743 0.0011356722
0.014944165 0.030020744 -0.039982993 0.61117148 -0.18292469 -0.77007014 0.0019694117
-0.01006472 0.032261811 -0.04140443 -0.59825492 -0.77032274 -0.22066726 0.0037440902
-0.0086183269 0.03106709 -0.041683514 -0.60742003 -0.74066818 -0.28714386 0.0029677798
0.011359534 0.03139054 -0.042738754 0.53330499 -0.12255004 -0.836999 0.0016151405
0.013157602 0.031946287 -0.04158739 0.5787043 -0.095837601 -0.80988663 0.0023478048
0.015094611 0.032169323 -0.040131431 0.65329343 -0.04481766 -0.75577718 0.0020714514
0.011442635 0.036401536 -0.042809863 0.58104968 0.12802628 -0.80373532 0.0058516031
0.013181474 0.034985289 -0.041630574 0.62186253 0.081095122 -0.77891624 0.0033061516
0.015035352 0.034697376 -0.040094942 0.67567974 0.11868834 -0.72757816 0.0020866771
0.011239183 0.03845394 -0.042467464 0.60456699 0.23143674 -0.76219141 0.0027416714
0.013085194 0.03787544 -0.041127123 0.65241307 0.27147514 -0.70757228 0.0024862203
0.0083271759 0.042223252 -0.042699672 0.50884813 0.54283583 -0.66813385 0.010343809
0.010374893 0.041206118 -0.041800238 0.55685109 0.494847 -0.66711563 0.0070977658
0.012420292 0.040364154 -0.040536799 0.61611915 0.4729124 -0.62988192 0.0024075776
0.0025151235 0.045332652 -0.042779226 0.23632999 0.80175424 -0.5489428 0.0070796199
0.0044830246 0.044941261 -0.04218756 0.30682081 0.79374993 -0.52518761 0.0031244834
0.0072708074 0.044045918 -0.041551929 0.39024293 0.74904507 -0.53538948 0.001835759
0.0097241066 0.043100055 -0.040720772 0.5325135 0.61639959 -0.58006984 0.0026682494
-0.0070522628 0.046614919 -0.042720947 0.095096067 0.88718134 -0.45151514 0.0012742139
-0.0047162739 0.046642259 -0.042485978 0.11709066 0.89252102 -0.435541 0.001364405
-0.0014865284 0.046586897 -0.041865144 0.13776487 0.91000712 -0.39103419 0.0019284139
0.0012143764 0.046305973 -0.041486155 0.18216687 0.89216787 -0.41334209 0.0045627244
0.0040628235 0.045952875 -0.040698987 0.29005361 0.83485955 -0.46784449 0.0035834862
0.0059504784 0.045630883 -0.040143359 0.30620664 0.84010661 -0.44772592 0.0056783236
0.0021079406 0.021389412 -0.037156582 -0.37570569 -0.7746107 -0.50874692 0.0024547579
0.0044646156 0.020890797 -0.037669912 -0.22717413 -0.7596795 -0.60932672 0.0030638184
0.0073362375 0.02054224 -0.037884459 -0.0091888998 -0.70266145 -0.711465 0.0021054794
0.01020774 0.020579886 -0.037705112 0.16068302 -0.64069819 -0.75079077 0.0041684709
0.01276312 0.020984611 -0.037239809 0.3679339 -0.53446573 -0.76090145 0.003057688
-0.0013375718 0.023834661 -0.038032759 -0.47006866 -0.75889361 -0.4506838 0.0024590148
0.001178998 0.022813205 -0.038559254 -0.32653859 -0.75038534 -0.57471246 0.0017148985
0.0041534244 0.022218425 -0.039154246 -0.15867388 -0.72882092 -0.6660651 0.0026638354
0.0072677839 0.02210867 -0.039411347 0.022105576 -0.68009406 -0.73279154 0.0032294895
0.010419945 0.022489024 -0.039167322 0.20044744 -0.59069473 -0.78160137 0.0023779839
0.013284103 0.02304746 -0.038329758 0.39121562 -0.48920867 -0.77950323 0.0017272148
0.015497781 0.023677953 -0.037348382 0.50865018 -0.42523712 -0.74863106 0.0017252993
-0.0065156757 0.027424507 -0.037185956 -0.68680638 -0.68167251 -0.25222945 0.0040347674
-0.0046448023 0.026283756 -0.038301736 -0.6042186 -0.72840649 -0.32302308 0.0015528237
-0.0022617215 0.025008852 -0.039082538 -0.43307891 -0.77431482 -0.46138844 0.0036174268
0.013859465 0.025600631 -0.039339513 0.48030999 -0.3414804 -0.80789441 0.0035446386
0.016113987 0.026184482 -0.037949197 0.61139649 -0.25377339 -0.74952877 0.0014487104
-0.0076218345 0.028981479 -0.038403068 -0.69451612 -0.68850315 -0.2088317 0.0014052609
-0.0058322423 0.027706049 -0.039389987 -0.59876835 -0.72743529 -0.33513349 0.0055367043
0.014523169 0.027894087 -0.039774898 0.55605888 -0.21445242 -0.80299979 0.0011676952
0.016339768 0.029004645 -0.03857303 0.65998608 -0.14415281 -0.73731828 0.0011198155
0.018068252 0.029590895 -0.03703931 0.70769429 -0.12032867 -0.69619668 0.0012265512
-0.010196275 0.032007974 -0.039206881 -0.64826149 -0.72648567 -0.22798172 0.0031568974
-0.0090496 0.030712105 -0.03933214 -0.66787857 -0.70558 -0.23684435 0.0035100426
0.016607879 0.031981699 -0.038688421 0.71064693 -0.012839125 -0.70343167 0.00098235661
0.018061219 0.032166302 -0.037202466 0.74071622 0.012820294 -0.67169571 0.0019062432
0.016530102 0.035094842 -0.038498793 0.72707868 0.16604044 -0.66617358 0.0021246376
0.018070122 0.034123786 -0.036995951 0.76971447 0.14732026 -0.62115729 0.0037904696
0.014448788 0.038764257 -0.039445996 0.69514507 0.30136365 -0.65265095 0.0018134194
0.015853588 0.03792154 -0.03825929 0.72510558 0.32726932 -0.60590154 0.0033615993
0.01350209 0.041160759 -0.03870827 0.65534562 0.52035987 -0.54749227 0.0055858167
0.01520583 0.040245544 -0.037474182 0.67982101 0.53556538 -0.50101209 0.0030950683
0.0081968633 0.045155801 -0.03903373 0.38947335 0.84260142 -0.37193197 0.00418405
0.01037945 0.044015449 -0.038638014 0.51813436 0.73641157 -0.4350113 0.0060217632
0.012297397 0.043177627 -0.037725616 0.57126528 0.6806125 -0.45871827 0.0035003531
-0.0013331258 0.047517754 -0.038654607 0.14645857 0.92452598 -0.35185441 0.00073037454
0.0021021878 0.04703635 -0.039099723 0.1939085 0.91813958 -0.34557089 0.0018808688
0.0043571601 0.04664721 -0.038756587 0.27419835 0.8998313 -0.33929169 0.001743566
0.0069427202 0.046000976 -0.038298428 0.36489987 0.86004448 -0.35661134 0.0029087714
0.0090084504 0.045542132 -0.037116308 0.42716819 0.85532945 -0.29315335 0.0023608098
0.0050314707 0.018303704 -0.034463543 -0.32424328 -0.78771365 -0.52380675 0.0019625071
0.0074238167 0.017899552 -0.034854621 -0.16106597 -0.77694994 -0.60861033 0.0032873463
0.010394746 0.017630581 -0.034835801 0.038759381 -0.73234314 -0.67983174 0.0048446655
0.013238817 0.017924996 -0.034551464 0.25517681 -0.65302521 -0.7130518 0.0046946695
0.015154993 0.018290581 -0.034054268 0.40464118 -0.57268065 -0.71295327 0.0021543913
-0.00048958592 0.02112145 -0.033933181 -0.52234828 -0.75277257 -0.40060663 0.0010844136
0.001455922 0.02058588 -0.035303514 -0.44285923 -0.76934081 -0.46042413 0.003097275
0.00411253 0.019511404 -0.035644952 -0.26654428 -0.77630699 -0.57122809 0.0019696648
0.0071612643 0.019137321 -0.036309741 -0.099394806 -0.74852675 -0.65561301 0.0026408448
0.010472101 0.019167174 -0.03638608 0.096233584 -0.68913949 -0.71821028 0.0031029512
0.013579987 0.019794744 -0.035958853 0.29173982 -0.60853368 -0.73795301 0.0025173451
0.016026139 0.020284988 -0.03497288 0.47422376 -0.48102221 -0.73738015 0.0026126711
0.017907957 0.020971261 -0.034038138 0.57845432 -0.43235418 -0.69170839 0.0017774537
-0.0036285713 0.024096731 -0.035084378 -0.62063295 -0.72139704 -0.30724746 0.0018537246
-0.0017844118 0.022779224 -0.035391908 -0.57232511 -0.74248195 -0.34808707 0.0012000083
0.00027448105 0.021961153 -0.036539089 -0.41791338 -0.78637183 -0.45493716 0.0029761542
0.01670992 0.02292758 -0.036038347 0.58252048 -0.35429972 -0.73153371 0.0017655442
0.018494846 0.023050029 -0.0345916 0.64515907 -0.33537087 -0.68651015 0.0015669564
-0.0067023002 0.02699865 -0.034903597 -0.69927883 -0.6905027 -0.18497327 0.0013591152
-0.0049684965 0.025460239 -0.035571475 -0.68344337 -0.70161599 -0.20159413 0.00228407
0.017533865 0.025553843 -0.036555979 0.6616922 -0.23582391 -0.71172369 0.0011966098
0.019050678 0.026046056 -0.035195984 0.69438833 -0.22335573 -0.68405932 0.0011928896
-0.0079130074 0.028604355 -0.035715669 -0.72103006 -0.67133456 -0.17153874 0.0010721013
0.019365625 0.028883968 -0.035480823 0.76987737 -0.079439871 -0.6332283 0.0021799265
-0.0095437858 0.030902602 -0.036806751 -0.73942065 -0.65553379 -0.15340289 0.00045558045
0.019461863 0.031907998 -0.035466954 0.80260623 0.067275599 -0.59270334 0.0018369594
0.01904894 0.034862056 -0.035415024 0.8053689 0.22715537 -0.54752308 0.0022651835
0.017359344 0.038103923 -0.036164273 0.77171952 0.3363075 -0.539765 0.0020586979
0.018343901 0.037701212 -0.034958925 0.77661151 0.36625257 -0.51257527 0.0039028698
0.014499156 0.042032868 -0.036296953 0.6356709 0.65689343 -0.40547931 0.0074839913
0.016131965 0.040738583 -0.035439998 0.71437681 0.56609505 -0.41134185 0.0039670402
0.010936514 0.044900578 -0.035896808 0.47004333 0.83589512 -0.28344068 0.0015741611
0.013452867 0.043368831 -0.035431582 0.60980916 0.71274257 -0.34659892 0.0029790376
0.0055626873 0.046878006 -0.036751289 0.29924649 0.91331649 -0.27623287 0.001118889
0.0073094401 0.046587814 -0.035512459 0.36435616 0.89475793 -0.25817209 0.0010906635
0.0097061265 0.045797255 -0.034839738 0.45825356 0.84495163 -0.27579051 0.0013241832
0.0081658466 0.015043806 -0.031245062 -0.29026526 -0.78920531 -0.5412032 0.0024938774
0.010348612 0.014773173 -0.031470682 -0.090270177 -0.77991468 -0.61934185 0.0032458853
0.01291564 0.014760004 -0.031430602 0.11137643 -0.7387622 -0.66469967 0.0044865464
0.015149426 0.015025815 -0.031135006 0.30672604 -0.66376263 -0.68215704 0.0027303044
0.0022137859 0.018009659 -0.03147142 -0.48460257 -0.769315 -0.41631088 0.0012477989
0.0044563981 0.017215222 -0.032291863 -0.3646723 -0.79295009 -0.48810273 0.0016058346
0.007271653 0.016278468 -0.032588486 -0.24237694 -0.79544836 -0.55544156 0.0044278088
0.01027565 0.016002767 -0.032984443 -0.021448802 -0.75917631 -0.65053165 0.0027379019
0.013242518 0.016217092 -0.032919556 0.16079341 -0.70432276 -0.69142962 0.0026217739
0.01605965 0.016856724 -0.032339506 0.33766896 -0.62979889 -0.69952345 0.0021602791
0.018310826 0.017547486 -0.031415336 0.49789178 -0.53177512 -0.68506861 0.0020964993
-0.00098006218 0.020720031 -0.032275427 -0.59250593 -0.7394284 -0.31965983 0.001709006
0.0010518613 0.019383321 -0.032624163 -0.53407824 -0.76659161 -0.35650775 0.0018237981
0.0032075727 0.018531093 -0.033530626 -0.3876349 -0.78209907 -0.48791417 0.0024145066
0.016916109 0.018968143 -0.033484433 0.45588261 -0.52143085 -0.72130501 0.0016745373
0.019115765 0.019904973 -0.032293033 0.62387347 -0.38628203 -0.67938805 0.0015348231
0.020950863 0.021046139 -0.031097179 0.68600643 -0.34995598 -0.63790751 0.0019111284
-0.0041084033 0.023684043 -0.032546721 -0.69877172 -0.68368006 -0.21047466 0.0021924714
-0.0023697871 0.022060713 -0.032605544 -0.64170885 -0.7241717 -0.25255713 0.0016514976
0.019850772 0.022643391 -0.033047404 0.68786252 -0.28407821 -0.66794074 0.001356486
0.021288948 0.023131913 -0.031631827 0.75077885 -0.24663368 -0.61278296 0.0022099542
-0.0066104517 0.02645988 -0.032012332 -0.72085768 -0.67338675 -0.16405645 0.00065635779
-0.0054627704 0.025189277 -0.032795269 -0.71800697 -0.67578501 -0.16667555 0.00072344259
0.020318937 0.025343206 -0.033607051 0.75951087 -0.17503829 -0.6265021 0.0014397957
0.021552168 0.026011251 -0.032194544 0.79927611 -0.13032857 -0.58666193 0.0014528841
-0.0074565397 0.027680628 -0.033352274 -0.74423862 -0.6524902 -0.14270741 0.00032219381
0.021528609 0.029035252 -0.032656491 0.82485521 -0.024625657 -0.56480753 0.0022330827
0.021489143 0.032020509 -0.032444794 0.84765548 0.11450892 -0.51804239 0.0022825417
0.020267686 0.035532877 -0.033166982 0.84891284 0.25966698 -0.46034768 0.0034054455
0.021143874 0.034718722 -0.032015491 0.8491872 0.2592507 -0.4600763 0.0032881605
0.019468863 0.037997805 -0.032542892 0.80750489 0.45151845 -0.37956145 0.0011526024
0.020961424 0.036605086 -0.030884137 0.82747495 0.45003051 -0.33579394 0.0016759741
0.016836731 0.041587867 -0.032350138 0.6861552 0.66905069 -0.28559119 0.0022142932
0.018129652 0.040195689 -0.032244325 0.72408962 0.59987652 -0.34035611 0.0033651986
0.011684436 0.04504035 -0.033834178 0.50367594 0.81766063 -0.27882183 0.0026522877
0.013307327 0.044271283 -0.032902967 0.56635165 0.78310639 -0.25688571 0.0012455661
0.015211188 0.04301044 -0.032460492 0.63753366 0.72441143 -0.26225758 0.0014427218
0.010958622 0.012158338 -0.02802982 -0.16093747 -0.82075989 -0.54813528 0.00595721
0.013157013 0.012151852 -0.028261295 0.014987971 -0.7935285 -0.60834843 0.0040997071
0.015147866 0.012157651 -0.028054452 0.17026354 -0.74060267 -0.65001386 0.0076728696
0.0050407378 0.014911603 -0.028750861 -0.45262575 -0.78922033 -0.4150435 0.0025938542
0.007297921 0.014190922 -0.029404473 -0.34047836 -0.80081379 -0.49271876 0.0028364062
0.010044585 0.013348721 -0.029433427 -0.1254653 -0.79885662 -0.58829123 0.001922098
0.013198492 0.013315033 -0.02970024 0.054027598 -0.76381654 -0.64316815 0.0025808376
0.016240511 0.013825389 -0.0294101 0.25555873 -0.69931442 -0.66756952 0.0026751717
0.018761933 0.014563698 -0.028619053 0.51994991 -0.56293094 -0.64246464 0.0017061816
0.001547056 0.017452288 -0.029179633 -0.57177138 -0.75416976 -0.32296357 0.0027551958
0.0039703716 0.016088706 -0.029785221 -0.46178725 -0.78584582 -0.41133794 0.0037448166
0.017320037 0.015735773 -0.03067722 0.48576945 -0.56419462 -0.66761702 0.002191901
0.019581927 0.016699141 -0.029683804 0.61502212 -0.47273099 -0.63108891 0.0012424106
0.021396872 0.017628899 -0.028565723 0.6643132 -0.44054133 -0.60383046 0.0015849645
-0.0015388721 0.020162623 -0.029363191 -0.69191206 -0.69405377 -0.19886428 0.0012586168
0.00026551299 0.018794419 -0.030052846 -0.60775495 -0.73796648 -0.2933248 0.0035016565
0.020432945 0.01899408 -0.030491045 0.67382663 -0.37940258 -0.63404363 0.0011502838
0.021999886 0.020102916 -0.029308433 0.74658781 -0.29893839 -0.59434217 0.0012334362
-0.0042940211 0.023210574 -0.029557941 -0.7158891 -0.67691153 -0.17115355 0.00099872553
-0.0031346676 0.02197215 -0.030124834 -0.70676553 -0.68346441 -0.18264388 0.001020222
0.022708306 0.023040647 -0.029686274 0.81049824 -0.19547841 -0.55216008 0.00084606512
0.023738826 0.023174144 -0.028215418 0.8308202 -0.17245133 -0.5291487 0.0013249523
-0.0057574417 0.025226168 -0.030743292 -0.72771305 -0.66456163 -0.16968063 0.00073197781
0.023190601 0.026096312 -0.029779891 0.84383148 -0.092736572 -0.52853411 0.001015637
0.024190137 0.026051186 -0.028032299 0.88445681 -0.053498451 -0.46354502 0.0015217098
0.023206724 0.029009543 -0.029887829 0.87110299 0.030449511 -0.49015546 0.0012317838
0.024189752 0.028476777 -0.028039059 0.90975773 0.075713813 -0.40817678 0.0014572615
0.023020618 0.031978287 -0.029539488 0.90010494 0.21067026 -0.38135171 0.0015628533
0.023741774 0.031554807 -0.028162798 0.89882421 0.21245711 -0.38337597 0.0016639538
0.022170993 0.034936767 -0.02954179 0.88138729 0.31992316 -0.34757107 0.00287201
0.020240901 0.038664281 -0.029465886 0.82746959 0.45002186 -0.33581921 0.0016527392
0.021267371 0.037197907 -0.02915333 0.84003687 0.43585691 -0.32305846 0.0015183656
0.019011101 0.039933909 -0.030426642 0.75893158 0.58316839 -0.28971982 0.0032596942
0.016173296 0.042817991 -0.030098876 0.65680397 0.71253431 -0.24678606 0.0023656432
0.0076680798 0.011898926 -0.02576665 -0.38668886 -0.80241019 -0.45454332 0.0024112028
0.010171751 0.011209819 -0.026268879 -0.22294278 -0.81287128 -0.53808624 0.0023666439
0.013282442 0.010768522 -0.026425423 -0.0058461106 -0.80571133 -0.59227949 0.0017603341
0.016281014 0.011057267 -0.026342511 0.21400905 -0.74880552 -0.62728822 0.0020064602
0.018909587 0.011617379 -0.025653444 0.44400778 -0.65015352 -0.6165691 0.0023040781
0.0024420815 0.015191955 -0.025376171 -0.60635698 -0.73440415 -0.30492905 0.0016970685
0.004492261 0.014072308 -0.026346564 -0.52817464 -0.77386045 -0.34953034 0.0012424407
0.0069315457 0.012925923 -0.026932007 -0.35018697 -0.80452704 -0.47969288 0.0019064641
0.0087577049 0.012605796 -0.0278097 -0.25691149 -0.81620079 -0.51750624 0.0032642828
0.017369388 0.012610452 -0.027649662 0.29128638 -0.69214672 -0.66036743 0.0028400517
0.01961592 0.013531029 -0.026991604 0.50976938 -0.58304924 -0.63260472 0.0045845611
0.021638285 0.014322106 -0.025795244 0.61875933 -0.51240909 -0.59546101 0.0012216551
-0.00066350651 0.018276611 -0.025907457 -0.69516784 -0.6893127 -0.20393541 0.0013296701
0.0011738613 0.016711332 -0.02648857 -0.64454591 -0.72441387 -0.24450974 0.0012807021
0.0030214598 0.015698383 -0.027712723 -0.55942923 -0.76052666 -0.32960293 0.00052692287
0.022527047 0.016870992 -0.026693087 0.72200018 -0.37741703 -0.57988971 0.0014920977
0.024048734 0.017931413 -0.025327673 0.79564083 -0.30671644 -0.52237982 0.0011281449
-0.0021197281 0.020011501 -0.026331699 -0.71393716 -0.67797554 -0.17505081 0.00081284187
0.023215814 0.019495113 -0.027415104 0.77255201 -0.27838796 -0.57066947 0.0011487093
0.024299018 0.020230697 -0.026136741 0.82447964 -0.23932843 -0.51279157 0.0014671537
-0.0038334699 0.022158936 -0.026564559 -0.73742205 -0.65780431 -0.15330409 0.00035361291
0.024703866 0.022850152 -0.026433766 0.87184125 -0.1315815 -0.47178298 0.0016584711
0.025025327 0.025786713 -0.026345475 0.90747029 -0.0099306582 -0.41999874 0.0016520612
0.024844866 0.029089753 -0.026398821 0.92425448 0.11794469 -0.36310151 0.0017166096
0.024288401 0.032025959 -0.026319209 0.91867691 0.23929563 -0.31427753 0.0016290791
0.023082623 0.034978159 -0.026768755 0.88813722 0.38623425 -0.24906883 0.0018577334
0.023878545 0.033956431 -0.025721988 0.89231783 0.3640703 -0.26687384 0.0026128362
0.021596765 0.03761233 -0.026989376 0.8449086 0.48512587 -0.22534934 0.00085020461
0.01052354 0.0088514742 -0.022735847 -0.30911016 -0.80439299 -0.50734878 0.0017871477
0.01338564 0.0084260982 -0.023145426 -0.098201506 -0.82482475 -0.55679488 0.0036718464
0.016168166 0.0084561165 -0.023138551 0.12925617 -0.79614323 -0.59114194 0.0039563007
0.018631879 0.0087649412 -0.022587614 0.36714739 -0.71597713 -0.59378415 0.0026687686
0.0051665427 0.012018442 -0.023052616 -0.55071104 -0.74249977 -0.38132843 0.0012491372
0.0072199027 0.01082452 -0.023378739 -0.44044319 -0.77839333 -0.44734055 0.0016799923
0.0098496033 0.0098854583 -0.023978502 -0.28118145 -0.81199014 -0.51147717 0.002512414
0.012597056 0.0095835682 -0.024709923 -0.062737145 -0.82140893 -0.56687874 0.003661165
0.016698567 0.0097130202 -0.024597973 0.15727459 -0.77125674 -0.61678815 0.0037130455
0.019492768 0.010307753 -0.023813523 0.41528735 -0.68485844 -0.59875315 0.002825914
0.021733738 0.011372672 -0.02299015 0.58174074 -0.57217288 -0.57809675 0.0026390245
0.0020250098 0.014835533 -0.023432355 -0.67141008 -0.69596553 -0.25463787 0.002185022
0.0038651379 0.0133741 -0.023774223 -0.57658005 -0.7427091 -0.34049785 0.0024573945
0.022843476 0.013612935 -0.023806985 0.68988597 -0.46366328 -0.55594391 0.0017021272
0.024350647 0.014618346 -0.022617165 0.74034107 -0.42214051 -0.52315623 0.0015118556
-0.00074834249 0.01765736 -0.022980494 -0.75670362 -0.64005995 -0.13312732 0.0024461611
0.00049581996 0.016420666 -0.023638643 -0.7295078 -0.65722847 -0.18939158 0.0013920417
0.02348757 0.015806371 -0.024765512 0.743882 -0.37199616 -0.55521017 0.00085328496
0.024900598 0.017038506 -0.02341851 0.79855055 -0.32720307 -0.5052278 0.0012098488
-0.0020406563 0.019426059 -0.023371175 -0.75969875 -0.63724822 -0.12950887 0.0019955919
0.025748393 0.019825466 -0.023408353 0.8709954 -0.18858606 -0.45365438 0.00072064879
0.02598167 0.02296208 -0.023966208 0.90274471 -0.090144634 -0.42062557 0.00102556
0.026759766 0.023057329 -0.022202238 0.92144978 -0.059995946 -0.38383701 0.0014340281
0.026039919 0.026199531 -0.024007292 0.9301762 0.032349661 -0.36568519 0.0020435106
0.026763493 0.025745399 -0.022142639 0.93910724 0.084963307 -0.33295447 0.0016678147
0.025869181 0.02895488 -0.023618922 0.93631029 0.15514506 -0.31504458 0.0013649178
0.025280807 0.031700701 -0.023264106 0.92002887 0.30315897 -0.24827729 0.0024870825
0.023596477 0.035534021 -0.022783836 0.89504582 0.4024545 -0.19215445 0.001052297
0.024209913 0.034112632 -0.023786625 0.89185023 0.38142264 -0.24314591 0.0017708307
0.022594359 0.036694434 -0.024842581 0.87209266 0.4288604 -0.23565443 0.0010810053
0.011630725 0.0060990984 -0.019098839 -0.24546053 -0.81424975 -0.52606696 0.0056570303
0.013377269 0.0059141438 -0.019462347 -0.16847657 -0.81750602 -0.55072647 0.003950085
0.016119555 0.0058674356 -0.019594545 0.075342424 -0.80312735 -0.59102464 0.0036303678
0.018478347 0.0060080495 -0.019165613 0.29672328 -0.76541317 -0.57104999 0.0033136753
0.0076586846 0.0086592194 -0.020046514 -0.49434131 -0.74357629 -0.45024547 0.0019832049
0.010218193 0.0075332052 -0.02043961 -0.29756591 -0.80262148 -0.51696539 0.001761988
0.013178199 0.0069473474 -0.02093865 -0.11674964 -0.80840731 -0.57692915 0.0020372814
0.016265368 0.0069207381 -0.021050861 0.093965575 -0.79657829 -0.597188 0.0030252654
0.019419651 0.007494818 -0.020533547 0.33720899 -0.73931611 -0.58283931 0.0037124655
0.021845056 0.00856259 -0.019876428 0.52538621 -0.64296091 -0.55728859 0.0029126669
0.0026181249 0.012414614 -0.018882921 -0.74487674 -0.60733306 -0.27623397 0.0016094184
0.004275783 0.011345077 -0.020127986 -0.65515125 -0.67910779 -0.33104306 0.0010594883
0.0063209385 0.010072576 -0.020927694 -0.53352737 -0.73337477 -0.42131945 0.0023062706
0.022825213 0.010536543 -0.020947374 0.62657988 -0.56226242 -0.53968382 0.0037429985
0.024330352 0.011338372 -0.019801853 0.70813483 -0.4892447 -0.50910187 0.0010276213
0.0017123334 0.014162779 -0.020582743 -0.71998471 -0.65689862 -0.22384417 0.0019369893
0.0032044407 0.012939889 -0.02145642 -0.66819924 -0.69366658 -0.26895422 0.0018468666
0.025401391 0.013984457 -0.020425709 0.80082744 -0.36425012 -0.4753916 0.00098676991
-0.00098360097 0.017474217 -0.02013289 -0.81302702 -0.57562649 -0.08741419 0.0023017144
0.0001403717 0.015967907 -0.020348011 -0.79249412 -0.58754069 -0.16355154 0.0019724024
0.026168346 0.016545722 -0.0208994 0.8561824 -0.27011988 -0.44043943 0.0009158554
0.027034676 0.017345306 -0.019606126 0.87947589 -0.23749067 -0.41245645 0.0012494434
-0.0023344706 0.019584723 -0.019864758 -0.82874107 -0.55174834 -0.093605496 0.0017508052
0.026342055 0.018605033 -0.021719983 0.87189031 -0.21425433 -0.44034335 0.0024536825
0.027217526 0.020168867 -0.020385852 0.922674 -0.11910759 -0.36672348 0.0012266438
0.027550941 0.023068711 -0.020065034 0.94450802 -0.026410762 -0.32742509 0.0021738124
0.02733461 0.026030356 -0.020202545 0.95441115 0.12179032 -0.27251875 0.0012790082
0.026388746 0.029855253 -0.020959824 0.93715727 0.21356833 -0.27590731 0.0016065502
0.026865156 0.028314549 -0.020516014 0.94834113 0.1811381 -0.26045731 0.00073557894
0.025920885 0.03117729 -0.021277836 0.92904389 0.30790076 -0.2051205 0.0020042511
0.014209908 0.0034154516 -0.015938064 -0.16823931 -0.83334488 -0.52652818 0.0021737069
0.016022258 0.0034147364 -0.016049882 0.06802582 -0.83612871 -0.54429883 0.0037420515
0.0081876079 0.0060223835 -0.01625373 -0.48792696 -0.75162268 -0.44383618 0.0018336399
0.010518458 0.0054156287 -0.017287189 -0.35886544 -0.78297704 -0.50809693 0.0024382931
0.013187305 0.0046227798 -0.017444383 -0.14131448 -0.81769794 -0.55803245 0.0018800335
0.01619005 0.0045339335 -0.017668987 0.049612258 -0.81788784 -0.57323468 0.0022922922
0.019189991 0.0049887514 -0.017387392 0.24155442 -0.78472096 -0.57084548 0.0018847538
0.021479074 0.0056395493 -0.016635699 0.49237177 -0.66659915 -0.55965674 0.0023218822
0.0049491832 0.0089040324 -0.016797962 -0.61918253 -0.68087721 -0.39117676 0.0015504756
0.0070029618 0.0076206736 -0.017513081 -0.5434894 -0.7173748 -0.43588147 0.0021841098
0.0092793312 0.0066728042 -0.018367311 -0.39985445 -0.7790159 -0.48296028 0.0034996874
0.020670243 0.0065574581 -0.018550774 0.4939909 -0.68204117 -0.53925204 0.0026433812
0.0225634 0.0073441304 -0.017691178 0.54759413 -0.65390897 -0.52205724 0.003570393
0.024370497 0.0086352117 -0.016949287 0.66606921 -0.55509096 -0.49822268 0.0015567329
0.0023029181 0.011887159 -0.016904864 -0.74262863 -0.61047739 -0.27535447 0.0018119277
0.0039104363 0.010398313 -0.017578317 -0.66210973 -0.66128021 -0.35258931 0.0016251542
0.025589425 0.01100569 -0.017487653 0.78807288 -0.42728949 -0.44313079 0.00066770805
0.02714764 0.012495482 -0.015996268 0.86631548 -0.32381564 -0.38031691 0.001022378
0.0010023069 0.013889605 -0.017390281 -0.81480336 -0.54308456 -0.2028663 0.0014722802
0.026406104 0.013411172 -0.018228561 0.8308087 -0.33920002 -0.44124854 0.0012550064
0.027332058 0.014319714 -0.017003916 0.87014115 -0.29942191 -0.39140895 0.0015413438
-0.00088275352 0.016870195 -0.017343855 -0.86024278 -0.49587661 -0.11869612 0.0018546084
-8.9969864e-05 0.015614534 -0.017658284 -0.85088903 -0.50196332 -0.15498622 0.0028435132
0.027851101 0.01692407 -0.017420828 0.91246027 -0.1943225 -0.36007646 0.0010965436
-0.0019082909 0.018842841 -0.016203573 -0.85627097 -0.50642687 -0.10164589 0.0013763402
0.028222043 0.019731276 -0.017625993 0.94364548 -0.075063303 -0.32233319 0.0016328534
0.028428888 0.02287345 -0.017225677 0.96108764 0.038300518 -0.27357575 0.0013688969
0.02803731 0.025802661 -0.01744993 0.9619419 0.14209794 -0.23340102 0.00051101105
0.027341057 0.028575363 -0.017720759 0.9581452 0.15812032 -0.23865396 0.00080739724
0.010477236 0.0031255868 -0.013665652 -0.35363686 -0.79050595 -0.50004131 0.0022818544
0.013139329 0.0025439456 -0.01423415 -0.19030814 -0.82579297 -0.53089416 0.0026000261
0.01630752 0.0023499974 -0.01445256 0.055428099 -0.84211832 -0.53643686 0.0038471934
0.019107711 0.0026367404 -0.014148745 0.2658222 -0.79617369 -0.54354936 0.0037076385
0.021368157 0.0031702477 -0.013468281 0.47031245 -0.71938723 -0.51116359 0.0021788948
0.0053881677 0.0061793858 -0.012889227 -0.64129823 -0.64599198 -0.41404226 0.0014493967
0.0074878861 0.0052500963 -0.014184628 -0.53134179 -0.72132075 -0.44426587 0.0017286205
0.0098545458 0.0043007066 -0.015032031 -0.36030203 -0.78477353 -0.50429457 0.0015787414
0.011719864 0.0038717028 -0.015652141 -0.26088759 -0.81417263 -0.51871043 0.0042966795
0.020016711 0.0039859423 -0.015561087 0.32584825 -0.7700277 -0.54852557 0.0075009484
0.022436632 0.0047904183 -0.014567205 0.4837057 -0.6979301 -0.52813089 0.0018349702
0.024404727 0.0058653941 -0.013619865 0.65606356 -0.5776248 -0.48572651 0.0033629769
0.0026433908 0.0093782637 -0.013021251 -0.73772889 -0.58158457 -0.34280527 0.0012278685
0.0043696896 0.0080975704 -0.014315058 -0.70053589 -0.6227001 -0.34855989 0.00073614676
0.0061216089 0.0069078119 -0.015171036 -0.61568934 -0.67371833 -0.40869331 0.00091880996
0.023533452 0.0065978998 -0.01566275 0.57076693 -0.6392259 -0.51537889 0.0024959454
0.025367498 0.0078112902 -0.014411816 0.74886531 -0.49240467 -0.44355181 0.00081953034
0.026862431 0.0091449786 -0.013247928 0.78682595 -0.45336932 -0.41876161 0.0014579132
0.0019011034 0.011105703 -0.014277143 -0.79103434 -0.53717536 -0.29275823 0.0019322259
0.00323918 0.0099355262 -0.015407085 -0.69352466 -0.63380468 -0.34251308 0.00078435027
0.026425704 0.010389615 -0.015422186 0.81071997 -0.40773475 -0.42010173 0.0017448006
0.027364373 0.011017105 -0.014098372 0.84554034 -0.37159377 -0.38337913 0.0017983121
-0.00055595022 0.015080305 -0.013404494 -0.87508619 -0.45886165 -0.15385091 0.0019974338
0.00044948756 0.013497533 -0.014387067 -0.85448664 -0.47713536 -0.20541276 0.0016059733
0.028282342 0.013877796 -0.014379861 0.90360302 -0.26500672 -0.33656052 0.0015045181
-0.0010087253 0.016527785 -0.014411656 -0.88695425 -0.43641412 -0.1511783 0.0016310088
0.028898545 0.016845021 -0.014496669 0.94072253 -0.14430536 -0.30694821 0.0011355755
0.02902098 0.020025864 -0.015139217 0.96591485 0.0019673195 -0.25885251 0.0025942384
0.029072443 0.022797279 -0.014368942 0.97193211 0.051353354 -0.22958811 0.00067544548
0.028592823 0.025509827 -0.014731696 0.97045535 0.11405101 -0.21262337 0.00064794743
0.011408161 0.00023038057 -0.0098950472 -0.35492229 -0.76986742 -0.53040969 0.0012093864
0.013423236 3.930321e-05 -0.010530129 -0.2123836 -0.81604278 -0.53755695 0.0028734948
0.01614916 -0.00020200433 -0.01065754 0.013111566 -0.81943017 -0.57302904 0.0030252205
0.018798357 4.6935398e-05 -0.010505809 0.26417312 -0.80863458 -0.52566391 0.0034019435
0.0078583956 0.0029570726 -0.010977333 -0.52735317 -0.71489972 -0.45914817 0.0011474469
0.010206755 0.0017668366 -0.01134805 -0.38069537 -0.77049786 -0.5112769 0.0022018827
0.013030101 0.00104123 -0.011894604 -0.18658698 -0.80678236 -0.56061345 0.0017447773
0.016155988 0.00091975648 -0.012344833 0.014828485 -0.83870381 -0.54438591 0.0028779439
0.019372979 0.0011249296 -0.011819597 0.26432866 -0.79642481 -0.54390985 0.0034960273
0.022150302 0.0021772296 -0.011347278 0.46710649 -0.72519428 -0.50587028 0.0040888777
0.024118539 0.0031438034 -0.010498161 0.62249351 -0.62131518 -0.47588781 0.0016776274
0.0048440439 0.0054979967 -0.010865862 -0.66548222 -0.63112617 -0.39851367 0.0018227589
0.0065743551 0.0044734129 -0.011795366 -0.62073165 -0.66551137 -0.41447181 0.00054208626
0.023465889 0.0041230032 -0.012670061 0.62380928 -0.61646205 -0.48045442 0.0019895544
0.025205739 0.0050305864 -0.011360232 0.69462293 -0.57545787 -0.43167949 0.0027415925
0.0022946179 0.0087047517 -0.010987597 -0.78144151 -0.54729366 -0.29969797 0.0020538636
0.0036713856 0.0073576439 -0.011758246 -0.70753908 -0.61054432 -0.35584271 0.0015305941
0.02629723 0.0070155528 -0.012005713 0.75258225 -0.51121819 -0.41506132 0.0016214212
0.027450575 0.0083334334 -0.011154214 0.82237053 -0.42713845 -0.37584496 0.0015222721
0.0011580607 0.010825708 -0.011443633 -0.8374359 -0.481884 -0.2578544 0.001883281
0.02850708 0.011018205 -0.011389194 0.89513052 -0.30263475 -0.32734314 0.00095173309
-0.00071669521 0.014624009 -0.011066894 -0.91260099 -0.38208354 -0.14550433 0.0009886889
1.1003751e-05 0.012968978 -0.011372721 -0.87537378 -0.43457633 -0.21181165 0.0027462714
0.029131917 0.013530564 -0.011765232 0.92428738 -0.2252297 -0.30816287 0.00098933245
0.029790267 0.014948661 -0.010508895 0.95697016 -0.14213763 -0.25299233 0.002765405
-0.0012501444 0.016518744 -0.011600694 -0.90524459 -0.40549967 -0.12689431 0.00054977665
0.029686637 0.017418196 -0.012035361 0.96327358 -0.10585775 -0.24677563 0.0017539962
0.029740196 0.016072022 -0.011246433 0.96276337 -0.10257205 -0.25013137 0.0019107289
0.029668141 0.019927159 -0.01230783 0.97646272 -0.013239532 -0.2152795 0.00064951007
0.029760776 0.021826364 -0.010943284 0.97541225 0.02463253 -0.21900719 0.0011056794
0.014264071 -0.0025554807 -0.0069400272 -0.11931677 -0.8396523 -0.52985609 0.0023446397
0.016112562 -0.0025540795 -0.0071265344 -0.018495861 -0.82669175 -0.56235099 0.0045083174
0.017973993 -0.0025554211 -0.0069477758 0.14179797 -0.84318572 -0.51858568 0.0032642789
0.0085370122 7.3054107e-05 -0.0073347292 -0.46910068 -0.74250495 -0.47815374 0.0013967957
0.010438821 -0.00047705043 -0.0081150401 -0.37706441 -0.76390958 -0.52370262 0.0024639247
0.013260019 -0.0012860713 -0.0084625576 -0.17450905 -0.80773824 -0.56312126 0.0018696525
0.016351774 -0.0015709582 -0.0086006802 0.0079673575 -0.81416821 -0.58057439 0.0021024025
0.019265523 -0.0011585886 -0.0084962426 0.2052812 -0.81214178 -0.54615504 0.0024004593
0.021870838 -0.00038939738 -0.0078779133 0.46440372 -0.72755283 -0.50497144 0.0026379521
0.0051351632 0.0031598595 -0.0077055246 -0.66886568 -0.61767119 -0.4136436 0.00210585
0.0071851467 0.0018290434 -0.0084497612 -0.53998327 -0.69782019 -0.47060078 0.0018091195
0.0094626965 0.00080622849 -0.0092898663 -0.37826076 -0.76299638 -0.52417105 0.0022756965
0.022781823 0.0010138014 -0.0090662409 0.48160011 -0.72765958 -0.48843926 0.0041623027
0.024886969 0.002285945 -0.0081439968 0.65433413 -0.61536872 -0.43950897 0.002361804
0.0026673463 0.0060177529 -0.0074635348 -0.76172817 -0.55238467 -0.33858728 0.0016790129
0.004023755 0.0048759906 -0.0084040249 -0.74097478 -0.56602889 -0.36134145 0.00053564413
0.02619643 0.0045145284 -0.0090669421 0.76350105 -0.51334018 -0.39185193 0.0010526155
0.027328445 0.0054100687 -0.0079238135 0.80086845 -0.47737035 -0.36156237 0.0016380219
0.0017386989 0.0080297282 -0.0083082616 -0.82402855 -0.47842044 -0.30346465 0.00177685
0.003119404 0.0066837454 -0.0095342603 -0.72959304 -0.57856613 -0.36463028 0.00076493347
0.028379228 0.0079202801 -0.0084468434 0.85440028 -0.40406373 -0.3266997 0.00074101728
0.00030090418 0.010906897 -0.0085452925 -0.89972216 -0.38034874 -0.2140909 0.0026362396
0.02931848 0.010653513 -0.0087144366 0.9197827 -0.27265915 -0.2822355 0.0017055607
0.029983962 0.0120345 -0.0076557449 0.9318049 -0.24683042 -0.26610973 0.00081844773
-0.00075673091 0.013814669 -0.0084800925 -0.9187957 -0.35820484 -0.16584255 0.0012933782
0.030177239 0.014101436 -0.0082212817 0.96928364 -0.12193621 -0.21359019 0.0013165262
0.030390712 0.017096261 -0.0084714741 0.97279745 -0.088576458 -0.21405441 0.00079523411
0.030398656 0.018718818 -0.0083562937 0.97623724 -0.05145704 -0.21050648 0.0014733986
0.010667418 -0.003008272 -0.004652095 -0.35242641 -0.7626074 -0.54242569 0.0023047002
0.013186656 -0.0034282659 -0.0053177159 -0.19315813 -0.81448126 -0.54709262 0.003025658
0.016175 -0.003731926 -0.0053721378 0.026889021 -0.85227448 -0.52240324 0.0021687406
0.019128753 -0.0033648005 -0.0052373274 0.24095374 -0.81378424 -0.52886355 0.0037113361
0.021330366 -0.002839569 -0.0046321182 0.39891845 -0.77833837 -0.48482308 0.0022432874
0.005483753 0.00022403267 -0.004018893 -0.64010835 -0.60675919 -0.47127968 0.0018625907
0.0073727295 -0.00060987379 -0.0051315203 -0.53036225 -0.69861394 -0.4802649 0.0020345575
0.0098113809 -0.0016886839 -0.0058750324 -0.38664624 -0.77409631 -0.50127786 0.0016619613
0.011950491 -0.0020930381 -0.00673457 -0.26386964 -0.79514903 -0.54599535 0.0041102329
0.020310249 -0.0020941258 -0.0065632067 0.28499913 -0.8064118 -0.51814616 0.0055522742
0.022533258 -0.0014395965 -0.005608941 0.46539751 -0.74863797 -0.47217193 0.0015259914
0.024581388 -0.00024146913 -0.0048701726 0.63967967 -0.63422251 -0.43424857 0.0015154182
0.004478524 0.0022087549 -0.005202448 -0.68034679 -0.60672033 -0.41111889 0.0016310887
0.0062361532 0.0010005597 -0.006060387 -0.6223309 -0.63141423 -0.46262336 0.0011578025
0.025739217 0.0014879617 -0.0055702636 0.6970492 -0.58620447 -0.41290048 0.0027895493
0.027171543 0.0030200803 -0.0049703536 0.77792609 -0.52433938 -0.34626466 0.0017647111
0.0021753006 0.0053108018 -0.0052200137 -0.80797166 -0.48974735 -0.32761165 0.0023944888
0.0032539426 0.0042917738 -0.0061184219 -0.75158978 -0.56974232 -0.33242527 0.0019532647
0.028123312 0.0049579144 -0.0053598336 0.83825529 -0.44169831 -0.3197355 0.0013767699
0.00089866272 0.0077988636 -0.0054377462 -0.85955703 -0.42716318 -0.28052336 0.0018183449
0.029263943 0.0077363551 -0.0055347583 0.89451009 -0.34771037 -0.28097898 0.00089149678
0.029736595 0.0081547294 -0.0044280491 0.92047298 -0.30288735 -0.24695899 0.0012923422
-0.00058192492 0.011628306 -0.0053696907 -0.94669354 -0.28359336 -0.15279475 0.0014874674
-2.3021916e-05 0.010087496 -0.005615165 -0.93074846 -0.32058951 -0.17586809 0.0032732731
0.029591138 0.0095096175 -0.0066052577 0.93646228 -0.25602362 -0.23977146 0.0010371521
0.030281553 0.010934264 -0.0052350787 0.94880408 -0.2259362 -0.2207344 0.00037863516
-0.0010441248 0.013933288 -0.0061285547 -0.94747519 -0.29462469 -0.12444673 0.00071251439
0.030565891 0.013241941 -0.0059313877 0.96103352 -0.17436983 -0.21449861 0.00082344073
0.011155686 -0.0058899042 -0.001108746 -0.31896129 -0.75360268 -0.57475787 0.0019385141
0.01334911 -0.0061727506 -0.0015323614 -0.1496444 -0.78434026 -0.60201073 0.002434111
0.016057855 -0.006268485 -0.0016703685 0.061279412 -0.80795306 -0.58605182 0.0030489969
0.01858717 -0.006042345 -0.0013891906 0.29465783 -0.81359476 -0.50123882 0.0032424314
0.0074822609 -0.0032364815 -0.0018582358 -0.49900249 -0.66385597 -0.55703843 0.001369177
0.010011829 -0.0043629869 -0.0024050963 -0.3701942 -0.72133577 -0.58534688 0.0028054304
0.013075514 -0.0050187851 -0.0030360997 -0.16747081 -0.78846532 -0.59184116 0.0021267796
0.016250018 -0.0051559531 -0.0032650772 0.034693215 -0.81218284 -0.58237052 0.0025415875
0.019497059 -0.0049307426 -0.0026217881 0.27635571 -0.80807048 -0.52024001 0.0039730263
0.022141954 -0.0037629004 -0.002343019 0.49328744 -0.74212122 -0.45378804 0.0036184387
0.023969203 -0.0027510538 -0.0017694533 0.59317398 -0.68901503 -0.41641676 0.0011362497
0.0048273206 -0.00066478504 -0.0020220331 -0.64542544 -0.57202166 -0.50617898 0.0015534759
0.0066262973 -0.0016888124 -0.0029221773 -0.55597043 -0.66912705 -0.49311852 0.0023119387
0.02323872 -0.0021120668 -0.0037915907 0.5421924 -0.68501228 -0.48660621 0.005873722
0.025329802 -0.0010186154 -0.0022964957 0.70555985 -0.60595846 -0.36742318 0.00091909396
0.0024344909 0.0025659385 -0.0020857845 -0.76659513 -0.52371931 -0.37155098 0.0025373064
0.0036239002 0.0013748249 -0.0027435529 -0.71934283 -0.52659005 -0.45304397 0.0024206422
0.026546713 0.00092466292 -0.0031539104 0.73120904 -0.58780903 -0.3461414 0.002029055
0.027696166 0.0020970628 -0.0022215969 0.81616235 -0.49325833 -0.30095708 0.0015346113
0.0012240437 0.0049977051 -0.0023125629 -0.83984768 -0.42905182 -0.33252147 0.002076067
0.02906508 0.004974836 -0.00245617 0.88704544 -0.38263124 -0.25834811 0.00093347003
0.029961159 0.0063322419 -0.0010668836 0.9412353 -0.2751132 -0.19593056 0.00082757632
-0.00059619441 0.0091550443 -0.00095566129 -0.97176808 -0.17765343 -0.15526098 0.0013654639
0.0001703325 0.0077736913 -0.0027495562 -0.90808845 -0.33486149 -0.25148168 0.0025033504
0.03008596 0.0079499166 -0.0027051568 0.94299334 -0.26116115 -0.20629691 0.00065297959
-0.00070971588 0.010656109 -0.002180872 -0.95928895 -0.2313446 -0.16200158 0.0026914238
0.030793482 0.010995635 -0.0026313066 0.95169497 -0.2302153 -0.20316923 0.00026495519
-0.0010584937 0.013099195 -0.002795001 -0.96613157 -0.23312223 -0.11065163 0.00052589085
0.013593819 -0.0087753031 0.0019084192 -0.1126428 -0.77940857 -0.61630672 0.00293675
0.01596152 -0.008775821 0.0019323383 0.12816282 -0.82727426 -0.54698414 0.002959901
0.0077178199 -0.0062601934 0.001484049 -0.44755575 -0.64935869 -0.61483908 0.0011957682
0.010327253 -0.0070207133 0.00075978367 -0.26783329 -0.75242221 -0.60176921 0.0015944052
0.013262728 -0.0075951307 0.00039861724 -0.11219744 -0.79677552 -0.59376806 0.0020239216
0.016239965 -0.0077065188 0.00043755723 0.10249275 -0.81523943 -0.56998241 0.0037879732
0.019220322 -0.0070971479 0.00063515594 0.29440877 -0.79877526 -0.52467281 0.0030978064
0.021666475 -0.0062204455 0.0012069629 0.48154512 -0.75174153 -0.45055401 0.0024788715
0.0048291241 -0.0034429929 0.0010353248 -0.6000343 -0.57933992 -0.55165583 0.001862828
0.0069041341 -0.00466173 0.00034817494 -0.48259887 -0.66898221 -0.56529737 0.0016699561
0.0090529826 -0.00542911 -0.00044656312 -0.35346761 -0.71025991 -0.60876232 0.0016072798
0.022583447 -0.0050066779 0.00023920555 0.51516837 -0.73995352 -0.43251628 0.0033086552
0.024680005 -0.0033589397 0.00050255377 0.64292479 -0.66428751 -0.38127396 0.0018459887
0.0023610971 -0.00051264651 0.0012963838 -0.74424148 -0.47853896 -0.46594524 0.0021701371
0.0037534272 -0.0013339347 0.00014332915 -0.67635363 -0.54104745 -0.49981329 0.0025845685
0.025964389 -0.0018242332 0.00027437974 0.75471956 -0.57413554 -0.31743798 0.00097844331
0.02711986 -0.00059139915 0.00082762446 0.79229969 -0.53870255 -0.28646234 0.0014408038
0.0014744016 0.0017999912 0.00066504115 -0.8064388 -0.41776934 -0.41847962 0.0020831772
0.028427413 0.0016936784 0.00070106471 0.86536181 -0.44247389 -0.2352996 0.0017319277
-0.00060542347 0.0063706273 0.0018992224 -0.95652664 -0.17411256 -0.23396909 0.002714196
0.00034211288 0.0046339431 0.00050866511 -0.88381547 -0.31097218 -0.34952313 0.0020409995
0.029463843 0.00422752 0.00031110877 0.90740836 -0.3638601 -0.21027575 0.0012526421
0.030065881 0.0056444863 0.00050059939 0.92087632 -0.33855915 -0.19329894 0.00058749027
-0.00060150388 0.0077699302 0.00068671489 -0.96765065 -0.19197035 -0.16370623 0.0021145621
-0.00012673842 0.0070441151 -0.0005977056 -0.94711137 -0.25192127 -0.19878542 0.0038373249
0.030499199 0.007522875 -6.6210981e-05 0.94534695 -0.26597202 -0.18862121 0.00082397874
-0.0010744339 0.011314409 0.00090312446 -0.97176814 -0.17765315 -0.15526088 0.0013655142
0.030933093 0.010103026 -0.00060697412 0.95132345 -0.24224728 -0.19052544 0.00035338683
0.007745075 -0.0090970602 0.0045575262 -0.39502236 -0.66844958 -0.63018453 0.0015146845
0.010266924 -0.0095673949 0.0038337936 -0.24401946 -0.74628645 -0.61928266 0.0021302798
0.013154052 -0.010040309 0.0036505233 -0.045311768 -0.80689728 -0.58895129 0.0025654447
0.01625845 -0.0099227782 0.0036557908 0.13684383 -0.80947399 -0.57098645 0.0024610963
0.018913722 -0.0093498155 0.0040178527 0.34605393 -0.80057865 -0.48920399 0.0030749477
0.020823892 -0.008837318 0.0047858157 0.50681102 -0.74695206 -0.43035468 0.00086855126
0.0047882563 -0.0065582632 0.0042135059 -0.55065495 -0.57971257 -0.60059345 0.0019485529
0.0070231743 -0.0074731237 0.0033083293 -0.44808111 -0.64881676 -0.61502844 0.0027265789
0.0094256029 -0.0081573892 0.002559612 -0.26350251 -0.73268324 -0.62748843 0.002061306
0.019687539 -0.0082238168 0.0027204608 0.31554765 -0.79350519 -0.52036446 0.00244803
0.022174314 -0.0072453474 0.0036481959 0.53398764 -0.74535835 -0.39912164 0.002289301
0.024131021 -0.0059709013 0.0042598643 0.63140118 -0.68593901 -0.36169088 0.0018428948
0.0022413381 -0.0034212833 0.0041587646 -0.69263577 -0.47666487 -0.54133737 0.001741195
0.0039211358 -0.0045747203 0.0032157456 -0.6086638 -0.54768741 -0.57407916 0.0036985883
0.023556469 -0.005468315 0.002351562 0.56955481 -0.72397703 -0.38918459 0.0016868677
0.025269058 -0.0042358227 0.0033240174 0.72097445 -0.61435592 -0.32056603 0.0022419386
0.027010031 -0.0026430101 0.004663507 0.79450911 -0.55756259 -0.24058115 0.0016450091
0.0012060176 -0.001044658 0.0036773742 -0.7956605 -0.37290111 -0.4773564 0.0014856806
0.027776266 -0.00091276504 0.0035611303 0.82789874 -0.50467962 -0.24470821 0.0013980841
-0.00061422709 0.0023574096 0.004622417 -0.88803846 -0.24425627 -0.389521 0.002951053
0.00019315715 0.0016401483 0.0033337777 -0.8549636 -0.31780627 -0.40992233 0.0021696712
0.029080467 0.0016398404 0.0035319352 0.87675875 -0.43215501 -0.21103562 0.00069228053
0.029840047 0.0030701098 0.00424243 0.90865695 -0.37562165 -0.1823481 0.0010242299
