# .PCD v0.7 - Point Cloud Data file format
VERSION 0.7
FIELDS x y z normal_x normal_y normal_z curvature
SIZE 4 4 4 4 4 4 4
TYPE F F F F F F F
COUNT 1 1 1 1 1 1 1
WIDTH 557
HEIGHT 1
VIEWPOINT 0 0 0 1 0 0 0
POINTS 557
DATA ascii
-0.03342608 -0.0035761925 -0.012677699 -0.37694845 0.8730725 -0.30928031 0.0020321547
-0.030955805 -0.0025019557 -0.012752518 -0.37293959 0.87684304 -0.30341777 0.0021753795
-0.028080193 -0.0013665035 -0.013018153 -0.34838107 0.88483876 -0.30933961 0.0022974194
0.011554562 -0.0023110772 -0.013467926 0.51326209 0.0039874045 -0.8582226 0.0022225289
0.014030153 -0.0023165811 -0.011953298 0.53884023 -0.034747485 -0.84169108 0.003052881
-0.02698887 -0.00056016771 -0.01184533 -0.36567 0.88676178 -0.2827349 0.0015362981
-0.024895199 6.1185565e-05 -0.012561627 -0.34802884 0.88058138 -0.32164007 0.002498108
-0.021923181 0.0011554277 -0.012672734 -0.30855194 0.88375443 -0.35181513 0.0025118047
-0.0195559 0.0016391193 -0.013434002 -0.27545506 0.87015653 -0.40859786 0.0037423237
0.0091013229 0.0014567883 -0.01374091 0.32716036 0.31818327 -0.88978958 0.0026468281
0.011178074 0.00061472319 -0.013201239 0.43665585 0.21544945 -0.87344903 0.0031088945
0.014017677 0.00052294508 -0.011795135 0.46617296 0.1568803 -0.87067288 0.0062206988
-0.018693194 0.0024578134 -0.012259986 -0.31379166 0.86888254 -0.382855 0.0020020618
-0.015806325 0.0032712533 -0.012547666 -0.26914364 0.84930325 -0.45414287 0.0028266346
-0.012965493 0.0040794304 -0.012592968 -0.20705272 0.83172202 -0.51513845 0.0022567101
-0.010032274 0.004479181 -0.013096608 -0.16169347 0.79625303 -0.58295476 0.0023892699
-0.0070594153 0.0046759713 -0.01356802 -0.10796967 0.7547732 -0.64703947 0.0022856565
-0.0040136082 0.0048807971 -0.013694918 -0.040494267 0.69668901 -0.7162295 0.0019932177
-0.00084728515 0.0048806285 -0.013725959 0.030588528 0.59379089 -0.80403781 0.0018883222
0.0021788119 0.0046027666 -0.013656417 0.10240493 0.54583949 -0.83160836 0.0014003824
0.0052075321 0.004065223 -0.013407344 0.16360125 0.50239521 -0.84901929 0.00064643851
0.0080057262 0.0035597067 -0.012973256 0.22280976 0.4611561 -0.85888928 0.00047207091
0.010908989 0.0035000616 -0.012089046 0.30116025 0.4152357 -0.85841823 0.00055971736
0.013485404 0.0028830473 -0.011380936 0.37062553 0.35126296 -0.85979706 0.0010715475
-0.011804641 0.0053507136 -0.010966429 -0.27915195 0.85905135 -0.42907456 0.001276259
-0.009620199 0.005573621 -0.011659103 -0.22395027 0.81224769 -0.53860921 0.00226117
-0.0068991049 0.0059279967 -0.012060603 -0.16554572 0.80144852 -0.57469547 0.0018423306
-0.0039714039 0.0061953729 -0.012324617 -0.089927047 0.74891853 -0.65653193 0.0025490546
-0.00086431764 0.0064778123 -0.012302321 -0.025014646 0.71445006 -0.69923919 0.0032986561
0.0020851125 0.0064778253 -0.012278065 0.054590885 0.6492458 -0.75861704 0.0034227602
0.0050355485 0.0064805513 -0.011962863 0.11113912 0.58308905 -0.80477035 0.003505622
0.0079146028 0.0061548781 -0.011623604 0.22296852 0.50002003 -0.8368184 0.0013243324
0.010289032 0.0056798691 -0.011235336 0.27699935 0.45277473 -0.84750599 0.00074522576
-0.046628367 -0.03396092 -0.0090497825 -0.2719605 -0.89881188 -0.34376547 0.0015278257
-0.043308482 -0.034325041 -0.010116735 -0.11931175 -0.95945191 -0.2553758 0.0017434242
-0.038875904 -0.034893658 -0.0088436101 -0.041730873 -0.96196437 -0.26996845 0.0007958982
-0.038414229 -0.034889933 -0.0088855121 -0.041748155 -0.96196306 -0.26997066 0.00078118365
-0.031656243 -0.034303468 -0.010363961 0.1095552 -0.93048054 -0.34957632 0.0012060245
-0.053806309 -0.031499598 -0.0083846543 -0.47947854 -0.76286697 -0.43374452 0.003749415
-0.052081678 -0.031795338 -0.0096164225 -0.45893002 -0.77458197 -0.43520802 0.0041710446
-0.049142037 -0.032980807 -0.0098351715 -0.34830025 -0.86389631 -0.36382693 0.0013808612
-0.046007816 -0.033728126 -0.010428684 -0.2388002 -0.89084852 -0.38647562 0.001135202
-0.028476762 -0.033860486 -0.01021483 0.16050746 -0.93076038 -0.32851553 0.00089186797
-0.025070744 -0.033194784 -0.0099959765 0.21832454 -0.92772144 -0.30276638 0.00049985043
-0.021427041 -0.032289136 -0.0099175144 0.2694189 -0.92384315 -0.27189562 0.00075369206
-0.018655557 -0.031326838 -0.010534147 0.31459522 -0.8912667 -0.3266091 0.0020518762
-0.017381188 -0.031244438 -0.0087103639 0.31810144 -0.90638876 -0.27797633 0.00050912047
-0.057082251 -0.028544497 -0.0087837772 -0.63448972 -0.54360288 -0.5494712 0.00497923
-0.055128399 -0.029660385 -0.0097733093 -0.61322272 -0.61721504 -0.49295384 0.0076053427
-0.053290144 -0.030645948 -0.010501156 -0.47881451 -0.75934654 -0.44060141 0.0041136271
-0.015714671 -0.030374013 -0.010096212 0.34897709 -0.87657309 -0.33141306 0.0012343994
-0.012893639 -0.029335417 -0.0097544203 0.39033082 -0.862409 -0.32232377 0.00068089133
-0.01075766 -0.028429169 -0.009661207 0.407224 -0.85720944 -0.31521523 0.00058085663
-0.057593226 -0.026403397 -0.009371574 -0.73171884 -0.25961527 -0.63022804 0.0078102294
-0.056143232 -0.027136333 -0.010731895 -0.71519405 -0.24910554 -0.6530267 0.0056396564
-0.0090977615 -0.027478553 -0.010188149 0.42100236 -0.84838259 -0.32094219 0.00040691064
-0.0068354867 -0.026516911 -0.0094924495 0.4436225 -0.84345812 -0.30294803 0.00046838919
-0.0046496093 -0.025448702 -0.0091639971 0.48446423 -0.80144048 -0.35069585 0.0010366164
-0.057768635 -0.023417126 -0.0094842864 -0.77124578 0.049890056 -0.6345793 0.0049634292
-0.0034261481 -0.024401475 -0.009973539 0.50249487 -0.79793739 -0.33285844 0.00083116355
-0.00094452593 -0.022980466 -0.0095630903 0.50225163 -0.78699315 -0.35830858 0.0017786927
0.0011518514 -0.022099014 -0.0085901115 0.52062809 -0.77346087 -0.36153117 0.001433686
-0.057249557 -0.020564467 -0.0093313297 -0.77035594 0.29319787 -0.56620377 0.0043418859
-0.056118216 -0.020157114 -0.010641122 -0.77837574 0.28994727 -0.55683184 0.0042563123
0.00048238877 -0.021526154 -0.010605583 0.51253361 -0.75559193 -0.40790963 0.0013515231
0.0022207364 -0.020772021 -0.0097115012 0.54340625 -0.72917432 -0.41595021 0.0026050869
0.0041782493 -0.01968443 -0.0090557095 0.55639684 -0.71518207 -0.42300969 0.0015831001
-0.056752395 -0.018665183 -0.0086004529 -0.73890072 0.55547827 -0.38140482 0.0042509018
-0.055158552 -0.017464288 -0.0097957049 -0.7230773 0.55165946 -0.41572955 0.0038870927
0.0055925464 -0.017988691 -0.0098942034 0.57808042 -0.68546695 -0.44267163 0.0011406313
0.0075838519 -0.016689494 -0.0092795137 0.59092969 -0.65246969 -0.47443157 0.0013052059
-0.053686809 -0.015433001 -0.0092626903 -0.6802367 0.62661761 -0.38030028 0.0016794848
-0.052313153 -0.01441856 -0.0098530874 -0.6809265 0.62612218 -0.37988183 0.0015872816
0.008535889 -0.015014563 -0.010174999 0.60170418 -0.596861 -0.53076273 0.0023118898
0.010467893 -0.014093526 -0.0089991372 0.61870641 -0.586514 -0.52268904 0.0011874171
-0.050667863 -0.012905682 -0.009636024 -0.60696715 0.70207304 -0.37240353 0.0018902674
-0.048595432 -0.011518372 -0.010138098 -0.5773738 0.75777465 -0.30400178 0.00095238758
-0.046425458 -0.010132413 -0.010746161 -0.55553538 0.75906742 -0.33940718 0.0015095674
0.011586454 -0.011902272 -0.009967641 0.62315392 -0.50740743 -0.59516132 0.0022951004
0.013426989 -0.010796331 -0.0089626648 0.64328164 -0.50799936 -0.57282227 0.0012623834
-0.045124933 -0.0092374198 -0.010181138 -0.52018863 0.80868912 -0.27463755 0.00089953659
-0.041902259 -0.0074066329 -0.010460654 -0.4930031 0.81340277 -0.30874559 0.0014419087
0.01427163 -0.0085802712 -0.0097177774 0.63955045 -0.41993091 -0.64392018 0.0021288879
0.016079329 -0.0077299625 -0.0084175086 0.65623939 -0.43989807 -0.61305755 0.0011438926
0.015064988 -0.005754861 -0.010456452 0.63080943 -0.26223829 -0.73028111 0.0022062669
0.016863171 -0.0052217706 -0.009051878 0.65611112 -0.32063901 -0.6831609 0.0016849936
-0.033244539 -0.0030772197 -0.010442236 -0.38178456 0.88109463 -0.27912855 0.0012027808
-0.029566567 -0.00147834 -0.01084728 -0.38715798 0.89014131 -0.24032713 0.00089348521
-0.028686095 -0.0010263431 -0.010458538 -0.38394272 0.88296181 -0.27012292 0.0014085619
0.015510967 -0.003300166 -0.01081109 0.58258098 -0.086739711 -0.80813092 0.0024877947
0.017141107 -0.0024033592 -0.0096654017 0.60792232 -0.11144926 -0.78613579 0.0020853209
0.018938802 -0.0019616059 -0.0082712369 0.64565432 -0.2034504 -0.73602885 0.002568875
-0.027383015 -0.00034866808 -0.0095919464 -0.3667025 0.89599037 -0.25046074 0.00071213365
-0.024599081 0.00079591991 -0.010234236 -0.36678347 0.89520645 -0.25313106 0.00065595721
-0.022773864 0.0015558889 -0.010262062 -0.33880767 0.89272529 -0.2970705 0.00023603758
0.015509363 0.0012537329 -0.010870694 0.51573676 0.095813714 -0.85137266 0.004215444
0.017134394 0.00056598475 -0.0098774936 0.53964937 0.060182206 -0.83973598 0.0047285454
0.019213296 0.00062606437 -0.0083882678 0.60686642 -0.013304393 -0.79469258 0.0033758993
-0.021175794 0.0023457687 -0.0095404126 -0.34412694 0.89737177 -0.27622586 0.00040916618
-0.018907359 0.0032794056 -0.0096362093 -0.33161011 0.89732492 -0.29127774 0.00059743732
-0.016073775 0.0043699155 -0.0097379899 -0.35700405 0.88958263 -0.28494018 0.0010029833
-0.013872992 0.0048980238 -0.01049895 -0.3367224 0.88152033 -0.33096811 0.0018274033
0.012321709 0.0048958557 -0.01090152 0.31368402 0.38282874 -0.86893296 0.0016809205
0.01456436 0.0039415956 -0.010435006 0.41327852 0.30062926 -0.85954809 0.0021543074
0.017151376 0.003534107 -0.0093178255 0.49107981 0.23850189 -0.83782899 0.0018527407
0.019032925 0.0032540746 -0.0082676522 0.52392113 0.19873714 -0.82825732 0.0035719688
-0.014644914 0.0053666579 -0.0084963534 -0.3545523 0.87555426 -0.32817283 0.0021616544
-0.012747652 0.0057841213 -0.0092665283 -0.33456603 0.87904185 -0.33963344 0.0017633468
-0.0099600619 0.0065930849 -0.0096236691 -0.27650619 0.86535579 -0.4179756 0.0026842109
-0.0070812609 0.0072970046 -0.0099364445 -0.23092228 0.84161365 -0.48822275 0.0027436782
-0.0041860566 0.0075162603 -0.010675641 -0.14244069 0.79882145 -0.58446121 0.0021570309
0.0082262121 0.0074777091 -0.010726706 0.15359603 0.56045878 -0.81381464 0.0018264031
0.011200326 0.0067814356 -0.010354927 0.23561299 0.49652722 -0.83543235 0.0014935365
0.014031831 0.0064544547 -0.0095208455 0.30291441 0.43451703 -0.84819674 0.00092960952
0.01661247 0.0063001448 -0.0085015902 0.39951566 0.3642852 -0.84123927 0.0013513237
-0.0062020253 0.0082416451 -0.0087265978 -0.2730076 0.84788495 -0.45448652 0.0014118539
-0.0037162011 0.008634856 -0.0091823339 -0.18538688 0.80959302 -0.55694789 0.0034611574
-0.00082805334 0.0089596575 -0.0095331138 -0.12111061 0.78126425 -0.61233848 0.003615733
0.002071945 0.009242692 -0.0096066557 -0.04807999 0.73690057 -0.67428917 0.0032894572
0.0050693415 0.0094450051 -0.0094656972 0.023579933 0.6712082 -0.74089378 0.002397463
0.0079660658 0.0094078956 -0.009266112 0.082773454 0.62942433 -0.77264065 0.002674171
0.010915807 0.0091320388 -0.0089357868 0.20797755 0.5671767 -0.79690403 0.0016927582
0.013768245 0.008623099 -0.0084685711 0.2882438 0.49061301 -0.82232255 0.0017776138
0.015583249 0.0081185596 -0.0081279967 0.30505097 0.45494357 -0.83664227 0.0010534985
-0.056701977 -0.031020712 -0.0057368372 -0.52997494 -0.72889954 -0.43339595 0.002182326
-0.054934792 -0.03160318 -0.0065212701 -0.47290599 -0.79260552 -0.38488495 0.0017880308
-0.052145004 -0.032636516 -0.0070949066 -0.4334341 -0.81720537 -0.37988189 0.0015772387
-0.059960749 -0.028617498 -0.0055169407 -0.57190597 -0.57651055 -0.58357453 0.010409193
-0.05816289 -0.02938804 -0.006622416 -0.63643032 -0.61709291 -0.46276659 0.010893052
-0.05585565 -0.030738339 -0.0073841508 -0.49656746 -0.76595891 -0.40832302 0.0040415404
-0.0091706254 -0.028102603 -0.0078584049 0.42333055 -0.84786123 -0.31925321 0.00040559861
-0.060527414 -0.02633949 -0.0059659043 -0.7271623 -0.18172567 -0.66197485 0.011528842
-0.059087034 -0.026750609 -0.0075203758 -0.72620606 -0.1960959 -0.65891659 0.0068746568
-0.0036738883 -0.025371965 -0.0075451527 0.50250143 -0.79793012 -0.33286595 0.00083684688
-0.060313102 -0.023592036 -0.0062413891 -0.81118786 0.14220734 -0.5672313 0.0061965026
-0.059174184 -0.02352627 -0.0077054719 -0.78099453 0.090451963 -0.617953 0.0043232734
-0.002763567 -0.024942797 -0.0070853326 0.49407312 -0.82197964 -0.28326866 9.1199137e-05
-0.000699881 -0.023814961 -0.0067535336 0.51635015 -0.81664014 -0.25783995 0.0012877064
0.0014592363 -0.022587866 -0.0065174792 0.5263139 -0.8064453 -0.26951769 0.0017993972
-0.059945896 -0.021257788 -0.0056161317 -0.76931381 0.42884022 -0.47355282 0.005488174
-0.058679283 -0.020459581 -0.0069936952 -0.80659151 0.37936106 -0.45331591 0.0090057347
0.0028630588 -0.0216363 -0.0066667367 0.53804725 -0.80352569 -0.25466016 0.0013467168
0.0051179444 -0.020130921 -0.0065428251 0.55896062 -0.76454973 -0.32097793 0.0012268937
0.0068891542 -0.019017141 -0.0061735008 0.57470566 -0.75324118 -0.31990784 0.0015688025
-0.057045996 -0.018268615 -0.0073523913 -0.74050742 0.55507869 -0.37886199 0.0043457765
-0.055535473 -0.016656023 -0.0074846242 -0.73085457 0.57952648 -0.36055586 0.0029499959
0.0059609069 -0.018928584 -0.0079220627 0.57151282 -0.75001931 -0.33293274 0.0018572559
0.0082344608 -0.017670996 -0.0067395205 0.58845866 -0.72951645 -0.34860018 0.0010016797
0.0099592842 -0.01656523 -0.0061079157 0.59745795 -0.71094728 -0.37094212 0.0016481132
-0.054682691 -0.015758496 -0.0070127342 -0.69646102 0.63954538 -0.3254593 0.0018899296
0.011539903 -0.014856893 -0.0066006538 0.62400568 -0.65070808 -0.43266147 0.0018433478
0.013338702 -0.01350058 -0.0059804684 0.64451569 -0.62777871 -0.43645537 0.0011007884
0.014354916 -0.011744877 -0.0068300059 0.652174 -0.57437205 -0.49473813 0.0019653742
0.016006568 -0.010796241 -0.0057286117 0.66959059 -0.56979138 -0.47643068 0.0020850687
0.017169103 -0.0084931143 -0.0065726857 0.67686021 -0.4697057 -0.56677753 0.0011515012
0.019037742 -0.0072184261 -0.0054327538 0.6846047 -0.45924011 -0.56605196 0.0011745307
0.01810034 -0.0058972808 -0.0074556796 0.67913252 -0.3380782 -0.65152287 0.0018038671
0.019578531 -0.0052263988 -0.0062048435 0.69459873 -0.36110589 -0.62220186 0.0010151541
0.020257298 -0.0025623287 -0.0068331626 0.68296754 -0.26436013 -0.68093246 0.0027169376
0.021881711 -0.0019000801 -0.0054286513 0.70277202 -0.30172792 -0.64426053 0.002041731
0.02061086 0.0004925984 -0.0072295773 0.64359528 -0.063335314 -0.76274103 0.0023372751
0.022265816 0.00062967883 -0.0057723261 0.68162602 -0.12187677 -0.721479 0.0034884114
-0.018369257 0.003997067 -0.0073244665 -0.35519773 0.89757472 -0.26114029 0.00033550803
-0.016305886 0.0049153613 -0.0072827581 -0.36003959 0.88695288 -0.28928521 0.0010023814
0.020372402 0.0036646863 -0.0072792 0.56226218 0.14782928 -0.81363863 0.0049627707
0.022326184 0.0035411683 -0.0058304453 0.62851149 0.063014694 -0.77524352 0.0037211701
-0.015187465 0.0055322796 -0.0066227312 -0.3614656 0.89765906 -0.25209311 0.0003390479
-0.012788016 0.0066060936 -0.0065657622 -0.35670435 0.89366806 -0.27224883 0.0007156806
-0.010185894 0.0075180428 -0.0072219912 -0.32535782 0.89136374 -0.31561506 0.0017514119
0.017792815 0.0070438385 -0.0076187281 0.42770332 0.3331784 -0.84027499 0.0012126256
0.019990874 0.0065283868 -0.0066911448 0.46710396 0.29678586 -0.83290577 0.0028145725
0.022111744 0.0063631767 -0.0054439576 0.55370533 0.2288371 -0.80065221 0.0024223018
-0.0091058947 0.0082580568 -0.0062525142 -0.33569622 0.8838616 -0.32572496 0.0016504711
-0.0068531097 0.0089487862 -0.0067207064 -0.31793714 0.87558371 -0.36368826 0.0020412181
-0.0038802444 0.010032783 -0.0066013765 -0.27379942 0.86551869 -0.41941783 0.0029535748
-0.001070004 0.010572483 -0.007100258 -0.20851406 0.84618115 -0.49040744 0.0035537931
0.0020621661 0.01087766 -0.0076319021 -0.12043476 0.80592138 -0.57964319 0.0021844106
0.0036685579 0.010871922 -0.0079274271 -0.080545947 0.76862609 -0.6346072 0.0037968813
0.0089413598 0.010872667 -0.0078885946 0.048528716 0.69100094 -0.72122294 0.0017121612
0.011258939 0.010710557 -0.0076491088 0.14658768 0.6408214 -0.75356489 0.0015725121
0.014150726 0.010156741 -0.007346719 0.22532408 0.55289143 -0.8022095 0.0015701364
0.017030692 0.009546278 -0.0066954312 0.34539184 0.48191264 -0.80527306 0.0024777551
0.019829597 0.0091923689 -0.005618372 0.40241641 0.41735861 -0.81478387 0.0017428597
0.021663569 0.0081574069 -0.0051222537 0.49692872 0.27789101 -0.82209396 0.0015352169
-0.00048195384 0.01152955 -0.0057083061 -0.26376644 0.84350175 -0.46790171 0.0018452696
0.0021470943 0.011920308 -0.0061327163 -0.19008002 0.82117027 -0.53809762 0.0018260889
0.0051334966 0.012196549 -0.0064085498 -0.10981462 0.79758394 -0.59312773 0.0019956056
0.0080748629 0.012326774 -0.0064384779 -0.014675326 0.73547339 -0.67739469 0.0017877613
0.01103087 0.012285548 -0.0062805284 0.091635883 0.67763215 -0.72966945 0.0020813327
0.013955975 0.012193055 -0.0058314968 0.18991621 0.62492001 -0.7572363 0.0017951342
0.016701952 0.011720073 -0.0054180752 0.28806224 0.55616182 -0.77955383 0.0012753586
-0.057954073 -0.031200211 -0.003455231 -0.49404681 -0.75935233 -0.42344046 0.0014871685
-0.056427144 -0.031586628 -0.0044192765 -0.48614815 -0.78083944 -0.39236429 0.002705144
-0.063036367 -0.028331313 -0.0025483314 -0.69509912 -0.43655673 -0.57118773 0.039630506
-0.06100658 -0.029338039 -0.0035829935 -0.59286833 -0.59737438 -0.54004723 0.014676603
-0.058934126 -0.030588731 -0.0038756002 -0.49994045 -0.7601701 -0.41497126 0.0018972359
-0.063109308 -0.026361555 -0.0030735098 -0.77872849 -0.07595446 -0.62274617 0.017322289
-0.061840575 -0.026781719 -0.004386303 -0.7623086 -0.11618023 -0.63670063 0.01050427
-0.062941864 -0.024083961 -0.0028239782 -0.74477404 0.18236442 -0.64191514 0.010631067
-0.06174976 -0.023321945 -0.0041258028 -0.7948339 0.20408224 -0.5714801 0.0068535362
0.0018114671 -0.022851568 -0.0036160443 0.52162212 -0.81728816 -0.24484801 0.00093800115
-0.060922239 -0.021207772 -0.0035696817 -0.7609033 0.47388041 -0.44324195 0.003237786
-0.058937021 -0.019325826 -0.0046401713 -0.78611875 0.46703583 -0.40483946 0.0038187588
0.0053615309 -0.020668436 -0.0040137265 0.54748869 -0.80806351 -0.21746139 0.0011465058
0.0073646978 -0.019270301 -0.0042172959 0.57746601 -0.77892745 -0.24455062 0.00077130465
-0.058263361 -0.018639397 -0.0045070145 -0.73377275 0.57813519 -0.35684341 0.0023057135
0.0087554315 -0.018360779 -0.0039022062 0.58194202 -0.77915257 -0.23294798 0.00058158644
0.010902369 -0.016835753 -0.0035101157 0.60096657 -0.75848073 -0.25208375 0.0011691133
0.011989735 -0.015725955 -0.0041890731 0.62298292 -0.7307567 -0.27908218 0.001062289
0.014142025 -0.01413119 -0.0034295092 0.63133717 -0.70562047 -0.32173473 0.0028284518
0.015739067 -0.013172816 -0.0023440514 0.65745467 -0.68373436 -0.31663954 0.002056547
0.015224405 -0.012639354 -0.0042843316 0.65879017 -0.66358423 -0.35447335 0.0014278288
0.016974468 -0.011386171 -0.0033332021 0.6751222 -0.64270973 -0.36212447 0.00066409644
0.018158114 -0.0095611895 -0.0041328911 0.68441671 -0.59544647 -0.42073438 0.0011159671
0.019774962 -0.0081952317 -0.0032884073 0.702757 -0.53997636 -0.46320423 0.0015655278
0.020848149 -0.0058481065 -0.0041918573 0.7233544 -0.44196889 -0.53049207 0.0030722839
0.022182191 -0.0051330766 -0.0029815356 0.71448648 -0.47227097 -0.51620656 0.0023753324
0.023161218 -0.0025350214 -0.0035970979 0.7183345 -0.3305214 -0.61216915 0.0012648872
0.02472413 -0.0015618263 -0.0022384119 0.74256128 -0.36829779 -0.55942792 0.0014964222
0.023929106 0.00044482481 -0.0040401476 0.71450716 -0.1679206 -0.67917764 0.0021632568
0.025338292 0.00076247519 -0.0025919629 0.73330867 -0.22742356 -0.64073157 0.0024749325
0.024004735 0.0035440698 -0.0044010305 0.67157906 0.0030736309 -0.74092656 0.0025539817
0.025648154 0.0036367122 -0.0028298041 0.70738089 -0.055777326 -0.70462835 0.0033087009
-0.011113675 0.0076997774 -0.0047962461 -0.36448973 0.88895535 -0.27731866 0.00049705745
0.023716824 0.006670746 -0.0042324169 0.60816902 0.16398971 -0.77668387 0.0018575398
0.025644705 0.0064800726 -0.0027017631 0.64580095 0.12025789 -0.75397557 0.003197175
-0.0097415205 0.0083982097 -0.0043792371 -0.35256603 0.88342977 -0.30862454 0.00092743855
-0.0068219905 0.0097907046 -0.004051948 -0.35748133 0.88497388 -0.2983762 0.00090210367
-0.0044745854 0.010758763 -0.0042336737 -0.32210267 0.88555914 -0.33471611 0.0015238534
0.020637048 0.010517478 -0.0045480062 0.38151643 0.4310239 -0.81771851 0.0025857387
0.023083547 0.009546102 -0.0036581187 0.50473857 0.35867792 -0.78523189 0.0035857251
0.025226653 0.0092880782 -0.0023681954 0.55105639 0.30652434 -0.77613127 0.0030328147
-0.0031701266 0.011538272 -0.003440531 -0.3369534 0.87760067 -0.34099764 0.0016291111
-0.00087947398 0.012343842 -0.0036891215 -0.31894553 0.87279719 -0.36945739 0.002781919
0.0019967845 0.013300491 -0.0036954577 -0.28087735 0.87150776 -0.40197274 0.0019543604
0.0047739316 0.01357521 -0.0044062948 -0.14126185 0.83030969 -0.53910202 0.0017774205
0.0078214984 0.01370337 -0.0048087095 -0.050910838 0.76730722 -0.63925552 0.0016794227
0.011053683 0.013702017 -0.0048611299 0.040982276 0.72264522 -0.69000316 0.0013573907
0.014292637 0.013555237 -0.0045838812 0.13692418 0.6805526 -0.71979159 0.0012232262
0.017264027 0.013016309 -0.0042402549 0.24880679 0.60357529 -0.75749063 0.002135857
0.020109678 0.012580383 -0.0034904242 0.31861874 0.54426235 -0.77605456 0.00081793853
0.022579305 0.012135963 -0.0026051765 0.40929443 0.48924777 -0.7701394 0.0024924723
0.0029660743 0.01422814 -0.0024718735 -0.29246724 0.86061007 -0.41690919 0.0018543403
0.0053152442 0.014562431 -0.0029891226 -0.20764609 0.83998096 -0.50131327 0.0022467473
0.0081167212 0.014872017 -0.0032872134 -0.1146755 0.81082696 -0.57394177 0.0023558449
0.011120498 0.015107947 -0.0032559698 -0.013016785 0.77309865 -0.63415223 0.00189948
0.014056258 0.015107946 -0.0030882964 0.091091998 0.71244317 -0.69579244 0.0019418441
0.017008154 0.014832626 -0.0027859746 0.19452877 0.65173399 -0.73307663 0.0013792685
0.019664913 0.014492347 -0.0022494122 0.29331642 0.59753633 -0.74626786 0.001100457
-0.060710963 -0.030965593 -0.0005079601 -0.55110514 -0.64046621 -0.53487027 0.010942713
-0.066134349 -0.028770208 0.0005766768 -0.63515931 -0.2746 -0.72191924 0.033414122
-0.064051963 -0.029320981 -0.00054322137 -0.52013332 -0.55121845 -0.65239513 0.0152613
-0.061396949 -0.030433219 -0.0013699923 -0.55105293 -0.64050323 -0.53487962 0.010969482
-0.066361442 -0.026603729 0.00032271165 -0.66458625 0.023629453 -0.74683785 0.031283949
-0.064789668 -0.026483502 -0.0012594736 -0.70516199 -0.010206643 -0.70897275 0.016907267
-0.065504774 -0.024718959 0.00029676221 -0.76348984 0.31573674 -0.5633769 0.019747429
-0.064027622 -0.023662776 -0.00073872507 -0.76737851 0.38102067 -0.51570684 0.0074232686
-0.062382724 -0.022030916 -0.0017674658 -0.79952103 0.3523027 -0.48646572 0.0052781608
0.0087811071 -0.018789243 -0.0014841054 0.58586746 -0.78092527 -0.21659856 0.00042466339
0.011264039 -0.017085221 -0.001432607 0.60093784 -0.77077621 -0.21160746 0.00062755565
0.01299943 -0.016059216 -3.6129728e-05 0.61469072 -0.76113874 -0.20693748 0.00028405865
0.014379349 -0.014808203 -0.00094532687 0.61677814 -0.74943262 -0.2406978 0.0010667697
0.01625799 -0.013398737 -0.00041912915 0.63911331 -0.72866046 -0.24614641 0.0017571404
0.01751486 -0.012167239 -0.0007121102 0.64894396 -0.71316791 -0.26507214 0.00082256459
0.01918239 -0.010570569 -0.00064542983 0.67047977 -0.67006344 -0.31854641 0.0018172816
0.020811781 -0.0086593498 -0.00088790385 0.70654482 -0.60039651 -0.37459093 0.0015053011
0.022176709 -0.0074945344 -0.00019888999 0.71026337 -0.58178097 -0.39630401 0.00066725619
0.023350049 -0.0056450604 -0.00064307544 0.73090398 -0.54009497 -0.41722521 0.00080980978
0.024859315 -0.0045510191 0.00058926176 0.73119289 -0.51853639 -0.44325721 0.0020761827
0.02413735 -0.0036628726 -0.0015323851 0.73518944 -0.48668513 -0.47184128 0.0014857858
0.025590179 -0.0023636771 -0.00040403008 0.75234181 -0.40368205 -0.52059835 0.0012591181
0.026720166 0.0004363386 -0.00069494406 0.76061994 -0.25878906 -0.5953868 0.0018487108
0.028097473 0.0013332744 0.00065576844 0.77549279 -0.30925205 -0.55043089 0.0016980727
0.027089354 0.0034051547 -0.0012650806 0.73757941 -0.097706914 -0.66815418 0.0019368893
0.028373536 0.0036766566 0.00019474234 0.76889217 -0.15198724 -0.62105131 0.0027447299
0.027070861 0.0067095002 -0.001378241 0.69478273 0.062006462 -0.71654177 0.0020408242
0.028591495 0.0065907361 0.00017024484 0.73122156 0.012302466 -0.68202901 0.0029685688
0.026593488 0.0098237349 -0.0011447035 0.62354207 0.20718612 -0.75383627 0.0024242722
0.028406475 0.00956003 0.00032310281 0.67087287 0.1715278 -0.72146237 0.0035417168
-0.0037866717 0.011696872 -0.0013934467 -0.35380515 0.89386296 -0.27537414 0.0014606374
-0.00073275389 0.013271892 -0.00091230962 -0.37289974 0.89160216 -0.25688776 0.0014488505
0.00087074004 0.013783936 -0.0016930494 -0.2933279 0.90655464 -0.30350864 0.0044022719
0.023412393 0.013207682 -0.0014900807 0.39589819 0.47816613 -0.7839781 0.0023777019
0.025963593 0.012574761 -0.00035899598 0.51535028 0.3885296 -0.76384473 0.00180831
0.028101373 0.011858531 0.00072753988 0.58191448 0.33288345 -0.74200004 0.0039168564
0.0022149207 0.014650145 -0.00066522695 -0.35542467 0.88479501 -0.3013486 0.003583374
0.0050842743 0.015751701 -0.00061040185 -0.28397551 0.87410378 -0.39408177 0.0035932704
0.0079968022 0.016308535 -0.0010784958 -0.18443164 0.85633796 -0.48235917 0.0037806681
0.010934049 0.016524609 -0.001455402 -0.066036388 0.79508764 -0.60288876 0.0016613922
0.014297912 0.016513269 -0.0015494958 0.040718168 0.74506503 -0.66574782 0.0013718001
0.017159799 0.016210999 -0.001442241 0.14571127 0.69189376 -0.70714313 0.0012398948
0.020243488 0.015780028 -0.00095887436 0.25578341 0.62311262 -0.73912489 0.0020861211
0.022979738 0.015390034 -0.00015444774 0.328145 0.59045637 -0.73734808 0.00080144079
0.025166797 0.014776022 0.00050126575 0.43313709 0.51136804 -0.74222302 0.0017582864
0.0083338823 0.017267223 0.00043395255 -0.26018023 0.85102075 -0.45614681 0.0029170027
0.011200607 0.017538201 -7.8921206e-05 -0.12752911 0.82367951 -0.55252922 0.0025524562
0.014167393 0.017797679 -1.2525357e-05 -0.016198276 0.78531206 -0.6188882 0.0020666267
0.016887594 0.017737482 9.281002e-05 0.097118199 0.73888594 -0.66679513 0.002008351
0.019774994 0.017497465 0.00046188477 0.20062785 0.68380004 -0.70154542 0.001443624
0.022142639 0.017125588 0.00086230598 0.31279922 0.62865984 -0.71199954 0.0013880514
-0.069532827 -0.02893718 0.0033145137 -0.55305427 -0.34548485 -0.75813663 0.027349273
-0.067122638 -0.029676646 0.0023988541 -0.55119789 -0.43762127 -0.71040022 0.022272902
-0.064613372 -0.030577742 0.0020507779 -0.55317879 -0.50505173 -0.6625073 0.013491371
-0.069522664 -0.026679344 0.0030763363 -0.66250527 0.25455344 -0.70447803 0.061026987
-0.067660876 -0.026214786 0.001718848 -0.76056385 0.26830164 -0.59123325 0.050495189
-0.066657975 -0.024207413 0.0026857136 -0.62058771 0.5724653 -0.53586787 0.012206121
-0.064846024 -0.023068924 0.0020388793 -0.7421971 0.48698828 -0.46041927 0.0066365013
0.014436658 -0.015188004 0.0014960077 0.61818713 -0.75918472 -0.20367423 0.00030602145
0.016307348 -0.013777028 0.0013607647 0.63234186 -0.74780756 -0.20230561 0.00049980951
0.017985448 -0.012648712 0.0025772955 0.64091539 -0.74286109 -0.19335185 0.00040878254
0.019960165 -0.010808614 0.0019530598 0.6798858 -0.69301784 -0.23975334 0.0010863583
0.021314945 -0.0094120558 0.0016230252 0.68440205 -0.68521816 -0.24913828 0.0010695247
0.022796482 -0.0080708386 0.0021599401 0.70463854 -0.65223342 -0.27942106 0.0017296373
0.024186447 -0.0064135413 0.0020580795 0.7287119 -0.60378963 -0.32313636 0.00087070378
0.025549958 -0.0051349271 0.0027410565 0.74733609 -0.54973155 -0.37320757 0.00084219815
0.026691828 -0.0030113321 0.0020392798 0.76535994 -0.51043117 -0.39202592 0.001268621
0.027966209 -0.0018008247 0.0029572723 0.77404326 -0.47423953 -0.41946861 0.0017369103
0.027541019 -0.00065843342 0.0011805799 0.78392142 -0.34848881 -0.51383156 0.0014378916
0.028952468 0.00052919658 0.0025163274 0.79974604 -0.35440826 -0.48456278 0.0024910297
0.029864755 0.0034557716 0.0022494439 0.79840904 -0.21442346 -0.56264156 0.0033981295
0.031060159 0.0044087125 0.0035726987 0.81082565 -0.25455213 -0.52703416 0.002033486
0.030054286 0.0066056717 0.0018144986 0.76137745 -0.027763456 -0.64771414 0.0015758722
0.031181689 0.0066187233 0.0032527158 0.79830039 -0.077328824 -0.59727442 0.0022259734
0.029924393 0.0094207795 0.0018821117 0.73142034 0.10014219 -0.67453378 0.0015472962
0.031185523 0.0094431564 0.0033149803 0.75893641 0.06176741 -0.64822853 0.0018839515
0.027385976 0.01370268 0.0011994047 0.4934935 0.42667311 -0.75790125 0.0040312945
0.029407449 0.012619824 0.0021707416 0.64570338 0.28584498 -0.70806766 0.0037212975
0.031153329 0.012083598 0.003555974 0.69297421 0.24264909 -0.67890209 0.0049963049
0.00037062587 0.014358287 0.0023589041 -0.39648691 0.88119751 -0.25746682 0.00092796568
0.0023684497 0.015400433 0.0018615928 -0.40067863 0.88117844 -0.25096065 0.00099867897
0.0045174146 0.016546987 0.0022776229 -0.36877334 0.87741309 -0.30684265 0.0029296193
0.024036488 0.016673226 0.0013444927 0.33587185 0.60392547 -0.72281688 0.00098901871
0.026206527 0.015788261 0.0018498264 0.4103938 0.53941113 -0.73526365 0.0011683172
0.028617289 0.01524791 0.0030393722 0.53428584 0.45590204 -0.71182293 0.002413247
0.0059278458 0.017344367 0.0027167508 -0.36295384 0.86904114 -0.33620256 0.0020719289
0.0081868647 0.018222768 0.0025533922 -0.32584673 0.86713606 -0.37669474 0.0043258034
0.011020178 0.018952593 0.0022777179 -0.18222913 0.84733015 -0.49882272 0.0020445432
0.013986284 0.019522291 0.0023185797 -0.068167582 0.81441838 -0.57626015 0.001543575
0.017125143 0.019419324 0.0020816056 0.046846669 0.77205211 -0.63383031 0.0013261876
0.020219728 0.019123837 0.0022453116 0.15339576 0.72721946 -0.66904527 0.00094695063
0.023170657 0.018390499 0.0024777129 0.30436659 0.6320644 -0.71263987 0.0012801696
0.025791585 0.017854292 0.0032148296 0.37707666 0.59651023 -0.70851159 0.0017452172
0.027682506 0.017223958 0.0038066115 0.43285096 0.56596416 -0.70165843 0.00089843891
0.011900423 0.020050969 0.0038157906 -0.27201807 0.87120771 -0.40866035 0.002891385
0.014488604 0.020517271 0.0036978088 -0.13339464 0.83251989 -0.53769553 0.0024428177
0.017107442 0.020576902 0.0035097636 -0.0047355336 0.80306774 -0.59586895 0.0021181861
0.019905774 0.020517539 0.0037047276 0.12229475 0.7487992 -0.65141684 0.0016137611
0.022500651 0.020050857 0.003812721 0.24092604 0.7069459 -0.66496772 0.0017729914
-0.072465152 -0.03105244 0.0067239907 -0.22831754 -0.80744654 -0.54396784 0.018021587
-0.070438623 -0.030994032 0.0059605222 -0.25124586 -0.76390761 -0.59440786 0.0065270364
-0.075158536 -0.029094808 0.0066111078 -0.55399889 -0.14168666 -0.82037187 0.059113044
-0.072898999 -0.0293741 0.0056469738 -0.39704567 -0.35730317 -0.84539288 0.026935697
-0.070392594 -0.029809982 0.0046296902 -0.4804579 -0.46189582 -0.74552834 0.040902693
-0.067619503 -0.030893527 0.0046468684 -0.45541987 -0.59109592 -0.66573137 0.019000918
-0.075148225 -0.026926894 0.0066452194 -0.54758108 0.15097389 -0.82301998 0.048199266
-0.072934151 -0.026433934 0.0056022499 -0.47430882 0.33510971 -0.81408393 0.023995312
-0.070932791 -0.026031576 0.0044512199 -0.64036357 0.31494781 -0.70053011 0.060198423
-0.072495297 -0.024698786 0.0065561701 -0.28319404 0.83180219 -0.4773953 0.0309412
-0.069971189 -0.024543595 0.0053569824 -0.33591262 0.81479383 -0.47251838 0.022044452
-0.067289956 -0.023836747 0.0050400896 -0.51477832 0.76861715 -0.37977746 0.014491341
0.019682642 -0.011521917 0.0040596928 0.65808511 -0.7235359 -0.20837417 0.00016786854
0.021624237 -0.010148685 0.0054659452 0.67590845 -0.70418596 -0.21741648 0.00057998812
0.023497999 -0.008364493 0.0050459672 0.6892544 -0.68689293 -0.23044859 0.00083062262
0.024986029 -0.0073358822 0.0065522101 0.6929338 -0.68335927 -0.22991921 0.00067124079
0.026355356 -0.0055299997 0.0055039451 0.72909528 -0.62214649 -0.28522569 0.0010128377
0.027821746 -0.004252221 0.006390905 0.73371881 -0.60824519 -0.30281103 0.0014166587
0.0289235 -0.0022788856 0.0055117114 0.76735908 -0.53236711 -0.35741481 0.0013189819
0.030092973 0.00025829719 0.0047339741 0.81047404 -0.37724695 -0.44812569 0.0011857696
0.031064454 0.00083044451 0.0060302923 0.80578393 -0.4326891 -0.40434197 0.0028935806
0.031967696 0.0035858667 0.0054744612 0.82851315 -0.29363421 -0.47680685 0.0021375101
0.03270264 0.0066896873 0.0053912932 0.83469141 -0.12752169 -0.53575051 0.0023096041
0.032724395 0.0094733909 0.0052530197 0.80869293 0.002043914 -0.58822751 0.0015380469
0.03402504 0.0095008435 0.0070193615 0.83133066 -0.0022545834 -0.55577362 0.0010516254
0.032570366 0.012681182 0.0053793695 0.74433243 0.19680481 -0.63815129 0.0043448652
0.029761158 0.016105071 0.0044388128 0.54593027 0.43113506 -0.71838892 0.001154698
0.031898558 0.015535713 0.0058160499 0.59934145 0.39561534 -0.69590116 0.0019280356
0.0056639649 0.017875127 0.0056017097 -0.42368078 0.87321317 -0.24081811 0.00050943659
0.0081722029 0.019223299 0.0054567028 -0.39989921 0.87688148 -0.26675722 0.0018155407
0.0097873006 0.01960038 0.0043449905 -0.39448154 0.86815953 -0.30113688 0.0032475695
0.024398156 0.019590739 0.0040961709 0.30300003 0.64552134 -0.70106566 0.0013282258
0.02637656 0.019172877 0.0046763448 0.3401455 0.64182615 -0.68728471 0.0011350461
0.028899632 0.018405929 0.0055354787 0.43865436 0.56721437 -0.69702959 0.00084280258
0.030983992 0.017627884 0.0064369198 0.51689494 0.51837748 -0.68125212 0.00068948313
0.0093413638 0.020158697 0.0065176096 -0.41426444 0.8649739 -0.283205 0.0019986064
0.01118624 0.020631988 0.0055964747 -0.35218939 0.86884522 -0.34795204 0.0016080014
0.014161227 0.02149608 0.0054848026 -0.17887604 0.85670799 -0.48379195 0.0015764029
0.017203098 0.021934643 0.0054147858 -0.064949304 0.83995229 -0.53875947 0.0031476745
0.01997284 0.022014104 0.0055649178 0.065789223 0.78791243 -0.61226285 0.0013635525
0.02305603 0.021365706 0.0054602427 0.22335649 0.71409768 -0.66345793 0.0011331625
0.025991231 0.020892717 0.0061036181 0.31930619 0.67339551 -0.66676998 0.0014888432
0.028194372 0.020284671 0.0067029651 0.4220497 0.6058982 -0.67435998 0.00074121548
-0.074818134 -0.031503376 0.0079504084 -0.33570844 -0.6864152 -0.64508462 0.058245495
-0.073117837 -0.031930245 0.0083063766 -0.228384 -0.80742562 -0.54397124 0.018018363
-0.070162773 -0.031700663 0.0076009873 -0.18472208 -0.82883984 -0.52811205 0.010595699
-0.075638652 -0.030260127 0.0072272923 -0.39383003 -0.26856291 -0.87907445 0.032722916
-0.075727195 -0.02572237 0.0074242027 -0.69007897 0.43646452 -0.57731265 0.047586426
-0.075090095 -0.024296787 0.0082874 -0.29909718 0.68647963 -0.6627869 0.073658101
-0.073225081 -0.023996785 0.0081905276 -0.1933091 0.80438548 -0.56177896 0.031451654
-0.06999281 -0.023987532 0.0075340858 -0.26650044 0.86408675 -0.42700297 0.017956279
-0.067627952 -0.023516368 0.0076010432 -0.30031121 0.86868846 -0.39394632 0.021829648
0.023598388 -0.008778315 0.0073346104 0.68215168 -0.69936013 -0.21345851 0.00045749548
0.02561567 -0.0074084955 0.0097605493 0.70364594 -0.68373156 -0.1933741 0.00028727925
0.026765782 -0.0061977389 0.0089077633 0.70365721 -0.68371958 -0.19337548 0.00027634401
0.028422553 -0.0044073942 0.008698931 0.72492921 -0.65192235 -0.22242948 0.0010459763
0.02978855 -0.0027247872 0.0085195415 0.77629954 -0.57360601 -0.26140979 0.0018665714
0.030980065 -0.0013528473 0.0089729037 0.77370816 -0.55808616 -0.29985937 0.0014771743
0.032052107 0.00057921885 0.0085055195 0.8086468 -0.48679885 -0.33032903 0.00087592407
0.032999538 0.0028905915 0.0079232231 0.8477031 -0.35371023 -0.39533338 0.0031781297
0.033934455 0.0040918561 0.0088719744 0.84222603 -0.35992441 -0.40138483 0.0029830616
0.034518901 0.0066661444 0.0084388424 0.85317731 -0.20151541 -0.48112372 0.0024834634
0.034902453 0.0095231133 0.0084516685 0.86120778 -0.06248134 -0.50439787 0.0012507738
0.034769848 0.01246504 0.0084370151 0.82143176 0.082256384 -0.56434357 0.0028139432
0.032981604 0.016512614 0.0073908698 0.63505417 0.39754239 -0.66231877 0.0038037484
0.034628667 0.015656251 0.0086216219 0.74938625 0.227075 -0.62197852 0.0066359546
0.0079369927 0.019764427 0.008573344 -0.487353 0.85526592 -0.17608896 0.0032640672
0.030086618 0.01955663 0.0072960956 0.47234452 0.56017601 -0.68050969 0.0019752702
0.032141771 0.018737003 0.0082399435 0.55844641 0.50877482 -0.65519905 0.0022386205
0.034079351 0.017940402 0.0093777608 0.63434386 0.43362385 -0.63998306 0.0025350931
0.0091239149 0.020464908 0.0082231816 -0.48099956 0.85801405 -0.18014227 0.0036509319
0.011080537 0.021622729 0.0085821692 -0.40251482 0.86769277 -0.29170379 0.0022222549
0.013433388 0.022456337 0.0079145078 -0.30692637 0.87741947 -0.36868873 0.0057459166
0.01670816 0.023034301 0.0071957614 -0.13791044 0.85062569 -0.50736237 0.0022004787
0.023038151 0.022875763 0.0071893688 0.17172177 0.75844026 -0.62871295 0.0011710218
0.026550647 0.022269826 0.0077934042 0.27717903 0.70786631 -0.64968997 0.001069986
0.029171254 0.021490593 0.008453168 0.40797845 0.6304068 -0.66040963 0.0020750689
0.031448014 0.020703372 0.009297289 0.49387288 0.57720345 -0.65032727 0.0015371309
0.01449042 0.023229271 0.0088296924 -0.36704957 0.86557114 -0.34067759 0.0029170937
0.017090209 0.023933355 0.0087280702 -0.22118856 0.86297035 -0.45426637 0.0019616059
0.020135567 0.024261974 0.0086407401 -0.035913225 0.83450747 -0.54982483 0.002595871
0.022946479 0.024139993 0.0087584071 0.12444334 0.78368199 -0.60856909 0.0020067184
0.02581976 0.023684014 0.0090462007 0.25540224 0.73129731 -0.6324349 0.0013206508
0.02836239 0.023273293 0.0097758751 0.36255372 0.68211764 -0.63503563 0.0011381732
-0.072215572 -0.03279971 0.010793438 -0.2283721 -0.80743259 -0.54396582 0.018026009
-0.074719667 -0.023184832 0.010069778 -0.19319515 0.80438715 -0.56181586 0.03147383
-0.073591501 -0.023207068 0.010451911 -0.19329381 0.80438483 -0.5617851 0.03146651
-0.071421787 -0.023679089 0.010346523 -0.16531129 0.90855336 -0.38367045 0.013298841
0.029080521 -0.0045787054 0.011942556 0.72140253 -0.66317409 -0.19944535 0.00051129144
0.030300908 -0.0033835503 0.012292078 0.74493074 -0.63289452 -0.21100403 0.00030915218
0.031322934 -0.0019335928 0.011337763 0.76625276 -0.59774381 -0.23570962 0.00095465902
0.032743648 1.8041115e-05 0.011332681 0.79660463 -0.54965293 -0.25160006 0.0013437826
0.033881489 0.0014194441 0.011974027 0.81546068 -0.50234812 -0.2875244 0.0015685071
0.034910921 0.0036424538 0.011583988 0.85027575 -0.40246776 -0.33919144 0.0021252357
0.035910849 0.0066917762 0.011265777 0.87538415 -0.22842388 -0.42605767 0.0013397823
0.036807913 0.0076657729 0.012614941 0.88677132 -0.27784204 -0.3693783 0.0022924487
0.036189124 0.0095580351 0.010700926 0.87510157 -0.067502201 -0.47920844 0.0014388427
0.036965989 0.0097729331 0.012147816 0.89249688 -0.10651028 -0.43829763 0.001830867
0.036114335 0.012598542 0.010610729 0.86038733 0.020931674 -0.50921071 0.00050018862
0.037011605 0.012461069 0.012115216 0.87949795 -0.0016007297 -0.47589996 0.0007340603
0.036038414 0.015632723 0.01059952 0.8243764 0.13694692 -0.54922587 0.0057123941
0.03697063 0.015700519 0.012102798 0.85002267 0.080956951 -0.52048767 0.0046964828
0.035270948 0.018854883 0.011244092 0.66191024 0.40408248 -0.63134164 0.0062720003
0.036961325 0.018075939 0.01252171 0.77278489 0.26256451 -0.57780904 0.010481019
0.0084544476 0.020410065 0.01282244 -0.54932201 0.82611203 -0.12563558 0.00082192553
0.011075366 0.022267379 0.011328561 -0.49404418 0.84920615 -0.18646474 0.0037478521
0.030181617 0.022698235 0.010260379 0.4119567 0.64246124 -0.64616966 0.000379234
0.032407235 0.021875646 0.011119675 0.50791234 0.58566034 -0.63168585 0.0016593299
0.034536988 0.021025628 0.012195911 0.57526046 0.52546734 -0.62686467 0.0011476041
0.012291538 0.023270939 0.012303254 -0.51029903 0.83704168 -0.19737299 0.0033014033
0.014142875 0.024041664 0.011345312 -0.4331286 0.85338265 -0.29006505 0.0042840163
0.017033184 0.025206711 0.011324802 -0.3055366 0.88014013 -0.36331901 0.0029272158
0.019985359 0.025518592 0.010651549 -0.075388923 0.85243338 -0.51737213 0.0021427551
0.023263194 0.025463477 0.01057625 0.080141664 0.8112824 -0.57913566 0.0016897604
0.026205834 0.025093071 0.010895992 0.21187252 0.75831652 -0.61649501 0.0012128525
0.029090609 0.024499573 0.011548784 0.32796878 0.71457553 -0.6179145 0.0010532918
0.031617682 0.023791857 0.012374718 0.458296 0.6274823 -0.62946868 0.00081226492
0.018299598 0.026160557 0.012454918 -0.30676067 0.85401928 -0.42017737 0.0049467189
0.02031495 0.026356611 0.012031538 -0.13911019 0.86980987 -0.47337008 0.0032218732
0.023039822 0.026525013 0.012075268 0.026152905 0.83992898 -0.5420658 0.0025656843
0.025790021 0.026347898 0.012361314 0.18735017 0.79144388 -0.58182168 0.0021802878
0.027686257 0.026178796 0.012799909 0.26708078 0.75449908 -0.59949893 0.00051012839
0.0320668 -0.0017155516 0.013647875 0.7665332 -0.6087423 -0.20459628 0.00048468137
0.033288177 -0.00027326075 0.013920983 0.80144149 -0.5475986 -0.2404733 0.0012322466
0.034347169 0.00097785145 0.014607713 0.81845039 -0.52755076 -0.22765996 0.00074430916
0.0359382 0.0035848925 0.01465283 0.8518486 -0.45897835 -0.25237456 0.0011677463
0.037040386 0.0050396668 0.015787413 0.8977918 -0.35326788 -0.26300511 0.0023344974
0.036374371 0.0055073546 0.013266733 0.89269149 -0.29145142 -0.34374109 0.0015152844
0.037336163 0.0069155376 0.014547655 0.89508653 -0.28762543 -0.34072241 0.0014592051
0.037990343 0.0096175317 0.014474578 0.90418988 -0.12898365 -0.40719029 0.001107841
0.038383037 0.012589532 0.014718384 0.90337467 -0.023623941 -0.42820105 0.0013164807
0.038107865 0.015265617 0.014536846 0.88687372 0.0068351096 -0.46196136 0.00083174778
0.036364932 0.019941408 0.01313596 0.71513349 0.35294664 -0.60333467 0.0042593982
0.038080182 0.018756445 0.014424767 0.81638241 0.21984647 -0.5340293 0.013654232
0.011360444 0.022873122 0.014124503 -0.56520206 0.81234819 -0.14365599 0.0010717533
0.035633359 0.022069935 0.014125956 0.61076969 0.50615311 -0.60890841 0.0011218833
0.037444845 0.021192335 0.015255067 0.69179088 0.41699269 -0.58952731 0.0025156033
0.014188558 0.024878796 0.014272664 -0.51006842 0.83390784 -0.2107792 0.003959184
0.015931934 0.025747944 0.013765818 -0.40607491 0.87367374 -0.26795015 0.0019040979
0.029880159 0.025725085 0.013323864 0.32459402 0.71358669 -0.62083226 0.000900332
0.032246627 0.024975341 0.014070474 0.42520526 0.66620952 -0.61267054 0.00074759353
0.034497537 0.024265949 0.015099883 0.52411193 0.58817869 -0.61591595 0.0011282098
0.017305827 0.02666099 0.014609011 -0.37580571 0.87935072 -0.29242501 0.0043478664
0.020076331 0.027546022 0.014459768 -0.22742271 0.87821686 -0.42073023 0.0052326764
0.023227822 0.028065644 0.014560526 -0.034192938 0.87345839 -0.48569673 0.0034141163
0.026116744 0.027834564 0.014519824 0.168098 0.7954123 -0.58229053 0.0014688291
0.028900601 0.027142927 0.014584329 0.29170042 0.7460196 -0.59863639 0.0014263504
0.031398088 0.026650913 0.01532712 0.39636788 0.69519806 -0.59965992 0.00086480635
0.034705505 0.00067875674 0.017033111 0.79520154 -0.58365381 -0.16432489 0.0011255943
0.035925437 0.0023771119 0.017130544 0.84413826 -0.49550322 -0.20471244 0.00071785902
0.036945149 0.0038343677 0.017806878 0.84708631 -0.49196562 -0.20103413 0.00071012526
0.038130891 0.0065056058 0.017407285 0.89516044 -0.34422302 -0.28319323 0.001768117
0.038952317 0.0094140759 0.017037945 0.91358954 -0.22668535 -0.33759141 0.0025468795
0.039655086 0.010406216 0.018261224 0.91275799 -0.25620449 -0.31816992 0.0010913401
0.039005414 0.011339162 0.016160538 0.90699941 -0.041315276 -0.41910031 0.0015180568
0.039845288 0.012698245 0.017864916 0.91666216 -0.079812072 -0.39161274 0.0022113314
0.039021879 0.01570547 0.01637275 0.89134532 -0.010508932 -0.45320311 0.00069618208
0.039870396 0.015506844 0.017903626 0.90626848 -0.021712527 -0.42214468 0.00099961297
0.039422244 0.018521637 0.01653479 0.86428016 0.096001424 -0.49376473 0.0082801403
0.040127944 0.018552005 0.01808566 0.88307148 0.036571898 -0.46781117 0.006205257
0.038499232 0.021814276 0.016929092 0.72836995 0.37207827 -0.57535636 0.005110634
0.040004782 0.021111712 0.018205661 0.80542696 0.28368133 -0.52039629 0.014153832
0.011891674 0.02348702 0.016966572 -0.56688261 0.80921161 -0.15433979 0.0011664482
0.014556922 0.025662038 0.016789442 -0.54692858 0.81810403 -0.17769325 0.0013578215
0.035507776 0.025265701 0.016942048 0.53572863 0.59471649 -0.59942228 0.0016266884
0.037576355 0.02426333 0.017964114 0.60246098 0.53047812 -0.59635037 0.0010242827
0.01531893 0.026463155 0.018185994 -0.53085655 0.82284307 -0.20278217 0.0021053175
0.01718536 0.027521055 0.017502459 -0.44016823 0.85662818 -0.26914701 0.0022170059
0.019785766 0.028657936 0.017218897 -0.35817087 0.88190228 -0.30653197 0.0033112671
0.0215679 0.028780866 0.016203871 -0.22589086 0.90055335 -0.37145242 0.0053442386
0.027381524 0.028780866 0.016203871 0.1154518 0.83038765 -0.54509383 0.0022066939
0.029443271 0.028566234 0.016679542 0.24243686 0.77555257 -0.58287442 0.0012413705
0.032223184 0.02793796 0.017394898 0.37975672 0.70625085 -0.59749019 0.0018559002
0.034681983 0.0269721 0.018029636 0.48625734 0.63881171 -0.59621596 0.00063115993
0.020669864 0.029380597 0.018148672 -0.36980724 0.87225068 -0.32003346 0.0031902099
0.023164913 0.029719632 0.01758966 -0.12052547 0.88623232 -0.44728723 0.0055952026
0.026148591 0.029859364 0.017585084 0.036894046 0.8643868 -0.50147218 0.0028189807
0.029044483 0.029726405 0.018114166 0.20022 0.81326699 -0.54635948 0.0021192376
0.031158883 0.029407796 0.018607577 0.32557619 0.76140833 -0.56058681 0.0015775975
0.033427957 -0.0012872326 0.019804647 0.78668189 -0.60048091 -0.14336754 0.00050614087
0.03582954 0.001644094 0.019231251 0.79621053 -0.58266491 -0.16294292 0.0011447619
0.036415353 0.0021303487 0.020610323 0.81301212 -0.56389832 -0.14501745 0.0017195991
0.037702665 0.0040862951 0.020375421 0.85469574 -0.48102167 -0.19522618 0.00066880713
0.038888123 0.0065277517 0.020047817 0.8896262 -0.36860818 -0.26961699 0.0011451482
0.039891843 0.0080087529 0.021270981 0.88782787 -0.3706066 -0.27278635 0.0012326498
0.040267408 0.0098084947 0.020444166 0.91022754 -0.27783889 -0.30706897 0.0016039951
0.040943079 0.012712925 0.020497773 0.91936666 -0.14108509 -0.3672328 0.002154018
0.041034192 0.015573646 0.020253163 0.91409957 -0.030296894 -0.40435639 0.0010598121
0.040975973 0.018272243 0.020536542 0.90527242 -0.034329791 -0.42344216 0.0014585789
0.04123006 0.021659747 0.020319065 0.83963704 0.18183237 -0.51180708 0.017617138
0.038724288 0.025046758 0.019876784 0.64580196 0.50264221 -0.57470918 0.00099942263
0.040383607 0.024067976 0.020905143 0.69036996 0.46284068 -0.5560286 0.001705286
0.017087359 0.028132036 0.020447623 -0.47699359 0.84573942 -0.23916937 0.00068016868
0.018764958 0.028967816 0.019416919 -0.43929762 0.85554087 -0.2739844 0.0025325995
0.033400755 0.028965894 0.019383898 0.35980138 0.7312783 -0.57946086 0.00081646198
0.035336573 0.028225064 0.019981701 0.46419084 0.67831886 -0.56957036 0.00089714001
0.037798867 0.027016994 0.020858755 0.56002992 0.59969884 -0.57160109 0.00089136098
0.020207589 0.029946942 0.020369738 -0.40621802 0.86678714 -0.28925234 0.0045046834
0.022937361 0.031023823 0.02047544 -0.22986132 0.89020109 -0.39332649 0.0056393119
0.026043989 0.03140853 0.020276431 -0.016050087 0.88469523 -0.4658936 0.0028212259
0.029064421 0.031225391 0.020386228 0.17060085 0.82646513 -0.5365172 0.00086313818
0.032132059 0.030441981 0.020565394 0.31953767 0.76532871 -0.55871964 0.0014256716
0.034956839 0.029662263 0.021395845 0.43891445 0.70569396 -0.55619258 0.00096480345
0.024726819 0.032047827 0.021774223 -0.16895366 0.88865781 -0.42631215 0.0087484736
0.029884867 0.032056998 0.021916291 0.1327484 0.84478629 -0.51837641 0.0024884448
0.037728962 0.0034392276 0.022945186 0.83928615 -0.51845688 -0.16371085 0.00030861632
0.039215323 0.0057336241 0.023097118 0.87199372 -0.45246303 -0.18682665 0.0022263727
0.040053625 0.0071713747 0.023328995 0.87360567 -0.43355519 -0.2210044 0.0010942798
0.041179672 0.0096356915 0.023555918 0.90661281 -0.33388296 -0.25802192 0.0020826021
