# .PCD v0.7 - Point Cloud Data file format
VERSION 0.7
FIELDS x y z normal_x normal_y normal_z curvature
SIZE 4 4 4 4 4 4 4
TYPE F F F F F F F
COUNT 1 1 1 1 1 1 1
WIDTH 554
HEIGHT 1
VIEWPOINT 0 0 0 1 0 0 0
POINTS 554
DATA ascii
0.011977991 -0.0067731366 -0.010376837 0.18585205 -0.56962222 -0.80061823 0.0014534199
0.013833724 -0.0064580347 -0.010087246 0.30055979 -0.50881457 -0.80670404 0.00091589964
-0.0019288454 -0.0039673215 -0.010818398 -0.4552606 -0.75325537 -0.47470433 0.0060376124
0.0002920269 -0.00465912 -0.011399733 -0.32068044 -0.75405329 -0.57320821 0.0040709339
0.0031063193 -0.0051681446 -0.01189521 -0.13981123 -0.69838291 -0.70193595 0.00161681
0.0061822836 -0.0052753584 -0.012177208 -0.019929262 -0.65506303 -0.75531137 0.0015221627
0.0093032066 -0.0050201062 -0.012126956 0.12325139 -0.58496243 -0.80164087 0.0018636496
0.012174461 -0.004822691 -0.011638494 0.2055293 -0.53669065 -0.81836474 0.00081274169
0.014993714 -0.0046296725 -0.010756318 0.33405805 -0.47982877 -0.8112765 0.0010356634
0.017220045 -0.0038394937 -0.010134304 0.42601582 -0.4234021 -0.79952556 0.0014794793
-0.0055825938 -0.0012168139 -0.011471556 -0.51316422 -0.76169187 -0.39558569 0.0035393427
-0.0030488991 -0.0025955169 -0.011886106 -0.4681524 -0.76108867 -0.44897372 0.0025626183
-0.000712774 -0.0032011177 -0.012731144 -0.28100783 -0.74603552 -0.60370994 0.001655555
0.012650562 -0.002880143 -0.012685061 0.26232752 -0.49522653 -0.8282119 0.0011215522
0.015303995 -0.0019779429 -0.012007757 0.38078263 -0.41531587 -0.82614595 0.001151963
0.017853657 -0.0015642354 -0.010755063 0.51381737 -0.33261004 -0.79079849 0.002249751
-0.0086082462 0.0010964638 -0.011587338 -0.59377545 -0.75261617 -0.28460425 0.0026448648
-0.0066867913 1.2757257e-05 -0.012449304 -0.49408415 -0.77264178 -0.39862961 0.004550356
0.016253624 0.00067614857 -0.012662386 0.52929831 -0.2825774 -0.79999578 0.001453038
0.018163508 0.0011624317 -0.011545103 0.60154963 -0.21966082 -0.76804113 0.0014623578
0.019910377 0.0015497901 -0.010233005 0.66640174 -0.17612174 -0.72449279 0.0025658193
-0.01363848 0.0053172205 -0.010627219 -0.63436645 -0.75469613 -0.16737092 0.00031989862
-0.01162002 0.0036934381 -0.011878503 -0.62409347 -0.75610876 -0.1969945 0.0012585938
0.018415581 0.004026324 -0.012014745 0.6535753 -0.11157164 -0.74859279 0.0038546084
0.020056913 0.0041656489 -0.010397071 0.72924334 -0.029201686 -0.68363118 0.0026635267
-0.01497785 0.0066831131 -0.011857869 -0.62952024 -0.75939399 -0.16439274 0.00029509683
0.018608579 0.0071433452 -0.011897524 0.74340254 0.047803178 -0.66713381 0.0012018359
0.019941853 0.006935928 -0.010387959 0.77102846 0.093272321 -0.62993288 0.002294692
0.01836074 0.010110781 -0.011645469 0.76888257 0.16811125 -0.61689395 0.0010456081
0.019839458 0.0090193916 -0.010098184 0.80308092 0.22184241 -0.55303425 0.002212625
0.016417824 0.014158631 -0.012638104 0.75378239 0.25063238 -0.60745007 0.0011870798
0.017698193 0.013008629 -0.011413701 0.79037577 0.30078438 -0.53369921 0.0029321578
0.016004238 0.016501434 -0.011694823 0.79583263 0.41184041 -0.44388953 0.0013553746
0.017198933 0.015313759 -0.010675216 0.79382133 0.41319078 -0.44622979 0.0012455068
0.013298685 0.020456696 -0.012507359 0.76029313 0.51150244 -0.40039936 0.0019246364
0.014658388 0.019069085 -0.011551036 0.77563083 0.46717846 -0.4244304 0.0024710896
0.012344643 0.022420235 -0.011733117 0.75667524 0.55671656 -0.34279612 0.0011149398
0.01381167 0.02099839 -0.010792965 0.76779646 0.51964796 -0.37477267 0.00094483135
0.0098487083 0.025658008 -0.011773053 0.74660957 0.59269774 -0.30213174 0.00058312359
0.01114876 0.024318909 -0.011221344 0.73874682 0.58566213 -0.33354616 0.00121377
0.0069681485 0.029086996 -0.01191929 0.73192579 0.61013341 -0.30335101 0.0012958969
0.0082671307 0.027785152 -0.011318307 0.74584454 0.58131498 -0.32525203 0.00067400344
0.0042315326 0.032218449 -0.011874722 0.71032131 0.67078525 -0.21328588 0.00087375526
0.0057706502 0.030460197 -0.012017626 0.72637463 0.62902772 -0.27695516 0.00062474812
0.0033840491 0.033266194 -0.011407394 0.71098793 0.67031378 -0.21254562 0.00080389914
-0.0018644026 0.03817679 -0.012141024 0.64371872 0.721995 -0.2536718 0.00080201507
-0.00094170449 0.037190132 -0.012911821 0.65583235 0.71272612 -0.24880801 0.0010841765
-0.0046233195 0.04048067 -0.012082988 0.61325747 0.75841033 -0.22074644 0.0005465881
-0.0082975011 0.043216597 -0.012315178 0.59120244 0.76916593 -0.24261801 0.00053556421
0.0040761358 -0.0094439685 -0.0074879574 -0.33551717 -0.74066079 -0.58210814 0.0028011492
0.0062881424 -0.0099103469 -0.0077618589 -0.17658167 -0.72175127 -0.66924888 0.0026942685
0.0093734842 -0.010361824 -0.0077273156 -0.026212297 -0.6739797 -0.73828477 0.0020963741
0.012251796 -0.010100136 -0.0077941706 0.11084822 -0.62661821 -0.77140278 0.0020242736
0.015000818 -0.0097288433 -0.0074584312 0.24725159 -0.569664 -0.78380454 0.0014241852
0.017187677 -0.0093000289 -0.0069983248 0.36590865 -0.50700247 -0.78042251 0.0011367431
-0.0014261678 -0.0065079536 -0.006998295 -0.56781793 -0.74549645 -0.34902406 0.0014221705
0.00053789001 -0.0070814975 -0.0082368944 -0.43350908 -0.7507236 -0.49848154 0.0039499523
0.0031196265 -0.0079826806 -0.0087518003 -0.28037477 -0.71922761 -0.63568997 0.0016408724
0.006220913 -0.0083996281 -0.0093052797 -0.1160453 -0.69814175 -0.70649248 0.0017244245
0.0093189087 -0.0086078625 -0.0092855683 0.021091187 -0.65444809 -0.75581282 0.0014503078
0.012315685 -0.0081493165 -0.0092913313 0.14195955 -0.60426474 -0.78403544 0.0011219354
0.0152996 -0.007666992 -0.0087748393 0.26538116 -0.54348797 -0.79636276 0.0010769569
0.018053235 -0.0073900633 -0.0077257273 0.41512179 -0.4652257 -0.78181767 0.0022237811
0.019974876 -0.0065062251 -0.0071061198 0.51868892 -0.39477208 -0.75836456 0.002122137
-0.0046816547 -0.0037142988 -0.0071616415 -0.65928757 -0.71985948 -0.21712254 0.0014517326
-0.0025658379 -0.0047986591 -0.0086385347 -0.56976038 -0.74023336 -0.35697004 0.0018688698
-0.00041374634 -0.0058539258 -0.0092832344 -0.41464847 -0.7733891 -0.47951648 0.0030097782
0.01610163 -0.0057134023 -0.0096648689 0.36057651 -0.45136958 -0.81624144 0.0025489274
0.018364865 -0.004947722 -0.0088817719 0.43537968 -0.41955736 -0.79650241 0.0011235204
0.020469995 -0.0045845313 -0.0076465043 0.54311943 -0.35042974 -0.76303357 0.00088518107
-0.0075962823 -0.00060912035 -0.0088550989 -0.63744748 -0.73965973 -0.2157874 0.00097528921
-0.0057689869 -0.0022381078 -0.0086873351 -0.62854207 -0.72928232 -0.27033702 0.0043546148
-0.0041921246 -0.0032296386 -0.0094222371 -0.5688737 -0.74914384 -0.33936149 0.0013990061
0.019006863 -0.0024453709 -0.0096314838 0.54846835 -0.31023157 -0.7764914 0.003130205
0.021024812 -0.0017901212 -0.00828081 0.65608114 -0.22159477 -0.72142458 0.0010763014
0.022771256 -0.00045842491 -0.007009441 0.77062064 -0.080501303 -0.63218939 0.003004218
-0.010681044 0.0023249481 -0.0090107862 -0.62696445 -0.74440002 -0.22974791 0.0011696978
-0.009300705 0.00093567744 -0.0085965097 -0.63200271 -0.746611 -0.20771301 0.0010118715
0.021274431 0.0010900907 -0.0087929061 0.68949801 -0.13438521 -0.71171147 0.0032696556
0.022761734 0.0011698231 -0.0071934555 0.76203918 -0.040245347 -0.64627916 0.0033582218
-0.011822551 0.0034786183 -0.0095753316 -0.6273098 -0.75064498 -0.2073994 0.001120858
0.021527119 0.0041806721 -0.0086745434 0.79178023 0.053147461 -0.60848951 0.0030797843
0.022764044 0.0034960154 -0.0071488414 0.81933683 0.085071333 -0.56696546 0.0029293599
0.021222841 0.00719498 -0.0085812965 0.8178525 0.13740966 -0.55878073 0.0016282372
0.019393392 0.011338586 -0.0097373668 0.81547439 0.28975669 -0.50104153 0.0048055751
0.020515962 0.010071836 -0.0084862979 0.83209676 0.25777343 -0.49108848 0.0017073593
0.019090565 0.013372974 -0.0087306146 0.83618915 0.39960805 -0.37563428 0.0017276015
0.020069335 0.01243866 -0.0075888801 0.8409943 0.37611964 -0.38892496 0.0028721346
0.016634064 0.017596731 -0.0093386713 0.80915403 0.49258962 -0.32035166 0.00098410959
0.017858917 0.01604086 -0.0084904805 0.82324088 0.44475839 -0.35279518 0.0022614165
0.015859377 0.019225501 -0.0086577907 0.80054486 0.51991826 -0.29801491 0.001820678
0.013053512 0.022930624 -0.0091235731 0.77175194 0.58041251 -0.25984636 0.0012165979
0.014266001 0.021489374 -0.008618488 0.77274495 0.57281274 -0.27340609 0.0015411326
0.010396985 0.026187116 -0.0088663641 0.75361478 0.60909534 -0.24711876 0.00033960573
0.011655543 0.024768062 -0.0085717505 0.7587648 0.60194761 -0.2488675 0.0004319092
0.0094555374 0.027070278 -0.0095688347 0.75922143 0.58423698 -0.28679276 0.00091486215
0.0052900244 0.031681158 -0.0097735915 0.71519792 0.66592741 -0.21220919 0.00092842075
0.0027516508 0.034292154 -0.0089094583 0.70749527 0.67581522 -0.20669843 0.00060374755
0.0065615061 -0.012887334 -0.0045303022 -0.28208143 -0.72792763 -0.62494123 0.0023406388
0.0092992522 -0.013224183 -0.0049368856 -0.12172289 -0.71552956 -0.68789601 0.0023106511
0.012230659 -0.013355693 -0.0049951077 0.020820703 -0.66659182 -0.74513215 0.0018411621
0.015085595 -0.013264103 -0.0047344766 0.17437164 -0.61520052 -0.7688452 0.0018471219
0.017499415 -0.012898147 -0.0043311492 0.31736475 -0.55552298 -0.76855308 0.0016455308
0.00099622691 -0.0095375646 -0.0047754827 -0.51590014 -0.73453605 -0.44079903 0.0028311384
0.0033573834 -0.010600321 -0.0055040573 -0.3926214 -0.74280244 -0.54230332 0.0018350206
0.0061659659 -0.011523658 -0.0059412904 -0.20842129 -0.72628427 -0.65503561 0.0015825349
0.0091250967 -0.011754179 -0.0063729915 -0.071688838 -0.69253772 -0.71781069 0.0016848918
0.012433082 -0.011700591 -0.0064509362 0.063359924 -0.64599651 -0.76070619 0.0016222463
0.015242057 -0.011351267 -0.0062018256 0.19837132 -0.59641427 -0.77777809 0.0013198057
0.018199945 -0.010765933 -0.0055196318 0.32907206 -0.53817499 -0.77593774 0.0013541122
0.02073252 -0.010027491 -0.0045892 0.48034611 -0.46395922 -0.74431813 0.0020225861
-0.001806695 -0.0069072712 -0.0054220799 -0.61992246 -0.71707267 -0.31859529 0.0025132636
-6.1281025e-07 -0.0081757661 -0.0058392189 -0.56701332 -0.73735827 -0.36714935 0.0019701384
0.0018318845 -0.0088388678 -0.0068036858 -0.46895748 -0.74382174 -0.47624367 0.0024105657
0.019065827 -0.0083773881 -0.0066125365 0.48192111 -0.42885286 -0.7640925 0.0011982663
0.021213256 -0.0076991413 -0.0055558435 0.54878408 -0.3744202 -0.74742597 0.0011241395
0.023174619 -0.0070184767 -0.0043854062 0.60211992 -0.34873351 -0.71821755 0.00099410128
-0.0049326392 -0.0039621051 -0.0056754444 -0.66848254 -0.70913154 -0.22419533 0.0014998817
-0.0033993397 -0.0052282941 -0.0060453028 -0.65984821 -0.71245098 -0.23877612 0.001213087
0.021749869 -0.0051448047 -0.0063727144 0.59656322 -0.31793091 -0.73690718 0.0026579003
0.023676148 -0.0046366993 -0.0049282401 0.68729842 -0.24001126 -0.68557668 0.0034639889
-0.0075119766 -0.0013976898 -0.0050162915 -0.66607511 -0.72065383 -0.192359 0.00088483619
-0.0063385582 -0.0025639888 -0.0053309221 -0.67587394 -0.70950407 -0.19949551 0.0010096109
0.02231713 -0.0030196216 -0.0067880992 0.63592166 -0.23688136 -0.73450041 0.0021120301
0.023763908 -0.0017716913 -0.0056014112 0.76215786 -0.13708454 -0.63271105 0.0049783676
0.024019254 0.0011728299 -0.005472118 0.84854293 0.060016394 -0.52571177 0.0026213094
0.023608917 0.0042282138 -0.0055999565 0.86248088 0.16789028 -0.47743011 0.0027608678
0.022331508 0.0076937582 -0.0065042395 0.87563527 0.22641933 -0.42661119 0.0032116934
0.023117643 0.0069714566 -0.0052462001 0.87447888 0.27860498 -0.3970719 0.0026840011
0.021740558 0.010274621 -0.0056735603 0.87116623 0.35277843 -0.341492 0.0029777302
0.0195418 0.01445266 -0.0063782874 0.84935808 0.45496786 -0.26757255 0.0037368897
0.020515261 0.01308056 -0.005489944 0.85778999 0.40329072 -0.31867364 0.0018520535
0.018777946 0.016079869 -0.0055587916 0.84043908 0.4958227 -0.21868227 0.0016133627
0.016271863 0.019569376 -0.0065922085 0.80599356 0.54606557 -0.22844431 0.00076902041
0.017230008 0.018356184 -0.0059022647 0.82145083 0.53506744 -0.19728512 0.00072919304
0.015134457 0.021237196 -0.005802894 0.79160774 0.57336807 -0.21120211 0.00083793991
0.012782719 0.024001876 -0.0064499471 0.76511914 0.59892231 -0.23639944 0.00047065323
0.0071288222 -0.01574361 -0.0013921559 -0.37576643 -0.73542655 -0.56386822 0.0023296699
0.0093110651 -0.016126636 -0.0018681102 -0.21060665 -0.7212075 -0.65992773 0.0024389999
0.012271896 -0.016413786 -0.0021096421 -0.053605143 -0.69984865 -0.71227694 0.0019759669
0.015195422 -0.016406968 -0.0020197378 0.10373498 -0.66857219 -0.73637652 0.0021681935
0.017940531 -0.01609095 -0.0016599698 0.26664758 -0.61541349 -0.74173129 0.0018211926
0.019929266 -0.015720462 -0.0011668941 0.4000949 -0.55131018 -0.7321074 0.0010430611
0.0038849148 -0.01320425 -0.0022089626 -0.51815915 -0.71777093 -0.46509776 0.0034396818
0.0062310877 -0.014234675 -0.0027085277 -0.3168098 -0.73155308 -0.60370648 0.0018920572
0.0089825336 -0.014678862 -0.0033528474 -0.15819128 -0.72112066 -0.67450756 0.0016462139
0.012157502 -0.014766917 -0.0037068031 -0.016941166 -0.69273823 -0.72099006 0.0015138796
0.015346101 -0.014673248 -0.0035125515 0.13154359 -0.64129561 -0.755934 0.0014691377
0.018399965 -0.014054481 -0.0030871611 0.27405596 -0.59304243 -0.75709575 0.0013881264
0.021071998 -0.013746217 -0.0019471506 0.42981416 -0.53076768 -0.73044199 0.0012338181
0.023067884 -0.012730142 -0.0012746099 0.49904981 -0.48347101 -0.71916974 0.00048201173
0.00046405662 -0.010379726 -0.0021893885 -0.67714977 -0.67603588 -0.29059193 0.0014726323
0.0025095297 -0.011781828 -0.0028757248 -0.56876504 -0.72128832 -0.39528409 0.0025805901
0.019651465 -0.012182375 -0.0038961116 0.44119325 -0.4925513 -0.75016117 0.0010934249
0.02165048 -0.011246024 -0.0032058293 0.46867511 -0.47394893 -0.74546373 0.0010671957
0.023945415 -0.010539012 -0.0019379109 0.58412343 -0.38261205 -0.71582669 0.00090250617
-0.0022798243 -0.0074107759 -0.0028229035 -0.69743133 -0.681723 -0.22100511 0.0019116336
-0.00081698922 -0.0087619033 -0.003120834 -0.67141575 -0.68930829 -0.2721304 0.0012149205
0.022460002 -0.0089000221 -0.0039671604 0.53121096 -0.41045806 -0.7411741 0.0005283443
0.024374561 -0.0079178642 -0.0029586684 0.65291965 -0.2897259 -0.69982487 0.0021648353
0.026041653 -0.0075399056 -0.0014891904 0.73581219 -0.23108268 -0.63653857 0.0039540916
-0.0052001812 -0.0042237202 -0.0030438644 -0.69891691 -0.69493347 -0.16906413 0.0006103277
-0.0037908773 -0.0057496782 -0.0030950923 -0.69442916 -0.68832517 -0.20970625 0.0018553466
0.025050279 -0.0049779285 -0.0034228922 0.72665089 -0.17063415 -0.66547912 0.0030158362
0.026282907 -0.0045832945 -0.001890447 0.81119591 -0.098750524 -0.57637626 0.0041855136
0.025289437 -0.0016380921 -0.003656188 0.81831276 -0.037265323 -0.57356381 0.0024322434
0.026222752 -0.0017867256 -0.0021544993 0.86422759 0.03227872 -0.50206453 0.0032279068
0.025304062 0.001176449 -0.003400072 0.87396222 0.092709936 -0.47706908 0.0030285639
0.02604707 0.00099031627 -0.0019357298 0.89341843 0.16140933 -0.41922614 0.0025250162
0.024974957 0.0042326064 -0.0027037677 0.89611781 0.21983512 -0.38554549 0.0021258192
0.025896607 0.0030656178 -0.0012808386 0.90702873 0.24255842 -0.34418648 0.0032541449
0.023987316 0.0072610206 -0.0026882999 0.89185929 0.33158737 -0.30763096 0.0018283892
0.022350417 0.010803604 -0.0030437852 0.8823604 0.38233465 -0.27433622 0.0010008471
0.023104327 0.0092817042 -0.0028444622 0.88235348 0.38234487 -0.2743443 0.0010177981
0.021196011 0.013083968 -0.0026438427 0.85676527 0.47213262 -0.20747054 0.00093755435
0.019261952 0.016241038 -0.0020451192 0.83680224 0.51573056 -0.18380447 0.00040860847
0.017319839 0.018763894 -0.0035914425 0.82145733 0.53505611 -0.19728851 0.00073454436
0.0075584198 -0.018522969 0.0018492695 -0.4382312 -0.71524644 -0.54440421 0.00092415273
0.009444844 -0.018868929 0.0012251511 -0.28595564 -0.73972714 -0.60912478 0.0022537226
0.012326816 -0.019269394 0.00082689058 -0.12148923 -0.7316485 -0.6707688 0.0021198795
0.015306534 -0.019459181 0.00085078552 0.036432523 -0.6914801 -0.72147614 0.0019399527
0.018091036 -0.019270165 0.0011292463 0.21264188 -0.64681935 -0.73239887 0.0022295685
0.020427555 -0.01880821 0.0015819613 0.3613393 -0.59670419 -0.71650392 0.0012207528
0.0043244059 -0.015844813 0.0013381895 -0.56233186 -0.69937944 -0.44119307 0.002843532
0.0064006173 -0.016800372 0.00052505173 -0.42985311 -0.7098065 -0.55803317 0.0027457036
0.0089735426 -0.017521203 -0.00015144609 -0.23403232 -0.73709983 -0.63396585 0.0018522436
0.011978092 -0.017839152 -0.000627161 -0.084987238 -0.71099037 -0.69804716 0.0016475737
0.015543975 -0.017823605 -0.00068520196 0.065547697 -0.6876322 -0.72309434 0.0014995224
0.018334595 -0.017482767 -0.00036630686 0.2248719 -0.63382804 -0.74006385 0.0015845329
0.021221451 -0.016798068 0.00040373951 0.37303239 -0.57999659 -0.72418964 0.0012185975
0.023531137 -0.016335864 0.0015640361 0.46237504 -0.53450215 -0.70747209 0.00032273217
0.0012245411 -0.012475302 0.00074075256 -0.68455619 -0.65544075 -0.31903028 0.0023427417
0.0032030931 -0.014222676 0.00033957511 -0.63234222 -0.68170094 -0.36800426 0.0022223203
0.0051560565 -0.015106535 -0.00074558891 -0.42154723 -0.7327857 -0.53415638 0.0026581695
0.022221154 -0.014701223 -0.00052647106 0.46589547 -0.51206154 -0.72161925 0.00013669714
0.024385475 -0.013788901 0.0003471151 0.53797853 -0.44075733 -0.71854848 0.0016324309
0.026400169 -0.013071157 0.0014401702 0.63134539 -0.41217941 -0.65689516 0.004227879
-0.0014611408 -0.009483641 0.0011154469 -0.75494212 -0.63033164 -0.18095438 0.001602028
2.929382e-05 -0.011094047 0.00053782668 -0.71209252 -0.65525383 -0.25212431 0.0028275696
0.025194736 -0.011334183 -0.00059096143 0.61858046 -0.34725159 -0.70482236 0.0031257151
0.026854984 -0.010579892 0.00070084352 0.69665056 -0.29893145 -0.65216404 0.0032599652
-0.002118872 -0.0084190685 4.5424327e-05 -0.74963588 -0.63652581 -0.18133116 0.0014678909
0.027374703 -0.0078210793 0.00040727761 0.7838099 -0.18945183 -0.59139669 0.0029761635
-0.0042916709 -0.0056727286 -0.00018435158 -0.7180351 -0.67531914 -0.16843329 0.001121121
0.027766589 -0.0049622487 0.00061248429 0.88593978 -0.005646694 -0.46376601 0.0027098614
0.027447455 -0.0016396325 0.00033571757 0.90780503 0.11429697 -0.40351734 0.0031910399
0.026943713 0.001182464 0.00043811742 0.9200334 0.22624926 -0.31992161 0.0030620415
0.025501762 0.0054384414 6.1517581e-05 0.91705579 0.30869603 -0.2524192 0.0014600558
0.026250845 0.0037880857 0.00073314272 0.91435272 0.31263545 -0.25732902 0.0014429609
0.024654455 0.0073793563 0.00013629161 0.9008044 0.3619777 -0.2398407 0.00057229918
0.02335443 0.0099235047 -0.00030245818 0.88700044 0.39260665 -0.24308488 0.00081098184
0.0096906405 -0.021682078 0.0044839364 -0.35257488 -0.7254734 -0.59108305 0.0016947762
0.012212688 -0.022129504 0.0039856313 -0.1862826 -0.74266249 -0.64323497 0.001718892
0.015264215 -0.022396576 0.0038122311 -0.015518659 -0.7122944 -0.70170915 0.0021148855
0.018256607 -0.022286845 0.0039925091 0.16241775 -0.67810029 -0.71679878 0.0024066113
0.020757424 -0.02184736 0.00442228 0.33838004 -0.63852113 -0.69122332 0.0010882007
0.0067105456 -0.019359797 0.0037764786 -0.49400532 -0.69857258 -0.51764381 0.0022206504
0.0090940036 -0.020289097 0.0031302059 -0.2968697 -0.73311645 -0.6118893 0.0017589454
0.011896782 -0.020739295 0.0025100438 -0.15065041 -0.73795682 -0.65781784 0.0016296942
0.015171399 -0.020918978 0.0022947416 0.0089517785 -0.70523125 -0.7089209 0.0017980416
0.018552026 -0.020671237 0.002532837 0.17511576 -0.6674999 -0.72372538 0.0018236202
0.021339418 -0.020024193 0.0031165751 0.34421074 -0.62652415 -0.69927573 0.00098698796
0.023805033 -0.019437131 0.0041252952 0.43537915 -0.56089807 -0.70415795 0.0008094756
0.025934849 -0.018811883 0.004853473 0.53263742 -0.50606579 -0.67837662 0.0014163777
0.0036699674 -0.016522752 0.003640987 -0.6502654 -0.65639198 -0.3824977 0.0019341608
0.0053160586 -0.017803473 0.0031035263 -0.61895621 -0.66518527 -0.41763815 0.0022927714
0.022288546 -0.018055594 0.0020276364 0.40687281 -0.56283808 -0.71949124 0.0016357496
0.02463715 -0.017175993 0.0028663911 0.45602357 -0.53188783 -0.71353894 0.00050716568
0.026895249 -0.016628435 0.0041052978 0.57293338 -0.4659839 -0.674245 0.0036547184
0.0008518924 -0.01317385 0.0035500731 -0.76188719 -0.61157584 -0.21331429 0.0025941692
0.0021494506 -0.014576223 0.0030794144 -0.71429282 -0.63355047 -0.29732054 0.0012338526
0.025616962 -0.015206968 0.0020785984 0.51831615 -0.47572184 -0.71065956 0.0014361468
0.027606901 -0.013938414 0.0032410985 0.74303263 -0.31193748 -0.59211278 0.0016318433
0.029109828 -0.012909409 0.0046611289 0.78869605 -0.26383463 -0.55529249 0.0028972768
-0.0014724466 -0.010019904 0.0037383493 -0.78841108 -0.59360379 -0.16137719 0.0013932823
-0.0005166973 -0.01119162 0.0029387902 -0.78232551 -0.60544235 -0.14630935 0.00089629326
0.028354239 -0.010949362 0.002786831 0.81639701 -0.20704843 -0.5390982 0.0025555284
0.029298909 -0.010639397 0.0042253677 0.85826647 -0.14101809 -0.49344966 0.0039199358
-0.0024260443 -0.008588424 0.0037021693 -0.77408087 -0.6167019 -0.14309984 0.00079760287
0.028474122 -0.0083197821 0.0021791961 0.85741431 -0.067306206 -0.5102064 0.0024141895
0.029289071 -0.0078739505 0.0037401775 0.90874976 -0.0096531687 -0.41722977 0.0020150281
0.028476719 -0.0035676043 0.0022200104 0.93402064 0.1409556 -0.32823318 0.0020446451
0.029231533 -0.0050354144 0.0038557025 0.93607968 0.091908827 -0.33956978 0.002536118
0.028384734 -0.0015676962 0.0029091164 0.93677676 0.16338289 -0.3094438 0.0018650835
0.029106226 -0.0026336145 0.0046054032 0.94738203 0.23410724 -0.21831444 0.0017167549
0.027835514 0.00094872201 0.0033728043 0.93341184 0.25908622 -0.24822716 0.0013805655
0.026772823 0.0039282199 0.003534263 0.92020363 0.33437011 -0.20352376 0.0003420889
0.025393238 0.0066521112 0.0023215618 0.90714657 0.35024694 -0.23326434 0.00081547402
0.010298226 -0.024546336 0.0076457616 -0.38923463 -0.72789669 -0.56450242 0.0015101576
0.012395477 -0.025004365 0.0072339419 -0.23808146 -0.7296344 -0.64105439 0.0016371791
0.015082529 -0.025221664 0.0068285931 -0.066261053 -0.74304628 -0.66595173 0.0021910227
0.018208399 -0.025226995 0.0069217104 0.12603036 -0.72104198 -0.68133318 0.002531586
0.0210332 -0.024854161 0.0074152872 0.28963542 -0.67561042 -0.67798376 0.0010043548
0.0071627214 -0.022114292 0.0071157087 -0.52871025 -0.68391216 -0.5027222 0.002125653
0.0093011446 -0.022999253 0.0063915551 -0.35420781 -0.72837716 -0.58651811 0.0014626051
0.01203567 -0.023619346 0.0057553519 -0.20134169 -0.74190336 -0.63956314 0.0015046319
0.015095271 -0.02388142 0.0053895544 -0.039807104 -0.71970898 -0.69313371 0.0018637674
0.018582327 -0.023755711 0.0054971902 0.1350995 -0.69420564 -0.7069841 0.0022257629
0.021489741 -0.023152135 0.0060206763 0.3160257 -0.65241927 -0.68882287 0.0012149171
0.024037939 -0.022601075 0.0069058221 0.39437616 -0.60134 -0.69487953 0.00068663276
0.026249807 -0.021975314 0.0075429585 0.52458817 -0.53913844 -0.65889084 0.0026530339
0.0039194045 -0.018752901 0.0071870741 -0.75267005 -0.5685935 -0.33194765 0.0013069615
0.0057613705 -0.020254737 0.0062892344 -0.63937509 -0.65002042 -0.410698 0.0030954466
0.02465901 -0.02063882 0.0055653434 0.4056007 -0.58481544 -0.70248061 0.00040750578
0.02707665 -0.019928876 0.0066108219 0.54728258 -0.52088529 -0.65510333 0.0044098743
0.028937314 -0.018649509 0.0075719561 0.68921196 -0.40530795 -0.60059333 0.0040794676
0.0013976526 -0.015407955 0.0077306684 -0.81685239 -0.54347819 -0.1933485 0.00073965936
0.0029127826 -0.016953202 0.0062264558 -0.76113021 -0.58307135 -0.28409272 0.0027980933
0.028065696 -0.017137919 0.0056044152 0.66728699 -0.36878902 -0.64708799 0.0039493982
0.029441155 -0.016522864 0.0069922451 0.77532083 -0.31358284 -0.54821837 0.003613322
0.00091477856 -0.014152909 0.0061395522 -0.80297911 -0.55567843 -0.21551314 0.0017711559
0.029946133 -0.013682878 0.0064509306 0.85323757 -0.19875123 -0.48216555 0.0035730884
-0.00076437043 -0.01152782 0.0065762904 -0.80345452 -0.56858456 -0.17655732 0.00075796014
0.030374266 -0.010897744 0.0065102372 0.91919625 -0.044400211 -0.39128864 0.0024435837
0.030409001 -0.0080354605 0.0065285321 0.94018936 0.055311073 -0.3361319 0.0021114328
0.029967643 -0.0048042331 0.0062672459 0.9516654 0.1716466 -0.25469643 0.0026459286
0.028656255 -0.00048441254 0.0050439592 0.94737101 0.23412654 -0.21834116 0.0017500508
0.029490832 -0.0021697301 0.0068339687 0.94419926 0.24103242 -0.22447965 0.0015491558
0.028269663 0.0012723352 0.0065119117 0.93736649 0.28553528 -0.19953358 0.00056717242
0.012807829 -0.027877688 0.010452719 -0.28479999 -0.73380744 -0.61677849 0.0016848861
0.015286082 -0.028165977 0.010075027 -0.1134649 -0.73433805 -0.66923344 0.0020032243
0.018003276 -0.028244197 0.010058669 0.089981377 -0.71587735 -0.69240373 0.0026510805
0.020686181 -0.027927343 0.010387218 0.23963495 -0.69708699 -0.67575496 0.00074011198
0.022734286 -0.027643982 0.011019951 0.27616686 -0.67699784 -0.68220657 0.00024063596
0.0075362665 -0.024865944 0.010467624 -0.5801934 -0.66107041 -0.47577471 0.0026603567
0.0094811637 -0.025624033 0.0096143615 -0.42643297 -0.73831409 -0.5225392 0.0029420266
0.01209579 -0.026483081 0.0091028754 -0.28045303 -0.73768622 -0.61413777 0.0028632693
0.015137957 -0.02676459 0.0085167997 -0.087697767 -0.74542218 -0.66079861 0.0017522516
0.018159103 -0.026743744 0.0084792338 0.10203352 -0.72802871 -0.67791098 0.0022967977
0.021519989 -0.026308689 0.0091066863 0.2531364 -0.68957943 -0.6785295 0.00066574709
0.024233731 -0.025663279 0.0097322166 0.36748537 -0.6318475 -0.68243915 0.00095329329
0.026634704 -0.02508162 0.010474589 0.51622558 -0.56713581 -0.64176947 0.0022261154
0.004311061 -0.021329379 0.010758346 -0.78343159 -0.52934057 -0.32562783 0.0062863431
0.0062332707 -0.022920307 0.0095890667 -0.68782616 -0.59787238 -0.41163564 0.0016022897
0.0083066504 -0.023945495 0.0083883666 -0.48595569 -0.67385894 -0.55656195 0.0049363277
0.025016842 -0.02383399 0.0084475931 0.40531459 -0.59298658 -0.69576365 0.0014860234
0.027384493 -0.023095973 0.0093917307 0.53702605 -0.55272233 -0.63726056 0.005162966
0.029297862 -0.021855572 0.010373568 0.67983174 -0.46031737 -0.57090867 0.0028974162
0.0036411486 -0.019600729 0.0095271301 -0.79540998 -0.52960402 -0.29469058 0.0035822503
0.0050161094 -0.02098581 0.0086460467 -0.67736429 -0.62647259 -0.38562897 0.0014028188
0.028233282 -0.021059187 0.0084992014 0.58670938 -0.51724541 -0.62308055 0.0036439307
0.029863119 -0.019590791 0.0095379259 0.76557255 -0.35415396 -0.53709739 0.002021729
0.0014017276 -0.015958449 0.0096215066 -0.8338874 -0.52677828 -0.16473164 0.0016343649
0.0022693393 -0.017291795 0.0091173463 -0.84503537 -0.50016618 -0.18907391 0.0021486315
0.030803412 -0.016756287 0.0094277561 0.87183571 -0.21000828 -0.4424918 0.002025126
0.00043564104 -0.014003774 0.0089250263 -0.8382532 -0.52288198 -0.15468027 0.00083575258
0.031163972 -0.014007125 0.0090564247 0.91249949 -0.12647384 -0.38903606 0.0015472822
0.031937733 -0.013098108 0.010919467 0.96219701 -0.023743184 -0.27131778 0.0041243448
0.031316388 -0.010866893 0.0089374743 0.95138747 0.0046217446 -0.30796197 0.0033096047
0.031941842 -0.011645677 0.010978147 0.96201158 0.041253608 -0.26987386 0.0014931516
0.031214219 -0.0077406112 0.0094519816 0.96187341 0.10083811 -0.25422671 0.0010183468
0.030603293 -0.0048379507 0.0090914723 0.9583869 0.19535035 -0.20816557 0.00084591907
0.029372837 -0.00097466074 0.0087289866 0.94722462 0.24426074 -0.20761056 0.0011720079
0.013113592 -0.030736495 0.01368705 -0.32106999 -0.72697198 -0.60698086 0.0015561521
0.015434427 -0.031058013 0.013298977 -0.14141074 -0.73677874 -0.66118085 0.0024809192
0.018144637 -0.031164329 0.013236836 0.063106 -0.72861028 -0.68201518 0.0025614267
0.020912455 -0.030893177 0.013601629 0.208252 -0.71062452 -0.67204463 0.00034892652
0.023856668 -0.030268405 0.013975209 0.31117648 -0.68293041 -0.6608898 0.0017109296
0.0096120182 -0.028277636 0.01297158 -0.47074884 -0.69848907 -0.53898829 0.0030128635
0.012215987 -0.029224277 0.012351559 -0.31266066 -0.72350824 -0.61545038 0.0019832074
0.015125267 -0.029697683 0.011821991 -0.11983736 -0.73488611 -0.66751879 0.0016917017
0.018295923 -0.029769968 0.011737328 0.068535052 -0.72505403 -0.68527335 0.0021860737
0.021251032 -0.029374965 0.012136765 0.21483746 -0.70360488 -0.67733669 0.00047534809
0.024021439 -0.028779954 0.012606155 0.29255229 -0.67252618 -0.67979532 0.00064991554
0.026786944 -0.028072402 0.013416655 0.47957206 -0.60491902 -0.63567573 0.0029606903
0.0065588993 -0.025370188 0.012636568 -0.64578372 -0.62032533 -0.44515163 0.0026101286
0.0087391548 -0.026821338 0.011845481 -0.44485173 -0.71208102 -0.54318285 0.0025122981
0.025096599 -0.02701899 0.011368778 0.35580865 -0.63822907 -0.68268877 0.00071142917
0.027587119 -0.026024576 0.012148472 0.56966704 -0.54288852 -0.61705071 0.004068742
0.029393796 -0.025130998 0.013238428 0.68235242 -0.49479881 -0.53811646 0.0024904751
0.0041323989 -0.022100713 0.012610549 -0.8087917 -0.5237695 -0.26743522 0.0029331045
0.005088028 -0.02334924 0.012300126 -0.76326442 -0.54532647 -0.34647727 0.0021772888
0.030279044 -0.0226648 0.012438951 0.77537799 -0.37690559 -0.50668645 0.0029007653
0.0029881112 -0.01995335 0.012462625 -0.86656803 -0.45598182 -0.20283104 0.001169086
0.031275243 -0.019984949 0.012180226 0.85190213 -0.28540272 -0.43909919 0.0014849477
0.032115638 -0.019023638 0.01345937 0.91326994 -0.2225953 -0.34115878 0.0029033534
0.0011647898 -0.016075542 0.012845984 -0.87655067 -0.46185663 -0.13545261 0.001558137
0.0018946384 -0.017771048 0.012608221 -0.87812936 -0.45356762 -0.15220135 0.0018062765
0.0314737 -0.017714469 0.011218509 0.87865019 -0.18207952 -0.44138515 0.0032006553
0.032222576 -0.016556535 0.012665555 0.93159759 -0.13328014 -0.33817518 0.00061996188
0.032388069 -0.014124494 0.012710219 0.96272695 -0.03804094 -0.26778683 0.0012663194
0.032142911 -0.010705957 0.012107706 0.96667987 0.066048793 -0.24732086 0.002092801
0.031536814 -0.0068171974 0.012133664 0.96708506 0.12397978 -0.22220612 0.00022925469
0.032086417 -0.009022845 0.013042232 0.97812843 0.094816715 -0.18513373 0.00083993364
0.013444088 -0.033400107 0.01671893 -0.33990708 -0.73425609 -0.58764887 0.0013678124
0.015535759 -0.033723697 0.016355058 -0.15787452 -0.76562172 -0.62361765 0.0026861753
0.018210854 -0.033792313 0.016217813 0.046937972 -0.76827002 -0.6384027 0.0021809652
0.021047477 -0.033554047 0.016587939 0.18620214 -0.73805964 -0.64853436 0.00039703149
0.023030858 -0.033421222 0.017002946 0.26498175 -0.72231668 -0.63878274 0.00066440564
0.0098792519 -0.030757967 0.015931778 -0.50324506 -0.68612456 -0.52533561 0.0029294931
0.012254182 -0.031804949 0.015476245 -0.31328735 -0.73173219 -0.60532546 0.0013872451
0.015223231 -0.032343324 0.014829058 -0.14045665 -0.75787377 -0.63710231 0.0021528802
0.018368244 -0.032461576 0.014711548 0.054869555 -0.75828815 -0.64960629 0.0022294088
0.021331355 -0.032164942 0.015137563 0.1908146 -0.72305655 -0.66391194 0.00033300015
0.024182433 -0.031599589 0.015535142 0.29816025 -0.68727845 -0.66238111 0.0020637542
0.026650079 -0.030909982 0.016197747 0.47993007 -0.64249772 -0.59738064 0.0026663158
0.0069127274 -0.027998179 0.015808081 -0.68470436 -0.59335172 -0.42321819 0.003985126
0.0086595137 -0.029217102 0.015147671 -0.58575124 -0.65465146 -0.4778358 0.0037068732
0.025330588 -0.029792715 0.014158582 0.3373813 -0.66587508 -0.66542041 0.0010479398
0.027449805 -0.029232576 0.01512414 0.44930562 -0.63538033 -0.62802577 0.0021741581
0.029313326 -0.028161015 0.016015796 0.67027497 -0.51831305 -0.53111488 0.0027332839
0.0043588807 -0.024541128 0.016305512 -0.81498027 -0.50490963 -0.28438267 0.0020873018
0.0055929399 -0.025958788 0.015377825 -0.76351064 -0.54779166 -0.34201717 0.0026410022
0.030396931 -0.025818676 0.015307259 0.74939448 -0.44216481 -0.49284691 0.0023334157
0.031857688 -0.024567563 0.016786313 0.8214457 -0.40105641 -0.40543881 0.0028915415
0.0036977385 -0.022694722 0.015364466 -0.88216323 -0.42363632 -0.20571914 0.0023589297
0.031291835 -0.023138326 0.01448242 0.8402769 -0.33505425 -0.42623171 0.0018511841
0.032076258 -0.022838816 0.015894488 0.8813265 -0.27760351 -0.38236094 0.0025902549
0.0023926613 -0.019836271 0.01528207 -0.89376867 -0.41147068 -0.17851989 0.0014827241
0.032571491 -0.020082166 0.015305439 0.92677331 -0.19058791 -0.32367808 0.0010333875
0.0014142208 -0.017149841 0.015418237 -0.90003836 -0.41663212 -0.12786238 0.00071541069
0.033081088 -0.017043687 0.015866833 0.96157026 -0.06286449 -0.26726523 0.0010845331
0.033339467 -0.015243238 0.01690883 0.97937971 0.0094559547 -0.20180686 0.002207181
0.032683037 -0.011498338 0.014584368 0.97941917 0.096781038 -0.17711997 0.00061390037
0.015508486 -0.036593657 0.019788956 -0.18512399 -0.75033033 -0.6346128 0.0032393509
0.018219952 -0.036578778 0.019605029 0.028610794 -0.78560126 -0.61807132 0.0017452715
0.020213159 -0.036611427 0.020008719 0.16638257 -0.7642501 -0.62308788 0.00071389554
0.010149807 -0.033776045 0.019559249 -0.5538044 -0.65501744 -0.51405525 0.0016254243
0.012264689 -0.034348797 0.01859599 -0.36447763 -0.72598416 -0.58318347 0.0024202233
0.015176322 -0.035338081 0.018387692 -0.17558232 -0.75954884 -0.62630373 0.0035474352
0.018507682 -0.035377953 0.018143456 0.038521819 -0.76050508 -0.64818835 0.0016309518
0.021415876 -0.035084076 0.018450998 0.18062264 -0.75666583 -0.62835681 0.00053474406
0.02426303 -0.034386694 0.018649369 0.32464865 -0.71216214 -0.62243742 0.0026453722
0.02644174 -0.033928942 0.019400489 0.45324779 -0.67454654 -0.58271223 0.002970749
0.0071829003 -0.030798241 0.019354131 -0.68149674 -0.58414948 -0.4408305 0.0035656616
0.009021068 -0.031902529 0.018340074 -0.58923262 -0.66090369 -0.4647702 0.0031662004
0.011130681 -0.032844126 0.017507812 -0.48053351 -0.68467462 -0.54800385 0.0012949259
0.025014911 -0.032955877 0.017355904 0.30939016 -0.70711505 -0.63581908 0.0019486176
0.027450506 -0.032108653 0.018221723 0.52868003 -0.64895302 -0.54713559 0.0028719618
0.02938351 -0.030943092 0.01906535 0.64060891 -0.57303011 -0.51113284 0.0017847558
0.0063151787 -0.028995745 0.018449795 -0.75361657 -0.54180467 -0.37216887 0.0038022264
0.0078066853 -0.029996503 0.017208641 -0.64699537 -0.60898662 -0.4588379 0.004555468
0.030416314 -0.028988153 0.018505519 0.73945361 -0.50000364 -0.45078227 0.0025158878
0.0041805045 -0.02535196 0.018499624 -0.88444811 -0.41583255 -0.21174237 0.0029498502
0.0049900594 -0.026734862 0.018134838 -0.84039795 -0.46283841 -0.28197852 0.002045329
0.03130028 -0.026703894 0.017617634 0.83166093 -0.38648266 -0.39871189 0.0022665849
0.032170091 -0.025779061 0.018634295 0.87287539 -0.33885914 -0.35108837 0.0024984088
0.0033100583 -0.023350917 0.018564662 -0.89853877 -0.39677763 -0.18760477 0.0022053008
0.032892227 -0.023008518 0.018290231 0.91161025 -0.25644115 -0.32125488 0.00091202563
0.0021594544 -0.019973947 0.018379038 -0.91710055 -0.37567225 -0.13340484 0.00042317048
0.033431966 -0.019967148 0.018190017 0.9478485 -0.15121971 -0.28056338 0.0018406421
0.033358153 -0.018200478 0.017167753 0.96326703 -0.10348129 -0.24780689 0.0020137324
0.033379089 -0.014524398 0.01745767 0.97937417 0.0094605116 -0.20183338 0.002223558
0.032884229 -0.010835743 0.017413264 0.98141879 0.087275751 -0.17088038 0.00073255249
0.010379588 -0.036321942 0.022579318 -0.52440339 -0.68296099 -0.5084933 0.0024551121
0.012324061 -0.037182916 0.022082692 -0.4040508 -0.69949448 -0.58944923 0.0023617689
0.015040016 -0.037846945 0.021533532 -0.20837712 -0.76437914 -0.61016673 0.0034320645
0.018039284 -0.037959814 0.021341482 0.0094021317 -0.80859548 -0.58828986 0.0017190853
0.02108724 -0.037691597 0.021536903 0.16646473 -0.76752138 -0.61903191 0.00065216637
0.023900103 -0.037301328 0.022011226 0.34005117 -0.74044049 -0.57975256 0.0022011315
0.026291085 -0.036571246 0.022587096 0.4897761 -0.70349818 -0.51498508 0.0018966586
0.0073955688 -0.033335198 0.022532349 -0.68084478 -0.598306 -0.42246932 0.003063923
0.0092608444 -0.034571491 0.021580076 -0.59553933 -0.64924014 -0.47309616 0.0029173186
0.011824384 -0.035812691 0.02070827 -0.37652946 -0.71476972 -0.58934695 0.0020063072
0.022686133 -0.036118153 0.020023769 0.25031269 -0.74419439 -0.61928838 0.00095762825
0.02464487 -0.035866696 0.020593956 0.30894908 -0.73525733 -0.60328031 0.0018499487
0.027296577 -0.034847479 0.021355709 0.51272899 -0.6783666 -0.52623928 0.0032254041
0.029250026 -0.033683319 0.022196656 0.63235283 -0.61556035 -0.47033536 0.0018746357
0.0065665753 -0.031534322 0.021656664 -0.74521065 -0.55585903 -0.36835018 0.0027844911
0.0082548633 -0.032786481 0.020446116 -0.60794669 -0.63336641 -0.47879818 0.001818512
0.028472878 -0.03300802 0.020317033 0.60844874 -0.57904583 -0.54267496 0.0038650706
0.030191861 -0.031834282 0.021385791 0.71679133 -0.55663753 -0.41995817 0.0017703562
0.031760592 -0.030355904 0.022588169 0.79877752 -0.46525228 -0.38143769 0.0023062539
0.0044048089 -0.027563255 0.021633109 -0.8785457 -0.42066714 -0.22626662 0.0025181107
0.0052057593 -0.028958417 0.021137891 -0.84544605 -0.44919443 -0.28886899 0.001661945
0.031450864 -0.02955278 0.020944398 0.82663298 -0.40865344 -0.38688546 0.0020924148
0.032415565 -0.028246596 0.02178813 0.86618155 -0.37097338 -0.33482566 0.0028630332
0.0038246536 -0.025984969 0.021519961 -0.9259212 -0.34039241 -0.16371636 0.0013272846
0.033084482 -0.025660533 0.021218255 0.90516692 -0.30083504 -0.30028492 0.0006651397
0.0026660147 -0.022329513 0.021135366 -0.92360944 -0.34929994 -0.15790877 0.00092054991
0.033632454 -0.023063883 0.02096693 0.91927242 -0.25799263 -0.29728442 0.00083150464
0.012713861 -0.039809775 0.025207048 -0.39464119 -0.7406435 -0.54378819 0.0025560216
0.01522042 -0.040194344 0.024570404 -0.17628551 -0.80068636 -0.57255983 0.0031665023
0.018156094 -0.040211566 0.024394268 0.016537381 -0.80201024 -0.5970813 0.0014825322
0.021058975 -0.040133689 0.024728989 0.17176357 -0.80471289 -0.56827307 0.0011666103
0.023748253 -0.039715599 0.025162807 0.34553087 -0.77451241 -0.52984798 0.001740811
0.0094826147 -0.037219759 0.024783442 -0.57077652 -0.66364223 -0.48352161 0.002339185
0.011841722 -0.038472001 0.024096964 -0.41865867 -0.72397929 -0.54825073 0.0032511789
0.013879567 -0.038864974 0.023247754 -0.25952101 -0.77012587 -0.58271348 0.0055265385
0.022096027 -0.038865697 0.02325668 0.16069381 -0.78897363 -0.59304142 0.00079747254
0.02437374 -0.038580701 0.023961229 0.31147039 -0.76440686 -0.56450719 0.0018867834
0.027041186 -0.037517589 0.024707815 0.52977461 -0.70319289 -0.47419265 0.0028081178
0.028973524 -0.036577497 0.025784081 0.65573865 -0.63315827 -0.41123906 0.0022062091
0.0068879644 -0.034292411 0.024795027 -0.74351245 -0.53682798 -0.39875421 0.0028129832
0.008356778 -0.035426106 0.023844836 -0.70297271 -0.57289207 -0.4214547 0.001899624
0.028164685 -0.035725504 0.023427581 0.59169382 -0.63358617 -0.49846464 0.0048504057
0.029790014 -0.034673501 0.02444022 0.69836718 -0.57942802 -0.4201743 0.0025758061
0.0056540552 -0.031932894 0.02445328 -0.82645631 -0.45549965 -0.33089259 0.0025236011
0.031164195 -0.032551549 0.024086816 0.80972105 -0.47531199 -0.34413707 0.0017627677
0.032091044 -0.031183802 0.024512058 0.8483597 -0.44147909 -0.292202 0.0027238843
0.0042630075 -0.028736256 0.024485501 -0.92824984 -0.32722837 -0.17684408 0.0015665222
0.0049206452 -0.029929016 0.023657924 -0.88123399 -0.40324321 -0.24662013 0.0043652952
0.033043709 -0.028925039 0.024667235 0.91071016 -0.32331568 -0.25704873 0.0015930192
0.0034331037 -0.026259389 0.024833566 -0.9338358 -0.3212797 -0.15725772 0.00088424614
0.033727694 -0.025837127 0.024009584 0.91968262 -0.29586577 -0.25816154 0.00091712817
0.0029298654 -0.023975316 0.024167215 -0.94313455 -0.30346879 -0.13566156 0.00040523999
0.013152637 -0.042465147 0.028559787 -0.33293396 -0.77884704 -0.53155643 0.003115664
0.015286528 -0.042822979 0.028344253 -0.16038375 -0.82302469 -0.54489213 0.0044671888
0.018056829 -0.042953167 0.028390789 0.037913118 -0.8356306 -0.54798186 0.00073487061
0.021328194 -0.042572476 0.02835759 0.19714926 -0.8305282 -0.52091759 0.002834863
0.023112223 -0.042362098 0.028810686 0.34221196 -0.79967594 -0.49336523 0.0015072539
0.009721376 -0.040014051 0.028146258 -0.54529452 -0.6547727 -0.52337998 0.0023985037
0.012062233 -0.04099042 0.027262365 -0.39206058 -0.74018961 -0.54626709 0.004421351
0.015240563 -0.041853096 0.026903326 -0.13923241 -0.80455798 -0.57732213 0.0024187409
0.018250918 -0.041934006 0.02687368 0.030926788 -0.82337189 -0.56665879 0.0006381353
0.021287192 -0.041642882 0.02693324 0.15705132 -0.81397963 -0.55926031 0.0011179275
0.024293616 -0.040882707 0.027274808 0.37886304 -0.77608359 -0.50414002 0.0022317783
0.026786502 -0.03990306 0.028053766 0.51129574 -0.73068327 -0.45241427 0.0025849233
0.0071915952 -0.037264574 0.028085152 -0.72152853 -0.55091906 -0.41938612 0.001855319
0.0088982377 -0.03844035 0.02710739 -0.63055307 -0.61884826 -0.4684332 0.0035119813
0.027778808 -0.03858893 0.027216045 0.5509342 -0.7124846 -0.43455404 0.0036347352
0.029604908 -0.037175223 0.02787119 0.67287064 -0.62873107 -0.38979775 0.0011499632
0.0061413622 -0.035097424 0.027483853 -0.80539906 -0.45853463 -0.375604 0.0032273454
0.030901641 -0.035015412 0.027188415 0.79718345 -0.51056993 -0.3222062 0.0011110911
0.032178421 -0.033790279 0.028742915 0.87192947 -0.42546031 -0.24232765 0.0051505822
0.004457653 -0.031456787 0.027763059 -0.92620122 -0.30990118 -0.21473841 0.002854452
0.0050536343 -0.032560825 0.027028197 -0.8913852 -0.35616747 -0.28031617 0.0025397923
0.032578353 -0.0319212 0.027230313 0.89988613 -0.37007222 -0.23076294 0.0017414712
0.003853288 -0.029086065 0.027656799 -0.93749291 -0.29219091 -0.18902755 0.001819275
0.033606615 -0.029180977 0.027570402 0.91943562 -0.32051173 -0.22783828 0.0013525411
0.0034505469 -0.027168293 0.02753151 -0.94597733 -0.27680036 -0.16884442 0.00076476834
0.03405622 -0.026625294 0.026836401 0.92846602 -0.2994782 -0.21968994 0.00068693445
0.010164255 -0.042802982 0.031409629 -0.52520901 -0.68936127 -0.49893537 0.0023312427
0.012347467 -0.043459881 0.030569969 -0.34453928 -0.78356624 -0.51702678 0.0045602135
0.015392298 -0.044159673 0.030411223 -0.1264866 -0.84267497 -0.52335465 0.001726259
0.018390462 -0.044291884 0.030540073 0.037627976 -0.84883595 -0.52731556 0.00082299963
0.02132283 -0.043800604 0.030362481 0.17064048 -0.8429448 -0.51022148 0.0010933459
0.023959933 -0.043078706 0.03064354 0.36108899 -0.81314045 -0.45652744 0.0021998773
0.025778186 -0.042610828 0.031525917 0.50798464 -0.75568807 -0.41338506 0.0020767369
0.0073988414 -0.039917398 0.031144781 -0.68967533 -0.57571971 -0.43919784 0.0017574676
0.0090565551 -0.041067779 0.030363286 -0.57969952 -0.66629946 -0.46903476 0.0022952
0.011028627 -0.041901428 0.029288238 -0.42464381 -0.74035233 -0.52111042 0.0046268259
0.02529466 -0.041801158 0.029573692 0.4323408 -0.78477371 -0.44408512 0.00616269
0.02724446 -0.041007034 0.030575586 0.5736993 -0.72721988 -0.37685585 0.0019142631
0.028958119 -0.039696019 0.031025903 0.6630888 -0.66234666 -0.34872651 0.001335136
0.0062368526 -0.037764058 0.030588357 -0.79281825 -0.48157206 -0.37353387 0.0032357713
0.030212477 -0.037844971 0.030402293 0.76989299 -0.55838984 -0.30897498 0.0025439179
0.0043843654 -0.034059554 0.031031257 -0.90289897 -0.32861963 -0.27709672 0.0022218635
0.0051512145 -0.035320655 0.030083919 -0.86910409 -0.37212181 -0.32585803 0.0019497183
0.031200539 -0.035840932 0.029196834 0.82121372 -0.48454899 -0.30136412 0.002594342
0.032299593 -0.034425877 0.030523146 0.83823586 -0.47451669 -0.26869035 0.0015232028
0.0039746719 -0.031819567 0.03044139 -0.92745858 -0.27567536 -0.25263363 0.0026107526
0.033034731 -0.032378156 0.030180236 0.90368885 -0.36904359 -0.21714814 0.0015281717
0.0034705065 -0.02912268 0.030618517 -0.96869326 -0.20599718 -0.13855852 0.0017160911
0.033818115 -0.029875863 0.030544257 0.9317354 -0.31299376 -0.18413061 0.00051770546
0.010646841 -0.045480046 0.034979768 -0.51058412 -0.73389691 -0.44799468 0.003231429
0.012581171 -0.04577706 0.034097224 -0.29510933 -0.82594049 -0.48034656 0.0033775177
0.015341025 -0.046098229 0.033713311 -0.091206729 -0.87339729 -0.47839159 0.0019008663
0.018119769 -0.046146832 0.033736788 0.056508645 -0.88919485 -0.45402563 0.001313362
0.020965725 -0.045837037 0.033928737 0.23320678 -0.87711746 -0.41985661 0.0015015441
0.023132648 -0.045432296 0.034487374 0.34290463 -0.83791888 -0.42462745 0.0029470541
0.0075767324 -0.042632129 0.034540884 -0.64727592 -0.63061684 -0.42820117 0.0021147691
0.0093325321 -0.043695763 0.033710629 -0.52523386 -0.71333265 -0.46398908 0.0027777129
0.011976352 -0.044677325 0.032689288 -0.30727088 -0.8032071 -0.51033616 0.0029364154
0.014901415 -0.045211028 0.032205775 -0.10299049 -0.85757011 -0.50395072 0.0022260037
0.019210858 -0.045198251 0.032073833 0.044425055 -0.86619294 -0.49773118 0.0010141432
0.020947851 -0.045021255 0.032342389 0.21786624 -0.85806948 -0.46502811 0.0016547451
0.024306169 -0.044301286 0.033313133 0.37018338 -0.8298167 -0.41757467 0.0016750019
0.026703704 -0.043040354 0.033833504 0.58689874 -0.73454052 -0.34058809 0.0028816038
0.0066518276 -0.040685058 0.033521123 -0.72956669 -0.5587883 -0.39431968 0.0017931388
0.0083081108 -0.041939866 0.03251905 -0.58235615 -0.67327595 -0.45558843 0.002087913
0.028043877 -0.041767452 0.033429712 0.6005404 -0.72787714 -0.33097738 0.0019973186
0.029563438 -0.040266387 0.033727631 0.70529932 -0.65329295 -0.27524728 0.003734943
0.0043860008 -0.036997635 0.034248076 -0.88458979 -0.35966331 -0.29688913 0.0030472528
0.0053320075 -0.038386151 0.033307813 -0.83983886 -0.4149754 -0.34995142 0.0015965436
0.030918702 -0.037970901 0.032638051 0.79865718 -0.55104947 -0.24184942 0.0011049552
0.0039973385 -0.034899242 0.033467188 -0.94635242 -0.23609836 -0.22062339 0.0023157818
0.032171365 -0.035579737 0.032377459 0.83500308 -0.4964295 -0.23733446 0.0017123194
0.0034860293 -0.032070689 0.033019453 -0.96948278 -0.17172351 -0.17496903 0.0033735798
0.01610703 -0.048341636 0.037994884 -0.088656381 -0.90381783 -0.41863278 0.001887826
0.016876195 -0.048336912 0.037948795 0.11273916 -0.91739863 -0.38166675 0.0018753336
0.0098146703 -0.046069089 0.036822818 -0.5011977 -0.73878694 -0.45054933 0.0028878199
0.012179898 -0.047058709 0.036620483 -0.30463967 -0.84195393 -0.44531807 0.0046863481
0.015024586 -0.047392465 0.036220722 -0.08722949 -0.88321364 -0.46078706 0.00086365058
0.018095305 -0.047388609 0.03618186 0.10335044 -0.89691067 -0.42996499 0.0019192692
0.02124575 -0.046922937 0.036409847 0.276651 -0.88121557 -0.38330579 0.0032643583
0.023857379 -0.046005636 0.036623575 0.42165485 -0.83972734 -0.34214783 0.0023878741
0.0069260071 -0.043386351 0.03672412 -0.68176383 -0.6050517 -0.4112305 0.0017636621
0.0086250622 -0.044794302 0.03620141 -0.56298447 -0.70938182 -0.42405888 0.0036906137
0.02526816 -0.045096893 0.036308281 0.43015647 -0.83145136 -0.35164464 0.002478587
0.027208384 -0.043786447 0.036667682 0.56502515 -0.7630471 -0.31385618 0.0026743175
0.0045374599 -0.039781217 0.037020676 -0.86416072 -0.38631675 -0.32246801 0.0013901439
0.0055537638 -0.041037105 0.03618516 -0.80773824 -0.46727622 -0.35946053 0.001398092
0.029607575 -0.041155219 0.036113687 0.71848506 -0.65928382 -0.2216395 0.0022123831
0.0039692908 -0.037792411 0.036522411 -0.92926663 -0.27726364 -0.2441074 0.0029824353
0.031405184 -0.038433392 0.03620965 0.75925237 -0.60592496 -0.23746724 0.0025536369
0.0032162834 -0.034661785 0.03665036 -0.97234738 -0.13227658 -0.19246712 0.0018577633
0.0029956591 -0.03178959 0.03637851 -0.97767776 -0.13251987 -0.16304801 0.0017212072
0.0029980335 -0.029768467 0.036819085 -0.9850443 -0.090340696 -0.14671879 0.00091696827
0.012300059 -0.04870908 0.039902285 -0.22597772 -0.89436817 -0.38605654 0.0032026961
0.01490964 -0.048771579 0.039171979 -0.10015441 -0.91332948 -0.3947129 0.0015317914
0.018211475 -0.048734836 0.039314754 0.14086621 -0.92719471 -0.34708309 0.0012476709
0.020566609 -0.048564486 0.040171631 0.27249995 -0.90633339 -0.32296044 0.0027889891
0.0073099001 -0.045762341 0.039659642 -0.67449731 -0.62500626 -0.39296389 0.0024327394
