# .PCD v0.7 - Point Cloud Data file format
VERSION 0.7
FIELDS x y z normal_x normal_y normal_z curvature
SIZE 4 4 4 4 4 4 4
TYPE F F F F F F F
COUNT 1 1 1 1 1 1 1
WIDTH 571
HEIGHT 1
VIEWPOINT 0 0 0 1 0 0 0
POINTS 571
DATA ascii
0.0016855737 0.032921743 0.0022227194 0.050160106 0.99283969 0.10841238 0.0022959043
0.0043185605 0.032904871 0.0016675575 0.023211116 0.99629784 0.082775518 0.00252073
0.0074811415 0.032898266 0.0016563575 -0.031404454 0.99597186 0.083987005 0.0032917671
0.010257697 0.032963593 0.0025883983 -0.097583927 0.98900819 0.11108676 0.0020149499
0.068664357 0.030583676 0.0015260191 0.86130768 -0.50275302 0.073406428 0.0027546668
0.069471069 0.031948358 0.0012859877 0.89227408 -0.44905141 0.046903577 0.0032212362
-0.015575275 0.035866287 0.0019120845 0.30218244 0.94995892 0.079144217 0.002683297
-0.013462885 0.035370644 0.0014138302 0.25319418 0.96702939 0.027329342 0.0023538875
-0.010501076 0.034662258 0.0013193286 0.22405612 0.9723559 0.065748408 0.0025060144
-0.0074186944 0.034057956 0.0013614803 0.16767679 0.98264867 0.079285391 0.0028092337
-0.0041546975 0.033562731 0.0014561543 0.12399726 0.98954868 0.073607758 0.0031337771
-0.0013908732 0.033246856 0.0013242515 0.075063512 0.99543804 0.058895249 0.0031815378
0.0013159356 0.033087894 0.00078749005 0.036329757 0.99905002 0.02406507 0.0025090314
0.0041760085 0.033017229 0.00048406 0.014133489 0.99947119 0.029283632 0.0027131054
0.0077388776 0.033031475 0.00034053242 -0.038606916 0.99712938 0.06513533 0.0044579795
0.010518703 0.033152074 0.001178342 -0.071039207 0.99678487 0.037056826 0.0035273582
0.013718265 0.033493552 0.001034198 -0.13386214 0.99043268 0.033526327 0.0032255959
0.016186161 0.033879936 0.0016757586 -0.19759238 0.97984517 0.029339073 0.0023736209
0.019460266 0.034675371 0.0015584057 -0.25890619 0.96582919 -0.011894656 0.0020400744
0.022016399 0.03536576 0.0013330014 -0.27389604 0.96156007 -0.019575169 0.0022935653
0.024100913 0.035909194 0.0018383563 -0.31693962 0.94579393 0.070874326 0.003066048
0.070608884 0.034497991 0.0012743287 0.93161786 -0.35935059 0.054363184 0.0029566244
-0.024180334 0.038941421 0.0011104165 0.40020147 0.91474712 0.055465937 0.0038832033
-0.022569183 0.038334928 0.0012561934 0.36020356 0.93239963 0.029738065 0.0021741572
-0.019572616 0.037200853 0.0015268046 0.31705877 0.94696826 0.052200925 0.0024414584
-0.016843153 0.036322616 0.0012877608 0.27660039 0.95972848 0.049127612 0.0026748944
0.024836952 0.036233414 0.00066957035 -0.29310516 0.95555449 -0.031701341 0.0023078697
0.028522843 0.037334785 0.0014835958 -0.30014744 0.95110285 0.072902486 0.0018233754
0.031476762 0.038380194 0.0014576173 -0.36767396 0.92619359 0.083553836 0.0033026908
0.03326213 0.038909864 0.0028259314 -0.43812826 0.88671917 0.14755601 0.0050388933
0.071607456 0.037334882 0.0014329881 0.95096391 -0.29352191 0.097532265 0.0040086969
0.072084375 0.038657643 0.00071669801 0.98033369 -0.19194975 0.0458382 0.0063631739
-0.030399889 0.041736271 0.0015072852 0.44789818 0.89281404 0.047648303 0.0020815521
-0.028563516 0.040878806 0.0014682044 0.42066652 0.90671831 0.03002747 0.0021156268
-0.025693666 0.039613165 0.0012419189 0.38632601 0.92180151 0.032160331 0.0023874282
0.032944463 0.039014582 0.0014577283 -0.39275819 0.91739494 0.064246386 0.0041923085
0.034476969 0.039699703 0.0012093835 -0.43284994 0.89873159 0.070160314 0.0028182182
0.03733892 0.041222397 0.0013742863 -0.49734837 0.86311918 0.087577581 0.0023024324
0.071933217 0.039370697 0.0025693963 0.96788263 -0.18578796 0.16936959 0.0039702072
0.072355822 0.040587455 0.0012356264 0.98248726 -0.15786469 0.098981746 0.0033770006
-0.036374882 0.044787433 0.0013369314 0.4898639 0.86984801 0.058290809 0.0021825349
-0.03459236 0.043842852 0.0015054961 0.47018102 0.8813197 0.04696212 0.0021736536
-0.031912636 0.042502332 0.001265744 0.42972824 0.90155721 0.050281294 0.0021333944
0.038841344 0.04216972 0.0011929581 -0.54265976 0.83463728 0.094345376 0.0026168285
0.040432576 0.043114644 0.0014227914 -0.52085274 0.84985018 0.080418058 0.0021852863
0.042615682 0.044509377 0.0014491918 -0.53932905 0.83979905 0.062143467 0.002121811
0.072776958 0.043637887 0.0013157115 0.99476498 -0.084536962 0.057412218 0.0039470838
-0.042175226 0.047819696 0.0024086297 0.48964831 0.8634572 0.12118665 0.00397558
-0.040423159 0.047023803 0.0013621891 0.48456916 0.87374032 0.042078774 0.0024618334
-0.037819035 0.045578524 0.0012875031 0.46373495 0.88488299 0.043953661 0.0022624671
0.044296514 0.045641184 0.0012787323 -0.52625549 0.84898067 0.047823153 0.0027584825
0.046452146 0.047017097 0.0014526936 -0.5388661 0.83917242 0.073572151 0.0029484949
0.04811883 0.047915388 0.0023543737 -0.5603931 0.8227433 0.095147982 0.0023471222
0.072980911 0.046487939 0.0011966374 0.99678743 -0.039237548 0.069822468 0.0052830633
-0.046254545 0.050297499 0.0013951975 0.49162787 0.86818105 0.067554601 0.0028543219
-0.043534826 0.048780952 0.0012877436 0.48201859 0.87509012 0.04330628 0.0027131503
-0.041999713 0.048009813 0.00031607642 0.45414689 0.89016223 0.036902796 0.0061974772
0.049483061 0.049042702 0.0012740243 -0.56304544 0.82390082 0.064554825 0.0033169191
0.051686779 0.050574105 0.0012697815 -0.5763846 0.81572604 0.048701346 0.0029352393
0.0730602 0.049411464 0.0011703528 0.99716932 -0.011800154 0.074257113 0.007285832
-0.052100789 0.05343952 0.0015535422 0.44283524 0.88887334 0.11747813 0.0039691711
-0.049522385 0.052128758 0.0012370459 0.45928565 0.88623434 0.060377114 0.0034088893
-0.047622479 0.05110953 0.0010420504 0.47684747 0.87760323 0.049284346 0.0039100759
0.053037476 0.051484495 0.0012526865 -0.55131006 0.83281416 0.049777221 0.0031720623
0.055294082 0.05296291 0.0012216986 -0.56478953 0.82471436 0.029307967 0.0021751404
0.057173714 0.053885341 0.0026368611 -0.56812745 0.81974977 0.072398186 0.0032865796
0.073063545 0.052481882 0.0013054317 0.9908914 0.00013475541 0.13466281 0.0087523917
-0.060392048 0.056822393 0.0017623715 0.46055689 0.87854815 0.12665138 0.01162883
-0.058576908 0.056091025 0.0013421195 0.38574961 0.92130297 0.048970066 0.0084374296
-0.055474076 0.054941535 0.0013068937 0.34869894 0.93400669 0.07772053 0.0040849131
-0.05359254 0.054227453 0.0010791498 0.39368483 0.91493809 0.088885389 0.0059335032
0.056849234 0.054047912 0.00079053658 -0.59675598 0.8021493 0.02094892 0.0057885265
0.05847916 0.05515473 0.0010189572 -0.60817361 0.78686488 -0.10473058 0.0045253853
0.060495071 0.056781352 0.0007684849 -0.609007 0.78655142 -0.10221237 0.0054381192
0.073161736 0.055313636 0.0012439234 0.99786651 -0.030663617 0.057639167 0.013139846
-0.075161062 0.057662282 0.00055275555 -0.45999759 0.88717914 -0.036267713 0.0090096509
-0.073384725 0.058538541 0.0014825253 -0.41785634 0.90835285 0.017062375 0.0040588998
-0.071256548 0.05957827 0.001310133 -0.37333214 0.9268043 0.040703937 0.0039397362
-0.066176511 0.059961792 0.0025086685 0.28311437 0.89198846 0.35242438 0.017043244
-0.064086743 0.059272405 0.0013965497 0.52017486 0.85051173 0.077768646 0.0089697232
-0.061760094 0.057832528 0.001132581 0.49382323 0.86896574 0.032205366 0.010718129
0.061190329 0.057483405 0.00068856531 -0.68793494 0.6949805 -0.20915923 0.0085458811
0.073371924 0.058483247 0.0010969131 0.99343383 -0.090847269 -0.06954129 0.016547548
-0.069686919 0.060337786 0.0013710425 -0.23957755 0.96977818 0.046183329 0.0073142531
-0.066863365 0.060740478 0.0013074864 0.30892572 0.95014834 0.04222583 0.022526039
-0.065473109 0.060260933 0.00073765306 0.45260772 0.8905102 -0.046236701 0.018453676
0.073755935 0.061477046 0.00093843543 0.96775931 -0.1429529 -0.20737971 0.017467996
0.074230693 0.064473949 0.00098606199 0.95048058 -0.2093742 -0.22967194 0.016841965
0.074727722 0.066900633 0.0010728452 0.94958615 -0.26440015 -0.16845977 0.014181484
0.075229988 0.068155937 0.00061759428 0.94650513 -0.26410049 -0.18541603 0.017650114
0.07483653 0.069680937 0.0024955047 0.95833546 -0.27542472 0.07572455 0.012531192
0.075922243 0.070554346 0.00082146283 0.96295863 -0.262252 -0.062726013 0.016309436
0.076819398 0.073773198 0.0011606986 0.96725172 0.25239626 0.026838183 0.06586197
0.068666838 0.077229843 0.00072652235 0.20184548 0.96231186 -0.18224761 0.057273071
0.070558764 0.076688096 0.0014840515 0.27322853 0.96080571 -0.046888378 0.0038910252
0.073444247 0.075800613 0.0014815349 0.36004743 0.93217444 0.037638664 0.0056468132
0.075567581 0.075146139 0.0014198452 0.56305486 0.82605857 0.024422139 0.022605367
-0.0071506957 0.0010273352 0.0032309147 -0.12602076 -0.99200463 0.0067525255 0.00087635766
-0.002993674 0.0008374147 0.0037381614 -0.05933341 -0.99731815 0.042850066 0.0008490124
0.00034360762 0.00097807706 0.0044613732 -0.023844352 -0.99757737 0.065351717 0.001278892
0.0056745037 0.00058663212 0.0030750842 0.0679354 -0.98316199 0.16963893 0.0080202157
0.0079362821 0.00075611577 0.003349347 0.068235323 -0.98860419 0.13418512 0.00342404
0.010549891 0.0010791207 0.0037988038 0.087548621 -0.97386003 0.20959921 0.0020378083
0.013614908 0.0014214143 0.0040141018 0.10564541 -0.97465581 0.19719325 0.0044911364
0.016773738 0.0018199275 0.0039191474 0.14885333 -0.95589048 0.25321159 0.0025649902
0.019773357 0.0023350872 0.0040464886 0.17909949 -0.95845306 0.22201596 0.0072724312
0.022336636 0.002673517 0.0035844808 0.20369449 -0.95139068 0.23100717 0.0031855647
0.022891954 0.0031948509 0.0047451355 0.20550655 -0.94338155 0.26038104 0.0041303029
0.02559191 0.0037228675 0.0044644838 0.25398508 -0.92724055 0.27516654 0.0015122395
0.02856876 0.0044375621 0.004266242 0.27375138 -0.91454256 0.29777855 0.0016686994
0.031435657 0.0052973609 0.0042574117 0.28698081 -0.91019791 0.29863316 0.0025310186
0.033656716 0.005768809 0.0034206191 0.30668908 -0.90906006 0.28204906 0.002204068
0.03275137 0.0063191727 0.0058142971 0.30196774 -0.88116723 0.36381295 0.0036043692
0.034671254 0.006506742 0.0045796372 0.32827991 -0.89273322 0.30864176 0.0024025687
0.037247993 0.0074748485 0.0045366837 0.35526365 -0.89801961 0.25951588 0.0028179847
0.039925646 0.0085546402 0.0044478131 0.38268688 -0.88881564 0.2521061 0.0027706244
0.041366588 0.0092107998 0.0044434606 0.40545794 -0.87483639 0.26507571 0.0040463735
0.043602947 0.010250636 0.0043973774 0.42032391 -0.86246783 0.28191668 0.0019177686
0.046046507 0.01139815 0.0041426113 0.45754793 -0.86156309 0.21990654 0.0017397951
0.047343735 0.012345149 0.0048140539 0.47330096 -0.83263254 0.28759232 0.0019195749
0.049514826 0.013372849 0.0041690576 0.4988476 -0.82663363 0.26043797 0.0016067217
0.051713958 0.01461012 0.0038586967 0.52016807 -0.81786793 0.24600261 0.0020934627
0.052911475 0.015674159 0.0046242368 0.53944576 -0.80278075 0.25404966 0.0020206079
0.055547733 0.017202234 0.0037404262 0.58949667 -0.79041886 0.1665283 0.0015162302
0.056624092 0.018437939 0.004883972 0.5883171 -0.7651034 0.26172447 0.0023094038
0.058326546 0.019345092 0.0037156034 0.63125741 -0.75524604 0.17640179 0.0017568453
0.060315687 0.020869071 0.0033499142 0.65968174 -0.73146379 0.17257112 0.0014474001
0.05977127 0.021340862 0.0054651792 0.61789763 -0.68548042 0.38512221 0.0024060949
0.061364215 0.02209069 0.0038094877 0.68662739 -0.70293218 0.1855512 0.0022924379
0.063186027 0.023725886 0.0034160193 0.72311294 -0.64925557 0.23574314 0.0026762707
0.062715054 0.024357073 0.0055444255 0.69171369 -0.60807174 0.38959068 0.0023907719
0.064455569 0.025541211 0.0040952261 0.74655837 -0.60817832 0.2697587 0.0015016451
0.065648861 0.027859764 0.0053099999 0.78197879 -0.54725015 0.29837301 0.0021235829
0.066786446 0.028706446 0.0041497247 0.79858035 -0.51977706 0.30348188 0.0018188724
-0.0068311864 0.032917004 0.0056057037 0.15506366 0.93202281 0.32754964 0.001603978
-0.0046046707 0.032709636 0.0053055226 0.12240535 0.94818455 0.29319441 0.0017589099
-0.0015106044 0.03264666 0.0043707034 0.085138433 0.964077 0.25160888 0.0020220515
0.0014501762 0.032375753 0.0044661388 0.062063597 0.96562034 0.25243893 0.001992516
0.0043864353 0.032398358 0.0041071428 0.01675652 0.9681285 0.24989298 0.0022077302
0.0072630146 0.032334674 0.0043016318 -0.041322205 0.96928608 0.24243969 0.0020812952
0.010571405 0.032653749 0.00397522 -0.10106995 0.97594184 0.19319011 0.002360082
0.013312708 0.032611612 0.0049084686 -0.14139885 0.940036 0.31038478 0.0025800809
0.015911056 0.03284812 0.0054774391 -0.19869429 0.93539572 0.29249877 0.0020957368
0.06820263 0.031293016 0.0044619525 0.82707852 -0.4537017 0.33180708 0.0022342918
0.069202542 0.032529991 0.0037095125 0.84608257 -0.42019877 0.32798967 0.0026752353
-0.01833524 0.035825819 0.0055808634 0.2998327 0.90136576 0.31247419 0.0020372593
-0.016367514 0.035518706 0.0045841779 0.2861923 0.9122895 0.29295364 0.0020414803
-0.013487642 0.034698941 0.0046376674 0.24892239 0.92171431 0.29745641 0.001479364
-0.010561377 0.033981908 0.0046340353 0.19910756 0.92931521 0.31101364 0.0020687208
-0.0076287165 0.033541553 0.0042149452 0.15567504 0.94940186 0.27276617 0.0018449973
-0.0045268349 0.03320438 0.0037532165 0.12282633 0.95876741 0.25627878 0.0015110251
-0.0024498387 0.03304505 0.0031833269 0.085136019 0.98164016 0.17068791 0.0025284868
0.013838753 0.033138674 0.0034386071 -0.14006734 0.9496752 0.28017521 0.002857279
0.016687477 0.033457447 0.0041594822 -0.20138371 0.94814771 0.24588701 0.0032653648
0.019492218 0.034026895 0.004502086 -0.23370723 0.93747669 0.25791183 0.0014983945
0.022474756 0.034836993 0.0044870162 -0.26692018 0.93196708 0.2453385 0.0023146898
0.025132908 0.035568982 0.0046940628 -0.28905648 0.91808492 0.27123129 0.0016071565
0.068837829 0.033667054 0.0056045069 0.84494215 -0.35717463 0.39811948 0.0034980646
0.06997183 0.034726065 0.0040900228 0.87860733 -0.34434512 0.33087111 0.0038507779
-0.025015609 0.038532667 0.0049117012 0.37585175 0.87882292 0.29394835 0.0016008248
-0.022471629 0.037674788 0.0044436185 0.35461399 0.8959595 0.26740509 0.0015529746
-0.019676948 0.036653511 0.0044061849 0.30762851 0.91278833 0.26866761 0.0019345613
-0.017513068 0.036147695 0.0037219743 0.29890794 0.91722518 0.26334777 0.0020515088
0.026290217 0.036259126 0.0035314851 -0.28389698 0.92401552 0.25612077 0.0015106326
0.028490635 0.036743242 0.0043607703 -0.30234689 0.91461986 0.26843417 0.0016978858
0.031413421 0.03776418 0.0044121812 -0.35611022 0.88929766 0.28694099 0.002516357
0.033611681 0.038380135 0.0052032308 -0.39675137 0.8733995 0.28242117 0.0025354382
0.070823386 0.03755559 0.004398331 0.89456439 -0.25860938 0.36452138 0.0031888317
-0.031105245 0.041416578 0.0046066688 0.42466667 0.86870205 0.25498024 0.0016214596
-0.028411385 0.040229287 0.0043281144 0.3976512 0.88195419 0.25304213 0.0021164315
-0.026306078 0.039351068 0.0041647842 0.37335378 0.89475054 0.24500696 0.0024134757
0.034917187 0.039475992 0.0037180644 -0.43312615 0.87240678 0.22651318 0.0033670112
0.037505578 0.040709514 0.0042441115 -0.4758797 0.85031056 0.22474542 0.0018314481
0.039529689 0.041761622 0.004726409 -0.500229 0.83284879 0.23692593 0.0031518789
0.071464084 0.040395919 0.0043737292 0.9243964 -0.16831464 0.34228835 0.0031747608
0.072081566 0.041675948 0.0034013956 0.93625379 -0.15385388 0.31584468 0.0034940587
-0.037041016 0.044445068 0.0045585399 0.44951195 0.85229862 0.26744357 0.0020337093
-0.034605138 0.043219741 0.0044224551 0.43475351 0.86162043 0.26191503 0.0016439978
-0.03239952 0.042284928 0.0038780442 0.41654575 0.88099366 0.22436576 0.0016646507
0.040567838 0.042636544 0.0040669073 -0.52154243 0.83210784 0.18865328 0.0013697463
0.043437015 0.044351399 0.0043499586 -0.52686453 0.81523389 0.24043162 0.0010256582
0.071616493 0.043647539 0.0049737524 0.90861285 -0.06679102 0.41226414 0.0030665712
0.072256118 0.043533701 0.0034958737 0.94381541 -0.087777399 0.3186025 0.0030116383
-0.042841312 0.047577091 0.004633164 0.46821165 0.83994144 0.27436516 0.0022515401
-0.0404725 0.046352305 0.0044203345 0.46519515 0.83957714 0.28054199 0.0020893994
-0.03836479 0.045345787 0.0039851191 0.44415286 0.85685802 0.26176789 0.0019858961
0.044869591 0.045699015 0.0033443251 -0.53380597 0.81299549 0.23257165 0.0066635255
0.045970485 0.046023313 0.0041896217 -0.53281373 0.82432407 0.19130951 0.0016690291
0.048544601 0.047605231 0.0043358677 -0.54738021 0.81762516 0.17850512 0.0017168755
0.071616121 0.046306361 0.0051705288 0.90358055 -0.022251766 0.42783985 0.0028206275
0.072310567 0.046696581 0.0037655272 0.92609084 -0.027020741 0.37633181 0.0031622648
-0.048747942 0.050643891 0.0049505504 0.4410691 0.83731931 0.32303923 0.0027709045
-0.046502326 0.049686335 0.0043640076 0.45314196 0.84116095 0.29514515 0.0025006116
-0.044163864 0.048551843 0.0039630355 0.45124578 0.84682333 0.28154474 0.0022896186
0.049733486 0.048570678 0.0038957591 -0.54462868 0.80298465 0.24206455 0.0013361681
0.051979557 0.049952716 0.0041006804 -0.54626703 0.8102603 0.21229839 0.0017789316
0.071514949 0.049535479 0.0052736322 0.89981163 0.0096380794 0.43617195 0.0032654768
0.072342858 0.049508296 0.0036923923 0.93080068 0.01021275 0.36538449 0.0039100349
-0.057102405 0.05381155 0.0058979713 0.23733765 0.7897436 0.56566405 0.0023713796
-0.054946586 0.053605251 0.0049268282 0.35000461 0.86853284 0.35092354 0.0032498131
-0.052413043 0.052684732 0.0045225825 0.39651617 0.84228188 0.36515221 0.0026624582
-0.049970657 0.051618051 0.0041128462 0.42440864 0.84003931 0.3379516 0.0029924484
0.053711645 0.051338747 0.0035770251 -0.54840219 0.80917531 0.21092725 0.0012456166
0.055628926 0.052471995 0.0037314855 -0.54047489 0.81810308 0.19645439 0.00054476049
0.057445746 0.053855009 0.0033341686 -0.5958423 0.79849213 0.085920483 0.0032817668
0.071444072 0.052205645 0.0051192441 0.88975745 0.036687888 0.45495674 0.0035135536
0.0723086 0.052586235 0.0036245617 0.91202319 0.0081584807 0.41005746 0.0040336163
-0.066157408 0.05687042 0.0059792623 0.27447581 0.65434021 0.70462894 0.0028114254
-0.063735969 0.056520145 0.0054200268 0.39492607 0.76871634 0.50309902 0.0028457404
-0.061353061 0.056060452 0.0045286813 0.41718778 0.81819034 0.39562482 0.0054233694
-0.058575224 0.055170655 0.0042198263 0.32411695 0.86272663 0.38813779 0.0036959699
-0.055651989 0.054355737 0.0038942401 0.34581032 0.87901306 0.32825509 0.0028189989
0.071575038 0.055695899 0.0044980072 0.89789641 0.012060816 0.44004166 0.011873649
0.072215393 0.054886807 0.0037010335 0.90659904 0.017472439 0.42163131 0.006968766
-0.073115528 0.058614604 0.0033264495 -0.38435367 0.92202795 0.046223432 0.0054726191
-0.070614442 0.059299115 0.0042010918 -0.14265294 0.91867501 0.36835617 0.019567017
-0.066784069 0.059321102 0.003863883 0.39770252 0.83163977 0.38756672 0.016064262
-0.064222246 0.058077533 0.0039166412 0.44730985 0.78822315 0.42263243 0.0042896587
-0.062431097 0.0574474 0.0033542265 0.45002794 0.80775017 0.38080761 0.0050725318
0.071207754 0.058315236 0.0044233282 0.80306613 0.0068277805 0.59585088 0.0053610546
0.072393298 0.058690812 0.0032648407 0.9599694 -0.074151888 0.27011153 0.020739177
-0.069814906 0.06011986 0.0034796428 -0.20013686 0.95663571 0.21164428 0.025728809
-0.067777611 0.060340852 0.0031878739 0.34375668 0.89655787 0.27931237 0.023035813
0.071566649 0.060829815 0.0038022043 0.91234893 -0.078456968 0.40182579 0.013024428
0.072126143 0.061160833 0.0033979625 0.96389365 -0.10684163 0.2439138 0.023883792
0.072962441 0.066418424 0.0031777471 0.94875842 -0.24018514 0.20534977 0.022639602
0.074439295 0.070803903 0.0033280263 0.8771528 -0.29452437 0.3792868 0.0086756824
0.074524164 0.073480926 0.0042839227 0.80590385 -0.056840189 0.58931166 0.052349746
0.075756662 0.074411206 0.0034765303 0.85957193 0.32330778 0.3957375 0.084291287
0.071219482 0.076462746 0.0035745276 0.30700001 0.95140743 0.02397682 0.0026879564
0.073483244 0.075767718 0.003733332 0.40241125 0.9135713 0.058759745 0.027595885
0.075481169 0.075130485 0.0032483761 0.39630008 0.91788793 -0.020687241 0.0088676652
0.0095525831 0.002436344 0.0068185395 0.067425072 -0.91440117 0.39915454 0.0035782796
0.013914544 0.0026269129 0.0063508097 0.13525283 -0.90031749 0.41368487 0.0034910808
0.012182856 0.0033626202 0.0079354644 0.1059037 -0.87217253 0.47759768 0.00088892685
0.016040606 0.0041799005 0.008280565 0.13308536 -0.85745078 0.49705777 0.0001548638
0.019041367 0.0045933365 0.0080742836 0.15547514 -0.84346551 0.5141921 0.00037881258
0.022234289 0.004723791 0.0074623139 0.17427863 -0.81857812 0.54731786 0.0020903735
0.025367787 0.0045252531 0.0063740611 0.21361658 -0.84534329 0.48965567 0.0091902399
0.028597914 0.0054129339 0.0064905868 0.24176745 -0.87125415 0.42715892 0.002509133
0.030442141 0.005715488 0.0060649253 0.29288733 -0.89375687 0.33972895 0.0023774067
0.025154311 0.0062645786 0.0086511839 0.19398727 -0.78118658 0.59339404 0.0029183237
0.029766707 0.0061713555 0.0071632457 0.27443787 -0.88121414 0.38489673 0.0003558562
0.031832173 0.0067157815 0.0070249275 0.29750779 -0.84340757 0.44738439 0.0024072528
0.034784578 0.0077630607 0.0070955614 0.29550922 -0.8334617 0.46692178 0.0018602135
0.037110083 0.0084546711 0.0068418169 0.33274874 -0.82455969 0.45758024 0.0013614525
0.038117655 0.009316206 0.0075715706 0.34393367 -0.80312526 0.48651767 0.0028933082
0.040595107 0.010296867 0.0074426779 0.36395195 -0.80482447 0.46882465 0.001440972
0.04296853 0.011137801 0.0070435456 0.40076616 -0.82129478 0.40603131 0.0020734782
0.04577814 0.0119903 0.0060735755 0.41616511 -0.79532111 0.4407618 0.0012427976
0.04346903 0.012422904 0.0085921343 0.38095731 -0.77673179 0.50155681 0.0037320193
0.046666782 0.01310422 0.0071117021 0.43910837 -0.79629385 0.41605282 0.0013912983
0.049095478 0.014302514 0.0067770989 0.48099488 -0.77504402 0.40981781 0.0014467085
0.050189082 0.015478331 0.0075762677 0.47642392 -0.7478562 0.46231094 0.0016171321
0.052402217 0.016778728 0.0073384321 0.49442223 -0.72948837 0.47264516 0.0019789231
0.05451839 0.017695658 0.0064927507 0.51806337 -0.71526188 0.46905318 0.0013687095
0.05322808 0.018284265 0.008631086 0.47876135 -0.67762363 0.55822378 0.0016461147
0.055649277 0.019233113 0.0074743205 0.53620529 -0.68343359 0.49538115 0.0024305256
0.057613611 0.020355897 0.0068349317 0.56339586 -0.66201955 0.4942826 0.0013351027
0.056777753 0.021262329 0.0087960754 0.5279569 -0.59753102 0.60350484 0.002557789
0.058953125 0.022178015 0.0076365289 0.58864504 -0.62562543 0.51194698 0.0022016636
0.060849044 0.023249159 0.006735567 0.6283195 -0.61213315 0.48011211 0.0017733922
0.059813596 0.024006482 0.0087392172 0.58786827 -0.58336705 0.56044078 0.0011896569
0.061785664 0.025120551 0.007686025 0.6237846 -0.5613572 0.54384816 0.0029238136
0.063950486 0.026403261 0.0063584452 0.73676533 -0.54603076 0.39878219 0.0021105867
0.062645651 0.027173221 0.0086574303 0.62501621 -0.50042629 0.59910619 0.003131994
0.064631127 0.028432632 0.0073946528 0.69940704 -0.46849963 0.53975725 0.0020191551
0.066276006 0.029728705 0.0064267726 0.75208616 -0.46384412 0.46820408 0.0017598113
-0.012857368 0.032754745 0.0085744653 0.22078362 0.86112261 0.4579547 0.0014114974
-0.010224195 0.032465708 0.0079599973 0.19619384 0.86915463 0.45395833 0.0013512284
-0.007570229 0.032260101 0.0072951508 0.15930575 0.88367891 0.44015142 0.0015242358
-0.0042425808 0.03175405 0.0072513195 0.12018368 0.88008875 0.45934695 0.0014188895
-0.0015475653 0.031215359 0.0075788153 0.089903206 0.85659432 0.50809801 0.002063062
0.001241944 0.030904021 0.0077077062 0.059044428 0.86317545 0.50143975 0.0018915476
0.0039835148 0.031422108 0.0066119474 0.025157286 0.94397837 0.32904702 0.0018482618
0.0076295324 0.030911123 0.0075074867 -0.036855441 0.90895879 0.41525355 0.0021794492
0.010865062 0.031412486 0.0069772378 -0.095767096 0.90438336 0.41583589 0.0022540635
0.013041604 0.0314487 0.0073697735 -0.12448829 0.90341139 0.41030541 0.0025242465
0.016557384 0.032053132 0.0073726354 -0.18858868 0.87286991 0.45003614 0.001535457
0.019463729 0.032433115 0.0079758447 -0.21262732 0.84135401 0.49690354 0.0018696227
0.022014504 0.032715514 0.0086121447 -0.23455454 0.77909625 0.5813719 0.001013245
0.065415472 0.030795425 0.0083063357 0.67891914 -0.39037982 0.62182987 0.0016502836
0.067165926 0.031801846 0.0067700264 0.78365189 -0.42570806 0.45239621 0.002096815
-0.021475036 0.035705704 0.0081649357 0.31216422 0.83771628 0.4480904 0.0015130138
-0.019238414 0.035240151 0.0075573791 0.30953613 0.84808397 0.43004754 0.0015332005
-0.016512085 0.034452822 0.0073306602 0.26415411 0.86058992 0.43543953 0.0020828606
-0.013528494 0.03369252 0.0071762442 0.2201322 0.8715328 0.4381465 0.0013571952
-0.010692758 0.033265904 0.0066375327 0.18961655 0.88441974 0.42643559 0.0011487388
-0.0084909443 0.033025809 0.0060797008 0.1650559 0.89802092 0.40781727 0.0011513379
0.020088039 0.033281013 0.0067660925 -0.23007829 0.86866212 0.43873695 0.0013214643
0.022645485 0.033870451 0.0069573196 -0.26626223 0.87735415 0.39919177 0.0023982348
0.025632523 0.034627013 0.0072080442 -0.26974764 0.88109082 0.38847804 0.0018655239
0.028506631 0.035514962 0.0072944481 -0.29866943 0.88451552 0.35836974 0.0016906066
0.030772932 0.035660896 0.0084471293 -0.27778044 0.79746944 0.53561234 0.0048043812
0.068138771 0.034333441 0.0070747524 0.79608333 -0.33812198 0.50192118 0.0019402134
0.069231912 0.035631243 0.0062966449 0.81192267 -0.32098052 0.48759931 0.0031542818
-0.028095661 0.038512245 0.0080403984 0.37403065 0.81190485 0.44823176 0.00191293
-0.025428792 0.037718169 0.007326371 0.35322207 0.83315957 0.42553416 0.0016608912
-0.022680394 0.036636606 0.0072880057 0.31778762 0.84676003 0.42662454 0.0016251619
-0.020351101 0.036142923 0.0065061934 0.30557206 0.86940235 0.38828498 0.0011536307
0.029216683 0.036208961 0.0064238384 -0.30997145 0.88252497 0.35364869 0.0021647802
0.032046814 0.036408067 0.0078735901 -0.3263894 0.86346978 0.38456464 0.0025690412
0.033729341 0.037690002 0.0068279188 -0.37613869 0.85502541 0.35700303 0.003391345
0.036856972 0.038543519 0.0080425311 -0.43275493 0.77805471 0.45536155 0.0019095731
0.068484955 0.037525397 0.0080845654 0.80582243 -0.22460087 0.54790938 0.0028079946
0.0695839 0.03766476 0.006726766 0.84308976 -0.24124236 0.48062634 0.0020929466
-0.036315136 0.041966639 0.0088476315 0.383448 0.76226777 0.52145523 0.001118581
-0.034068644 0.041524783 0.0076810019 0.41101605 0.80764741 0.4228138 0.0016952672
-0.031479232 0.040375195 0.0074870898 0.37469116 0.82104695 0.43068364 0.0015226529
-0.028779814 0.03946678 0.0068155499 0.37940165 0.83512884 0.39826393 0.0012006569
0.03778071 0.039769847 0.0068884576 -0.44744077 0.76764172 0.45882788 0.0021647215
0.040079433 0.04108309 0.0067943139 -0.4801476 0.80941373 0.33809412 0.0018747412
0.042480879 0.04156081 0.0083997529 -0.44517466 0.70987988 0.54579318 0.0017709406
0.068611801 0.040174291 0.0085649481 0.70944035 -0.11293273 0.69565839 0.0033157673
0.070017479 0.04058085 0.0069738738 0.83690482 -0.14484191 0.52783638 0.0020704824
-0.042402156 0.044940446 0.0089120492 0.37302259 0.72291303 0.58159339 0.0012308053
-0.040165871 0.044507697 0.007895235 0.40730429 0.78727514 0.46292666 0.0022612393
-0.037594419 0.04355488 0.0072456044 0.41501975 0.81550819 0.40336692 0.0014021463
-0.035132669 0.042492371 0.0068853786 0.40305191 0.81455427 0.41719365 0.0015492234
0.041428529 0.04223394 0.0063673146 -0.47036937 0.76700509 0.43641254 0.0014896186
0.043634053 0.043184943 0.0070521198 -0.44067568 0.73156691 0.52020663 0.0022551049
0.045994543 0.044127163 0.0077633727 -0.45490921 0.73685133 0.50010771 0.0021043904
0.068773918 0.042757731 0.0086863581 0.68824691 -0.030614683 0.72483033 0.0050015366
0.070332892 0.043351781 0.0069382498 0.82609767 -0.058417842 0.56049085 0.0024721699
-0.048389792 0.047930092 0.0088713802 0.33189005 0.73825496 0.58722103 0.0012205769
-0.0462703 0.047530998 0.0080985082 0.40283781 0.77668935 0.48422652 0.0015324013
-0.043416005 0.046539623 0.0073578199 0.4137868 0.79152781 0.44973803 0.00157094
-0.041056771 0.045597386 0.0068574026 0.43022889 0.79766083 0.4226585 0.0011968876
0.04727057 0.045300946 0.0072165267 -0.47855261 0.73302764 0.48338184 0.0027531961
0.049412936 0.046544373 0.0072597354 -0.47280878 0.74065322 0.47737271 0.00081015786
0.068764053 0.047107004 0.008611016 0.66376442 0.047718845 0.74641788 0.0029488762
0.070066892 0.046218071 0.0073877489 0.81869632 -0.00075811328 0.57422614 0.0017862108
-0.054424834 0.050774582 0.0086460616 0.27182382 0.72311473 0.63499361 0.002061361
-0.052096989 0.050453145 0.0079017002 0.34320134 0.77122319 0.53612268 0.0012154698
-0.049360663 0.049616437 0.0073057562 0.38830432 0.78416955 0.48404339 0.001122502
-0.046688795 0.048606273 0.0067955512 0.41568303 0.78907317 0.4522953 0.0015579191
-0.044947274 0.048089966 0.0060828859 0.411973 0.79069394 0.45285913 0.0013896537
0.052316267 0.048940144 0.0064357021 -0.53752422 0.78134167 0.3171325 0.0016533179
0.068260156 0.049676936 0.0085203545 0.60768127 0.10885044 0.78668618 0.0045153736
0.070071019 0.049124137 0.0071614836 0.75649428 0.057605114 0.65145844 0.0039903941
-0.063877866 0.052973315 0.0082995482 0.21245879 0.66326118 0.71759737 0.0027045
-0.06118172 0.053392757 0.00765257 0.19696875 0.74734145 0.63457394 0.0029607129
-0.058236189 0.053545803 0.0067673838 0.28215817 0.82696784 0.48632395 0.0019129582
-0.055410035 0.052356265 0.0071908082 0.31249514 0.8000164 0.51217234 0.0017867524
-0.052780934 0.051592324 0.0067676604 0.37267768 0.80539995 0.46091461 0.0016799432
-0.050956018 0.051183511 0.0061399718 0.37048766 0.77310532 0.51482719 0.0020098961
0.065889835 0.052269809 0.0085726837 0.42012727 0.21858287 0.88074666 0.0025409681
0.068059973 0.052684434 0.0078000156 0.59906989 0.14464244 0.78752381 0.0060986802
0.070396528 0.052431922 0.0063351556 0.83357644 0.05306688 0.54984933 0.0034946024
-0.067033634 0.056102253 0.006615472 0.23319788 0.64827824 0.72481316 0.0017995699
-0.064647824 0.055033371 0.0069245333 0.25200272 0.67056501 0.69773722 0.003134165
-0.062344465 0.054931819 0.006433323 0.28709191 0.76872742 0.5715211 0.0056924433
-0.059296165 0.054132503 0.0063319318 0.24020152 0.78649902 0.56896627 0.0042194761
0.067713402 0.054821551 0.0071769841 0.530451 0.19219035 0.82564199 0.0053781471
0.069775812 0.055096667 0.0062500536 0.71101391 0.084925048 0.69803077 0.0048200144
-0.068407245 0.05738496 0.0060020164 0.25884941 0.69389099 0.67194664 0.0055326517
0.013080771 0.0042520096 0.0091314437 0.10590246 -0.87217224 0.47759843 0.00088893622
0.02545381 0.0079172254 0.01026608 0.20083064 -0.71854752 0.66585028 0.00062933215
0.026459195 0.009225918 0.011384343 0.20331134 -0.70528913 0.67914045 0.00075397384
0.029843261 0.01062906 0.011636122 0.20353651 -0.68937325 0.69522482 0.00070121419
0.032862961 0.0096831741 0.010048763 0.18494059 -0.71933043 0.66959745 0.0019094937
0.034080815 0.0090190405 0.0091218092 0.20286937 -0.72215152 0.66131777 0.0026257273
0.037035841 0.010685693 0.0097412169 0.27828151 -0.71618217 0.64003325 0.0010757573
0.039588235 0.011237063 0.0092928875 0.34705448 -0.76590937 0.54123569 0.00098332623
0.038123336 0.01263281 0.011034042 0.25281495 -0.61913484 0.74347603 0.0022812579
0.04116562 0.01324836 0.010487988 0.3150124 -0.69277346 0.64871579 0.0011892702
0.043889139 0.013464829 0.0095547121 0.37608662 -0.7239148 0.57836509 0.0016332478
0.04627201 0.01460502 0.0094528692 0.37655547 -0.65469772 0.65542126 0.0026066734
0.04327352 0.015503579 0.011528309 0.29835248 -0.61094457 0.73330247 0.0039872928
0.046643883 0.016155314 0.010674208 0.36637047 -0.62964928 0.68506533 0.0020896427
0.048892424 0.016351193 0.009650399 0.41527289 -0.67361909 0.6113801 0.0015501471
0.05136355 0.017505169 0.0092171859 0.45839113 -0.66369337 0.59109116 0.0015941141
0.050265133 0.018517978 0.010786182 0.43307215 -0.63292867 0.64175522 0.0007432503
0.052525148 0.018890953 0.0097544538 0.4755457 -0.6496821 0.59310156 0.0019526196
0.05505142 0.020398172 0.0093914708 0.51648372 -0.63185191 0.57793403 0.0014977666
0.053117871 0.021489689 0.011463066 0.40886512 -0.50540322 0.75986642 0.00059195259
0.056060567 0.02229546 0.010236139 0.49973565 -0.55130154 0.66808003 0.0018280534
0.057912707 0.022973737 0.0094722742 0.55116618 -0.55401641 0.62392431 0.0024828312
0.056642205 0.024493467 0.011398055 0.47662023 -0.47600785 0.73908705 0.0023305151
0.058776423 0.025030075 0.010323927 0.53724033 -0.49862453 0.68025458 0.0020116083
0.060741875 0.026137521 0.0096081067 0.58806354 -0.5150885 0.62359041 0.0010793168
-0.012230821 0.029910814 0.011926521 0.18259564 0.7272684 0.66161889 0.0018844745
-0.010171641 0.02964263 0.01167546 0.17649053 0.7134499 0.67811537 0.00041519155
-0.0072835996 0.029258922 0.011400945 0.14268832 0.7396996 0.65763551 0.00089336606
-0.0042614872 0.029338829 0.01074402 0.10896441 0.79913419 0.59119481 0.00090940163
-0.0015353443 0.029010063 0.010677341 0.083592333 0.78239495 0.61714703 0.00082376221
0.001356606 0.028865755 0.010546807 0.051771712 0.76994902 0.63600177 0.0016748784
0.0042524119 0.028935617 0.010303621 0.011582429 0.77329373 0.63394225 0.002399873
0.0068763513 0.028894635 0.010374198 -0.029081319 0.82134563 0.56968915 0.0022293273
0.010532087 0.028896099 0.010541514 -0.063793704 0.74214405 0.66719759 0.0025628028
0.013560478 0.029149666 0.010665886 -0.10851892 0.75488311 0.64681923 0.0014916683
0.016269619 0.029346863 0.010965435 -0.15145895 0.68909872 0.70866293 0.0010759244
0.019292578 0.029507587 0.011538218 -0.18136914 0.67788303 0.71244639 0.00057952671
0.021448467 0.029879447 0.011737891 -0.18166102 0.70165884 0.68896604 0.00097490801
0.059569895 0.027855419 0.011418799 0.50434041 -0.37584734 0.77741849 0.0011343857
0.06213947 0.028478935 0.0099346265 0.61335576 -0.44225881 0.65437138 0.0020457336
0.063521072 0.029399054 0.0093012042 0.63584369 -0.42449653 0.64459723 0.0019019432
-0.021442588 0.032916181 0.011898775 0.27128169 0.6833182 0.67785144 0.0011894561
-0.019311992 0.032614693 0.011436773 0.25845134 0.75421602 0.60362339 0.0012040854
-0.01671442 0.032534674 0.010478424 0.25086921 0.81214279 0.52677202 0.00096497848
-0.013684951 0.031932868 0.010065746 0.22280258 0.83168113 0.50859177 0.00093274395
-0.010649576 0.031068739 0.010141801 0.1880374 0.79634202 0.57487506 0.001184504
-0.007785101 0.03076346 0.0097402325 0.16068479 0.83965498 0.51880622 0.0011835691
-0.0048296778 0.030347113 0.0096025765 0.11859748 0.81798482 0.56288147 0.0012670348
-0.0012584326 0.030170729 0.0091968868 0.086102434 0.82588011 0.55723292 0.0014122716
0.00099741132 0.030101925 0.0090041617 0.049897041 0.7862922 0.61583674 0.0011886936
0.0094993496 0.030042097 0.0090327533 -0.082283698 0.78277516 0.61684072 0.0011589782
0.013434025 0.030243836 0.0093545523 -0.11466064 0.84541404 0.5216589 0.0018418779
0.016991569 0.030642701 0.0096516898 -0.16219971 0.76876783 0.61861724 0.0015709331
0.019399293 0.031274732 0.0096048964 -0.20097427 0.82575095 0.52701491 0.0016384127
0.022624256 0.031437948 0.010437186 -0.21280392 0.74807715 0.62856597 0.0021870953
0.025352141 0.031868972 0.010886858 -0.23238455 0.67872065 0.6966604 0.00098405906
0.028005682 0.032702427 0.010918141 -0.22665019 0.71025884 0.66645491 0.0025444869
0.062144995 0.03114447 0.011190271 0.53540045 -0.30685011 0.7868858 0.00099193258
0.064439945 0.031587813 0.009661342 0.65225279 -0.36482066 0.66443372 0.0018863288
-0.02765598 0.035834629 0.011531454 0.32712013 0.73759115 0.59072137 0.00065229181
-0.025378712 0.035158809 0.011174685 0.31541702 0.77278459 0.55074137 0.0010153875
-0.022622444 0.034686986 0.010335255 0.29948321 0.79165453 0.53253442 0.00096585241
-0.019594785 0.033810183 0.010073525 0.28202054 0.81025404 0.51376349 0.0014029382
-0.016972737 0.033413853 0.0093442462 0.24207093 0.8114624 0.53191209 0.0010124189
-0.014988426 0.033033244 0.0090219751 0.24660499 0.79777294 0.5502221 0.0026829201
0.026381867 0.033446021 0.0094482107 -0.2219767 0.75279772 0.61969513 0.001209987
0.028790202 0.033940542 0.0098027773 -0.25959033 0.75971437 0.59619367 0.002090778
0.031538673 0.034702886 0.010054198 -0.25636724 0.7360642 0.6264866 0.0021339799
0.034244534 0.035058942 0.010826665 -0.31353942 0.69225717 0.64997935 0.0025911839
0.036818769 0.035570394 0.011513963 -0.37111923 0.68644184 0.62535441 0.001323526
0.062736861 0.033586606 0.011669068 0.53571171 -0.25535333 0.804865 0.0012658949
0.064739868 0.03443519 0.010504499 0.59331322 -0.25870839 0.76226598 0.0014795146
0.066442974 0.035228461 0.0093995193 0.6878137 -0.27711859 0.67090797 0.0015296238
-0.033811763 0.038591333 0.01157589 0.33199689 0.69669086 0.63592446 0.00084069022
-0.03117487 0.038290046 0.010479302 0.3475576 0.75840378 0.55138677 0.00093167211
-0.028502326 0.037243195 0.010260222 0.34308416 0.77109647 0.53638005 0.0011004194
-0.025768401 0.036556557 0.0095492518 0.32623619 0.78750414 0.52288342 0.0015648662
0.035249334 0.036543548 0.0096919527 -0.3258673 0.71506143 0.61846399 0.0020353941
0.037509419 0.037177127 0.010236871 -0.3739334 0.70876831 0.59818172 0.0019717072
0.04014029 0.037692625 0.011168566 -0.38394436 0.67890382 0.62584054 0.0010020961
0.042086679 0.038859442 0.011083066 -0.39747989 0.69591469 0.59809077 0.0017932568
0.064880505 0.037373655 0.011118893 0.55775273 -0.13324513 0.81924212 0.0012738447
0.066881098 0.037501123 0.0096423998 0.67402869 -0.19557628 0.71234488 0.0018305029
-0.039821852 0.041581403 0.011461407 0.33051392 0.69006884 0.64386761 0.00093166949
-0.037178718 0.040934112 0.010755692 0.37348831 0.73066527 0.57151961 0.00093159341
-0.034591448 0.040260516 0.010009271 0.36089972 0.75246423 0.55095279 0.0012030387
-0.032335073 0.039396077 0.0097414469 0.36096209 0.75913596 0.54168165 0.00091917935
0.040862132 0.039602716 0.0096357334 -0.40080404 0.69947737 0.59168202 0.002029147
0.043852437 0.04084532 0.010112144 -0.41179579 0.6753372 0.61183649 0.00095575023
0.045837618 0.041710474 0.010415625 -0.41274485 0.69496047 0.58878839 0.00028411453
0.0645722 0.040691394 0.011622851 0.57006443 -0.057969082 0.81955236 0.0016037952
0.067141093 0.040456221 0.0099282507 0.6274659 -0.085777253 0.77390486 0.0022701328
-0.046096548 0.044494834 0.011473577 0.30414802 0.67690444 0.67029423 0.00089331175
-0.043275509 0.04406707 0.010563812 0.36059248 0.7336027 0.57602096 0.0008392575
-0.040482163 0.043267034 0.0098937154 0.36784855 0.74206823 0.56037682 0.00093734037
-0.038430475 0.04246179 0.0096422089 0.38146815 0.74849385 0.54243809 0.001033441
0.046596348 0.04316118 0.0094023757 -0.43852606 0.72714818 0.52815765 0.0016326612
0.048531801 0.04436655 0.0092904363 -0.45060629 0.72536027 0.52039081 0.0013828381
0.065052427 0.04348905 0.011246153 0.55984372 0.037116643 0.82776654 0.0056283423
0.067464091 0.043737572 0.009804518 0.61670524 0.030958418 0.78658521 0.0050151856
-0.05790472 0.047611624 0.011846027 0.11598185 0.58697981 0.80125082 0.0008096759
-0.05532195 0.047560096 0.011653693 0.1564832 0.6016143 0.78330916 0.0014457828
-0.052088216 0.047487259 0.010968603 0.25300008 0.65835023 0.70891881 0.0012246204
-0.049394466 0.046943851 0.010465004 0.29081053 0.67487442 0.67821366 0.00079423434
-0.046286371 0.046143528 0.0098592322 0.37024167 0.73651522 0.56609756 0.0010727979
-0.044220723 0.045273356 0.0097302105 0.38336778 0.74428046 0.54687828 0.0013303669
0.065396406 0.045911472 0.010697049 0.57020307 0.0803141 0.81756836 0.0034583646
0.067556977 0.046304848 0.0095667308 0.60744411 0.066695943 0.79155749 0.0044864095
-0.061997369 0.050595388 0.0099537419 0.10529386 0.65001148 0.75259435 0.0016542797
-0.058349535 0.049904823 0.010345629 0.14075319 0.65082753 0.74606431 0.001774463
-0.055045594 0.049410999 0.010153002 0.2366664 0.68726659 0.68677038 0.001369628
-0.052482128 0.048790891 0.0098949187 0.27722374 0.6984936 0.65973765 0.0015377842
-0.049787067 0.048315432 0.0092544211 0.34150407 0.73168856 0.58992106 0.0013641566
0.064186573 0.049364518 0.010013143 0.42677018 0.21792747 0.87771004 0.0031999105
0.066707477 0.049322233 0.0093901334 0.5341872 0.16548321 0.82901102 0.0031711406
-0.061465852 0.051553525 0.0092882682 0.12161376 0.6695863 0.73271024 0.0013463048
-0.058188688 0.051341854 0.0091648083 0.145971 0.70585656 0.69315141 0.0016420521
-0.056867156 0.051095683 0.0091193393 0.158508 0.6773203 0.71840972 0.0030896899
0.029110543 0.011226877 0.012394937 0.19578016 -0.69373441 0.69311094 0.00076261844
0.032477058 0.012125922 0.0121443 0.21390341 -0.67323387 0.70781463 0.0007099366
0.040040161 0.017474007 0.013720799 0.26728895 -0.56934899 0.77743065 0.00051197573
0.045160525 0.017494487 0.012260623 0.28688261 -0.56097847 0.77653176 0.00078903383
0.047240268 0.018962221 0.012432084 0.35181391 -0.56457812 0.74664491 0.00063695433
0.050699405 0.02060242 0.012069564 0.3838076 -0.53882897 0.74990338 0.00070830889
-0.00093870854 0.023993449 0.014716439 0.063674733 0.49448541 0.8668505 0.0022630352
0.0013295166 0.023772009 0.014706438 0.049735073 0.50674707 0.86065894 0.0012271298
0.0043049674 0.023679979 0.014644803 0.021767883 0.50330514 0.86383456 0.001214467
0.0075193024 0.023414718 0.014708936 -0.025995143 0.47107601 0.88170952 0.0026401971
0.01057497 0.0236963 0.014658983 -0.042718396 0.54487234 0.83743018 0.00050402666
0.050898258 0.021940123 0.01271308 0.37895587 -0.49873409 0.77952343 0.0005785448
0.052796911 0.022931512 0.012460694 0.40305719 -0.48766267 0.77442241 0.00052660232
0.054151874 0.023563854 0.012177534 0.4214288 -0.46730152 0.77719176 0.00159694
-0.01261034 0.026966278 0.014533497 0.16904502 0.58395702 0.79398865 0.0012433667
-0.010438895 0.026255378 0.014571587 0.15121289 0.55508822 0.81793141 0.0013648702
-0.0074723065 0.025902499 0.014292671 0.13089819 0.53738636 0.83311558 0.0012673758
-0.0045225676 0.02577655 0.013964389 0.10706772 0.54329634 0.83268577 0.0010448499
-0.0015995963 0.025639519 0.013715414 0.076806925 0.5937838 0.80095035 0.0022323828
0.0014228497 0.025770012 0.013389429 0.052661624 0.59167057 0.80445802 0.0019457259
0.0046424 0.02562131 0.013345064 0.024697702 0.58801508 0.80847287 0.0021272448
0.0073458557 0.025617477 0.013345696 0.0071076443 0.56915879 0.8221969 0.0023424625
0.010358593 0.025968257 0.01321075 -0.045660436 0.57655478 0.81578165 0.0025477046
0.012898037 0.025587127 0.013660051 -0.097794995 0.59549952 0.79738104 0.0026760728
0.016433056 0.026513863 0.013414976 -0.14140068 0.59661871 0.78996962 0.0015796644
0.018186066 0.025750116 0.014154728 -0.13988174 0.61658889 0.77475888 0.0008069505
0.053944953 0.024519231 0.012736576 0.39233389 -0.43845329 0.80859935 0.00068784103
0.05612012 0.025785241 0.012332495 0.46750078 -0.44754606 0.76232892 0.001158694
-0.021688014 0.029806687 0.014809785 0.21497232 0.57393605 0.79017997 0.0020277505
-0.019221548 0.029289525 0.014474304 0.21428674 0.56215304 0.7987898 0.0013349508
-0.016369089 0.028861377 0.014014555 0.20271416 0.58238411 0.787233 0.00084183447
-0.01349338 0.02856686 0.013493566 0.19019113 0.60544169 0.77283096 0.00083736173
-0.010304574 0.028497288 0.012841468 0.16513485 0.69296879 0.701801 0.0014909072
-0.0080376314 0.028250309 0.012565327 0.1446289 0.71077293 0.68839258 0.0012316358
-0.004642576 0.027661651 0.012519094 0.11061779 0.67786723 0.72681481 0.0013870791
-0.0015742672 0.027369557 0.01237454 0.079875804 0.69084817 0.71857411 0.0014983183
0.0017576697 0.027318899 0.01213335 0.045365974 0.66873598 0.74211466 0.0014594661
0.0040292619 0.027196988 0.012135714 0.0028141607 0.65030879 0.75966477 0.0022909089
0.0069350442 0.027252207 0.012049743 -0.0087756095 0.69632971 0.71766841 0.001032141
0.0097858915 0.027172955 0.012221938 -0.046946775 0.66303688 0.74711317 0.0036831608
0.013558516 0.027327787 0.012440273 -0.096575424 0.68081594 0.72605985 0.0013687972
0.017043995 0.02819714 0.012221442 -0.12778772 0.65587264 0.74397677 0.0019715042
0.019486779 0.028418226 0.012554913 -0.18497877 0.64974421 0.73730278 0.0017788468
0.022303604 0.02865665 0.012948403 -0.20038219 0.64441848 0.73795116 0.00075496855
0.025305891 0.029190162 0.013216146 -0.2036318 0.67097443 0.71297091 0.00074022857
0.027623162 0.029842759 0.013292108 -0.22036587 0.67509127 0.7040531 0.00057790638
0.055921786 0.027050087 0.012931766 0.41614088 -0.36729205 0.8318193 0.00070053688
0.057896014 0.02842458 0.012590577 0.48430908 -0.37545559 0.79023904 0.00080767809
-0.027798461 0.032350738 0.014764997 0.25514483 0.60468411 0.7544921 0.0011827004
-0.02519308 0.032147389 0.014047575 0.2493781 0.61312908 0.74958873 0.0011880909
-0.022226728 0.031976923 0.013181914 0.26095662 0.68988681 0.67524648 0.00094643433
-0.01972021 0.031317811 0.012936736 0.25057593 0.6968872 0.67198205 0.001099875
-0.016765324 0.030681759 0.012574376 0.23250221 0.71966881 0.65423191 0.00087466772
-0.014209411 0.030203929 0.012247051 0.20080893 0.71319741 0.67158425 0.0007943181
0.026429793 0.031104418 0.012000998 -0.21714889 0.67299974 0.70704859 0.00069195975
0.028476201 0.031304061 0.012369715 -0.23718233 0.67065591 0.70282656 0.00077222456
0.03093059 0.031654991 0.012769798 -0.23329931 0.67025656 0.70450526 0.00052957237
0.033603765 0.032122321 0.01316504 -0.27141839 0.66642612 0.69441217 0.00069600972
0.058970958 0.031016588 0.012903715 0.44299379 -0.27565363 0.85309529 0.0011611508
0.060660589 0.032112584 0.012410056 0.50282174 -0.28786451 0.81504864 0.0010595181
-0.034014229 0.035714585 0.014342626 0.26234531 0.59683305 0.7582646 0.0011381959
-0.031227436 0.0348524 0.014000036 0.28967601 0.61924922 0.7298069 0.00078948028
-0.028548457 0.034609251 0.013142963 0.29303816 0.66231251 0.6895439 0.0014173249
-0.025634727 0.033837244 0.012728383 0.28059363 0.69465727 0.66235828 0.0012417062
-0.023389233 0.033185065 0.012467902 0.27518776 0.71559882 0.64202029 0.00074257428
0.03221152 0.033066131 0.012013787 -0.24505046 0.69299138 0.67802161 0.0011891342
0.034285389 0.033281643 0.012472425 -0.28793526 0.65849829 0.69532245 0.00049659016
0.037727375 0.035011258 0.012362501 -0.3483105 0.67764658 0.64766884 0.00085975108
0.059858508 0.034931388 0.013349794 0.49671644 -0.22629753 0.83789152 0.0012208374
0.061941668 0.034872051 0.012384292 0.51243424 -0.20152213 0.83474541 0.0014449842
-0.04259688 0.038824141 0.014749892 0.18947881 0.51794106 0.83416712 0.0020698756
-0.040133644 0.038426943 0.014317375 0.25613296 0.57648933 0.77592266 0.0012662724
-0.037604749 0.037989169 0.013809058 0.28804284 0.62966365 0.72149503 0.0010453274
-0.034742124 0.037926309 0.012748284 0.3323839 0.69685131 0.63554639 0.0012212883
-0.03196891 0.036699556 0.012665736 0.32642397 0.70152766 0.63348746 0.00084567937
-0.029645728 0.036105417 0.012233856 0.30555555 0.67370224 0.67287523 0.0011275777
0.042146534 0.037577126 0.012162663 -0.36416972 0.65493476 0.66214871 0.00035881126
0.062724099 0.037349664 0.012345703 0.53101557 -0.15190203 0.83363563 0.00098446617
-0.051609557 0.040960122 0.01498092 0.11960349 0.46935847 0.87487012 0.0012306977
-0.049392261 0.041403875 0.014584841 0.17257077 0.51145333 0.8418045 0.001469186
-0.046306275 0.040970266 0.014257289 0.18944503 0.53704596 0.82200503 0.0013438575
-0.043125913 0.041115448 0.013231067 0.27741933 0.62360269 0.73086125 0.0010337377
-0.040646262 0.040322654 0.013009771 0.30823818 0.64640099 0.69796491 0.00089850195
-0.037590131 0.039584823 0.012414715 0.31583309 0.6772843 0.66448134 0.0011507509
-0.035497468 0.039007872 0.012071401 0.36828631 0.75309038 0.54517883 0.001222313
0.063496202 0.040227674 0.012125706 0.53503835 -0.072277427 0.84173036 0.0014599696
-0.054477528 0.044359449 0.013512956 0.1369198 0.5554834 0.8201775 0.00059876381
-0.052114539 0.043700084 0.013641363 0.15858808 0.53348446 0.83080935 0.00093094027
-0.049294319 0.043861527 0.013038319 0.2192467 0.58994174 0.77710974 0.0011842339
-0.046657305 0.043106589 0.012863473 0.25535575 0.6240086 0.73851657 0.0013031025
-0.04373122 0.042518266 0.012304385 0.31049782 0.66864127 0.67565519 0.0010715466
-0.055322595 0.046140939 0.012554269 0.14942668 0.58325171 0.79842913 0.00094675005
-0.052049104 0.045623701 0.012434862 0.203759 0.61095947 0.76499069 0.00092909863
-0.050261281 0.045287445 0.012220141 0.22472288 0.61494619 0.75587088 0.0017720332
-0.0018430384 0.017542813 0.016793899 0.05572103 0.30990621 0.94913298 0.0015822696
-0.019475732 0.02031577 0.01787176 0.12303087 0.30429989 0.94459784 0.0018731642
-0.01042225 0.020558899 0.017048106 0.12005603 0.34447336 0.93108785 0.00055666995
