# .PCD v0.7 - Point Cloud Data file format
VERSION 0.7
FIELDS x y z normal_x normal_y normal_z curvature
SIZE 4 4 4 4 4 4 4
TYPE F F F F F F F
COUNT 1 1 1 1 1 1 1
WIDTH 557
HEIGHT 1
VIEWPOINT 0 0 0 1 0 0 0
POINTS 557
DATA ascii
-0.013479299 0.0070967595 -0.010878949 -0.16164468 -0.70140523 -0.6941914 0.0021235305
-0.010553554 0.0068736537 -0.011290948 -0.12970053 -0.6597237 -0.74023139 0.001318048
-0.0075792903 0.006581068 -0.011507708 -0.10090718 -0.70802844 -0.69893742 0.0012764683
-0.0042216005 0.0063323542 -0.011689167 -0.079241157 -0.70125282 -0.70849508 0.0011418299
-0.0013752405 0.0061099497 -0.011732083 -0.055618819 -0.70469159 -0.70733041 0.0014700537
0.00075750233 0.0061908038 -0.011956574 -0.019633038 -0.67074955 -0.74142402 0.0031573044
0.010452227 0.0060442439 -0.011845732 0.018749148 -0.68703693 -0.72638065 0.0028562173
0.013975519 0.0061719706 -0.011691388 0.059124574 -0.71177858 -0.69991112 0.001157009
0.017165001 0.0063837692 -0.011624923 0.088912517 -0.74403042 -0.66220343 0.0014787287
0.019657921 0.0066150902 -0.011491831 0.11784948 -0.72799784 -0.67537439 0.0013583598
0.022645976 0.006963281 -0.011278817 0.14891113 -0.75565416 -0.63781834 0.0019863634
0.02566677 0.0072086519 -0.010725074 0.18006162 -0.76447552 -0.61899519 0.0013582862
0.02855335 0.0077760508 -0.01049516 0.2049122 -0.76565427 -0.60974139 0.001371764
0.031380385 0.008238269 -0.010036759 0.2510573 -0.7707538 -0.5855841 0.0012569726
0.034154184 0.0086362464 -0.0092941448 0.291287 -0.77654088 -0.5586915 0.0011187063
-0.028567016 0.011273009 -0.009942607 -0.29305559 -0.71464145 -0.63514256 0.00083970692
-0.025439275 0.010710303 -0.010651682 -0.26354998 -0.70374405 -0.65976191 0.0014310144
-0.022522939 0.0099073676 -0.010959499 -0.25375441 -0.71520889 -0.65121806 0.0013976807
-0.019674001 0.0095814709 -0.011646036 -0.21053503 -0.67917424 -0.70313394 0.00065420941
-0.016661808 0.0090239756 -0.011961679 -0.18173569 -0.66704851 -0.72250843 0.0010528828
0.029618919 0.0091944225 -0.011795567 0.20067906 -0.71135455 -0.67357451 0.0021228862
0.031983018 0.0095385285 -0.011409428 0.2324478 -0.70516384 -0.66985977 0.0013245372
0.03459651 0.010176446 -0.011071465 0.2638754 -0.71735138 -0.64480764 0.0010478635
0.037313115 0.010884921 -0.010651327 0.28931481 -0.71745914 -0.63367921 0.0012718284
0.04019843 0.011503119 -0.0098803546 0.35115013 -0.75069857 -0.5595938 0.001198569
0.042249337 0.011921117 -0.0091386084 0.38172194 -0.75137264 -0.53826338 0.0012305344
-0.037313357 0.01491905 -0.0096762981 -0.32836729 -0.69409537 -0.64062977 0.00081373379
-0.034532275 0.013893764 -0.010079744 -0.32038447 -0.69973689 -0.63853115 0.0007209428
-0.031482931 0.013194225 -0.010762891 -0.29519019 -0.71676141 -0.63175619 0.00084223703
-0.028676068 0.012725509 -0.011484229 -0.26362684 -0.66765517 -0.69623089 0.002636242
-0.026306139 0.012212677 -0.011888358 -0.25236052 -0.649207 -0.71752667 0.002831368
0.038654294 0.012402598 -0.01178968 0.29983655 -0.67462564 -0.67452079 0.0016098417
0.04072978 0.01269048 -0.011052544 0.33089846 -0.69935405 -0.6335693 0.0011285626
0.043467503 0.013675577 -0.010581289 0.35823086 -0.69426519 -0.62423277 0.00090450142
0.046155799 0.01442879 -0.0097204754 0.41406348 -0.70575601 -0.57485634 0.0011430961
-0.040112086 0.017161373 -0.010456956 -0.35893717 -0.63623285 -0.68291426 0.00083295634
-0.038005251 0.016447704 -0.010937553 -0.34744325 -0.64297324 -0.68254572 0.00090561423
-0.034658048 0.015392017 -0.011603688 -0.30653211 -0.6686759 -0.67742938 0.00095168792
0.044463705 0.015283664 -0.011817309 0.36324912 -0.64905494 -0.66841441 0.0011891573
0.046826381 0.01608043 -0.011188824 0.39810517 -0.65517074 -0.64207762 0.0012553456
0.049275681 0.01674122 -0.010193585 0.43838343 -0.67049634 -0.59854376 0.0014183266
0.051491328 0.017536813 -0.0094126165 0.4880473 -0.66434526 -0.5660876 0.0012947554
-0.045217678 0.020906892 -0.010787192 -0.42219949 -0.5659346 -0.7081424 0.0004047706
-0.043256074 0.019660497 -0.010922197 -0.38364533 -0.57293421 -0.72426701 0.0005238381
-0.041560993 0.01841199 -0.01080578 -0.37237048 -0.58831358 -0.71779341 0.00036033356
0.050284412 0.018453844 -0.011318159 0.43791789 -0.63144946 -0.63992155 0.0011395715
0.052569371 0.019526459 -0.010685381 0.47034711 -0.62569416 -0.62231863 0.0016128616
0.054686863 0.020041453 -0.0095099015 0.5199374 -0.62042922 -0.58713943 0.0014121383
-0.049483892 0.0231592 -0.0098704537 -0.43852523 -0.56309193 -0.70044494 0.00036956213
-0.046823002 0.022733847 -0.011357451 -0.42376694 -0.56325114 -0.70934463 0.0003640659
0.05354441 0.02139052 -0.011716498 0.48786616 -0.57399362 -0.65766096 0.00069498515
0.055717301 0.022249924 -0.010775618 0.50307608 -0.55322552 -0.66396987 0.0019762435
0.057932962 0.023116566 -0.0097210146 0.56551248 -0.56215924 -0.60346711 0.0021231864
-0.054298241 0.026996674 -0.0098945079 -0.47770235 -0.50678629 -0.7176128 0.00057012006
-0.052437536 0.026231864 -0.010592609 -0.46006513 -0.53797811 -0.70634246 0.0012170911
-0.049681444 0.024965458 -0.011444874 -0.42552698 -0.5378142 -0.72779304 0.0007200776
0.001812879 0.026971119 -0.011977767 0.024804832 0.69261444 -0.7208814 0.0013908646
0.0052452786 0.026968399 -0.011978592 -0.012604277 0.69773251 -0.71624756 0.0012640489
0.056688707 0.02438744 -0.011745586 0.52232254 -0.4967671 -0.69311011 0.0009637035
0.058719169 0.025307747 -0.010802045 0.53630471 -0.4739233 -0.69840825 0.0015921156
0.060753003 0.026168959 -0.0097032906 0.59736544 -0.50361794 -0.62411821 0.0011476785
-0.057096198 0.029064579 -0.0093871001 -0.50684243 -0.48155388 -0.71499419 0.00065908267
-0.054837249 0.029064003 -0.011150544 -0.48176816 -0.47380263 -0.7371639 0.0012058375
-0.052791581 0.027778648 -0.011666542 -0.44942352 -0.47803035 -0.7546559 0.0010434309
-0.012799959 0.029633738 -0.011741453 0.18571462 0.68966174 -0.69991195 0.0023970103
-0.010291315 0.029316202 -0.011455677 0.16248865 0.67144614 -0.7230196 0.0017866492
-0.0074703651 0.02904366 -0.011091511 0.13405249 0.71156996 -0.68970877 0.0017429028
-0.0044630305 0.028811855 -0.010826181 0.10818388 0.73433048 -0.67011565 0.0019057207
-0.0015298965 0.028630473 -0.010619018 0.078404114 0.72271609 -0.68668348 0.0025736233
0.0014803433 0.028454222 -0.010576914 0.042872518 0.73848051 -0.67291045 0.0022108469
0.0044691674 0.02836208 -0.010614686 -0.0036477766 0.73546529 -0.67755264 0.0022029383
0.0075042993 0.028425222 -0.010620501 -0.051021129 0.74259478 -0.66779476 0.00255788
0.010573119 0.028662512 -0.010650682 -0.083030201 0.74229085 -0.66491365 0.0021116231
0.013492852 0.028878434 -0.010820006 -0.12125908 0.75662535 -0.64250636 0.0013115568
0.016419353 0.029195162 -0.011090676 -0.16087793 0.7475251 -0.6444568 0.0014944021
0.01931004 0.029586343 -0.011446939 -0.19341254 0.72418368 -0.66192871 0.0012959925
0.021819595 0.029895246 -0.011875516 -0.20820142 0.68396515 -0.69917369 0.0014271615
0.059526939 0.027609402 -0.0116774 0.5667969 -0.40575317 -0.71701163 0.0011876257
0.061519336 0.028536618 -0.010582558 0.57920492 -0.39014369 -0.71575803 0.0015094316
0.063404322 0.029413924 -0.0094215041 0.64002663 -0.4232899 -0.64124221 0.0016062794
-0.058581151 0.032181412 -0.010473358 -0.50351781 -0.39978525 -0.76592535 0.0015166445
-0.05638184 0.031133091 -0.011465102 -0.4767338 -0.43093634 -0.76617151 0.0018939993
-0.021833174 0.032615505 -0.011767684 0.25537795 0.68435884 -0.68296057 0.0025256739
-0.01929649 0.032255325 -0.011192285 0.2483613 0.70860732 -0.66044855 0.000983782
-0.016450575 0.031833258 -0.010583478 0.23224138 0.74213928 -0.62872356 0.0014213966
-0.013631408 0.031165384 -0.010385108 0.20176643 0.74340779 -0.63767958 0.0025743975
-0.010582947 0.030732861 -0.0099991783 0.17945929 0.74451691 -0.64303106 0.0016451394
-0.007670918 0.030415418 -0.0096235983 0.14362024 0.75754058 -0.63679314 0.0016383679
-0.004918247 0.030198829 -0.0093331998 0.11618873 0.77694446 -0.61875474 0.0019617062
-0.0022612461 0.030064575 -0.0090684183 0.085377172 0.76345563 -0.64019239 0.0010546093
0.011370382 0.030017868 -0.009107885 -0.083874732 0.77511686 -0.62622589 0.0011570337
0.014086894 0.030135354 -0.0094386889 -0.12366883 0.77619022 -0.61825138 0.0012813547
0.016639434 0.03051088 -0.0095901368 -0.16888975 0.76856983 -0.61707109 0.0014044018
0.019694149 0.030939439 -0.010011333 -0.20375547 0.76094508 -0.61599213 0.001761918
0.022693455 0.031274978 -0.010636649 -0.22414003 0.74619585 -0.62685961 0.0020644364
0.025831535 0.032012146 -0.010930263 -0.24158888 0.75045687 -0.61518234 0.00093117863
0.028169177 0.032431182 -0.011338852 -0.24163428 0.71377939 -0.65736729 0.0013127864
0.030498162 0.032741666 -0.011892591 -0.25549656 0.67618543 -0.69100994 0.0023347978
0.062193915 0.031277273 -0.011390802 0.57098883 -0.28595373 -0.76954675 0.0017140225
0.064128123 0.031786744 -0.010007196 0.64189035 -0.33638614 -0.68907267 0.001731657
-0.060788471 0.035317294 -0.010543266 -0.51548153 -0.29581305 -0.80422223 0.0016197315
-0.058547813 0.034121457 -0.011560685 -0.48815033 -0.32192856 -0.81121588 0.0008663506
-0.027970539 0.035433456 -0.01147401 0.29457006 0.66844457 -0.68294239 0.0022090932
-0.0252757 0.034850951 -0.010850075 0.29491544 0.71992463 -0.62827814 0.0010952114
-0.022625342 0.034165915 -0.010401093 0.28022626 0.73795927 -0.61391312 0.0020481886
-0.01976783 0.03362019 -0.0098145483 0.26916945 0.74433923 -0.61115217 0.0014542188
-0.01755161 0.033339966 -0.009180964 0.25107324 0.76708341 -0.59037727 0.0010655875
0.026089063 0.033266086 -0.0094883041 -0.2518684 0.76823181 -0.5885424 0.00080874487
0.028996006 0.033876289 -0.0099552656 -0.26346424 0.74698555 -0.61040896 0.0010661194
0.03124165 0.034064125 -0.01069897 -0.25906625 0.72946429 -0.63306123 0.001506399
0.034303293 0.035000332 -0.010977875 -0.30351371 0.73023689 -0.61207318 0.0015183075
0.036845371 0.035640977 -0.011522366 -0.31222436 0.68947113 -0.6535638 0.002249511
0.062724091 0.033793498 -0.011852966 0.55103678 -0.18044187 -0.81473863 0.0017568426
0.064514019 0.034568612 -0.010681685 0.60204768 -0.21248129 -0.76966894 0.0017149398
0.066363163 0.03522544 -0.0093074748 0.68366015 -0.25246713 -0.68474019 0.0016380941
-0.063253164 0.037700973 -0.0096822381 -0.55057245 -0.22393495 -0.80419105 0.00058297865
-0.061142087 0.037812375 -0.011273148 -0.5205223 -0.24457459 -0.81807083 0.00066681649
-0.059678774 0.036851261 -0.01191886 -0.49385208 -0.20843907 -0.84419388 0.003503459
-0.036019675 0.038865805 -0.011762381 0.31388637 0.67790645 -0.66476929 0.0011000902
-0.034162074 0.038362075 -0.011432779 0.31305495 0.66415828 -0.67888916 0.0012938218
-0.031371225 0.037704334 -0.010699641 0.33103386 0.70940745 -0.62221998 0.0017460434
-0.028670141 0.036936332 -0.01015916 0.32617697 0.73071927 -0.59971493 0.0021768736
-0.026043469 0.036264818 -0.0095489053 0.31830859 0.74334085 -0.588323 0.0011888514
0.035000339 0.036436297 -0.0095874518 -0.32826111 0.75514859 -0.56744623 0.00094790664
0.037725136 0.037095062 -0.010370983 -0.36288774 0.70695961 -0.60705912 0.0019943595
0.040374417 0.037947133 -0.010972604 -0.35669643 0.68522125 -0.63501143 0.0016004739
0.042954281 0.038683716 -0.011633883 -0.33565903 0.64924663 -0.68250412 0.0015121041
0.064755708 0.037484478 -0.01110251 0.56759351 -0.10085373 -0.81710839 0.0014883078
0.066716664 0.037784573 -0.0096178921 0.6662522 -0.14042313 -0.73238605 0.002553249
-0.063656904 0.040573906 -0.010370269 -0.51357484 -0.13134471 -0.84793252 0.0024049825
-0.061526 0.04053764 -0.011655825 -0.39603657 -0.017794866 -0.91806233 0.002880539
-0.042430542 0.041780546 -0.011828065 0.28534675 0.63195795 -0.72055978 0.0013623461
-0.040302794 0.041342016 -0.011375402 0.3024528 0.64042687 -0.70595729 0.00098908611
-0.037470248 0.040644545 -0.010676901 0.3239783 0.70690775 -0.62874436 0.0013243366
-0.034712136 0.039866094 -0.010061112 0.35256779 0.71831936 -0.59976107 0.0018153597
-0.032375425 0.039272584 -0.0094143832 0.36005676 0.73080373 -0.57990098 0.0011528499
0.040935859 0.039445356 -0.0096712187 -0.39941746 0.69398105 -0.59904587 0.0012592848
0.043685064 0.040328685 -0.010387613 -0.36638188 0.67391837 -0.64155936 0.0014732364
0.046489775 0.040839687 -0.011373279 -0.28748035 0.6052376 -0.74232239 0.0013784925
0.048943121 0.041616838 -0.011753477 -0.25180349 0.5873521 -0.76916349 0.0015607564
0.062948979 0.041885123 -0.011968125 0.3549563 0.15688486 -0.92162532 0.010606567
0.064669468 0.040490016 -0.011288657 0.49169722 0.037803955 -0.86994517 0.0038826009
0.066883065 0.040574193 -0.0097785844 0.62726098 -0.030240899 -0.77822167 0.0029942598
-0.064219207 0.043849543 -0.010436059 -0.42502043 0.044686213 -0.90408003 0.0022134664
-0.06198822 0.043733578 -0.011514681 -0.31797323 0.095062301 -0.94332194 0.004049168
-0.0490481 0.044771831 -0.011734311 0.20721157 0.59852469 -0.77384204 0.0015589459
-0.046208784 0.044195503 -0.01125589 0.26545072 0.6266793 -0.73267245 0.0012906167
-0.043479029 0.043568265 -0.010650359 0.29891628 0.65139449 -0.69737667 0.00090430601
-0.04080753 0.042914931 -0.0099901501 0.34825847 0.69572991 -0.62823242 0.0014476933
-0.038503502 0.042310536 -0.0093717901 0.36399266 0.70949888 -0.60342419 0.0013614121
0.046783209 0.04273117 -0.0097027291 -0.37194198 0.66824168 -0.64429206 0.0013349357
0.049860299 0.043398306 -0.010575461 -0.2814697 0.60685748 -0.74330264 0.0014303681
0.05244239 0.04373562 -0.011293259 -0.21849944 0.55241328 -0.80442375 0.0014639584
0.055319127 0.044405717 -0.011602345 -0.15444605 0.50479037 -0.84931332 0.0023679109
0.05840845 0.044665337 -0.011838492 -0.018391646 0.43577829 -0.8998661 0.003281235
0.061919283 0.044133693 -0.01174531 0.18868321 0.27575779 -0.94252658 0.0052278652
0.06456811 0.043420691 -0.011022374 0.40376204 0.16009583 -0.90074724 0.0041452185
0.066990547 0.043406602 -0.0096388711 0.57255584 0.081077941 -0.81584686 0.0035902197
-0.066292286 0.045794211 -0.0092793368 -0.37482709 0.14818792 -0.91517484 0.0055560041
-0.064401127 0.046802104 -0.010184042 -0.34887886 0.17806567 -0.92009574 0.0041835574
-0.061288942 0.046681803 -0.01124535 -0.17037562 0.33278441 -0.9274841 0.00355612
-0.058490101 0.046946671 -0.011523861 -0.049780447 0.41783541 -0.90715796 0.0056619016
-0.055417035 0.047066245 -0.011389961 0.075932905 0.51287436 -0.85509884 0.0030066662
-0.052340329 0.046786297 -0.011068153 0.17271721 0.57086223 -0.8026737 0.0012288321
-0.049449284 0.046467241 -0.0104356 0.26392135 0.64449829 -0.71761227 0.0018376522
-0.046744376 0.045900833 -0.009864416 0.31834978 0.67947567 -0.66103423 0.00189095
-0.044423535 0.045273561 -0.0093614198 0.35639364 0.70011282 -0.61872905 0.0019388403
0.050627626 0.045077845 -0.0094016185 -0.33614764 0.65834481 -0.67348862 0.0014778865
0.052847195 0.045680929 -0.0098504378 -0.26797289 0.62022495 -0.73723233 0.0016050582
0.055744383 0.046391219 -0.010331403 -0.2208093 0.56945401 -0.79181147 0.0028093394
0.058616534 0.046425272 -0.010882857 -0.051073611 0.47120655 -0.88054293 0.0030666904
0.061586764 0.046455279 -0.010917284 0.096731961 0.38926503 -0.91603255 0.0060294946
0.06455186 0.046429675 -0.010308883 0.31580165 0.27953598 -0.90671325 0.0073892972
0.066680528 0.046241492 -0.0094209723 0.50477839 0.18268877 -0.84369648 0.0045489818
-0.066124514 0.049087174 -0.0090071494 -0.23932375 0.26387551 -0.93439496 0.0068698809
-0.064324729 0.049441673 -0.0095205102 -0.28075179 0.29141331 -0.91447073 0.0064699007
-0.061321367 0.049550295 -0.01004231 -0.061332729 0.47857493 -0.87590206 0.0046394309
-0.058407441 0.049646545 -0.010012567 0.039969105 0.54412216 -0.83805341 0.0042562233
-0.05552594 0.049191419 -0.0099286027 0.148369 0.61162305 -0.77711254 0.0038115697
-0.052722842 0.04864819 -0.0096321413 0.23700924 0.65772593 -0.71499866 0.0024325873
-0.050456446 0.048133958 -0.009303797 0.30411503 0.68312174 -0.66397196 0.0015718407
0.056475382 0.048130944 -0.0091707399 -0.2802057 0.63437867 -0.72045022 0.0025227596
0.058771569 0.048699748 -0.0094518522 -0.17061038 0.56933957 -0.80420434 0.0036487859
0.061627571 0.048976075 -0.0096491929 -0.022214644 0.4839972 -0.87478745 0.0052626445
0.064396143 0.048959184 -0.0094507681 0.18913779 0.37446266 -0.90774703 0.0058647529
0.066256315 0.048405156 -0.0091091935 0.39910173 0.3147026 -0.8612085 0.0068499693
-0.063544117 0.051079493 -0.0090612089 -0.15964308 0.39536515 -0.90454441 0.0075402805
-0.061432227 0.051098298 -0.0091241188 0.016140398 0.58286285 -0.81241024 0.0049535665
-0.0072758486 0.0026637176 -0.0064876573 -0.12041046 -0.8542583 -0.50571144 0.0012530817
-0.0044406606 0.0027152251 -0.0071642874 -0.087372512 -0.86054796 -0.50181991 0.0015721206
-0.0014065626 0.0023387738 -0.0069280961 -0.056060631 -0.8566187 -0.51289529 0.0013724978
0.0016040972 0.0023543278 -0.0072010332 -0.021407608 -0.8650676 -0.50119835 0.0017479965
0.0046063168 0.0023492165 -0.0072589768 0.0094170729 -0.86914665 -0.4944649 0.0017526724
0.0075635118 0.0023943626 -0.007243874 0.030144731 -0.87182075 -0.48889661 0.002332197
0.010444231 0.0022868551 -0.0067827627 0.051145852 -0.87721801 -0.47736007 0.0016929781
0.013227277 0.0025147009 -0.0067663207 0.082797974 -0.8795746 -0.46850082 0.0015912129
0.016675927 0.0027555255 -0.006473552 0.11869764 -0.88037872 -0.4591777 0.0013592471
0.018663494 0.0028660188 -0.0060558533 0.15268633 -0.90412128 -0.39906338 0.0017999283
-0.019216763 0.0055599473 -0.006773565 -0.27241459 -0.81125063 -0.5173614 0.00091136049
-0.016242884 0.0053330138 -0.0078628929 -0.22086473 -0.81493193 -0.53582162 0.00095926359
-0.013160547 0.0044063977 -0.0075980565 -0.17485765 -0.82353371 -0.53964525 0.0016854205
-0.010182396 0.0039519528 -0.0078183059 -0.14910293 -0.83167201 -0.53487378 0.00083272747
-0.0075372532 0.0036776925 -0.0080801975 -0.12622426 -0.83895344 -0.52936238 0.0016281072
-0.0047617145 0.0036127276 -0.0084740445 -0.082859099 -0.8252461 -0.558662 0.0010783669
-0.0015397317 0.0032949559 -0.0084295608 -0.054542113 -0.83194447 -0.55217165 0.0015152991
0.0015540612 0.0032117674 -0.0085496837 -0.030642722 -0.82833409 -0.55939591 0.0012853768
0.0046652667 0.0033421579 -0.0088248411 0.00073662464 -0.84029067 -0.5421356 0.0022471945
0.0076129641 0.0034594727 -0.0089443037 0.032295689 -0.80385798 -0.59394395 0.00076424936
0.010407893 0.0033121973 -0.0085558202 0.048808668 -0.80961734 -0.58492523 0.00099842018
0.013218122 0.0035660253 -0.0085624792 0.082817137 -0.81664103 -0.57117319 0.0023374043
0.016318448 0.0036140571 -0.0081194416 0.10912572 -0.83552933 -0.53850001 0.0012098572
0.019541834 0.0040344661 -0.0079870857 0.15258588 -0.84656453 -0.50994706 0.0013703383
0.022632102 0.0044100191 -0.0076110661 0.18534209 -0.863581 -0.46890953 0.0024967159
0.025604254 0.0050372351 -0.0075334026 0.20435111 -0.85423547 -0.47804022 0.001256716
0.02851804 0.0054390421 -0.0068319626 0.24470578 -0.86759603 -0.4328928 0.0010895827
0.030218493 0.0055770734 -0.006144912 0.24402575 -0.91117561 -0.33197975 0.0026143796
-0.025427131 0.0084662857 -0.0078162123 -0.3093985 -0.78973383 -0.52971041 0.0015021916
-0.022553988 0.007478436 -0.0079352064 -0.2964108 -0.79228473 -0.5333156 0.0012950063
-0.019732047 0.0064976015 -0.0080257058 -0.25984094 -0.79603171 -0.54664087 0.0013070523
-0.017531006 0.00643746 -0.0089136064 -0.20124902 -0.79065001 -0.57824862 0.0021356829
0.026529603 0.006020383 -0.0089053847 0.19795926 -0.800376 -0.56587142 0.0010743876
0.028816674 0.0063264081 -0.0083590811 0.23757182 -0.82618034 -0.5108676 0.0012338917
0.031532243 0.0068549495 -0.0077945068 0.2637918 -0.8404969 -0.47326401 0.0015530658
0.034443188 0.0077311289 -0.0075585633 0.30783701 -0.83659518 -0.45314997 0.0014790071
0.037096031 0.0084161181 -0.0069553638 0.34736815 -0.83732063 -0.4221724 0.001256489
-0.033683799 0.011927307 -0.0079665119 -0.32578582 -0.76735729 -0.55229199 0.0011258612
-0.031139193 0.010815181 -0.0079222964 -0.31411946 -0.77410609 -0.54962611 0.0011513048
-0.02872555 0.010052498 -0.0082385913 -0.30467203 -0.77652138 -0.55153376 0.0025422268
-0.026431682 0.0093758963 -0.0085661653 -0.3007457 -0.76959014 -0.56327879 0.0019939141
0.037870646 0.009411823 -0.0082310513 0.33513638 -0.81798834 -0.46752396 0.0018616633
0.040467422 0.010191891 -0.007597005 0.36668119 -0.82662338 -0.42689419 0.0013570643
0.043305863 0.011338874 -0.007235948 0.39610988 -0.80994046 -0.43254298 0.0014881333
0.045357056 0.011960832 -0.0064452165 0.42866829 -0.80508727 -0.40997326 0.00099391071
-0.038123965 0.014369858 -0.0085163908 -0.35620123 -0.69776523 -0.62148565 0.00066698366
-0.035008218 0.012920995 -0.0085386699 -0.31704041 -0.70929307 -0.62959409 0.00080612011
0.044261113 0.012500337 -0.0084610507 0.39793438 -0.77252221 -0.49483091 0.001046786
0.046534255 0.0132418 -0.00759533 0.44654936 -0.78965676 -0.42075625 0.0012629244
0.048972171 0.014374549 -0.0070950217 0.47682571 -0.76743984 -0.42857122 0.0011168399
0.050329644 0.015980406 -0.0083262986 0.47238901 -0.71948946 -0.50910062 0.0014655382
0.052170347 0.016665261 -0.0074587143 0.49858713 -0.70840979 -0.49956629 0.0015758282
0.054498367 0.017708531 -0.0065004346 0.53088331 -0.72472906 -0.43923882 0.0010364066
0.053495012 0.018295895 -0.0085507808 0.50365847 -0.68547839 -0.52578264 0.0016309634
0.055672269 0.019364325 -0.0076467004 0.54012316 -0.68265426 -0.49218902 0.0015539419
0.057940364 0.020508967 -0.0065744631 0.58024454 -0.65503836 -0.48398453 0.0010519753
0.056851737 0.021274485 -0.0088907965 0.53838778 -0.61921698 -0.5715844 0.0020255994
0.058766115 0.022124944 -0.0077657327 0.59404641 -0.63610184 -0.49242592 0.0016026018
0.06069297 0.023192627 -0.0067319586 0.62933242 -0.60368007 -0.48939878 0.0012132608
0.059695136 0.024181163 -0.0089548696 0.58016127 -0.5349682 -0.61418396 0.0012132869
0.061777782 0.025311014 -0.0078120027 0.64593858 -0.54614234 -0.53337783 0.0024079508
0.063463442 0.026376547 -0.0068190158 0.67780823 -0.52918041 -0.51043522 0.0011885428
0.0017433737 0.029876586 -0.0088256616 0.034426261 0.82637411 -0.56206816 0.0034166703
0.0045272876 0.029835327 -0.0088139828 0.0033094021 0.81012994 -0.58624101 0.0017136612
0.0071581947 0.029834406 -0.0088536944 -0.036956795 0.813896 -0.57983404 0.0018807906
0.0095757842 0.029957948 -0.0088745821 -0.077227309 0.78255659 -0.61777109 0.0010783996
0.062784635 0.02752704 -0.0087454272 0.64619243 -0.47147012 -0.60012609 0.0020028313
0.06446407 0.028559014 -0.0075685396 0.7149151 -0.45057201 -0.53467864 0.0019232904
0.0661631 0.029648792 -0.0063162781 0.72985417 -0.4515872 -0.51320738 0.0012542875
-0.015530524 0.03293572 -0.0088922763 0.24576885 0.77585071 -0.58107942 0.0007946738
-0.013166095 0.032631051 -0.008328679 0.21751027 0.82898492 -0.51524103 0.0021345858
-0.010301881 0.032287885 -0.0077471011 0.19095455 0.83723593 -0.51241797 0.0015407881
-0.0075047817 0.031818822 -0.0075435 0.15979142 0.85436851 -0.49449083 0.0014361376
-0.0044919536 0.03136348 -0.0075186663 0.12890474 0.84554452 -0.51810998 0.0022807352
-0.0014864681 0.030956293 -0.0075885635 0.082656026 0.84920835 -0.52154887 0.0022647418
0.0014605136 0.030809129 -0.0074682198 0.039791923 0.85429031 -0.51827091 0.0021652931
0.0044996389 0.030744078 -0.0074415565 -0.0022889099 0.85907084 -0.51185161 0.0023341479
0.0074672899 0.030802593 -0.0073965583 -0.040038135 0.86103755 -0.50696284 0.0022494486
0.010503535 0.030923508 -0.0075742989 -0.084277771 0.86115366 -0.50130981 0.0019180115
0.013467113 0.031181291 -0.0076818732 -0.12770255 0.84781915 -0.51467913 0.0021124177
0.016460577 0.031668678 -0.007770658 -0.18822806 0.85143304 -0.48952219 0.0023661254
0.019287264 0.032341208 -0.0078105289 -0.22504137 0.83784193 -0.49737033 0.0014667275
0.021933163 0.032615941 -0.0085705835 -0.24586059 0.82066065 -0.51581836 0.0014385934
0.065441556 0.031121025 -0.00832716 0.69159669 -0.35627294 -0.6283021 0.0016519545
0.066786915 0.031827196 -0.0070761121 0.73854434 -0.39388332 -0.54718202 0.0019354472
-0.022000121 0.03545551 -0.0083842082 0.29226589 0.81187969 -0.50540274 0.001988007
-0.019355306 0.034978412 -0.0075812116 0.30043155 0.83525115 -0.46053928 0.0013415598
-0.016528504 0.034112904 -0.007456969 0.24893737 0.8347494 -0.49114528 0.0019611691
-0.013671849 0.033591192 -0.0069544562 0.22379453 0.84861493 -0.47934195 0.0021172555
-0.011226573 0.033244401 -0.0064077079 0.19691387 0.86751199 -0.45677996 0.00121327
0.020315237 0.03338987 -0.0064145587 -0.2341356 0.85524732 -0.46231222 0.0012299329
0.022574013 0.033497598 -0.0073785088 -0.24723458 0.83745366 -0.48738727 0.001294509
0.02514313 0.034048453 -0.007767234 -0.26115146 0.82712317 -0.49766171 0.0012943674
0.028062126 0.034796387 -0.0080905305 -0.28442556 0.80558223 -0.51974928 0.0013815264
0.030955972 0.035682645 -0.0083199982 -0.29468584 0.79461372 -0.53080052 0.0013388931
0.065878063 0.033151403 -0.0088731321 0.66920865 -0.33126336 -0.66514999 0.0023238484
0.067620277 0.034554183 -0.0075848717 0.75943029 -0.28419265 -0.58523518 0.0018658169
0.06914673 0.035779491 -0.0061908509 0.78318167 -0.30514672 -0.54176742 0.0027962008
-0.030569185 0.038884781 -0.0086908154 0.36688372 0.77420175 -0.51575959 0.001257682
-0.02815325 0.038293395 -0.0079490906 0.3691451 0.79684025 -0.47830692 0.0019305787
-0.025558816 0.037371513 -0.0075539523 0.34527126 0.80918533 -0.47540173 0.0022270167
-0.022744885 0.036527082 -0.0070558619 0.31853348 0.82848173 -0.46060219 0.0017176677
-0.020673392 0.036086172 -0.0063549764 0.3151558 0.83818692 -0.44510612 0.001624623
0.029530911 0.03614869 -0.0064967573 -0.31090349 0.84639454 -0.43238336 0.0013086976
0.031826757 0.036646228 -0.0071556717 -0.32376564 0.81565547 -0.47946015 0.0014415847
0.034684435 0.037479684 -0.0077782599 -0.34320635 0.78830487 -0.51067102 0.0019154937
0.037104771 0.038381767 -0.0082260808 -0.39447007 0.75789458 -0.51960486 0.0015215721
0.039012741 0.038966965 -0.0088943653 -0.42166477 0.72864634 -0.53969747 0.0022619078
0.068189591 0.037454184 -0.008048634 0.75696063 -0.1787111 -0.62854832 0.0024438163
0.069427982 0.037730005 -0.0066059777 0.79250836 -0.20847242 -0.57312274 0.0022471843
-0.066058777 0.041690618 -0.0088772085 -0.50670117 -0.10263039 -0.85599118 0.002576496
-0.036413837 0.04171152 -0.0087806173 0.37322524 0.75283492 -0.54216456 0.0015527215
-0.034257919 0.041268095 -0.0078060771 0.39417255 0.78911853 -0.47108379 0.0016942048
-0.031566996 0.040160146 -0.0074650957 0.3772909 0.79259157 -0.47900963 0.0018025698
-0.029126128 0.039320305 -0.006921927 0.37906662 0.81507272 -0.43813813 0.0014867975
0.037525795 0.039292276 -0.0071109915 -0.40598422 0.75768572 -0.51096886 0.0013387258
0.040563975 0.040587835 -0.0078386767 -0.42753309 0.7417419 -0.51675373 0.00086193671
0.04310631 0.041578956 -0.0085582342 -0.41570956 0.72437656 -0.54996735 0.0012541797
0.068406828 0.040479634 -0.0084078657 0.67705935 -0.07457611 -0.73214 0.0021034132
0.069741145 0.040542856 -0.0069014956 0.78228498 -0.10729661 -0.61361027 0.0023169441
-0.067026645 0.04460825 -0.0087010087 -0.48119596 0.039308928 -0.87573129 0.0041338406
-0.042405874 0.044789668 -0.0087225828 0.37190676 0.72373509 -0.58128548 0.0018796958
-0.0402252 0.044273794 -0.0078331865 0.40961605 0.77767497 -0.47690284 0.0017979437
-0.037538562 0.043145359 -0.0074366159 0.38857502 0.78316683 -0.48544741 0.0020017202
-0.03520339 0.04238474 -0.0067112693 0.41132182 0.79772979 -0.44095519 0.0014390065
0.04151953 0.0421817 -0.0061177639 -0.46240267 0.7656607 -0.44715494 0.0010455986
0.044066235 0.042927057 -0.0074581672 -0.41599116 0.72923809 -0.54328912 0.0010358039
0.046417721 0.04392327 -0.008035548 -0.40243575 0.71539676 -0.57118559 0.0023372537
0.048459515 0.044607498 -0.0086367223 -0.39147499 0.70143378 -0.59559888 0.0014104657
0.068452053 0.04357161 -0.0084811607 0.6571753 0.0290063 -0.75317943 0.0029221016
0.0698561 0.043387294 -0.0070176697 0.75842202 -0.015742837 -0.65157366 0.0029345837
-0.04853737 0.047764324 -0.0086973608 0.31399223 0.68740922 -0.65488738 0.0014655339
-0.046207827 0.047250167 -0.0079681845 0.36203092 0.75110102 -0.55206954 0.0027033032
-0.043612044 0.046282861 -0.0074593723 0.37567824 0.77918625 -0.50173175 0.0016173789
-0.041191846 0.045503166 -0.0067098369 0.42084661 0.77891213 -0.46495587 0.0017086562
0.047214881 0.045422409 -0.0065652402 -0.4184241 0.72935754 -0.54125679 0.0012352543
0.049670827 0.046055734 -0.0076558515 -0.39141354 0.71814185 -0.57538491 0.0014349767
0.052288689 0.047174841 -0.00808369 -0.36536172 0.68683082 -0.62831062 0.0022565834
0.054386877 0.047815472 -0.0086408202 -0.26106027 0.62547696 -0.73527282 0.0011153689
0.068159156 0.046568226 -0.0083847763 0.57203144 0.11936699 -0.8114996 0.0034911025
0.069875099 0.046350311 -0.0068656392 0.72827017 0.062378298 -0.68244523 0.0037301157
-0.07029622 0.050306927 -0.006430415 -0.38712668 0.16831437 -0.90653366 0.0038560408
-0.067377999 0.049740627 -0.0082659516 -0.33545712 0.24285097 -0.91021532 0.0043699332
-0.065173112 0.050688632 -0.0088753328 -0.21553402 0.33382148 -0.91766459 0.0061878972
-0.057397973 0.050940797 -0.0088531421 0.11350614 0.66656464 -0.73675501 0.0027194782
-0.055051103 0.050579127 -0.0086101284 0.21348836 0.66681099 -0.71399289 0.0025899929
-0.052291084 0.050134767 -0.0079014441 0.30254912 0.73903561 -0.60190564 0.0025129439
-0.04956964 0.049256403 -0.0074819098 0.3399936 0.74932164 -0.5682618 0.001759905
-0.04711774 0.048533771 -0.0068117701 0.39320466 0.76738495 -0.50646859 0.0016757004
0.053048536 0.048627235 -0.0069273817 -0.39234313 0.69513673 -0.60237181 0.002095452
0.055719137 0.049179554 -0.0079153618 -0.30011755 0.65047538 -0.69771862 0.0014435836
0.058374822 0.05010144 -0.0082082106 -0.2396891 0.60977894 -0.75545937 0.0023045542
0.061368953 0.050489616 -0.0086870473 -0.099750347 0.5507257 -0.82870448 0.0040773251
0.064832576 0.050344169 -0.008768443 0.11025786 0.42744762 -0.89729136 0.0063297446
0.067658484 0.049513206 -0.0080561591 0.46834961 0.20212856 -0.86011201 0.0059378906
0.069737323 0.049357634 -0.0066240765 0.68629551 0.12936118 -0.71572626 0.0051107365
-0.069610186 0.053078562 -0.0066164136 -0.24861826 0.2778683 -0.92788905 0.0071548
-0.067077726 0.052558217 -0.0076451353 -0.13902038 0.41800991 -0.89774221 0.0073222113
-0.064360358 0.052682906 -0.0079575516 -0.021022422 0.53736454 -0.84308809 0.0076836548
-0.061304491 0.052750316 -0.0077801594 0.095786221 0.64417022 -0.75886089 0.0042953971
-0.058428552 0.052494701 -0.0075647929 0.16242778 0.72068036 -0.67397112 0.0032939606
-0.055570673 0.052019238 -0.0072106584 0.2569052 0.74342054 -0.61751574 0.0029456781
-0.052838992 0.051473439 -0.0065399637 0.34496859 0.75707269 -0.55483115 0.0016121344
0.056684706 0.051203385 -0.0062688887 -0.37714666 0.68713623 -0.62097037 0.0024861156
0.059191182 0.051575642 -0.0071751396 -0.26134649 0.61984724 -0.73992389 0.002699879
0.061772916 0.052263785 -0.0074922517 -0.14937517 0.55913639 -0.81550819 0.0046315715
0.064624049 0.052450273 -0.0077854134 0.043878365 0.42905426 -0.90221238 0.0094534131
0.067558803 0.052473068 -0.0072435164 0.36560005 0.28721395 -0.88535005 0.012390752
0.06943243 0.052204832 -0.0063362364 0.60887903 0.17962191 -0.77265924 0.006426564
-0.069762968 0.054880835 -0.0062374822 -0.21577269 0.36820132 -0.90436161 0.012132717
-0.067404933 0.055155668 -0.0065305331 0.003207376 0.49537885 -0.86867106 0.00592524
-0.06458611 0.054869909 -0.0065523796 0.12388561 0.59226501 -0.79616237 0.0089935856
-0.061907616 0.054360095 -0.0064026541 0.18134332 0.69477159 -0.69599354 0.0049447976
-0.059798893 0.054116484 -0.0060609421 0.23729591 0.73973721 -0.62966621 0.0036605953
0.062408675 0.054265793 -0.0061926167 -0.2149574 0.56074101 -0.79960173 0.0052410569
0.064873867 0.054829922 -0.0065322579 -0.077046916 0.44474781 -0.89233577 0.0091220206
0.067469813 0.055079658 -0.0063981605 0.22931565 0.301963 -0.92532843 0.016017852
0.069098689 0.054369319 -0.006113763 0.47428036 0.22695524 -0.85061711 0.012289615
-0.013241481 0.0029790867 -0.0048629143 -0.20257549 -0.85039222 -0.48558861 0.00048628973
-0.010229983 0.0024439737 -0.0049976436 -0.15076122 -0.85649616 -0.49364501 0.0010245587
-0.0073264479 0.0018168341 -0.0045075091 -0.10374678 -0.89518791 -0.43344572 0.0010111919
-0.0042805891 0.001706887 -0.0051506441 -0.083325565 -0.89465022 -0.43892804 0.0010965181
-0.0013876748 0.0013192774 -0.0047523822 -0.039070155 -0.90843821 -0.41618928 0.001294804
0.0012830135 0.0013278717 -0.0050839181 -0.042924583 -0.90859121 -0.41547495 0.0011394864
0.0046455343 0.0010110914 -0.004360755 0.0036029839 -0.90642649 -0.42234832 0.00091609644
0.0076613873 0.0010816436 -0.004351465 0.038291182 -0.89409852 -0.44623041 0.00055244315
0.01046523 0.0012186331 -0.0042463699 0.074128062 -0.91890675 -0.3874473 0.0010949519
0.013413874 0.0017006375 -0.0048639225 0.11838882 -0.93154687 -0.34380883 0.0021300798
0.016316839 0.0019468564 -0.0045747571 0.12506407 -0.94253731 -0.30981034 0.0017866414
0.019679019 0.0025007906 -0.0046339477 0.17626971 -0.93093657 -0.31982213 0.0014364985
0.022581734 0.0028779283 -0.0040569436 0.19642426 -0.94585454 -0.25841191 0.0023941088
-0.021581043 0.0056752991 -0.0053599672 -0.29577327 -0.82385731 -0.48350531 0.00049382483
-0.018457847 0.0048044194 -0.0057771462 -0.25488925 -0.82072592 -0.51131248 0.0010004058
-0.016944844 0.0040928135 -0.0052226437 -0.24293369 -0.84916925 -0.4689295 0.00038108177
-0.013820249 0.003484983 -0.0056856521 -0.2025761 -0.85039181 -0.485589 0.00048621139
-0.011548062 0.0030903853 -0.0059756958 -0.15773186 -0.86082226 -0.48384482 0.00076479925
0.022855081 0.0033683947 -0.0053056208 0.19998561 -0.91074747 -0.36130974 0.0014180066
0.025826499 0.0039175884 -0.0048698522 0.24035089 -0.91711915 -0.31799993 0.0015298091
0.028643252 0.0045972783 -0.004628784 0.25678578 -0.91446137 -0.31276426 0.0016025794
0.031410933 0.0054095956 -0.0045201108 0.28397888 -0.91197652 -0.29606575 0.002013237
0.033022292 0.0055827256 -0.0033256353 0.31904009 -0.91153699 -0.25944886 0.0028765958
-0.03005245 0.0089152157 -0.0052051037 -0.32543218 -0.79597449 -0.51041025 0.00079594384
-0.026642818 0.0075042155 -0.0051193601 -0.31464434 -0.8123768 -0.49096116 0.0004213494
0.032483295 0.0061050067 -0.0055847289 0.30882138 -0.89754701 -0.31470421 0.001907815
0.034685723 0.0066269636 -0.0048193093 0.34043035 -0.89468855 -0.28920531 0.0014558547
0.037569225 0.0076519111 -0.0045604706 0.35088038 -0.88978153 -0.29184207 0.0015528311
0.039993696 0.0085271336 -0.004122925 0.38648078 -0.88342071 -0.26495367 0.0015067193
0.041227605 0.0093148788 -0.0048244745 0.39747947 -0.87116599 -0.28823593 0.0017209013
0.043537036 0.010333322 -0.0046081776 0.4211393 -0.86031753 -0.28722015 0.0014252267
0.046041388 0.01146858 -0.004161844 0.45082602 -0.85168225 -0.26719514 0.0014571807
0.047328424 0.01247037 -0.0050368244 0.47302413 -0.83403575 -0.28395873 0.0016348033
0.049556535 0.013607848 -0.0045768283 0.49764746 -0.81726873 -0.29054931 0.0018154336
0.051530518 0.014564566 -0.0038666164 0.50700748 -0.80863833 -0.29840827 0.0016394386
0.052799862 0.015713045 -0.0047117551 0.52853334 -0.79516429 -0.29726464 0.0017753227
0.055167109 0.017246831 -0.0044009699 0.56172508 -0.77411538 -0.29190823 0.001774569
0.056539409 0.018569395 -0.0051636067 0.58644909 -0.75682008 -0.28861895 0.0016212987
0.058421779 0.019896301 -0.0046352637 0.62105525 -0.70393336 -0.3446278 0.0024129115
0.06011872 0.020754127 -0.0032484899 0.64568555 -0.71924764 -0.2564626 0.0025130201
0.059705585 0.021344911 -0.0054177074 0.64201123 -0.6918118 -0.33048141 0.0018514489
0.061455533 0.022655686 -0.0045942063 0.67660123 -0.66429579 -0.31768203 0.0012479649
0.063174106 0.02379024 -0.0034628827 0.69980204 -0.64321834 -0.3107205 0.001659027
0.062731154 0.02440024 -0.0053659044 0.70109659 -0.6086778 -0.37144983 0.002562277
0.064321011 0.025747284 -0.0044589485 0.72570109 -0.59481198 -0.34576961 0.0021373627
0.06548585 0.027723521 -0.0051513575 0.75764275 -0.5501433 -0.35116926 0.0023264929
0.06673377 0.028972616 -0.0043633389 0.78432381 -0.50315446 -0.36286587 0.0025847873
-0.0073012845 0.032851305 -0.0055440427 0.16701272 0.91783834 -0.36011067 0.0024762191
-0.004397687 0.032652084 -0.004935903 0.13613455 0.91794121 -0.37262753 0.0017999379
-0.0014819428 0.032390572 -0.00465556 0.096543521 0.93034601 -0.35374513 0.0023254666
0.0014754977 0.032204267 -0.004576107 0.044259649 0.93822265 -0.34318987 0.0024379899
0.0044446494 0.032104727 -0.0046008243 0.010906128 0.92960465 -0.36839694 0.0022397907
0.0074225292 0.032155488 -0.0045077051 -0.027898202 0.94193065 -0.33464649 0.0023898808
0.010580807 0.032311961 -0.004642108 -0.098416507 0.93427914 -0.34269029 0.002250114
0.01351906 0.032535776 -0.0048957006 -0.14271583 0.91408652 -0.37957618 0.0020415133
0.016513417 0.032779474 -0.0056483313 -0.20778063 0.88931346 -0.40736824 0.0019413646
0.068033896 0.031426858 -0.0046591642 0.81860983 -0.4354614 -0.37450147 0.0026328133
0.069233604 0.032674186 -0.0034315118 0.8479656 -0.41242838 -0.33295226 0.0034933242
-0.01861134 0.035837531 -0.0052853124 0.32657424 0.89301026 -0.30964825 0.0024955417
-0.016345063 0.035332907 -0.004723208 0.28143844 0.9045561 -0.32026643 0.0021639874
-0.013449787 0.034575876 -0.0045697414 0.24874111 0.9105466 -0.33020106 0.0021392086
-0.010501377 0.03385137 -0.0045884089 0.19749393 0.92817694 -0.31541032 0.0020670493
-0.0077331639 0.033449888 -0.0041735941 0.15964781 0.93575859 -0.31443349 0.0022648373
-0.0050484794 0.033270687 -0.0034112923 0.12093388 0.94934297 -0.29003951 0.0033872947
0.013981253 0.033098154 -0.0034112278 -0.1388886 0.94098115 -0.30864924 0.0011975658
0.016626595 0.033358168 -0.0041567134 -0.19975926 0.90583515 -0.37357584 0.0014481625
0.019772867 0.033812821 -0.0050377012 -0.2353047 0.88647711 -0.39848465 0.0010253118
0.022360263 0.034597337 -0.004788287 -0.25762019 0.89411682 -0.36631536 0.00079849019
0.025230896 0.035441566 -0.0048174476 -0.26938906 0.88627237 -0.37676358 0.0011684097
0.027617231 0.035855126 -0.0056415312 -0.29149401 0.89224583 -0.34486043 0.0022166099
0.068742357 0.033704881 -0.0054759295 0.8395983 -0.3471396 -0.41781428 0.0027310923
0.069688529 0.034714255 -0.0043700035 0.85782331 -0.33623433 -0.38869736 0.0030543611
-0.027053677 0.038868297 -0.0058398899 0.40496498 0.82480913 -0.39457992 0.002051438
-0.025085041 0.038478721 -0.0047760033 0.36995685 0.87463546 -0.31328061 0.0021415402
-0.022461697 0.037491854 -0.0046091289 0.34100837 0.88249934 -0.32389563 0.0026298824
-0.019686462 0.036532294 -0.0044098473 0.30881882 0.9021244 -0.30133456 0.0021415688
-0.017449817 0.036073204 -0.0035729094 0.29063836 0.90777683 -0.30244106 0.0021772406
0.026500894 0.03618164 -0.0036893177 -0.28655759 0.91278636 -0.29104269 0.0017917778
0.028092092 0.036458164 -0.0045139845 -0.2844148 0.88078439 -0.37858567 0.0013802451
0.031426683 0.037591148 -0.0045707338 -0.35273489 0.89353329 -0.27780637 0.0016805477
0.033997893 0.038508862 -0.0049349973 -0.40052941 0.86011916 -0.31586593 0.0025444189
0.070561916 0.037483368 -0.0045479727 0.87061012 -0.24405909 -0.42716888 0.0025735325
-0.033291087 0.041851759 -0.0057141292 0.42606604 0.82436055 -0.37268946 0.0039694533
-0.031226933 0.041274596 -0.0047849691 0.42266876 0.8557232 -0.2984778 0.0018990492
-0.028504783 0.040075436 -0.0045183874 0.38908747 0.87031251 -0.30193865 0.0020929805
-0.026328884 0.03930904 -0.0039386866 0.36561418 0.88066888 -0.30124518 0.0020507101
0.035135277 0.039389618 -0.0039840918 -0.413353 0.85922867 -0.30143893 0.0018547582
0.037462138 0.040417619 -0.0046147094 -0.4681766 0.81831342 -0.33342743 0.0025076622
0.039758984 0.041570026 -0.0051629627 -0.49222684 0.80302316 -0.33595619 0.0025976002
0.071203493 0.040449362 -0.0045320243 0.88482642 -0.14474438 -0.44286713 0.0027882715
0.072015151 0.041632794 -0.0033622291 0.89663696 -0.16053218 -0.4126398 0.0056750993
-0.039368693 0.044992089 -0.0057431469 0.43308821 0.80752659 -0.40041906 0.0019499749
-0.037198186 0.044332813 -0.0046820166 0.45668966 0.83772767 -0.29941076 0.0018400917
-0.034513082 0.042987484 -0.0045452886 0.42271748 0.85449898 -0.30189654 0.0020854583
-0.032473985 0.04223026 -0.0037918717 0.41268724 0.85864258 -0.30401021 0.0020499059
0.040903714 0.042631608 -0.004208257 -0.49116749 0.81137419 -0.31690133 0.0017909864
0.043338615 0.044000972 -0.0046414225 -0.52103788 0.79597509 -0.30812848 0.0015217061
0.045427982 0.044782281 -0.0057967664 -0.48008502 0.7789281 -0.40347174 0.0036797705
0.071375594 0.043441046 -0.0048687686 0.87031484 -0.061158519 -0.48868373 0.0030420069
0.072154365 0.043756258 -0.0033721039 0.90454155 -0.082780346 -0.41827258 0.0031386607
-0.045008946 0.047907855 -0.0059298133 0.42828056 0.79804373 -0.42391279 0.0048165116
-0.042958975 0.047351133 -0.0049098125 0.45854586 0.81983089 -0.34294745 0.0023710898
-0.040510796 0.046197072 -0.0044730525 0.45395854 0.82900333 -0.3266117 0.0024029827
-0.038418766 0.045303255 -0.0038298704 0.44363615 0.84022063 -0.31179518 0.0020330644
0.044833802 0.045265928 -0.0039442847 -0.5004847 0.7953316 -0.34199828 0.0027170479
0.046599727 0.046138421 -0.004457877 -0.49996534 0.79368049 -0.34656316 0.0026329567
0.049225383 0.047391392 -0.0052628228 -0.45650131 0.75620037 -0.46879369 0.0014568885
0.071364291 0.046481859 -0.0049727373 0.84751707 0.016796846 -0.53050238 0.0034342415
0.072185479 0.046502158 -0.0035489185 0.88938218 -0.01358634 -0.45696259 0.003638475
-0.04892635 0.050480139 -0.0050359364 0.42044586 0.81886429 -0.39075127 0.002832209
-0.0465298 0.049457919 -0.0045185774 0.44121251 0.81476933 -0.3761414 0.0024462303
-0.044193741 0.048367877 -0.0040853946 0.44001991 0.83128178 -0.33963683 0.0018167767
0.050218668 0.048534997 -0.004220298 -0.4962844 0.77587789 -0.38950643 0.0019328602
0.052497007 0.049558997 -0.0051099174 -0.4537881 0.73644388 -0.50172377 0.0023132267
0.054805867 0.050707906 -0.0055360477 -0.41786703 0.72821027 -0.54322827 0.0029948484
0.07123521 0.049470335 -0.0049433876 0.81525266 0.064247414 -0.57553053 0.0042428267
0.072211199 0.049393151 -0.0034513732 0.86276305 0.022461917 -0.50510925 0.0040697274
-0.072811425 0.05363404 -0.0048566647 -0.34827626 0.17327233 -0.92123854 0.0046565444
-0.071088433 0.053128488 -0.0058770352 -0.23256433 0.30723175 -0.9227798 0.0032606556
-0.057653174 0.053688817 -0.0058519449 0.23660964 0.77113611 -0.59107107 0.0013226874
-0.055188555 0.05341224 -0.0049969428 0.32105741 0.83877945 -0.43973994 0.0043128026
-0.052533086 0.052504662 -0.0045861043 0.37449297 0.82074088 -0.43143883 0.0026297381
-0.050114259 0.051533293 -0.0040887087 0.41919988 0.82889885 -0.37040272 0.0039731306
0.053516526 0.051219523 -0.0031538205 -0.52793652 0.79871559 -0.28868043 0.0073969322
0.055856217 0.051638648 -0.0049797669 -0.40292737 0.73096418 -0.55076402 0.0014916926
0.058267023 0.053026695 -0.0049960022 -0.41574332 0.71190768 -0.56599027 0.0018121616
0.06057629 0.053672791 -0.0058085974 -0.3512277 0.62447566 -0.69761688 0.0025051795
0.070977964 0.052490849 -0.0048662615 0.75144964 0.08959011 -0.65367955 0.0069656926
0.072181195 0.052499264 -0.0033374578 0.81881493 0.038515553 -0.57276398 0.0052674734
-0.072708949 0.055810593 -0.004947864 -0.34995624 0.32925528 -0.87699574 0.02059151
-0.070106208 0.056263935 -0.0057118014 -0.077007413 0.44261318 -0.89339989 0.0088703865
-0.067440055 0.056584653 -0.0057743401 0.077285171 0.52448636 -0.84790391 0.005996984
-0.064276077 0.056238145 -0.0053810016 0.21130338 0.62304735 -0.75310224 0.0041648117
-0.06151427 0.055729616 -0.0046441373 0.30980515 0.7635358 -0.56659842 0.0074533164
-0.058587432 0.054844975 -0.0044158394 0.26705632 0.8383972 -0.47515363 0.0039162696
-0.055997893 0.054327112 -0.0038376662 0.32926688 0.86021882 -0.3893674 0.0029387074
0.05952223 0.054343883 -0.0042091026 -0.42859933 0.6805253 -0.59429622 0.0028020185
0.061517347 0.055268712 -0.0046729613 -0.37878108 0.63670939 -0.67165917 0.0042485306
0.064619757 0.056285441 -0.0055915392 -0.12435861 0.46386403 -0.87713462 0.010998662
0.067992322 0.056500956 -0.0058231819 0.13611282 0.34665665 -0.92806381 0.015326835
0.070626579 0.055475149 -0.0047672237 0.61145747 0.12458914 -0.78140724 0.01252582
0.072150759 0.055353928 -0.0032410808 0.81076831 0.024715716 -0.58484519 0.0092367763
-0.073271871 0.057715565 -0.0040973499 -0.29963976 0.47279441 -0.82866246 0.022881279
-0.070105195 0.058319062 -0.00481452 -0.027895125 0.63689852 -0.77044284 0.014146666
-0.06747105 0.058493972 -0.0044095432 0.15682326 0.66251892 -0.73244464 0.0095140822
-0.064708851 0.057889041 -0.0039509493 0.32598218 0.72344857 -0.60857034 0.0078314515
-0.062648565 0.057210345 -0.0034664534 0.37431717 0.7263431 -0.57646543 0.0058252052
0.062535651 0.057315499 -0.0033209119 -0.55259877 0.56999528 -0.60806257 0.0083821211
0.064738885 0.058213256 -0.0043655075 -0.35597923 0.4306064 -0.82937145 0.012431103
0.067736134 0.058460902 -0.0052420613 0.079984643 0.26622188 -0.96058756 0.016484147
0.070598155 0.05842929 -0.0044010901 0.48866254 0.11219787 -0.86522859 0.019771568
0.072180629 0.0588267 -0.0031533123 0.83172065 0.019371584 -0.55485636 0.033264894
-0.069282159 0.060020722 -0.0033812895 0.046426442 0.82092625 -0.56914377 0.021598885
-0.068488553 0.060134441 -0.0031314441 0.12927684 0.83433586 -0.53588367 0.023203738
0.065513805 0.060781758 -0.0034875227 -0.35369924 0.31406796 -0.88105512 0.0086463634
0.067829184 0.061369348 -0.0043850043 -0.0078988438 0.18141691 -0.98337454 0.01574293
0.070654601 0.061471436 -0.0040864381 0.39788342 0.052777268 -0.91591674 0.02309511
0.072253644 0.061590508 -0.0031424155 0.71574038 -0.037260167 -0.69737178 0.018465653
0.0681815 0.064352304 -0.0039235745 -0.052709524 0.061867297 -0.99669158 0.011582419
0.070675075 0.064476423 -0.0039780899 0.31889305 -0.027343208 -0.94739622 0.021850193
0.072362259 0.064638369 -0.0032872092 0.65461463 -0.087104678 -0.75092769 0.023843771
0.068192527 0.067264646 -0.0035243903 -0.27075979 0.04990378 -0.96135259 0.011173233
0.070773959 0.067467667 -0.0040135426 0.14429185 -0.0802688 -0.98627418 0.022616277
0.072768919 0.067685217 -0.003446094 0.56684041 -0.12892573 -0.81367689 0.016502494
0.068449333 0.070175782 -0.0033730213 -0.22670195 -0.01203627 -0.97388983 0.019137107
0.070756815 0.070467092 -0.0041984417 0.068314016 -0.1153419 -0.99097395 0.015117952
0.073349647 0.07062041 -0.0037239064 0.4370701 -0.20893107 -0.87482435 0.017363736
0.06876751 0.073422074 -0.0033887092 -0.55099833 0.19907697 -0.810413 0.037446715
0.070986815 0.073315702 -0.0044721887 -0.049242493 0.040442083 -0.99796772 0.038427483
0.0736605 0.073487282 -0.004362674 0.48132387 0.17425503 -0.85904747 0.08436919
0.075476579 0.073862776 -0.0034574543 0.71343005 0.0063538151 -0.70069772 0.0832166
0.068927042 0.076148011 -0.003326498 -0.35997477 0.60918456 -0.70662034 0.10259565
0.07074552 0.07614363 -0.0040389835 -0.051938314 0.71486902 -0.69732678 0.077897571
0.073366202 0.075543255 -0.0042735883 0.28202635 0.73833501 -0.61263573 0.060835689
0.075310238 0.075128324 -0.0033221107 0.56968319 0.71932387 -0.39753526 0.069037132
-0.0031190785 0.00083968235 -0.0029229135 -0.05997568 -0.9136036 -0.40215847 0.00092798279
0.0018916823 0.00055263448 -0.0027458426 -0.025812861 -0.91615647 -0.3999888 0.00083369052
0.013783726 0.0010241438 -0.0022803675 0.13369231 -0.9529193 -0.27216014 0.0020625058
0.015913967 0.001184118 -0.0013148754 0.14454779 -0.96113056 -0.23523159 0.00098657026
0.018920664 0.001686474 -0.0018013221 0.16991131 -0.96516216 -0.19897781 0.00075218262
0.022511613 0.0025006006 -0.0023935214 0.21104762 -0.94184548 -0.26150718 0.0012718155
0.024598511 0.0028504599 -0.0017156042 0.22826789 -0.95870328 -0.16965188 0.0012480104
0.026070494 0.0033570232 -0.0025427006 0.24503995 -0.93940943 -0.23971917 0.00093402725
0.028549939 0.0038920818 -0.001532488 0.28365141 -0.94381964 -0.16954754 0.0013991902
0.031370528 0.0047358484 -0.0016456092 0.30088538 -0.94628757 -0.11835452 0.0011786665
0.034089863 0.0056810277 -0.0015938348 0.33512288 -0.93394923 -0.12422379 0.0014269403
0.035086598 0.0060363961 -0.0019147465 0.35031548 -0.92748123 -0.13060528 0.0015185085
0.037488632 0.0069718021 -0.0016871775 0.36331886 -0.92393082 -0.11979704 0.0011645714
0.040256295 0.0080969417 -0.0014167047 0.38012302 -0.91764706 -0.11588985 0.0015352725
0.042487174 0.0089849886 -0.0006886046 0.41144866 -0.90408528 -0.11549822 0.0017713667
0.0418633 0.0090594897 -0.0028834289 0.42988327 -0.89503336 -0.11880969 0.001776684
