# .PCD v0.7 - Point Cloud Data file format
VERSION 0.7
FIELDS x y z normal_x normal_y normal_z curvature
SIZE 4 4 4 4 4 4 4
TYPE F F F F F F F
COUNT 1 1 1 1 1 1 1
WIDTH 562
HEIGHT 1
VIEWPOINT 0 0 0 1 0 0 0
POINTS 562
DATA ascii
-0.024881685 0.0057327496 -0.0014876949 -0.34941256 -0.91859806 -0.1846306 0.00057487295
-0.022505075 0.0048351856 -0.0016236403 -0.32690617 -0.92592031 -0.18921928 0.00040113059
-0.019594384 0.0038098795 -0.0016104889 -0.29225668 -0.94125408 -0.16919488 0.00052827009
-0.017439218 0.0032399981 -0.0018376135 -0.27538297 -0.94738615 -0.1631678 0.00070626847
0.025862558 0.0032252523 -0.0018374665 0.24551424 -0.96447355 -0.097537048 0.0023956189
0.028467759 0.0039410931 -0.0014552933 0.27852288 -0.95732778 -0.077126712 0.0014534596
0.031667434 0.0049388167 -0.0017829282 0.25504953 -0.96674651 0.018729953 0.0052337181
0.033836782 0.0056526395 -0.0015140802 0.31880248 -0.94452238 -0.079009101 0.0015039823
-0.033141986 0.0089211185 -0.000385786 -0.35774398 -0.90736723 -0.22068973 0.0038108213
-0.031446021 0.0083759381 -0.001549877 -0.37984845 -0.90022522 -0.21286084 0.00067238952
-0.028500933 0.007147396 -0.0016173052 -0.3555631 -0.91022223 -0.21229815 0.00092653884
-0.026313588 0.0063047386 -0.0017251112 -0.35681146 -0.91278011 -0.19879137 0.00079147721
0.035413988 0.0062857233 -0.0017894212 0.35544246 -0.93145508 -0.077795044 0.0016651863
0.037465394 0.0070715472 -0.0018009968 0.37474689 -0.92503005 -0.062323019 0.00093251979
0.040337101 0.0082604419 -0.0015943062 0.40385926 -0.91367364 -0.045806274 0.0012758091
-0.039163586 0.01183268 -0.00072069868 -0.44042873 -0.86158222 -0.25238568 0.0030749489
-0.037553526 0.011134912 -0.0016220077 -0.43049157 -0.87307185 -0.22895965 0.0016619476
-0.034563154 0.009696966 -0.0015930183 -0.39008236 -0.88937503 -0.23842779 0.0016821243
-0.032860391 0.0090448493 -0.0022790513 -0.38586438 -0.89555234 -0.22157319 0.0020010194
0.041778792 0.0090411548 -0.0024607815 0.41172287 -0.90880597 -0.067498304 0.001338499
0.043603338 0.0097969584 -0.0015354073 0.44860372 -0.89161646 -0.061439317 0.00089606247
0.046395365 0.011183433 -0.0011934822 0.46721941 -0.88383889 -0.023126597 0.0018899187
-0.043202277 0.014169536 -0.001440426 -0.5100168 -0.83500731 -0.20650803 0.0024196371
-0.040550075 0.012709776 -0.0015649629 -0.45445928 -0.85778141 -0.24016201 0.001895151
0.047446575 0.012082355 -0.0026934387 0.4829914 -0.87557584 -0.0092878118 0.00063568068
0.049561955 0.013004554 -0.0012152009 0.50559187 -0.86276299 -0.0041020121 0.0018977686
0.051858563 0.014297905 -0.0015797652 0.52897656 -0.84155566 -0.10939789 0.0014356227
-0.048369773 0.01773677 -0.0014029994 -0.57582158 -0.78572434 -0.22597961 0.0018349629
-0.046476275 0.016433816 -0.0015492295 -0.5497812 -0.80216569 -0.23296095 0.0025075767
-0.044630993 0.015183601 -0.0018585615 -0.55551803 -0.79888457 -0.23061486 0.0024679452
0.053435985 0.01546714 -0.0022780546 0.5557524 -0.80771929 -0.1967966 0.00078427792
0.055371828 0.016779529 -0.0020106812 0.57310665 -0.79307187 -0.20636326 0.00043727495
0.057021085 0.017736707 -0.00062662968 0.57311285 -0.79306853 -0.20635906 0.00042646963
-0.051875897 0.020331694 -0.0014445246 -0.59291995 -0.78084177 -0.19680455 0.0013586334
-0.04988952 0.018866798 -0.0016283783 -0.57712954 -0.78316414 -0.23146373 0.0017289913
0.058451574 0.019032501 -0.0018305089 0.60067409 -0.76111907 -0.2447211 0.0014000649
-0.055238221 0.02290808 -0.0015140389 -0.60576922 -0.7726385 -0.18993013 0.00076119544
-0.053328708 0.0214625 -0.0017545021 -0.60150558 -0.77091789 -0.20946765 0.0014579601
-0.060135145 0.026830809 -0.0008778724 -0.68158823 -0.70787531 -0.18533786 0.00061742449
-0.058443569 0.025553733 -0.0015649858 -0.64235151 -0.74090284 -0.19608033 0.00048363829
-0.056715734 0.024182387 -0.0020176293 -0.62862748 -0.75170594 -0.19941325 0.00063395716
-0.063097909 0.029917814 -0.0012712202 -0.73488092 -0.65862292 -0.16175883 0.0011463945
-0.06163216 0.028661003 -0.0018595411 -0.72454661 -0.66894799 -0.16595413 0.001348524
-0.059987824 0.02724928 -0.0024396479 -0.68012053 -0.70985377 -0.18314965 0.00083869731
-0.064538404 0.031791452 -0.0014905507 -0.76756489 -0.62630624 -0.13632558 0.0015781038
-0.062880479 0.030195087 -0.0026323933 -0.73412722 -0.65405095 -0.18241313 0.001444208
-0.0030481494 0.032997452 -0.0026259855 0.088616155 0.98833346 -0.12387188 0.0019924033
-0.00090587884 0.032910988 -0.0024512927 0.099779651 0.98117316 -0.16535796 0.001379302
0.0016063771 0.032828733 -0.0017245386 0.066072986 0.98570812 -0.15496419 0.0025499885
0.0044659884 0.032791734 -0.0013803983 0.016777841 0.986013 -0.16582192 0.0022007702
0.0077836937 0.032768164 -0.0020084002 -0.044228975 0.9824248 -0.18134318 0.0040016887
0.010252042 0.032900445 -0.0022625113 -0.10135525 0.98233598 -0.1572993 0.0021294481
0.012370682 0.03294098 -0.0026247383 -0.11152602 0.98511082 -0.13083872 0.0022854998
-0.066956677 0.034843881 -0.0015714482 -0.80700922 -0.57775551 -0.12220789 0.0025874346
-0.065748818 0.033331834 -0.0017369736 -0.78114033 -0.60742986 -0.14439103 0.0017863145
-0.015622791 0.035833783 -0.0017852494 0.30525309 0.94771135 -0.093079165 0.0018550825
-0.013628751 0.035311393 -0.0015511225 0.26886675 0.95262402 -0.14219104 0.0016899643
-0.010371776 0.034430493 -0.0017573576 0.21180716 0.96122068 -0.17661412 0.0028622816
-0.0075314254 0.033912748 -0.0015036135 0.1647191 0.97396427 -0.15576032 0.0021549182
-0.0044818697 0.033460766 -0.0014329616 0.1304938 0.98103803 -0.14330287 0.0017446704
-0.0018335583 0.03320621 -0.00094193436 0.094340973 0.9894594 -0.10986295 0.0027537041
0.00093772094 0.033053137 -0.00045102893 0.04604559 0.99839753 -0.032896146 0.0019946033
0.0037546644 0.033007324 -0.00013000445 0.016591838 0.99985629 -0.0034891411 0.00092373264
0.0085548498 0.03302148 -0.00023428512 -0.033139989 0.99930322 -0.017172236 0.002054475
0.010906943 0.033110052 -0.0010085434 -0.089071214 0.99510783 -0.042740203 0.0025017147
0.01362873 0.033378277 -0.001522263 -0.13850902 0.98159015 -0.13151449 0.0023116781
0.016525192 0.033868786 -0.0016314045 -0.19685161 0.97206146 -0.12785143 0.0028483297
0.01951305 0.034592353 -0.0015453361 -0.26105648 0.95987993 -0.10237211 0.0014522462
0.022382565 0.03541249 -0.00138647 -0.2726593 0.96038473 -0.057602912 0.0015346198
0.024390595 0.035910271 -0.0019430404 -0.30667138 0.94725442 -0.093068339 0.0018066902
-0.069415919 0.038454171 -0.0014985912 -0.85264367 -0.50514305 -0.13352659 0.0038460137
-0.068456948 0.037005205 -0.0016087642 -0.82946992 -0.54666275 -0.11462769 0.0027570238
-0.024362648 0.038842544 -0.0020742561 0.40224293 0.91053802 -0.095504448 0.0017272303
-0.022518465 0.038154263 -0.0015136941 0.36938018 0.92368001 -0.10185074 0.0016545267
-0.019425819 0.036990978 -0.0014824262 0.31055143 0.94175994 -0.12901971 0.0032821731
-0.017022604 0.03630396 -0.0013318424 0.27266869 0.95819712 -0.086660765 0.0019034762
0.023806751 0.036006298 -0.00013144298 -0.25355673 0.9670797 -0.021585731 0.0041790153
0.02575919 0.036380533 -0.0014049178 -0.28594652 0.95404071 -0.089671053 0.0019753706
0.028477201 0.037293624 -0.0013349649 -0.31197652 0.94577914 -0.090401389 0.0019613551
0.031585865 0.038371913 -0.0016247691 -0.36559573 0.92800611 -0.071724854 0.0027710858
0.033228654 0.03891205 -0.0022749666 -0.42606771 0.89841735 -0.10636014 0.0023439389
-0.070587695 0.040413935 -0.0014960541 -0.89061189 -0.44582373 -0.08973103 0.0032398792
-0.030683266 0.041674517 -0.0016415978 0.44986725 0.88672239 -0.10650267 0.0023488426
-0.028528595 0.04065004 -0.0015658096 0.40831101 0.9080565 -0.093357436 0.0020438586
-0.02570504 0.039493136 -0.0013766037 0.37184003 0.92357969 -0.093464293 0.0019587816
0.032789052 0.039028831 -0.00083911204 -0.38989371 0.91948569 -0.050289374 0.0032670596
0.034576304 0.039728478 -0.0015570669 -0.43914485 0.8946234 -0.08246696 0.0025880623
0.037308689 0.041150954 -0.0015556798 -0.48997641 0.86534828 -0.10533525 0.0024019105
0.039114051 0.041947961 -0.0022078459 -0.52769655 0.8424269 -0.10887348 0.0029818518
-0.072362371 0.044368971 -0.0012028943 -0.93617445 -0.3435607 -0.074454211 0.005664554
-0.071685493 0.04284345 -0.0014378397 -0.91726649 -0.38833392 -0.088424563 0.0049611456
-0.036587961 0.044673696 -0.0016750144 0.47549909 0.87260979 -0.11159177 0.0025875936
-0.034431629 0.043603059 -0.0014923101 0.44793543 0.89143622 -0.068522483 0.0011657627
-0.032081813 0.042424966 -0.0013657347 0.43680561 0.89709371 -0.066510707 0.0015928317
0.038767964 0.042165082 -0.0008303842 -0.52382731 0.84564352 -0.10243024 0.0023635086
0.040503882 0.043117549 -0.0014796051 -0.51572794 0.85059685 -0.10251716 0.0024107727
0.042664796 0.044498794 -0.0015976613 -0.54389274 0.83551395 -0.078084007 0.0021539703
-0.073094487 0.046556674 -0.0013390313 -0.94214821 -0.32142523 -0.095092595 0.0075437827
-0.042378958 0.04783579 -0.0019698814 0.49641824 0.8609643 -0.11094788 0.0022404268
-0.040506184 0.046841852 -0.001546473 0.48154476 0.8704257 -0.10234191 0.0024385785
-0.038062513 0.045480907 -0.0014564422 0.46517366 0.87671018 -0.12244499 0.0028833924
0.044148166 0.04549516 -0.0014374964 -0.53926837 0.83745831 -0.088618942 0.0026442655
0.046397731 0.046980809 -0.0015692847 -0.55920005 0.82228553 -0.10555436 0.002927847
0.048151776 0.04791832 -0.0024143888 -0.54248619 0.82457906 -0.16055562 0.0035111774
-0.075104654 0.050796658 -0.00062172685 -0.91737801 -0.36146623 -0.16661245 0.029821984
-0.074093632 0.0493504 -0.0013874298 -0.92083079 -0.35933262 -0.15149483 0.010270891
-0.04814117 0.050921481 -0.0025058128 0.46414563 0.87799561 -0.11701506 0.0026664631
-0.04639988 0.050165921 -0.0014571745 0.47924662 0.87089813 -0.1088996 0.0028395457
-0.043737747 0.048686977 -0.0013617459 0.47765997 0.8741051 -0.088211074 0.0029250556
0.047865849 0.048173193 -0.00075448042 -0.56547868 0.81858915 -0.10072599 0.0029865631
0.049508028 0.049082093 -0.0014915043 -0.53306675 0.83787662 -0.11748502 0.0031520182
0.051650889 0.050502285 -0.0016054983 -0.55255234 0.82847524 -0.091184765 0.0031575609
-0.075613506 0.052840069 -0.0013091675 -0.9323203 -0.22854435 -0.28026125 0.01907362
-0.074702166 0.051560171 -0.0023340569 -0.87920612 -0.31358585 -0.35869294 0.012281468
-0.054271236 0.053880095 -0.0025917601 0.37408316 0.91033602 -0.17705944 0.006283192
-0.052420121 0.053355128 -0.0016754015 0.40268108 0.90403754 -0.14340156 0.0036839652
-0.049486183 0.051836394 -0.0018544979 0.44967166 0.87452352 -0.18166989 0.0023591123
-0.047717258 0.051112514 -0.00025816957 0.46217039 0.88192803 -0.092744425 0.004047005
0.053175539 0.0515492 -0.0013873503 -0.53644133 0.83467591 -0.12468714 0.0052996147
0.055488065 0.053027671 -0.0015180589 -0.54613352 0.82862681 -0.12294666 0.0052223825
0.057241678 0.053798407 -0.0025782632 -0.56084967 0.79011315 -0.24732333 0.0072048972
-0.076068498 0.055752974 -0.0014086163 -0.9502843 0.19387478 -0.24366447 0.037152927
-0.060462914 0.056743599 -0.001552247 0.49183127 0.86057407 -0.13234146 0.009705591
-0.05847808 0.055856369 -0.0016606164 0.39347193 0.89462352 -0.21172778 0.0061442251
-0.055409871 0.054612659 -0.001624172 0.34514457 0.91801196 -0.19526723 0.0040776571
-0.053713068 0.054091673 -0.00065847259 0.37963748 0.91551328 -0.13308239 0.0046285256
0.056905285 0.054204531 -0.00083600183 -0.57298779 0.81567591 -0.079735771 0.009257528
0.058570385 0.055173922 -0.001531285 -0.56177479 0.81010062 -0.16776817 0.0079210503
0.060656503 0.056597456 -0.0019454703 -0.6648947 0.71476406 -0.21685788 0.011859318
0.07271947 0.055144403 -0.0026064315 0.589414 0.14985047 -0.79381114 0.0087057268
-0.075368874 0.057295199 -0.001517997 -0.78835458 0.57413781 -0.22104959 0.051199958
-0.073598512 0.0583448 -0.0015805116 -0.53853285 0.81288201 -0.22182247 0.016220236
-0.071174502 0.059603702 -0.0010742928 -0.35940593 0.93079418 -0.066705696 0.0076249186
-0.066374771 0.059749443 -0.0026527112 0.26950133 0.88952559 -0.36893529 0.01761757
-0.064297684 0.0591444 -0.0015911993 0.45615849 0.85018235 -0.26288643 0.0070248926
-0.061761845 0.057572741 -0.0014528967 0.47139773 0.85081375 -0.23216428 0.0083097536
0.062030267 0.058343746 -0.0012590516 -0.77616179 0.61624229 -0.13348503 0.01872281
0.063365526 0.059509259 -0.0021953152 -0.75909621 0.59979749 -0.25301367 0.022234553
0.072358504 0.057340574 -0.0029960386 0.47571543 0.070999987 -0.87672907 0.014355068
-0.06968163 0.060298186 -0.0015443568 -0.20090857 0.97588086 -0.085395001 0.02059193
-0.067634597 0.060604729 -0.0015840095 0.054964799 0.97793704 -0.20153904 0.022738855
-0.065720297 0.060156334 -0.0011240647 0.28673026 0.9435026 -0.16609822 0.0226664
0.062877499 0.060099065 -0.00070448214 -0.83988363 0.49233502 0.228477 0.011977327
0.064086124 0.0615087 -0.0014021723 -0.86993384 0.43925565 -0.22420894 0.023197334
0.073164687 0.06090435 -0.0025340398 0.25357929 0.16587849 -0.95298582 0.016546365
0.065048806 0.064406417 -0.0012942823 -0.9433707 0.27523661 -0.18519302 0.02050763
0.0661771 0.065335803 -0.0027281893 -0.88562083 0.20391314 -0.41724712 0.017918408
0.073322758 0.064133897 -0.0026374874 0.35120744 -0.034299944 -0.93566918 0.0082685323
0.065592907 0.067221761 -0.00090932177 -0.96193606 0.22370712 -0.15695278 0.028782018
0.066401899 0.067655683 -0.002303262 -0.93480742 0.24051164 -0.26132247 0.028674865
0.074252188 0.067800991 -0.0026522968 0.40781978 -0.10678328 -0.90679681 0.0085952813
0.065869831 0.069368094 -0.00064622459 -0.97034091 0.22772333 0.081121258 0.033061422
0.066674002 0.070623606 -0.0014724392 -0.95246881 0.20332918 -0.22684927 0.021332977
0.074905835 0.069870301 -0.002515025 0.58680564 -0.21555182 -0.78051043 0.0019962301
0.075368159 0.070575625 -0.0023766854 0.43734366 -0.20897734 -0.87467653 0.013540976
0.067151196 0.073543794 -0.0014715047 -0.96269631 0.19769013 -0.18475491 0.025390703
0.076258689 0.074349441 -0.0014912675 0.39903083 0.86096644 -0.31545386 0.0088073835
0.067672841 0.076278001 -0.0014231298 -0.92208505 0.37118959 -0.10944173 0.056762613
0.070464112 0.076658182 -0.001343089 -0.088881873 0.96608734 -0.24243614 0.063939556
0.073512554 0.075727172 -0.0015574315 0.2697438 0.96096718 -0.061484866 0.0063878209
0.075429231 0.07513804 -0.0015692567 0.35463709 0.924492 -0.13981068 0.03780634
-0.018508291 0.0029023902 0.0023062213 -0.24954277 -0.96816295 0.019719031 0.0076231719
-0.016672164 0.002573106 0.001756591 -0.23269519 -0.970909 0.056469064 0.0045681032
-0.013773436 0.0019547422 0.001720547 -0.2061296 -0.97646421 0.063468799 0.0015370898
-0.010447432 0.0013860018 0.0014509311 -0.14836019 -0.98325497 0.10582504 0.0046144878
-0.007372472 0.0010091922 0.0014107969 -0.12291685 -0.98580915 0.11433216 0.0039253687
-0.004656177 0.00068960234 0.0016709811 -0.079240873 -0.97423393 0.21116142 0.0046364428
-0.0015607498 0.00048944115 0.0014845543 -0.040146776 -0.98780513 0.15043035 0.0044139852
0.0014467087 0.00038148303 0.0013935004 -0.013191099 -0.99227142 0.12338344 0.0048965081
0.0045834808 0.00041110412 0.001731578 0.031633798 -0.97600055 0.21545818 0.0047206786
0.0072869221 0.000494993 0.001573122 0.047224239 -0.97708952 0.20752311 0.0045772474
0.010651588 0.00072281831 0.001847837 0.078956679 -0.96703106 0.24210912 0.0047224509
0.013471858 0.00099519198 0.0017190707 0.10816357 -0.9666118 0.23229796 0.003871676
0.0165272 0.0013910716 0.0016270888 0.13707559 -0.97276312 0.1869283 0.0036356458
0.019306784 0.0017722677 0.001317487 0.17483802 -0.97264647 0.15293953 0.00343728
0.022436973 0.0025585033 0.0019560005 0.19478472 -0.95438576 0.2262892 0.002930053
0.024574811 0.0028510753 0.00096724881 0.21690549 -0.96653605 0.13696739 0.0033276023
-0.027616547 0.005767582 0.0021146866 -0.33596358 -0.93822455 -0.082843848 0.0098191146
-0.025102783 0.0051286346 0.0018110822 -0.30499026 -0.95176536 -0.033520654 0.0033900719
-0.022498017 0.0042859791 0.0016800119 -0.31488365 -0.94905639 0.011840019 0.0022527599
-0.01954565 0.0033697337 0.0016380602 -0.28811777 -0.95741034 0.018806577 0.0023463634
-0.017855458 0.0031670039 0.00038773019 -0.23931545 -0.96742272 -0.08259201 0.0019884589
0.025386732 0.0031921784 0.0019728616 0.22826821 -0.94737262 0.22445208 0.0035129483
0.028511293 0.0039786268 0.0014902363 0.27514294 -0.95454979 0.11459123 0.0023820549
0.031239528 0.0047944523 0.0015077165 0.30107319 -0.9444468 0.131815 0.0025739677
0.033846319 0.0056297923 0.0010930707 0.32502186 -0.94070506 0.097132668 0.0023593039
-0.036117274 0.0089160353 0.0022601488 -0.38678408 -0.91403836 -0.12219635 0.015728394
-0.034370027 0.0084082307 0.0020221465 -0.37248582 -0.92726803 -0.037792929 0.0070423544
-0.031379454 0.0074866638 0.0016759597 -0.36809891 -0.92841142 -0.050550479 0.0037079435
-0.02874624 0.0066672838 0.0011823663 -0.36551267 -0.91770357 -0.15562987 0.0041171554
-0.026589192 0.0061945077 0.0004854117 -0.3266305 -0.93326968 -0.14939962 0.0038587027
0.035423003 0.0062364014 0.0011298872 0.36053625 -0.92799217 0.094043575 0.0023104711
0.037483945 0.0070863944 0.0016041994 0.36530235 -0.92692316 0.085834548 0.0019754851
0.040319271 0.0082601402 0.0014329086 0.41375893 -0.90815854 0.06365262 0.0019133381
0.042148087 0.0089787738 0.00075155229 0.43259612 -0.9012813 0.023508031 0.0010076138
-0.042171713 0.011899985 0.0023577514 -0.43563455 -0.88872916 -0.14276929 0.014342576
-0.03998208 0.011115514 0.0020056348 -0.43456927 -0.89741105 -0.076177135 0.0089110071
-0.037484717 0.010080925 0.0016745117 -0.45127988 -0.88746381 -0.093564868 0.0044015544
-0.034932561 0.0095123071 0.0006159367 -0.39723724 -0.89166176 -0.21712187 0.0037648289
0.041952845 0.0091065131 0.0020346954 0.42720607 -0.90182883 0.064805396 0.0018028056
0.044129517 0.010135098 0.001735285 0.44028634 -0.87869531 0.18450594 0.00125652
0.046207227 0.011150534 0.0015277808 0.46120149 -0.88245344 0.092569128 0.0013118623
0.048021674 0.011981502 0.00052175007 0.48344737 -0.8739115 -0.050569907 0.001311639
-0.045800351 0.014393222 0.0020873058 -0.56336874 -0.81122571 -0.15661599 0.0094625344
-0.043556139 0.013424912 0.0013924404 -0.52684021 -0.81743884 -0.23288001 0.0076313978
-0.040977906 0.012540862 0.00066174375 -0.44925141 -0.85691828 -0.25271389 0.0053497762
0.047576703 0.012058575 0.0025237326 0.48220322 -0.87112147 0.092884131 0.0013189502
0.049532183 0.013050281 0.0014212159 0.49509028 -0.86859012 0.020900548 0.0024560988
0.05169943 0.0144581 0.001511953 0.53653985 -0.82899821 0.15775567 0.0010697595
-0.051235616 0.017888786 0.0028812059 -0.55770332 -0.82430327 -0.097422726 0.014807191
-0.049240317 0.017030301 0.0018221606 -0.55680066 -0.80470943 -0.20595078 0.0081365742
-0.0468008 0.015899548 0.0010933096 -0.56066847 -0.79853332 -0.2190782 0.0052511543
-0.044772018 0.015088022 0.00054705399 -0.54292953 -0.80297571 -0.24588102 0.0056177736
0.053517364 0.015820481 0.0022359432 0.53491515 -0.79667783 0.28137222 0.0018276331
0.055579565 0.017113287 0.0011820956 0.58078951 -0.782004 0.2261712 0.00023904911
-0.054467048 0.020591494 0.0024508995 -0.62845701 -0.75121003 -0.20180494 0.0073985648
-0.052344318 0.01961308 0.0015975477 -0.59550071 -0.76041418 -0.25913137 0.0066907303
-0.05013895 0.018633524 0.00075977517 -0.58858287 -0.76115531 -0.27242011 0.0040837154
0.058196701 0.019117413 0.0013883105 0.57893187 -0.75356746 0.3114064 0.001792063
-0.057589412 0.023515137 0.0022948768 -0.68074912 -0.72285771 -0.11856413 0.0046212273
-0.055661656 0.022439457 0.0014067108 -0.62523484 -0.74525803 -0.23167165 0.0048433212
-0.053593688 0.021345921 0.0007327082 -0.58176869 -0.77652842 -0.24196871 0.004543663
-0.060409494 0.026434183 0.0020836375 -0.7281357 -0.66866851 -0.15066752 0.0024456207
-0.05883171 0.025026051 0.0017796179 -0.6898663 -0.71599823 -0.10691629 0.001620397
-0.056821808 0.02408383 0.00052871194 -0.61437744 -0.75864023 -0.21680753 0.0026466602
-0.063183419 0.0296022 0.0021822448 -0.76342541 -0.63752013 -0.10368136 0.0011907517
-0.061747052 0.028189871 0.0016264854 -0.73966706 -0.65875232 -0.13761549 0.00092090369
-0.064664476 0.031582404 0.0015404639 -0.78576219 -0.61505246 -0.065484352 0.001306041
-0.062934242 0.030002473 0.00098629599 -0.75774759 -0.64030427 -0.12581344 0.00086708961
-0.00082489534 0.032918848 0.0025949157 0.090853006 0.97311914 0.21162438 0.0026837215
0.001697751 0.032862544 0.0017987946 0.074085683 0.98253089 0.17071716 0.0038942271
0.0044885254 0.032831643 0.0014436597 0.020642908 0.9861986 0.16427471 0.0034685284
0.0078076413 0.032791961 0.0019863769 -0.075941101 0.98175669 0.17431819 0.0059718327
0.010277522 0.032894854 0.0024365869 -0.096018054 0.97684753 0.19117904 0.0035157928
0.012350207 0.032954864 0.0027831406 -0.14649385 0.97347158 0.17576288 0.0028405464
-0.067067392 0.034724299 0.0015583971 -0.82813603 -0.55710977 0.061800487 0.0015847444
-0.065879144 0.033223517 0.0014239814 -0.80618316 -0.59151059 -0.013561741 0.0013056612
-0.015640188 0.035846449 0.0020907978 0.29763409 0.94161308 0.15741287 0.0031724267
-0.013483377 0.03529425 0.0015061088 0.27675456 0.95567566 0.10045421 0.0030987388
-0.01041845 0.034510408 0.0016110701 0.21501236 0.95709115 0.19428404 0.0043892283
-0.0074177482 0.033984441 0.0016716251 0.15754977 0.97159636 0.17657478 0.0041646184
-0.0044830102 0.033502135 0.0016895097 0.12663782 0.97917914 0.15865357 0.0034629151
-0.0015607646 0.03317523 0.0011775634 0.081847936 0.99410534 0.071101077 0.005369137
0.00068783783 0.033050437 0.00059035863 0.051604141 0.99698222 0.05799558 0.0044201324
0.0087726265 0.033029273 0.00088493235 -0.10606655 0.99306965 0.050621431 0.0041488097
0.010814567 0.033123575 0.0010205815 -0.083831593 0.99421364 0.067167252 0.0050353664
0.013543693 0.033400461 0.0014880676 -0.12910908 0.98147255 0.14157131 0.0038999121
0.016478391 0.033906166 0.0015232285 -0.19148299 0.96988004 0.15055549 0.0042393021
0.019598356 0.034668215 0.0014543821 -0.25944903 0.95958894 0.10897327 0.0028336665
0.022690799 0.035526045 0.0013340947 -0.27258882 0.95833164 0.085415781 0.0027182852
0.024294546 0.035917487 0.0021261645 -0.30746549 0.94352043 0.12342691 0.0035450952
-0.069463082 0.038375612 0.0012829019 -0.86814773 -0.48968187 0.080815382 0.0034387591
-0.068440504 0.036796506 0.0015774771 -0.84421837 -0.53378916 0.048626091 0.0015924722
-0.024420638 0.038890317 0.0022638771 0.41273683 0.90363467 0.11442319 0.0036573811
-0.022448484 0.038143001 0.0017533458 0.36368081 0.92057335 0.14241095 0.0023968765
-0.019360434 0.037008561 0.0016258683 0.30404568 0.93662792 0.17402393 0.0041144146
-0.016992077 0.036305986 0.0016184386 0.27478498 0.95115429 0.14070781 0.0028706498
0.025695065 0.036419824 0.0012653045 -0.288553 0.95376337 0.084099025 0.003367723
0.028430667 0.037293166 0.0013697299 -0.31341615 0.9419083 0.12074342 0.0031769986
0.031575933 0.038407817 0.0014309702 -0.37030882 0.92446697 0.090731859 0.0034628054
0.033082873 0.038883362 0.0024842087 -0.40831122 0.90114564 0.14566568 0.0052629346
-0.070524737 0.040357418 0.0016064729 -0.89456493 -0.43781787 0.089827813 0.0029540637
-0.030662486 0.041718084 0.0016625701 0.46674019 0.87861919 0.10090586 0.0033421377
-0.028457504 0.040678244 0.0015349091 0.40220046 0.91165149 0.084417447 0.0030262803
-0.025928149 0.039615147 0.0015093597 0.3704915 0.91878206 0.13629179 0.0027434961
0.032869555 0.039052643 0.00090337964 -0.40689582 0.91308719 0.026601268 0.0028915324
0.034558289 0.039768204 0.0013280381 -0.43199638 0.89634079 0.099761784 0.0031906534
0.037351295 0.041186802 0.0014327409 -0.4878878 0.86592346 0.11019075 0.002876322
0.039127093 0.041935541 0.0024304574 -0.48976439 0.86500955 0.1090386 0.0043183812
-0.072238997 0.044313934 0.0012402226 -0.93535912 -0.33335292 0.11823338 0.0045891581
-0.071633473 0.042877197 0.0016637271 -0.91611218 -0.38363025 0.11647464 0.0041670366
-0.036551304 0.044698365 0.0017005665 0.47961617 0.86997139 0.11453419 0.00393327
-0.03448895 0.043668672 0.0015899487 0.4466877 0.88900423 0.10070573 0.003365709
-0.032234546 0.042504005 0.0017128059 0.44119436 0.88224804 0.16427401 0.0034956778
0.038833082 0.042187497 0.00060063048 -0.52016109 0.85157257 0.065242693 0.0040684352
0.040544108 0.04311689 0.0013694268 -0.52194464 0.84553277 0.11246376 0.0027845036
0.042702228 0.044477858 0.0016155243 -0.55138189 0.82832986 0.099235058 0.0021358151
-0.072945796 0.046482068 0.0014567735 -0.93519694 -0.30489933 0.18011983 0.0064075831
-0.042385701 0.04778856 0.0020904206 0.49637777 0.86125308 0.10886753 0.0036035057
-0.040506054 0.046898704 0.0014090654 0.47821048 0.87302154 0.095646083 0.0034843385
-0.038017333 0.045504332 0.0014558379 0.4544192 0.88406861 0.10920591 0.0038837502
0.044229195 0.045509025 0.0014191906 -0.53648853 0.83761591 0.10285738 0.0030323165
0.046455152 0.046996243 0.0014156607 -0.55216211 0.82552499 0.11672827 0.0034841867
0.048123393 0.04783069 0.0023441468 -0.5222128 0.83765191 0.16010325 0.0046753627
-0.075117581 0.050886407 0.00021793117 -0.90319568 -0.36350486 0.22825807 0.010078015
-0.073981792 0.049390953 0.0014997317 -0.90945405 -0.36533472 0.19855471 0.0095516415
-0.048139937 0.050856307 0.0023844494 0.45650387 0.87158358 0.17873533 0.0050963387
-0.046337873 0.050084941 0.001846133 0.48360705 0.85789859 0.17359234 0.0025488895
-0.043646932 0.048679307 0.0012806203 0.47772801 0.87301517 0.098083794 0.0033634137
0.04787299 0.048155457 0.00046273484 -0.53428978 0.84107691 0.084405012 0.0061174314
0.049521096 0.049054474 0.0014029511 -0.5327338 0.83632672 0.12943068 0.0032762168
0.051723629 0.050500385 0.0015466551 -0.56280273 0.81856704 0.11489594 0.0032897829
-0.075620703 0.052880764 0.0012831617 -0.935956 -0.24530999 0.25260523 0.012025569
-0.074730434 0.051722098 0.0023799688 -0.86716878 -0.30847013 0.39097875 0.0095028505
-0.054308195 0.053830683 0.0026538065 0.36160374 0.88371181 0.29714674 0.0050325147
-0.052512717 0.053416621 0.0016090969 0.40800753 0.89362752 0.18697505 0.0029841249
-0.049580686 0.051869113 0.0017161028 0.44142565 0.88080996 0.17122258 0.0028796471
-0.047690853 0.051053856 0.00099071313 0.47266841 0.87577242 0.09801662 0.0045244377
0.053154092 0.05149655 0.0012932374 -0.53171605 0.83731478 0.12720867 0.0043583121
0.055391572 0.052915655 0.0015364108 -0.53820968 0.82235885 0.18454367 0.0047886809
0.057220135 0.053790715 0.0025338919 -0.54213178 0.7937181 0.2758708 0.0084077204
-0.076057881 0.055757821 0.0013828591 -0.91795194 0.26854485 0.29197228 0.03191983
-0.060591727 0.056657989 0.0019185269 0.47372845 0.84033859 0.26346251 0.0068842433
-0.058465768 0.055779647 0.0016417674 0.39015809 0.89628232 0.21084242 0.0053299768
-0.055734359 0.054704178 0.0015664019 0.3503879 0.91635805 0.19369076 0.0045584287
-0.053834479 0.054148931 0.00094823708 0.38717031 0.91926479 0.071073405 0.0081261033
0.056876186 0.054203499 0.00073168165 -0.56658578 0.8039583 0.18064204 0.0068029258
0.058640212 0.055204619 0.0014323973 -0.55540037 0.80708218 0.20037138 0.0069839633
0.060674574 0.056584258 0.0018982554 -0.66093749 0.7099427 0.24319346 0.011393066
0.072124645 0.055923443 0.0029258931 0.4944526 0.19099157 0.8479616 0.0076524983
-0.075371653 0.057314277 0.0014804645 -0.77471721 0.58140928 0.24854903 0.043312598
-0.073700555 0.058315624 0.0017753051 -0.62665325 0.74559093 0.22671519 0.014953658
-0.071126252 0.059582796 0.0014986967 -0.38535121 0.91558045 0.11496478 0.0047089625
-0.066395685 0.059712507 0.0026281003 0.30197716 0.84552133 0.44034466 0.012830485
-0.064417802 0.059101738 0.0016639847 0.46386546 0.84825575 0.25552121 0.0074062557
-0.061880827 0.057571828 0.0014085958 0.47293553 0.85096294 0.22846036 0.0074634566
0.062030274 0.058245283 0.0012170521 -0.76307446 0.61302495 0.20473841 0.019131936
0.063433781 0.059440874 0.0021792289 -0.7375719 0.60620117 0.29750291 0.021200582
0.072010055 0.059625961 0.0029459645 0.3811675 0.11056262 0.91787106 0.012757033
-0.069670327 0.060280904 0.0015744067 -0.20166722 0.97644222 0.076752208 0.019596329
-0.067654721 0.060572244 0.0015114832 0.063461892 0.98174024 0.17932816 0.019925725
-0.065578006 0.060145508 0.00063852011 0.30423754 0.945005 0.12002137 0.017491721
0.06293454 0.060151327 0.00030375618 -0.7923798 0.55686092 0.24907856 0.014085933
0.064201586 0.06150426 0.0013341182 -0.84844154 0.45222434 0.27502754 0.024525046
0.072479218 0.061757375 0.0024148137 0.22836682 0.088887848 0.96950889 0.010362597
0.065105014 0.064311221 0.0011448032 -0.92462254 0.28458798 0.25314569 0.024647675
0.066411376 0.064997181 0.0026181261 -0.77285457 0.25672501 0.58033448 0.027232032
0.07180576 0.063747466 0.0029695104 0.15232518 0.020996811 0.98810738 0.0079617249
0.072624475 0.065071933 0.0026460923 0.14895152 0.030407673 0.9883768 0.010721437
0.065637171 0.067176722 0.00069881859 -0.96435636 0.23587401 0.11991801 0.023473525
0.066688046 0.067810088 0.0018157867 -0.85945743 0.29303518 0.4188835 0.035050634
0.069404051 0.068189502 0.0028832774 -0.20876399 0.055330832 0.97639954 0.013164788
0.073121905 0.067380436 0.0026502814 0.064670928 -0.078890361 0.99478334 0.0098603172
0.065873496 0.069417007 0.00051190204 -0.879875 0.27351892 0.38859668 0.049440309
0.066936247 0.070510104 0.0012489614 -0.93614656 0.22399761 0.27102515 0.027337356
0.069306903 0.070681781 0.0027639095 -0.47070333 -0.010278886 0.88223159 0.028618103
0.074273922 0.070225358 0.0026209638 0.2625708 -0.15761313 0.95195311 0.012436864
0.067382142 0.073576964 0.0011457772 -0.94319701 0.14667436 0.29810387 0.026152266
0.069218434 0.072826929 0.002771074 -0.53610951 -0.050177243 0.84265578 0.0093905879
0.076048508 0.074037716 0.0016467602 0.35738152 0.7516855 0.55429894 0.014036144
0.067810528 0.076181777 0.0012095808 -0.92241269 0.35015625 0.16292773 0.064936727
0.069872968 0.076699592 0.0020676516 -0.54431355 0.69786739 0.46551463 0.071080923
0.073440157 0.075749539 0.001549578 0.28005329 0.95680159 0.078108273 0.011548339
0.075376645 0.075154319 0.0012427162 0.30282432 0.95081937 0.06511452 0.01052852
-0.018185314 0.0029322654 0.0033217221 -0.21469437 -0.96055579 0.17674537 0.0088369586
-0.016151723 0.0026395128 0.0039292821 -0.19982775 -0.94541115 0.25742295 0.0051490334
-0.013356743 0.0023104181 0.0044580884 -0.16405503 -0.94009095 0.29885599 0.0031747911
-0.010571844 0.0018965551 0.0045211837 -0.14261545 -0.93341738 0.32923049 0.0030210996
-0.0076152189 0.0015691941 0.0046006199 -0.091564082 -0.93964094 0.32968313 0.0032283696
-0.0045653377 0.0012665921 0.0044695809 -0.058943804 -0.9341895 0.35187444 0.0034405857
-0.0015040289 0.0011249798 0.0044519966 -0.022613328 -0.93048376 0.36563444 0.0029966382
0.0015304695 0.0010787233 0.004352734 0.010671294 -0.92887121 0.37024915 0.0020772838
0.0044097099 0.0012033347 0.0044781747 0.041727219 -0.92541152 0.37665957 0.0017231544
0.0074914536 0.0014261325 0.0045111375 0.050934359 -0.92078537 0.38672978 0.0017273874
0.010221297 0.001573565 0.0045496863 0.07545837 -0.91697532 0.39174265 0.0018248977
0.013415296 0.0018614526 0.0044827769 0.10606022 -0.91831529 0.38137683 0.0036794315
0.016623013 0.0022648508 0.004564235 0.11307979 -0.90803099 0.40335172 0.0026490344
0.019463519 0.0025171153 0.0041702157 0.13848911 -0.91872483 0.36981809 0.0046573663
0.021858649 0.0028112112 0.0037105177 0.19853751 -0.93060082 0.30751422 0.003173206
-0.027457155 0.0057660798 0.0033990215 -0.28892991 -0.9416979 0.17240828 0.0091437744
-0.025316201 0.0054299682 0.0043352046 -0.27311069 -0.91295385 0.30319285 0.0033305958
-0.022497777 0.00461624 0.0045181112 -0.27181539 -0.91360313 0.30240008 0.0043294863
-0.01952547 0.0037159296 0.0045299055 -0.2717222 -0.91244644 0.30595526 0.0035642684
-0.016769171 0.0033431021 0.0052927346 -0.21548218 -0.91113418 0.35128608 0.0025639294
-0.014502253 0.0031155481 0.0058564832 -0.17587855 -0.88962924 0.42145765 0.00099232595
0.019998549 0.003360155 0.0057084751 0.16556773 -0.86510223 0.47348228 0.003465486
0.02241949 0.0034537271 0.0049713682 0.19536002 -0.89353156 0.40427199 0.0037053043
0.025115555 0.0039123748 0.0046519511 0.20974541 -0.90887487 0.36049038 0.0035092556
0.028162852 0.0046572383 0.0044518942 0.23839001 -0.90953517 0.34046435 0.0030873907
0.031651851 0.0055944212 0.0042716893 0.28858057 -0.89713627 0.33446658 0.0019152551
0.033283219 0.0059063528 0.0035746184 0.30385351 -0.93836772 0.16473946 0.0026894251
-0.036119055 0.0089743184 0.0035506457 -0.34541285 -0.93001068 0.12557903 0.030127121
-0.03412414 0.0084958235 0.0041407086 -0.35465062 -0.90286982 0.24299985 0.0069427695
-0.031480722 0.0076611089 0.0045176563 -0.31532142 -0.90643179 0.2809872 0.0052361814
-0.028674874 0.0066594277 0.0046278201 -0.34012651 -0.89674526 0.2831288 0.00630474
-0.02626708 0.0062166438 0.0055511785 -0.28607273 -0.89441776 0.34377202 0.0031328134
0.031910878 0.0062607112 0.005614182 0.27050629 -0.8337 0.48142555 0.0014472146
0.034598988 0.0066930205 0.0043099048 0.33212048 -0.89626288 0.2939539 0.0015846448
0.037401482 0.0079434663 0.0047921403 0.33263355 -0.84254164 0.42364904 0.0019892035
0.039646313 0.0087872539 0.0045679328 0.36050817 -0.83862782 0.4083347 0.0019995351
-0.042217653 0.011933872 0.0032371848 -0.44889146 -0.88419694 0.12919854 0.013553078
-0.040302552 0.011377487 0.0042647123 -0.4180195 -0.88337743 0.2119054 0.011649295
-0.037484713 0.010148658 0.004565808 -0.4215031 -0.87094849 0.25255463 0.0046788929
-0.035191111 0.0093251429 0.0051941243 -0.36800614 -0.87383169 0.31778863 0.0033252088
0.041022282 0.0096862288 0.0051724575 0.37842998 -0.82888281 0.41200006 0.0020958788
0.043307841 0.01032127 0.004090589 0.43708587 -0.8578651 0.27022842 0.0013068049
0.045691129 0.011607273 0.0042216061 0.42765588 -0.82395023 0.37177482 0.0014867266
-0.04580668 0.014494603 0.0041539138 -0.52444446 -0.83430547 0.16997744 0.014917366
-0.043600567 0.013242427 0.0045075207 -0.51163441 -0.81821203 0.26222003 0.0058170264
-0.041508641 0.012336333 0.0052413479 -0.43826962 -0.85241616 0.28514293 0.0071153208
0.046878494 0.012561522 0.0049444316 0.43573111 -0.80999815 0.39248109 0.0014101894
0.049333051 0.01391849 0.0047887014 0.48547128 -0.78177983 0.39132854 0.0018187951
0.051129974 0.014640681 0.0039248979 0.50906861 -0.79628271 0.32677671 0.0021033119
-0.05122754 0.017860053 0.0036615874 -0.61223245 -0.78861791 0.057037901 0.029892907
-0.049595438 0.017140463 0.0045062667 -0.54252481 -0.79561412 0.26956415 0.010326462
-0.047119662 0.015577657 0.0047613168 -0.55609858 -0.80182016 0.2187209 0.0097303875
0.052797936 0.016035069 0.0044666687 0.51396847 -0.76044697 0.39693442 0.0012237503
0.05514124 0.017477449 0.0040111914 0.56728601 -0.75822961 0.3213636 0.0020857172
-0.054493144 0.020606479 0.0042072507 -0.62103689 -0.76858896 0.15357135 0.019761411
-0.052809149 0.019485962 0.0042767366 -0.60437727 -0.78202403 0.15220584 0.0076217181
-0.050610676 0.018286012 0.0054824678 -0.54063147 -0.78657204 0.29836559 0.0056411093
0.055737559 0.018257137 0.0048274249 0.53460395 -0.73228508 0.42184973 0.0024209777
0.058186214 0.02005286 0.0044989525 0.60184997 -0.71000856 0.36560142 0.0020835323
-0.057568833 0.023337835 0.0043502133 -0.6545645 -0.74749583 0.11311575 0.0099071562
-0.055817347 0.02196666 0.0046745301 -0.64441097 -0.74592614 0.16831118 0.0069235116
-0.053977344 0.021053221 0.0059468704 -0.58519852 -0.74317467 0.32439819 0.0024309754
0.05976285 0.021116598 0.0038851805 0.6122334 -0.68588603 0.39335817 0.0037377132
0.060394473 0.022361472 0.0051158443 0.63639838 -0.66686952 0.38766262 0.0038401664
-0.060566392 0.02624668 0.0042613503 -0.72947526 -0.66476613 0.16109563 0.0081233615
-0.059139382 0.024868676 0.0044873771 -0.71174639 -0.68227911 0.16706939 0.0064118826
-0.063332379 0.029527957 0.0043808031 -0.77278954 -0.5942086 0.22296309 0.0072365589
-0.062156949 0.028255703 0.0045845434 -0.75128597 -0.63322031 0.1860141 0.0050559011
0.064943753 0.028100289 0.0058976971 0.66283017 -0.46113792 0.58992195 0.0019336554
-0.066025384 0.032873914 0.0037647402 -0.80761969 -0.54797876 0.21787539 0.012109132
-0.06459491 0.031385995 0.0042537348 -0.80050457 -0.5761385 0.16509652 0.0060691801
-0.0093078483 0.032855298 0.0058403434 0.19873816 0.89017195 0.40999642 0.0016354399
-0.0072267079 0.032727316 0.0054764124 0.16422886 0.90667349 0.38855121 0.00099512923
-0.0042675333 0.032546736 0.004876582 0.1308188 0.92135006 0.36606061 0.0012036305
-0.0015100399 0.032376673 0.0044628624 0.104431 0.93220532 0.34653634 0.0016370729
0.001545889 0.032125514 0.0045178537 0.051986504 0.94134629 0.33341336 0.0022010028
0.0047425386 0.031838831 0.0049548461 0.0023715131 0.92600441 0.37750524 0.0017935998
0.0075646862 0.03199207 0.0046778568 -0.032584332 0.93394881 0.35591826 0.0023411708
0.010558517 0.032236528 0.0045813164 -0.10875951 0.93761569 0.33022448 0.0023781832
0.013447065 0.03249912 0.0047458811 -0.14039831 0.9214493 0.36224231 0.0022261231
0.016289027 0.032701906 0.0054471488 -0.19362746 0.89786279 0.39541221 0.0014159632
0.018137604 0.032892317 0.0058450704 -0.21688253 0.86916798 0.44441974 0.0019107714
-0.066822566 0.034776695 0.0043278611 -0.83645129 -0.49720255 0.23051889 0.0064389934
-0.06572587 0.033407886 0.004950373 -0.82227767 -0.52173066 0.22728066 0.0064168437
-0.018729409 0.035718508 0.0054219011 0.29945704 0.89503908 0.33050039 0.0021000272
-0.016217275 0.035273891 0.0047313953 0.2779392 0.90288067 0.32795793 0.0015992637
-0.013462752 0.034542233 0.0045069689 0.25348249 0.90583539 0.33942455 0.0015821445
-0.010527882 0.033815049 0.0044485843 0.19849262 0.92175919 0.33310768 0.0015590575
-0.0077168057 0.03342339 0.0040649944 0.15653937 0.93119562 0.32919618 0.001586396
-0.0051383483 0.033233769 0.0034145943 0.13295357 0.93364859 0.33260146 0.0016273368
0.014125883 0.033109635 0.003477616 -0.13709007 0.94488543 0.29731774 0.0020074039
0.016649209 0.033383399 0.003979384 -0.18595243 0.92608637 0.32830733 0.0026756753
0.019523311 0.033899844 0.0044357413 -0.23454973 0.9140622 0.33087268 0.0022570938
0.022538066 0.034745168 0.0044276174 -0.26568708 0.90454876 0.3334696 0.0018412687
0.025356492 0.035441138 0.0046812124 -0.28391808 0.89928347 0.33268577 0.0020738393
0.027561102 0.035829943 0.0054239365 -0.29780662 0.88958031 0.34634969 0.0024391657
0.067937128 0.033112634 0.0058097867 0.76083708 -0.32653338 0.56080568 0.0012074105
-0.069259331 0.038642321 0.0036293562 -0.8355124 -0.42525169 0.3479656 0.0058994191
-0.068194926 0.037359066 0.0046480997 -0.84118456 -0.42265758 0.33729681 0.0055211363
-0.02748129 0.038879376 0.0057373778 0.36358735 0.86524886 0.34517896 0.0014923662
-0.025174372 0.038410202 0.0048153489 0.3712905 0.8711282 0.32137057 0.0014480706
-0.022269484 0.037337519 0.0045988532 0.33958969 0.880925 0.32962105 0.0016924007
-0.019645538 0.036531623 0.0041656978 0.29525584 0.9037323 0.30998689 0.0019050846
-0.017491031 0.036119681 0.0034925276 0.27423209 0.92205101 0.27316424 0.0025404766
0.026273811 0.036187537 0.0035006441 -0.27953324 0.91527992 0.29004115 0.0018489436
0.02862254 0.036656585 0.004296165 -0.30643052 0.89796978 0.31583327 0.0021624675
0.03152189 0.03762693 0.0044634012 -0.35784709 0.87671643 0.32142457 0.0023745878
0.033945676 0.038541578 0.0048328098 -0.4014256 0.85464674 0.32929698 0.0027115063
0.070200704 0.03767959 0.0047974507 0.76391006 -0.2099687 0.61020869 0.0016946689
-0.069807954 0.040583372 0.0043832366 -0.84630865 -0.33630717 0.41310918 0.0047581047
-0.068776183 0.039566409 0.0055877501 -0.8100428 -0.34265554 0.4758338 0.005365429
-0.033419613 0.041855413 0.0056159347 0.42760655 0.83878213 0.33704185 0.0019866722
-0.031362027 0.041153032 0.0048436569 0.42261839 0.84746557 0.32124111 0.0015597004
-0.028499465 0.039913617 0.0046451217 0.38047487 0.87192661 0.308193 0.0014718843
-0.026164498 0.039327018 0.0035893272 0.36289927 0.88664591 0.28664112 0.001870097
0.035145842 0.039423373 0.0040044622 -0.40697169 0.8581804 0.31289047 0.0020929545
0.037523642 0.040490255 0.0044596293 -0.45202953 0.8283217 0.33098713 0.0032242404
0.039734557 0.041611243 0.0049502105 -0.50439411 0.80340272 0.31643426 0.0027589181
-0.072151974 0.044830836 0.003072822 -0.90066206 -0.31045002 0.30402067 0.006885855
-0.070777535 0.04344682 0.0045235255 -0.84670722 -0.26355863 0.46219438 0.0040491656
-0.039465528 0.044789929 0.0056387857 0.43738189 0.81383407 0.3825849 0.0035409243
-0.03736816 0.044216551 0.0047413111 0.43374559 0.83487076 0.33890343 0.0014686356
-0.034640953 0.042955633 0.0044805519 0.42343509 0.84855711 0.31725958 0.0015269162
-0.03261888 0.042209402 0.0037976503 0.42040339 0.85835904 0.29407609 0.0026256028
0.04101821 0.042741962 0.0041581253 -0.49684373 0.80133408 0.33318168 0.0023429052
0.04352529 0.044115782 0.0047156508 -0.49583524 0.79418349 0.35131174 0.0029837061
0.045232899 0.044758666 0.0056917979 -0.46976727 0.78610349 0.40169647 0.0039423518
-0.072323442 0.046975143 0.0036358207 -0.84159058 -0.26604298 0.47004941 0.0034481101
-0.071346305 0.046262302 0.0049001328 -0.83063352 -0.21673486 0.51290727 0.0053923847
-0.045175623 0.047872018 0.0055266214 0.48922148 0.78045231 0.38930267 0.003301685
-0.043053195 0.047376573 0.0046177371 0.45703483 0.83026248 0.31903493 0.0021182608
-0.0406617 0.046128627 0.0044887438 0.45155495 0.83226717 0.32160467 0.0019299617
-0.038439587 0.045216739 0.0036617788 0.43716785 0.8446632 0.30891475 0.0016816761
0.044552512 0.0452746 0.0034319982 -0.50576097 0.80190587 0.31804544 0.0021775148
0.046436712 0.046151999 0.0043266234 -0.49550444 0.78969538 0.36174077 0.0031276692
0.048984356 0.047492009 0.0049561774 -0.49024552 0.77833563 0.39224094 0.0032827174
0.070555329 0.046861541 0.0058004553 0.65639383 0.11042429 0.74629331 0.0028744086
-0.072782561 0.049671292 0.0041327076 -0.8026669 -0.26430854 0.53466523 0.0075230142
-0.071520612 0.049294543 0.0055949558 -0.70447147 -0.13436541 0.69689733 0.0062982873
-0.051369939 0.050900981 0.0058734664 0.36051193 0.76295763 0.53658813 0.0021057862
-0.049059913 0.050467864 0.0048434688 0.42610258 0.82142723 0.37906978 0.0022840861
-0.046556804 0.0492949 0.0044843745 0.44008493 0.82000136 0.36595497 0.0020204559
-0.04424556 0.048425768 0.0036977879 0.45715818 0.83740455 0.29959986 0.0014297791
0.050047114 0.048623096 0.0040463316 -0.50845236 0.77656496 0.37205258 0.0029509927
0.052395795 0.049826901 0.0045772595 -0.47838053 0.77738845 0.40843514 0.0036895156
0.054565437 0.050635245 0.0055058412 -0.43654919 0.73790175 0.51470947 0.0040552639
0.070998929 0.049644418 0.0050148927 0.65093225 0.11474703 0.75041348 0.0025884083
-0.075187959 0.053957365 0.0032227135 -0.80415398 -0.13774128 0.57824194 0.021772657
-0.07333491 0.052721847 0.0044705612 -0.70408994 -0.14232261 0.69570225 0.0073383823
-0.07174065 0.052488107 0.005830544 -0.55565047 0.0033618871 0.83140922 0.006610659
-0.057825238 0.05374942 0.0056292759 0.2565518 0.79144579 0.55479258 0.0022071488
-0.055196397 0.053407144 0.0046684644 0.34190628 0.86950022 0.35646793 0.0023951125
-0.052509665 0.052356847 0.0045350268 0.36017051 0.83299118 0.42000353 0.0021976121
-0.050202489 0.051463231 0.0039314087 0.41345179 0.82647645 0.382092 0.0021958046
0.053693328 0.051242206 0.0034779108 -0.4761351 0.78588843 0.39455628 0.0022268412
0.055620406 0.051922351 0.0044354675 -0.46478036 0.76980942 0.43746167 0.0038769576
0.058181018 0.05316633 0.0048651909 -0.44519278 0.7434696 0.49905545 0.0054190652
0.060352232 0.053829532 0.0057133161 -0.39825317 0.67668235 0.61927003 0.0036496762
0.070391499 0.05302766 0.0055598817 0.43233424 0.2473961 0.86711144 0.0041979011
-0.075218104 0.055548489 0.0032585852 -0.84252077 0.05079411 0.53626364 0.028961742
-0.07376764 0.055722382 0.0045206547 -0.62511629 0.27761054 0.72949439 0.01183376
-0.071233109 0.055818699 0.0058008088 -0.3626537 0.18777716 0.91281003 0.011530373
-0.067147233 0.056694482 0.0057585812 0.027110515 0.51676106 0.85570031 0.0081656892
-0.064224467 0.056286428 0.0053264126 0.26994482 0.71227109 0.64791948 0.0076140133
-0.061476298 0.055694822 0.0046060053 0.31476387 0.78436524 0.53450435 0.0070309252
-0.05867485 0.054894906 0.0041829892 0.31239846 0.86243606 0.39826035 0.0034208894
-0.056284182 0.054263286 0.0036491351 0.33421221 0.85848486 0.38898081 0.0019881863
0.059141465 0.054521818 0.0038439864 -0.48734078 0.72902781 0.48064288 0.0040504127
0.06150984 0.055559643 0.0045367237 -0.44892064 0.67180282 0.58919549 0.00645199
0.0639835 0.056325324 0.0054272809 -0.36860108 0.58609068 0.72154766 0.0063769785
0.067360297 0.056750506 0.0058941762 -0.13757728 0.44649434 0.88414663 0.011489085
0.069924079 0.055891275 0.0053023589 0.29270238 0.27775884 0.91497284 0.010342069
-0.075092487 0.057270549 0.0030572414 -0.75262475 0.12834518 0.64582008 0.045439802
-0.073280983 0.057867367 0.0040373555 -0.58804947 0.56010449 0.5835073 0.01182729
-0.070607051 0.058667731 0.0045382269 -0.28846669 0.69998425 0.65330613 0.020205744
-0.067548931 0.058527134 0.004455219 0.19794677 0.71647215 0.66894293 0.010723487
-0.064759217 0.057825241 0.0039999792 0.35028425 0.71899736 0.60028642 0.0066647278
-0.062710255 0.057188965 0.0033637758 0.40178701 0.74269181 0.53570151 0.0090811327
0.062611192 0.057445243 0.0033821827 -0.56697357 0.61026555 0.55327821 0.0081368526
0.064483203 0.05842571 0.0041763587 -0.53260493 0.49734905 0.68481809 0.013595423
0.067036979 0.058704052 0.0051317783 -0.31238851 0.43827984 0.84280741 0.011071183
0.069854125 0.058273867 0.0047932202 0.16582763 0.34185764 0.9250052 0.0076339878
-0.069382392 0.060076106 0.0031773543 -0.13735068 0.86722487 0.47859767 0.027062729
-0.068578601 0.060150977 0.0031502 -0.033977084 0.93775088 0.34564275 0.027798355
0.065504879 0.06097658 0.003475714 -0.60561538 0.3621048 0.70859736 0.00896262
0.067006618 0.061709866 0.0039249896 -0.53372574 0.32923567 0.77893567 0.018641006
0.070138775 0.061606228 0.003873209 0.075168751 0.25366735 0.96436644 0.013492683
0.065719806 0.063036792 0.0030615863 -0.51319563 0.38076288 0.76918787 0.062257826
0.067627206 0.064407073 0.0033673358 -0.42751378 0.28575259 0.85765809 0.03265975
0.070469297 0.064501785 0.0033408664 0.047419306 0.10492294 0.99334913 0.012135141
0.068230875 0.066713631 0.0031263051 -0.27194765 0.13743386 0.95244759 0.024434648
0.070695408 0.067344144 0.0032250995 -0.2014806 0.06786032 0.977139 0.012301928
0.072370544 0.067849942 0.0031915377 0.019818183 -0.027716957 0.99941933 0.0099207461
0.070673101 0.070591442 0.003403191 -0.32182094 -0.098442666 0.94166893 0.013183408
0.072472997 0.070828088 0.003668369 -0.25194839 -0.10768978 0.96173018 0.011725661
0.068868287 0.074607752 0.0031048113 -0.56226546 0.0048812185 0.82694238 0.034033675
0.070436701 0.073607698 0.0038242505 -0.43618551 -0.070850171 0.89706331 0.014740434
0.073210374 0.073789716 0.0043132799 0.14967766 0.042971324 0.9878006 0.072111383
0.075544991 0.074427105 0.0032086943 0.27958623 0.82471365 0.49160865 0.020948904
0.068877503 0.076020017 0.0031550615 -0.61612189 0.4948099 0.61282694 0.081194617
0.070272669 0.075947031 0.0037952189 -0.41439596 0.36308464 0.8345331 0.043903954
0.072760954 0.075760536 0.0041965512 -0.16894253 0.38395792 0.90776366 0.029381644
0.075154319 0.075165525 0.0032743989 -0.38705263 0.68648052 -0.61557668 0.050590813
-0.012558411 0.0028784841 0.0062874132 -0.15837158 -0.88979346 0.42800248 0.0003092587
-0.010354129 0.0027056739 0.0064229802 -0.12483236 -0.8703239 0.47639608 0.0012113801
-0.0076235626 0.0025717635 0.0067999195 -0.083898045 -0.86823797 0.48900294 0.0015464257
-0.0044881646 0.0023851355 0.0068985689 -0.047310065 -0.86821765 0.49392298 0.0014625338
-0.0015363841 0.0023757173 0.0070693977 -0.015516007 -0.86359042 0.50395525 0.0018132402
0.0014919356 0.0023468803 0.0070110327 0.00084167678 -0.86449039 0.50264871 0.0018333818
0.0044648699 0.0023831476 0.0069155395 0.039853718 -0.86681211 0.49703977 0.0016644875
0.0074684601 0.002580404 0.006863696 0.064483017 -0.8631261 0.50085455 0.0012060637
0.010494856 0.0026089284 0.0065393881 0.084645718 -0.87138802 0.483237 0.0011148343
0.013228803 0.0028332931 0.0062724189 0.108341 -0.85795939 0.50216317 0.00087532034
0.015895162 0.002947374 0.0060492293 0.12752229 -0.85064155 0.51004606 0.0016220037
-0.024110653 0.0058717187 0.0062708394 -0.28076607 -0.85290408 0.44014212 0.0010008089
-0.022261336 0.0055410834 0.0068194689 -0.25822344 -0.85958475 0.44094759 0.00079172972
-0.019454744 0.005060561 0.0074281669 -0.22038397 -0.84656566 0.48451775 0.00097513077
-0.0165089 0.0043875664 0.0074991877 -0.18683733 -0.84850734 0.49510312 0.0013572638
